-38.216099 66.051567 -6.147231 6.00000000
-42.966125 62.203941 2.673858 6.00000000
-44.224125 61.045395 -13.484779 6.00000000
-38.961567 65.487564 -14.148121 6.00000000
-44.674736 60.619453 -56.544598 6.00000000
-35.525005 67.976219 -24.981926 6.00000000
-37.846180 66.331444 -5.401060 6.00000000
-34.856297 68.426804 -21.631823 6.00000000
-36.892365 67.053078 2.528172 6.00000000
-42.964241 62.205536 -57.514111 6.00000000
-45.132889 60.186386 -52.381920 6.00000000
-35.602383 67.924080 -2.069589 6.00000000
-34.208679 68.863174 -55.717331 6.00000000
-41.058529 63.818741 -21.269444 6.00000000
-40.145103 64.591965 -7.731079 6.00000000
-34.309383 68.795319 -54.117752 6.00000000
-44.462914 60.819679 0.477896 6.00000000
-37.043663 66.938606 -50.245712 6.00000000
-42.804901 62.340420 -56.155464 6.00000000
-45.098103 60.219269 0.343908 6.00000000
-44.436268 60.844868 -51.448833 6.00000000
-40.217537 64.530655 -17.591230 6.00000000
-42.454975 62.636635 -36.727001 6.00000000
-39.704952 64.925133 3.563691 6.00000000
-34.532787 68.644783 1.510159 6.00000000
-44.543156 60.743832 -4.374086 6.00000000
-41.677574 63.294712 -32.567142 6.00000000
-37.306339 66.739876 -54.501965 6.00000000
-41.735996 63.245262 -60.938194 6.00000000
-36.323586 67.438126 -35.248737 6.00000000
-40.042770 64.669540 -48.685715 6.00000000
-35.299648 68.128067 -40.666267 6.00000000
-43.743099 61.500080 -42.575584 6.00000000
-37.894424 66.294937 -26.531181 6.00000000
-43.402775 61.821770 -43.464729 6.00000000
-36.821766 67.102448 -56.202682 6.00000000
-46.167637 59.208294 2.116506 6.00000000
-44.687706 60.607193 -58.793163 6.00000000
-38.897930 65.535706 -5.678433 6.00000000
-37.103104 66.893639 -2.931039 6.00000000
-46.124546 59.249027 -61.079704 6.00000000
-37.866623 66.315971 -25.343634 6.00000000
-40.787132 64.048485 -47.759605 6.00000000
-34.978683 68.344337 -25.449457 6.00000000
-40.353920 64.415207 -25.114071 6.00000000
-41.027386 63.845108 -25.274040 6.00000000
-46.031502 59.336975 -31.272184 6.00000000
-34.007568 68.998688 -60.993847 6.00000000
-41.175026 63.720127 -38.168346 6.00000000
-33.520134 69.327118 -30.087996 6.00000000
-36.932785 67.022499 -13.018376 6.00000000
-39.580593 65.019218 -61.005630 6.00000000
-42.885151 62.272488 -26.602594 6.00000000
-35.083527 68.273689 -36.649155 6.00000000
-35.139256 68.236137 -6.087712 6.00000000
-43.182568 62.020718 -27.505926 6.00000000
-42.891270 62.267307 1.653492 6.00000000
-37.758259 66.397964 -19.182180 6.00000000
-42.597507 62.515980 -10.693498 6.00000000
-37.049759 66.933998 -49.329853 6.00000000
-40.585835 64.218887 -6.171714 6.00000000
-46.218788 59.159943 -56.142475 6.00000000
-39.200397 65.306870 -58.119892 6.00000000
-39.937012 64.749557 -55.989174 6.00000000
-37.028587 66.950012 -11.670157 6.00000000
-34.944145 68.367607 -2.265385 6.00000000
-44.584961 60.704311 -25.163927 6.00000000
-45.878227 59.481857 -59.756172 6.00000000
-43.116852 62.076347 -46.087215 6.00000000
-46.224060 59.154961 -15.162626 6.00000000
-37.918049 66.277069 -53.888317 6.00000000
-41.194305 63.703808 -41.081108 6.00000000
-39.508320 65.073898 -37.219776 6.00000000
-34.940651 68.369965 -43.135792 6.00000000
-43.268021 61.948383 -44.560108 6.00000000
-41.190472 63.707054 -47.076118 6.00000000
-40.496471 64.294533 -38.552631 6.00000000
-40.451454 64.332642 -10.980854 6.00000000
-37.709290 66.435005 -60.835606 6.00000000
-41.870548 63.131359 -24.745739 6.00000000
-35.726238 67.840622 -44.468861 6.00000000
-33.720394 69.192184 -49.100937 6.00000000
-37.996265 66.217888 -59.509624 6.00000000
-38.754166 65.644478 -56.364235 6.00000000
-38.891369 65.540672 -13.264221 6.00000000
-34.164551 68.892906 -59.416637 6.00000000
-42.326569 62.745335 -42.641850 6.00000000
-37.907207 66.285271 -36.037224 6.00000000
-43.406036 61.818687 -40.089893 6.00000000
-45.125175 60.193680 -9.288476 6.00000000
-36.491756 67.324814 -5.270086 6.00000000
-42.021397 63.003662 -40.721092 6.00000000
-46.214291 59.164196 -54.754089 6.00000000
-33.468678 69.361794 -8.908680 6.00000000
-33.558239 69.301445 -11.258913 6.00000000
-35.092926 68.267357 -54.585777 6.00000000
-34.559338 68.626892 -39.868111 6.00000000
-44.708477 60.587559 -59.660198 6.00000000
-43.928410 61.324917 -4.741237 6.00000000
-41.777016 63.210537 -52.736130 6.00000000
-46.183647 59.193157 -11.994656 6.00000000
-38.485371 65.847839 -1.520580 6.00000000
-42.926567 62.237427 -6.342640 6.00000000
-40.594452 64.211594 -1.282207 6.00000000
-42.065628 62.966225 -56.136963 6.00000000
-43.291180 61.927258 -10.548129 6.00000000
-36.617104 67.240356 -61.010571 6.00000000
-35.285797 68.137398 -22.463932 6.00000000
-44.565369 60.722832 -27.499104 6.00000000
-33.624996 69.256462 -45.399960 6.00000000
-44.155426 61.110329 -35.828297 6.00000000
-44.019772 61.238556 -5.641976 6.00000000
-45.290558 60.037350 -19.945332 6.00000000
-34.508289 68.661293 -19.573414 6.00000000
-37.396355 66.671768 -16.284523 6.00000000
-42.847046 62.304741 -52.115814 6.00000000
-35.300575 68.127441 -15.145187 6.00000000
-39.559170 65.035423 -25.717897 6.00000000
-37.523052 66.575912 -38.794147 6.00000000
-44.841312 60.461998 -45.451405 6.00000000
-42.383770 62.696911 -21.124630 6.00000000
-44.473499 60.809669 -50.296024 6.00000000
-35.982292 67.668098 -14.344583 6.00000000
-45.784023 59.570904 3.532482 6.00000000
-35.448524 68.027756 -57.945705 6.00000000
-44.187855 61.079678 -55.690037 6.00000000
-39.382923 65.168770 -43.562649 6.00000000
-43.594509 61.640533 -33.923157 6.00000000
-39.535587 65.053268 -31.587433 6.00000000
-35.233742 68.172478 -20.720604 6.00000000
-42.252579 62.807964 3.028159 6.00000000
-42.466042 62.627270 -40.077030 6.00000000
-33.508717 69.334816 -2.848417 6.00000000
-39.188305 65.316017 -30.180882 6.00000000
-43.593887 61.641121 -8.999998 6.00000000
-36.219269 67.508415 -50.461769 6.00000000
-35.933758 67.700798 -34.193462 6.00000000
-36.145332 67.558235 -8.455020 6.00000000
-36.358860 67.414360 -13.598805 6.00000000
-44.065704 61.195137 -23.506956 6.00000000
-35.058449 68.290588 -27.521618 6.00000000
-38.876472 65.551941 -37.140919 6.00000000
-38.252533 66.024002 -37.617195 6.00000000
-36.835747 67.093025 -17.400373 6.00000000
-46.072945 59.297802 -5.758467 6.00000000
-43.712326 61.529167 2.495697 6.00000000
-38.568790 65.784729 -21.970608 6.00000000
-36.368664 67.407753 -1.840966 6.00000000
-39.772106 64.874321 -32.765034 6.00000000
-37.722752 66.424828 -39.972260 6.00000000
-35.048668 68.297180 -33.689724 6.00000000
-39.228802 65.285378 -55.697697 6.00000000
-41.697899 63.277512 -43.153461 6.00000000
-35.208988 68.189156 -29.572435 6.00000000
-38.502205 65.835106 -30.534962 6.00000000
-33.561924 69.298965 3.721152 6.00000000
-40.016922 64.689102 -43.842575 6.00000000
-34.835472 68.440834 -60.997700 6.00000000
-46.193375 59.183964 -25.082924 6.00000000
-39.010235 65.450737 -42.100376 6.00000000
-34.293232 68.806198 -22.311899 6.00000000
-39.920296 64.762207 -4.293778 6.00000000
-38.605995 65.756577 -47.134323 6.00000000
-35.946880 67.691956 -16.902613 6.00000000
-36.972759 66.992256 -41.880051 6.00000000
-33.553059 69.304939 -1.502284 6.00000000
-41.933044 63.078457 -55.208134 6.00000000
-35.749760 67.824776 -51.215294 6.00000000
-38.938789 65.504791 -54.917862 6.00000000
60.623535 58.075390 -3.113264 7.00000000
69.386787 47.086571 -38.128471 7.00000000
64.869507 53.294640 -20.387999 7.00000000
60.748390 57.943298 -37.816086 7.00000000
68.324059 48.663841 -5.811086 7.00000000
62.506912 56.082874 -12.146254 7.00000000
62.539810 56.046688 -47.949066 7.00000000
68.279404 48.730091 -50.963947 7.00000000
64.425835 53.818745 -40.310932 7.00000000
66.242676 51.523304 -18.415970 7.00000000
62.405182 56.190498 -21.878725 7.00000000
62.739002 55.818840 -16.201027 7.00000000
66.694313 50.926361 -26.559914 7.00000000
59.890621 58.850777 -32.896126 7.00000000
62.186829 56.421509 -2.897352 7.00000000
65.613701 52.362579 -35.021431 7.00000000
68.281029 48.727695 -21.773937 7.00000000
64.738617 53.449253 -14.715283 7.00000000
61.291100 57.369144 -22.658957 7.00000000
69.519203 46.890053 3.226976 7.00000000
67.884598 49.316048 -39.005764 7.00000000
67.789566 49.457085 -26.058775 7.00000000
60.519978 58.184948 -56.940681 7.00000000
60.931110 57.749992 -52.363007 7.00000000
61.446472 57.204765 -31.890476 7.00000000
69.879997 46.354568 -24.316904 7.00000000
63.410435 55.018852 -9.794719 7.00000000
69.276169 47.250748 -12.406216 7.00000000
67.242332 50.202023 -44.988468 7.00000000
66.608383 51.039932 -32.886421 7.00000000
69.324615 47.178848 0.741964 7.00000000
64.416534 53.829727 -42.259377 7.00000000
66.667343 50.962002 -37.536900 7.00000000
62.379635 56.217529 -58.390259 7.00000000
63.098396 55.386837 -49.980106 7.00000000
68.097420 49.000202 -11.048544 7.00000000
59.874096 58.868259 -22.965355 7.00000000
62.242863 56.362225 -31.112581 7.00000000
69.474632 46.956196 -46.159187 7.00000000
64.894745 53.264828 -18.510511 7.00000000
65.556259 52.430573 -48.080353 7.00000000
69.317955 47.188725 -31.008198 7.00000000
61.966785 56.654301 -25.306746 7.00000000
67.825386 49.403927 -21.263834 7.00000000
66.404182 51.309830 -15.789848 7.00000000
61.642899 56.996956 -58.129498 7.00000000
64.410622 53.836712 -34.803543 7.00000000
66.462555 51.232681 -24.241707 7.00000000
59.754101 58.995205 -9.309832 7.00000000
64.498703 53.732666 -56.809837 7.00000000
68.227043 48.807831 2.342051 7.00000000
67.030151 50.482464 -35.501122 7.00000000
68.473778 48.441624 -17.457415 7.00000000
68.718803 48.077969 -7.906622 7.00000000
67.107231 50.380581 3.691868 7.00000000
61.073795 57.599037 -54.707256 7.00000000
65.208435 52.890301 -17.659082 7.00000000
64.072418 54.236229 -17.087675 7.00000000
69.339226 47.157154 -26.456980 7.00000000
63.228764 55.232834 -33.564560 7.00000000
59.713390 59.038277 -23.828360 7.00000000
67.400978 49.992329 -59.941875 7.00000000
60.116207 58.612114 -21.826448 7.00000000
68.736443 48.051788 -16.315472 7.00000000
65.995834 51.849564 -34.420574 7.00000000
68.683014 48.131065 -33.182129 7.00000000
62.573807 56.006531 -2.254215 7.00000000
62.049809 56.566467 -18.208269 7.00000000
61.651279 56.988087 -18.825661 7.00000000
64.685860 53.511578 0.542440 7.00000000
62.206486 56.400711 -15.537038 7.00000000
61.809433 56.820774 -28.340727 7.00000000
62.027508 56.590057 -47.578499 7.00000000
68.147179 48.926357 -7.385467 7.00000000
60.860359 57.824841 3.559872 7.00000000
66.936211 50.606632 -18.218370 7.00000000
64.271790 54.000717 -21.171518 7.00000000
65.264534 52.816143 -1.135949 7.00000000
68.156616 48.912350 0.868630 7.00000000
67.008133 50.511570 -20.783930 7.00000000
66.767471 50.829662 -16.553535 7.00000000
66.687599 50.935230 -18.963900 7.00000000
67.559303 49.783062 -24.109407 7.00000000
64.312500 53.952625 -33.999512 7.00000000
69.893272 46.334873 -46.751400 7.00000000
59.824642 58.920574 -6.934644 7.00000000
64.994339 53.147179 -6.044287 7.00000000
67.808464 49.429039 -44.927490 7.00000000
67.834938 49.389751 -19.673941 7.00000000
69.362724 47.122280 -56.761761 7.00000000
69.409348 47.053085 -39.932194 7.00000000
66.690460 50.931454 -54.187115 7.00000000
68.325272 48.662010 -59.769913 7.00000000
68.322006 48.666874 -13.327923 7.00000000
63.815731 54.539455 -61.086369 7.00000000
68.821320 47.925808 -18.066786 7.00000000
65.181702 52.925632 -42.371559 7.00000000
69.402451 47.063320 -30.201265 7.00000000
66.987648 50.538647 -53.442467 7.00000000
65.821732 52.084991 -27.645609 7.00000000
59.989006 58.746689 -34.701542 7.00000000
66.267242 51.490833 -19.370102 7.00000000
68.720680 48.075165 -51.386795 7.00000000
67.330330 50.085709 -51.456429 7.00000000
69.806183 46.464130 0.292863 7.00000000
60.680367 58.015266 -17.529415 7.00000000
60.429874 58.280270 -32.532303 7.00000000
61.791584 56.839657 -21.726887 7.00000000
68.292404 48.710800 -36.326527 7.00000000
64.703201 53.491096 -55.145519 7.00000000
64.289253 53.980083 -47.163193 7.00000000
60.458424 58.250072 -18.595243 7.00000000
63.503864 54.907860 -49.045334 7.00000000
61.434681 57.217239 -35.861118 7.00000000
62.724323 55.831322 -7.638410 7.00000000
60.866299 57.818558 -30.503042 7.00000000
69.933540 46.275105 -5.618309 7.00000000
60.384293 58.328499 -6.626656 7.00000000
64.794739 53.382961 -16.883030 7.00000000
59.709778 59.042099 -15.409654 7.00000000
63.761398 54.603638 -30.577190 7.00000000
65.785088 52.154102 -0.655084 7.00000000
69.860901 46.382919 -45.195629 7.00000000
63.756142 54.609844 -3.302424 7.00000000
63.246857 55.214626 -14.168719 7.00000000
60.030041 58.703278 -60.132179 7.00000000
68.053123 49.065918 -53.367329 7.00000000
59.831730 58.913078 -11.117403 7.00000000
63.691628 54.686058 -19.767370 7.00000000
64.647148 53.557308 -29.208874 7.00000000
67.617203 49.706535 -11.200144 7.00000000
62.897552 55.628670 -31.288862 7.00000000
62.006310 56.612488 -29.266203 7.00000000
60.596935 58.103531 -42.501064 7.00000000
63.832142 54.520065 -21.594994 7.00000000
64.074188 54.234142 -23.468866 7.00000000
59.927231 58.812042 -50.742786 7.00000000
67.615242 49.709126 3.311555 7.00000000
68.672729 48.146339 -30.758114 7.00000000
69.895966 46.330872 -55.253563 7.00000000
63.073807 55.423443 -15.501608 7.00000000
62.336838 56.262802 -40.560608 7.00000000
68.737900 48.049618 -22.012022 7.00000000
65.085281 53.039745 -43.809971 7.00000000
67.446541 49.932106 -22.926462 7.00000000
65.921822 51.947388 -52.075485 7.00000000
69.492867 46.929138 -22.147898 7.00000000
64.350182 53.908115 -38.612587 7.00000000
66.109802 51.698933 -37.970707 7.00000000
64.541321 53.682323 -13.793626 7.00000000
59.811245 58.934750 -0.418053 7.00000000
69.867645 46.372906 -1.588232 7.00000000
68.417610 48.524967 -49.696346 7.00000000
65.079292 53.046822 -60.912140 7.00000000
67.040016 50.469429 -34.465523 7.00000000
69.432274 47.019058 -35.754372 7.00000000
64.234467 54.044807 -45.202656 7.00000000
69.876373 46.359951 -37.211628 7.00000000
65.746483 52.200260 -18.402761 7.00000000
63.487614 54.927055 -17.389099 7.00000000
66.835052 50.740326 0.900351 7.00000000
68.090843 49.009953 -25.146181 7.00000000
66.800774 50.785641 -59.402527 7.00000000
65.636612 52.324360 -41.641468 7.00000000
69.214317 47.342537 -16.481897 7.00000000
68.935410 47.756481 -20.346800 7.00000000
63.091946 55.408798 -1.340918 7.00000000
60.067005 58.664169 -31.873999 7.00000000
68.002373 49.141266 -12.231779 7.00000000
64.607735 53.603867 1.416915 7.00000000
67.243698 50.200214 -33.610680 7.00000000
65.306259 52.765198 -52.019878 7.00000000
69.775024 46.510372 -31.701162 7.00000000
63.829510 54.523174 -12.124274 7.00000000
63.220436 55.253841 -0.175921 7.00000000
66.180382 51.605637 -45.053429 7.00000000
66.403465 51.310776 -27.221205 7.00000000
69.563850 46.823784 -8.669208 7.00000000
61.720913 56.914421 -8.955369 7.00000000
63.011311 55.489712 -58.465267 7.00000000
66.995934 50.527691 -2.810021 7.00000000
62.857899 55.685787 0.602945 7.00000000
64.994530 53.146946 -22.352285 7.00000000
68.090111 49.011044 -2.947679 7.00000000
66.153702 51.640900 -60.993809 7.00000000
66.840996 50.732479 -12.929560 7.00000000
59.788277 58.959049 -25.778740 7.00000000
64.656281 53.546520 -33.316620 7.00000000
66.097504 51.715176 -24.873943 7.00000000
69.665230 46.673321 -47.489792 7.00000000
63.730869 54.639702 -4.227880 7.00000000
64.993286 53.148418 -6.869870 7.00000000
69.128860 47.469364 -55.085335 7.00000000
64.884598 53.276810 -11.057185 7.00000000
63.447926 54.977333 -2.303753 7.00000000
64.662079 53.539669 -58.383751 7.00000000
66.770805 50.825256 -27.752026 7.00000000
62.575497 56.004536 -8.849521 7.00000000
65.962837 51.910259 -11.787209 7.00000000
69.476151 46.953938 -20.445351 7.00000000
67.939117 49.235126 -57.989105 7.00000000
62.755344 55.803238 -26.631699 7.00000000
68.422203 48.518173 -4.061854 7.00000000
62.222954 56.383289 -53.697334 7.00000000
60.181717 58.542812 2.067872 7.00000000
69.259750 47.275116 -3.436276 7.00000000
67.992096 49.156502 -43.691212 7.00000000
64.288116 53.981426 -2.972163 7.00000000
61.690609 56.946484 3.807927 7.00000000
60.522144 58.182655 -49.765419 7.00000000
64.950783 53.198627 -19.297016 7.00000000
67.481644 49.885715 -5.768060 7.00000000
62.754547 55.793018 -53.083271 7.00000000
61.609940 57.031826 -7.572652 7.00000000
60.852947 57.832684 -2.357637 7.00000000
63.845856 54.503868 -15.262664 7.00000000
65.367615 52.679977 -30.692135 7.00000000
61.130890 57.538635 -33.110226 7.00000000
64.701454 53.493156 -30.432720 7.00000000
59.873959 58.868404 -57.809116 7.00000000
65.982552 51.867119 -32.531956 7.00000000
66.538300 51.132568 -49.067848 7.00000000
66.439934 51.262581 -52.681988 7.00000000
65.270004 52.808918 1.963083 7.00000000
64.975525 53.169399 -35.705872 7.00000000
63.088726 55.410149 -6.270755 7.00000000
64.399841 53.849445 -6.274644 7.00000000
64.216370 54.066185 2.204571 7.00000000
60.784519 57.905079 0.175306 7.00000000
62.560883 56.021797 -29.246538 7.00000000
68.078629 49.028076 -33.385273 7.00000000
68.484146 48.426220 -55.433216 7.00000000
59.717785 59.033627 -41.400490 7.00000000
67.431091 49.952526 -44.212872 7.00000000
68.916679 47.784279 -39.507603 7.00000000
64.317368 53.946873 -36.134144 7.00000000
62.460995 56.131454 -51.797764 7.00000000
65.736420 52.192436 -54.313583 7.00000000
69.693169 46.631851 -39.238274 7.00000000
64.152290 54.141880 -43.518120 7.00000000
69.262672 47.270790 -0.869970 7.00000000
68.592247 48.265778 -61.117958 7.00000000
61.373917 57.281528 -24.595646 7.00000000
65.516869 52.498375 -29.337538 7.00000000
60.357616 58.356716 -11.349343 7.00000000
65.263023 52.818146 -5.149059 7.00000000
59.967789 58.769138 -24.934095 7.00000000
66.373741 51.350067 -60.027557 7.00000000
64.799301 53.377571 -45.361649 7.00000000
69.754341 46.541073 -10.553730 7.00000000
64.756165 53.428532 -52.107197 7.00000000
69.814156 46.452290 -18.159090 7.00000000
65.806450 52.123455 -13.703455 7.00000000
65.082329 53.043236 2.813464 7.00000000
60.920456 57.761261 -41.418915 7.00000000
69.375961 47.102642 -34.800415 7.00000000
63.133224 55.345695 -51.748081 7.00000000
66.838165 50.736221 -25.523579 7.00000000
64.141350 54.154800 -50.069180 7.00000000
65.282738 52.792084 -27.480658 7.00000000
64.611000 53.600010 -15.513196 7.00000000
59.943348 58.794991 -27.751371 7.00000000
61.010426 57.666080 -6.753248 7.00000000
66.372643 51.354343 -4.549469 7.00000000
62.659966 55.904758 -3.551174 7.00000000
67.472588 49.897682 -14.359902 7.00000000
65.219635 52.875492 -25.020681 7.00000000
68.469948 48.447308 -23.853909 7.00000000
67.652824 49.659458 -15.597750 7.00000000
62.897335 55.624348 -45.693333 7.00000000
68.621613 48.222198 -53.589485 7.00000000
63.598419 54.796162 -50.584141 7.00000000
59.903786 58.836845 -4.250122 7.00000000
65.873718 52.010971 -38.950581 7.00000000
60.946072 57.734165 -57.548424 7.00000000
64.842819 53.326160 -1.848259 7.00000000
64.137108 54.159809 -0.342074 7.00000000
66.999802 50.522587 -48.416069 7.00000000
64.932533 53.220188 -51.361477 7.00000000
65.300858 52.768127 -38.759953 7.00000000
65.288628 52.784298 -36.954582 7.00000000
68.766609 48.007019 0.095777 7.00000000
60.912773 57.769390 -25.521198 7.00000000
62.528637 56.059887 -4.937335 7.00000000
69.469360 46.964024 -36.611160 7.00000000
67.969269 49.190384 -22.432138 7.00000000
64.107094 54.195267 -57.418526 7.00000000
66.162453 51.629337 -53.924557 7.00000000
66.563530 51.099220 -40.959713 7.00000000
68.923721 47.773842 -13.059946 7.00000000
63.934566 54.399075 -33.234848 7.00000000
62.699337 55.865643 -37.088455 7.00000000
66.247391 51.531677 -0.805861 7.00000000
62.183552 56.424973 -8.129490 7.00000000
62.027840 56.589710 -45.394218 7.00000000
62.658226 55.911427 -44.807571 7.00000000
69.907089 46.314373 -26.880690 7.00000000
59.971409 58.765305 -54.033020 7.00000000
64.743088 53.443977 -27.118317 7.00000000
61.738857 56.895439 -4.573357 7.00000000
61.699802 56.936756 -32.837040 7.00000000
62.440002 56.153664 2.766578 7.00000000
62.943619 55.569672 -41.700970 7.00000000
64.830811 53.340355 -56.034950 7.00000000
61.566677 57.077595 -20.613659 7.00000000
68.224571 48.811478 -30.415949 7.00000000
62.202579 56.404842 0.481566 7.00000000
66.610489 51.037151 -46.682606 7.00000000
64.020004 54.298153 -45.983631 7.00000000
69.054489 47.579754 -44.691242 7.00000000
65.296600 52.774891 -54.922825 7.00000000
66.564209 51.098320 -17.597466 7.00000000
68.935028 47.757050 -23.586689 7.00000000
62.253372 56.351109 -54.721497 7.00000000
69.383255 47.091812 -19.233868 7.00000000
61.693153 56.943790 -48.966125 7.00000000
64.874146 53.289154 -60.007660 7.00000000
62.100033 56.513332 -49.910751 7.00000000
69.252457 47.285938 -10.683195 7.00000000
68.385590 48.572498 -27.538933 7.00000000
68.779564 47.987801 2.466176 7.00000000
62.346542 56.252537 1.608830 7.00000000
62.699333 55.864185 -39.914333 7.00000000
67.128548 50.352406 -1.972298 7.00000000
65.489151 52.527916 -23.450998 7.00000000
68.737778 48.049789 -31.742973 7.00000000
60.667267 58.029121 -23.920645 7.00000000
62.777390 55.771835 -35.758263 7.00000000
66.248299 51.515877 -35.266403 7.00000000
60.896530 57.786575 -31.395874 7.00000000
62.684673 55.875576 -0.224670 7.00000000
65.262314 52.819073 -28.299295 7.00000000
64.203300 54.081623 3.449976 7.00000000
62.018505 56.599586 -16.289347 7.00000000
62.094757 56.518913 -27.445986 7.00000000
60.641312 58.056583 -34.352901 7.00000000
68.828796 47.914707 -25.416321 7.00000000
60.221306 58.500927 -33.540913 7.00000000
59.800526 58.946091 -16.292877 7.00000000
69.861710 46.381721 -40.082123 7.00000000
69.147614 47.441540 -29.449299 7.00000000
63.745796 54.622070 -60.263130 7.00000000
69.842804 46.409779 -4.238670 7.00000000
65.329002 52.730930 -9.486406 7.00000000
68.390732 48.564857 -57.647213 7.00000000
60.260853 58.459087 -39.673111 7.00000000
67.734734 49.538460 -6.687870 7.00000000
65.991081 51.855846 -26.198420 7.00000000
69.927261 46.284428 -3.329339 7.00000000
69.576279 46.805344 -43.335926 7.00000000
65.006355 53.132980 -3.373776 7.00000000
62.328625 56.271496 -11.004854 7.00000000
66.474899 51.216358 -5.634832 7.00000000
62.865826 55.661568 -55.857155 7.00000000
64.363220 53.892708 -11.969862 7.00000000
62.418179 56.176750 -19.298538 7.00000000
69.942184 46.262276 -28.478785 7.00000000
63.130714 55.356071 -12.548838 7.00000000
67.320953 50.098099 -0.411011 7.00000000
63.633583 54.754623 -5.177088 7.00000000
69.202469 47.360142 -1.740324 7.00000000
64.956528 53.191841 -33.984436 7.00000000
63.369720 55.066322 -22.660913 7.00000000
64.292336 53.976452 -10.563911 7.00000000
69.936852 46.270191 -9.363473 7.00000000
65.967056 51.887604 -39.889458 7.00000000
65.461288 52.556061 -2.509907 7.00000000
59.750053 58.999485 3.712118 7.00000000
66.998688 50.524048 -6.222566 7.00000000
69.760612 46.531754 -33.735111 7.00000000
66.239731 51.538773 -3.589356 7.00000000
68.711273 48.089153 -0.801625 7.00000000
65.755035 52.188019 2.962883 7.00000000
67.661942 49.646488 -38.290504 7.00000000
63.180828 55.289455 -54.805656 7.00000000
66.425415 51.281765 -20.214787 7.00000000
61.041985 57.632690 -50.441315 7.00000000
65.660133 52.311993 -10.362699 7.00000000
65.732735 52.218067 -19.321871 7.00000000
62.129581 56.482071 -38.759777 7.00000000
63.648102 54.737473 -27.414806 7.00000000
64.844582 53.324085 -7.777218 7.00000000
61.481674 57.167522 -49.887901 7.00000000
67.240463 50.204491 -40.507488 7.00000000
60.347839 58.367062 -25.604668 7.00000000
63.944897 54.386871 -13.637916 7.00000000
64.194016 54.092587 -30.023216 7.00000000
63.956364 54.373329 -54.789616 7.00000000
64.723969 53.466564 -9.977813 7.00000000
60.658676 58.038212 -1.321102 7.00000000
63.741463 54.627186 -16.156487 7.00000000
69.134933 47.460361 -21.109200 7.00000000
63.174564 55.305244 -8.170471 7.00000000
61.003094 57.673836 -11.936569 7.00000000
60.761421 57.929512 -59.822361 7.00000000
69.238701 47.306355 -41.668003 7.00000000
61.395603 57.258579 -1.862469 7.00000000
64.178482 54.110943 -37.473068 7.00000000
69.936554 46.270634 -25.817722 7.00000000
66.055504 51.783600 -10.917165 7.00000000
67.871117 49.336056 -5.322030 7.00000000
68.352455 48.621670 -45.327572 7.00000000
62.546082 56.039280 -34.919743 7.00000000
62.343777 56.255463 -59.185764 7.00000000
63.243870 55.214989 -21.131886 7.00000000
64.802383 53.373932 -37.929466 7.00000000
65.835571 52.061386 -58.457661 7.00000000
64.910095 53.246693 -46.779430 7.00000000
61.129559 57.540043 -28.094755 7.00000000
68.685181 48.127861 -60.333626 7.00000000
61.502087 57.145927 -0.813688 7.00000000
67.182091 50.281643 1.511489 7.00000000
61.870487 56.756180 -22.542021 7.00000000
67.741371 49.528610 -16.388012 7.00000000
62.718189 55.835983 3.458563 7.00000000
67.857193 49.356716 -4.160605 7.00000000
63.563747 54.837124 -8.923752 7.00000000
67.340347 50.072468 -50.586433 7.00000000
67.275070 50.158745 -30.459246 7.00000000
67.374168 50.027767 -47.544800 7.00000000
62.229431 56.376434 -6.939621 7.00000000
60.436638 58.273121 -8.718425 7.00000000
61.525982 57.120647 -41.528530 7.00000000
60.242413 58.478596 -38.295128 7.00000000
63.929886 54.404606 -31.384064 7.00000000
66.717583 50.895596 -50.851620 7.00000000
64.507156 53.722683 -3.999927 7.00000000
61.183979 57.482468 1.484972 7.00000000
68.046501 49.075768 -8.349295 7.00000000
67.853050 49.362869 -0.187946 7.00000000
59.911419 58.828770 -26.845613 7.00000000
60.794872 57.894123 -58.941513 7.00000000
59.759346 58.989655 -37.639515 7.00000000
68.092232 49.007900 -15.140614 7.00000000
69.868782 46.371216 -35.980110 7.00000000
62.128845 56.482849 -24.415428 7.00000000
61.218739 57.445698 -3.093479 7.00000000
67.055542 50.448902 -4.117789 7.00000000
65.930763 51.943344 -20.710686 7.00000000
67.757896 49.504086 -36.716084 7.00000000
61.488609 57.160187 -17.300573 7.00000000
69.919899 46.295361 -60.966522 7.00000000
62.150024 56.460445 -44.247402 7.00000000
67.152962 50.320148 -15.296609 7.00000000
64.204208 54.080547 -2.137896 7.00000000
62.649796 55.922115 -38.095409 7.00000000
63.837303 54.513969 -38.938797 7.00000000
67.587090 49.746338 2.174150 7.00000000
65.077301 53.049171 -24.221292 7.00000000
64.470444 53.766048 -7.084154 7.00000000
68.608543 48.241608 -22.845345 7.00000000
62.798977 55.754780 -18.181061 7.00000000
63.749046 54.618229 -40.327724 7.00000000
68.837753 47.901417 -58.282185 7.00000000
64.121162 54.178654 -18.214277 7.00000000
63.636711 54.750927 -55.808964 7.00000000
68.905655 47.800644 -46.023403 7.00000000
66.416756 51.293221 -30.804199 7.00000000
64.472008 53.764202 -53.041824 7.00000000
68.848602 47.885319 -48.808212 7.00000000
63.061264 55.445053 -3.054146 7.00000000
66.350800 51.390636 0.400963 7.00000000
68.940254 47.749298 -9.977813 7.00000000
68.972038 47.702118 -40.291798 7.00000000
68.085670 49.017616 -40.435284 7.00000000
61.420372 57.232380 -40.678608 7.00000000
67.827904 49.400181 -49.837811 7.00000000
62.870213 55.661224 -32.338135 7.00000000
65.729210 52.229958 -12.690376 7.00000000
59.950314 58.787621 -8.187384 7.00000000
68.198685 48.849899 -18.531628 7.00000000
63.124310 55.356228 -61.031765 7.00000000
67.378983 50.021404 -10.262988 7.00000000
60.890789 57.792648 -5.135131 7.00000000
68.668144 48.153160 0.869371 7.00000000
64.505753 53.724335 -54.247734 7.00000000
69.947212 46.254814 -8.042652 7.00000000
62.028866 56.588623 -59.896503 7.00000000
60.476383 58.231068 -58.175373 7.00000000
63.037476 55.469654 -11.194926 7.00000000
68.786636 47.977280 -59.149731 7.00000000
67.996887 49.149395 -32.492023 7.00000000
68.696701 48.110756 -43.606701 7.00000000
61.399040 57.254948 -29.062080 7.00000000
67.447548 49.930782 -48.837868 7.00000000
69.185104 47.385891 -53.376743 7.00000000
62.787945 55.764492 -10.423249 7.00000000
67.355003 50.053093 -19.472424 7.00000000
63.551239 54.851894 -52.704468 7.00000000
64.589188 53.625774 -47.848625 7.00000000
69.400208 47.066650 -42.506237 7.00000000
67.368530 50.035213 -56.303856 7.00000000
61.412209 57.241013 -44.737743 7.00000000
62.273781 56.329514 -5.931696 7.00000000
67.248337 50.194088 -42.198105 7.00000000
67.005981 50.514416 -11.416381 7.00000000
62.004864 56.614014 -26.246258 7.00000000
68.279701 48.729641 -58.794693 7.00000000
69.111633 47.494942 -22.621490 7.00000000
67.530815 49.820717 -25.271120 7.00000000
65.753136 52.194824 -15.412954 7.00000000
59.750603 58.998905 -29.422432 7.00000000
64.238724 54.039776 -5.185049 7.00000000
68.493347 48.412579 -10.508360 7.00000000
60.779831 57.910038 -47.913410 7.00000000
67.024818 50.489510 -8.512385 7.00000000
62.063053 56.552456 -34.146160 7.00000000
66.950546 50.587681 -13.950718 7.00000000
68.297661 48.703018 -0.036640 7.00000000
68.466705 48.452114 -29.508898 7.00000000
67.788414 49.458782 -59.097691 7.00000000
66.544678 51.124138 -34.337864 7.00000000
67.639069 49.677643 -43.147762 7.00000000
69.492699 46.929386 -2.492079 7.00000000
67.242790 50.201412 -55.082771 7.00000000
63.320251 55.124760 -46.774220 7.00000000
63.256378 55.211998 3.052193 7.00000000
66.166725 51.623688 -42.757847 7.00000000
64.780075 53.400288 -39.261463 7.00000000
67.226479 50.222973 0.395685 7.00000000
65.579269 52.408188 -7.872037 7.00000000
60.203701 58.519554 1.215998 7.00000000
65.004684 53.134953 3.801281 7.00000000
68.210335 48.832626 -1.098056 7.00000000
69.926071 46.286201 -51.466984 7.00000000
63.969582 54.357712 -24.331108 7.00000000
67.753281 49.510937 -52.510876 7.00000000
66.778183 50.815502 -43.455357 7.00000000
65.500160 52.520798 -33.657604 7.00000000
61.597710 57.044762 -52.189606 7.00000000
59.882141 58.859745 -6.081104 7.00000000
68.130447 48.951191 3.743072 7.00000000
59.941257 58.797203 -19.591272 7.00000000
69.220116 47.333939 -15.406067 7.00000000
59.712177 59.039555 0.706556 7.00000000
60.528500 58.175930 -45.346291 7.00000000
64.092545 54.212456 -20.370916 7.00000000
60.626579 58.072166 -22.385473 7.00000000
69.916168 46.300888 -56.268471 7.00000000
68.350327 48.624851 -4.877762 7.00000000
64.881859 53.280052 -53.605404 7.00000000
66.333275 51.403545 -12.449867 7.00000000
59.899250 58.841644 -40.412327 7.00000000
61.332211 57.325649 -61.090111 7.00000000
64.614662 53.595688 -48.891460 7.00000000
60.393284 58.318981 2.944541 7.00000000
60.395142 58.317017 -7.525378 7.00000000
67.466415 49.905838 -17.927673 7.00000000
66.280060 51.473888 -45.920513 7.00000000
68.657928 48.168308 -46.932949 7.00000000
66.647285 50.988510 -29.110386 7.00000000
63.387859 55.044895 -56.949783 7.00000000
68.401978 48.548168 -47.979923 7.00000000
69.723267 46.587189 -41.331043 7.00000000
63.786098 54.574459 2.966105 7.00000000
66.517372 51.160217 -11.630792 7.00000000
69.842575 46.410110 -38.050133 7.00000000
59.844418 58.899654 -47.549141 7.00000000
63.270634 55.183372 -26.239248 7.00000000
65.998550 51.846073 -23.765551 7.00000000
62.988632 55.516499 -43.749744 7.00000000
67.124626 50.357590 2.699671 7.00000000
61.340916 57.316441 -39.798687 7.00000000
64.002266 54.319099 -58.730007 7.00000000
62.663639 55.903656 -28.144220 7.00000000
69.055115 47.578827 -50.365906 7.00000000
65.528664 52.468803 -6.920243 7.00000000
61.194088 57.471775 -53.346848 7.00000000
65.494301 52.516811 -43.332134 7.00000000
64.351318 53.906765 -16.246477 7.00000000
68.865593 47.860100 -38.328114 7.00000000
63.300766 55.147778 -42.847900 7.00000000
65.798798 52.109997 -53.176624 7.00000000
62.540447 56.045937 -20.918180 7.00000000
64.068268 54.241138 -32.302246 7.00000000
61.334332 57.323406 -56.778244 7.00000000
66.400414 51.314819 -44.010414 7.00000000
59.870792 58.871754 -49.861332 7.00000000
60.348259 58.366619 -28.738232 7.00000000
60.016003 58.718128 -46.551273 7.00000000
67.275841 50.157730 -26.471947 7.00000000
65.521721 52.487549 -22.081364 7.00000000
66.670288 50.958111 -42.432991 7.00000000
63.579342 54.818699 -54.101162 7.00000000
63.462864 54.956295 -45.859413 7.00000000
60.750633 57.940926 -38.973679 7.00000000
59.782070 58.965614 -42.734180 7.00000000
62.360275 56.238007 -9.832678 7.00000000
66.244827 51.520458 -48.172443 7.00000000
65.869797 52.041431 -9.457540 7.00000000
66.697296 50.922413 -30.023220 7.00000000
64.555298 53.665810 -17.693790 7.00000000
67.989014 49.161083 -34.820847 7.00000000
63.488094 54.926491 -59.038921 7.00000000
59.945435 58.792786 -17.061462 7.00000000
65.222847 52.871246 -8.610750 7.00000000
60.705811 57.988346 -12.703347 7.00000000
60.601360 58.098846 -13.888419 7.00000000
69.931740 46.277782 1.292686 7.00000000
67.293053 50.134983 -37.517757 7.00000000
64.084404 54.222076 -7.801735 7.00000000
63.567982 54.832119 -37.998035 7.00000000
61.732338 56.902336 -51.079975 7.00000000
64.687332 53.509838 -24.993977 7.00000000
67.430115 49.953819 -13.043610 7.00000000
63.035389 55.461266 -50.906399 7.00000000
63.389324 55.043163 -24.743620 7.00000000
68.843758 47.892502 -55.961243 7.00000000
66.947136 50.592194 -38.395767 7.00000000
67.627609 49.692780 -46.855339 7.00000000
59.719219 59.032104 -30.701357 7.00000000
65.395149 52.651585 -44.864719 7.00000000
63.016098 55.491142 -19.689636 7.00000000
68.458450 48.464355 -35.079105 7.00000000
61.325989 57.332230 -27.014702 7.00000000
64.115440 54.185413 -9.136335 7.00000000
69.472549 46.959286 -23.411964 7.00000000
66.426979 51.279701 -28.385471 7.00000000
68.272263 48.740707 -20.253876 7.00000000
66.786728 50.804207 -49.990685 7.00000000
60.037350 58.695541 -52.644646 7.00000000
67.259293 50.179600 -45.965961 7.00000000
68.470116 48.447048 -24.666422 7.00000000
61.451488 57.199459 -10.523091 7.00000000
64.115669 54.185143 -49.189236 7.00000000
67.688202 49.607517 -28.455797 7.00000000
61.637928 57.002216 -59.089035 7.00000000
69.815948 46.449631 -12.569914 7.00000000
68.195259 48.854984 -31.622234 7.00000000
63.408840 55.020107 -28.800930 7.00000000
62.796192 55.755913 -22.508299 7.00000000
60.750282 57.941296 -44.112080 7.00000000
66.789062 50.801113 -0.187997 7.00000000
60.569847 58.132191 -19.825012 7.00000000
64.241302 54.036732 -22.617636 7.00000000
63.538528 54.869591 1.453936 7.00000000
66.409485 51.302826 -58.265011 7.00000000
61.405743 57.247856 -43.570034 7.00000000
69.036537 47.606396 -36.278027 7.00000000
60.635155 58.063099 -29.564606 7.00000000
69.067802 47.559986 -24.459557 7.00000000
64.231758 54.048004 -39.497906 7.00000000
67.687187 49.609020 -33.883690 7.00000000
63.139767 55.349106 -4.822712 7.00000000
60.502251 58.203701 -16.319357 7.00000000
67.623703 49.697945 -7.967810 7.00000000
61.734425 56.900127 1.545046 7.00000000
67.769218 49.487282 -39.862019 7.00000000
68.125732 48.958153 -46.471912 7.00000000
67.510735 49.847260 -8.887434 7.00000000
69.936951 46.270050 -34.903252 7.00000000
63.507919 54.903065 -6.734353 7.00000000
67.765312 49.493080 -18.803061 7.00000000
67.428535 49.955906 -39.228058 7.00000000
66.363846 51.363152 -55.612232 7.00000000
69.036758 47.606068 -52.045010 7.00000000
68.917740 47.782707 -57.344933 7.00000000
64.819427 53.353794 -23.389250 7.00000000
66.449066 51.250511 -36.470798 7.00000000
65.805771 52.132568 -5.791857 7.00000000
62.655052 55.910564 -14.115584 7.00000000
65.189262 52.915646 -4.188753 7.00000000
64.156975 54.136349 -41.106827 7.00000000
62.120960 56.491192 -0.478385 7.00000000
66.555382 51.109982 -6.942606 7.00000000
69.172295 47.404903 -54.225628 7.00000000
65.572670 52.418152 -35.809662 7.00000000
69.220177 47.333839 -58.895081 7.00000000
64.030022 54.286312 -28.943485 7.00000000
63.302822 55.145348 -37.083939 7.00000000
62.138813 56.472305 -52.780838 7.00000000
66.129036 51.687859 -6.405096 7.00000000
61.139721 57.529293 -4.204366 7.00000000
62.676907 55.888016 -24.133249 7.00000000
60.286461 58.431995 -30.311188 7.00000000
63.124603 55.355877 -40.718864 7.00000000
69.706413 46.612202 -49.129486 7.00000000
67.880203 49.322575 -13.565626 7.00000000
61.387917 57.266712 -9.702698 7.00000000
69.251244 47.287739 -46.907383 7.00000000
69.394341 47.075356 -27.485043 7.00000000
64.989220 53.153225 -32.535755 7.00000000
60.457966 58.250553 -0.569659 7.00000000
65.732330 52.197845 -51.136967 7.00000000
59.770748 58.977592 -18.397839 7.00000000
61.090805 57.581043 -45.932507 7.00000000
60.056866 58.674896 -12.509457 7.00000000
67.134705 50.344276 -57.084538 7.00000000
60.673180 58.022869 -14.888565 7.00000000
65.277489 52.799019 -15.766186 7.00000000
65.617973 52.370010 -24.345217 7.00000000
68.304375 48.693024 -41.408463 7.00000000
61.272953 57.388340 -48.409466 7.00000000
60.026924 58.706570 -45.009396 7.00000000
60.447830 58.261276 -51.880222 7.00000000
62.481258 56.110016 -60.878090 7.00000000
67.634857 49.683201 -57.334782 7.00000000
62.170738 56.438526 -30.104870 7.00000000
64.496307 53.735497 -61.093590 7.00000000
67.153137 50.319912 -5.141744 7.00000000
62.613380 55.959789 -33.213425 7.00000000
64.554459 53.666805 -24.200102 7.00000000
69.708168 46.609596 -52.655048 7.00000000
63.212742 55.251762 -36.209805 7.00000000
64.803528 53.372574 -57.617451 7.00000000
67.086739 50.407677 -36.703568 7.00000000
68.416718 48.526306 -28.406015 7.00000000
65.869911 52.015995 -59.319889 7.00000000
69.892715 46.335705 -32.598663 7.00000000
60.043304 58.689240 -55.428890 7.00000000
59.783680 58.963913 -21.013332 7.00000000
61.416843 57.236111 -36.886860 7.00000000
62.258522 56.345657 -12.989765 7.00000000
67.311752 50.110260 -58.159672 7.00000000
69.421722 47.034718 -45.304996 7.00000000
61.132099 57.537354 2.523182 7.00000000
65.563698 52.439804 -26.585453 7.00000000
63.724083 54.647717 -1.219134 7.00000000
65.263992 52.820637 -52.988716 7.00000000
62.934528 55.591225 -17.121134 7.00000000
64.739960 53.447678 -37.061607 7.00000000
61.614056 57.027473 -11.705267 7.00000000
67.339233 50.073944 -17.106335 7.00000000
65.919785 51.963879 -16.380831 7.00000000
60.355145 58.359329 -41.196018 7.00000000
66.060326 51.764324 -47.021927 7.00000000
68.550102 48.328331 -42.273300 7.00000000
65.404541 52.633286 -49.154732 7.00000000
61.898342 56.726711 -39.745895 7.00000000
66.869751 50.694477 -23.685602 7.00000000
68.882149 47.835533 -27.039438 7.00000000
65.266724 52.813244 -41.013676 7.00000000
60.571632 58.130299 -53.777779 7.00000000
64.415031 53.831505 -1.079027 7.00000000
65.508270 52.504375 -37.861931 7.00000000
61.247517 57.415249 -26.155630 7.00000000
68.490631 48.416615 -2.253461 7.00000000
67.726410 49.550816 -54.175617 7.00000000
66.576057 51.082661 -40.115772 7.00000000
68.599373 48.255222 -9.415289 7.00000000
61.405918 57.247669 -37.904274 7.00000000
60.513054 58.192272 -26.819029 7.00000000
60.524590 58.180069 -21.069469 7.00000000
64.568985 53.649643 -31.855581 7.00000000
62.012531 56.605907 -1.524590 7.00000000
61.581165 57.062263 0.645993 7.00000000
68.302841 48.695301 -44.424652 7.00000000
66.568237 51.092991 -9.127996 7.00000000
61.112743 57.557831 -8.785290 7.00000000
60.957973 57.721569 -51.305756 7.00000000
65.869827 52.031319 -17.526186 7.00000000
66.080879 51.737156 -41.292130 7.00000000
62.655708 55.910980 -25.083992 7.00000000
67.914856 49.271130 -55.278076 7.00000000
64.742874 53.444229 -41.017605 7.00000000
69.503754 46.912975 -6.195532 7.00000000
69.883537 46.349319 -19.005304 7.00000000
61.593399 57.049324 -15.191170 7.00000000
65.753044 52.170467 -60.368797 7.00000000
66.861938 50.704800 -47.545681 7.00000000
68.573296 48.293934 -7.121378 7.00000000
69.178818 47.395237 -4.652676 7.00000000
69.315865 47.191830 -17.704487 7.00000000
67.354027 50.054386 -27.761362 7.00000000
69.852013 46.396107 -29.748383 7.00000000
66.792091 50.797119 -44.552032 7.00000000
68.365662 48.602081 -25.929522 7.00000000
67.208046 50.247337 -21.636234 7.00000000
63.062397 55.429981 -29.581041 7.00000000
64.426247 53.818260 -19.506088 7.00000000
63.564339 54.836418 -43.715782 7.00000000
69.267433 47.263706 -33.403332 7.00000000
66.242706 51.528801 -8.293592 7.00000000
69.810188 46.458176 -48.281799 7.00000000
66.437790 51.265408 -23.155201 7.00000000
69.294388 47.223705 -59.894169 7.00000000
66.303841 51.442459 -22.087980 7.00000000
68.958122 47.722775 -37.458710 7.00000000
63.293034 55.156914 -39.239723 7.00000000
64.494812 53.737259 -44.482529 7.00000000
60.875320 57.809013 -10.764222 7.00000000
65.392059 52.647579 -11.399696 7.00000000
66.305305 51.440514 -14.744682 7.00000000
60.743599 57.948368 -36.273460 7.00000000
64.797432 53.379780 -12.988309 7.00000000
61.392998 57.261341 -16.050972 7.00000000
69.915192 46.302341 -0.643679 7.00000000
62.173901 56.435184 -20.318594 7.00000000
59.828449 58.916550 -56.620728 7.00000000
62.892746 55.629768 -59.983444 7.00000000
66.750961 50.851486 -56.198242 7.00000000
59.721451 59.029751 -39.594997 7.00000000
63.823460 54.530323 -25.472399 7.00000000
59.732029 59.018559 -10.096237 7.00000000
63.434166 54.995468 0.556498 7.00000000
69.872231 46.366108 -19.995956 7.00000000
63.869064 54.476452 -6.041669 7.00000000
69.027916 47.619205 3.390007 7.00000000
61.522839 57.123974 -5.649992 7.00000000
67.720795 49.559151 -41.050644 7.00000000
60.514816 58.190407 -24.759535 7.00000000
69.325050 47.178192 -49.630619 7.00000000
62.128147 56.483589 -14.415349 7.00000000
64.813667 53.360603 -50.509003 7.00000000
69.807701 46.461868 -54.056026 7.00000000
65.681786 52.288609 -14.498650 7.00000000
62.327396 56.272793 -43.130512 7.00000000
68.801582 47.955101 -28.869377 7.00000000
65.683113 52.279881 -4.070258 7.00000000
64.315231 53.949398 -60.219265 7.00000000
62.114605 56.497917 -42.215172 7.00000000
61.582436 57.060925 -42.604668 7.00000000
65.927155 51.947285 -21.537899 7.00000000
64.958214 53.189850 -12.192563 7.00000000
67.539886 49.808727 -53.328426 7.00000000
61.337055 57.320522 -23.622501 7.00000000
65.391273 52.657806 -40.170986 7.00000000
63.168304 55.304802 -23.708593 7.00000000
62.623798 55.950237 -50.363411 7.00000000
65.351791 52.700821 -58.772747 7.00000000
68.891304 47.821945 -13.984946 7.00000000
68.594696 48.262157 -14.687594 7.00000000
67.085052 50.409901 -31.226681 7.00000000
61.391464 57.262962 -60.093384 7.00000000
67.838249 49.384830 -48.229706 7.00000000
66.901505 50.652508 -39.263378 7.00000000
65.186287 52.919571 -14.053289 7.00000000
65.619736 52.346668 -57.550247 7.00000000
65.099136 53.023380 -56.856510 7.00000000
67.168594 50.299484 -52.487942 7.00000000
68.962730 47.715931 -42.796597 7.00000000
61.256630 57.405609 -12.885512 7.00000000
69.153992 47.432068 -43.795170 7.00000000
68.890991 47.822414 -11.182202 7.00000000
68.042488 49.081718 -23.571693 7.00000000
68.305283 48.691677 -39.461803 7.00000000
66.790154 50.799683 -22.158161 7.00000000
65.730194 52.221241 -1.655968 7.00000000
63.829521 54.523163 -42.008591 7.00000000
65.361900 52.687443 1.013665 7.00000000
68.557861 48.316837 -12.426515 7.00000000
62.742321 55.812603 -39.027763 7.00000000
61.879311 56.746841 -3.624878 7.00000000
62.422848 56.171810 -46.878574 7.00000000
60.088146 58.641804 -14.738639 7.00000000
66.222954 51.564140 -1.791743 7.00000000
65.531944 52.473873 -20.175184 7.00000000
69.702499 46.618011 -7.307155 7.00000000
68.526649 48.363136 -34.026188 7.00000000
61.874443 56.751995 2.539239 7.00000000
69.783852 46.497269 -57.186447 7.00000000
59.851017 58.892673 -1.554321 7.00000000
64.985985 53.157043 -34.845894 7.00000000
67.462227 49.911377 -12.098572 7.00000000
61.712254 56.923584 -46.303204 7.00000000
60.347031 58.367916 -9.761186 7.00000000
68.085808 49.017414 -51.812191 7.00000000
69.527626 46.877548 -25.103088 7.00000000
60.392555 58.319752 -36.940800 7.00000000
65.416893 52.619106 -46.864704 7.00000000
69.924797 46.288090 -58.812996 7.00000000
66.046417 51.800625 -7.310330 7.00000000
68.447815 48.480145 -52.378696 7.00000000
69.774078 46.511772 -30.702190 7.00000000
61.881279 56.744762 -35.283638 7.00000000
66.642273 50.995132 -1.378391 7.00000000
60.369076 58.344593 -31.105799 7.00000000
60.193008 58.530865 -5.267258 7.00000000
66.059334 51.788616 -2.666011 7.00000000
64.071869 54.236881 -53.695477 7.00000000
65.395142 52.643501 -21.304024 7.00000000
65.946930 51.914204 -31.177992 7.00000000
66.099701 51.712273 -29.278288 7.00000000
68.050201 49.070263 -47.310337 7.00000000
69.531288 46.872116 -58.290012 7.00000000
65.914101 51.957596 -44.129925 7.00000000
59.749630 58.999935 -44.107544 7.00000000
64.085686 54.220554 1.044334 7.00000000
69.093964 47.521179 -6.993934 7.00000000
59.823898 58.921364 -36.745701 7.00000000
67.911278 49.276440 -56.515347 7.00000000
66.622200 51.021664 -10.563740 7.00000000
66.453400 51.244781 -38.623371 7.00000000
61.709251 56.926758 -13.820169 7.00000000
67.253952 50.186665 -6.953353 7.00000000
65.944969 51.916790 -30.282616 7.00000000
67.694321 49.598431 -31.712004 7.00000000
63.232891 55.229134 -18.823639 7.00000000
61.527878 57.118645 -33.792217 7.00000000
65.478394 52.533482 -55.852558 7.00000000
61.906052 56.718555 -57.211334 7.00000000
67.973312 49.184395 -2.037671 7.00000000
68.038025 49.088348 -14.336612 7.00000000
69.498375 46.920956 -28.944918 7.00000000
67.660789 49.648201 -1.268650 7.00000000
60.726677 57.966270 -6.005328 7.00000000
65.691383 52.251972 -56.586201 7.00000000
60.780098 57.909756 -35.305889 7.00000000
65.263062 52.818092 -0.168133 7.00000000
60.646969 58.050598 -40.393555 7.00000000
63.117485 55.364285 -30.426132 7.00000000
61.164524 57.503052 -21.403004 7.00000000
66.489342 51.201714 2.055432 7.00000000
66.015671 51.823349 -49.175800 7.00000000
69.130348 47.467178 -5.498097 7.00000000
67.511879 49.845749 -20.576843 7.00000000
63.166397 55.320396 2.019956 7.00000000
63.438072 54.985580 -32.120136 7.00000000
66.014458 51.824947 -33.518951 7.00000000
69.276291 47.250561 -48.087238 7.00000000
64.837463 53.332493 -21.321947 7.00000000
60.432095 58.277924 -54.747196 7.00000000
65.371742 52.675694 -31.734644 7.00000000
61.333408 57.324379 -34.642326 7.00000000
69.942741 46.261459 -16.107941 7.00000000
69.367805 47.114746 -14.478115 7.00000000
68.281601 48.726841 -16.429819 7.00000000
65.805374 52.132458 -4.919771 7.00000000
67.611771 49.713718 1.066186 7.00000000
66.376358 51.346611 -57.205738 7.00000000
64.173012 54.117401 -51.810246 7.00000000
64.163559 54.128567 -55.679684 7.00000000
66.453987 51.252579 3.765720 7.00000000
61.050056 57.624153 -19.100544 7.00000000
60.055573 58.676266 -35.943943 7.00000000
67.557999 49.784794 -32.922478 7.00000000
69.293289 47.225342 -9.380255 7.00000000
67.552292 49.792336 -2.746690 7.00000000
69.254814 47.282433 -32.269966 7.00000000
63.582317 54.815186 -13.027344 7.00000000
62.562576 56.021126 -56.614120 7.00000000
67.626625 49.694084 -29.844339 7.00000000
66.234863 51.537437 -10.034146 7.00000000
62.793629 55.746853 -54.204025 7.00000000
68.547813 48.331722 -40.750504 7.00000000
68.480873 48.431084 -37.907276 7.00000000
62.931263 55.584267 -57.408726 7.00000000
69.794525 46.481426 -17.094200 7.00000000
69.896454 46.330154 -13.518265 7.00000000
63.421551 55.005096 -47.663952 7.00000000
59.852585 58.891014 -51.659210 7.00000000
65.776581 52.139366 -55.123432 7.00000000
60.697002 57.997665 -55.520805 7.00000000
62.857525 55.686440 -13.262016 7.00000000
61.645206 56.994518 -54.366253 7.00000000
67.832260 49.393726 -42.131165 7.00000000
69.055550 47.578194 1.681867 7.00000000
66.709198 50.906681 -55.044125 7.00000000
66.900459 50.653881 -7.667353 7.00000000
61.795120 56.835915 -55.843544 7.00000000
67.939255 49.234940 -9.591389 7.00000000
67.455765 49.919910 -36.025669 7.00000000
60.019119 58.714828 -48.313175 7.00000000
62.393021 56.203365 -49.084984 7.00000000
61.484684 57.164341 -47.174789 7.00000000
68.945351 47.741745 -2.558099 7.00000000
69.924416 46.288658 -44.085720 7.00000000
66.401543 51.313328 -31.860565 7.00000000
62.894985 55.627125 -47.359150 7.00000000
68.564629 48.306778 -54.498726 7.00000000
64.468246 53.768646 -25.846962 7.00000000
63.832386 54.519779 -44.462711 7.00000000
69.802490 46.469608 -11.506744 7.00000000
64.734688 53.453899 -43.009853 7.00000000
67.870590 49.336823 -60.271660 7.00000000
64.728706 53.460964 -9.107072 7.00000000
62.433231 56.160828 -23.344805 7.00000000
62.173355 56.435760 -17.301027 7.00000000
65.805893 52.128242 0.338789 7.00000000
64.305588 53.960793 -50.942715 7.00000000
64.069595 54.239567 -48.252327 7.00000000
67.996620 49.149796 -29.180298 7.00000000
66.358711 51.369930 -51.526615 7.00000000
60.754963 57.936344 -46.861397 7.00000000
61.058044 57.615704 -49.258671 7.00000000
62.192722 56.415272 -32.429264 7.00000000
63.598850 54.795654 -41.195343 7.00000000
