62.394154 36.173351 -0.174331 14.00000000
60.315800 30.209175 -38.466366 14.00000000
50.838467 18.103151 -51.987808 14.00000000
49.472988 17.109579 -21.937567 14.00000000
63.322914 44.658192 -45.435604 14.00000000
39.523922 12.456343 -20.673601 14.00000000
63.250130 46.263920 -2.311418 14.00000000
53.136868 20.105333 -60.997532 14.00000000
34.945374 11.576615 -28.255356 14.00000000
34.609898 11.512157 -48.936001 14.00000000
48.992550 16.759996 -12.704418 14.00000000
61.064472 55.997303 -12.271892 14.00000000
40.453896 12.635029 -41.298420 14.00000000
62.132912 52.756351 -1.802382 14.00000000
53.530170 20.510872 -54.176212 14.00000000
39.240196 12.401828 -30.612869 14.00000000
39.889900 12.526662 3.651524 14.00000000
61.954704 34.488094 -11.338601 14.00000000
45.297264 14.581213 -44.466305 14.00000000
34.859959 11.560204 -35.158653 14.00000000
54.894272 21.917408 -3.584139 14.00000000
60.344322 30.271908 -52.338764 14.00000000
44.010406 13.947888 -38.837219 14.00000000
48.659756 16.517843 0.820942 14.00000000
62.733311 50.205654 1.700489 14.00000000
63.325459 43.615246 -9.125976 14.00000000
60.815651 31.308487 -46.697628 14.00000000
62.322395 52.043938 -51.707916 14.00000000
58.178440 26.252951 -48.490845 14.00000000
59.303009 28.184305 -36.475269 14.00000000
61.546940 54.658039 -1.508544 14.00000000
63.325302 43.678596 -18.132891 14.00000000
63.327660 42.711464 -53.637180 14.00000000
62.455181 36.407383 -28.991779 14.00000000
61.644711 54.386635 -47.702538 14.00000000
45.687080 14.773060 -16.006689 14.00000000
55.771072 22.969730 -15.854200 14.00000000
50.094948 17.562141 -56.508545 14.00000000
39.344963 12.421957 -1.708826 14.00000000
63.093853 39.833641 -33.188538 14.00000000
61.839806 34.109516 -51.176636 14.00000000
63.203587 41.146236 -36.877228 14.00000000
53.251186 20.223209 -59.204361 14.00000000
63.181568 40.882866 -45.339008 14.00000000
63.317875 45.498459 -7.054769 14.00000000
63.327545 42.757881 -1.608251 14.00000000
43.295742 13.632333 -24.814028 14.00000000
52.801701 19.798452 -7.101119 14.00000000
63.320644 45.467167 -19.027449 14.00000000
50.218212 17.651833 -53.591946 14.00000000
54.847668 21.869352 1.631886 14.00000000
56.609531 23.997581 -12.182906 14.00000000
47.382236 15.740586 -8.266292 14.00000000
57.946938 25.913408 -17.342388 14.00000000
62.154526 52.675087 3.850621 14.00000000
63.325684 43.521294 -6.419573 14.00000000
63.323536 44.403187 -47.333832 14.00000000
60.553383 30.731686 -7.124040 14.00000000
35.443020 11.672234 -45.054184 14.00000000
63.100315 47.956707 -61.010960 14.00000000
51.607708 18.762060 -36.181858 14.00000000
47.727718 15.949181 -40.343842 14.00000000
63.243443 41.623001 -9.565051 14.00000000
61.800957 53.952919 -40.389790 14.00000000
59.461353 28.465675 -28.424997 14.00000000
50.701817 18.003719 -20.920830 14.00000000
56.495625 23.857946 -18.657276 14.00000000
39.973400 12.542706 -55.248188 14.00000000
57.119804 24.700268 3.483156 14.00000000
55.321762 22.418926 -25.603849 14.00000000
62.685951 50.474880 -12.320635 14.00000000
42.901474 13.478716 -54.579300 14.00000000
44.060356 13.972470 -16.520695 14.00000000
62.216194 35.490891 -55.243687 14.00000000
61.666168 54.327068 -36.747562 14.00000000
43.112640 13.560992 -40.182442 14.00000000
63.325512 43.592716 -11.350095 14.00000000
61.511559 33.184227 -9.907555 14.00000000
61.348232 55.209625 -14.320366 14.00000000
61.497387 54.795589 0.597917 14.00000000
63.322289 44.916229 -53.806385 14.00000000
62.142784 52.719234 -12.817841 14.00000000
60.865688 56.532101 -20.757872 14.00000000
63.306431 42.376446 -12.982806 14.00000000
49.710777 17.282602 -60.774212 14.00000000
59.630722 28.766636 -13.987840 14.00000000
59.006035 27.656601 -5.043814 14.00000000
49.637691 17.229424 3.850673 14.00000000
58.409275 26.596193 -39.461029 14.00000000
61.293365 55.361919 -26.490192 14.00000000
51.513565 18.680346 -56.526703 14.00000000
50.955078 18.195576 -31.719501 14.00000000
60.008038 58.394196 -5.066598 14.00000000
62.274548 52.223831 -42.440811 14.00000000
54.557930 21.570601 -60.955219 14.00000000
54.159184 21.159454 -30.027615 14.00000000
59.738522 58.979351 -52.089409 14.00000000
58.660027 27.041759 -27.080847 14.00000000
38.686798 12.295497 -27.607122 14.00000000
63.189770 46.945942 3.006862 14.00000000
40.884552 12.717776 -22.976757 14.00000000
62.881756 38.581059 -14.183530 14.00000000
62.350864 51.936890 -44.267414 14.00000000
54.963863 21.989162 -35.012886 14.00000000
42.339691 13.259832 -52.743931 14.00000000
40.562466 12.655890 -18.997719 14.00000000
53.060795 20.026894 -13.599610 14.00000000
55.414009 22.532013 -7.409972 14.00000000
59.768375 29.011236 -50.013077 14.00000000
61.474743 54.858448 -28.460892 14.00000000
62.638702 37.158585 -15.333005 14.00000000
52.268974 19.336042 -32.718472 14.00000000
49.796417 17.344917 -45.109337 14.00000000
45.116173 14.492088 -12.098925 14.00000000
63.327763 42.669361 -41.433678 14.00000000
34.517597 11.494422 -40.120853 14.00000000
41.802879 13.050676 -39.223980 14.00000000
60.687511 31.026674 -17.451893 14.00000000
39.099651 12.374823 -4.291220 14.00000000
62.781174 37.992401 -9.400349 14.00000000
56.443508 23.794058 -23.814058 14.00000000
55.974964 23.219675 -35.790771 14.00000000
38.006824 12.164846 -59.115894 14.00000000
56.940372 24.437098 -10.576297 14.00000000
45.996998 14.925585 -25.356447 14.00000000
61.172455 55.697556 -10.279181 14.00000000
59.488831 28.514498 -9.069385 14.00000000
61.128586 55.819332 -16.825335 14.00000000
61.314522 55.303192 -51.468380 14.00000000
53.692219 20.677961 -19.503639 14.00000000
38.213242 12.204508 -29.219662 14.00000000
62.826401 38.257095 -5.743690 14.00000000
46.906185 15.453156 -36.181499 14.00000000
49.387070 17.047064 -33.315643 14.00000000
51.293335 18.489185 -22.555944 14.00000000
55.583572 22.739878 -14.170298 14.00000000
63.321526 45.228912 -4.408089 14.00000000
46.969910 15.491632 -38.325089 14.00000000
63.097454 39.876686 -15.963872 14.00000000
43.949181 13.917756 -34.689266 14.00000000
61.394333 32.853783 -22.090050 14.00000000
61.406937 32.889305 -43.041473 14.00000000
47.435707 15.772872 -26.161995 14.00000000
61.457886 33.032925 -32.936394 14.00000000
54.953812 21.978800 -41.961468 14.00000000
42.125019 13.176190 -13.319577 14.00000000
62.405422 36.216568 -51.212761 14.00000000
55.173355 22.236998 3.857195 14.00000000
40.647736 12.672274 -2.842079 14.00000000
59.982491 29.476131 -33.067753 14.00000000
34.513683 11.493671 -46.400578 14.00000000
41.248875 12.834823 -53.850918 14.00000000
46.032825 14.943218 -47.576992 14.00000000
37.465382 12.060813 -43.195473 14.00000000
62.794319 49.858791 -32.609310 14.00000000
55.981445 23.227621 -28.384905 14.00000000
48.494022 16.411860 -58.835556 14.00000000
60.176083 58.029339 -45.144802 14.00000000
61.589531 33.404018 -3.584433 14.00000000
62.611504 50.898155 -24.747490 14.00000000
62.599873 50.964264 -45.696335 14.00000000
43.979324 13.932591 -26.259464 14.00000000
63.184093 47.010078 -35.832153 14.00000000
48.347321 16.323284 2.661112 14.00000000
54.376141 21.383158 -58.062092 14.00000000
54.328945 21.334494 -36.570400 14.00000000
63.322052 45.012192 -41.900528 14.00000000
35.259136 11.636902 -1.106833 14.00000000
39.831341 12.515411 -50.113117 14.00000000
61.669697 33.630001 -18.468140 14.00000000
61.307735 32.609673 -36.016125 14.00000000
40.942307 12.728873 -7.341729 14.00000000
40.964474 12.733132 -60.860481 14.00000000
62.760826 37.873325 1.293814 14.00000000
42.020481 13.135460 -16.604034 14.00000000
38.118809 12.186363 -50.797295 14.00000000
63.132355 40.294201 -14.223070 14.00000000
62.805290 38.133556 -45.122875 14.00000000
58.209652 26.298731 -23.442408 14.00000000
45.665932 14.762652 -39.826653 14.00000000
61.029102 31.824228 -41.313663 14.00000000
62.299263 35.809448 2.730850 14.00000000
61.214581 55.580624 -30.693787 14.00000000
59.779495 29.030993 -4.079900 14.00000000
59.129833 27.876579 -1.525083 14.00000000
58.993340 27.634041 -24.992416 14.00000000
63.062054 39.636253 3.118148 14.00000000
63.251629 41.720947 1.987032 14.00000000
60.108521 29.753309 -36.894424 14.00000000
56.514469 23.881046 -60.899670 14.00000000
61.155006 32.179138 -8.422068 14.00000000
37.400867 12.048417 -31.813425 14.00000000
62.060810 34.895004 1.275165 14.00000000
49.434841 17.081823 -20.325142 14.00000000
58.235638 26.336842 -52.664524 14.00000000
58.069160 26.092674 -41.229786 14.00000000
37.438869 12.055718 -53.751263 14.00000000
38.058453 12.174766 -55.781609 14.00000000
63.300812 42.309235 -50.300312 14.00000000
62.185074 35.371540 -24.871550 14.00000000
57.266659 24.915657 -49.215717 14.00000000
63.081066 48.174194 -1.052588 14.00000000
63.207184 46.749176 -52.715935 14.00000000
62.588131 51.031029 -53.031040 14.00000000
51.871296 18.990856 -30.353645 14.00000000
36.917671 11.955575 -51.897614 14.00000000
52.598694 19.622238 -9.549244 14.00000000
63.063076 39.642239 -58.108292 14.00000000
63.242867 41.616104 -11.360467 14.00000000
34.807827 11.550187 -18.697994 14.00000000
52.181068 19.259741 0.501116 14.00000000
60.899036 31.491882 -29.137016 14.00000000
50.901810 18.149338 -40.751720 14.00000000
55.681828 22.860325 -45.370991 14.00000000
59.744938 58.965424 -46.842464 14.00000000
63.321068 45.416023 1.111994 14.00000000
63.269890 46.040672 -23.303778 14.00000000
52.521885 19.555571 -28.929066 14.00000000
49.397469 17.054630 -23.877661 14.00000000
35.703251 11.722235 -4.749414 14.00000000
57.867363 25.796700 1.626002 14.00000000
62.846252 49.563545 -10.295826 14.00000000
52.926849 19.907082 -24.002184 14.00000000
55.850773 23.067432 -47.843143 14.00000000
63.305248 45.641144 -34.902988 14.00000000
46.262825 15.064709 -23.675938 14.00000000
42.890896 13.474594 -37.501633 14.00000000
59.864780 58.705219 -38.211555 14.00000000
43.246033 13.612964 -5.275443 14.00000000
58.608967 26.951033 -11.823819 14.00000000
56.943047 24.441019 -17.121136 14.00000000
35.967014 11.772915 -60.886246 14.00000000
41.559044 12.955671 -36.403957 14.00000000
56.517277 23.884485 -30.129246 14.00000000
53.694336 20.680143 -0.101075 14.00000000
44.419540 14.149242 -46.905228 14.00000000
63.081459 39.749828 -55.744282 14.00000000
57.424370 25.146967 -38.786263 14.00000000
63.215206 46.658531 -5.779772 14.00000000
63.304848 42.357529 -29.923283 14.00000000
56.378605 23.714493 -31.887108 14.00000000
54.329887 21.335468 -5.105426 14.00000000
63.324741 42.595493 -51.938297 14.00000000
63.130932 40.277149 -29.988359 14.00000000
55.002197 22.028690 -27.954496 14.00000000
62.340687 35.968307 -32.439255 14.00000000
62.313915 35.865639 -30.632092 14.00000000
39.073757 12.369848 0.109478 14.00000000
62.938019 38.910347 -34.972546 14.00000000
62.687687 37.445259 -34.201157 14.00000000
38.071728 12.177317 1.572392 14.00000000
59.538799 28.603291 -34.626701 14.00000000
39.094429 12.373819 -38.227905 14.00000000
62.840351 49.597080 -37.085720 14.00000000
48.738686 16.575275 -8.176019 14.00000000
60.960724 31.631479 0.305148 14.00000000
44.374859 14.127252 3.810819 14.00000000
63.189587 46.948025 -16.024893 14.00000000
58.476467 26.715588 -59.193085 14.00000000
58.082867 26.112778 -8.421763 14.00000000
41.448765 12.912704 -27.781898 14.00000000
45.211071 14.538793 0.182171 14.00000000
63.138378 40.366257 -42.756618 14.00000000
61.669582 54.317600 -18.072634 14.00000000
61.524914 54.719185 -57.678329 14.00000000
44.070595 13.977510 -28.500093 14.00000000
63.321365 45.294888 -15.350028 14.00000000
62.209343 35.464615 -15.616309 14.00000000
63.084724 48.132862 -31.479782 14.00000000
63.098068 39.884060 -26.675762 14.00000000
61.119556 32.079216 -2.755204 14.00000000
58.636482 26.999929 -60.924541 14.00000000
43.103111 13.557278 -50.213829 14.00000000
47.314777 15.699857 -50.287640 14.00000000
37.642467 12.094838 -26.306311 14.00000000
44.815193 14.343962 -10.516110 14.00000000
43.480358 13.704264 -48.274639 14.00000000
62.973057 39.115410 -2.531846 14.00000000
62.072468 52.983597 -35.032124 14.00000000
55.642548 22.812176 -17.599789 14.00000000
63.322563 44.802334 -37.866959 14.00000000
54.257553 21.260880 -40.424778 14.00000000
62.959461 48.919922 -58.588886 14.00000000
48.985859 16.755129 -54.573074 14.00000000
62.897522 38.673328 -43.292397 14.00000000
61.507008 33.171394 -60.875637 14.00000000
61.981812 34.592041 -37.690556 14.00000000
63.131214 47.607548 -13.979786 14.00000000
61.414684 55.025166 -45.914215 14.00000000
37.399662 12.048185 -10.393192 14.00000000
58.925365 27.513254 -53.526985 14.00000000
56.586288 23.969090 -57.424557 14.00000000
62.156364 35.261448 -39.269035 14.00000000
56.061195 23.325384 0.738468 14.00000000
60.563240 30.753363 -50.480137 14.00000000
50.373058 17.764503 -30.166731 14.00000000
43.192131 13.591964 -60.632935 14.00000000
60.638710 30.919348 -57.970787 14.00000000
59.894669 58.640327 -34.379288 14.00000000
60.087002 58.222744 -7.995659 14.00000000
61.080132 31.968081 -15.647603 14.00000000
62.013702 34.714352 -36.055790 14.00000000
52.688313 19.700031 -47.732403 14.00000000
63.321671 45.169754 -55.773746 14.00000000
62.024975 34.757580 -2.299949 14.00000000
63.327007 42.979404 -22.922319 14.00000000
63.048283 39.555676 -22.943771 14.00000000
55.418064 22.536985 -32.549541 14.00000000
39.609505 12.472787 -34.000000 14.00000000
63.227928 46.514790 -60.010010 14.00000000
62.843987 49.576427 -42.049194 14.00000000
61.783020 33.949444 -14.716474 14.00000000
60.451496 57.431374 -22.392021 14.00000000
46.480007 15.195840 -34.091412 14.00000000
62.834141 38.302395 -32.121086 14.00000000
54.919674 21.943598 -0.484327 14.00000000
59.495033 28.525526 3.185566 14.00000000
46.246849 15.055063 -1.150103 14.00000000
62.690865 50.446972 -47.686783 14.00000000
59.053532 27.740997 -32.964012 14.00000000
62.566704 36.835064 -38.622562 14.00000000
60.101059 29.736897 -54.501919 14.00000000
39.337360 12.420496 -53.693520 14.00000000
62.628052 37.096252 -55.989681 14.00000000
63.323956 44.230816 3.189338 14.00000000
56.520527 23.888470 -22.204447 14.00000000
39.871014 12.523033 -39.656567 14.00000000
59.747993 58.958782 -2.526439 14.00000000
63.326168 43.323528 1.359472 14.00000000
61.592232 33.411629 0.154794 14.00000000
61.165192 32.207855 -50.790966 14.00000000
58.295017 26.423933 -42.950378 14.00000000
62.913090 49.183544 3.598530 14.00000000
43.770184 13.829663 -19.930841 14.00000000
42.547112 13.340647 -3.088472 14.00000000
60.016594 58.375614 -25.595655 14.00000000
56.460659 23.815081 2.241585 14.00000000
62.015652 34.721825 -33.522675 14.00000000
49.595184 17.198496 -4.902519 14.00000000
63.327419 42.809296 -19.796295 14.00000000
62.050823 53.064980 -52.886082 14.00000000
57.411793 25.128519 -47.095661 14.00000000
61.564426 54.609497 -32.926617 14.00000000
50.774883 18.056887 -27.397835 14.00000000
59.800220 29.075272 -21.025808 14.00000000
60.133293 29.807795 -29.208887 14.00000000
62.946629 38.960743 -12.226393 14.00000000
40.973984 12.734959 -24.741735 14.00000000
58.573299 26.887651 -21.609085 14.00000000
58.955215 27.566301 1.107936 14.00000000
56.519875 23.887671 -59.297909 14.00000000
63.065304 48.318188 -12.316167 14.00000000
51.714588 18.854834 -14.586269 14.00000000
62.866558 38.492111 -46.861420 14.00000000
61.821083 53.897057 -19.961805 14.00000000
53.760757 20.748634 -51.015003 14.00000000
34.820568 11.552636 -51.036671 14.00000000
62.814423 49.744499 -3.734787 14.00000000
45.013115 14.441369 -2.067548 14.00000000
61.932243 34.401955 -53.027557 14.00000000
63.088932 48.085320 -38.187946 14.00000000
57.533916 25.307640 -26.095745 14.00000000
56.897308 24.373936 -27.362452 14.00000000
35.165031 11.618821 -53.096992 14.00000000
60.667995 56.961323 -37.992439 14.00000000
62.287853 52.173801 -6.118680 14.00000000
48.433556 16.375353 -36.766125 14.00000000
58.965137 27.583929 -18.260145 14.00000000
38.075039 12.177953 -15.619708 14.00000000
56.810802 24.247055 -42.042496 14.00000000
55.434109 22.556652 -37.142788 14.00000000
63.324478 44.017494 -21.002312 14.00000000
46.275387 15.072293 -56.733067 14.00000000
63.234558 41.516743 -6.354132 14.00000000
61.582199 54.560162 -49.734612 14.00000000
43.359825 13.657300 -41.818760 14.00000000
58.852108 27.383083 -13.378360 14.00000000
44.058834 13.971721 -53.209259 14.00000000
56.492603 23.854240 -8.382072 14.00000000
61.054451 56.025116 3.698191 14.00000000
62.733868 50.202477 -21.688686 14.00000000
62.704617 50.368771 -49.821465 14.00000000
62.561996 36.817009 -41.692196 14.00000000
50.893089 18.142897 -43.785496 14.00000000
49.074162 16.819380 -18.512798 14.00000000
62.708092 37.564678 -30.431860 14.00000000
63.242775 41.615013 -16.185076 14.00000000
36.584682 11.891595 -40.570553 14.00000000
52.035023 19.132973 -11.971039 14.00000000
59.988644 58.436295 -0.169395 14.00000000
35.303867 11.645497 -56.092545 14.00000000
62.250423 52.314533 -56.047218 14.00000000
61.042793 31.862825 -56.540394 14.00000000
45.300278 14.582695 -20.414442 14.00000000
35.652557 11.712495 -38.852085 14.00000000
50.776711 18.058214 -6.107126 14.00000000
40.208580 12.587894 -29.003147 14.00000000
60.677261 56.941200 0.932939 14.00000000
63.152218 47.370270 -28.413071 14.00000000
62.231441 52.385899 -16.158619 14.00000000
48.295422 16.291948 -60.800930 14.00000000
60.790802 31.253841 -60.646374 14.00000000
63.007027 48.649506 -5.097005 14.00000000
60.189243 29.930838 -19.705191 14.00000000
57.704082 25.557219 -20.569443 14.00000000
60.647442 57.005943 -26.736986 14.00000000
63.315838 45.521500 -51.113121 14.00000000
51.903557 19.018860 -1.383589 14.00000000
62.755512 50.079418 -61.040428 14.00000000
60.866226 31.419718 -5.371069 14.00000000
40.128296 12.572468 -44.849720 14.00000000
50.709328 18.009186 0.385014 14.00000000
60.796593 56.682121 -7.762285 14.00000000
63.207256 46.748379 -58.120346 14.00000000
62.174530 52.599869 -49.832680 14.00000000
56.049229 23.310717 -2.163394 14.00000000
51.502514 18.670753 -50.170650 14.00000000
60.930050 56.370449 -34.653156 14.00000000
56.398182 23.738489 -38.564899 14.00000000
60.505970 57.313103 -52.281376 14.00000000
63.322407 44.867874 -49.087212 14.00000000
60.461254 57.410191 -30.742525 14.00000000
62.481663 36.508934 -5.717054 14.00000000
55.388878 22.501205 -29.981066 14.00000000
57.539322 25.315565 -19.009649 14.00000000
59.336876 28.244488 -41.208527 14.00000000
62.688618 37.450714 -23.859423 14.00000000
62.198418 52.510067 -18.083414 14.00000000
60.041092 29.605015 -42.014252 14.00000000
51.744968 18.881203 -26.067398 14.00000000
60.477840 30.565544 -23.470163 14.00000000
40.625465 12.667994 1.867218 14.00000000
56.741032 24.158787 -44.942661 14.00000000
42.653782 13.382209 -21.237949 14.00000000
62.367626 51.873867 -0.193885 14.00000000
63.261391 41.837711 -24.425978 14.00000000
63.322247 44.932198 -0.687451 14.00000000
44.724648 14.299399 -5.040952 14.00000000
62.377190 51.837921 -39.060787 14.00000000
42.159145 13.189486 -45.354042 14.00000000
63.324139 44.156841 -28.056095 14.00000000
58.050095 26.064709 3.629789 14.00000000
37.153282 12.000846 -5.807657 14.00000000
60.882671 31.455887 3.793931 14.00000000
53.991436 20.986485 -47.028297 14.00000000
63.325912 43.428192 -56.117050 14.00000000
57.653141 25.482504 -12.340948 14.00000000
38.123787 12.187319 -34.536713 14.00000000
47.857113 16.027308 -48.320850 14.00000000
44.521976 14.199657 -36.293106 14.00000000
62.862247 49.472610 -23.333475 14.00000000
63.097466 39.876839 -9.897164 14.00000000
61.453388 33.020245 -40.173367 14.00000000
60.341522 30.265745 -13.843260 14.00000000
42.074635 13.156559 -25.996862 14.00000000
63.008537 48.640919 -56.779827 14.00000000
36.843216 11.941269 -49.904022 14.00000000
62.662170 50.610085 -43.412571 14.00000000
44.814651 14.343695 -32.703648 14.00000000
42.125267 13.176286 -8.966122 14.00000000
59.907318 58.612869 -27.172276 14.00000000
35.714355 11.724369 -22.698561 14.00000000
60.288860 30.149923 -16.060423 14.00000000
42.189610 13.201355 -29.811865 14.00000000
61.518791 33.204609 -12.994572 14.00000000
60.788006 56.700768 -47.586285 14.00000000
47.923695 16.067509 -46.269474 14.00000000
63.321583 45.205334 -10.231633 14.00000000
62.194080 52.526367 -9.418791 14.00000000
60.378010 57.590927 -19.525394 14.00000000
63.101410 39.924038 -5.463452 14.00000000
47.801872 15.993954 -42.390549 14.00000000
62.031425 53.137920 -26.130135 14.00000000
53.739925 20.727154 -43.680622 14.00000000
36.111439 11.800665 -17.346951 14.00000000
52.679359 19.692261 -17.362694 14.00000000
36.657078 11.905505 -35.857018 14.00000000
61.692043 54.255245 -16.074482 14.00000000
36.128765 11.803994 -54.653133 14.00000000
60.820698 31.319592 -37.113403 14.00000000
58.187752 26.266607 -4.913842 14.00000000
60.309811 30.196003 -2.869186 14.00000000
48.564720 16.454548 -51.347786 14.00000000
53.714668 20.701111 -3.115203 14.00000000
61.541977 54.671818 -34.971478 14.00000000
52.772678 19.773260 -37.690941 14.00000000
38.790478 12.315418 -41.900509 14.00000000
60.443146 57.449509 -32.381042 14.00000000
41.404079 12.895294 -50.638081 14.00000000
41.905479 13.090652 -57.885391 14.00000000
63.326324 43.258316 -16.408953 14.00000000
59.784798 58.878876 -12.659943 14.00000000
60.518448 57.286011 -42.074890 14.00000000
44.491333 6.920326 -60.623596 15.00000000
61.451813 19.385977 -57.912037 15.00000000
54.190365 12.311495 -14.814814 15.00000000
39.665390 5.436479 -20.057104 15.00000000
56.016434 13.767185 -12.665321 15.00000000
49.381603 9.202059 -23.150106 15.00000000
43.964222 6.739873 -46.341789 15.00000000
68.955841 34.991116 1.620388 15.00000000
62.156292 20.302776 -28.541096 15.00000000
35.165539 4.271126 -54.712288 15.00000000
66.537132 27.745020 -33.689907 15.00000000
63.817459 22.704609 -9.520457 15.00000000
67.760811 30.792507 -19.426382 15.00000000
50.059387 9.556510 -42.112728 15.00000000
58.953606 16.535929 -14.717696 15.00000000
67.751923 30.770094 -58.278362 15.00000000
41.089691 5.805338 -27.920168 15.00000000
54.366459 12.442597 -0.082600 15.00000000
53.742310 11.977922 -32.680496 15.00000000
69.785034 39.774799 -16.142273 15.00000000
69.951714 46.131584 1.908048 15.00000000
51.155823 10.239670 -14.829356 15.00000000
65.853958 26.353466 -1.206863 15.00000000
46.591862 7.815201 -19.011284 15.00000000
36.589046 4.639781 -28.793489 15.00000000
66.770805 28.294222 -24.573469 15.00000000
58.633991 16.208067 -48.220493 15.00000000
58.626667 16.200554 -42.763947 15.00000000
60.788403 18.588018 -29.980408 15.00000000
41.258770 5.849126 -23.463736 15.00000000
59.910828 17.532461 -52.999973 15.00000000
51.102840 10.206386 -31.032715 15.00000000
42.594589 6.280380 -27.303577 15.00000000
37.217869 4.802631 -1.883861 15.00000000
69.981415 44.489250 -33.957367 15.00000000
58.649479 16.223953 -2.088310 15.00000000
42.398800 6.214696 -5.366208 15.00000000
67.588051 30.356560 -28.872211 15.00000000
69.728699 39.375259 3.710844 15.00000000
65.112206 24.887100 -33.602669 15.00000000
45.585770 7.386582 -38.827736 15.00000000
61.073231 18.930613 -55.257309 15.00000000
64.360008 23.619148 -59.178528 15.00000000
66.079445 26.812763 -55.774059 15.00000000
54.934628 12.865594 -26.429840 15.00000000
53.386364 11.712924 -20.105389 15.00000000
66.314323 27.291195 -8.896956 15.00000000
50.848961 10.046893 -22.411112 15.00000000
66.589485 27.851656 -35.540493 15.00000000
52.095963 10.830284 -32.711094 15.00000000
39.621883 5.425212 -42.459846 15.00000000
58.899143 16.480059 -30.154665 15.00000000
69.852951 40.607388 -43.849812 15.00000000
54.312515 12.402437 -56.068558 15.00000000
69.637466 38.728188 -22.846003 15.00000000
68.292114 32.510574 -26.657711 15.00000000
68.850807 34.519520 -17.847942 15.00000000
56.622829 14.298023 -50.970036 15.00000000
39.358517 5.357006 -46.324074 15.00000000
58.247578 15.811682 -11.325832 15.00000000
40.351433 5.614147 -29.461681 15.00000000
70.004005 43.239994 -27.246998 15.00000000
67.153343 29.259562 -36.381111 15.00000000
46.477688 7.766560 3.350924 15.00000000
64.939827 24.596529 -36.917065 15.00000000
62.970261 21.456261 -32.096867 15.00000000
69.546600 38.083652 -13.197105 15.00000000
69.974503 42.597843 -33.653465 15.00000000
62.912689 21.374676 -24.267469 15.00000000
68.018585 31.620686 1.628745 15.00000000
69.985695 44.252670 -45.219341 15.00000000
66.659233 28.012671 -17.453991 15.00000000
47.077702 8.022182 -10.461622 15.00000000
70.001869 43.358326 -5.647544 15.00000000
35.069073 4.246144 -3.510370 15.00000000
61.973618 20.043905 -24.319790 15.00000000
38.080421 5.026010 1.941804 15.00000000
56.647030 14.319207 -8.394134 15.00000000
70.001259 43.391785 -31.937710 15.00000000
68.435310 32.976433 -50.459820 15.00000000
65.687271 26.013943 -28.145515 15.00000000
36.511208 4.619622 -14.609929 15.00000000
54.544781 12.575354 -37.983391 15.00000000
53.000011 11.425286 -38.650665 15.00000000
69.596169 38.435261 -36.062405 15.00000000
44.422428 6.893596 -0.092151 15.00000000
43.525894 6.592820 -51.330296 15.00000000
69.910431 41.548603 -17.472734 15.00000000
61.851643 19.871054 -30.189674 15.00000000
69.521500 37.905663 -30.457064 15.00000000
38.897724 5.237673 -54.346165 15.00000000
54.264275 12.366522 -42.104755 15.00000000
42.768402 6.338692 -2.654155 15.00000000
43.825794 6.693433 -52.954639 15.00000000
56.062824 13.807798 -37.760475 15.00000000
39.562183 5.409751 -34.349072 15.00000000
69.996040 43.680656 -18.171129 15.00000000
36.173397 4.532138 0.560196 15.00000000
50.795738 10.013458 -11.929285 15.00000000
57.067322 14.687132 -46.469486 15.00000000
69.988937 44.073177 -42.299183 15.00000000
57.968849 15.525760 -35.428810 15.00000000
38.121822 5.036732 -56.198689 15.00000000
68.143799 32.028053 -48.623047 15.00000000
69.691803 39.113579 -28.718870 15.00000000
37.145393 4.783861 -24.453747 15.00000000
48.951496 8.977131 -34.658981 15.00000000
60.108952 17.770763 -42.503296 15.00000000
50.597122 9.888685 -7.193046 15.00000000
62.968384 21.453596 3.453422 15.00000000
69.985558 44.260258 -15.235757 15.00000000
66.364365 27.393106 -42.308670 15.00000000
41.097729 5.807420 -19.284554 15.00000000
65.989410 26.629379 -40.827705 15.00000000
69.155533 35.887718 -3.091158 15.00000000
36.773197 4.687472 -37.306114 15.00000000
48.376450 8.676407 -26.785263 15.00000000
67.935814 31.351414 -6.804550 15.00000000
62.175751 20.330353 -18.965326 15.00000000
69.908447 41.516113 -50.220371 15.00000000
52.752804 11.242924 -42.037918 15.00000000
46.802265 7.904839 -52.667580 15.00000000
43.474442 6.575559 -9.785955 15.00000000
66.367920 27.400351 -26.715919 15.00000000
59.805302 17.409599 -16.577539 15.00000000
61.632229 19.602983 -26.019363 15.00000000
70.003860 43.248119 0.095726 15.00000000
66.831894 28.448393 -15.196358 15.00000000
69.966248 45.328255 -10.227499 15.00000000
55.521488 13.333911 -22.415974 15.00000000
65.335564 25.297562 -45.191982 15.00000000
35.214653 4.283846 -5.331338 15.00000000
63.396732 22.060617 -28.440142 15.00000000
43.195179 6.481869 -20.044556 15.00000000
68.345520 32.684326 -2.885565 15.00000000
68.982681 35.111607 -25.340403 15.00000000
40.026901 5.530101 -51.735172 15.00000000
56.368973 14.075797 -10.691875 15.00000000
34.986179 4.224677 -57.845886 15.00000000
40.034760 5.532137 -26.322229 15.00000000
51.066425 10.183509 -1.768456 15.00000000
57.180199 14.785945 1.070676 15.00000000
69.854973 40.640488 -60.909096 15.00000000
39.069542 5.282169 -30.289814 15.00000000
63.602772 22.352592 -53.505436 15.00000000
52.560249 11.121959 -1.527489 15.00000000
68.629379 33.607807 -9.682973 15.00000000
58.734882 16.311558 -0.336838 15.00000000
68.736649 34.006924 -43.368950 15.00000000
59.574421 17.172758 -11.441719 15.00000000
52.999908 11.425209 -23.716593 15.00000000
55.782291 13.562218 -45.790432 15.00000000
62.610641 20.946640 -46.884602 15.00000000
68.609589 33.543427 -25.283289 15.00000000
67.235695 29.467384 -26.081427 15.00000000
68.162361 32.088440 -0.488637 15.00000000
60.913651 18.738670 -53.292160 15.00000000
45.901669 7.521163 -50.781139 15.00000000
69.945061 42.115631 -19.363972 15.00000000
69.581184 38.328995 -4.278673 15.00000000
64.073654 23.136457 -16.790480 15.00000000
54.480824 12.527740 -48.276394 15.00000000
64.309189 23.533497 -2.945879 15.00000000
69.999878 43.468307 -25.580900 15.00000000
69.869209 40.873611 -30.385767 15.00000000
53.166588 11.549301 -4.930569 15.00000000
62.751698 21.146528 -10.163613 15.00000000
59.672661 17.273537 -54.523521 15.00000000
69.082581 35.560165 -18.937140 15.00000000
67.557831 30.280298 -13.812165 15.00000000
69.088165 35.585243 -55.994778 15.00000000
37.562542 4.891892 -0.174229 15.00000000
68.779251 34.198215 -1.797742 15.00000000
69.956238 45.881927 -56.245853 15.00000000
65.054604 24.789999 -12.891205 15.00000000
64.885262 24.504551 -39.980392 15.00000000
42.293114 6.179239 -18.231314 15.00000000
69.952240 42.233181 -28.755896 15.00000000
69.830544 40.240467 -51.099182 15.00000000
69.477669 37.594765 -49.168034 15.00000000
69.828407 40.205521 -34.878361 15.00000000
69.963898 45.458038 -0.074187 15.00000000
65.946091 26.541128 -29.791842 15.00000000
69.953682 46.023022 -45.545231 15.00000000
61.745564 19.739304 -17.325825 15.00000000
69.447433 37.380318 -11.507923 15.00000000
69.037872 35.359432 -34.798370 15.00000000
62.365448 20.599174 -56.246620 15.00000000
60.913540 18.738537 -34.811863 15.00000000
69.595749 38.432293 -57.941284 15.00000000
52.324272 10.973712 -44.191597 15.00000000
66.452454 27.572540 -6.705268 15.00000000
47.067581 8.017871 -54.665890 15.00000000
62.498070 20.787111 -26.769676 15.00000000
65.899635 26.446505 -36.299885 15.00000000
61.308643 19.213770 -22.656206 15.00000000
69.246750 36.297298 -22.437677 15.00000000
69.529358 37.961376 -15.207618 15.00000000
58.493427 16.063873 -24.923822 15.00000000
68.747108 34.053902 -45.449383 15.00000000
52.328087 10.976109 -15.655709 15.00000000
48.794060 8.894797 -43.466908 15.00000000
55.126839 13.008694 -44.525806 15.00000000
62.498528 20.787764 -48.964928 15.00000000
37.362850 4.840177 -53.034931 15.00000000
65.578224 25.791826 -25.835661 15.00000000
69.983063 44.398373 -3.353144 15.00000000
69.969215 42.511200 -13.507168 15.00000000
69.954590 45.972805 -1.860774 15.00000000
52.357868 10.994818 -30.287275 15.00000000
64.690414 24.176109 -4.812833 15.00000000
68.601425 33.516872 -16.363548 15.00000000
51.440456 10.418484 -41.285267 15.00000000
35.265236 4.296946 -15.921084 15.00000000
65.847412 26.340132 -38.915764 15.00000000
58.638252 16.212437 -16.696022 15.00000000
35.942558 4.472356 -56.566319 15.00000000
46.571232 7.806413 -60.794163 15.00000000
59.729397 17.331736 -58.100868 15.00000000
53.434978 11.749115 -54.440609 15.00000000
44.531487 6.937432 -36.967800 15.00000000
42.200840 6.148283 -29.018593 15.00000000
46.215080 7.654683 -45.231655 15.00000000
69.840256 40.399502 -23.774660 15.00000000
69.957428 42.318245 -40.450279 15.00000000
47.952759 8.454834 -50.805893 15.00000000
53.558876 11.841356 -49.832981 15.00000000
37.247856 4.810397 -17.697680 15.00000000
43.727470 6.660446 -38.747402 15.00000000
38.690666 5.184050 -17.043455 15.00000000
63.549671 22.277348 -49.992287 15.00000000
50.154186 9.610423 -20.157652 15.00000000
44.227879 6.828327 -12.372019 15.00000000
51.706192 10.585422 -13.206134 15.00000000
69.982430 44.433170 -40.685249 15.00000000
69.815544 39.994877 -27.324276 15.00000000
36.661011 4.658417 -60.341778 15.00000000
64.055687 23.106178 -51.958839 15.00000000
35.089008 4.251308 3.652256 15.00000000
53.915424 12.106803 -25.495749 15.00000000
66.988625 28.843903 -38.294991 15.00000000
69.822975 40.116554 -55.226303 15.00000000
49.854740 9.449488 -36.922337 15.00000000
39.736736 5.454956 -8.938573 15.00000000
53.734566 11.972156 -60.482952 15.00000000
55.161629 13.034594 -5.597508 15.00000000
42.061214 6.101440 -53.661861 15.00000000
62.728580 21.113775 -30.002495 15.00000000
69.958321 45.766495 -57.764954 15.00000000
67.580070 30.336418 2.391933 15.00000000
66.788673 28.339315 -52.639877 15.00000000
48.452358 8.716104 3.840028 15.00000000
47.489525 8.212584 -31.644176 15.00000000
50.780148 10.003664 -8.798088 15.00000000
66.049393 26.751554 3.813571 15.00000000
54.897896 12.838247 -9.551669 15.00000000
47.382362 8.156543 -39.289337 15.00000000
35.745579 4.421343 -19.036646 15.00000000
39.536701 5.403151 -48.384258 15.00000000
67.834290 31.021132 -46.913044 15.00000000
37.809017 4.955724 -34.126392 15.00000000
61.770500 19.769299 -10.347297 15.00000000
55.794888 13.573244 0.398767 15.00000000
42.005077 6.082607 -59.785851 15.00000000
69.988937 44.073338 -57.572399 15.00000000
60.580124 18.337500 -56.951923 15.00000000
39.155155 5.304341 -28.426598 15.00000000
46.377312 7.723799 -8.484063 15.00000000
64.115677 23.207302 -40.667507 15.00000000
68.655174 33.691719 -48.274551 15.00000000
69.887245 41.168949 -59.123421 15.00000000
62.449970 20.718952 -58.911625 15.00000000
53.009689 11.432492 -52.490925 15.00000000
69.966858 45.294353 -60.106750 15.00000000
63.499886 22.206797 2.001615 15.00000000
34.943043 4.213506 -23.358505 15.00000000
58.338619 15.905074 -18.455467 15.00000000
56.485558 14.177856 -18.161848 15.00000000
37.050640 4.759322 -26.360193 15.00000000
59.603615 17.202705 -3.059644 15.00000000
69.909645 41.535690 -31.954456 15.00000000
43.728466 6.660781 -28.849203 15.00000000
58.331612 15.897882 -57.169880 15.00000000
65.414948 25.459257 -3.638526 15.00000000
67.065620 29.038200 -2.649279 15.00000000
70.003845 43.078293 -61.015022 15.00000000
69.046959 35.400223 -49.308704 15.00000000
41.567825 5.935915 -30.934835 15.00000000
60.843704 18.654537 -18.012878 15.00000000
55.305210 13.144583 -3.457491 15.00000000
60.453442 18.185123 2.086692 15.00000000
64.132462 23.235586 -60.951809 15.00000000
62.872780 21.318119 -42.352940 15.00000000
64.519699 23.888338 -14.292192 15.00000000
66.574020 27.820154 -11.378087 15.00000000
68.192421 32.186234 -10.359515 15.00000000
66.235092 27.129805 -53.895584 15.00000000
68.498283 33.181297 -6.381784 15.00000000
68.971077 35.059521 -32.247070 15.00000000
69.558525 38.168247 -2.521100 15.00000000
64.332054 23.572037 -35.155029 15.00000000
39.648964 5.432225 -55.917847 15.00000000
46.421566 7.742652 -15.358175 15.00000000
69.969788 42.520531 -58.013569 15.00000000
68.588135 33.473637 -32.396992 15.00000000
58.694847 16.270493 -22.955055 15.00000000
64.473656 23.810724 -21.716490 15.00000000
69.124695 35.749283 -45.429932 15.00000000
68.752861 34.079720 -61.069977 15.00000000
69.396629 37.019993 -8.940680 15.00000000
61.888485 19.923267 -13.990367 15.00000000
50.117214 9.587198 -56.579578 15.00000000
69.811737 39.964237 -53.037384 15.00000000
59.450638 17.045780 -46.737858 15.00000000
50.783981 10.006073 -33.892498 15.00000000
45.735283 7.450278 -55.358723 15.00000000
41.074909 5.801510 -0.141511 15.00000000
37.713337 4.930945 -20.076216 15.00000000
47.874393 8.413854 -8.375526 15.00000000
35.298798 4.305637 -1.625671 15.00000000
58.747131 16.324123 -9.929000 15.00000000
38.739326 5.196651 -57.660282 15.00000000
62.702934 21.077429 -8.268805 15.00000000
66.911018 28.648060 -55.108719 15.00000000
69.515381 37.862240 -19.109474 15.00000000
68.269867 32.438194 -34.249836 15.00000000
42.814548 6.354174 -0.236506 15.00000000
62.331650 20.551279 1.931771 15.00000000
61.897739 19.936380 -36.723511 15.00000000
69.398201 37.031128 -37.188660 15.00000000
54.653290 12.656139 -57.649635 15.00000000
58.706562 16.282509 -53.637978 15.00000000
52.865852 11.325407 -18.620609 15.00000000
62.899128 21.355457 -2.620711 15.00000000
68.468079 33.083046 0.824083 15.00000000
69.989746 42.847366 -43.537762 15.00000000
69.968575 45.199375 -51.607285 15.00000000
61.953735 20.015734 -2.331519 15.00000000
64.399956 23.686495 -54.833393 15.00000000
56.300098 14.015504 -30.950369 15.00000000
58.990810 16.574089 -8.350779 15.00000000
40.584953 5.674623 3.745656 15.00000000
58.404282 15.972428 -27.141560 15.00000000
46.492634 7.772928 -5.188844 15.00000000
69.938164 42.002754 -10.565913 15.00000000
69.399544 37.040661 -44.548847 15.00000000
69.382660 36.920868 -56.805916 15.00000000
44.908482 7.098042 -10.152058 15.00000000
50.772778 9.999034 -50.867271 15.00000000
67.067886 29.043917 -28.083584 15.00000000
69.885117 41.134037 3.307369 15.00000000
69.225533 36.202042 -20.610708 15.00000000
35.058861 4.243500 -36.783241 15.00000000
65.635971 25.909454 -59.271133 15.00000000
62.938072 21.410643 -17.021202 15.00000000
67.227104 29.445704 -11.400191 15.00000000
68.349976 32.698826 -42.017254 15.00000000
54.956165 12.881628 -32.453648 15.00000000
56.488495 14.180427 -55.806290 15.00000000
49.294941 9.156737 -1.325596 15.00000000
59.869110 17.482283 -45.277283 15.00000000
52.492004 11.079086 -55.961239 15.00000000
69.352348 36.771431 -25.286648 15.00000000
66.698639 28.112110 -39.714729 15.00000000
67.399467 29.880667 -23.546827 15.00000000
69.979286 44.607025 -20.957964 15.00000000
67.695694 30.628197 -31.151896 15.00000000
68.712975 33.900627 -13.571250 15.00000000
54.221642 12.334782 -17.933634 15.00000000
37.019943 4.751372 -12.566302 15.00000000
62.620968 20.961271 -52.672787 15.00000000
40.987118 5.778775 -6.195289 15.00000000
68.260414 32.407448 -43.882004 15.00000000
58.942558 16.524593 -6.506503 15.00000000
69.591507 38.402187 1.169090 15.00000000
69.961037 45.616467 -25.646870 15.00000000
63.138092 21.694096 -37.108761 15.00000000
69.953629 46.025928 -14.314874 15.00000000
52.247898 10.925733 -50.171654 15.00000000
64.264618 23.458361 -33.029903 15.00000000
37.682831 4.923044 -4.880157 15.00000000
70.004585 43.207943 -12.087732 15.00000000
44.407894 6.888719 -47.807644 15.00000000
44.139744 6.798758 -5.955554 15.00000000
69.080322 35.550049 -43.150318 15.00000000
68.928047 34.866306 -39.698830 15.00000000
68.095406 31.870615 -52.993393 15.00000000
54.206459 12.323478 -21.777912 15.00000000
41.326797 5.866743 -34.240902 15.00000000
58.910912 16.492132 -37.170414 15.00000000
62.445301 20.712336 -22.889351 15.00000000
60.863110 18.677877 -15.999378 15.00000000
60.477375 18.213909 0.300793 15.00000000
65.627960 25.893147 -19.462461 15.00000000
69.738411 39.444145 -18.288397 15.00000000
35.601601 4.384056 -52.996029 15.00000000
35.924904 4.467784 -21.251545 15.00000000
50.174992 9.623493 -52.642223 15.00000000
48.842461 8.920110 -24.633749 15.00000000
55.729382 13.515901 -14.908009 15.00000000
67.562454 30.291952 0.356505 15.00000000
65.495247 25.622816 2.011032 15.00000000
61.993866 20.072601 -4.215363 15.00000000
35.481598 4.352979 -7.164800 15.00000000
56.812183 14.463785 -14.230661 15.00000000
54.563416 12.589228 -34.191162 15.00000000
69.062904 35.471840 -0.245403 15.00000000
66.203224 27.064892 -20.479727 15.00000000
40.679451 5.699096 -54.793747 15.00000000
69.985130 42.771763 2.204079 15.00000000
56.145508 13.880177 3.112400 15.00000000
64.766701 24.304703 -44.123959 15.00000000
64.991676 24.683926 -11.293419 15.00000000
65.440483 25.511267 -6.212788 15.00000000
48.503937 8.743077 -11.997538 15.00000000
69.834229 40.300816 -33.074642 15.00000000
54.460369 12.512511 -7.809358 15.00000000
40.677589 5.698614 -44.980804 15.00000000
67.089127 29.097511 -29.669495 15.00000000
69.978096 44.672966 -16.862822 15.00000000
56.987331 14.617109 -29.250595 15.00000000
44.477406 6.914392 -3.736570 15.00000000
64.472511 23.808798 -31.328802 15.00000000
39.709503 5.447903 -37.150322 15.00000000
50.108086 9.581977 -48.340317 15.00000000
48.351200 8.663202 -21.504902 15.00000000
50.341835 9.728306 -39.808907 15.00000000
55.213329 13.073086 -39.376648 15.00000000
49.641556 9.338001 -13.450509 15.00000000
52.814957 11.287513 -22.043665 15.00000000
68.598373 33.506927 -53.372116 15.00000000
55.895924 13.661692 -7.147581 15.00000000
39.347672 5.354198 -44.106586 15.00000000
54.115612 12.255841 -51.210686 15.00000000
67.116737 29.167200 3.683123 15.00000000
69.969017 45.175037 -12.074277 15.00000000
44.557728 6.948611 -20.746166 15.00000000
69.453651 37.424389 -27.050949 15.00000000
66.186493 27.030813 -3.174198 15.00000000
69.085419 35.572899 -50.855873 15.00000000
60.308674 18.010994 -25.084026 15.00000000
45.614182 7.398686 -6.799179 15.00000000
45.940750 7.537813 -46.833961 15.00000000
54.724491 12.709150 1.805758 15.00000000
43.068588 6.439401 3.533648 15.00000000
42.139767 6.127793 -7.589814 15.00000000
51.471134 10.437754 -16.871126 15.00000000
40.566296 5.669791 -58.691776 15.00000000
40.968864 5.774047 -47.212818 15.00000000
62.518749 20.816422 -20.971355 15.00000000
69.618568 38.594109 -5.961440 15.00000000
50.025242 9.538651 -2.880499 15.00000000
42.007542 6.083434 -9.507486 15.00000000
37.557480 4.890581 -42.905045 15.00000000
57.705513 15.255629 -38.315155 15.00000000
50.403023 9.766747 -24.308104 15.00000000
69.576462 38.295452 -52.403961 15.00000000
68.843430 34.486374 -26.851603 15.00000000
58.920677 16.502151 -41.048244 15.00000000
34.990814 4.225877 -33.462021 15.00000000
50.541916 9.854001 -60.687988 15.00000000
47.704487 8.324998 -47.257317 15.00000000
44.478115 6.914695 -40.687950 15.00000000
59.471756 17.067446 -56.283005 15.00000000
67.529465 30.208712 -15.761168 15.00000000
57.487480 15.054938 -44.949322 15.00000000
69.969780 45.132904 -54.648010 15.00000000
49.728672 9.383559 -32.709988 15.00000000
56.550949 14.235098 -60.209572 15.00000000
69.959450 45.703979 -4.470944 15.00000000
61.512123 19.458521 -42.725338 15.00000000
69.858315 40.695255 -14.529513 15.00000000
68.182487 32.153912 -31.577154 15.00000000
59.971153 17.605021 -9.816395 15.00000000
35.685196 4.405705 -50.190235 15.00000000
65.311279 25.248087 -32.088032 15.00000000
51.530201 10.474861 -48.418766 15.00000000
50.318642 9.713737 -10.291956 15.00000000
53.669155 11.923460 -30.979738 15.00000000
62.685352 21.052513 -0.109273 15.00000000
44.786686 7.046153 -13.848535 15.00000000
69.981354 44.492687 -38.787647 15.00000000
35.622711 4.389523 -31.796141 15.00000000
69.955528 45.920929 -18.838173 15.00000000
60.798836 18.600567 -11.148146 15.00000000
66.688988 28.087763 -0.084548 15.00000000
41.447613 5.898031 -38.635262 15.00000000
69.961044 45.615891 -22.636105 15.00000000
63.779552 22.640709 -6.584297 15.00000000
69.260223 36.357784 -41.140671 15.00000000
45.560074 7.375635 -59.431042 15.00000000
51.967468 10.749561 -7.780198 15.00000000
63.886936 22.821718 -38.255245 15.00000000
69.951790 46.127483 -39.938210 15.00000000
69.952904 46.065937 -16.316105 15.00000000
48.090179 8.526700 -45.061577 15.00000000
60.582096 18.339870 -46.889027 15.00000000
53.148350 11.535723 -58.918354 15.00000000
47.175907 8.064019 -25.832218 15.00000000
49.404903 9.214243 -18.427902 15.00000000
48.709400 8.850525 -56.101864 15.00000000
42.291794 6.178796 -32.820168 15.00000000
44.046276 6.767401 -55.133797 15.00000000
64.195877 23.342489 -23.862040 15.00000000
46.087711 7.600421 -12.056298 15.00000000
64.941742 24.599760 -1.614180 15.00000000
43.257442 6.502758 -34.708275 15.00000000
61.362240 19.278236 -49.282135 15.00000000
52.319565 10.970756 -46.947517 15.00000000
69.466255 37.513805 -59.365322 15.00000000
38.653282 5.174367 -12.406546 15.00000000
62.077610 20.191275 -34.647968 15.00000000
68.822548 34.392605 -41.376842 15.00000000
41.524975 5.921539 -3.780997 15.00000000
66.153534 26.963680 -32.111240 15.00000000
69.956223 45.882454 -30.900499 15.00000000
57.884434 15.439169 -3.671328 15.00000000
59.918343 17.541500 -30.760651 15.00000000
36.263264 4.555411 -41.979626 15.00000000
42.784992 6.344258 -47.698410 15.00000000
64.520294 23.889347 -28.047104 15.00000000
39.040123 5.274550 3.270915 15.00000000
69.926613 41.813618 -56.117764 15.00000000
68.219223 32.273434 -20.744450 15.00000000
48.178905 8.573099 -52.828983 15.00000000
59.200813 16.789513 -59.836933 15.00000000
65.239563 25.102016 -48.241238 15.00000000
69.583458 38.345104 -34.098598 15.00000000
69.314850 36.603058 -47.111683 15.00000000
40.006245 5.524752 -4.060830 15.00000000
45.293583 7.262103 -33.120426 15.00000000
51.066486 10.183547 -45.839775 15.00000000
67.942963 31.374683 -50.395222 15.00000000
67.784866 30.860340 -3.187719 15.00000000
60.406399 18.128538 -36.197773 15.00000000
61.130615 18.999638 -37.946754 15.00000000
70.002861 43.303299 -35.225307 15.00000000
69.368202 36.842625 -35.378433 15.00000000
56.415791 14.116782 -23.622274 15.00000000
61.704258 19.689623 -47.459316 15.00000000
42.224529 6.156230 -44.758141 15.00000000
66.107986 26.870895 0.771881 15.00000000
69.922020 41.738415 -4.143492 15.00000000
54.439018 12.496615 -1.782570 15.00000000
69.976128 44.781765 -6.075229 15.00000000
42.521927 6.256003 -16.635283 15.00000000
35.064053 4.244844 -40.445354 15.00000000
52.189289 10.888913 -25.215137 15.00000000
65.813141 26.270327 -34.278595 15.00000000
36.671440 4.661119 -3.662193 15.00000000
42.261768 6.168724 -14.877097 15.00000000
57.719418 15.269896 -33.544643 15.00000000
68.746277 34.050148 -3.758450 15.00000000
69.275154 36.424831 -15.666768 15.00000000
59.706432 17.308178 -13.088159 15.00000000
36.536289 4.626118 2.488732 15.00000000
61.119263 18.985979 -5.440510 15.00000000
53.180183 11.559423 -16.826801 15.00000000
69.999733 43.476231 -30.090345 15.00000000
56.507469 14.197038 -20.710695 15.00000000
58.011398 15.569408 -50.489952 15.00000000
66.300880 27.263800 -51.205566 15.00000000
55.135704 13.015294 -35.957394 15.00000000
46.506969 7.779035 -27.740467 15.00000000
61.061058 18.915972 -39.649700 15.00000000
39.084805 5.286122 0.132724 15.00000000
45.360138 7.290458 -52.627815 15.00000000
67.030602 28.949821 -44.963749 15.00000000
62.036594 20.133154 -39.073082 15.00000000
69.998650 43.536118 -52.954212 15.00000000
52.169952 10.876766 -34.728161 15.00000000
56.310543 14.024649 -27.702854 15.00000000
53.794582 12.016838 -44.264610 15.00000000
54.606533 12.621330 -12.941770 15.00000000
55.449558 13.270943 -51.531601 15.00000000
69.382050 36.916573 -39.157875 15.00000000
67.116714 29.167128 -8.668059 15.00000000
69.743095 39.477360 -49.101940 15.00000000
59.105434 16.691673 -49.980186 15.00000000
59.759132 17.362236 -23.682735 15.00000000
69.953377 46.039757 -33.616173 15.00000000
39.923172 5.503238 -24.419357 15.00000000
63.058575 21.581408 -5.188888 15.00000000
65.260071 25.143778 -20.894527 15.00000000
68.948692 34.959000 -52.657330 15.00000000
68.033943 31.670654 -16.505787 15.00000000
68.983589 35.115696 -12.675548 15.00000000
52.202190 10.897019 -37.064060 15.00000000
69.449234 37.393078 -7.182183 15.00000000
58.328663 15.894858 1.987341 15.00000000
65.594284 25.824541 -9.340057 15.00000000
64.350754 23.603559 -18.438961 15.00000000
51.254047 10.301376 2.161872 15.00000000
68.151665 32.053638 -36.421902 15.00000000
50.957600 10.115142 -28.063412 15.00000000
36.284000 4.560782 -35.171852 15.00000000
56.546196 14.230938 -32.550358 15.00000000
66.824066 28.428625 -59.443218 15.00000000
37.353725 4.837814 -51.103443 15.00000000
63.798058 22.671902 -11.252898 15.00000000
48.792938 8.894212 -60.675400 15.00000000
48.427349 8.703025 -40.581688 15.00000000
56.369961 14.076663 -1.142377 15.00000000
67.798248 30.903873 -44.868896 15.00000000
67.694740 30.625792 -54.772415 15.00000000
62.039116 20.136724 -40.815205 15.00000000
34.987553 4.225033 -27.896376 15.00000000
68.238792 32.337090 -8.087542 15.00000000
69.905228 41.463436 0.304784 15.00000000
69.913597 41.600487 -53.862022 15.00000000
47.404270 8.168000 -6.871094 15.00000000
61.066288 18.922264 -44.714657 15.00000000
54.689388 12.683014 -52.763969 15.00000000
54.411022 12.475773 -23.700680 15.00000000
44.194195 6.817025 -58.793613 15.00000000
67.307747 29.649200 -60.512383 15.00000000
53.776249 12.003189 -40.164814 15.00000000
57.177780 14.783827 -26.401276 15.00000000
69.285522 36.471409 -29.272278 15.00000000
63.529625 22.248941 -46.342224 15.00000000
57.699505 15.249467 -59.009048 15.00000000
68.910706 34.788441 -46.981739 15.00000000
50.773632 9.999570 -0.019699 15.00000000
65.224312 25.076067 -41.353554 15.00000000
36.073349 4.506228 -48.313076 15.00000000
53.106274 11.504397 -11.604251 15.00000000
57.553528 15.112754 -42.006664 15.00000000
69.997406 43.605076 -46.833797 15.00000000
47.193520 8.071523 -56.211864 15.00000000
68.713974 33.905102 -56.584633 15.00000000
60.110828 17.773024 -49.523674 15.00000000
53.458099 11.766330 -27.555140 15.00000000
69.631210 38.683792 -43.022610 15.00000000
40.524334 5.658925 -32.458080 15.00000000
