9.937283 -21.803303 3.668258 24.00000000
5.814929 -22.062307 -31.671204 24.00000000
5.521536 -22.080742 -17.606697 24.00000000
5.592989 -22.076254 -27.900257 24.00000000
11.819376 -21.685051 -20.116407 24.00000000
8.924124 -21.866959 -58.394810 24.00000000
10.521833 -21.766575 -48.846523 24.00000000
6.551850 -22.016008 -28.300507 24.00000000
8.404995 -21.899574 -58.516872 24.00000000
10.636212 -21.759388 -51.739849 24.00000000
11.493934 -21.705498 -24.368235 24.00000000
4.823598 -22.124594 -41.574863 24.00000000
9.285508 -21.844254 -60.231125 24.00000000
8.748039 -21.878021 -59.381496 24.00000000
6.070085 -22.046276 -5.775574 24.00000000
12.005541 -21.673353 -44.744503 24.00000000
10.722681 -21.753956 -52.368664 24.00000000
11.033885 -21.734404 -17.360271 24.00000000
8.511866 -21.892860 -10.797658 24.00000000
9.396884 -21.837255 -21.960939 24.00000000
4.808006 -22.125572 -50.618134 24.00000000
4.806693 -22.125656 -38.884773 24.00000000
11.879778 -21.681255 -17.143164 24.00000000
9.981371 -21.800531 -4.345185 24.00000000
9.286224 -21.844208 -20.062693 24.00000000
9.080353 -21.857143 -32.140064 24.00000000
7.899085 -21.931360 -52.836102 24.00000000
7.672503 -21.945599 -44.134686 24.00000000
11.198527 -21.724058 1.020548 24.00000000
9.733262 -21.816120 1.642299 24.00000000
10.088739 -21.793785 -51.487850 24.00000000
7.138193 -21.979168 -25.396013 24.00000000
9.582886 -21.825569 -20.781527 24.00000000
5.808069 -22.062738 -40.934780 24.00000000
11.025583 -21.734924 -41.241703 24.00000000
11.230350 -21.722059 -50.589626 24.00000000
8.610083 -21.886690 -36.800491 24.00000000
5.882003 -22.058094 -60.463188 24.00000000
7.140832 -21.979002 -54.767208 24.00000000
7.788419 -21.938314 -46.212296 24.00000000
7.068777 -21.983528 -60.543339 24.00000000
4.939243 -22.117329 3.331419 24.00000000
4.834810 -22.123890 -9.475551 24.00000000
7.374182 -21.964340 -57.879490 24.00000000
5.447931 -22.085367 1.092475 24.00000000
5.642387 -22.073149 -48.382622 24.00000000
7.114054 -21.980684 -8.677380 24.00000000
11.912480 -21.679201 -60.238674 24.00000000
5.370451 -22.090235 -5.597071 24.00000000
9.905667 -21.805288 -47.694355 24.00000000
9.999956 -21.799364 -41.855118 24.00000000
4.812307 -22.125303 -19.164576 24.00000000
6.361277 -22.027983 -51.709122 24.00000000
9.577044 -21.825935 -44.322102 24.00000000
8.661794 -21.883442 -13.753402 24.00000000
10.538949 -21.765499 -8.411286 24.00000000
5.296626 -22.094873 -0.332516 24.00000000
6.553448 -22.015907 -60.389599 24.00000000
6.754514 -22.003275 -4.431058 24.00000000
5.500928 -22.082037 -34.236782 24.00000000
5.743538 -22.066793 -42.050125 24.00000000
10.539390 -21.765472 -27.515402 24.00000000
6.478050 -22.020645 -43.844776 24.00000000
11.070909 -21.732077 -4.606963 24.00000000
10.684215 -21.756372 -42.073853 24.00000000
7.290249 -21.969614 -49.652130 24.00000000
6.682641 -22.007790 -49.925335 24.00000000
7.890465 -21.931904 -57.270538 24.00000000
8.389952 -21.900520 -24.932026 24.00000000
9.870972 -21.807468 -3.401039 24.00000000
11.309281 -21.717100 -3.898353 24.00000000
8.758155 -21.877386 -22.156092 24.00000000
11.233710 -21.721848 -29.434155 24.00000000
9.028285 -21.860415 -48.208813 24.00000000
6.422733 -22.024120 -19.089102 24.00000000
11.284832 -21.718636 -5.532476 24.00000000
11.107116 -21.729801 -35.013660 24.00000000
5.876766 -22.058422 -14.924644 24.00000000
8.165321 -21.914635 -46.915585 24.00000000
8.949779 -21.865347 -23.825542 24.00000000
10.475223 -21.769503 -35.965603 24.00000000
5.773286 -22.064924 -26.595146 24.00000000
9.932768 -21.803585 -43.229324 24.00000000
7.285574 -21.969908 -45.695309 24.00000000
5.029344 -22.111666 -28.637213 24.00000000
10.438093 -21.771835 -3.596530 24.00000000
7.784734 -21.938545 -0.211300 24.00000000
5.389875 -22.089014 -34.815067 24.00000000
5.293898 -22.095045 -48.878502 24.00000000
6.466184 -22.021391 3.361799 24.00000000
6.759366 -22.002970 -30.029970 24.00000000
11.998987 -21.673765 -54.455101 24.00000000
7.471326 -21.958237 -10.897601 24.00000000
10.061497 -21.795498 -6.162508 24.00000000
9.980698 -21.800573 -57.022133 24.00000000
7.656692 -21.946590 -19.142735 24.00000000
9.468561 -21.832752 -6.442083 24.00000000
11.973847 -21.675344 -51.362392 24.00000000
9.988677 -21.800074 3.061179 24.00000000
9.918564 -21.804478 -43.793308 24.00000000
9.521494 -21.829426 -29.450583 24.00000000
34.791740 6.099169 -22.147127 25.00000000
34.705704 7.468626 -28.032284 25.00000000
34.770405 6.438823 -43.251408 25.00000000
34.908272 4.244365 -13.221974 25.00000000
34.596802 9.202025 -55.303440 25.00000000
34.887848 4.569470 -0.631740 25.00000000
34.693409 7.664338 -27.329782 25.00000000
34.678356 7.903894 3.876261 25.00000000
34.522331 10.387370 -21.545900 25.00000000
34.528191 10.294106 -22.958456 25.00000000
34.898685 4.396968 -7.876226 25.00000000
34.507771 10.619124 -40.512959 25.00000000
34.823452 5.594457 -2.181273 25.00000000
34.819523 5.656974 -28.142298 25.00000000
34.861851 4.983254 -48.699657 25.00000000
34.909393 4.226497 -40.507614 25.00000000
34.594933 9.231751 0.319682 25.00000000
34.755508 6.675903 2.630815 25.00000000
34.681072 7.860697 -9.532262 25.00000000
34.550632 9.936922 -42.651070 25.00000000
34.829895 5.491898 -55.961075 25.00000000
34.769855 6.447528 1.396095 25.00000000
34.654785 8.279102 -35.215256 25.00000000
34.669674 8.042096 -43.875206 25.00000000
34.719116 7.255147 -10.110118 25.00000000
34.729443 7.090796 -5.892019 25.00000000
34.741482 6.899133 -31.219469 25.00000000
34.698505 7.583213 -56.745548 25.00000000
34.827972 5.522472 -26.861794 25.00000000
34.468086 11.250797 -6.795699 25.00000000
34.759308 6.615426 -41.024761 25.00000000
34.629044 8.688809 -26.010761 25.00000000
34.815964 5.713648 -53.089890 25.00000000
34.620949 8.817672 -54.927711 25.00000000
34.736313 6.981439 -17.682079 25.00000000
34.555519 9.859125 2.738734 25.00000000
34.486748 10.953719 -29.961206 25.00000000
34.706245 7.460022 -2.624253 25.00000000
34.497795 10.777906 2.344907 25.00000000
34.910004 4.216780 -9.269554 25.00000000
34.887589 4.573608 -3.708211 25.00000000
34.613457 8.936905 -45.894062 25.00000000
34.481792 11.032622 -49.721413 25.00000000
34.885803 4.601998 -36.734886 25.00000000
34.722851 7.195680 -23.628084 25.00000000
34.773453 6.390306 -15.054946 25.00000000
34.524933 10.345977 -18.602167 25.00000000
34.857655 5.050013 -35.830006 25.00000000
34.732864 7.036283 -2.188311 25.00000000
34.725357 7.155817 -11.867450 25.00000000
34.798367 5.993706 -32.107151 25.00000000
34.820911 5.634853 -47.804649 25.00000000
34.827038 5.537352 -5.912469 25.00000000
34.875435 4.767018 -55.927727 25.00000000
34.678402 7.903176 -59.364437 25.00000000
34.611092 8.974575 -46.730728 25.00000000
34.868408 4.878859 -60.094994 25.00000000
34.521057 10.407663 -50.673004 25.00000000
34.508995 10.599651 -15.301919 25.00000000
34.905407 4.289962 -14.767664 25.00000000
34.656849 8.246250 -27.007967 25.00000000
34.830395 5.483911 -58.382858 25.00000000
34.482517 11.021056 1.320691 25.00000000
34.886871 4.584988 -9.996734 25.00000000
34.527897 10.298790 -3.850153 25.00000000
34.876225 4.754453 -33.762508 25.00000000
34.479820 11.064028 -27.107635 25.00000000
34.689007 7.734393 -6.046721 25.00000000
34.632748 8.629847 -3.319416 25.00000000
34.704922 7.481066 -52.371830 25.00000000
34.795609 6.037615 3.841266 25.00000000
34.581238 9.449765 -33.002178 25.00000000
34.910534 4.208332 -52.350269 25.00000000
34.650410 8.348765 -33.710232 25.00000000
34.682217 7.842497 -0.473157 25.00000000
34.480507 11.053083 -25.127449 25.00000000
34.649876 8.357255 -29.607874 25.00000000
34.795605 6.037708 -10.893294 25.00000000
34.659702 8.200806 -1.482803 25.00000000
34.845825 5.238322 -9.645024 25.00000000
34.739883 6.924591 -39.335316 25.00000000
34.623684 8.774155 0.621022 25.00000000
34.582855 9.423992 -12.344298 25.00000000
34.587662 9.347482 -36.136402 25.00000000
34.767586 6.483653 -54.884754 25.00000000
34.885513 4.606613 -38.753872 25.00000000
34.734360 7.012530 -28.424534 25.00000000
34.822178 5.614720 -21.609850 25.00000000
34.910362 4.211098 -46.659599 25.00000000
34.500729 10.731185 -13.714996 25.00000000
34.742241 6.887091 -38.634956 25.00000000
34.454384 11.468857 -41.562164 25.00000000
34.738434 6.947681 -33.167725 25.00000000
34.625759 8.741122 -52.819328 25.00000000
34.566769 9.680083 -7.508610 25.00000000
34.730923 7.067243 -54.469982 25.00000000
34.490070 10.900848 -34.717598 25.00000000
34.603714 9.091999 -9.287333 25.00000000
34.575939 9.534060 0.954858 25.00000000
34.823174 5.598894 -11.318687 25.00000000
34.458656 11.400898 -5.168374 25.00000000
34.782284 6.249711 2.008231 25.00000000
34.778194 6.314769 -7.328347 25.00000000
34.741863 6.893102 -22.071428 25.00000000
34.892498 4.495434 -58.998219 25.00000000
34.817200 5.693930 -30.704945 25.00000000
34.476223 11.121289 -21.702831 25.00000000
34.633888 8.611702 -7.614162 25.00000000
34.734371 7.012310 1.948121 25.00000000
34.657574 8.234711 -53.923744 25.00000000
34.736973 6.970946 -37.521000 25.00000000
34.545673 10.015798 -25.948631 25.00000000
34.512394 10.545529 -44.646751 25.00000000
34.577480 9.509537 -29.805798 25.00000000
34.623222 8.781475 -30.004860 25.00000000
34.494652 10.827951 -56.926819 25.00000000
34.692326 7.681546 -1.040150 25.00000000
34.766232 6.505188 -12.039397 25.00000000
34.608543 9.015154 -57.336540 25.00000000
34.532528 10.225062 -7.556531 25.00000000
34.752758 6.719683 -47.312737 25.00000000
34.776760 6.337611 -45.561264 25.00000000
34.552280 9.910636 -8.058260 25.00000000
34.676197 7.938288 -8.772568 25.00000000
34.600780 9.138687 -28.509251 25.00000000
34.875080 4.772684 -19.501526 25.00000000
34.548237 9.975043 -53.090046 25.00000000
34.585678 9.379055 -52.484531 25.00000000
34.580868 9.455642 -60.243099 25.00000000
34.873947 4.790708 -28.734396 25.00000000
34.573948 9.565792 -33.539623 25.00000000
34.898842 4.394465 -26.608639 25.00000000
34.547688 9.983786 -46.292892 25.00000000
34.844791 5.254786 -57.064884 25.00000000
34.750591 6.754128 -31.797949 25.00000000
34.860603 5.003120 -21.841591 25.00000000
34.834290 5.421932 -18.940083 25.00000000
34.768948 6.461967 -44.486176 25.00000000
34.643429 8.459859 -18.571615 25.00000000
34.593361 9.256777 -14.116934 25.00000000
34.623314 8.780027 -47.410812 25.00000000
34.632233 8.638063 -39.230110 25.00000000
34.481678 11.034442 -44.934448 25.00000000
34.775135 6.363514 -58.303219 25.00000000
34.562000 9.755975 -1.076409 25.00000000
34.817734 5.685455 -61.113205 25.00000000
34.797485 6.007758 -35.180714 25.00000000
34.611206 8.972741 -48.654392 25.00000000
34.667130 8.082643 -37.773933 25.00000000
34.604637 9.077311 -13.202878 25.00000000
34.725243 7.157664 -36.402657 25.00000000
34.507015 10.631141 -50.127533 25.00000000
34.691525 7.694315 -42.310825 25.00000000
34.554623 9.873408 -28.713762 25.00000000
34.482693 11.018278 -60.037868 25.00000000
34.656055 8.258881 -57.224533 25.00000000
34.813358 5.755119 -32.789803 25.00000000
34.723049 7.192530 -25.275570 25.00000000
34.875225 4.770364 -51.404488 25.00000000
34.906982 4.264883 -51.605888 25.00000000
34.601368 9.129362 -31.759813 25.00000000
34.454147 11.472647 -21.001680 25.00000000
34.712795 7.355758 -31.641382 25.00000000
34.843830 5.270047 -36.513004 25.00000000
34.899460 4.384609 -16.143705 25.00000000
34.616653 8.886047 -0.487159 25.00000000
34.732815 7.037133 -42.171028 25.00000000
34.572266 9.592568 -13.089667 25.00000000
34.632538 8.633213 -60.231167 25.00000000
34.600693 9.140079 -7.776274 25.00000000
34.852283 5.135532 -53.642300 25.00000000
34.685917 7.783601 -34.728237 25.00000000
34.910172 4.214128 -21.498739 25.00000000
34.851479 5.148338 -6.384654 25.00000000
34.676743 7.929631 -49.008842 25.00000000
34.646721 8.407483 -13.008362 25.00000000
34.671494 8.013154 -24.375366 25.00000000
34.529808 10.268343 -58.971092 25.00000000
34.481606 11.035614 -35.386688 25.00000000
34.673870 7.975314 -20.501316 25.00000000
34.519001 10.440354 -43.694698 25.00000000
34.867592 4.891865 -45.215351 25.00000000
34.592838 9.265104 -8.536640 25.00000000
34.720570 7.232000 -3.117618 25.00000000
34.844570 5.258313 -13.433121 25.00000000
34.698017 7.590989 -48.452930 25.00000000
34.852486 5.132329 -33.375652 25.00000000
34.769081 6.459843 -21.636938 25.00000000
34.662601 8.154660 -48.222977 25.00000000
34.829731 5.494492 -22.324324 25.00000000
34.828491 5.514244 2.036983 25.00000000
34.878304 4.721358 -18.285776 25.00000000
34.848217 5.200230 -14.700747 25.00000000
34.545048 10.025813 -46.911060 25.00000000
34.627682 8.710531 -8.705524 25.00000000
34.860359 5.006964 -5.270320 25.00000000
34.453770 11.478654 -11.015484 25.00000000
34.466705 11.272754 -52.954552 25.00000000
34.456558 11.434240 -35.836117 25.00000000
34.676315 7.936413 -29.184500 25.00000000
34.767662 6.482456 -49.067120 25.00000000
34.741203 6.903609 -26.820351 25.00000000
34.621204 8.813589 -25.411533 25.00000000
34.792889 6.080943 -60.630531 25.00000000
34.910522 4.208546 -5.196078 25.00000000
34.600742 9.139323 -43.084316 25.00000000
34.870384 4.847399 -18.837093 25.00000000
34.622723 8.789438 2.447881 25.00000000
34.616928 8.881641 -32.683792 25.00000000
34.581295 9.448849 -47.208405 25.00000000
34.895515 4.447395 -30.498192 25.00000000
34.456524 11.434809 -9.115786 25.00000000
34.702042 7.526919 -30.713779 25.00000000
34.905685 4.285534 -54.510357 25.00000000
34.465359 11.294223 -5.763316 25.00000000
34.776146 6.347414 -17.687763 25.00000000
34.760456 6.597161 -56.061012 25.00000000
34.562946 9.740922 -2.426747 25.00000000
34.674625 7.963289 -40.933357 25.00000000
34.559479 9.796104 -43.272602 25.00000000
34.655079 8.274430 -14.525601 25.00000000
34.515621 10.494176 -38.356480 25.00000000
34.617332 8.875252 -17.638563 25.00000000
34.753384 6.709686 -60.270847 25.00000000
34.459026 11.394969 -31.060831 25.00000000
34.453922 11.476217 -43.008209 25.00000000
34.751354 6.742035 -7.842007 25.00000000
34.624462 8.761715 -39.877937 25.00000000
34.456413 11.436585 -34.943680 25.00000000
34.860973 4.997238 -22.908981 25.00000000
34.531261 10.245219 -9.484450 25.00000000
34.670658 8.026445 -49.894081 25.00000000
34.799225 5.980033 -54.403931 25.00000000
34.646393 8.412693 -5.417702 25.00000000
34.878979 4.710636 -47.595501 25.00000000
34.663929 8.133573 2.016188 25.00000000
34.651321 8.334221 -60.949478 25.00000000
34.724190 7.174362 -59.092587 25.00000000
34.728100 7.112167 -25.926867 25.00000000
34.501457 10.719598 -46.568771 25.00000000
34.717991 7.273053 -46.911804 25.00000000
34.866077 4.915998 -54.274460 25.00000000
34.865852 4.919521 -11.554065 25.00000000
34.799889 5.969482 -34.454399 25.00000000
34.739689 6.927727 -22.987160 25.00000000
34.593452 9.255301 -40.596348 25.00000000
34.823685 5.590748 -49.011150 25.00000000
34.795052 6.046455 -52.081532 25.00000000
34.495544 10.813697 -10.845760 25.00000000
34.750896 6.749269 -61.097240 25.00000000
34.796162 6.028850 -10.306132 25.00000000
34.688835 7.737100 -5.397182 25.00000000
34.511082 10.566428 -45.768578 25.00000000
34.878265 4.721967 -22.368235 25.00000000
34.779072 6.300815 -38.094639 25.00000000
34.835728 5.399068 -33.985493 25.00000000
34.745583 6.833865 -28.932768 25.00000000
34.732594 7.040621 -48.901428 25.00000000
34.604118 9.085588 -14.807677 25.00000000
34.894760 4.459419 -55.244499 25.00000000
34.508587 10.606151 -20.380226 25.00000000
34.875404 4.767509 1.420961 25.00000000
34.690269 7.714273 -32.318588 25.00000000
34.481712 11.033897 -11.792435 25.00000000
34.836494 5.386845 -28.775887 25.00000000
34.810432 5.801672 -55.432091 25.00000000
34.459244 11.391557 -37.216244 25.00000000
34.867924 4.886612 -32.662994 25.00000000
34.535240 10.181918 -18.030870 25.00000000
34.825558 5.560902 -3.109953 25.00000000
34.571926 9.597927 -24.311750 25.00000000
34.770409 6.438760 -48.298653 25.00000000
34.731606 7.056354 3.861546 25.00000000
34.606625 9.045643 -30.490173 25.00000000
34.895943 4.440586 -20.940605 25.00000000
34.547119 9.992831 -32.327007 25.00000000
34.772686 6.402488 -41.594276 25.00000000
34.517895 10.457997 -24.431911 25.00000000
34.611095 8.974532 -22.847055 25.00000000
34.501755 10.714857 -58.693943 25.00000000
34.848839 5.190392 -52.914047 25.00000000
34.557076 9.834353 -55.018890 25.00000000
34.807671 5.845641 -58.868591 25.00000000
34.503708 10.683812 -26.654316 25.00000000
34.795872 6.033411 -9.675725 25.00000000
34.531075 10.248177 -41.928539 25.00000000
34.799820 5.970576 -18.875591 25.00000000
34.503376 10.689067 -27.849300 25.00000000
34.641418 8.491828 -30.815592 25.00000000
34.839069 5.345827 -23.435850 25.00000000
34.756248 6.664083 -9.187205 25.00000000
34.519402 10.434022 -32.987324 25.00000000
34.850574 5.162727 -37.282883 25.00000000
34.534576 10.192463 -33.643955 25.00000000
34.455490 11.451297 -38.581020 25.00000000
34.780846 6.272613 -6.686571 25.00000000
34.505192 10.660188 -16.639990 25.00000000
34.729675 7.087097 -6.777798 25.00000000
34.817722 5.685639 -50.109821 25.00000000
34.777527 6.325405 -46.196163 25.00000000
34.755157 6.681490 3.278830 25.00000000
34.569336 9.639194 -60.955811 25.00000000
34.895355 4.449920 -43.833687 25.00000000
34.869682 4.858590 -17.557508 25.00000000
34.883659 4.636134 -43.065186 25.00000000
34.740639 6.912550 -53.739025 25.00000000
34.667759 8.072619 -34.193672 25.00000000
34.821739 5.621701 -39.769260 25.00000000
34.679119 7.891753 -11.865749 25.00000000
34.490940 10.887020 -35.967499 25.00000000
34.906944 4.265468 -10.787158 25.00000000
34.699841 7.561945 -32.930950 25.00000000
34.744823 6.845977 -1.605896 25.00000000
34.531376 10.243439 -2.759219 25.00000000
34.804222 5.900480 -56.451591 25.00000000
34.908775 4.236362 -47.286552 25.00000000
34.524296 10.356093 -34.327614 25.00000000
34.689426 7.727733 -33.740620 25.00000000
34.847382 5.213532 -35.287716 25.00000000
34.584476 9.398197 -3.171176 25.00000000
34.908947 4.233623 -27.631304 25.00000000
34.758854 6.622647 -5.095298 25.00000000
34.907345 4.259110 -48.046009 25.00000000
34.792645 6.084793 -42.136780 25.00000000
34.454140 11.472799 -1.090999 25.00000000
34.906971 4.265047 -32.550140 25.00000000
34.813652 5.750430 -45.082554 25.00000000
34.516109 10.486407 -31.377045 25.00000000
34.599125 9.165027 -2.564252 25.00000000
34.563255 9.735951 -26.604614 25.00000000
34.588711 9.330821 -49.757530 25.00000000
34.802032 5.935372 -17.298313 25.00000000
34.808224 5.836808 -16.554241 25.00000000
34.601692 9.124184 -37.452000 25.00000000
34.673340 7.983788 -44.510918 25.00000000
34.584923 9.391087 -32.369099 25.00000000
34.458790 11.398737 2.496254 25.00000000
34.524143 10.358529 0.636107 25.00000000
34.623577 8.775801 -19.772114 25.00000000
34.504368 10.673305 -28.995289 25.00000000
34.761101 6.586911 -25.060543 25.00000000
34.544941 10.027490 -36.026501 25.00000000
34.521664 10.398016 -49.440769 25.00000000
34.710110 7.398509 -50.967533 25.00000000
34.909328 4.227536 -58.221420 25.00000000
34.702049 7.526814 -10.618801 25.00000000
34.707775 7.435663 -34.262310 25.00000000
34.509117 10.597718 -56.032551 25.00000000
34.523411 10.370171 -58.225525 25.00000000
34.467186 11.265129 -16.552839 25.00000000
34.680271 7.873421 -41.652122 25.00000000
34.815044 5.728243 -33.463459 25.00000000
34.863689 4.953981 -34.400528 25.00000000
34.676331 7.936195 -51.644325 25.00000000
34.905952 4.281254 -6.106482 25.00000000
34.563534 9.731518 -44.851002 25.00000000
34.880104 4.692715 -29.912811 25.00000000
34.881802 4.665667 -41.047997 25.00000000
34.458401 11.404960 -46.324543 25.00000000
34.667797 8.071976 -7.336192 25.00000000
34.508259 10.611367 -51.353516 25.00000000
34.538773 10.125666 -22.268873 25.00000000
34.588184 9.339209 -29.116278 25.00000000
34.763733 6.544975 -2.954999 25.00000000
34.813889 5.746628 -48.422871 25.00000000
34.785366 6.200664 -20.771795 25.00000000
34.643974 8.451180 -37.157692 25.00000000
34.654827 8.278453 -32.638969 25.00000000
34.753796 6.703153 -3.529107 25.00000000
34.733528 7.025768 -41.574425 25.00000000
34.566364 9.686470 1.492872 25.00000000
34.806808 5.859379 -23.225962 25.00000000
34.622433 8.794067 1.865518 25.00000000
34.823631 5.591581 -5.317135 25.00000000
34.641048 8.497774 0.055577 25.00000000
34.781101 6.268538 0.836612 25.00000000
34.907551 4.255824 -56.083237 25.00000000
34.751434 6.740756 -20.408113 25.00000000
34.892632 4.493283 -53.007851 25.00000000
34.831478 5.466654 -15.843345 25.00000000
34.803204 5.916740 -4.896057 25.00000000
34.910492 4.209041 -36.176502 25.00000000
34.868179 4.882509 -46.926025 25.00000000
34.784172 6.219662 -27.900345 25.00000000
34.773674 6.386753 -47.728783 25.00000000
34.718723 7.261397 -42.775341 25.00000000
34.605961 9.056258 -50.541187 25.00000000
34.870335 4.848237 -1.627636 25.00000000
34.506100 10.645709 -52.092426 25.00000000
34.579304 9.480543 -40.027672 25.00000000
34.899715 4.380564 -22.992630 25.00000000
34.691612 7.692950 -35.347492 25.00000000
34.550022 9.946614 -52.386742 25.00000000
34.589100 9.324645 -7.014021 25.00000000
34.640728 8.502849 -44.244797 25.00000000
34.505550 10.654488 -39.944366 25.00000000
34.815319 5.723882 -43.699280 25.00000000
34.528591 10.287703 -17.356890 25.00000000
34.696808 7.610258 -1.576535 25.00000000
34.781631 6.260089 -33.086117 25.00000000
34.908157 4.246181 -34.458900 25.00000000
34.690414 7.712003 -14.130490 25.00000000
34.546383 10.004570 -16.264448 25.00000000
34.633854 8.612280 -31.425142 25.00000000
34.558884 9.805575 -25.213615 25.00000000
34.904457 4.305066 -44.735970 25.00000000
34.790092 6.125414 -14.508016 25.00000000
34.810940 5.793583 0.426641 25.00000000
34.629150 8.687104 -41.489414 25.00000000
34.674065 7.972263 -2.006742 25.00000000
34.468807 11.239276 -48.968517 25.00000000
34.844669 5.256700 3.203171 25.00000000
34.694462 7.647595 -14.906533 25.00000000
34.486141 10.963406 -23.877037 25.00000000
34.648548 8.378388 3.645625 25.00000000
34.784481 6.214719 -52.650551 25.00000000
34.910549 4.208125 -60.045303 25.00000000
34.634075 8.608728 -58.415760 25.00000000
34.902580 4.334962 -25.627592 25.00000000
34.471439 11.197437 -61.082031 25.00000000
34.901379 4.354072 -24.234322 25.00000000
34.503895 10.680839 -7.150305 25.00000000
34.664574 8.123268 -25.664761 25.00000000
34.856510 5.068235 0.308651 25.00000000
34.770302 6.440403 -16.928677 25.00000000
34.651787 8.326826 -46.301247 25.00000000
34.461990 11.347812 -51.708984 25.00000000
34.489925 10.903188 -7.929017 25.00000000
34.455227 11.455479 -12.710963 25.00000000
34.703236 7.507898 -58.222271 25.00000000
34.779987 6.286275 -53.623638 25.00000000
34.589981 9.310589 -36.784325 25.00000000
34.470154 11.217888 -45.537045 25.00000000
34.776691 6.338733 -2.033072 25.00000000
34.592167 9.275796 -35.441269 25.00000000
34.697186 7.604189 -20.923500 25.00000000
34.834091 5.425096 -42.041271 25.00000000
34.668190 8.065753 -30.203590 25.00000000
34.711468 7.376904 -3.643716 25.00000000
34.472218 11.185051 -18.898422 25.00000000
34.471287 11.199834 -13.251953 25.00000000
34.639034 8.529823 -56.346630 25.00000000
34.560745 9.775934 -49.276024 25.00000000
34.695099 7.637456 -6.683510 25.00000000
34.715042 7.320003 -18.187481 25.00000000
34.647648 8.392732 -35.784889 25.00000000
34.775410 6.359108 -28.498795 25.00000000
34.910652 4.206483 -17.643568 25.00000000
34.826443 5.546830 -26.170864 25.00000000
34.761833 6.575236 -14.082670 25.00000000
34.513180 10.533039 -11.358182 25.00000000
34.464443 11.308766 -15.236341 25.00000000
34.798672 5.988883 -40.521923 25.00000000
34.591900 9.280033 -54.193977 25.00000000
34.763020 6.556364 -25.651829 25.00000000
34.470032 11.219802 -34.163998 25.00000000
34.590935 9.295404 -5.132989 25.00000000
34.596527 9.206398 -21.706469 25.00000000
34.744499 6.851123 -16.530647 25.00000000
34.498077 10.773402 -1.126389 25.00000000
34.729420 7.091148 -17.053123 25.00000000
34.735271 6.997982 -0.064289 25.00000000
34.534256 10.197572 3.827594 25.00000000
34.557079 9.834279 -5.843242 25.00000000
34.812496 5.768804 -51.117485 25.00000000
34.780441 6.279057 0.025203 25.00000000
34.468853 11.238573 -7.411384 25.00000000
34.867462 4.893906 -28.164370 25.00000000
34.635975 8.578500 -50.181709 25.00000000
34.688328 7.745215 -58.694298 25.00000000
34.833111 5.440701 -40.827045 25.00000000
34.453941 11.475940 0.317014 25.00000000
34.614628 8.918303 -24.392895 25.00000000
34.758236 6.632461 -0.985737 25.00000000
34.905079 4.295174 -7.238949 25.00000000
34.710960 7.384952 -47.476814 25.00000000
34.771477 6.421714 -55.551666 25.00000000
34.904072 4.311249 -42.522060 25.00000000
34.868061 4.884391 -8.242074 25.00000000
34.533264 10.213349 -10.808037 25.00000000
34.553795 9.886575 -38.907238 25.00000000
34.903770 4.316012 -12.382127 25.00000000
34.647411 8.396477 -9.745834 25.00000000
34.574387 9.558807 -48.511639 25.00000000
34.869362 4.863680 -41.659889 25.00000000
34.559513 9.795564 0.464175 25.00000000
34.605961 9.056269 -18.940336 25.00000000
34.551498 9.923097 -13.739932 25.00000000
34.599110 9.165280 -39.460449 25.00000000
34.629711 8.678182 -20.680164 25.00000000
34.584652 9.395423 -11.597763 25.00000000
34.587578 9.348844 -45.323956 25.00000000
34.458893 11.397108 -13.819132 25.00000000
34.662464 8.156886 -28.651148 25.00000000
34.455463 11.451723 -4.306973 25.00000000
34.701145 7.541171 -45.685059 25.00000000
34.454746 11.463136 -0.458274 25.00000000
34.905041 4.295767 -19.886951 25.00000000
34.455486 11.451314 -52.326790 25.00000000
34.469360 11.230480 -43.597340 25.00000000
34.829742 5.494334 -38.372017 25.00000000
34.454079 11.473732 -36.670048 25.00000000
34.510361 10.577886 -30.845131 25.00000000
34.859234 5.024874 -0.939741 25.00000000
34.470528 11.211944 -58.339710 25.00000000
34.653839 8.294128 -22.908062 25.00000000
34.833111 5.440686 -1.336356 25.00000000
34.502205 10.707722 -16.001768 25.00000000
34.892757 4.491294 -60.690552 25.00000000
34.751102 6.746036 -53.093384 25.00000000
34.815247 5.725027 -20.464460 25.00000000
34.804356 5.898376 -30.110689 25.00000000
34.667553 8.075891 -8.132010 25.00000000
34.678532 7.901100 -55.179077 25.00000000
34.460999 11.363624 3.107654 25.00000000
34.495377 10.816430 -4.811038 25.00000000
34.808849 5.826837 -9.079888 25.00000000
34.557629 9.825525 -58.529881 25.00000000
34.706413 7.457364 -49.391693 25.00000000
34.766331 6.503606 -30.613031 25.00000000
34.513187 10.532928 -5.813839 25.00000000
34.604740 9.075671 -59.377029 25.00000000
34.896008 4.439545 -2.994269 25.00000000
34.464539 11.307260 -1.709770 25.00000000
34.747105 6.809647 -46.550922 25.00000000
34.567547 9.667672 -28.069071 25.00000000
34.552845 9.901658 -4.618986 25.00000000
34.694885 7.640802 -13.398077 25.00000000
34.563866 9.726279 -23.322433 25.00000000
34.909008 4.232635 -28.495695 25.00000000
34.599792 9.154435 -24.910082 25.00000000
34.902412 4.337657 -53.875408 25.00000000
34.520515 10.416291 -36.433014 25.00000000
34.716183 7.301845 -22.610495 25.00000000
34.840282 5.326565 -24.844034 25.00000000
34.709602 7.406565 -7.336686 25.00000000
34.557568 9.826529 -21.760059 25.00000000
34.630058 8.672665 -32.090130 25.00000000
34.768070 6.475943 -36.045071 25.00000000
34.766258 6.504785 -59.018730 25.00000000
34.594639 9.236427 -10.135748 25.00000000
34.552395 9.908825 -39.473984 25.00000000
34.652691 8.312440 -3.783423 25.00000000
34.863934 4.950111 -7.414795 25.00000000
34.619076 8.847503 -1.358334 25.00000000
34.468060 11.251205 -50.400944 25.00000000
34.667538 8.076123 0.593335 25.00000000
34.741238 6.903023 -24.539698 25.00000000
34.619396 8.842400 -27.983135 25.00000000
34.473438 11.165564 -29.345619 25.00000000
34.728004 7.113668 -13.716601 25.00000000
34.674915 7.958717 -22.303312 25.00000000
34.830868 5.476400 -34.730637 25.00000000
34.733208 7.030854 -21.476870 25.00000000
34.796440 6.024355 -13.124493 25.00000000
34.874622 4.779938 -4.609378 25.00000000
34.630936 8.658723 -50.947048 25.00000000
34.568958 9.645192 -0.165504 25.00000000
34.779957 6.286762 -1.481657 25.00000000
34.714161 7.334024 -50.056408 25.00000000
34.690704 7.707344 -60.992043 25.00000000
34.869102 4.867844 -15.936636 25.00000000
34.703869 7.497822 -16.565035 25.00000000
34.456059 11.442203 -23.009350 25.00000000
34.852219 5.136558 -39.525307 25.00000000
34.818497 5.673334 -15.290089 25.00000000
34.521343 10.403100 -59.681316 25.00000000
34.520672 10.413808 -39.304184 25.00000000
34.579784 9.472912 -27.528522 25.00000000
34.624840 8.755738 -36.600422 25.00000000
34.854073 5.107078 -16.510443 25.00000000
34.815849 5.715432 -38.961140 25.00000000
34.845131 5.249381 -27.308496 25.00000000
34.779163 6.299374 -31.402378 25.00000000
34.910343 4.211363 -38.285870 25.00000000
34.649242 8.367309 -58.960129 25.00000000
34.587292 9.353415 -25.995634 25.00000000
34.470379 11.214300 -28.127272 25.00000000
34.652081 8.322171 -16.348598 25.00000000
34.851776 5.143590 -42.608971 25.00000000
34.496929 10.791654 2.943755 25.00000000
34.821182 5.630562 -49.552425 25.00000000
34.902840 4.330831 -2.286029 25.00000000
34.612026 8.959716 -6.476268 25.00000000
34.832706 5.447145 -24.173033 25.00000000
34.847637 5.209505 -9.016666 25.00000000
34.502983 10.695308 -22.157455 25.00000000
34.732422 7.043335 -48.028740 25.00000000
34.668530 8.060346 -10.259681 25.00000000
34.870186 4.850577 -38.018417 25.00000000
34.910583 4.207584 -32.018787 25.00000000
34.587330 9.352819 -51.125774 25.00000000
34.682922 7.831257 3.251584 25.00000000
34.846375 5.229590 -19.934559 25.00000000
34.531727 10.237818 -26.964607 25.00000000
34.856869 5.062532 -43.773819 25.00000000
34.871613 4.827850 -46.286030 25.00000000
34.871273 4.833256 -52.395840 25.00000000
34.773872 6.383620 -19.419310 25.00000000
34.683361 7.824266 -45.045845 25.00000000
34.818718 5.669794 -52.495647 25.00000000
34.665962 8.101189 -2.602493 25.00000000
34.588112 9.340327 1.986884 25.00000000
34.904785 4.299855 -11.473748 25.00000000
34.697861 7.593487 -24.019711 25.00000000
34.598354 9.177290 -20.212875 25.00000000
34.856247 5.072453 -2.802622 25.00000000
34.888981 4.551401 -35.587643 25.00000000
34.899593 4.382519 -45.835175 25.00000000
34.849052 5.186970 -12.895307 25.00000000
34.834736 5.414857 -50.646809 25.00000000
34.475952 11.125560 -44.396732 25.00000000
34.674606 7.963585 -52.966728 25.00000000
34.455044 11.458371 -57.456596 25.00000000
34.537243 10.150025 -27.529985 25.00000000
34.693485 7.663116 -37.025139 25.00000000
34.647156 8.400552 -45.572758 25.00000000
34.722591 7.199816 -29.871983 25.00000000
34.880123 4.692400 -59.573700 25.00000000
34.884613 4.620947 -37.479317 25.00000000
34.853176 5.121305 -45.764324 25.00000000
34.846184 5.232597 0.956292 25.00000000
34.816460 5.705705 -59.968307 25.00000000
34.458324 11.406131 0.874404 25.00000000
34.909157 4.230281 -49.535671 25.00000000
34.659519 8.203760 -38.401604 25.00000000
34.570236 9.624890 -3.751219 25.00000000
34.558723 9.808091 -44.172718 25.00000000
34.485275 10.977183 -6.299930 25.00000000
34.819126 5.663286 -3.729413 25.00000000
34.794010 6.063030 -0.938653 25.00000000
34.796394 6.025097 3.043761 25.00000000
34.537125 10.151898 -37.076389 25.00000000
34.707844 7.434602 -21.877451 25.00000000
34.463459 11.324453 -55.087654 25.00000000
34.763073 6.555479 -34.424686 25.00000000
34.534439 10.194657 -10.025183 25.00000000
34.762775 6.560216 -33.783298 25.00000000
34.487259 10.945591 0.490259 25.00000000
34.766220 6.505401 -40.140320 25.00000000
34.598763 9.170800 -58.368309 25.00000000
34.753948 6.700696 0.412166 25.00000000
34.489471 10.910368 -12.532032 25.00000000
34.639851 8.516819 -42.707512 25.00000000
34.509064 10.598568 -55.307091 25.00000000
34.472569 11.179423 3.869440 25.00000000
34.864098 4.947461 -26.627256 25.00000000
34.839146 5.344659 -4.343803 25.00000000
34.698277 7.586819 -17.357840 25.00000000
34.529617 10.271370 -61.056854 25.00000000
34.494339 10.832924 -53.357468 25.00000000
34.509102 10.597951 -47.835926 25.00000000
34.894344 4.466027 -13.776420 25.00000000
34.498306 10.769750 -2.231191 25.00000000
34.722023 7.208890 -44.985851 25.00000000
34.888374 4.561071 -8.685738 25.00000000
34.899639 4.381742 2.912747 25.00000000
34.508808 10.602601 -25.914974 25.00000000
34.853294 5.119423 -38.955524 25.00000000
34.687119 7.764453 -40.331856 25.00000000
34.597889 9.184692 -34.567310 25.00000000
34.671482 8.013316 -19.095678 25.00000000
34.516579 10.478927 -1.595936 25.00000000
34.880692 4.683379 -57.447281 25.00000000
34.746174 6.824488 -27.700399 25.00000000
34.800388 5.961532 -23.839731 25.00000000
34.572357 9.591095 -57.181187 25.00000000
34.457684 11.416332 -33.428642 25.00000000
34.789032 6.142310 -36.554569 25.00000000
34.824028 5.585287 -25.322206 25.00000000
34.844326 5.262210 -11.986481 25.00000000
34.890614 4.525406 -0.074235 25.00000000
34.824959 5.570438 -0.562650 25.00000000
34.611805 8.963214 -11.080672 25.00000000
34.872517 4.813474 -25.893942 25.00000000
34.733505 7.026102 -32.457390 25.00000000
34.505470 10.655723 -48.458473 25.00000000
34.596493 9.206969 -21.116035 25.00000000
34.665279 8.112042 2.627737 25.00000000
34.671753 8.009016 -54.466995 25.00000000
34.718525 7.264538 -4.739043 25.00000000
34.580009 9.469309 -22.200159 25.00000000
34.853279 5.119680 -55.017277 25.00000000
34.705883 7.465794 -53.389431 25.00000000
34.888474 4.559515 -39.490402 25.00000000
34.556660 9.840981 -19.242371 25.00000000
34.466877 11.270043 1.810363 25.00000000
34.471680 11.193573 -31.575413 25.00000000
34.791058 6.110060 -20.033003 25.00000000
34.458263 11.407137 -26.531898 25.00000000
34.455597 11.449563 -3.466442 25.00000000
34.587616 9.348216 -53.059746 25.00000000
34.878574 4.717059 -23.779291 25.00000000
34.566132 9.690217 -10.681061 25.00000000
34.734020 7.017885 -34.890411 25.00000000
34.674313 7.968280 -56.301773 25.00000000
34.545525 10.018182 -20.059313 25.00000000
34.649033 8.370663 -13.665261 25.00000000
34.797920 6.000820 -2.723623 25.00000000
34.489159 10.915380 -37.565708 25.00000000
34.745640 6.832987 -50.603561 25.00000000
34.525974 10.329403 -43.078770 25.00000000
34.550320 9.941882 -31.018621 25.00000000
34.901089 4.358699 2.069110 25.00000000
34.898701 4.396698 0.545911 25.00000000
34.634529 8.601520 -12.002599 25.00000000
34.551594 9.921606 -11.569841 25.00000000
34.539772 10.109783 -53.604950 25.00000000
34.671120 8.019091 -24.945337 25.00000000
34.865635 4.922991 -58.129894 25.00000000
34.485165 10.978931 -9.683758 25.00000000
34.841190 5.312078 -17.200993 25.00000000
34.716583 7.295444 -57.632557 25.00000000
34.787220 6.171129 -15.765991 25.00000000
34.736450 6.979221 -57.196831 25.00000000
34.702995 7.511758 -26.381266 25.00000000
34.815159 5.726451 -19.474895 25.00000000
34.614075 8.927088 -27.265186 25.00000000
34.665321 8.111393 -47.479435 25.00000000
34.744446 6.851951 -51.507130 25.00000000
34.506035 10.646738 -47.299297 25.00000000
34.454723 11.463475 -37.843445 25.00000000
34.511040 10.567125 -32.314667 25.00000000
34.494621 10.828438 -57.774654 25.00000000
34.484928 10.982714 -42.633217 25.00000000
34.662659 8.153753 -26.402111 25.00000000
34.538479 10.130350 -3.311984 25.00000000
34.520981 10.408857 -14.180985 25.00000000
34.737640 6.960300 -11.213969 25.00000000
34.547741 9.982909 -8.728895 25.00000000
34.690460 7.711265 -12.781967 25.00000000
34.491882 10.872032 -2.782203 25.00000000
34.853935 5.109207 -51.835632 25.00000000
34.543770 10.046130 -49.931583 25.00000000
34.542355 10.068648 -15.599517 25.00000000
34.455002 11.459065 -24.590675 25.00000000
34.634525 8.601580 -2.090896 25.00000000
34.776203 6.346491 -39.156158 25.00000000
34.551102 9.929427 -51.190189 25.00000000
34.533348 10.212027 -5.091838 25.00000000
34.529007 10.281099 -23.506763 25.00000000
34.893208 4.484168 -35.041969 25.00000000
34.777760 6.321741 -59.753674 25.00000000
34.618919 8.849962 -33.387123 25.00000000
34.901562 4.351187 -29.183413 25.00000000
34.864769 4.936793 -40.516541 25.00000000
34.657337 8.238448 -21.263081 25.00000000
34.516781 10.475744 -8.351581 25.00000000
34.571903 9.598307 3.397399 25.00000000
34.824951 5.570551 -7.278217 25.00000000
34.605621 9.061640 -34.034863 25.00000000
34.582123 9.435699 -41.256794 25.00000000
34.744671 6.848421 -45.928253 25.00000000
34.540600 10.096589 -29.753868 25.00000000
34.599541 9.158432 -17.116989 25.00000000
34.522247 10.388671 -25.111267 25.00000000
34.490837 10.888627 -5.356844 25.00000000
34.822529 5.609126 -57.838535 25.00000000
34.478748 11.081088 -59.415905 25.00000000
34.682335 7.840600 -60.154903 25.00000000
34.649872 8.357331 1.238609 25.00000000
34.678295 7.904891 -18.457329 25.00000000
34.560116 9.785935 -54.368965 25.00000000
34.778534 6.309401 -57.155457 25.00000000
34.816635 5.702954 1.376385 25.00000000
34.520069 10.423358 -35.584450 25.00000000
34.558819 9.806602 -59.642410 25.00000000
34.457703 11.416047 -22.366453 25.00000000
34.565151 9.705773 -20.487331 25.00000000
34.785454 6.199268 -50.531055 25.00000000
34.466370 11.278079 -18.094957 25.00000000
34.560265 9.783576 -1.708309 25.00000000
34.907921 4.249938 -4.520076 25.00000000
34.689857 7.720886 -15.816649 25.00000000
34.644894 8.436564 -40.380768 25.00000000
34.782024 6.253860 -18.356871 25.00000000
34.857189 5.057459 -21.138903 25.00000000
34.896164 4.437082 -48.753265 25.00000000
34.765087 6.523452 -29.843878 25.00000000
34.648388 8.380904 -15.359194 25.00000000
34.810383 5.802495 -36.008686 25.00000000
34.524609 10.351115 1.315928 25.00000000
34.636276 8.573703 -6.973379 25.00000000
34.779026 6.301582 -12.574674 25.00000000
34.708279 7.427680 -43.401714 25.00000000
34.632935 8.626926 3.099512 25.00000000
34.744595 6.849625 -43.857178 25.00000000
34.585831 9.376631 -43.756565 25.00000000
34.545311 10.021574 -40.392574 25.00000000
34.455994 11.443254 -2.337027 25.00000000
34.461342 11.358163 -53.711567 25.00000000
34.724003 7.177354 -9.514927 25.00000000
34.755051 6.683204 -23.929955 25.00000000
34.760902 6.590017 -9.758859 25.00000000
34.680325 7.872587 -55.764271 25.00000000
34.751881 6.733610 -15.738063 25.00000000
34.727795 7.117037 -39.896969 25.00000000
34.777283 6.329316 -8.681764 25.00000000
34.671791 8.008433 -57.841328 25.00000000
34.454597 11.465505 -39.202709 25.00000000
34.610188 8.988935 -52.084808 25.00000000
34.757824 6.639014 -49.806396 25.00000000
34.677082 7.924226 0.066503 25.00000000
34.497364 10.784767 -52.620808 25.00000000
34.830696 5.479141 -37.757797 25.00000000
34.900669 4.365400 -16.773439 25.00000000
34.676300 7.936642 -3.197642 25.00000000
34.643612 8.456920 -51.469681 25.00000000
34.789921 6.128126 -47.163166 25.00000000
34.523586 10.367375 -54.146061 25.00000000
34.837013 5.378607 -60.491432 25.00000000
34.511997 10.551855 0.119245 25.00000000
34.856571 5.067280 -49.860348 25.00000000
34.609097 9.006312 3.701065 25.00000000
34.523212 10.373311 -35.010334 25.00000000
34.556995 9.835637 -6.693644 25.00000000
34.604004 9.087381 -56.234470 25.00000000
34.566494 9.684438 -50.376156 25.00000000
34.758293 6.631550 -10.430053 25.00000000
34.746384 6.821103 -18.472261 25.00000000
34.456169 11.440475 -10.314485 25.00000000
34.781033 6.269656 -11.490707 25.00000000
34.716385 7.298648 -29.269295 25.00000000
34.582329 9.432421 -41.831074 25.00000000
34.641357 8.492803 -6.020962 25.00000000
34.570435 9.621719 -18.459663 25.00000000
34.901043 4.359403 -15.400935 25.00000000
34.692959 7.671492 1.505862 25.00000000
34.537579 10.144663 -12.317265 25.00000000
34.539440 10.115012 -48.083141 25.00000000
34.884026 4.630286 -50.311871 25.00000000
34.576546 9.524436 -53.613438 25.00000000
34.489399 10.911553 -39.061153 25.00000000
34.827007 5.537817 -18.364092 25.00000000
34.746597 6.817707 -57.909000 25.00000000
34.759186 6.617394 -13.013060 25.00000000
34.466183 11.281057 -54.295151 25.00000000
34.742065 6.889880 -14.651592 25.00000000
34.602779 9.106876 -38.519775 25.00000000
34.897930 4.408959 -50.900448 25.00000000
34.841763 5.302962 -47.377117 25.00000000
34.824455 5.578494 -14.108836 25.00000000
34.462658 11.337160 -48.206665 25.00000000
34.567612 9.666644 -59.102421 25.00000000
34.768108 6.475356 -37.212757 25.00000000
34.812637 5.766578 -42.571480 25.00000000
34.877689 4.731140 -6.780995 25.00000000
34.734013 7.018048 -56.561058 25.00000000
34.866978 4.901650 2.601703 25.00000000
34.565826 9.695026 -16.688326 25.00000000
34.801048 5.951038 -22.698078 25.00000000
34.592743 9.266606 2.823941 25.00000000
34.766956 6.493702 -42.661983 25.00000000
34.739113 6.936849 -12.516415 25.00000000
34.642525 8.474260 -4.473185 25.00000000
34.537228 10.150258 -12.960468 25.00000000
34.607639 9.029522 -26.562923 25.00000000
34.489567 10.908851 -4.097631 25.00000000
34.493793 10.841575 -33.587231 25.00000000
34.591503 9.286357 -23.829933 25.00000000
34.510040 10.582980 -8.978214 25.00000000
34.600155 9.148658 -5.929605 25.00000000
34.717934 7.273953 -41.009026 25.00000000
34.856068 5.075308 -61.026001 25.00000000
34.906338 4.275142 -19.100157 25.00000000
34.716915 7.290145 -8.670246 25.00000000
34.567677 9.665628 -14.897741 25.00000000
34.755554 6.675148 -4.379487 25.00000000
34.550323 9.941794 -41.445839 25.00000000
34.552177 9.912308 2.184860 25.00000000
34.788467 6.151255 -5.861167 25.00000000
34.846966 5.220154 -44.638744 25.00000000
34.763138 6.554444 -26.269831 25.00000000
34.854691 5.097223 -30.442284 25.00000000
34.503666 10.684476 -41.146893 25.00000000
34.594963 9.231289 -4.387626 25.00000000
34.459702 11.384245 -25.708902 25.00000000
34.491722 10.874583 -3.517807 25.00000000
34.802044 5.935201 -25.746361 25.00000000
34.663204 8.145066 -23.623934 25.00000000
34.510567 10.574638 -54.656277 25.00000000
34.831230 5.470612 -59.384464 25.00000000
34.841122 5.313211 -31.366316 25.00000000
34.482719 11.017867 -17.477036 25.00000000
34.712288 7.363867 -20.093170 25.00000000
34.540783 10.093653 -55.669956 25.00000000
34.610523 8.983596 -60.810940 25.00000000
34.713364 7.346691 2.661356 25.00000000
34.589859 9.312547 -15.366621 25.00000000
34.458172 11.408579 -8.499410 25.00000000
34.641750 8.486574 -43.396179 25.00000000
34.818016 5.680962 -36.963829 25.00000000
34.909855 4.219147 -41.917854 25.00000000
34.863873 4.951079 -5.820711 25.00000000
34.738194 6.951464 -40.462849 25.00000000
34.714775 7.324233 -56.060463 25.00000000
34.553696 9.888121 -30.348635 25.00000000
34.700695 7.548336 -54.193733 25.00000000
34.649666 8.360567 -46.923344 25.00000000
34.493782 10.841797 -22.784479 25.00000000
34.633671 8.615171 -40.938530 25.00000000
34.680233 7.874033 -4.225235 25.00000000
34.833134 5.440341 -7.859113 25.00000000
34.782318 6.249141 -26.974356 25.00000000
34.800083 5.966388 -41.082005 25.00000000
34.672089 8.003711 -19.862432 25.00000000
34.593979 9.246947 -47.826908 25.00000000
34.539238 10.118267 -37.890076 25.00000000
34.464924 11.301092 -14.448837 25.00000000
34.646717 8.407538 -52.048283 25.00000000
34.459843 11.382019 -19.994787 25.00000000
34.493656 10.843758 -36.849606 25.00000000
34.553230 9.895554 -57.770851 25.00000000
34.789692 6.131802 -57.720329 25.00000000
34.569851 9.630987 -45.829269 25.00000000
34.870708 4.842256 -20.402212 25.00000000
34.905788 4.283870 -56.998791 25.00000000
34.494072 10.837183 -42.043644 25.00000000
34.829670 5.495454 -41.377380 25.00000000
34.903305 4.323442 3.778965 25.00000000
34.458183 11.408383 -60.508686 25.00000000
34.883663 4.636036 -24.877319 25.00000000
34.854534 5.099698 -48.094791 25.00000000
34.820915 5.634785 -8.411398 25.00000000
34.672909 7.990622 -28.103630 25.00000000
34.710609 7.390527 -55.410919 25.00000000
34.665604 8.106927 -31.786848 25.00000000
34.709045 7.415427 -38.998337 25.00000000
34.477074 11.107754 -56.372211 25.00000000
34.461887 11.349415 -58.925682 25.00000000
34.650921 8.340592 -49.438179 25.00000000
34.827332 5.532700 -10.565857 25.00000000
34.457024 11.426895 -47.144234 25.00000000
34.466019 11.283670 -40.885193 25.00000000
34.854324 5.103072 -29.566828 25.00000000
34.616825 8.883301 -22.201775 25.00000000
34.810909 5.794044 -12.136929 25.00000000
34.746986 6.811541 -52.207355 25.00000000
34.571678 9.601892 -38.346321 25.00000000
34.555359 9.861644 -35.359947 25.00000000
34.714180 7.333711 -8.058543 25.00000000
34.628792 8.692835 -55.732197 25.00000000
34.661724 8.168660 -17.437239 25.00000000
34.505810 10.650369 -19.817089 25.00000000
34.667740 8.072895 -50.692757 25.00000000
34.555393 9.861127 -56.640774 25.00000000
34.851475 5.148431 -56.470524 25.00000000
34.827621 5.528076 -46.160606 25.00000000
34.483929 10.998637 -32.771503 25.00000000
34.472076 11.187258 -55.763462 25.00000000
34.633831 8.612608 -34.350208 25.00000000
34.649990 8.355403 -27.624952 25.00000000
34.567142 9.674099 -31.605507 25.00000000
34.600597 9.141583 -44.350552 25.00000000
34.617771 8.868221 -23.440290 25.00000000
34.678844 7.896165 -31.202040 25.00000000
34.616413 8.889835 -49.261852 25.00000000
34.537163 10.151279 -0.369304 25.00000000
34.563995 9.724213 -9.313720 25.00000000
34.458286 11.406765 -51.056011 25.00000000
34.624626 8.759103 -53.819454 25.00000000
34.795666 6.036682 -24.573391 25.00000000
34.866230 4.913531 -31.822317 25.00000000
34.755741 6.672212 -35.479961 25.00000000
34.896175 4.436900 -33.118668 25.00000000
34.530312 10.260360 -45.144096 25.00000000
34.697594 7.597735 -11.323995 25.00000000
34.619587 8.839336 -16.600483 25.00000000
34.526176 10.326188 -57.387085 25.00000000
34.606449 9.048451 -42.325237 25.00000000
34.797916 6.000914 -37.583176 25.00000000
34.859074 5.027423 -2.150214 25.00000000
34.501556 10.718050 -14.735463 25.00000000
34.767624 6.483051 -51.079044 25.00000000
34.904964 4.297016 -31.068800 25.00000000
34.649982 8.355543 -11.351252 25.00000000
34.464417 11.309198 -30.483721 25.00000000
34.568321 9.655367 -34.831806 25.00000000
34.705585 7.470508 0.969451 25.00000000
34.782665 6.243663 -3.946505 25.00000000
34.667080 8.083386 -39.580341 25.00000000
34.824192 5.582666 -53.965794 25.00000000
34.823170 5.598938 -46.875088 25.00000000
34.571095 9.611209 -17.486145 25.00000000
34.651024 8.338999 -42.146065 25.00000000
34.516308 10.483267 -20.950361 25.00000000
34.488045 10.933114 -0.587821 25.00000000
34.703968 7.496255 -19.364042 25.00000000
34.821198 5.630295 -29.303711 25.00000000
34.714466 7.329130 -46.295490 25.00000000
34.538986 10.122289 -48.692986 25.00000000
34.619225 8.845114 -15.772027 25.00000000
34.614529 8.919855 -18.202341 25.00000000
34.499207 10.755453 -19.257418 25.00000000
34.624039 8.768478 -38.047535 25.00000000
34.899334 4.386625 -1.227248 25.00000000
34.520206 10.421178 -6.341491 25.00000000
34.549637 9.952736 -47.536266 25.00000000
34.454258 11.470883 -40.213345 25.00000000
34.461029 11.363090 -15.866394 25.00000000
3.799503 33.991951 -20.169369 26.00000000
3.087584 33.942493 -30.830139 26.00000000
7.693680 34.262478 -28.876598 26.00000000
4.472793 34.038723 -1.343430 26.00000000
2.026646 33.868790 -42.866764 26.00000000
7.953305 34.280514 -24.705091 26.00000000
7.612810 34.256859 -23.421778 26.00000000
4.594971 34.047211 -8.076078 26.00000000
5.208533 34.089832 -56.369175 26.00000000
1.054181 33.801235 -17.533875 26.00000000
6.682112 34.192204 2.379073 26.00000000
1.912109 33.860832 -4.658316 26.00000000
4.445028 34.036793 -29.072289 26.00000000
8.310803 34.305347 -40.416634 26.00000000
6.439097 34.175320 -43.826420 26.00000000
6.888029 34.206509 -5.225867 26.00000000
3.744908 33.988155 -27.325357 26.00000000
1.048871 33.800865 -16.073240 26.00000000
2.066483 33.871559 -7.618768 26.00000000
7.718598 34.264206 2.026126 26.00000000
0.995946 33.797188 -18.917780 26.00000000
2.380903 33.893402 -20.092348 26.00000000
0.928201 33.792484 -52.261848 26.00000000
8.529211 34.320518 2.766480 26.00000000
1.215090 33.812412 -11.874837 26.00000000
2.075317 33.872173 -6.377600 26.00000000
6.515136 34.180603 1.772560 26.00000000
7.716233 34.264042 -28.249323 26.00000000
5.342934 34.099171 -17.469091 26.00000000
0.957621 33.794525 -5.594996 26.00000000
8.401627 34.311657 -9.153269 26.00000000
4.879556 34.066982 -8.663612 26.00000000
7.828696 34.271854 -18.790859 26.00000000
6.536177 34.182064 -2.994276 26.00000000
3.478727 33.969666 -38.255379 26.00000000
4.376457 34.032032 -55.241261 26.00000000
3.951666 34.002522 2.112077 26.00000000
0.948096 33.793865 -30.707737 26.00000000
6.554424 34.183331 -28.904413 26.00000000
8.421873 34.313065 -41.372150 26.00000000
6.647166 34.189774 -17.543789 26.00000000
