33.060776 -42.525967 3.879021 22.00000000
-29.247404 -4.878707 3.879021 22.00000000
-52.081345 -38.700710 3.879021 22.00000000
11.259083 -29.641586 3.879021 22.00000000
-5.962980 35.690426 3.879021 22.00000000
-2.142814 -55.632042 3.879021 22.00000000
-10.938684 77.671616 3.879021 22.00000000
-37.673313 12.248653 3.879021 22.00000000
-15.534327 41.289757 3.879021 22.00000000
-33.964188 67.475296 3.879021 22.00000000
14.949307 69.682434 3.879021 22.00000000
17.994728 -67.489052 3.879021 22.00000000
-39.618061 -2.456620 3.879021 22.00000000
-2.312463 57.384880 3.879021 22.00000000
-3.192291 -25.670628 3.879021 22.00000000
13.804193 61.060413 3.879021 22.00000000
-67.278801 -3.319946 3.879021 22.00000000
76.769409 29.336920 3.879021 22.00000000
37.916164 9.154572 3.879021 22.00000000
-5.776521 66.928200 3.879021 22.00000000
-67.947144 9.985464 3.879021 22.00000000
55.611176 57.807255 3.879021 22.00000000
21.652573 57.299873 3.879021 22.00000000
-23.782045 -7.648107 3.879021 22.00000000
46.878494 -47.211926 3.879021 22.00000000
58.839943 -28.850386 3.879021 22.00000000
37.104546 69.446068 3.879021 22.00000000
-36.856304 -17.915888 3.879021 22.00000000
-58.929329 -18.991884 3.879021 22.00000000
81.263519 10.143169 3.879021 22.00000000
54.432816 8.383573 3.879021 22.00000000
11.708525 68.152611 3.879021 22.00000000
6.921442 -48.631023 3.879021 22.00000000
-8.643497 -59.794186 3.879021 22.00000000
48.959671 -54.580997 3.879021 22.00000000
53.159580 -37.427242 3.879021 22.00000000
-37.125084 -26.731392 3.879021 22.00000000
-38.309795 1.120318 3.879021 22.00000000
26.089067 -32.138496 3.879021 22.00000000
42.956802 48.466251 3.879021 22.00000000
-28.425097 -33.568314 3.879021 22.00000000
-29.584091 -17.044537 3.879021 22.00000000
-40.906364 45.253227 3.879021 22.00000000
47.541920 -18.228636 3.879021 22.00000000
21.412476 76.441216 3.879021 22.00000000
-44.825703 3.283653 3.879021 22.00000000
41.680008 -9.612084 3.879021 22.00000000
-20.577950 -6.180265 3.879021 22.00000000
58.308186 43.319908 3.879021 22.00000000
73.759789 8.703674 3.879021 22.00000000
-45.290775 -16.385248 3.879021 22.00000000
9.020952 72.900658 3.879021 22.00000000
77.526115 -7.252896 3.879021 22.00000000
-47.765026 22.466597 3.879021 22.00000000
11.453837 52.017365 3.879021 22.00000000
66.309349 13.297824 3.879021 22.00000000
-20.578114 -21.370335 3.879021 22.00000000
41.969486 -55.966801 3.879021 22.00000000
-45.061680 31.782288 3.879021 22.00000000
-36.502777 22.734827 3.879021 22.00000000
39.990219 16.867310 3.879021 22.00000000
-55.229542 -20.025429 3.879021 22.00000000
-56.358284 26.047043 3.879021 22.00000000
-9.812034 53.719769 3.879021 22.00000000
14.992006 76.474060 3.879021 22.00000000
-51.849564 50.072865 3.879021 22.00000000
-59.981426 -15.221577 3.879021 22.00000000
5.160514 -55.924957 3.879021 22.00000000
39.482971 -25.369104 3.879021 22.00000000
41.179825 57.445171 3.879021 22.00000000
0.009601 -48.810871 3.879021 22.00000000
-25.899700 24.637720 3.879021 22.00000000
18.830257 41.283691 3.879021 22.00000000
-60.228012 0.718253 3.879021 22.00000000
20.532024 63.131844 3.879021 22.00000000
58.874538 -10.103247 3.879021 22.00000000
-56.436993 44.008121 3.879021 22.00000000
43.216103 26.459419 3.879021 22.00000000
63.482010 -22.787848 3.879021 22.00000000
-12.357208 -48.809055 3.879021 22.00000000
56.238441 -3.713837 3.879021 22.00000000
55.348049 15.681200 3.879021 22.00000000
-41.316757 36.296879 3.879021 22.00000000
52.027214 53.147743 3.879021 22.00000000
-2.463325 -38.684097 3.879021 22.00000000
-13.300598 -23.128777 3.879021 22.00000000
-28.666916 23.402004 3.879021 22.00000000
-46.139561 -26.528782 3.879021 22.00000000
-43.781979 42.167747 3.879021 22.00000000
36.092777 -23.810896 3.879021 22.00000000
-2.809284 34.995171 3.879021 22.00000000
-29.112438 -55.835480 3.879021 22.00000000
-33.607689 -25.962946 3.879021 22.00000000
56.534836 26.534966 3.879021 22.00000000
-23.774981 -59.657505 3.879021 22.00000000
51.867195 28.266312 3.879021 22.00000000
-39.248035 60.897289 3.879021 22.00000000
0.853153 34.002892 3.879021 22.00000000
-31.220198 27.436140 3.879021 22.00000000
-25.453712 -10.681275 3.879021 22.00000000
64.746948 45.752460 3.879021 22.00000000
18.773075 55.389915 3.879021 22.00000000
8.997195 42.854176 3.879021 22.00000000
36.692776 73.809776 3.879021 22.00000000
39.344212 -5.085867 3.879021 22.00000000
-29.086433 -23.745823 3.879021 22.00000000
27.039606 40.217503 3.879021 22.00000000
37.111034 65.949112 3.879021 22.00000000
-34.370941 13.300011 3.879021 22.00000000
47.992565 -33.791492 3.879021 22.00000000
36.032612 30.851303 3.879021 22.00000000
66.780785 32.626656 3.879021 22.00000000
-0.029253 -62.586426 3.879021 22.00000000
29.349600 32.031429 3.879021 22.00000000
-38.230042 -36.423546 3.879021 22.00000000
-51.593990 6.568246 3.879021 22.00000000
-53.472786 36.577896 3.879021 22.00000000
-44.141701 -0.124744 3.879021 22.00000000
-36.901508 -9.988519 3.879021 22.00000000
-46.092770 48.737370 3.879021 22.00000000
37.187950 -60.319485 3.879021 22.00000000
-24.429344 65.835976 3.879021 22.00000000
23.768398 -58.285477 3.879021 22.00000000
57.512302 2.197045 3.879021 22.00000000
-60.290894 17.515055 3.879021 22.00000000
44.497314 -16.776993 3.879021 22.00000000
2.977717 -31.798912 3.879021 22.00000000
58.202820 10.256931 3.879021 22.00000000
-21.163313 -41.348598 3.879021 22.00000000
56.993690 47.070358 3.879021 22.00000000
28.097118 48.241859 3.879021 22.00000000
-62.638672 29.375450 3.879021 22.00000000
-53.494507 10.220084 3.879021 22.00000000
-7.677194 38.514103 3.879021 22.00000000
36.075405 38.111629 3.879021 22.00000000
39.959202 23.729174 3.879021 22.00000000
-13.992489 -33.203453 3.879021 22.00000000
-37.508575 4.713407 3.879021 22.00000000
-44.426468 23.077860 3.879021 22.00000000
36.024052 -27.386499 3.879021 22.00000000
42.206017 -51.269512 3.879021 22.00000000
-44.749966 -4.717560 3.879021 22.00000000
-49.862823 -10.069530 3.879021 22.00000000
-38.009388 -14.455419 3.879021 22.00000000
63.568066 24.504213 3.879021 22.00000000
62.164413 49.989479 3.879021 22.00000000
-7.550268 78.631508 3.879021 22.00000000
-6.754852 -18.845407 3.879021 22.00000000
24.514654 28.882156 3.879021 22.00000000
38.555962 51.100395 3.879021 22.00000000
52.466629 -47.412746 3.879021 22.00000000
26.331089 -44.196198 3.879021 22.00000000
2.309613 -58.662697 3.879021 22.00000000
53.184429 21.942474 3.879021 22.00000000
-55.536743 -23.264290 3.879021 22.00000000
-6.089173 -22.155745 3.879021 22.00000000
6.009628 -67.968765 3.879021 22.00000000
-57.216557 38.132683 3.879021 22.00000000
-42.123428 50.917927 3.879021 22.00000000
17.567738 46.120598 3.879021 22.00000000
7.817640 -30.664417 3.879021 22.00000000
31.649670 -54.774055 3.879021 22.00000000
-37.318314 65.195450 3.879021 22.00000000
66.265022 -20.357399 3.879021 22.00000000
-22.787140 -54.189987 3.879021 22.00000000
-8.852241 -45.588413 3.879021 22.00000000
17.677141 60.357395 3.879021 22.00000000
73.653503 24.135904 3.879021 22.00000000
-31.238560 -7.337686 3.879021 22.00000000
-6.672498 -36.559376 3.879021 22.00000000
-9.959921 -65.772491 3.879021 22.00000000
-17.579966 -21.347225 3.879021 22.00000000
-41.081436 -18.016832 3.879021 22.00000000
-40.637894 27.833551 3.879021 22.00000000
43.912067 31.625385 3.879021 22.00000000
-28.531015 60.411221 3.879021 22.00000000
22.709541 48.148350 3.879021 22.00000000
-53.227188 -6.408107 3.879021 22.00000000
9.970462 64.823708 3.879021 22.00000000
24.298943 -49.876862 3.879021 22.00000000
-5.464986 40.926361 3.879021 22.00000000
62.182327 17.008663 3.879021 22.00000000
36.891247 -44.588047 3.879021 22.00000000
-34.706993 -46.437965 3.879021 22.00000000
35.027252 13.338559 3.879021 22.00000000
34.299767 -12.755779 3.879021 22.00000000
39.029797 35.076977 3.879021 22.00000000
-14.234012 -26.320543 3.879021 22.00000000
57.307945 -22.039078 3.879021 22.00000000
62.823730 4.783295 3.879021 22.00000000
5.115107 -64.282944 3.879021 22.00000000
-42.739479 57.774029 3.879021 22.00000000
40.605167 2.516237 3.879021 22.00000000
-24.351643 34.912418 3.879021 22.00000000
55.286716 43.616516 3.879021 22.00000000
6.395233 34.627914 3.879021 22.00000000
62.535736 -15.801322 3.879021 22.00000000
20.950932 -22.206703 3.879021 22.00000000
53.128716 -52.513435 3.879021 22.00000000
-30.767391 -27.782120 3.879021 22.00000000
22.018362 -67.127472 3.879021 22.00000000
-9.531192 48.367802 3.879021 22.00000000
-62.339169 13.351812 3.879021 22.00000000
-9.632451 -26.814939 3.879021 22.00000000
11.671264 -49.375603 3.879021 22.00000000
-58.139988 -25.391285 3.879021 22.00000000
32.910683 -26.644623 3.879021 22.00000000
60.525894 -7.317805 3.879021 22.00000000
-19.590487 -18.051098 3.879021 22.00000000
-62.345928 32.879223 3.879021 22.00000000
57.537983 29.696014 3.879021 22.00000000
52.530254 60.061073 3.879021 22.00000000
-1.245723 -51.692909 3.879021 22.00000000
66.219688 22.820110 3.879021 22.00000000
-2.792067 -46.913776 3.879021 22.00000000
-46.009338 45.292892 3.879021 22.00000000
69.493919 -2.147116 3.879021 22.00000000
-15.213831 37.525623 3.879021 22.00000000
9.655612 -26.466295 3.879021 22.00000000
-15.691007 -40.105579 3.879021 22.00000000
-66.759979 -7.148313 3.879021 22.00000000
-17.602667 35.258224 3.879021 22.00000000
-32.088547 10.797565 3.879021 22.00000000
-18.739899 27.548082 3.879021 22.00000000
13.958066 73.597763 3.879021 22.00000000
16.079107 -27.076933 3.879021 22.00000000
63.520737 53.450676 3.879021 22.00000000
-35.391876 34.610237 3.879021 22.00000000
-23.808056 31.223434 3.879021 22.00000000
-13.901415 -19.647535 3.879021 22.00000000
58.633045 20.669973 3.879021 22.00000000
68.255737 19.266068 3.879021 22.00000000
48.248363 -13.655016 3.879021 22.00000000
40.464252 -45.433994 3.879021 22.00000000
-33.341106 25.198708 3.879021 22.00000000
-38.587399 -44.575577 3.879021 22.00000000
-47.699535 12.886570 3.879021 22.00000000
-20.746161 41.496090 3.879021 22.00000000
2.568833 62.642216 3.879021 22.00000000
-58.083160 28.880299 3.879021 22.00000000
-9.846445 69.095856 3.879021 22.00000000
16.971634 -41.871441 3.879021 22.00000000
49.860691 56.548477 3.879021 22.00000000
4.453643 60.165150 3.879021 22.00000000
46.890812 3.624598 3.879021 22.00000000
-27.976686 56.093849 3.879021 22.00000000
44.249683 -3.198221 3.879021 22.00000000
42.634621 -24.613552 3.879021 22.00000000
50.774181 8.466500 3.879021 22.00000000
42.311924 14.522097 3.879021 22.00000000
38.969685 -37.509235 3.879021 22.00000000
-45.006260 52.104702 3.879021 22.00000000
10.384388 58.089546 3.879021 22.00000000
1.473422 -41.508297 3.879021 22.00000000
-27.777849 -7.820707 3.879021 22.00000000
26.852491 63.277126 3.879021 22.00000000
25.682032 -66.255775 3.879021 22.00000000
54.488483 -42.332607 3.879021 22.00000000
-23.541443 50.928890 3.879021 22.00000000
35.135307 47.315075 3.879021 22.00000000
79.630554 -10.092434 3.879021 22.00000000
34.854534 -62.989716 3.879021 22.00000000
42.981247 -12.752210 3.879021 22.00000000
-31.040627 -45.516998 3.879021 22.00000000
11.053767 -23.043203 3.879021 22.00000000
12.862562 -44.033619 3.879021 22.00000000
-21.301588 10.523169 3.879021 22.00000000
22.311253 52.100750 3.879021 22.00000000
-52.335590 -21.498545 3.879021 22.00000000
58.922756 36.074921 3.879021 22.00000000
72.879639 -3.029029 3.879021 22.00000000
-20.904312 30.266819 3.879021 22.00000000
-24.601221 -45.994511 3.879021 22.00000000
-41.257061 14.014983 3.879021 22.00000000
46.644073 61.018631 3.879021 22.00000000
73.076881 -28.381392 3.879021 22.00000000
-45.274971 15.479576 3.879021 22.00000000
17.343288 -22.159224 3.879021 22.00000000
-55.938293 -4.701066 3.879021 22.00000000
26.947210 -60.004623 3.879021 22.00000000
34.147648 50.907200 3.879021 22.00000000
2.485802 37.036442 3.879021 22.00000000
6.040835 63.476852 3.879021 22.00000000
11.750802 41.267101 3.879021 22.00000000
-38.955025 -39.417191 3.879021 22.00000000
-14.723952 46.759968 3.879021 22.00000000
-42.094723 -49.752678 3.879021 22.00000000
-11.228644 31.933952 3.879021 22.00000000
52.926132 40.805035 3.879021 22.00000000
74.847343 -21.793032 3.879021 22.00000000
46.344795 47.607224 3.879021 22.00000000
13.023783 37.751846 3.879021 22.00000000
-15.472729 -29.694525 3.879021 22.00000000
20.885658 -56.702366 3.879021 22.00000000
-32.495880 -56.938850 3.879021 22.00000000
60.569424 -44.958660 3.879021 22.00000000
64.470207 7.521525 3.879021 22.00000000
13.875696 65.732063 3.879021 22.00000000
-13.593894 27.494616 3.879021 22.00000000
49.595173 -20.936594 3.879021 22.00000000
-26.063704 13.598593 3.879021 22.00000000
-10.653789 -56.457687 3.879021 22.00000000
-15.425500 30.976788 3.879021 22.00000000
-56.531162 11.368314 3.879021 22.00000000
-63.457294 20.116045 3.879021 22.00000000
50.824123 -41.455292 3.879021 22.00000000
-33.356922 -10.375499 3.879021 22.00000000
-26.545450 69.058372 3.879021 22.00000000
72.704178 17.328121 3.879021 22.00000000
14.615885 51.467758 3.879021 22.00000000
-31.405403 31.366755 3.879021 22.00000000
29.086609 -33.673615 3.879021 22.00000000
72.555969 -18.619862 3.879021 22.00000000
52.730698 49.974422 3.879021 22.00000000
43.118984 4.177948 3.879021 22.00000000
-5.411138 -60.943695 3.879021 22.00000000
14.199522 -67.786606 3.879021 22.00000000
-49.550426 9.505957 3.879021 22.00000000
4.759308 -24.943356 3.879021 22.00000000
5.996515 38.250820 3.879021 22.00000000
-32.316727 7.651478 3.879021 22.00000000
44.553078 11.684684 3.879021 22.00000000
18.808323 -53.371758 3.879021 22.00000000
-25.928946 -54.292637 3.879021 22.00000000
2.046325 -27.919930 3.879021 22.00000000
61.865608 34.315880 3.879021 22.00000000
-63.587563 9.827309 3.879021 22.00000000
-14.606601 -65.204124 3.879021 22.00000000
-46.668594 -37.861954 3.879021 22.00000000
33.582645 -57.514847 3.879021 22.00000000
14.204609 -24.546312 3.879021 22.00000000
-0.674896 -68.145393 3.879021 22.00000000
59.917145 -39.639698 3.879021 22.00000000
-10.720477 -34.827595 3.879021 22.00000000
-31.414394 63.861057 3.879021 22.00000000
-0.847431 -30.503956 3.879021 22.00000000
-20.534004 -2.028938 3.879021 22.00000000
43.563919 22.247574 3.879021 22.00000000
43.092194 -6.922303 3.879021 22.00000000
-45.813118 18.747414 3.879021 22.00000000
59.669071 -14.817256 3.879021 22.00000000
46.856911 15.986568 3.879021 22.00000000
44.761196 69.484245 3.879021 22.00000000
34.916279 42.857616 3.879021 22.00000000
-38.791832 19.614571 3.879021 22.00000000
-23.143051 1.512373 3.879021 22.00000000
76.129250 5.555991 3.879021 22.00000000
12.803990 79.178398 3.879021 22.00000000
29.744926 -36.815090 3.879021 22.00000000
57.323017 -43.957771 3.879021 22.00000000
-56.765640 -10.034457 3.879021 22.00000000
-43.464291 -39.175453 3.879021 22.00000000
-22.619068 -17.847351 3.879021 22.00000000
44.905682 -57.277023 3.879021 22.00000000
-21.450121 59.346401 3.879021 22.00000000
65.438881 16.988684 3.879021 22.00000000
52.923359 -5.292113 3.879021 22.00000000
4.657859 -52.551323 3.879021 22.00000000
68.609634 6.068576 3.879021 22.00000000
41.209278 -42.122463 3.879021 22.00000000
69.097839 29.764210 3.879021 22.00000000
-20.659636 53.741539 3.879021 22.00000000
0.522945 54.521305 3.879021 22.00000000
58.540195 -18.774521 3.879021 22.00000000
-34.307022 -5.101632 3.879021 22.00000000
10.208765 34.219299 3.879021 22.00000000
-50.615475 -27.740549 3.879021 22.00000000
-41.236359 3.812561 3.879021 22.00000000
9.309543 -63.608612 3.879021 22.00000000
-13.025594 -37.725994 3.879021 22.00000000
39.921883 5.762964 3.879021 22.00000000
-3.135976 -34.621967 3.879021 22.00000000
-16.048882 -52.954494 3.879021 22.00000000
-19.412750 -48.032532 3.879021 22.00000000
23.268171 -19.106314 3.879021 22.00000000
78.757446 25.304581 3.879021 22.00000000
-23.997280 8.438911 3.879021 22.00000000
62.766293 13.607216 3.879021 22.00000000
35.409252 -9.090751 3.879021 22.00000000
-6.758411 -32.975197 3.879021 22.00000000
-23.658735 -39.156300 3.879021 22.00000000
27.657598 66.329079 3.879021 22.00000000
73.236572 38.764336 3.879021 22.00000000
-6.388773 57.464573 3.879021 22.00000000
67.018929 -23.243877 3.879021 22.00000000
27.943333 -56.496284 3.879021 22.00000000
-27.878838 -46.445442 3.879021 22.00000000
-28.932884 -0.417443 3.879021 22.00000000
65.766235 -11.896462 3.879021 22.00000000
30.480982 -63.732304 3.879021 22.00000000
17.816441 32.232105 3.879021 22.00000000
23.090845 35.802620 3.879021 22.00000000
45.965469 -36.004822 3.879021 22.00000000
2.600505 51.809673 3.879021 22.00000000
6.400244 -59.389889 3.879021 22.00000000
-13.912920 34.118881 3.879021 22.00000000
23.063387 60.411297 3.879021 22.00000000
-5.482257 -57.513973 3.879021 22.00000000
53.582626 11.809504 3.879021 22.00000000
19.722242 -63.446556 3.879021 22.00000000
-23.622728 22.290277 3.879021 22.00000000
55.815189 36.108948 3.879021 22.00000000
39.489952 -33.727680 3.879021 22.00000000
-65.961761 24.264992 3.879021 22.00000000
-47.334850 41.050434 3.879021 22.00000000
23.446377 64.909431 3.879021 22.00000000
-14.311994 74.405678 3.879021 22.00000000
37.167789 -19.903990 3.879021 22.00000000
-60.651447 -23.444443 3.879021 22.00000000
-13.223232 68.789391 3.879021 22.00000000
-39.766506 31.017155 3.879021 22.00000000
15.265667 -53.423851 3.879021 22.00000000
18.923326 78.612465 3.879021 22.00000000
13.535549 -40.044647 3.879021 22.00000000
-43.890167 28.806156 3.879021 22.00000000
69.176147 38.737022 3.879021 22.00000000
-46.990578 -31.717180 3.879021 22.00000000
35.754494 0.889050 3.879021 22.00000000
33.169434 32.189991 3.879021 22.00000000
-27.205593 -28.981529 3.879021 22.00000000
-23.557304 18.752529 3.879021 22.00000000
60.384560 -22.715080 3.879021 22.00000000
40.896370 28.819323 3.879021 22.00000000
32.490036 -22.505165 3.879021 22.00000000
-1.454310 67.019127 3.879021 22.00000000
45.367954 -21.683050 3.879021 22.00000000
-51.972862 32.746815 3.879021 22.00000000
59.777016 27.626211 3.879021 22.00000000
10.570536 -66.672798 3.879021 22.00000000
-25.947001 -2.264619 3.879021 22.00000000
27.390617 36.388187 3.879021 22.00000000
-47.160309 -42.289234 3.879021 22.00000000
-2.488942 61.547726 3.879021 22.00000000
75.795692 18.345112 3.879021 22.00000000
16.888536 -47.851421 3.879021 22.00000000
-29.028032 -20.555887 3.879021 22.00000000
-19.995838 -52.205841 3.879021 22.00000000
33.146896 75.908287 3.879021 22.00000000
-41.861320 -7.960925 3.879021 22.00000000
81.210480 -1.300488 3.879021 22.00000000
-32.126534 -23.134293 3.879021 22.00000000
-11.482640 50.797253 3.879021 22.00000000
22.826283 -43.942879 3.879021 22.00000000
-24.428450 44.070244 3.879021 22.00000000
15.648507 -62.234646 3.879021 22.00000000
-20.840755 -31.234552 3.879021 22.00000000
-10.090840 -41.701340 3.879021 22.00000000
-37.561802 44.420673 3.879021 22.00000000
1.761786 58.613880 3.879021 22.00000000
50.494999 20.487562 3.879021 22.00000000
25.697252 32.354328 3.879021 22.00000000
-49.318024 17.177879 3.879021 22.00000000
-11.897346 -62.792545 3.879021 22.00000000
33.233147 -35.112080 3.879021 22.00000000
52.486710 2.672929 3.879021 22.00000000
59.663059 13.279971 3.879021 22.00000000
-9.876455 57.862488 3.879021 22.00000000
-60.340309 26.544220 3.879021 22.00000000
56.704556 -7.097312 3.879021 22.00000000
-24.604298 4.357570 3.879021 22.00000000
49.338909 -6.804377 3.879021 22.00000000
-11.649926 -53.250698 3.879021 22.00000000
42.579704 -28.230259 3.879021 22.00000000
55.652641 62.165703 3.879021 22.00000000
24.436251 -38.458290 3.879021 22.00000000
27.810843 44.862103 3.879021 22.00000000
19.815304 -33.397251 3.879021 22.00000000
-7.355192 51.354576 3.879021 22.00000000
-54.883686 21.582157 3.879021 22.00000000
-15.820957 24.591955 3.879021 22.00000000
76.783577 23.041971 3.879021 22.00000000
-65.420181 -11.162714 3.879021 22.00000000
-38.090157 -48.707832 3.879021 22.00000000
-10.098397 74.309639 3.879021 22.00000000
-30.190210 69.281334 3.879021 22.00000000
62.296238 -36.988457 3.879021 22.00000000
65.053879 36.424267 3.879021 22.00000000
-38.782829 -29.524433 3.879021 22.00000000
65.501617 29.761311 3.879021 22.00000000
73.879715 27.387527 3.879021 22.00000000
8.940785 -51.578960 3.879021 22.00000000
66.501823 -15.018909 3.879021 22.00000000
-35.671059 -42.770123 3.879021 22.00000000
-12.668342 -44.631653 3.879021 22.00000000
-34.518581 -34.527748 3.879021 22.00000000
-27.738083 65.909370 3.879021 22.00000000
38.437244 63.014660 3.879021 22.00000000
19.355570 -25.610222 3.879021 22.00000000
0.406350 -33.917385 3.879021 22.00000000
-19.861668 -24.534727 3.879021 22.00000000
-33.215801 -18.740492 3.879021 22.00000000
70.809395 26.548666 3.879021 22.00000000
12.481451 -55.263233 3.879021 22.00000000
-2.332670 72.520416 3.879021 22.00000000
-23.043615 -50.673187 3.879021 22.00000000
-20.537050 15.089794 3.879021 22.00000000
-13.184177 -15.985220 3.879021 22.00000000
1.914927 47.928909 3.879021 22.00000000
-6.338830 48.479282 3.879021 22.00000000
-7.411556 -52.645012 3.879021 22.00000000
-37.267700 -32.096207 3.879021 22.00000000
46.301376 41.680534 3.879021 22.00000000
-31.304031 -13.540954 3.879021 22.00000000
-29.420233 16.470634 3.879021 22.00000000
3.055327 -46.973335 3.879021 22.00000000
-21.023689 -11.015757 3.879021 22.00000000
25.351431 -22.630297 3.879021 22.00000000
-35.367153 -22.556686 3.879021 22.00000000
-17.331003 -43.925812 3.879021 22.00000000
-21.056158 1.669056 -9.113831 23.00000000
-21.531963 7.889859 -26.194046 23.00000000
-21.175615 3.230873 -29.360498 23.00000000
-20.967876 0.514849 -20.049622 23.00000000
-21.065454 1.790614 -23.362160 23.00000000
-21.125990 2.582060 -29.175669 23.00000000
-21.041832 1.481765 -50.498928 23.00000000
-21.260015 4.334349 -30.901455 23.00000000
-21.534395 7.921646 -0.261202 23.00000000
-21.236567 4.027769 -56.587025 23.00000000
-20.922855 -0.073767 -12.472721 23.00000000
-21.348284 5.488369 -47.582439 23.00000000
-21.335751 5.324529 -1.699225 23.00000000
-20.978811 0.657810 0.771547 23.00000000
-21.336554 5.335009 -46.905262 23.00000000
-21.254030 4.256107 -60.202896 23.00000000
-21.190449 3.424819 -12.148080 23.00000000
-20.931698 0.041830 -10.777643 23.00000000
-21.151775 2.919195 -3.963559 23.00000000
-21.455885 6.895174 -0.948218 23.00000000
-21.081947 2.006246 -37.545589 23.00000000
-21.533375 7.908298 -29.883772 23.00000000
-21.539665 7.990556 -55.474438 23.00000000
-21.166479 3.111444 -52.965816 23.00000000
-21.317043 5.079951 -31.756807 23.00000000
-21.333918 5.300551 -59.546635 23.00000000
-21.537512 7.962401 -44.107342 23.00000000
-21.096846 2.201014 -51.309486 23.00000000
-21.143885 2.816011 -26.522806 23.00000000
-21.117804 2.475024 2.708845 23.00000000
-21.429764 6.553661 -34.011150 23.00000000
-21.044268 1.513594 -35.476635 23.00000000
-21.361910 5.666522 -48.407150 23.00000000
-21.448540 6.799153 -14.431556 23.00000000
-21.284342 4.652397 -21.274540 23.00000000
-21.349119 5.499310 -56.865555 23.00000000
-21.391693 6.055930 -17.494314 23.00000000
-21.081043 1.994423 -52.190136 23.00000000
-21.070944 1.862383 -59.362045 23.00000000
-21.406586 6.250623 -26.485023 23.00000000
-21.203188 3.591372 -50.284317 23.00000000
-21.479349 7.201959 -47.212357 23.00000000
-20.986889 0.763424 -12.766765 23.00000000
-21.183403 3.332699 -5.690011 23.00000000
-21.408138 6.270938 -7.899793 23.00000000
-21.534412 7.921868 -10.230288 23.00000000
-21.435163 6.624272 2.954369 23.00000000
-21.344049 5.433022 -50.375790 23.00000000
-21.434505 6.615682 -2.382945 23.00000000
-21.047451 1.555222 -19.104147 23.00000000
-21.126654 2.590727 -33.673195 23.00000000
-21.354891 5.574759 -5.790106 23.00000000
-21.419792 6.423314 -41.175034 23.00000000
-21.099211 2.231930 -4.585115 23.00000000
-20.942898 0.188264 -48.032074 23.00000000
-21.032536 1.360216 -32.435863 23.00000000
-21.437227 6.651257 -0.401765 23.00000000
-21.039633 1.453005 -0.236305 23.00000000
-21.096821 2.200690 -8.433056 23.00000000
-21.037104 1.419934 -2.640328 23.00000000
-21.145014 2.830787 -52.189480 23.00000000
-21.465359 7.019044 -22.729729 23.00000000
-21.203539 3.595957 -37.014252 23.00000000
-21.386520 5.988293 -7.212591 23.00000000
-21.346128 5.460211 -20.525394 23.00000000
-21.022652 1.230990 -9.478526 23.00000000
-21.285629 4.669240 3.768388 23.00000000
-21.485785 7.286109 -29.240337 23.00000000
-21.308865 4.973009 -29.365541 23.00000000
-20.928448 -0.000666 -57.159847 23.00000000
-21.300161 4.859232 -38.885719 23.00000000
-20.999395 0.926943 -32.907734 23.00000000
-21.517628 7.702416 -16.366957 23.00000000
-21.253403 4.247876 -8.746502 23.00000000
-21.318649 5.100935 -6.875465 23.00000000
-21.480865 7.221803 -30.080221 23.00000000
-21.381638 5.924451 -24.126772 23.00000000
-21.087563 2.079655 -56.782600 23.00000000
-21.283339 4.639277 -47.329571 23.00000000
-20.961878 0.436422 -25.089748 23.00000000
-21.094114 2.165311 -57.438473 23.00000000
-21.423893 6.476918 -2.934792 23.00000000
-21.092594 2.145442 -56.085068 23.00000000
-21.162558 3.060152 -20.042459 23.00000000
-21.464790 7.011624 -51.111107 23.00000000
-20.921343 -0.093540 -35.134296 23.00000000
-21.475851 7.156229 -8.163359 23.00000000
-21.539576 7.989369 -52.403976 23.00000000
-21.326288 5.200802 -15.984619 23.00000000
-21.063108 1.759941 2.960756 23.00000000
-21.315350 5.057784 -43.770458 23.00000000
-21.038048 1.432274 -3.685150 23.00000000
-21.530977 7.876958 -46.170254 23.00000000
-21.222904 3.849139 -35.023716 23.00000000
-21.071302 1.867070 -9.816389 23.00000000
-21.525696 7.807909 -4.791076 23.00000000
-21.244869 4.136315 -48.900894 23.00000000
-21.476233 7.161211 -42.378517 23.00000000
-21.285742 4.670705 -53.608505 23.00000000
-21.325747 5.193725 -58.971546 23.00000000
-21.121063 2.517644 -5.181351 23.00000000
-21.235552 4.014507 -49.887192 23.00000000
-21.267426 4.431222 -52.296936 23.00000000
-21.499693 7.467942 -38.781273 23.00000000
-21.186623 3.374797 -43.146664 23.00000000
-20.966454 0.496234 -46.907562 23.00000000
-21.260878 4.345625 -7.909855 23.00000000
-20.979856 0.671488 -43.544781 23.00000000
-21.069464 1.843026 -12.004873 23.00000000
-21.500673 7.480772 -27.249521 23.00000000
-21.252752 4.239374 -21.923985 23.00000000
-21.479258 7.200767 -54.725067 23.00000000
-20.984791 0.735979 -16.088919 23.00000000
-21.279797 4.592956 -57.157177 23.00000000
-21.302685 4.892200 -12.627429 23.00000000
-20.979759 0.670201 -56.894817 23.00000000
-21.323545 5.164946 -10.398558 23.00000000
-21.162239 3.056007 -6.191289 23.00000000
-21.225100 3.877856 -13.810174 23.00000000
-21.207653 3.649748 -58.867588 23.00000000
-21.363758 5.690698 -19.251837 23.00000000
-21.173025 3.197006 -13.746759 23.00000000
-21.473961 7.131508 -17.510553 23.00000000
-21.186098 3.367927 -3.456540 23.00000000
-21.151226 2.911998 -15.117844 23.00000000
-21.132387 2.665701 -12.881469 23.00000000
-21.479540 7.204446 1.795439 23.00000000
-21.531601 7.885112 -45.164284 23.00000000
-21.452307 6.848404 -25.304394 23.00000000
-21.464020 7.001551 -5.007970 23.00000000
-21.399809 6.162032 -46.774353 23.00000000
-21.539499 7.988391 -47.058910 23.00000000
-20.965803 0.487737 -4.407989 23.00000000
-21.521162 7.748639 -54.059612 23.00000000
-21.449017 6.805384 -51.777100 23.00000000
-20.989046 0.791626 -14.076380 23.00000000
-21.252234 4.232592 -54.652035 23.00000000
-20.931978 0.045502 -33.387745 23.00000000
-21.298670 4.839723 -5.634152 23.00000000
-21.351856 5.535105 -19.916660 23.00000000
-20.932749 0.055581 -8.150481 23.00000000
-21.179321 3.279339 3.240759 23.00000000
-21.177353 3.253584 -47.026527 23.00000000
-21.100512 2.248949 -39.311611 23.00000000
-21.498543 7.452902 -56.084206 23.00000000
-21.024841 1.259626 -10.195475 23.00000000
-21.338913 5.365874 3.553465 23.00000000
-21.228619 3.923850 -31.435127 23.00000000
-21.390114 6.035268 -55.868526 23.00000000
-21.423380 6.470196 -19.477709 23.00000000
-20.929270 0.010082 -1.014822 23.00000000
-21.262838 4.371258 -44.929352 23.00000000
-20.976589 0.628772 -59.410896 23.00000000
-20.919577 -0.116651 -37.872288 23.00000000
-21.012650 1.100215 -36.042858 23.00000000
-21.447248 6.782280 -37.297035 23.00000000
-20.930138 0.021450 -2.512087 23.00000000
-20.934698 0.081079 -25.843847 23.00000000
-20.954988 0.346334 -23.832561 23.00000000
-21.057463 1.686116 -25.726929 23.00000000
-21.522438 7.765321 -41.219021 23.00000000
-21.147766 2.866782 -15.669869 23.00000000
-21.035345 1.396948 0.385766 23.00000000
-21.192377 3.450025 -1.259167 23.00000000
-21.031616 1.348190 -27.062878 23.00000000
-21.048319 1.566554 -55.406326 23.00000000
-21.178776 3.272195 -57.555904 23.00000000
-21.307112 4.950099 -28.478336 23.00000000
-21.533058 7.904184 -3.627121 23.00000000
-20.918198 -0.134657 -30.980053 23.00000000
-21.006840 1.024262 -22.586279 23.00000000
-21.538200 7.971399 -51.286098 23.00000000
-20.988548 0.785129 -55.430321 23.00000000
-21.125658 2.577725 -35.052319 23.00000000
-21.159754 3.023490 -50.594921 23.00000000
-20.976339 0.625496 -13.395533 23.00000000
-21.411856 6.319530 -0.981925 23.00000000
-21.116060 2.452242 -47.251926 23.00000000
-21.153376 2.940100 -22.625202 23.00000000
-21.133766 2.683746 -56.317341 23.00000000
-21.372478 5.804723 -15.161410 23.00000000
-21.038132 1.433377 -34.530598 23.00000000
-21.176052 3.236580 -43.991028 23.00000000
-20.930513 0.026346 -14.875372 23.00000000
-21.133356 2.678373 -37.118824 23.00000000
-21.033087 1.367423 -45.079624 23.00000000
-20.947071 0.242829 -3.064312 23.00000000
-21.384670 5.964104 -21.983376 23.00000000
-21.178972 3.274757 -40.659000 23.00000000
-21.236612 4.028378 -17.352383 23.00000000
-21.326696 5.206141 -27.087976 23.00000000
-20.929972 0.019277 -34.123291 23.00000000
-20.925648 -0.037260 1.235590 23.00000000
-21.397900 6.137078 -18.138054 23.00000000
-21.204578 3.609554 -34.375916 23.00000000
-21.006989 1.026200 -45.631115 23.00000000
-21.273369 4.508914 -45.957020 23.00000000
-21.426935 6.516704 -43.156898 23.00000000
-21.514153 7.656993 -9.659968 23.00000000
-21.487215 7.304810 -46.364368 23.00000000
-21.130537 2.641514 0.264964 23.00000000
-21.124262 2.559459 -44.084469 23.00000000
-21.469456 7.072622 -36.542915 23.00000000
-21.324638 5.179252 -8.777417 23.00000000
-21.029699 1.323136 -16.258394 23.00000000
-20.923834 -0.060986 -51.320679 23.00000000
-20.979961 0.672838 -49.682999 23.00000000
-20.930042 0.020205 2.995246 23.00000000
-21.327196 5.212688 -53.012012 23.00000000
-21.038145 1.433571 -49.237743 23.00000000
-21.456970 6.909378 -56.676491 23.00000000
-21.495874 7.418012 -1.279593 23.00000000
-21.538021 7.969068 -47.793705 23.00000000
-21.269941 4.464109 -14.988288 23.00000000
-21.101624 2.263486 1.515642 23.00000000
-21.414612 6.355576 -35.703041 23.00000000
-21.279144 4.584444 -44.339092 23.00000000
-21.538227 7.971746 -15.237317 23.00000000
-20.919865 -0.112871 -4.276140 23.00000000
-21.396749 6.122043 -10.630959 23.00000000
-21.246492 4.157531 -51.741112 23.00000000
-21.018549 1.177354 3.798314 23.00000000
-21.524054 7.786446 -5.490831 23.00000000
-21.091091 2.125786 -43.465134 23.00000000
-21.365934 5.719150 -6.481845 23.00000000
-21.273472 4.510273 3.014036 23.00000000
-21.002888 0.972582 -7.227115 23.00000000
-21.047087 1.550446 -52.771778 23.00000000
-20.925129 -0.044047 -14.279594 23.00000000
-21.379370 5.894802 -39.542027 23.00000000
-21.458469 6.928985 -60.470222 23.00000000
-21.183569 3.334867 -8.669650 23.00000000
-21.205492 3.621492 -7.745943 23.00000000
-20.954020 0.333670 -10.168179 23.00000000
-21.500479 7.478222 -34.936016 23.00000000
-21.173466 3.202766 -56.545174 23.00000000
-21.188410 3.398152 -45.657227 23.00000000
-20.932413 0.051198 -43.521099 23.00000000
-21.284117 4.649447 0.150563 23.00000000
-21.362167 5.669897 -3.262669 23.00000000
-21.534554 7.923724 -12.786221 23.00000000
-21.171959 3.183073 -49.684437 23.00000000
-21.492092 7.368580 -14.630173 23.00000000
-21.098423 2.221646 -28.581387 23.00000000
-21.098125 2.217747 -26.057859 23.00000000
-21.477657 7.179848 -53.462429 23.00000000
-21.215759 3.755730 -38.390133 23.00000000
-21.522608 7.767530 1.043142 23.00000000
-21.142870 2.802744 -39.205746 23.00000000
-21.459597 6.943705 -38.286156 23.00000000
-21.491076 7.355279 -21.954348 23.00000000
-21.231831 3.965854 -20.692640 23.00000000
-21.376759 5.860680 1.490864 23.00000000
-21.187412 3.385124 -60.369827 23.00000000
-21.077875 1.953007 -3.257328 23.00000000
-21.225561 3.883871 -54.148369 23.00000000
-21.173893 3.208357 -9.431124 23.00000000
-21.490959 7.353754 -43.714836 23.00000000
-21.196035 3.497859 -21.100176 23.00000000
-21.187344 3.384223 -48.981586 23.00000000
-21.068527 1.830793 -17.003958 23.00000000
-21.309916 4.986751 -43.012474 23.00000000
-21.000526 0.941710 -56.250465 23.00000000
-21.424383 6.483338 -30.162373 23.00000000
-21.490843 7.352222 -0.476709 23.00000000
-20.981903 0.698233 -51.534740 23.00000000
-21.388374 6.012542 -16.487379 23.00000000
-21.081442 1.999614 -22.777735 23.00000000
-21.061594 1.740131 -0.765786 23.00000000
-21.002745 0.970726 -31.777521 23.00000000
-21.105501 2.314194 -0.519599 23.00000000
-21.289873 4.724726 -4.199897 23.00000000
-21.495768 7.416619 -49.989571 23.00000000
-21.049421 1.580998 -51.078854 23.00000000
-21.062597 1.753247 -20.811979 23.00000000
-21.457462 6.915822 -23.413088 23.00000000
-21.212654 3.715139 -26.669617 23.00000000
-21.243254 4.115186 -24.870430 23.00000000
-21.394415 6.091499 -47.775650 23.00000000
-21.270720 4.474283 -2.159693 23.00000000
-21.458010 6.922967 -12.405985 23.00000000
-21.191704 3.441204 -30.415531 23.00000000
-21.365461 5.712977 -7.703895 23.00000000
-21.533365 7.908192 -58.373749 23.00000000
-21.206331 3.632459 -24.213964 23.00000000
-21.080576 1.988300 -49.558945 23.00000000
-21.394318 6.090241 -33.569843 23.00000000
-21.460699 6.958147 -9.809645 23.00000000
-21.516615 7.689175 -6.834697 23.00000000
-21.037201 1.421202 -28.381895 23.00000000
-20.930628 0.027849 -42.154278 23.00000000
-21.228628 3.923986 -14.511632 23.00000000
-21.138296 2.742951 -35.740788 23.00000000
-21.175877 3.234278 -46.349552 23.00000000
-21.255726 4.278244 -35.599274 23.00000000
-21.168676 3.140155 -27.633650 23.00000000
-21.309931 4.986950 -11.718815 23.00000000
-21.459164 6.938048 -10.435230 23.00000000
-21.181437 3.306986 -54.409229 23.00000000
-21.394081 6.087160 -56.765713 23.00000000
-21.189775 3.415998 -31.040407 23.00000000
-20.921911 -0.086113 -46.550625 23.00000000
-21.473400 7.124202 -13.658917 23.00000000
-21.357033 5.602775 -45.235741 23.00000000
-21.267406 4.430974 0.837960 23.00000000
-21.243456 4.117834 -12.801540 23.00000000
-21.462139 6.976952 -5.732166 23.00000000
-21.011816 1.089320 -20.755278 23.00000000
-21.528397 7.843225 0.352016 23.00000000
-21.392433 6.065603 -52.951328 23.00000000
-21.449039 6.805691 3.775268 23.00000000
-21.445999 6.765953 -44.026043 23.00000000
-21.531300 7.881188 -32.743156 23.00000000
-20.918695 -0.128148 2.346086 23.00000000
-20.930296 0.023509 -4.978655 23.00000000
-21.532791 7.900671 -60.108814 23.00000000
-21.432177 6.585211 -1.682978 23.00000000
-21.313080 5.028123 -38.045650 23.00000000
-21.411745 6.318088 -18.842857 23.00000000
-21.170279 3.161110 2.634998 23.00000000
-21.169540 3.151450 0.832022 23.00000000
-21.355453 5.582125 -35.241917 23.00000000
-21.464842 7.012288 -58.566971 23.00000000
-21.039001 1.444753 -36.778370 23.00000000
-20.954449 0.339294 -49.230587 23.00000000
-21.320848 5.129691 -37.273399 23.00000000
-21.306707 4.944815 -16.700411 23.00000000
-20.970198 0.545199 -29.250149 23.00000000
-21.535524 7.936427 -58.974571 23.00000000
-21.437441 6.654048 -47.376740 23.00000000
-21.436939 6.647488 -4.393816 23.00000000
-21.438919 6.673371 -9.254184 23.00000000
-21.526285 7.815610 -3.002678 23.00000000
-21.165371 3.096931 -34.028042 23.00000000
-21.249411 4.195692 -19.485390 23.00000000
-21.342085 5.407327 -14.577521 23.00000000
-20.971943 0.568000 -9.548225 23.00000000
-21.380466 5.909154 0.723668 23.00000000
-21.333122 5.290160 0.037523 23.00000000
-20.979895 0.671985 -60.333942 23.00000000
-21.520119 7.734998 -52.952187 23.00000000
-21.246510 4.157771 -42.551235 23.00000000
-21.439396 6.679608 -41.740513 23.00000000
-21.047895 1.561046 -46.905605 23.00000000
-21.279037 4.583055 -17.647020 23.00000000
-20.970200 0.545216 -0.561209 23.00000000
-20.983475 0.718780 -2.631386 23.00000000
-21.040554 1.465056 -54.133629 23.00000000
-20.929132 0.008298 -27.586901 23.00000000
-21.497412 7.438130 -30.714308 23.00000000
-21.443968 6.739382 -13.074181 23.00000000
-21.086426 2.064795 -21.513754 23.00000000
-20.966564 0.497695 -21.293993 23.00000000
-21.414865 6.358899 0.367864 23.00000000
-21.227417 3.908144 -0.648828 23.00000000
-21.191690 3.441057 -4.515086 23.00000000
-21.098600 2.223969 -42.151272 23.00000000
-20.963871 0.462484 -44.117664 23.00000000
-21.337868 5.352189 -24.549919 23.00000000
-21.538651 7.977277 -39.658077 23.00000000
-21.153610 2.943167 -25.769220 23.00000000
-21.180153 3.290195 -35.208267 23.00000000
-21.258360 4.312705 -18.783804 23.00000000
-21.142881 2.802908 -30.028345 23.00000000
-21.384476 5.961569 -42.882835 23.00000000
-21.294971 4.791364 -18.170614 23.00000000
-21.373121 5.813123 -26.991241 23.00000000
-20.918983 -0.124398 -48.679581 23.00000000
-20.970627 0.550794 -57.553169 23.00000000
-21.159176 3.015925 -23.368467 23.00000000
-21.151869 2.920408 -24.089355 23.00000000
-21.411110 6.309773 -55.364838 23.00000000
-21.020025 1.196663 -59.823334 23.00000000
-21.054840 1.651825 -8.307420 23.00000000
-20.971560 0.563008 -39.348778 23.00000000
-21.173784 3.206929 0.206409 23.00000000
-21.316668 5.075019 -9.792516 23.00000000
-21.003220 0.976937 -54.458054 23.00000000
-21.306532 4.942512 -3.495937 23.00000000
-21.246178 4.153410 2.445254 23.00000000
-21.355797 5.586596 -40.201851 23.00000000
-21.123520 2.549754 -53.496071 23.00000000
-21.398678 6.147255 -28.237871 23.00000000
-20.931799 0.043155 -45.047836 23.00000000
-21.539276 7.985460 -19.736715 23.00000000
-21.098858 2.227320 -18.308001 23.00000000
-21.494297 7.397399 -28.357927 23.00000000
-20.998533 0.915665 -58.389679 23.00000000
-21.163214 3.068739 -55.481747 23.00000000
-21.495724 7.416053 -39.418621 23.00000000
-21.383268 5.945774 -49.931683 23.00000000
-21.230658 3.950500 -46.234066 23.00000000
-21.240530 4.079586 -41.880081 23.00000000
-21.141031 2.778730 -57.036572 23.00000000
-21.265335 4.403911 -43.208710 23.00000000
-21.034182 1.381726 -23.740505 23.00000000
-21.308903 4.973510 -31.103470 23.00000000
-21.282431 4.627399 -23.203339 23.00000000
-21.317608 5.087315 -2.624023 23.00000000
-21.002361 0.965721 -24.684879 23.00000000
-21.021534 1.216381 -1.226190 23.00000000
-20.953859 0.331587 -58.274036 23.00000000
-21.315655 5.061794 -34.184235 23.00000000
-21.256308 4.285864 -23.838888 23.00000000
-21.349827 5.508565 -26.462746 23.00000000
-20.997765 0.905623 1.332725 23.00000000
-21.534658 7.925105 -42.446404 23.00000000
-21.064241 1.774756 -60.399979 23.00000000
-21.053614 1.635799 -53.336857 23.00000000
-21.010674 1.074383 -38.726582 23.00000000
-20.986692 0.760845 -5.911548 23.00000000
-20.995819 0.880189 -23.303911 23.00000000
-21.533279 7.907071 3.694098 23.00000000
-21.465633 7.022638 -26.397549 23.00000000
-20.973654 0.590376 -17.710918 23.00000000
-21.243378 4.116820 -36.417645 23.00000000
-20.972166 0.570929 3.276645 23.00000000
-21.200447 3.555536 -17.889799 23.00000000
-21.306969 4.948210 -30.444492 23.00000000
-21.425749 6.501169 -48.936104 23.00000000
-21.313623 5.035233 -25.227354 23.00000000
-21.353361 5.554776 -30.859146 23.00000000
-21.215683 3.754727 -58.049255 23.00000000
-21.251701 4.225646 -52.912102 23.00000000
-21.408939 6.281413 -58.416203 23.00000000
-21.225725 3.886031 -27.747055 23.00000000
-21.416361 6.378432 -32.491634 23.00000000
-21.306894 4.947254 -8.217040 23.00000000
-21.537514 7.962429 -27.913782 23.00000000
-21.261421 4.352721 -6.064490 23.00000000
-20.970013 0.542772 -20.659584 23.00000000
-21.532297 7.894224 -22.484077 23.00000000
-21.077797 1.951970 3.661017 23.00000000
-21.320061 5.119382 -39.764149 23.00000000
-21.247761 4.174131 -18.147924 23.00000000
-21.037203 1.421243 -30.450323 23.00000000
-20.940323 0.154592 -55.973404 23.00000000
-21.139893 2.763829 -8.214390 23.00000000
-21.288242 4.703391 -42.427994 23.00000000
-21.462908 6.987005 -7.594188 23.00000000
-21.274258 4.520540 -6.631509 23.00000000
-21.286608 4.682005 -32.707779 23.00000000
-21.425215 6.494198 -61.064812 23.00000000
-21.217724 3.781401 -55.103127 23.00000000
-20.942684 0.185489 -31.919098 23.00000000
-21.133106 2.675103 -54.196831 23.00000000
-20.943811 0.200219 -1.866272 23.00000000
-21.378929 5.889052 -32.980495 23.00000000
-21.045555 1.530434 -43.460793 23.00000000
-20.928329 -0.002191 -32.677490 23.00000000
-21.224602 3.871334 -41.010662 23.00000000
-21.004988 1.000049 -11.446350 23.00000000
-21.411530 6.315285 -38.512169 23.00000000
-21.167919 3.130249 -32.328087 23.00000000
-21.241823 4.096488 -28.376282 23.00000000
-21.090837 2.122477 -30.407454 23.00000000
-21.476892 7.169841 -55.378784 23.00000000
-21.291569 4.746880 -9.271803 23.00000000
-21.114773 2.435413 -59.186871 23.00000000
-21.097876 2.214494 -33.172173 23.00000000
-21.452095 6.845643 -52.565441 23.00000000
-21.059111 1.707653 -31.214178 23.00000000
-21.104395 2.299717 -17.500313 23.00000000
-21.210032 3.680841 -16.872202 23.00000000
-21.151505 2.915635 -18.268328 23.00000000
-21.516041 7.681671 -49.322891 23.00000000
-21.102100 2.269719 -15.041077 23.00000000
-21.532614 7.898356 -33.637691 23.00000000
-21.265709 4.408763 -11.583258 23.00000000
-21.522717 7.768967 -1.828783 23.00000000
-21.099113 2.230661 -11.449142 23.00000000
-21.318783 5.102675 0.655475 23.00000000
-21.107702 2.342957 -58.217934 23.00000000
-21.512192 7.631363 -23.307301 23.00000000
-21.227379 3.907645 -5.698734 23.00000000
-21.088051 2.086032 -35.430729 23.00000000
-21.120987 2.516650 -42.720631 23.00000000
-21.473103 7.120296 -42.982815 23.00000000
-21.037857 1.429783 -19.790661 23.00000000
-21.492836 7.378299 -31.356476 23.00000000
-21.134113 2.688258 -40.135952 23.00000000
-21.534561 7.923828 -29.324953 23.00000000
-20.955177 0.348808 -31.293140 23.00000000
-21.087360 2.077015 -24.291916 23.00000000
-21.171282 3.174207 -37.927048 23.00000000
-21.459394 6.941072 0.448628 23.00000000
-20.979797 0.670709 -32.341381 23.00000000
-21.217310 3.775999 -52.379311 23.00000000
-20.937134 0.112902 -16.819429 23.00000000
-21.324564 5.178265 -57.477207 23.00000000
-21.222828 3.848145 -9.165692 23.00000000
-21.044947 1.522475 -18.081280 23.00000000
-20.940105 0.151772 -52.667435 23.00000000
-21.302946 4.895638 -54.188332 23.00000000
-21.340780 5.390294 -44.462749 23.00000000
-20.962721 0.447424 -53.480133 23.00000000
-21.301458 4.876184 -13.319326 23.00000000
-21.449631 6.813423 -30.766258 23.00000000
-21.526848 7.822959 -21.017799 23.00000000
-21.125423 2.574666 -44.805859 23.00000000
-21.496462 7.425693 -37.095695 23.00000000
-20.917847 -0.139258 -22.649862 23.00000000
-21.291737 4.749082 -36.689198 23.00000000
-20.978590 0.654915 -46.230923 23.00000000
-20.957268 0.376140 -45.597687 23.00000000
-20.980246 0.676557 -16.655319 23.00000000
-20.917524 -0.143463 3.602594 23.00000000
-20.923294 -0.068017 -56.523117 23.00000000
-20.983749 0.722381 -52.379444 23.00000000
-20.929644 0.014968 -59.852428 23.00000000
-21.300228 4.860103 -10.883103 23.00000000
-20.996006 0.882619 -50.742676 23.00000000
-21.113426 2.417796 -23.347607 23.00000000
-21.076107 1.929885 -32.572777 23.00000000
-21.482843 7.247642 -6.408558 23.00000000
-21.498960 7.458367 -39.985847 23.00000000
-20.965393 0.482383 -40.829784 23.00000000
-21.003759 0.983983 -47.931381 23.00000000
-20.937733 0.120736 -42.809551 23.00000000
-21.034721 1.388789 -47.488659 23.00000000
-21.451557 6.838615 -20.212488 23.00000000
-21.138620 2.747204 -43.505192 23.00000000
-21.094315 2.167936 -20.327734 23.00000000
-21.092482 2.143963 -41.407124 23.00000000
-21.430052 6.557441 -24.044882 23.00000000
-21.242117 4.100330 -32.958523 23.00000000
-21.349108 5.499161 -52.376049 23.00000000
-21.528194 7.840574 -17.888132 23.00000000
-21.076721 1.937903 -46.303741 23.00000000
-21.462164 6.977272 -32.642632 23.00000000
-21.351313 5.527983 2.288978 23.00000000
-21.058043 1.693711 -13.731119 23.00000000
-21.227251 3.905990 -2.615663 23.00000000
-20.928589 0.001194 -22.080004 23.00000000
-21.307570 4.956087 -26.509562 23.00000000
-21.365685 5.715895 -49.013157 23.00000000
-21.403759 6.213683 -5.618596 23.00000000
-21.538269 7.972298 -8.932978 23.00000000
-21.386658 5.990099 -31.656506 23.00000000
-20.922586 -0.077274 -8.956574 23.00000000
-21.106728 2.330213 -50.304073 23.00000000
-21.336805 5.338319 -4.500594 23.00000000
-21.536926 7.954757 -11.650489 23.00000000
-20.928900 0.005244 0.511407 23.00000000
-21.314043 5.040709 -58.388317 23.00000000
-21.256401 4.287105 -10.303498 23.00000000
-21.507401 7.568704 -25.285772 23.00000000
-21.238754 4.056385 -60.777458 23.00000000
-21.016130 1.145733 -39.440716 23.00000000
-21.416845 6.384779 -42.500977 23.00000000
-21.490900 7.352991 -9.016470 23.00000000
-21.454172 6.872797 -34.596306 23.00000000
-20.923323 -0.067670 -35.729694 23.00000000
-21.438425 6.666919 -8.620421 23.00000000
-21.079012 1.967859 -42.852730 23.00000000
-20.973614 0.589858 -21.888361 23.00000000
-21.277657 4.564977 -41.083302 23.00000000
-21.105095 2.308879 -5.851986 23.00000000
-21.354668 5.571856 -38.572811 23.00000000
-20.930153 0.021624 -36.690559 23.00000000
-21.296618 4.812878 -7.498042 23.00000000
-21.034212 1.382146 2.328270 23.00000000
-20.921339 -0.093600 -20.229153 23.00000000
-21.334829 5.312468 -49.617790 23.00000000
-21.445253 6.756179 -15.581574 23.00000000
-21.215881 3.757321 0.730879 23.00000000
-21.413626 6.342682 -27.208038 23.00000000
-21.492004 7.367426 -16.890718 23.00000000
-21.143806 2.815001 -54.767479 23.00000000
-21.080355 1.985407 -15.997354 23.00000000
-20.992151 0.832219 -34.507668 23.00000000
-21.509491 7.596049 -51.805920 23.00000000
-21.003761 0.984009 -25.633837 23.00000000
-21.527536 7.831991 -60.829021 23.00000000
-21.328732 5.232746 -25.780006 23.00000000
-20.920572 -0.103625 -44.299995 23.00000000
-21.377731 5.873389 -24.798887 23.00000000
-20.925093 -0.044526 -11.897150 23.00000000
-21.407061 6.256858 -23.471037 23.00000000
-21.271536 4.484950 -29.758333 23.00000000
-21.404701 6.225996 -12.358260 23.00000000
-21.224831 3.874320 -45.287086 23.00000000
-21.168772 3.141390 -38.619957 23.00000000
-21.433926 6.608073 -53.928905 23.00000000
-21.136269 2.716445 -14.107869 23.00000000
-21.083731 2.029551 0.672844 23.00000000
-21.393190 6.075496 2.799301 23.00000000
-21.150211 2.898733 -32.871094 23.00000000
-21.324966 5.183535 -22.985125 23.00000000
-21.426493 6.510917 -39.526413 23.00000000
-21.277018 4.556630 -20.127556 23.00000000
-21.241468 4.091858 -4.237987 23.00000000
-21.227486 3.909040 -15.766138 23.00000000
-21.441071 6.701494 -22.159550 23.00000000
-21.386856 5.992694 -11.828371 23.00000000
-21.364521 5.700680 -55.211914 23.00000000
-21.077316 1.945689 -45.001888 23.00000000
-21.468855 7.064769 -21.020536 23.00000000
-21.399155 6.153485 -25.432102 23.00000000
-21.293299 4.769498 -27.487316 23.00000000
-21.277882 4.567932 -28.040016 23.00000000
-21.444460 6.745814 -33.342529 23.00000000
-20.939619 0.145402 -7.371576 23.00000000
-21.136877 2.724400 -30.749702 23.00000000
-21.122572 2.537377 -27.037142 23.00000000
-21.282450 4.627645 -55.682896 23.00000000
-21.220121 3.812772 -59.611465 23.00000000
-21.192263 3.448534 -26.044621 23.00000000
-21.258045 4.308589 -39.798679 23.00000000
-21.061722 1.741793 1.208601 23.00000000
-20.926773 -0.022540 -28.372002 23.00000000
-21.166252 3.108453 -31.637875 23.00000000
-20.978035 0.647659 -18.962612 23.00000000
-21.171976 3.183291 -53.797749 23.00000000
-20.931320 0.036905 -0.352825 23.00000000
-21.466139 7.029254 -11.817905 23.00000000
-21.481985 7.236421 -59.162437 23.00000000
-21.053968 1.640434 -33.164185 23.00000000
-21.101397 2.260525 -60.814800 23.00000000
-21.357025 5.602679 -53.580605 23.00000000
-21.087469 2.078433 -26.667028 23.00000000
-21.199097 3.537872 -23.648008 23.00000000
-21.090464 2.117592 -34.182388 23.00000000
-21.045643 1.531575 -11.298318 23.00000000
-21.367125 5.734702 -44.022522 23.00000000
-21.052181 1.617064 -24.661856 23.00000000
