-0.142270 40.897213 -38.050125 20.00000000
-14.667335 58.303841 -58.316921 20.00000000
-12.750482 57.101933 -60.910416 20.00000000
-11.613503 56.326717 -30.253815 20.00000000
-43.920322 60.199490 -4.726281 20.00000000
0.900013 33.851952 3.444077 20.00000000
0.053457 40.337227 -48.697277 20.00000000
0.851076 34.226841 -7.211492 20.00000000
0.493539 36.965858 -26.421251 20.00000000
-8.320939 53.519669 -28.690525 20.00000000
-8.991995 54.170502 -23.154633 20.00000000
-30.943214 62.738400 -33.078568 20.00000000
-12.910516 57.211044 -7.699852 20.00000000
-6.840887 52.015106 -23.178543 20.00000000
0.178995 39.375511 -27.237179 20.00000000
-42.713409 60.657715 -61.032822 20.00000000
-36.874706 62.242687 -27.297100 20.00000000
-0.671375 42.255222 -24.353224 20.00000000
-22.226368 61.504143 -42.037319 20.00000000
-10.896811 55.764488 -10.268682 20.00000000
-36.333958 62.337791 -32.032722 20.00000000
0.662024 35.675133 -30.504660 20.00000000
-0.033237 40.617367 -31.771729 20.00000000
-14.417120 58.163033 -32.943279 20.00000000
0.351414 38.054649 -35.549519 20.00000000
-32.762440 62.726788 -11.887355 20.00000000
-34.497707 62.573215 0.942241 20.00000000
-45.692822 59.383095 -12.580195 20.00000000
0.822131 34.448582 1.730198 20.00000000
-44.356922 59.998398 -17.592527 20.00000000
-34.951519 62.533051 -23.587955 20.00000000
-2.965399 46.810329 -13.422940 20.00000000
-46.215588 59.142311 -27.424433 20.00000000
-3.010484 46.884998 -11.618367 20.00000000
-10.910515 55.775669 -27.402208 20.00000000
-4.631564 49.306961 -57.787334 20.00000000
-24.822054 62.128387 0.425834 20.00000000
-7.329586 52.558193 -39.613087 20.00000000
-41.075523 61.247787 -0.772996 20.00000000
-5.313982 50.244816 -41.185894 20.00000000
-44.478596 59.942352 -37.648460 20.00000000
-24.912664 62.143871 -4.539759 20.00000000
-5.005428 49.820766 -1.987691 20.00000000
0.322178 38.278622 -6.160450 20.00000000
-25.565266 62.255390 -50.990326 20.00000000
-3.590990 47.846458 -4.962481 20.00000000
-26.523342 62.419117 -45.746391 20.00000000
0.884649 33.969650 -53.126190 20.00000000
-2.339761 45.774117 -8.118627 20.00000000
0.853361 34.209339 -56.345242 20.00000000
-30.711908 62.738968 -55.745884 20.00000000
-24.358681 62.049202 -25.441153 20.00000000
-30.115139 62.740433 -41.213398 20.00000000
-24.828503 62.129490 -52.574104 20.00000000
-0.180048 40.994171 -14.616538 20.00000000
-12.545046 56.961861 -16.878710 20.00000000
-30.134415 62.740387 -39.059254 20.00000000
-28.969994 62.667648 -27.632010 20.00000000
-0.180324 40.994881 -29.845726 20.00000000
-28.621162 62.638485 -18.685963 20.00000000
-0.218801 41.093636 -19.766233 20.00000000
-18.974827 60.419132 3.705210 20.00000000
-16.178999 59.154522 -6.057732 20.00000000
-22.543783 61.586910 -14.114660 20.00000000
0.809213 34.547546 -23.541273 20.00000000
-21.616005 61.344990 -19.574602 20.00000000
-42.511765 60.730362 -36.716415 20.00000000
-24.511505 62.075317 -32.276173 20.00000000
0.620456 35.993572 -57.134720 20.00000000
0.426289 37.481045 -9.203764 20.00000000
-1.813906 44.744736 -24.453192 20.00000000
-32.682571 62.733856 -33.946022 20.00000000
-46.173637 59.161633 -8.029926 20.00000000
-24.697803 62.107155 -46.118145 20.00000000
-4.948007 49.741852 -14.121845 20.00000000
-36.329933 62.338501 -25.385765 20.00000000
-36.602608 62.290543 -47.909508 20.00000000
-40.339348 61.448498 -17.783243 20.00000000
-21.432602 61.291065 -1.807461 20.00000000
-35.922798 62.410103 -9.200429 20.00000000
0.697821 35.400898 -52.530224 20.00000000
6.712098 41.386951 -60.945389 21.00000000
-13.958163 65.458069 -60.243122 21.00000000
-5.709176 60.122925 -29.641447 21.00000000
-25.284475 68.957718 -9.989445 21.00000000
5.738279 44.199360 -12.875047 21.00000000
-19.865379 67.748032 -54.259003 21.00000000
1.750958 51.832249 -2.303087 21.00000000
-25.629627 69.006386 -27.321104 21.00000000
-30.169247 69.409431 -33.056904 21.00000000
-2.803613 57.442528 -42.480846 21.00000000
3.523564 48.906780 -27.300871 21.00000000
-2.137899 56.748917 -10.047074 21.00000000
-20.119926 67.826279 -23.938295 21.00000000
-19.340574 67.586716 -31.543325 21.00000000
-4.077460 58.684334 -20.081556 21.00000000
-22.723139 68.484032 -61.034519 21.00000000
-19.508331 67.638283 -13.628408 21.00000000
-4.619392 59.212635 -50.865967 21.00000000
-22.233509 68.374977 -51.046780 21.00000000
6.905322 40.786812 -56.666065 21.00000000
-21.355278 68.179375 -59.902016 21.00000000
-10.159783 63.372688 -24.981714 21.00000000
0.608378 53.421326 -21.459846 21.00000000
-4.672797 59.261288 -21.840376 21.00000000
7.336920 39.120159 -45.575932 21.00000000
-17.803589 67.092857 -32.313751 21.00000000
-11.962692 64.442230 -5.198580 21.00000000
2.325666 50.917412 -26.261248 21.00000000
-26.263277 69.095718 -53.244293 21.00000000
-11.781488 64.334732 -18.654121 21.00000000
-4.272788 58.874748 -61.079754 21.00000000
-0.384158 54.745548 -15.272921 21.00000000
-23.783800 68.720261 -11.387019 21.00000000
7.147030 39.853436 0.870550 21.00000000
7.700944 37.714455 -49.864574 21.00000000
-20.486740 67.939034 -22.069437 21.00000000
-18.034512 67.184364 -47.304260 21.00000000
-2.404249 57.053177 -16.612301 21.00000000
-8.163482 62.024601 -19.118891 21.00000000
-6.440388 60.730850 -11.275967 21.00000000
-8.854839 62.512466 -24.019053 21.00000000
-1.751323 56.307316 -31.159941 21.00000000
-6.354187 60.659184 -58.839500 21.00000000
1.670294 51.960651 -17.956608 21.00000000
-18.246038 67.250267 -38.510117 21.00000000
-0.948578 55.390308 -18.016838 21.00000000
6.323770 42.544483 -33.942081 21.00000000
-5.185404 59.687466 -4.133318 21.00000000
4.014323 47.968338 -0.486306 21.00000000
-17.879002 67.122742 -12.829982 21.00000000
1.236468 52.577694 -31.624645 21.00000000
4.661602 46.726528 -37.122540 21.00000000
3.590945 48.777931 3.622986 21.00000000
3.739065 48.494694 -41.570919 21.00000000
-2.872026 57.509220 -59.169029 21.00000000
8.511561 34.584198 -42.736473 21.00000000
8.045259 36.384857 -46.576584 21.00000000
2.818846 50.132355 -58.576279 21.00000000
4.712776 46.606415 -35.079979 21.00000000
-33.100925 69.369415 0.862533 21.00000000
-6.436227 60.727390 -18.407660 21.00000000
5.720836 44.240299 -30.836660 21.00000000
6.827042 41.044327 -45.979305 21.00000000
-7.819277 61.781708 -12.483169 21.00000000
-7.260023 61.387066 1.942697 21.00000000
-4.912187 59.460316 -39.401821 21.00000000
-6.215073 60.543526 -24.522518 21.00000000
-2.653097 57.295799 -19.560234 21.00000000
7.456427 38.658676 -57.353840 21.00000000
-33.264721 69.366455 -32.585567 21.00000000
-25.405354 68.974762 -48.515980 21.00000000
1.610144 52.056400 -22.195129 21.00000000
-5.290706 59.775013 -35.835468 21.00000000
-3.145125 57.775452 -51.230389 21.00000000
4.345364 47.335312 -22.117323 21.00000000
-33.450443 69.363098 -34.520576 21.00000000
5.237110 45.375698 -48.516369 21.00000000
-8.313245 62.130283 -3.939654 21.00000000
-1.965350 56.551807 -21.115320 21.00000000
-26.094757 69.071960 -11.742056 21.00000000
-7.075155 61.256611 -53.331116 21.00000000
-33.448391 69.363136 -38.182159 21.00000000
-33.152287 69.368484 -11.576023 21.00000000
8.001719 36.552990 -4.522119 21.00000000
0.285962 53.854385 -49.913967 21.00000000
-25.999462 69.058525 -43.298103 21.00000000
-12.833883 64.906120 -38.019314 21.00000000
-33.282181 69.366135 -23.916407 21.00000000
-28.146032 69.285896 -0.551637 21.00000000
-31.374054 69.400620 -15.492875 21.00000000
-6.328802 60.638081 -49.796265 21.00000000
5.336299 45.142883 -38.789322 21.00000000
7.815211 37.273205 -54.076942 21.00000000
-19.460535 67.623589 -25.453571 21.00000000
-31.903913 69.391045 2.092972 21.00000000
-5.751274 60.157925 -20.122986 21.00000000
5.540816 44.662842 -26.517944 21.00000000
6.364748 42.422337 -23.068947 21.00000000
6.804618 41.111168 -2.805699 21.00000000
7.065090 40.169853 -15.531496 21.00000000
-13.175238 65.073700 -47.316601 21.00000000
-18.816269 67.425545 -1.697006 21.00000000
-11.032294 63.890289 -3.352269 21.00000000
2.110931 51.259232 -52.051914 21.00000000
-16.502552 66.577293 3.835363 21.00000000
-6.999461 61.195660 -5.103765 21.00000000
8.366217 35.145454 -2.855601 21.00000000
-4.416822 59.015160 -46.481785 21.00000000
-1.119502 55.585564 -54.833706 21.00000000
-11.370803 64.091103 -26.570551 21.00000000
-33.316750 69.365509 -25.952604 21.00000000
-9.157007 62.725697 -50.587353 21.00000000
3.547835 48.860367 -59.547722 21.00000000
5.629310 44.455132 -19.890612 21.00000000
-18.960962 67.470024 3.054453 21.00000000
-8.948335 62.578442 -43.600468 21.00000000
7.324080 39.169743 -27.363190 21.00000000
8.265046 35.536137 -7.932486 21.00000000
-11.500998 64.168335 -51.644352 21.00000000
2.074632 51.317017 -43.144958 21.00000000
-0.302199 54.644386 -51.465675 21.00000000
6.680665 41.480648 -19.066776 21.00000000
6.398762 42.320950 -52.742588 21.00000000
-16.999649 66.774277 -37.071281 21.00000000
8.547578 34.445114 -5.547651 21.00000000
0.051943 54.168713 -8.826429 21.00000000
5.171317 45.530128 -18.717230 21.00000000
-14.581432 65.764061 -49.963043 21.00000000
-1.856492 56.427452 3.808666 21.00000000
7.178263 39.732826 -54.971828 21.00000000
-25.278950 68.956940 -13.543994 21.00000000
-24.943689 68.909668 -39.090347 21.00000000
6.062626 43.322906 -50.018776 21.00000000
-13.054954 65.014648 -54.266937 21.00000000
-23.168976 68.583328 -9.761987 21.00000000
-27.048056 69.206367 -31.986975 21.00000000
-23.539154 68.665771 -41.210594 21.00000000
-12.220266 64.595032 -24.723095 21.00000000
8.332544 35.275486 -24.286964 21.00000000
8.348428 35.214149 -38.049442 21.00000000
4.053443 47.893532 -7.058211 21.00000000
-4.725324 59.304958 -13.602750 21.00000000
4.611447 46.826504 -49.842113 21.00000000
-19.933620 67.769005 -4.697663 21.00000000
-18.448240 67.312416 -5.564216 21.00000000
-32.060997 69.388206 -60.879219 21.00000000
-28.335609 69.297470 -5.461955 21.00000000
-22.581944 68.452583 -8.191963 21.00000000
-6.118736 60.463432 -47.737782 21.00000000
6.594901 41.736294 -15.590569 21.00000000
-14.351849 65.651344 -38.848038 21.00000000
8.266203 35.531666 -19.498617 21.00000000
4.808430 46.381893 3.731702 21.00000000
-19.143253 67.526054 -60.528324 21.00000000
4.356736 47.313568 -29.952749 21.00000000
-24.965799 68.912788 -58.992798 21.00000000
2.460991 50.702000 -21.022133 21.00000000
8.157072 35.953083 -6.086366 21.00000000
-30.417557 69.417908 3.410031 21.00000000
-6.210742 60.539925 -39.295334 21.00000000
3.722122 48.527092 -3.559901 21.00000000
-2.619112 57.262669 -47.442223 21.00000000
-5.507202 59.955006 2.596334 21.00000000
-33.018040 69.370911 -0.732170 21.00000000
-7.539752 61.584457 -6.457733 21.00000000
5.715528 44.252762 -53.093204 21.00000000
-30.521606 69.416023 -26.393932 21.00000000
7.941382 36.785988 -38.264065 21.00000000
-17.937664 67.145981 -27.309534 21.00000000
-9.536405 62.993423 -39.104977 21.00000000
4.892363 46.184891 -25.783482 21.00000000
-25.187305 68.944016 -60.844494 21.00000000
-5.421517 59.883766 -32.450840 21.00000000
-4.864474 59.420647 -18.777639 21.00000000
-10.444563 63.541630 -13.820509 21.00000000
-18.050087 67.190033 -58.862247 21.00000000
-8.948878 62.578827 -6.757949 21.00000000
-18.981071 67.476204 -11.254943 21.00000000
5.738139 44.199688 3.734761 21.00000000
-0.260145 54.587898 -29.355087 21.00000000
5.986586 43.549564 -21.378687 21.00000000
-28.105822 69.283440 -19.517906 21.00000000
-17.863058 67.116417 -19.381435 21.00000000
-20.779182 68.028923 -29.696581 21.00000000
-4.093872 58.700333 3.788733 21.00000000
-1.841087 56.409855 -45.746319 21.00000000
-8.234274 62.074558 -15.809595 21.00000000
-26.881723 69.182915 -51.362476 21.00000000
6.199789 42.914047 0.438099 21.00000000
-7.160597 61.316902 -51.123482 21.00000000
-29.457508 69.365974 -58.773125 21.00000000
5.729330 44.220364 -58.464684 21.00000000
-0.446016 54.816212 -27.477551 21.00000000
3.563378 48.830647 -23.896206 21.00000000
-11.746536 64.313995 -28.059851 21.00000000
-15.565058 66.205795 -6.996314 21.00000000
4.847316 46.290623 -10.167473 21.00000000
7.922481 36.858974 -51.115437 21.00000000
-16.480888 66.568710 -40.084145 21.00000000
7.911204 36.902523 -9.052779 21.00000000
7.210063 39.610027 -36.308941 21.00000000
-0.081841 54.348408 -56.020222 21.00000000
-13.368712 65.168686 -3.838003 21.00000000
7.851671 37.132416 -56.845753 21.00000000
-8.757974 62.444111 -29.351051 21.00000000
8.486274 34.681843 -1.393392 21.00000000
-2.978203 57.612728 -57.643623 21.00000000
-5.335681 59.812405 -23.465427 21.00000000
-22.165291 68.359787 -49.487041 21.00000000
-7.164231 61.319469 -30.547930 21.00000000
-25.700575 69.016388 -7.008476 21.00000000
-24.222731 68.808022 0.450644 21.00000000
8.025070 36.462818 -23.312353 21.00000000
-27.519516 69.247643 -27.510187 21.00000000
8.273045 35.505245 -54.060379 21.00000000
7.067819 40.159313 -20.234467 21.00000000
0.727721 53.261028 -12.516970 21.00000000
-25.660931 69.010796 -21.324497 21.00000000
-19.037073 67.493423 -52.587429 21.00000000
-22.316076 68.393372 -21.885813 21.00000000
-2.352756 56.994354 -0.187681 21.00000000
6.796305 41.135948 -24.378649 21.00000000
2.788581 50.180531 -41.720108 21.00000000
1.114897 52.740986 -40.815639 21.00000000
-0.911461 55.347908 -44.868229 21.00000000
-10.603987 63.636204 -12.066258 21.00000000
-0.042529 54.295605 -53.845848 21.00000000
-10.010139 63.283916 -57.243801 21.00000000
-3.292665 57.919281 -22.767380 21.00000000
4.494820 47.049519 -18.514757 21.00000000
-13.838969 65.399551 -1.620246 21.00000000
-12.533374 64.758591 2.619000 21.00000000
-6.857128 61.077328 -7.987824 21.00000000
-29.910839 69.393654 -42.675671 21.00000000
-23.611288 68.681839 2.519240 21.00000000
0.715015 53.278095 -46.081207 21.00000000
6.511299 41.985497 -6.597424 21.00000000
-22.647394 68.467163 -45.779919 21.00000000
-8.328256 62.140877 -27.482544 21.00000000
6.315960 42.567760 -45.876667 21.00000000
7.757136 37.497467 -5.816957 21.00000000
-26.538885 69.134583 -16.962051 21.00000000
5.750629 44.170372 -42.194874 21.00000000
6.565310 41.824497 -55.519119 21.00000000
1.540771 52.166828 2.175717 21.00000000
0.795657 53.169777 -58.243542 21.00000000
-0.803511 55.224594 -24.768873 21.00000000
-28.517019 69.308548 -31.248508 21.00000000
-28.106693 69.283493 -55.279572 21.00000000
0.969117 52.936790 -53.620705 21.00000000
4.922461 46.114243 -53.590271 21.00000000
-12.335500 64.661446 -33.358845 21.00000000
0.489650 53.580795 -52.247616 21.00000000
-9.682956 63.089821 -59.136406 21.00000000
-33.364597 69.364647 -52.128822 21.00000000
7.547095 38.308556 -38.847729 21.00000000
5.676910 44.343403 -37.488564 21.00000000
0.840889 53.109024 -10.255090 21.00000000
5.257121 45.328732 -55.771763 21.00000000
3.546273 48.863354 -56.842651 21.00000000
2.977801 49.879322 -52.349213 21.00000000
-5.830907 60.224133 -44.961746 21.00000000
8.007810 36.529472 -17.760406 21.00000000
-13.532679 65.249184 -18.706984 21.00000000
-3.028592 57.661850 -6.504285 21.00000000
-16.103462 66.419151 -17.676064 21.00000000
-14.445145 65.697151 0.205467 21.00000000
-1.161294 55.633301 -7.337682 21.00000000
5.486408 44.790550 -44.357826 21.00000000
7.398024 38.884205 -59.129475 21.00000000
-24.324448 68.822365 -34.824169 21.00000000
2.654205 50.394432 -27.787308 21.00000000
-5.992333 60.358341 -55.262482 21.00000000
4.535682 46.971382 -2.406335 21.00000000
-15.467664 66.167206 -34.791370 21.00000000
5.138613 45.606892 -11.496172 21.00000000
-33.021103 69.370857 -49.944679 21.00000000
-7.890182 61.831745 -57.045353 21.00000000
-4.190560 58.794590 -24.558325 21.00000000
6.302908 42.606667 -56.914650 21.00000000
-25.261158 68.954430 -15.310568 21.00000000
-24.432474 68.837593 -43.363804 21.00000000
-12.796943 64.887985 -29.799170 21.00000000
-22.945740 68.533607 -52.545971 21.00000000
5.312052 45.199799 0.615563 21.00000000
-9.995650 63.275318 -30.958136 21.00000000
-12.093021 64.519547 -13.090155 21.00000000
-23.391638 68.632919 -55.995033 21.00000000
0.654694 53.359116 -37.495476 21.00000000
-33.145344 69.368607 -57.222755 21.00000000
6.933281 40.678844 -5.559430 21.00000000
-15.766124 66.285477 2.056277 21.00000000
-24.093681 68.789284 -49.661144 21.00000000
-8.736614 62.429039 -45.205818 21.00000000
3.481850 48.986546 -54.180122 21.00000000
5.349466 45.111977 -7.731408 21.00000000
-9.994092 63.274395 -47.284096 21.00000000
-33.342846 69.365044 -6.517937 21.00000000
-7.532927 61.579643 -37.390450 21.00000000
-26.954346 69.193153 -13.373048 21.00000000
-10.686012 63.684864 -53.329845 21.00000000
-16.275240 66.487221 -30.850851 21.00000000
-13.764081 65.362785 -41.993713 21.00000000
7.971367 36.670200 -16.134560 21.00000000
2.365616 50.853817 -53.953468 21.00000000
-3.156424 57.786465 -49.217823 21.00000000
-23.252155 68.601852 -31.563307 21.00000000
-24.485394 68.845055 -1.445613 21.00000000
-32.111217 69.387299 -19.493887 21.00000000
2.017368 51.408169 -32.746532 21.00000000
-11.659435 64.262329 -36.888763 21.00000000
-22.765978 68.493568 -1.303503 21.00000000
-6.846217 61.068256 -9.674769 21.00000000
-28.915337 69.332870 -13.068638 21.00000000
-27.256479 69.231583 -10.091832 21.00000000
-22.633810 68.464134 -18.629473 21.00000000
-30.404081 69.418152 -57.135445 21.00000000
8.407208 34.987167 -51.860626 21.00000000
-33.066208 69.370041 -59.235062 21.00000000
-13.349391 65.159203 -20.408245 21.00000000
4.343746 47.338409 -24.107071 21.00000000
7.829145 37.219398 -19.631905 21.00000000
8.325422 35.302986 -9.615470 21.00000000
7.271921 39.371162 -3.327375 21.00000000
7.209948 39.610474 -49.650143 21.00000000
5.826001 43.993462 -0.882182 21.00000000
-19.844597 67.741646 -27.994570 21.00000000
-7.096866 61.271931 -46.392246 21.00000000
7.611989 38.057964 -55.362278 21.00000000
1.375339 52.391167 -44.367931 21.00000000
4.767572 46.477798 -0.261806 21.00000000
-8.394595 62.187691 -48.981838 21.00000000
-19.724657 67.704773 -41.056747 21.00000000
-20.852922 68.051590 -58.183304 21.00000000
-12.222129 64.596138 -50.299175 21.00000000
-1.144196 55.613770 -12.531250 21.00000000
-29.660807 69.378387 -7.236750 21.00000000
8.196775 35.799770 -31.598034 21.00000000
6.437213 42.206333 -41.782516 21.00000000
-26.596018 69.142632 3.789174 21.00000000
8.394928 35.034584 -22.204386 21.00000000
-28.900126 69.331940 -15.277765 21.00000000
-6.596200 60.860394 -41.555138 21.00000000
-30.332315 69.419388 -18.559891 21.00000000
-23.180195 68.585831 -23.274376 21.00000000
-31.383371 69.400452 -43.505524 21.00000000
-17.683275 67.045181 -48.830475 21.00000000
-3.740674 58.356022 0.781034 21.00000000
-0.997958 55.446716 -43.269707 21.00000000
1.177648 52.656700 -28.563099 21.00000000
-19.544899 67.649521 -43.922329 21.00000000
-10.558906 63.609463 -35.732983 21.00000000
-22.775932 68.495789 -47.811996 21.00000000
-29.929342 69.394783 -0.548360 21.00000000
-17.138102 66.829140 -0.453752 21.00000000
-0.399541 54.763123 -40.857838 21.00000000
-24.773918 68.885735 -18.868895 21.00000000
-31.549463 69.397453 -58.596565 21.00000000
-17.515272 66.978607 -25.562366 21.00000000
-14.117738 65.536415 -52.384483 21.00000000
-28.484222 69.306541 -11.299440 21.00000000
-32.291859 69.384033 -9.764798 21.00000000
7.680568 37.793137 -35.875771 21.00000000
-11.196662 63.987797 -15.519803 21.00000000
-22.013908 68.326065 -24.830675 21.00000000
3.873494 48.237633 -34.817039 21.00000000
3.907160 48.173260 -55.534016 21.00000000
-4.272379 58.874352 -5.415093 21.00000000
-30.844179 69.410194 -12.822532 21.00000000
-13.396498 65.182327 -28.279181 21.00000000
6.088105 43.246956 -54.396229 21.00000000
7.786698 37.383312 -48.049793 21.00000000
-10.050098 63.307621 -45.416656 21.00000000
5.223657 45.407276 -46.873463 21.00000000
-10.389482 63.508953 -49.396503 21.00000000
-1.568913 56.098942 -27.572115 21.00000000
8.483084 34.694164 -11.719977 21.00000000
-31.956095 69.390099 -47.919937 21.00000000
3.838912 48.303764 -19.422194 21.00000000
-14.645222 65.795372 -29.893101 21.00000000
-33.154301 69.368446 -16.759563 21.00000000
3.639846 48.684422 -5.057004 21.00000000
-18.112789 67.209305 -45.435543 21.00000000
-14.695470 65.820045 -27.010307 21.00000000
3.454576 49.038700 -16.164253 21.00000000
-33.103985 69.369354 -28.129799 21.00000000
7.437369 38.732269 -53.395351 21.00000000
4.690783 46.658035 -44.721893 21.00000000
3.507679 48.937157 1.787098 21.00000000
3.218569 49.490002 -0.694233 21.00000000
2.362419 50.858910 -13.822923 21.00000000
-1.066470 55.524982 -56.736740 21.00000000
-4.528673 59.124199 -28.142057 21.00000000
-17.777617 67.082565 -15.024865 21.00000000
-12.189045 64.576508 -35.237595 21.00000000
-6.428149 60.720676 -0.977070 21.00000000
-29.767990 69.384933 -52.548698 21.00000000
-21.401039 68.189568 -20.591845 21.00000000
-8.106533 61.984413 -9.367966 21.00000000
-5.679726 60.098442 -27.536440 21.00000000
3.894431 48.197598 -9.955016 21.00000000
-7.442407 61.515766 -44.440922 21.00000000
7.412671 38.827644 -0.532039 21.00000000
1.429481 52.318443 -6.413880 21.00000000
-0.083727 54.350941 -11.767523 21.00000000
-3.469495 58.091663 -17.994917 21.00000000
-23.096432 68.567169 -15.982836 21.00000000
1.546861 52.157139 -13.247384 21.00000000
-5.222518 59.718323 -8.446589 21.00000000
-16.635981 66.630173 -55.865128 21.00000000
-28.274752 69.293755 -35.798740 21.00000000
-20.194855 67.849304 -48.329681 21.00000000
8.123972 36.080902 -33.398315 21.00000000
6.833402 41.025368 -39.741295 21.00000000
5.031678 45.857887 -27.739145 21.00000000
8.309925 35.362831 -27.616285 21.00000000
-4.197792 58.801640 -29.755423 21.00000000
8.290749 35.436882 -35.854668 21.00000000
-28.252195 69.292381 -29.599661 21.00000000
-17.030607 66.786545 -21.542862 21.00000000
-8.863582 62.518635 -35.310684 21.00000000
-15.862858 66.323807 -52.178703 21.00000000
-12.447035 64.716202 -2.471252 21.00000000
7.059897 40.189907 -44.301743 21.00000000
-29.301004 69.356415 1.092972 21.00000000
-14.495914 65.722076 -11.065368 21.00000000
1.062355 52.811558 -26.270206 21.00000000
2.374585 50.839542 -60.694805 21.00000000
4.483347 47.071461 -8.837282 21.00000000
-13.197919 65.084839 -49.010033 21.00000000
-26.962934 69.194366 -2.483787 21.00000000
-26.217052 69.089203 -19.629551 21.00000000
-12.012792 64.471947 1.151743 21.00000000
-5.182705 59.685223 -41.053219 21.00000000
2.206980 51.106339 -45.008663 21.00000000
-21.605053 68.235008 -31.213667 21.00000000
0.488731 53.582031 -6.247691 21.00000000
-26.282307 69.098404 -22.821413 21.00000000
2.627348 50.437183 -39.778053 21.00000000
-29.199121 69.350197 -61.057789 21.00000000
-21.139297 68.131271 3.801352 21.00000000
-29.116774 69.345169 -9.890144 21.00000000
-7.002398 61.198105 -14.569941 21.00000000
-9.379997 62.883049 3.146335 21.00000000
-2.144602 56.756573 -23.070515 21.00000000
2.488459 50.658272 -29.365105 21.00000000
-8.640090 62.360928 0.946060 21.00000000
-21.782742 68.274582 -5.568660 21.00000000
-1.436345 55.947502 -32.834690 21.00000000
3.213161 49.500340 -35.595352 21.00000000
-18.592587 67.356789 -55.681683 21.00000000
-23.230326 68.596992 -39.176788 21.00000000
-27.823193 69.266182 -47.487045 21.00000000
8.087561 36.221504 -11.327310 21.00000000
-31.776970 69.393341 -21.140657 21.00000000
7.847908 37.146946 -26.987751 21.00000000
-30.415504 69.417946 -8.993562 21.00000000
-33.438602 69.363312 -54.827358 21.00000000
7.247152 39.466808 -29.483519 21.00000000
-9.760266 63.135681 -60.877712 21.00000000
6.527418 41.937447 -28.875422 21.00000000
-2.158583 56.772545 -25.878010 21.00000000
-30.178465 69.409996 -44.715584 21.00000000
-7.527236 61.575626 -25.793358 21.00000000
5.844645 43.949699 -46.776951 21.00000000
3.069497 49.733360 -17.810684 21.00000000
-10.171030 63.379360 -34.219837 21.00000000
-8.918338 62.557274 -37.701809 21.00000000
-14.554566 65.750870 -14.188436 21.00000000
-14.299993 65.625893 -17.022171 21.00000000
7.887653 36.993465 -2.682804 21.00000000
2.446172 50.725586 -19.133551 21.00000000
-30.899389 69.409203 -36.974216 21.00000000
-29.880426 69.391792 -4.326157 21.00000000
6.897624 40.816532 -27.965000 21.00000000
-8.806129 62.478092 -17.451378 21.00000000
0.556911 53.490456 -60.967995 21.00000000
-5.047685 59.572968 -49.226105 21.00000000
-15.307089 66.103569 -1.119006 21.00000000
-27.282957 69.233200 -37.005775 21.00000000
-28.306061 69.295670 -8.101595 21.00000000
-14.073337 65.514610 -22.585630 21.00000000
3.293027 49.347618 -25.716402 21.00000000
-2.412811 57.061558 -12.547112 21.00000000
8.510291 34.589104 -25.644051 21.00000000
-24.790909 68.888130 -23.966681 21.00000000
-33.048668 69.370354 -13.283446 21.00000000
6.968091 40.544422 -23.000843 21.00000000
6.269624 42.705883 2.411254 21.00000000
-22.217728 68.371460 1.842762 21.00000000
1.232926 52.582451 -33.593960 21.00000000
8.497753 34.637516 -30.477465 21.00000000
-14.046912 65.501640 -33.694542 21.00000000
-33.423294 69.363586 -43.508659 21.00000000
1.392661 52.367901 -8.979003 21.00000000
3.838186 48.305153 -36.598919 21.00000000
6.498669 42.023144 -13.564019 21.00000000
3.843590 48.294819 -60.952934 21.00000000
6.051698 43.355476 -61.111214 21.00000000
-28.438726 69.303764 3.746348 21.00000000
6.551481 41.865719 -17.250935 21.00000000
-0.097168 54.368992 -39.386921 21.00000000
-1.954293 56.539173 -1.881395 21.00000000
6.960784 40.572639 -34.694614 21.00000000
-17.353369 66.914444 -60.662491 21.00000000
1.787676 51.773800 -58.810150 21.00000000
7.121726 39.951145 -38.515377 21.00000000
-10.503908 63.576836 -28.748287 21.00000000
-13.625817 65.294907 -7.366600 21.00000000
-33.075752 69.369865 3.502086 21.00000000
6.546160 41.881580 -8.563660 21.00000000
-27.632950 69.254570 -58.783382 21.00000000
3.774025 48.427841 -31.100662 21.00000000
5.362851 45.080563 -40.485237 21.00000000
-15.610391 66.223763 -15.635002 21.00000000
-14.597731 65.772057 -46.424492 21.00000000
-15.408474 66.143745 -48.613377 21.00000000
-31.788895 69.393127 -24.904821 21.00000000
-21.940334 68.309685 -54.067192 21.00000000
-10.496324 63.572334 -1.559631 21.00000000
-23.973700 68.762558 -20.602421 21.00000000
1.702312 51.909683 -20.141384 21.00000000
-9.080009 62.671360 -25.754980 21.00000000
2.804309 50.155495 -34.002567 21.00000000
2.157802 51.184624 -16.733871 21.00000000
-32.036259 69.388657 -35.642494 21.00000000
-9.327865 62.846264 -52.944221 21.00000000
6.599583 41.722340 -21.286623 21.00000000
-16.496227 66.574791 -24.169924 21.00000000
-25.261797 68.954521 -32.884712 21.00000000
7.390486 38.913315 -22.076408 21.00000000
-10.953409 63.843491 -6.169483 21.00000000
3.902644 48.181892 -11.597641 21.00000000
-4.121681 58.727444 -54.544334 21.00000000
5.124101 45.640953 -51.111099 21.00000000
-0.944768 55.385956 -10.808206 21.00000000
-1.798446 56.361145 -14.438840 21.00000000
5.676195 44.345081 -23.391357 21.00000000
5.344146 45.124466 -5.907738 21.00000000
6.987270 40.470360 -0.959960 21.00000000
-13.748757 65.355263 -58.217522 21.00000000
-29.723764 69.382233 -16.878422 21.00000000
-6.072940 60.425358 -13.359271 21.00000000
3.738639 48.495506 -50.154938 21.00000000
7.318329 39.191952 -6.220214 21.00000000
3.765594 48.443962 -39.572052 21.00000000
-1.528977 56.053322 -41.762211 21.00000000
0.331269 53.793530 -4.568380 21.00000000
7.667591 37.843250 -7.710668 21.00000000
-26.984806 69.197449 -24.697063 21.00000000
5.946349 43.669502 -28.940939 21.00000000
-19.126202 67.520813 -8.414264 21.00000000
4.356461 47.314095 -32.750778 21.00000000
-3.685756 58.302483 -38.744022 21.00000000
6.738382 41.308605 -11.621426 21.00000000
4.823522 46.346470 -6.933016 21.00000000
-25.396740 68.973549 -44.842243 21.00000000
-21.982809 68.319138 -13.220924 21.00000000
-21.427237 68.195404 -42.377224 21.00000000
-29.211994 69.350983 -23.010397 21.00000000
2.370182 50.846550 -8.835321 21.00000000
-5.163630 59.669361 -0.284313 21.00000000
6.933442 40.678219 -9.779181 21.00000000
-2.657682 57.300270 2.143361 21.00000000
-12.028767 64.481430 -53.262554 21.00000000
-33.431190 69.363441 -46.416698 21.00000000
-24.155144 68.798492 -47.028179 21.00000000
3.009156 49.829411 -45.748173 21.00000000
-4.392140 58.991100 -56.954342 21.00000000
7.403094 38.864628 -25.679747 21.00000000
-30.404797 69.418137 -30.962910 21.00000000
-0.612639 55.006554 -21.748234 21.00000000
-16.147768 66.436707 -28.794260 21.00000000
6.991433 40.454285 -7.248529 21.00000000
-14.939116 65.939659 -32.094227 21.00000000
5.550846 44.639301 -32.898376 21.00000000
-27.730186 69.260506 1.435147 21.00000000
4.670677 46.705227 -15.529529 21.00000000
1.777316 51.790291 -46.893589 21.00000000
-1.589020 56.121910 -29.353727 21.00000000
-2.963795 57.598682 3.786609 21.00000000
-21.944296 68.310562 -10.974432 21.00000000
4.456861 47.122105 -41.105507 21.00000000
-0.407756 54.772507 -36.070843 21.00000000
3.189585 49.542198 -37.891674 21.00000000
5.625819 44.463326 -3.144559 21.00000000
-18.981936 67.476471 -57.430592 21.00000000
7.762243 37.477749 -58.571922 21.00000000
-7.318985 61.428673 -55.322037 21.00000000
6.421292 42.253788 -10.474476 21.00000000
-3.200542 57.829475 -36.480740 21.00000000
-31.623177 69.396118 -33.828350 21.00000000
7.477936 38.575619 -23.898657 21.00000000
0.891088 53.041599 0.572366 21.00000000
6.898312 40.813877 2.033030 21.00000000
6.288472 42.649700 -59.077892 21.00000000
-11.042495 63.896339 -10.394274 21.00000000
-1.462381 55.977245 -58.604649 21.00000000
-1.117494 55.583267 -50.150040 21.00000000
-10.952087 63.842709 -32.867752 21.00000000
-3.104712 57.736053 -3.750253 21.00000000
-16.677402 66.646584 -54.293888 21.00000000
-0.291718 54.630306 -46.879578 21.00000000
-10.926643 63.827614 -40.053146 21.00000000
8.482120 34.697887 -13.715517 21.00000000
7.484819 38.549038 -43.957958 21.00000000
-3.214229 57.842815 -46.044521 21.00000000
-2.488977 57.135807 -44.131531 21.00000000
3.474827 48.999977 -43.162407 21.00000000
-31.871893 69.391624 -7.265361 21.00000000
-16.637934 66.630943 -4.791338 21.00000000
-12.280934 64.631020 -60.033607 21.00000000
-25.573660 68.998489 2.291226 21.00000000
-23.906490 68.747589 -4.585476 21.00000000
-2.239629 56.865124 -34.512703 21.00000000
2.946241 49.929562 -49.133530 21.00000000
-14.210885 65.582146 -35.934158 21.00000000
-21.310486 68.169395 -55.451794 21.00000000
-2.799128 57.438156 -54.444176 21.00000000
7.274382 39.361656 3.550649 21.00000000
-19.851408 67.743736 -37.837505 21.00000000
8.201748 35.780563 -39.697174 21.00000000
-29.045143 69.340797 -38.369244 21.00000000
-6.742511 60.982033 -36.013611 21.00000000
-32.720181 69.376289 -4.559734 21.00000000
-3.387793 58.012016 -8.507099 21.00000000
4.412380 47.207165 -56.842987 21.00000000
-2.859165 57.496685 -15.084423 21.00000000
-20.241938 67.863777 -56.628746 21.00000000
1.548255 52.154919 -36.687943 21.00000000
-24.075836 68.785309 -28.899801 21.00000000
-3.643059 58.260860 -52.775246 21.00000000
4.304294 47.413849 -42.765266 21.00000000
-1.110585 55.575375 -0.693997 21.00000000
4.770121 46.471813 -20.605837 21.00000000
6.152402 43.055302 -38.956738 21.00000000
-15.163820 66.046799 -3.635410 21.00000000
-11.427734 64.124878 -47.112129 21.00000000
-4.945554 59.488056 -15.826256 21.00000000
-11.118500 63.941429 -55.037971 21.00000000
2.114236 51.253971 -31.154505 21.00000000
-30.724586 69.412361 -38.779671 21.00000000
6.149269 43.064636 -4.667074 21.00000000
-12.416037 64.700981 -17.266054 21.00000000
-28.605131 69.313927 -50.728203 21.00000000
-32.259808 69.384613 -39.139297 21.00000000
4.629738 46.791527 -55.201927 21.00000000
-18.201941 67.236710 -41.330811 21.00000000
8.563726 34.382759 -32.512833 21.00000000
4.326001 47.372341 -46.173458 21.00000000
-19.669289 67.687752 -18.497330 21.00000000
8.224140 35.694096 -49.581707 21.00000000
6.718712 41.367237 -54.002907 21.00000000
3.817416 48.344868 -17.532827 21.00000000
-26.062492 69.067413 -35.475250 21.00000000
-16.275330 66.487251 -49.845783 21.00000000
2.202155 51.114017 -55.657417 21.00000000
1.523697 52.191895 3.756957 21.00000000
-20.982212 68.091331 -52.667412 21.00000000
-29.918591 69.394127 -55.458828 21.00000000
-4.854285 59.412174 -43.123447 21.00000000
-8.366178 62.167637 -54.236885 21.00000000
-28.285236 69.294395 -17.685373 21.00000000
-10.312648 63.463371 -8.502837 21.00000000
-24.936584 68.908669 -56.606281 21.00000000
7.310999 39.220257 -42.381367 21.00000000
3.453057 49.041607 -12.892363 21.00000000
7.495177 38.509041 -4.550146 21.00000000
-16.411064 66.541039 -46.960171 21.00000000
0.067156 54.148277 -18.491959 21.00000000
-17.492779 66.969688 -52.842995 21.00000000
1.036440 52.846367 -19.100100 21.00000000
-8.066714 61.956318 -31.753281 21.00000000
-19.322388 67.581123 -15.527501 21.00000000
-30.054943 69.402451 -21.423456 21.00000000
-28.474503 69.305954 -2.613561 21.00000000
7.803050 37.320168 -25.036451 21.00000000
-30.725100 69.412346 -23.787441 21.00000000
-19.955858 67.775841 -46.590042 21.00000000
1.686186 51.935356 -15.045458 21.00000000
5.846965 43.944252 -48.496304 21.00000000
-3.946037 58.556217 -44.747303 21.00000000
-32.776581 69.375275 -30.974670 21.00000000
-6.467942 60.753757 -43.266335 21.00000000
3.469542 49.010082 -8.147465 21.00000000
8.516662 34.564499 -41.130318 21.00000000
-3.725624 58.341351 -31.613121 21.00000000
-0.555780 54.941601 3.090562 21.00000000
3.766900 48.441467 -14.588264 21.00000000
-20.681459 67.998886 -49.997448 21.00000000
-23.674080 68.695824 -57.690796 21.00000000
6.950027 40.614178 -26.054773 21.00000000
-6.792381 61.023495 -33.402004 21.00000000
-31.640682 69.395805 -46.030598 21.00000000
-28.553967 69.310806 -44.297897 21.00000000
1.953436 51.509937 -57.111187 21.00000000
-11.894060 64.401512 -21.801979 21.00000000
4.223607 47.568138 -53.563263 21.00000000
8.037892 36.413307 -13.988373 21.00000000
-8.171264 62.030094 -22.209423 21.00000000
4.200054 47.613178 -28.032413 21.00000000
-13.361740 65.165260 -15.491717 21.00000000
7.926192 36.844643 -21.741264 21.00000000
-8.083680 61.968288 -0.749239 21.00000000
-2.179869 56.796860 -50.040497 21.00000000
-26.842052 69.177322 -5.736692 21.00000000
0.102870 54.100307 -43.869537 21.00000000
-0.533391 54.916023 -3.034135 21.00000000
-15.848676 66.318184 -12.683447 21.00000000
-0.435340 54.804016 -48.662258 21.00000000
-20.967073 68.086678 -44.954098 21.00000000
-9.484233 62.956608 -40.803749 21.00000000
-19.776066 67.720573 0.737748 21.00000000
-33.437134 69.363335 -14.777355 21.00000000
-26.665762 69.152466 -8.512108 21.00000000
-20.670738 67.995590 -0.575078 21.00000000
4.116280 47.773373 -47.715534 21.00000000
4.644772 46.762775 -60.100327 21.00000000
2.911342 49.985115 -31.970501 21.00000000
-11.953353 64.436691 -8.852176 21.00000000
-21.914347 68.303894 -2.871070 21.00000000
-24.047998 68.779106 -26.909477 21.00000000
6.038367 43.395218 -7.324382 21.00000000
-1.214075 55.693596 -9.120807 21.00000000
2.735103 50.265656 -22.894323 21.00000000
6.159493 43.034161 -19.202616 21.00000000
0.110814 54.089638 -26.077585 21.00000000
0.303464 53.830875 2.042259 21.00000000
8.450646 34.819427 -15.278084 21.00000000
-3.757617 58.372536 -40.551910 21.00000000
-18.520145 67.334518 -16.877920 21.00000000
-20.042734 67.802551 -10.174258 21.00000000
-2.215222 56.837242 -7.574737 21.00000000
-29.765524 69.384781 -49.314529 21.00000000
-7.140336 61.302605 -28.866859 21.00000000
-1.659990 56.202984 -48.613815 21.00000000
7.478966 38.571640 -14.196118 21.00000000
-5.696017 60.111984 -6.903477 21.00000000
4.320846 47.382198 -58.614143 21.00000000
-9.253597 62.793854 -20.897379 21.00000000
-12.357226 64.672112 -41.119881 21.00000000
-21.300039 68.167076 -40.464966 21.00000000
7.839477 37.179501 -34.483486 21.00000000
-20.688335 68.000999 -35.911373 21.00000000
-14.347027 65.648979 2.455516 21.00000000
-16.152924 66.438751 -45.020920 21.00000000
-25.209391 68.947136 -54.799549 21.00000000
-14.610956 65.778549 -8.713718 21.00000000
-7.699094 61.696899 -42.586998 21.00000000
-17.759441 67.075363 1.022929 21.00000000
-3.823559 58.436821 -34.991108 21.00000000
-14.861514 65.901558 -54.312687 21.00000000
7.367378 39.002544 -51.165211 21.00000000
-16.265261 66.483269 -27.084532 21.00000000
-12.756585 64.868172 -23.204102 21.00000000
-3.762066 58.376873 -11.408117 21.00000000
-26.519131 69.131790 -29.221910 21.00000000
-28.972542 69.336365 -40.609886 21.00000000
-10.508536 63.579578 -43.828022 21.00000000
3.235381 49.457851 -47.557507 21.00000000
-5.363905 59.835869 -17.429790 21.00000000
-10.530974 63.592892 -22.085327 21.00000000
-29.246019 69.353058 -28.097767 21.00000000
-0.080085 54.346046 -20.339827 21.00000000
-1.664762 56.208431 1.764509 21.00000000
-3.528203 58.148895 -13.184221 21.00000000
0.748956 53.232506 -15.194820 21.00000000
-1.339382 55.836739 -16.427156 21.00000000
7.900313 36.944576 1.660901 21.00000000
8.433167 34.886921 -56.839424 21.00000000
0.140861 54.049278 -30.981153 21.00000000
4.154086 47.701080 -26.062740 21.00000000
-11.838634 64.368637 -57.185535 21.00000000
-0.466975 54.840157 1.044662 21.00000000
-11.328407 64.065948 -38.607132 21.00000000
8.217640 35.719196 -58.569462 21.00000000
8.417228 34.948471 -44.868507 21.00000000
-5.572196 60.009041 -60.167587 21.00000000
6.776333 41.195480 -42.850254 21.00000000
-3.799573 58.413437 -47.781013 21.00000000
-18.752460 67.405930 -35.702862 21.00000000
-4.076449 58.683350 -58.496964 21.00000000
-9.808949 63.164562 -5.193667 21.00000000
-9.418625 62.910309 -2.551799 21.00000000
1.222252 52.596790 -1.086820 21.00000000
6.288832 42.648628 -27.132471 21.00000000
7.286235 39.315887 -8.397385 21.00000000
-11.162907 63.967773 -23.829695 21.00000000
-26.208471 69.087990 0.431907 21.00000000
-13.457133 65.212097 -31.262552 21.00000000
-17.487900 66.967758 -7.682436 21.00000000
2.992990 49.855145 -4.143071 21.00000000
-25.663378 69.011139 -46.788265 21.00000000
8.522612 34.541527 -47.829975 21.00000000
-3.454314 58.076862 -1.180234 21.00000000
6.834473 41.022179 -32.160404 21.00000000
7.557348 38.268963 -12.359148 21.00000000
-33.463627 69.362854 -2.382944 21.00000000
-15.395125 66.138458 -21.720325 21.00000000
-21.575121 68.228340 -38.503040 21.00000000
-22.739309 68.487633 -44.035629 21.00000000
-5.731337 60.141350 -51.340427 21.00000000
4.681844 46.679016 -39.089672 21.00000000
-2.481353 57.128376 -60.780499 21.00000000
-12.789476 64.884315 -26.749205 21.00000000
-29.990952 69.398544 -35.632450 21.00000000
-21.249437 68.155800 -17.528269 21.00000000
4.954849 46.038219 -42.632542 21.00000000
-2.846979 57.484802 -29.863564 21.00000000
8.525969 34.528561 -59.570190 21.00000000
-22.194893 68.366379 -36.715473 21.00000000
-7.109658 61.280956 -16.758924 21.00000000
-11.888727 64.398354 -0.774312 21.00000000
5.679495 44.337337 -17.525562 21.00000000
-9.213325 62.765434 -55.636425 21.00000000
-9.566376 63.014572 -19.099567 21.00000000
7.352963 39.058212 -34.723557 21.00000000
6.471834 42.103134 -30.657286 21.00000000
-26.776999 69.168152 -56.006428 21.00000000
1.567176 52.124798 -30.035654 21.00000000
-5.267473 59.755695 -11.922447 21.00000000
-2.839978 57.477982 -28.304857 21.00000000
-2.225510 56.848995 -56.413795 21.00000000
0.594321 53.440205 -2.816220 21.00000000
7.915193 36.887115 -29.910721 21.00000000
-1.817793 56.383247 -4.252478 21.00000000
-8.146049 62.012299 -39.344845 21.00000000
-9.210953 62.763763 -13.107056 21.00000000
-1.694532 56.242439 -39.435696 21.00000000
-22.232855 68.374832 -28.160599 21.00000000
5.143310 45.595867 -31.836657 21.00000000
-12.664479 64.822952 -55.824436 21.00000000
-23.609549 68.681458 -14.056217 21.00000000
-15.648269 66.238770 -57.561001 21.00000000
-2.956332 57.591408 -32.991795 21.00000000
-27.779331 69.263504 -53.351143 21.00000000
-6.032089 60.391396 -22.121180 21.00000000
-20.104834 67.821640 -2.671058 21.00000000
-10.665613 63.672764 -41.992107 21.00000000
-10.260865 63.432652 1.210249 21.00000000
2.430539 50.750469 -5.728158 21.00000000
-28.069017 69.281197 -42.798351 21.00000000
-6.993494 61.190701 -21.030998 21.00000000
3.347449 49.243549 -28.884308 21.00000000
-1.312077 55.805546 -37.677315 21.00000000
0.238287 53.918419 -42.237396 21.00000000
-9.951193 63.248947 -16.554415 21.00000000
7.507840 38.460140 -33.217312 21.00000000
4.326973 47.370480 -13.527152 21.00000000
7.921857 36.861385 -44.696983 21.00000000
-6.957754 61.160988 -60.122749 21.00000000
-28.358189 69.298851 -56.864105 21.00000000
-7.225077 61.362404 -23.555168 21.00000000
0.568157 53.475349 -48.268623 21.00000000
-31.815304 69.392647 -2.262134 21.00000000
5.782517 44.095524 -9.150529 21.00000000
-20.376188 67.905045 -12.327087 21.00000000
-33.139851 69.368706 -41.357109 21.00000000
-29.583860 69.373688 -47.445435 21.00000000
-0.790312 55.209515 -5.613005 21.00000000
8.298539 35.406799 1.311566 21.00000000
5.074634 45.757061 -14.222660 21.00000000
-9.212088 62.764565 -32.955166 21.00000000
-17.259706 66.877335 -10.868008 21.00000000
-27.790422 69.264183 -49.134708 21.00000000
-15.476090 66.170540 -37.604687 21.00000000
7.121782 39.950932 -13.630358 21.00000000
-19.144121 67.526321 -29.584827 21.00000000
-27.354122 69.237541 -60.867641 21.00000000
-30.786674 69.411240 -29.044493 21.00000000
-17.164579 66.839638 -34.185055 21.00000000
-23.927542 68.752281 -7.297797 21.00000000
-13.839633 65.399879 -24.764402 21.00000000
-11.001947 63.872288 3.865849 21.00000000
-16.415104 66.542641 -59.088051 21.00000000
6.933523 40.677910 -51.649960 21.00000000
-17.532549 66.985451 -3.085098 21.00000000
-5.651119 60.074657 -9.996448 21.00000000
8.008841 36.525490 -60.398224 21.00000000
0.142605 54.046936 -24.253290 21.00000000
3.706268 48.557407 -52.155315 21.00000000
2.762690 50.221745 -50.820549 21.00000000
-25.314676 68.961975 -36.920540 21.00000000
-31.380041 69.400513 -50.456463 21.00000000
-28.954954 69.335289 -24.776224 21.00000000
-11.720622 64.298630 -31.348919 21.00000000
-3.611648 58.230240 -26.404814 21.00000000
2.622036 50.445641 -1.884056 21.00000000
6.039852 43.390789 -15.697899 21.00000000
-10.367077 63.495663 -37.323818 21.00000000
2.208277 51.104275 0.949577 21.00000000
-18.611546 67.362617 -21.916044 21.00000000
-2.367110 57.010754 -37.631306 21.00000000
7.600608 38.101913 -10.044527 21.00000000
-23.933811 68.753677 -37.686913 21.00000000
5.052367 45.809326 -4.472015 21.00000000
-20.891521 68.063454 -15.786445 21.00000000
4.324342 47.375511 1.131775 21.00000000
-1.267816 55.754986 -60.762501 21.00000000
6.262501 42.727116 -32.304375 21.00000000
-25.856762 69.038406 -30.932741 21.00000000
7.325016 39.166126 -47.983238 21.00000000
8.041987 36.397495 -0.937690 21.00000000
-27.361568 69.237999 -20.957735 21.00000000
-12.151300 64.554115 -43.152111 21.00000000
7.602768 38.093571 -17.758818 21.00000000
4.989675 45.956478 -22.466476 21.00000000
1.516904 52.201019 -4.702504 21.00000000
-6.272854 60.591564 3.802965 21.00000000
6.067355 43.308807 -24.535318 21.00000000
-1.297282 55.788647 -35.183582 21.00000000
2.578703 50.514618 3.447792 21.00000000
-8.775260 62.456310 -11.301858 21.00000000
-15.115507 66.026253 -23.564842 21.00000000
-13.947406 65.452789 -40.454151 21.00000000
-5.797097 60.196022 -53.334660 21.00000000
5.447799 44.881172 -34.782402 21.00000000
-14.777764 65.860443 -56.242813 21.00000000
-15.801973 66.299683 -20.118153 21.00000000
-5.769720 60.173264 -57.018150 21.00000000
2.315991 50.932812 -10.434298 21.00000000
-30.889557 69.409378 -5.692142 21.00000000
-15.828868 66.310333 -41.901291 21.00000000
6.079537 43.272495 -40.542446 21.00000000
-8.513278 62.271439 -47.227428 21.00000000
6.578508 41.785160 -35.744114 21.00000000
-4.943842 59.486629 -26.133003 21.00000000
-9.374192 62.878956 -14.857932 21.00000000
5.921288 43.744205 -11.251664 21.00000000
6.866969 40.925312 -58.631149 21.00000000
1.774794 51.794308 -24.072687 21.00000000
1.952623 51.511234 -34.557896 21.00000000
0.840055 53.110146 -23.014240 21.00000000
-0.079276 54.344959 -13.460663 21.00000000
3.680902 48.605915 -44.704098 21.00000000
-1.856037 56.426933 -6.108316 21.00000000
-8.006602 61.913898 -58.612293 21.00000000
5.449053 44.878227 -15.809291 21.00000000
-23.170868 68.583748 -33.246803 21.00000000
0.796874 53.168144 -56.393608 21.00000000
7.961584 36.707977 -41.448921 21.00000000
2.021208 51.402058 -48.376858 21.00000000
-14.764200 65.853783 -43.157696 21.00000000
-31.562098 69.397224 -0.342060 21.00000000
7.280244 39.339020 -40.702316 21.00000000
-14.998823 65.968971 -5.472725 21.00000000
4.406936 47.217571 -4.333726 21.00000000
0.912903 53.012295 -35.321648 21.00000000
6.041809 43.384953 -44.362778 21.00000000
-0.121713 54.401962 -33.152260 21.00000000
7.695594 37.735119 3.645353 21.00000000
-17.168402 66.841148 -51.293934 21.00000000
-26.386822 69.113136 -40.191174 21.00000000
1.548925 52.153851 -38.374718 21.00000000
-33.292881 69.365944 -8.147060 21.00000000
-15.509632 66.183830 -25.595152 21.00000000
-26.406895 69.115967 -57.655617 21.00000000
-5.261256 59.750526 -37.398064 21.00000000
-31.417437 69.399834 -41.035912 21.00000000
-21.013620 68.100990 -33.168228 21.00000000
-27.594872 69.252243 -39.292107 21.00000000
-17.442051 66.949585 -42.781902 21.00000000
-32.105415 69.387405 -53.348560 21.00000000
8.551609 34.429550 -16.973986 21.00000000
-25.832373 69.034966 -3.864919 21.00000000
-26.902470 69.185837 -15.367640 21.00000000
5.192838 45.479614 -24.369423 21.00000000
-0.040991 54.293537 -57.647785 21.00000000
-21.011284 68.100266 -7.224042 21.00000000
-32.990597 69.371407 -22.233828 21.00000000
6.666922 41.521614 -49.304497 21.00000000
6.389104 42.349735 -37.417519 21.00000000
-5.652621 60.075909 -2.552613 21.00000000
-0.912811 55.349449 -52.829918 21.00000000
-12.316868 64.652298 -45.269226 21.00000000
7.203199 39.636536 -17.079998 21.00000000
6.796313 41.135921 -47.719898 21.00000000
-11.219891 64.001579 -58.714588 21.00000000
7.514628 38.433929 -31.001719 21.00000000
3.443309 49.060246 -21.694429 21.00000000
5.113067 45.666855 -29.461729 21.00000000
-31.110067 69.405396 -10.873144 21.00000000
8.429891 34.899570 3.682925 21.00000000
-4.305984 58.907112 -7.250260 21.00000000
-12.832457 64.905418 -10.421764 21.00000000
-14.967785 65.953735 -18.707533 21.00000000
5.762757 44.141907 -56.850197 21.00000000
-26.518862 69.131752 -33.827988 21.00000000
-15.727388 66.270126 -9.824013 21.00000000
-13.751896 65.356804 -45.221241 21.00000000
2.696142 50.327679 -7.382108 21.00000000
-26.599377 69.143105 -41.903496 21.00000000
-6.926211 61.134762 -2.682055 21.00000000
7.452316 38.674549 -15.915228 21.00000000
2.406035 50.789478 -36.122658 21.00000000
-19.092030 67.510315 -49.340141 21.00000000
5.291293 45.248520 -61.116962 21.00000000
-6.066714 60.420181 0.945488 21.00000000
-22.051100 68.334351 -26.495371 21.00000000
1.995029 51.443729 -50.086910 21.00000000
0.853469 35.563370 3.879021 22.00000000
38.006927 15.366235 3.879021 22.00000000
53.595135 36.834686 3.879021 22.00000000
-14.032179 25.469849 3.879021 22.00000000
8.013260 -40.726673 3.879021 22.00000000
48.796947 -43.829586 3.879021 22.00000000
42.189957 -55.488899 3.879021 22.00000000
19.114424 -61.731277 3.879021 22.00000000
-52.967178 -33.995766 3.879021 22.00000000
-62.120293 32.978111 3.879021 22.00000000
-49.640034 28.774368 3.879021 22.00000000
70.504654 0.778811 3.879021 22.00000000
-34.084957 36.544079 3.879021 22.00000000
-38.741978 41.603245 3.879021 22.00000000
-56.341263 -9.821590 3.879021 22.00000000
5.902571 77.651428 3.879021 22.00000000
20.292341 32.650089 3.879021 22.00000000
-36.185478 -45.977753 3.879021 22.00000000
-23.575047 24.440439 3.879021 22.00000000
46.994320 -33.549763 3.879021 22.00000000
19.981951 -24.892494 3.879021 22.00000000
-31.573689 -11.800337 3.879021 22.00000000
55.058674 -31.519203 3.879021 22.00000000
-13.861350 47.533237 3.879021 22.00000000
75.463562 -23.274948 3.879021 22.00000000
-27.976780 58.034122 3.879021 22.00000000
-10.597686 -60.046719 3.879021 22.00000000
-0.230922 -25.212179 3.879021 22.00000000
43.244698 -39.270256 3.879021 22.00000000
-41.458996 -36.495426 3.879021 22.00000000
37.462723 59.613728 3.879021 22.00000000
-30.333199 -34.535168 3.879021 22.00000000
-36.051613 -23.416521 3.879021 22.00000000
-37.367355 46.531723 3.879021 22.00000000
29.924074 23.005470 3.879021 22.00000000
3.021296 63.207989 3.879021 22.00000000
25.761744 -36.890015 3.879021 22.00000000
65.051834 5.379154 3.879021 22.00000000
-27.340649 2.200157 3.879021 22.00000000
-51.939278 3.387496 3.879021 22.00000000
68.246162 14.612756 3.879021 22.00000000
