18.411247 -12.463326 -61.120979 5.00000000
-12.779738 8.970846 -61.120979 5.00000000
1.129183 29.236605 -61.120979 5.00000000
-8.709678 0.784673 -61.120979 5.00000000
21.594873 25.017183 -61.120979 5.00000000
4.319615 29.432440 -61.120979 5.00000000
23.728205 5.758522 -61.120979 5.00000000
-10.012349 6.788757 -61.120979 5.00000000
9.315996 27.883226 -61.120979 5.00000000
-7.418186 24.971996 -61.120979 5.00000000
12.197415 33.219849 -61.120979 5.00000000
-11.745115 -6.515687 -61.120979 5.00000000
26.797142 3.730735 -61.120979 5.00000000
5.232729 30.575569 -61.120979 5.00000000
15.168044 23.098448 -61.120979 5.00000000
-14.681411 3.979863 -61.120979 5.00000000
28.563162 10.864331 -61.120979 5.00000000
-9.565051 -3.304856 -61.120979 5.00000000
26.445553 6.640733 -61.120979 5.00000000
16.066168 30.164829 -61.120979 5.00000000
23.943810 14.163887 -61.120979 5.00000000
-10.072384 28.895338 -61.120979 5.00000000
32.653008 5.777098 -61.120979 5.00000000
6.386708 -17.853519 -61.120979 5.00000000
22.534134 8.672077 -61.120979 5.00000000
-4.040360 22.316957 -61.120979 5.00000000
23.159306 -5.148961 -61.120979 5.00000000
-17.356453 3.469680 -61.120979 5.00000000
25.067162 -13.493422 -61.120979 5.00000000
17.305853 -11.920430 -61.120979 5.00000000
5.579608 25.024601 -61.120979 5.00000000
-7.572393 1.407360 -61.120979 5.00000000
-4.810399 30.474861 -61.120979 5.00000000
32.374451 4.018212 -61.120979 5.00000000
-13.418728 -2.696426 -61.120979 5.00000000
29.018818 -1.824441 -61.120979 5.00000000
23.098200 15.075212 -61.120979 5.00000000
26.355894 17.012554 -61.120979 5.00000000
-10.112833 -14.561420 -61.120979 5.00000000
23.304867 -3.783913 -61.120979 5.00000000
-6.267109 22.280861 -61.120979 5.00000000
-0.387172 19.594536 -61.120979 5.00000000
-3.257420 -5.548884 -61.120979 5.00000000
-6.954185 -18.178562 -61.120979 5.00000000
-18.498587 6.575682 -61.120979 5.00000000
9.258193 -21.475061 -61.120979 5.00000000
33.040375 11.332448 -61.120979 5.00000000
10.807397 -20.149893 -61.120979 5.00000000
-12.442955 1.204793 -61.120979 5.00000000
-8.579391 29.369709 -61.120979 5.00000000
-0.292950 28.568552 -61.120979 5.00000000
29.316044 8.071266 -61.120979 5.00000000
-15.929847 -3.019395 -61.120979 5.00000000
-9.649190 27.628719 -61.120979 5.00000000
-10.443239 25.640593 -61.120979 5.00000000
-0.658191 -12.730997 -61.120979 5.00000000
34.516407 5.122517 -61.120979 5.00000000
-19.121716 -0.588116 -61.120979 5.00000000
11.969624 -19.471128 -61.120979 5.00000000
2.388668 26.907770 -61.120979 5.00000000
-1.807199 19.115406 -61.120979 5.00000000
8.700014 30.986792 -61.120979 5.00000000
-7.235389 -16.909622 -61.120979 5.00000000
22.765476 6.395810 -61.120979 5.00000000
11.776418 27.871965 -61.120979 5.00000000
-7.377736 -7.820366 -61.120979 5.00000000
27.445158 1.655482 -61.120979 5.00000000
24.991440 16.054201 -61.120979 5.00000000
0.811671 28.119295 -61.120979 5.00000000
7.631000 24.107443 -61.120979 5.00000000
9.968120 -15.399280 -61.120979 5.00000000
23.931219 10.564432 -61.120979 5.00000000
5.692953 -12.800719 -61.120979 5.00000000
-10.439453 -4.272444 -61.120979 5.00000000
15.685952 -9.581446 -61.120979 5.00000000
-13.512778 13.812796 -61.120979 5.00000000
23.776690 -2.475516 -61.120979 5.00000000
2.084986 -12.822948 -61.120979 5.00000000
-19.993368 9.553476 -61.120979 5.00000000
33.175064 9.911579 -61.120979 5.00000000
14.802434 -17.365345 -61.120979 5.00000000
-3.424579 28.844254 -61.120979 5.00000000
24.839142 -4.843530 -61.120979 5.00000000
19.660210 23.359285 -61.120979 5.00000000
0.725894 33.571999 -61.120979 5.00000000
20.749865 -14.178843 -61.120979 5.00000000
4.422122 -13.377229 -61.120979 5.00000000
-8.669190 10.325356 -61.120979 5.00000000
15.162391 19.639811 -61.120979 5.00000000
-6.433646 -14.753845 -61.120979 5.00000000
22.478760 -11.612945 -61.120979 5.00000000
-17.837851 14.338336 -61.120979 5.00000000
-11.528472 -5.165331 -61.120979 5.00000000
-11.091355 5.936509 -61.120979 5.00000000
33.648262 6.268688 -61.120979 5.00000000
31.337839 11.374700 -61.120979 5.00000000
11.726196 -13.093278 -61.120979 5.00000000
-9.059550 4.998398 -61.120979 5.00000000
23.988855 0.726886 -61.120979 5.00000000
28.593561 -4.980389 -61.120979 5.00000000
11.356848 -9.596601 -61.120979 5.00000000
-9.043570 -12.546168 -61.120979 5.00000000
-4.946447 -10.754995 -61.120979 5.00000000
-12.390251 -1.609665 -61.120979 5.00000000
-4.845569 16.660818 -61.120979 5.00000000
-7.649825 26.147114 -61.120979 5.00000000
-0.193585 -16.896927 -61.120979 5.00000000
25.948492 1.508880 -61.120979 5.00000000
8.917693 -17.053102 -61.120979 5.00000000
14.214606 -10.348413 -61.120979 5.00000000
-16.451948 -10.131160 -61.120979 5.00000000
3.215369 -15.728578 -61.120979 5.00000000
20.679335 -16.015310 -61.120979 5.00000000
21.814995 0.823952 -61.120979 5.00000000
-17.063641 -3.599388 -61.120979 5.00000000
21.910685 -13.960000 -61.120979 5.00000000
16.062231 25.772245 -61.120979 5.00000000
19.207155 15.943537 -61.120979 5.00000000
0.498951 32.523785 -61.120979 5.00000000
-5.236675 15.395302 -61.120979 5.00000000
2.201855 -14.248217 -61.120979 5.00000000
-12.859128 7.664307 -61.120979 5.00000000
24.670189 -0.807797 -61.120979 5.00000000
-1.639426 31.390451 -61.120979 5.00000000
24.537651 3.251346 -61.120979 5.00000000
-10.285341 -13.388872 -61.120979 5.00000000
18.211857 -14.157195 -61.120979 5.00000000
3.864013 25.673161 -61.120979 5.00000000
7.744009 -17.015928 -61.120979 5.00000000
-7.145519 12.690354 -61.120979 5.00000000
-2.739321 18.056131 -61.120979 5.00000000
22.567560 28.703653 -61.120979 5.00000000
-18.567308 7.852727 -61.120979 5.00000000
-5.098604 -8.898693 -61.120979 5.00000000
15.805015 20.588093 -61.120979 5.00000000
31.332296 -0.079679 -61.120979 5.00000000
25.294060 26.479168 -61.120979 5.00000000
0.286365 30.558159 -61.120979 5.00000000
-11.014648 11.817646 -61.120979 5.00000000
7.630825 32.953461 -61.120979 5.00000000
-18.430920 18.841656 -61.120979 5.00000000
-13.249308 -12.236478 -61.120979 5.00000000
10.012484 -8.574447 -61.120979 5.00000000
4.624986 22.667767 -61.120979 5.00000000
2.185030 -8.812244 -61.120979 5.00000000
30.172009 15.192089 -61.120979 5.00000000
-13.529698 17.824711 -61.120979 5.00000000
-13.892318 0.717286 -61.120979 5.00000000
29.376587 5.203477 -61.120979 5.00000000
25.853060 -14.485530 -61.120979 5.00000000
24.382736 -10.681811 -61.120979 5.00000000
17.226004 30.965054 -61.120979 5.00000000
-12.793265 12.948729 -61.120979 5.00000000
-10.582188 -7.446961 -61.120979 5.00000000
24.855539 12.830223 -61.120979 5.00000000
27.816233 -2.171917 -61.120979 5.00000000
-9.211591 16.202078 -61.120979 5.00000000
-15.396954 21.423645 -61.120979 5.00000000
-12.203462 11.779125 -61.120979 5.00000000
22.794346 25.367582 -61.120979 5.00000000
-7.760842 -10.663312 -61.120979 5.00000000
30.083138 21.547413 -61.120979 5.00000000
14.277678 20.531664 -61.120979 5.00000000
28.655470 -8.760091 -61.120979 5.00000000
-2.421516 -18.207478 -61.120979 5.00000000
20.491379 -2.234472 -61.120979 5.00000000
-16.175444 8.567760 -61.120979 5.00000000
-11.205342 -0.700033 -61.120979 5.00000000
28.816496 18.970490 -61.120979 5.00000000
-19.272690 14.956643 -61.120979 5.00000000
-11.479729 16.708336 -61.120979 5.00000000
-13.157747 -9.650963 -61.120979 5.00000000
33.583870 12.852369 -61.120979 5.00000000
23.453382 7.428981 -61.120979 5.00000000
14.008837 25.015230 -61.120979 5.00000000
25.632483 -3.914834 -61.120979 5.00000000
-11.569337 21.764421 -61.120979 5.00000000
-3.184229 -17.334196 -61.120979 5.00000000
1.703013 30.469191 -61.120979 5.00000000
1.090589 -9.347012 -61.120979 5.00000000
32.930744 2.427979 -61.120979 5.00000000
21.325756 22.822493 -61.120979 5.00000000
-10.474044 5.064143 -61.120979 5.00000000
-20.103218 6.023208 -61.120979 5.00000000
26.405788 14.129034 -61.120979 5.00000000
10.284845 32.249676 -61.120979 5.00000000
3.464329 32.765759 -61.120979 5.00000000
32.215755 17.889702 -61.120979 5.00000000
21.755461 5.314886 -61.120979 5.00000000
-12.617980 -4.066240 -61.120979 5.00000000
6.582959 -16.664454 -61.120979 5.00000000
28.978308 1.732371 -61.120979 5.00000000
20.841028 -7.694740 -61.120979 5.00000000
2.238144 25.796852 -61.120979 5.00000000
-10.357068 2.644088 -61.120979 5.00000000
6.128103 26.645285 -61.120979 5.00000000
3.187906 30.159000 -61.120979 5.00000000
7.639683 -8.985887 -61.120979 5.00000000
8.100269 28.518106 -61.120979 5.00000000
11.412180 32.338848 -61.120979 5.00000000
-14.126641 21.541843 -61.120979 5.00000000
13.870915 28.876701 -61.120979 5.00000000
-11.349017 -10.397761 -61.120979 5.00000000
-6.595003 -10.396573 -61.120979 5.00000000
-3.629357 30.927523 -61.120979 5.00000000
-20.740549 0.028836 -61.120979 5.00000000
19.303507 26.936504 -61.120979 5.00000000
31.725504 5.124107 -61.120979 5.00000000
29.462000 9.988071 -61.120979 5.00000000
22.977579 27.070189 -61.120979 5.00000000
-0.956288 -14.524283 -61.120979 5.00000000
10.512249 -21.498873 -61.120979 5.00000000
-14.106399 -10.361813 -61.120979 5.00000000
16.565201 -15.385839 -61.120979 5.00000000
27.982912 3.603126 -61.120979 5.00000000
-5.094192 21.664326 -61.120979 5.00000000
-4.479172 27.883692 -61.120979 5.00000000
0.125009 -13.877708 -61.120979 5.00000000
5.547840 -18.959679 -61.120979 5.00000000
24.673134 -8.448729 -61.120979 5.00000000
30.148403 3.612172 -61.120979 5.00000000
26.592932 23.031521 -61.120979 5.00000000
16.930758 26.975283 -61.120979 5.00000000
11.368436 24.508398 -61.120979 5.00000000
24.016438 -13.682875 -61.120979 5.00000000
-2.281998 -16.717079 -61.120979 5.00000000
-17.343771 8.885808 -61.120979 5.00000000
-11.790608 25.423355 -61.120979 5.00000000
1.546320 23.666449 -61.120979 5.00000000
0.867824 -18.747705 -61.120979 5.00000000
11.108337 33.997215 -61.120979 5.00000000
-0.197337 -8.124445 -61.120979 5.00000000
-13.597260 11.833617 -61.120979 5.00000000
-15.636182 14.744178 -61.120979 5.00000000
31.887331 7.673606 -61.120979 5.00000000
-18.860888 -5.667135 -61.120979 5.00000000
24.155825 27.004589 -61.120979 5.00000000
12.811610 -13.820322 -61.120979 5.00000000
-4.430174 20.394705 -61.120979 5.00000000
5.062682 23.907621 -61.120979 5.00000000
7.384065 27.622871 -61.120979 5.00000000
19.221472 -9.100213 -61.120979 5.00000000
-4.191862 -15.070848 -61.120979 5.00000000
8.524299 25.412350 -61.120979 5.00000000
-5.964679 -16.411659 -61.120979 5.00000000
1.649583 -10.479948 -61.120979 5.00000000
18.903690 -6.055787 -61.120979 5.00000000
-13.636316 -0.285379 -61.120979 5.00000000
-9.658737 -16.646603 -61.120979 5.00000000
-3.944029 -11.775175 -61.120979 5.00000000
-14.952351 -9.227917 -61.120979 5.00000000
-6.705502 23.510754 -61.120979 5.00000000
31.708862 15.790277 -61.120979 5.00000000
32.537495 -2.673958 -61.120979 5.00000000
-17.841997 11.013443 -61.120979 5.00000000
8.191141 22.421700 -61.120979 5.00000000
2.455018 29.191616 -61.120979 5.00000000
-19.642191 16.096348 -61.120979 5.00000000
18.167027 22.725063 -61.120979 5.00000000
-11.423735 7.490649 -61.120979 5.00000000
21.451897 2.037314 -61.120979 5.00000000
-5.643224 24.138344 -61.120979 5.00000000
-37.259865 66.775040 -31.078266 6.00000000
-37.012512 66.962181 -44.463047 6.00000000
-45.353638 59.977722 -54.159691 6.00000000
-43.376316 61.846779 -46.017574 6.00000000
-39.214771 65.295990 -17.511812 6.00000000
-43.428452 61.797501 -8.201221 6.00000000
-39.112949 65.373032 -5.048526 6.00000000
-43.441078 61.785564 0.157494 6.00000000
-42.225620 62.830788 -50.242741 6.00000000
-39.389851 65.163528 -21.912325 6.00000000
-38.018555 66.201027 -11.127875 6.00000000
-41.810528 63.182167 2.136212 6.00000000
-40.820587 64.020164 -53.340797 6.00000000
-37.787067 66.376167 -58.423065 6.00000000
-37.067459 66.920609 -23.423288 6.00000000
-38.049858 66.177345 -9.031020 6.00000000
-40.948975 63.911484 -30.963968 6.00000000
-36.006664 67.651672 -50.526001 6.00000000
-37.803024 66.364090 -46.649155 6.00000000
-37.049004 66.934570 -34.898266 6.00000000
-43.708183 61.533085 -30.893221 6.00000000
-44.202038 61.066269 -25.074505 6.00000000
-35.027710 68.311302 -9.457840 6.00000000
-41.318161 63.598961 -11.137401 6.00000000
-46.207756 59.170372 -59.763622 6.00000000
-34.841290 68.436913 -56.799389 6.00000000
-45.575062 59.768421 -1.037931 6.00000000
-41.563793 63.391029 -41.148666 6.00000000
-45.078968 60.237354 -52.167877 6.00000000
-45.431629 59.904003 -17.281055 6.00000000
-35.797058 67.792908 -53.361752 6.00000000
-39.754505 64.887642 -58.170780 6.00000000
-39.306713 65.226433 -2.627477 6.00000000
-44.263264 61.008396 -34.757946 6.00000000
-34.509727 68.660324 -17.211445 6.00000000
-44.817104 60.484882 -6.189896 6.00000000
-36.245670 67.490623 -31.174187 6.00000000
-34.505962 68.662865 -51.291096 6.00000000
-41.687653 63.286182 -36.357346 6.00000000
-35.541290 67.965248 -12.836730 6.00000000
-43.913609 61.338909 -37.147488 6.00000000
-40.087669 64.635574 -50.179775 6.00000000
-40.455212 64.329460 -8.341425 6.00000000
-42.753178 62.384205 -15.144315 6.00000000
-43.944908 61.309322 3.697343 6.00000000
-38.232540 66.039131 -35.767948 6.00000000
-42.562733 62.545418 -7.728959 6.00000000
-38.369827 65.935265 -8.102730 6.00000000
-44.657764 60.635494 -22.215839 6.00000000
-43.358547 61.863575 -48.359921 6.00000000
-36.017006 67.644707 -6.569980 6.00000000
-42.185478 62.864769 -57.379551 6.00000000
-41.678268 63.294125 -1.286973 6.00000000
-40.565876 64.235779 -17.192055 6.00000000
-34.959362 68.357353 -54.248596 6.00000000
-42.717155 62.414696 -39.513977 6.00000000
-38.700745 65.684898 -7.121433 6.00000000
-40.468555 64.318161 -45.911537 6.00000000
-33.932022 69.049583 -60.669582 6.00000000
-40.892365 63.959404 -7.778023 6.00000000
-37.247074 66.784714 -30.166653 6.00000000
-37.373302 66.689209 -0.925761 6.00000000
-37.238503 66.791199 -57.716866 6.00000000
-34.242104 68.840652 -14.758044 6.00000000
-37.747787 66.405884 -44.093220 6.00000000
-36.732780 67.162407 -50.222866 6.00000000
-42.691818 62.436146 -19.242977 6.00000000
-37.522816 66.576096 -36.703529 6.00000000
-38.379002 65.928314 -10.324632 6.00000000
-39.892437 64.783279 -16.278868 6.00000000
-45.455475 59.881462 -21.488592 6.00000000
-36.969757 66.994522 -0.211366 6.00000000
-43.081284 62.106461 -1.891131 6.00000000
-46.245766 59.134445 -44.226799 6.00000000
-34.452015 68.699211 -20.993160 6.00000000
-43.229240 61.981213 -53.126446 6.00000000
-44.168816 61.097675 -1.569896 6.00000000
-40.460415 64.325058 1.361861 6.00000000
-36.773380 67.135048 -56.766251 6.00000000
-44.500702 60.783958 -7.317682 6.00000000
-33.811642 69.130699 -19.020823 6.00000000
-46.063370 59.306850 -28.940742 6.00000000
-44.044533 61.215153 -15.406236 6.00000000
-34.390270 68.740814 -22.279196 6.00000000
-36.102497 67.587097 -10.052118 6.00000000
-34.366692 68.756706 -27.905050 6.00000000
-37.991383 66.221581 -57.575352 6.00000000
-38.253529 66.023247 -5.714441 6.00000000
-44.664497 60.629131 -33.376003 6.00000000
-39.417122 65.142899 -44.515362 6.00000000
-44.047001 61.212818 -44.849300 6.00000000
-34.125797 68.919022 -42.600788 6.00000000
-40.948635 63.911770 -9.447484 6.00000000
-37.012310 66.962334 -37.507111 6.00000000
-34.754791 68.495193 -30.519737 6.00000000
-40.227207 64.522469 -3.986653 6.00000000
-46.155075 59.220165 -29.892866 6.00000000
-40.385273 64.388664 -37.294693 6.00000000
-44.774357 60.525288 -16.420206 6.00000000
-38.731846 65.661362 2.087207 6.00000000
-44.180271 61.086845 -32.539059 6.00000000
-46.110069 59.262711 -47.086952 6.00000000
-37.049850 66.933929 -42.787605 6.00000000
-39.818535 64.839195 -10.925759 6.00000000
-44.869705 60.435158 -1.349565 6.00000000
-39.365452 65.181992 -46.163074 6.00000000
-34.817810 68.452736 -59.192478 6.00000000
-35.554489 67.956352 -1.299078 6.00000000
-36.235512 67.497475 -49.042801 6.00000000
-46.199455 59.178219 -36.701031 6.00000000
-41.395737 63.533291 -6.291137 6.00000000
-41.014511 63.856007 -36.811901 6.00000000
-44.298164 60.975407 -52.555748 6.00000000
-33.796371 69.140991 -31.442610 6.00000000
-38.494923 65.840614 -12.248890 6.00000000
-44.640835 60.651497 -24.146997 6.00000000
-43.804550 61.441994 -39.742344 6.00000000
-33.628780 69.253914 -33.730114 6.00000000
-35.011681 68.322105 -38.536720 6.00000000
-44.924404 60.383453 -8.200775 6.00000000
-44.923080 60.384705 -39.150856 6.00000000
-45.632256 59.714363 -30.468964 6.00000000
-40.488819 64.301010 -18.719107 6.00000000
-37.615234 66.506172 -49.626259 6.00000000
-38.374523 65.931709 -47.276596 6.00000000
-34.855717 68.427193 -60.105461 6.00000000
-34.248856 68.836098 0.176932 6.00000000
-34.551102 68.632446 -13.213384 6.00000000
-38.199959 66.063782 -37.313683 6.00000000
-44.925549 60.382374 -44.447166 6.00000000
-41.004330 63.864624 -41.620476 6.00000000
-43.686321 61.553749 -49.901237 6.00000000
-43.948959 61.305489 -6.923518 6.00000000
-41.444542 63.491982 -46.438175 6.00000000
-39.700165 64.928749 -40.142170 6.00000000
-41.384716 63.542622 -22.227362 6.00000000
-44.424774 60.855728 -10.951898 6.00000000
-38.978252 65.474937 1.039556 6.00000000
-39.112186 65.373604 -35.037621 6.00000000
-40.912777 63.942123 -15.520949 6.00000000
-36.280117 67.467415 -21.012589 6.00000000
-41.619041 63.344265 -55.539425 6.00000000
-41.322956 63.594902 -24.362570 6.00000000
-34.103210 68.934242 -9.426710 6.00000000
-43.757206 61.486744 -40.622959 6.00000000
-42.511810 62.588524 -9.622771 6.00000000
-44.005013 61.252506 -59.451706 6.00000000
-37.698818 66.442932 -24.401081 6.00000000
-33.478863 69.354927 -45.817272 6.00000000
-44.760975 60.537937 -60.251411 6.00000000
-44.637039 60.655087 -43.653873 6.00000000
-38.696667 65.687981 -29.232664 6.00000000
-45.598740 59.746040 -7.822716 6.00000000
-36.951485 67.008347 -27.722256 6.00000000
-33.808426 69.132866 -54.493645 6.00000000
-34.715645 68.521576 -11.180713 6.00000000
-34.876606 68.413116 -16.392817 6.00000000
-35.481087 68.005814 2.177297 6.00000000
-40.066750 64.651405 -23.369738 6.00000000
-45.212574 60.111065 -25.908991 6.00000000
-43.346889 61.874596 -18.680962 6.00000000
-37.163296 66.848099 -38.506840 6.00000000
-37.612495 66.508247 1.701309 6.00000000
-37.779034 66.382240 -21.873522 6.00000000
-42.456795 62.635098 -6.026975 6.00000000
-37.090664 66.903046 -26.479366 6.00000000
-35.968285 67.677536 -13.639185 6.00000000
-44.529999 60.756268 -3.672786 6.00000000
-42.879574 62.277210 2.954210 6.00000000
-42.186653 62.863773 -58.237553 6.00000000
-42.836334 62.313808 0.729823 6.00000000
-35.242821 68.166359 -49.564415 6.00000000
-41.637623 63.328533 -15.668160 6.00000000
-42.411636 62.673321 -56.204514 6.00000000
-42.337185 62.736347 1.165906 6.00000000
-42.153675 62.891689 -44.449844 6.00000000
-39.409367 65.148766 -1.436492 6.00000000
-42.058872 62.971939 -13.589377 6.00000000
-34.598644 68.600410 -29.673994 6.00000000
-46.142788 59.231781 -9.839776 6.00000000
-40.758602 64.072639 -60.534561 6.00000000
-39.037891 65.429817 -5.854218 6.00000000
-45.716476 59.634750 -11.820663 6.00000000
-35.646912 67.894073 -43.778545 6.00000000
-37.085316 66.907097 -33.998203 6.00000000
-33.506351 69.336411 -24.026913 6.00000000
-40.756176 64.074692 -52.493313 6.00000000
-38.858006 65.565910 -55.385712 6.00000000
-33.576557 69.289101 -59.769203 6.00000000
-37.568542 66.541496 -27.899548 6.00000000
-34.532207 68.645180 -4.066481 6.00000000
-35.773647 67.808685 -21.757633 6.00000000
-37.213768 66.809914 -5.182047 6.00000000
-34.268944 68.822563 1.261672 6.00000000
-39.814098 64.842552 -60.089165 6.00000000
-45.454517 59.882366 -3.051212 6.00000000
-35.042271 68.301491 -33.960567 6.00000000
-39.900795 64.776962 -59.046387 6.00000000
-40.490707 64.299408 -35.580181 6.00000000
-35.689182 67.865593 -5.567786 6.00000000
-39.947327 64.741753 -15.390815 6.00000000
-42.338860 62.734928 -16.326302 6.00000000
-34.662922 68.557098 -36.798199 6.00000000
-43.527447 61.703926 -56.995396 6.00000000
-34.344997 68.771317 -39.629349 6.00000000
-35.967403 67.678123 2.936380 6.00000000
-35.740742 67.830856 -48.497662 6.00000000
-42.423985 62.662868 -60.648739 6.00000000
-33.671188 69.225342 -58.786716 6.00000000
-44.475670 60.807621 -27.494131 6.00000000
-37.372887 66.689529 -3.421435 6.00000000
-44.261639 61.009933 -31.622122 6.00000000
-36.100952 67.588135 -52.611786 6.00000000
-45.469543 59.868164 -35.275429 6.00000000
-34.883926 68.408180 -22.982851 6.00000000
-36.434269 67.363548 -36.924965 6.00000000
-40.737434 64.090553 -12.452071 6.00000000
-44.255100 61.016113 -29.078608 6.00000000
-37.469654 66.616310 -10.431591 6.00000000
-33.506123 69.336563 -27.339642 6.00000000
-33.728779 69.186539 -4.408116 6.00000000
-39.846970 64.817680 -17.242945 6.00000000
-44.372364 60.905270 -38.921558 6.00000000
-43.826363 61.421375 -46.674633 6.00000000
-37.152802 66.856033 -16.925999 6.00000000
-39.587803 65.013763 -38.727962 6.00000000
-38.986900 65.468391 -46.968533 6.00000000
-34.385468 68.744049 -49.505058 6.00000000
-46.208683 59.169495 -43.313702 6.00000000
-40.854813 63.991192 -44.434116 6.00000000
-36.824532 67.100586 -19.433586 6.00000000
-40.709389 64.114296 -6.853180 6.00000000
-38.243561 66.030792 -52.180759 6.00000000
-34.396942 68.736320 -53.430180 6.00000000
-41.644451 63.322754 3.838862 6.00000000
-40.314400 64.448662 -1.338049 6.00000000
-42.648205 62.473064 -49.466743 6.00000000
-44.652199 60.640755 -42.048759 6.00000000
-43.024845 62.154236 -24.946405 6.00000000
-36.570175 67.271973 -30.308798 6.00000000
-36.471794 67.338264 -5.804916 6.00000000
-34.443233 68.705124 -26.733229 6.00000000
-37.173126 66.840660 -43.626068 6.00000000
-37.569889 66.540482 -61.018810 6.00000000
-43.460857 61.766869 -37.971996 6.00000000
-33.684792 69.216171 -47.848877 6.00000000
-40.742596 64.086182 -23.737795 6.00000000
-41.692379 63.282181 -51.953243 6.00000000
-41.728497 63.251610 -11.858687 6.00000000
-46.168941 59.207062 -58.780792 6.00000000
-43.011700 62.165359 -17.293262 6.00000000
-42.116974 62.922756 -40.165695 6.00000000
-44.831078 60.471668 -12.514762 6.00000000
-41.599743 63.360600 -57.602543 6.00000000
-34.829933 68.444565 -0.720307 6.00000000
-45.266136 60.060436 -18.148081 6.00000000
-44.455242 60.826927 -0.738329 6.00000000
-39.209560 65.299934 -8.655396 6.00000000
-38.577827 65.777893 -19.134445 6.00000000
-35.608036 67.920273 1.364770 6.00000000
-40.631821 64.179962 -54.635647 6.00000000
-46.204201 59.173733 -37.642078 6.00000000
-42.560879 62.546986 -47.886871 6.00000000
-41.833202 63.162971 -17.532017 6.00000000
-44.210716 61.058067 2.942401 6.00000000
-36.770611 67.136917 -47.199551 6.00000000
-40.505680 64.286736 -58.722275 6.00000000
-34.988865 68.337479 -44.295345 6.00000000
-44.578438 60.710480 -20.505793 6.00000000
-38.804836 65.606140 -15.414096 6.00000000
-45.816753 59.539967 -15.257780 6.00000000
-38.958675 65.489746 -16.590549 6.00000000
-35.467762 68.014793 -33.184975 6.00000000
-38.913654 65.523811 -25.812712 6.00000000
-39.043304 65.425720 -13.294318 6.00000000
-44.541061 60.745808 -4.580613 6.00000000
-43.212421 61.995449 -10.907588 6.00000000
-43.645607 61.592232 -17.661592 6.00000000
-35.708271 67.852730 -19.461632 6.00000000
-36.894863 67.051193 -55.948029 6.00000000
-40.711136 64.112816 -14.580354 6.00000000
-36.677612 67.199577 -10.551721 6.00000000
-35.265198 68.151283 -4.894842 6.00000000
-44.458809 60.823559 -47.704529 6.00000000
-36.488010 67.327339 -15.334269 6.00000000
-46.145355 59.229355 -3.797293 6.00000000
-36.518356 67.306892 -51.938789 6.00000000
-40.087013 64.636070 -11.826982 6.00000000
-36.272243 67.472725 -27.009645 6.00000000
-43.563057 61.670261 -12.864053 6.00000000
-41.835918 63.160675 -2.315860 6.00000000
-44.965210 60.344883 -23.476200 6.00000000
-43.117622 62.075699 -36.262291 6.00000000
-42.461685 62.630955 -12.875454 6.00000000
-43.249763 61.963837 -9.875542 6.00000000
-36.050076 67.622421 -56.156353 6.00000000
-41.157730 63.734768 -59.517006 6.00000000
-40.417740 64.361176 -36.380928 6.00000000
-39.242188 65.275253 -26.648825 6.00000000
-41.040928 63.833641 -32.017185 6.00000000
-38.700306 65.685226 -39.592567 6.00000000
-33.524902 69.323906 -55.303661 6.00000000
-43.218357 61.990421 -50.801426 6.00000000
-33.510807 69.333405 -52.901192 6.00000000
-44.969231 60.341084 -10.537847 6.00000000
-38.567314 65.785843 -45.225960 6.00000000
-39.710510 64.920921 -56.499008 6.00000000
-41.121616 63.765339 -0.396243 6.00000000
-37.602497 66.515808 -56.865112 6.00000000
-38.285282 65.999222 -60.082924 6.00000000
-43.023495 62.155376 -13.428479 6.00000000
-41.267811 63.641586 -49.104897 6.00000000
-42.823189 62.324940 -55.498505 6.00000000
-35.546944 67.961441 -0.410793 6.00000000
-46.114628 59.258400 2.235645 6.00000000
-42.857052 62.296272 -0.909939 6.00000000
-37.460884 66.622948 -35.530258 6.00000000
-41.371414 63.553883 -35.129055 6.00000000
-37.651276 66.478905 -12.573622 6.00000000
-41.948341 63.065506 -11.014129 6.00000000
-39.674381 64.948257 -41.826759 6.00000000
-38.025379 66.195862 -18.057470 6.00000000
-35.124424 68.246132 -23.910566 6.00000000
-43.117142 62.076103 -42.143970 6.00000000
-46.230621 59.148758 -12.458028 6.00000000
-46.189297 59.187820 -25.992876 6.00000000
-43.352577 61.869221 -42.922558 6.00000000
-36.663761 67.208916 -39.922501 6.00000000
-35.502476 67.991402 -29.566771 6.00000000
-45.083546 60.233028 -13.481963 6.00000000
-36.265137 67.477509 -23.981102 6.00000000
-45.615910 59.729813 -39.412380 6.00000000
-33.905846 69.067223 -16.551479 6.00000000
-41.782860 63.205589 -59.220798 6.00000000
-40.379730 64.393356 -29.202129 6.00000000
-35.697941 67.859695 -2.573346 6.00000000
-45.452740 59.884048 -12.723536 6.00000000
-39.479736 65.095520 -31.985809 6.00000000
-34.882393 68.409218 -45.749447 6.00000000
-41.884907 63.119205 -48.027298 6.00000000
-44.827042 60.475487 -2.965488 6.00000000
-34.744476 68.502144 -32.015305 6.00000000
-42.405655 62.678387 -11.736868 6.00000000
-44.198223 61.069874 -57.498665 6.00000000
-40.042259 64.669930 -39.409367 6.00000000
-40.296879 64.463486 2.631479 6.00000000
-39.234940 65.280731 -54.642544 6.00000000
-34.599812 68.599625 -57.670437 6.00000000
-39.663441 64.956535 -36.688538 6.00000000
-42.259098 62.802448 -45.744514 6.00000000
-39.815536 64.841461 -37.722172 6.00000000
-39.634132 64.978706 -35.754974 6.00000000
-34.628578 68.580238 -33.076645 6.00000000
-37.732754 66.417259 -48.444710 6.00000000
-34.945396 68.366760 -34.750648 6.00000000
-41.057159 63.819904 -10.341515 6.00000000
-38.084515 66.151123 -41.299820 6.00000000
-38.392609 65.918022 -26.702450 6.00000000
-34.852520 68.429344 -15.477048 6.00000000
-41.947247 63.066433 -48.946075 6.00000000
-43.776264 61.468731 -25.692629 6.00000000
-44.379822 60.898220 -23.191301 6.00000000
-42.327282 62.744732 -52.704586 6.00000000
-43.581360 61.652962 -13.907784 6.00000000
-33.620087 69.259773 -15.454027 6.00000000
-34.801960 68.463409 -47.979317 6.00000000
-44.835754 60.467251 -17.569170 6.00000000
-44.722507 60.574295 -14.482953 6.00000000
-46.162804 59.212864 -8.736438 6.00000000
-43.933811 61.319809 -26.786558 6.00000000
-33.609192 69.267113 -22.815750 6.00000000
-42.580276 62.530567 -22.503986 6.00000000
-46.023354 59.344677 -60.974220 6.00000000
-41.213036 63.687954 -30.045897 6.00000000
-41.095467 63.787476 -47.286053 6.00000000
-38.579369 65.776726 -34.266968 6.00000000
-41.940308 63.072308 -4.184485 6.00000000
-36.229366 67.501610 -32.876743 6.00000000
-39.690487 64.936073 -7.874663 6.00000000
-42.973167 62.197979 -28.357534 6.00000000
-39.279129 65.247299 -20.188665 6.00000000
-45.284199 60.043362 -59.049767 6.00000000
-34.201923 68.867722 -52.373840 6.00000000
-37.310303 66.736877 3.598363 6.00000000
-45.786758 59.568317 3.231617 6.00000000
-44.181320 61.085854 -42.547768 6.00000000
-42.738258 62.396832 -38.242138 6.00000000
-43.110893 62.081390 -21.635521 6.00000000
-38.671429 65.707069 -22.120998 6.00000000
-38.703686 65.682671 -17.992311 6.00000000
-40.919777 63.936199 -56.966076 6.00000000
-40.251740 64.501701 -20.238228 6.00000000
-37.526409 66.573372 -22.702272 6.00000000
-34.321125 68.787407 -38.729755 6.00000000
-35.545654 67.962303 -57.390984 6.00000000
-33.516945 69.329269 -5.979900 6.00000000
-45.374466 59.958035 -4.476615 6.00000000
-46.243004 59.137054 -39.417530 6.00000000
-45.339245 59.991329 -22.346909 6.00000000
-37.322151 66.727913 -11.859811 6.00000000
-45.582607 59.761288 -28.294586 6.00000000
-43.138073 62.058384 -31.132635 6.00000000
-36.069447 67.609367 -9.183431 6.00000000
-41.376637 63.549461 -50.174072 6.00000000
-37.135067 66.869453 -13.672064 6.00000000
-41.585632 63.372543 -31.286268 6.00000000
-40.183445 64.559509 -40.976952 6.00000000
-40.430794 64.350128 -48.594353 6.00000000
-45.131222 60.187962 -55.707458 6.00000000
-46.149796 59.225159 -0.702513 6.00000000
-46.160133 59.215385 -33.331512 6.00000000
-39.445393 65.121506 1.650383 6.00000000
-37.577278 66.534889 -15.070764 6.00000000
-38.148499 66.102715 -13.214690 6.00000000
-43.951420 61.303165 -4.395994 6.00000000
-34.051357 68.969177 -30.498528 6.00000000
-45.342308 59.988434 -38.389557 6.00000000
-33.603352 69.271049 -25.192686 6.00000000
-36.451000 67.352272 -60.978775 6.00000000
-46.089870 59.281799 -52.874092 6.00000000
-39.880424 64.792374 -21.198505 6.00000000
-46.041847 59.327194 -13.449549 6.00000000
-40.411926 64.366104 -59.566418 6.00000000
-37.510452 66.585449 -31.959801 6.00000000
-40.757214 64.073807 -50.609352 6.00000000
-38.115288 66.127838 -39.914322 6.00000000
-36.644341 67.222000 -28.642078 6.00000000
-45.754005 59.599277 -52.139969 6.00000000
-36.015633 67.645630 -46.629002 6.00000000
-44.636791 60.655319 -26.402433 6.00000000
-43.204018 62.002560 -58.984791 6.00000000
-37.707539 66.436333 -33.048958 6.00000000
-44.783169 60.516956 -37.388519 6.00000000
-37.088200 66.904915 -17.866856 6.00000000
-45.299957 60.028465 -36.520576 6.00000000
-44.899429 60.407063 -48.472015 6.00000000
-38.849941 65.572014 -3.836598 6.00000000
-36.246265 67.490227 -18.125204 6.00000000
-36.135201 67.565063 -33.977894 6.00000000
-34.847599 68.432663 -60.961460 6.00000000
-37.910225 66.282990 -7.105930 6.00000000
-34.469624 68.687347 -5.062304 6.00000000
-43.690022 61.550251 -2.429248 6.00000000
-40.796486 64.040565 -4.300173 6.00000000
-42.080940 62.953259 -54.921700 6.00000000
-44.250057 61.020882 -29.887802 6.00000000
-38.873531 65.554169 -36.115150 6.00000000
-36.962112 67.000313 -12.869706 6.00000000
-39.192078 65.313164 -9.996796 6.00000000
-40.590199 64.215195 -39.923676 6.00000000
-43.988960 61.267681 0.720361 6.00000000
-39.528160 65.058891 -34.127670 6.00000000
-44.440018 60.841324 -40.094143 6.00000000
-45.203369 60.119766 -34.399754 6.00000000
-43.898163 61.353504 -43.464123 6.00000000
-34.294540 68.805321 -10.268551 6.00000000
-41.361416 63.562347 -23.024361 6.00000000
-43.258587 61.956371 -57.892567 6.00000000
-40.301208 64.459824 -5.445563 6.00000000
-36.360493 67.413261 -43.143913 6.00000000
-40.921162 63.935028 -5.273497 6.00000000
-42.367371 62.710793 -24.652224 6.00000000
-39.859360 64.808311 -55.101261 6.00000000
-45.911366 59.450535 -38.626698 6.00000000
-40.078369 64.642609 -14.186566 6.00000000
-37.336777 66.716843 -59.067200 6.00000000
-41.440205 63.495651 -13.972269 6.00000000
-43.460236 61.767456 -20.036127 6.00000000
-43.840244 61.408253 -60.459862 6.00000000
-42.240437 62.818245 -18.685452 6.00000000
-40.096058 64.629227 -22.215637 6.00000000
-37.645481 66.483284 -59.858082 6.00000000
-44.894909 60.411335 -28.654125 6.00000000
-42.293480 62.773342 -21.671518 6.00000000
-43.484993 61.744053 -5.402267 6.00000000
-41.297577 63.616386 -3.201129 6.00000000
-37.598457 66.518867 -2.056948 6.00000000
-35.096313 68.265076 -37.585621 6.00000000
-44.294956 60.978439 -5.567839 6.00000000
-33.885674 69.080818 -37.931023 6.00000000
-36.939453 67.017448 -36.053688 6.00000000
-35.145370 68.232018 -56.010704 6.00000000
-39.591713 65.010803 -12.344488 6.00000000
-42.185768 62.864521 -53.973812 6.00000000
-45.435001 59.900814 -33.387005 6.00000000
-45.828648 59.528725 -18.842484 6.00000000
-35.893440 67.727959 -22.762249 6.00000000
-34.757725 68.493217 -43.088257 6.00000000
-44.833035 60.469822 -29.797262 6.00000000
-37.575256 66.536415 -8.102122 6.00000000
-46.225014 59.154060 -46.269035 6.00000000
-41.737961 63.243595 -60.149963 6.00000000
-38.282066 66.001656 -32.033337 6.00000000
-40.310596 64.451874 -34.075260 6.00000000
-34.058159 68.964592 -6.887667 6.00000000
-34.155094 68.899277 -56.941875 6.00000000
-40.707321 64.116043 -11.456933 6.00000000
-36.041801 67.627998 -14.565586 6.00000000
-44.405365 60.874077 -50.331429 6.00000000
-42.338039 62.735622 -37.588760 6.00000000
-46.109905 59.262863 -4.730258 6.00000000
-39.327686 65.210564 -18.978018 6.00000000
-43.395237 61.828896 -32.817123 6.00000000
-39.779057 64.869064 -42.936031 6.00000000
-40.916328 63.939117 -20.970861 6.00000000
-38.511322 65.828209 -24.832937 6.00000000
-44.650345 60.642509 3.599440 6.00000000
-43.343597 61.877708 -54.855488 6.00000000
-35.203632 68.192764 -27.124769 6.00000000
-43.847027 61.401840 -21.773621 6.00000000
-36.947121 67.011650 -1.563879 6.00000000
-44.938442 60.370186 -49.793018 6.00000000
-40.274387 64.482529 -25.903654 6.00000000
-35.851711 67.756081 -42.452129 6.00000000
-38.422398 65.895485 -44.438869 6.00000000
-39.371593 65.177345 -45.360786 6.00000000
-43.300308 61.918629 -53.925003 6.00000000
-46.024815 59.343296 0.761242 6.00000000
-43.466038 61.761974 -6.252298 6.00000000
-46.218620 59.160099 -27.817165 6.00000000
-45.386448 59.946712 -61.012306 6.00000000
-38.870152 65.556725 -56.300762 6.00000000
-43.495613 61.734013 -29.574820 6.00000000
-46.223480 59.155510 -17.612722 6.00000000
-38.945999 65.499336 -30.043776 6.00000000
-39.024704 65.439789 -42.945320 6.00000000
-34.365196 68.757713 -50.443104 6.00000000
-35.531796 67.971642 -45.352680 6.00000000
-36.785141 67.127129 -9.623017 6.00000000
-43.640640 61.596928 -35.663101 6.00000000
-45.554562 59.787800 -48.380589 6.00000000
-41.895458 63.110271 -28.706093 6.00000000
-44.900326 60.406216 -41.249100 6.00000000
-36.553596 67.283142 1.675828 6.00000000
-42.398918 62.684086 -25.820627 6.00000000
-46.211639 59.166698 -6.075173 6.00000000
-37.442753 66.636665 -15.901748 6.00000000
-38.979465 65.474022 -37.184242 6.00000000
-44.978809 60.332027 -9.637520 6.00000000
-37.381580 66.682945 -45.849396 6.00000000
-36.359516 67.413918 -8.436080 6.00000000
-43.790207 61.455551 -9.302476 6.00000000
-37.921848 66.274193 -38.676666 6.00000000
-38.086296 66.149773 -31.144707 6.00000000
-43.364136 61.858295 -22.411287 6.00000000
-34.445190 68.703812 -24.353640 6.00000000
-44.005661 61.251896 -55.987923 6.00000000
-39.962231 64.730476 -3.160936 6.00000000
-36.648373 67.219284 -11.807045 6.00000000
-43.996990 61.260090 -28.103455 6.00000000
-36.962242 67.000214 -49.218319 6.00000000
-40.932186 63.925694 -27.301378 6.00000000
-39.338898 65.202080 -23.937914 6.00000000
-38.039726 66.185005 -56.290924 6.00000000
-39.259079 65.262466 3.747143 6.00000000
-43.850353 61.398701 -50.748112 6.00000000
-41.164284 63.729221 -26.521250 6.00000000
-37.099510 66.896355 -29.318430 6.00000000
-37.704865 66.438354 -6.152505 6.00000000
-35.845852 67.760033 -26.305756 6.00000000
-33.762596 69.163750 -2.608954 6.00000000
-34.516090 68.656036 -19.041719 6.00000000
-44.813206 60.488564 -57.245815 6.00000000
-45.310074 60.018902 -14.571775 6.00000000
-34.324635 68.785042 -34.061031 6.00000000
-38.576622 65.778801 -46.274681 6.00000000
-45.991547 59.374741 -27.051550 6.00000000
-33.477242 69.356026 -43.315193 6.00000000
-39.595779 65.007729 2.858158 6.00000000
-33.590633 69.279617 -50.738312 6.00000000
-37.260242 66.774750 -4.247575 6.00000000
-45.654789 59.693062 1.369613 6.00000000
-39.952213 64.738060 -9.807522 6.00000000
-35.348347 68.095253 -8.457895 6.00000000
-36.981651 66.985527 2.451215 6.00000000
-43.043343 62.138573 -20.847750 6.00000000
-38.530697 65.813545 -33.071503 6.00000000
-42.683319 62.443340 -30.179838 6.00000000
-35.093815 68.266762 -20.545994 6.00000000
-42.353149 62.722832 -41.238441 6.00000000
-40.498753 64.292603 -56.207859 6.00000000
-33.839653 69.111824 -48.778896 6.00000000
-45.461067 59.876175 -5.397082 6.00000000
-46.198853 59.178787 -51.320286 6.00000000
-33.551151 69.306221 -20.737188 6.00000000
-38.950733 65.495758 -52.244663 6.00000000
-45.977398 59.388119 -34.388985 6.00000000
-37.865551 66.316788 -29.302780 6.00000000
-38.609943 65.753593 -1.545001 6.00000000
-40.540634 64.257149 -30.133408 6.00000000
-41.712006 63.265568 -25.211117 6.00000000
-43.693764 61.546715 -11.477930 6.00000000
-42.892506 62.266262 -51.687454 6.00000000
-42.814869 62.331982 1.770194 6.00000000
-44.902309 60.404339 -11.588834 6.00000000
-36.016541 67.645020 -41.534985 6.00000000
-38.824738 65.591080 -21.320316 6.00000000
-45.140289 60.179390 -40.028160 6.00000000
-39.083946 65.394974 -49.238239 6.00000000
-38.115341 66.127800 -55.393559 6.00000000
-42.183308 62.866608 -39.016548 6.00000000
-36.361816 67.412369 -58.297939 6.00000000
-38.734692 65.659210 -50.386223 6.00000000
-39.474113 65.099777 0.379017 6.00000000
-45.601448 59.743481 -53.351154 6.00000000
-37.774834 66.385422 -20.771132 6.00000000
-37.544277 66.559853 -19.018448 6.00000000
-40.287357 64.471550 -51.263046 6.00000000
-33.554314 69.304092 -40.969296 6.00000000
-34.217033 68.857544 -44.645195 6.00000000
-38.679707 65.700813 0.320093 6.00000000
-39.492104 65.086166 -27.482960 6.00000000
-40.362041 64.408325 -32.465206 6.00000000
-38.301636 65.986855 -53.586975 6.00000000
-44.184399 61.082943 -36.143742 6.00000000
-38.902599 65.532173 -43.814453 6.00000000
-44.656586 60.636608 -19.331936 6.00000000
-40.114582 64.615211 -24.441469 6.00000000
-35.711445 67.850594 3.810241 6.00000000
-34.925720 68.380020 -7.672749 6.00000000
-41.142437 63.747715 1.377397 6.00000000
-33.483154 69.352036 -19.878965 6.00000000
-33.835312 69.114754 -36.904785 6.00000000
-35.684307 67.868881 -60.657150 6.00000000
-40.315716 64.447548 -41.808861 6.00000000
-34.548985 68.633873 -41.561096 6.00000000
-46.171871 59.204288 -35.771210 6.00000000
-46.066990 59.303429 -49.965061 6.00000000
-39.815189 64.841728 -25.236984 6.00000000
-36.049351 67.622910 -44.694084 6.00000000
-35.281254 68.140465 -41.722572 6.00000000
-39.111561 65.374077 -48.135670 6.00000000
-33.580482 69.286453 -3.381634 6.00000000
-43.695686 61.544899 -51.551739 6.00000000
-41.373894 63.551781 -39.682770 6.00000000
-40.641434 64.171822 0.528943 6.00000000
-41.414448 63.517456 -8.846645 6.00000000
-45.190323 60.132099 -27.578583 6.00000000
-40.994144 63.873245 -1.273410 6.00000000
-44.628265 60.663380 -58.222237 6.00000000
-42.179062 62.870197 -20.873636 6.00000000
-40.707855 64.115593 -22.438137 6.00000000
-41.376629 63.549469 -42.339775 6.00000000
-43.849674 61.399342 -53.432987 6.00000000
-33.639652 69.246590 -49.560295 6.00000000
-42.686420 62.440716 -46.635288 6.00000000
-43.528965 61.702492 -1.356585 6.00000000
-42.742435 62.393295 -8.771331 6.00000000
-38.352776 65.948158 -20.137751 6.00000000
-43.599960 61.635380 -52.390755 6.00000000
-34.960121 68.356842 -21.528929 6.00000000
-38.959164 65.489380 -11.594897 6.00000000
-35.174988 68.212067 -10.542410 6.00000000
-37.824013 66.348213 0.682826 6.00000000
-33.486137 69.350029 -39.060040 6.00000000
-45.545074 59.796768 -10.976093 6.00000000
-35.662735 67.883415 -11.202464 6.00000000
-40.853607 63.992214 3.786193 6.00000000
-37.316078 66.732506 -51.632614 6.00000000
-42.884697 62.272869 -40.556580 6.00000000
-34.427914 68.715454 -1.432411 6.00000000
-36.873421 67.067413 -24.323492 6.00000000
-41.408447 63.522533 2.920115 6.00000000
-36.183338 67.532623 -57.148987 6.00000000
-38.062389 66.167862 -2.765478 6.00000000
-44.760479 60.538406 -56.330582 6.00000000
-33.828979 69.119019 -13.703242 6.00000000
-42.719879 62.412392 -54.424442 6.00000000
-42.661007 62.462227 -33.093826 6.00000000
-44.480087 60.803444 -2.292879 6.00000000
-44.814960 60.486908 -35.986427 6.00000000
-37.098434 66.897171 -20.364126 6.00000000
-40.899162 63.953648 -18.036142 6.00000000
-43.409046 61.815842 -14.912400 6.00000000
-40.866943 63.980923 -55.514359 6.00000000
-39.841221 64.822029 -6.954249 6.00000000
-45.548534 59.793499 -46.543011 6.00000000
-39.873463 64.797638 -47.241764 6.00000000
-37.495003 66.597137 -54.934128 6.00000000
-35.391926 68.065887 -32.261036 6.00000000
-34.390064 68.740952 -25.225777 6.00000000
-44.431816 60.849072 -13.466342 6.00000000
-43.473083 61.755314 -44.062420 6.00000000
-34.199512 68.869347 -35.320660 6.00000000
-35.454205 68.023926 -47.760990 6.00000000
-46.173096 59.203133 -53.911057 6.00000000
-36.308041 67.448601 -39.004768 6.00000000
-41.808167 63.184166 -51.015762 6.00000000
-35.818810 67.778252 -40.309017 6.00000000
-37.009827 66.964211 -22.040863 6.00000000
-39.870956 64.799530 -53.308727 6.00000000
-42.936867 62.228710 -12.202719 6.00000000
-41.807011 63.185146 -26.577583 6.00000000
-36.316624 67.442818 0.558653 6.00000000
-40.813530 64.026138 -34.688900 6.00000000
-42.651390 62.470367 -23.863400 6.00000000
-45.610348 59.735069 -44.477707 6.00000000
-36.213108 67.512566 -35.630947 6.00000000
-42.111153 62.927685 0.313852 6.00000000
-42.227497 62.829201 -27.675749 6.00000000
-41.415119 63.516884 -34.196342 6.00000000
-42.579117 62.531548 -26.621098 6.00000000
-33.578594 69.287727 -41.950684 6.00000000
-33.934055 69.048218 -17.797388 6.00000000
-42.008724 63.014389 -33.869019 6.00000000
-40.397331 64.378456 -57.935772 6.00000000
-45.919159 59.443169 -24.694118 6.00000000
-45.553745 59.788574 -40.779465 6.00000000
-36.049351 67.622910 -29.054066 6.00000000
-43.030396 62.149532 -56.364662 6.00000000
-42.017815 63.006695 -3.352875 6.00000000
-40.783867 64.051247 -13.581761 6.00000000
-40.160664 64.578796 -26.850029 6.00000000
-34.961845 68.355682 -52.278564 6.00000000
-34.827957 68.445892 -48.783386 6.00000000
-35.006245 68.325768 -18.315828 6.00000000
-34.473385 68.684807 -2.846806 6.00000000
-36.109028 67.582703 -7.596891 6.00000000
-38.972790 65.479073 -14.568388 6.00000000
-34.920895 68.383278 3.309898 6.00000000
-42.872898 62.282856 -57.210995 6.00000000
-33.532936 69.318497 -36.075878 6.00000000
-37.689232 66.450188 -40.600975 6.00000000
-43.483242 61.745708 1.261735 6.00000000
-38.112400 66.130028 -30.251347 6.00000000
-34.999943 68.330009 -2.218106 6.00000000
-38.758106 65.641495 -9.390152 6.00000000
-38.476963 65.854202 -58.988380 6.00000000
-39.575497 65.023071 -60.853043 6.00000000
-36.168465 67.542648 -54.286690 6.00000000
-46.085846 59.285606 -2.300151 6.00000000
-37.955704 66.248581 -25.368517 6.00000000
-45.365967 59.966072 -59.951618 6.00000000
-41.623161 63.340775 -56.534515 6.00000000
-42.079872 62.954163 -8.539436 6.00000000
-45.682011 59.667328 -49.249390 6.00000000
-43.008163 62.168354 -16.124666 6.00000000
-33.532337 69.318901 0.669820 6.00000000
-38.127731 66.118423 -14.477048 6.00000000
-44.657967 60.635307 0.334639 6.00000000
-41.971100 63.046242 -23.863365 6.00000000
-43.820457 61.426956 -58.366619 6.00000000
-39.856396 64.810555 -4.738105 6.00000000
-45.377941 59.954750 -29.405247 6.00000000
-46.164833 59.210945 -57.122215 6.00000000
-46.023914 59.344147 -41.433990 6.00000000
-36.220497 67.507591 -47.755539 6.00000000
-33.645493 69.242653 -39.989487 6.00000000
-34.292835 68.806465 -28.857840 6.00000000
-34.987148 68.338631 -26.199896 6.00000000
-35.297977 68.129189 -14.565916 6.00000000
-39.277374 65.248627 -24.803232 6.00000000
-45.581448 59.762386 -9.606645 6.00000000
-36.788658 67.124756 -45.232258 6.00000000
-39.833069 64.828201 -18.153147 6.00000000
-43.940102 61.313862 -20.705269 6.00000000
-41.970936 63.046383 -41.946274 6.00000000
-38.982101 65.472023 -41.996025 6.00000000
-46.157589 59.217793 -48.177765 6.00000000
-39.272243 65.252510 -53.656719 6.00000000
-34.641304 68.571663 -8.504591 6.00000000
-41.992905 63.027782 -6.596377 6.00000000
-35.944038 67.693871 -59.759628 6.00000000
-42.358326 62.718452 -1.428950 6.00000000
-46.221836 59.157063 -7.765207 6.00000000
-41.970184 63.047016 -32.860897 6.00000000
-45.662346 59.685917 -16.554008 6.00000000
-36.769199 67.137871 -31.805450 6.00000000
-37.274189 66.764198 -25.597311 6.00000000
-45.375961 59.956623 -47.405617 6.00000000
-42.229580 62.827435 -35.607670 6.00000000
-43.156738 62.042583 -4.623652 6.00000000
-36.841309 67.089279 -46.277122 6.00000000
-43.954987 61.299793 -33.782585 6.00000000
-42.092854 62.943176 -34.737415 6.00000000
-37.286888 66.754593 -53.586338 6.00000000
-45.260639 60.065632 2.225104 6.00000000
-38.975002 65.477394 -30.975286 6.00000000
-43.765823 61.478600 -10.498991 6.00000000
-45.222710 60.101482 -45.136646 6.00000000
-41.759777 63.225128 -38.333981 6.00000000
-40.607430 64.200607 -33.333572 6.00000000
-45.707169 59.643551 -45.699944 6.00000000
-45.500679 59.838734 -50.550694 6.00000000
-41.406082 63.524536 -45.094910 6.00000000
-42.767754 62.371864 -45.151527 6.00000000
-45.801205 59.554665 -55.574749 6.00000000
-43.644081 61.593674 -31.838507 6.00000000
-33.971729 69.022835 -7.745003 6.00000000
-33.483536 69.351784 -26.346706 6.00000000
-39.943439 64.744698 -2.174184 6.00000000
-44.647701 60.645004 -21.392811 6.00000000
-45.046959 60.267612 -42.771618 6.00000000
-39.514969 65.068871 -50.620262 6.00000000
-35.571045 67.945198 -30.633265 6.00000000
-41.249954 63.656700 -17.252201 6.00000000
-36.660378 67.211197 -22.705385 6.00000000
-44.046028 61.213737 -18.426250 6.00000000
-33.666409 69.228561 -21.516495 6.00000000
-39.634090 64.978745 -43.710423 6.00000000
-41.199886 63.699081 -51.207047 6.00000000
-44.870625 60.434292 -54.888660 6.00000000
-44.433056 60.847900 -53.465321 6.00000000
-42.619987 62.496948 -42.983799 6.00000000
-40.499744 64.291763 -46.899788 6.00000000
-45.333912 59.996368 -56.891003 6.00000000
-42.987488 62.185856 -37.429550 6.00000000
-36.468861 67.340240 -3.132821 6.00000000
-36.490685 67.325539 -4.837662 6.00000000
-43.426888 61.798977 -47.296368 6.00000000
-40.007214 64.696449 -8.936607 6.00000000
-43.056046 62.127823 -60.811607 6.00000000
-33.908978 69.065117 2.619743 6.00000000
-45.425091 59.910183 -37.336975 6.00000000
-34.467270 68.688934 -55.635098 6.00000000
-33.869751 69.091545 -11.291371 6.00000000
-38.664192 65.712547 -57.230492 6.00000000
-38.954552 65.492867 -58.292210 6.00000000
-36.884106 67.059326 -2.367840 6.00000000
-40.359581 64.410416 -31.296286 6.00000000
-35.286552 68.136894 -39.313190 6.00000000
-34.605915 68.595512 -12.328355 6.00000000
-46.178047 59.198456 -32.266674 6.00000000
-40.376141 64.396393 -27.945265 6.00000000
-46.161469 59.214127 -11.033043 6.00000000
-44.652390 60.640575 -45.445000 6.00000000
-34.278481 68.816139 -46.309032 6.00000000
-38.913113 65.524223 -0.702931 6.00000000
-45.999596 59.367134 -42.278988 6.00000000
-43.669174 61.569954 -24.562731 6.00000000
-38.927006 65.513710 -60.078220 6.00000000
-44.657379 60.635860 -30.735420 6.00000000
-38.878410 65.550476 -23.129234 6.00000000
-36.219597 67.508194 -3.920518 6.00000000
-33.527328 69.322273 -1.325019 6.00000000
-33.614281 69.263687 -29.540953 6.00000000
-46.193768 59.183594 -22.736721 6.00000000
-36.647556 67.219833 -41.053196 6.00000000
-35.301998 68.126488 -11.924809 6.00000000
-42.174129 62.874374 -0.671192 6.00000000
-37.850037 66.328522 -23.415081 6.00000000
-37.033325 66.946426 0.854549 6.00000000
-35.128799 68.243187 -13.684203 6.00000000
-42.447674 62.642815 -59.748768 6.00000000
-36.478405 67.333809 -26.003349 6.00000000
-37.996197 66.217941 -43.241734 6.00000000
-37.939770 66.260635 2.489620 6.00000000
-35.041710 68.301872 -47.031292 6.00000000
-36.319851 67.440643 -25.061373 6.00000000
-41.672428 63.299068 -19.493353 6.00000000
-43.697289 61.543385 -38.757595 6.00000000
-42.578606 62.531982 -10.731511 6.00000000
-40.005054 64.698074 -35.029675 6.00000000
-36.542187 67.290833 -53.358459 6.00000000
-42.157909 62.888103 3.315286 6.00000000
-34.474140 68.684303 -20.059214 6.00000000
-42.503822 62.595284 -30.949162 6.00000000
-33.897308 69.072975 -0.608351 6.00000000
-42.692165 62.435848 -34.113445 6.00000000
-37.973988 66.234741 -34.774475 6.00000000
-33.504013 69.337982 -44.333946 6.00000000
-33.516090 69.329842 -57.428181 6.00000000
-34.056484 68.965721 3.666694 6.00000000
-38.080124 66.154442 -28.498991 6.00000000
-41.371166 63.554092 -14.828764 6.00000000
