5.639958 -22.073301 -35.500763 24.00000000
10.746113 -21.752483 -46.875015 24.00000000
10.815269 -21.748138 -18.711561 24.00000000
10.029634 -21.797501 -1.671308 24.00000000
9.255338 -21.846148 -39.483288 24.00000000
9.549049 -21.827696 -42.063236 24.00000000
5.986828 -22.051508 -26.910915 24.00000000
6.451618 -22.022305 -48.656452 24.00000000
10.127459 -21.791353 -30.460608 24.00000000
11.639150 -21.696375 -33.978374 24.00000000
8.774030 -21.876389 -18.847643 24.00000000
6.182615 -22.039207 -19.927299 24.00000000
10.541878 -21.765314 -16.831779 24.00000000
8.497989 -21.893732 -30.823231 24.00000000
11.123464 -21.728775 -17.150795 24.00000000
9.767755 -21.813953 -12.449269 24.00000000
7.865060 -21.933498 -54.928787 24.00000000
5.067028 -22.109299 0.555315 24.00000000
7.683284 -21.944920 -29.858126 24.00000000
11.590693 -21.699419 -54.958263 24.00000000
10.403177 -21.774031 2.012180 24.00000000
8.561982 -21.889711 -18.242420 24.00000000
10.066868 -21.795160 -15.903517 24.00000000
8.844490 -21.871962 -27.147680 24.00000000
7.372939 -21.964418 3.148183 24.00000000
10.806478 -21.748692 -49.851307 24.00000000
5.471761 -22.083870 -24.175476 24.00000000
9.884372 -21.806625 -11.626706 24.00000000
6.373571 -22.027208 -39.242958 24.00000000
8.921133 -21.867146 -45.209625 24.00000000
11.199424 -21.724003 -51.147964 24.00000000
5.951109 -22.053753 -14.486173 24.00000000
5.572269 -22.077555 -30.389029 24.00000000
5.346955 -22.091711 -53.130398 24.00000000
11.633017 -21.696760 -30.362232 24.00000000
8.304373 -21.905897 -16.483885 24.00000000
11.010003 -21.735903 -51.849487 24.00000000
8.291035 -21.906734 -22.227310 24.00000000
10.492254 -21.768433 -40.586735 24.00000000
8.545904 -21.890722 -39.435860 24.00000000
9.301778 -21.843231 -37.155914 24.00000000
6.740878 -22.004131 -33.612957 24.00000000
4.988694 -22.114222 -47.571796 24.00000000
6.898575 -21.994223 -50.048458 24.00000000
8.948266 -21.865442 -56.384743 24.00000000
10.928621 -21.741016 -53.851994 24.00000000
8.848107 -21.871735 -24.314295 24.00000000
11.794144 -21.686636 -10.301744 24.00000000
11.977502 -21.675116 -28.186766 24.00000000
8.894560 -21.868816 -50.342049 24.00000000
11.907579 -21.679508 -18.467821 24.00000000
6.825458 -21.998817 -44.454048 24.00000000
9.739782 -21.815710 -44.366596 24.00000000
5.882434 -22.058067 -52.538799 24.00000000
8.231703 -21.910463 -11.755028 24.00000000
6.323465 -22.030357 -47.511116 24.00000000
7.024932 -21.986284 -37.037308 24.00000000
8.922220 -21.867079 -10.332925 24.00000000
11.962877 -21.676035 -35.538639 24.00000000
8.986275 -21.863054 -23.257856 24.00000000
7.065840 -21.983713 -17.802736 24.00000000
11.885694 -21.680883 -56.838284 24.00000000
9.289986 -21.843971 -29.171104 24.00000000
5.125099 -22.105650 -4.799577 24.00000000
7.083311 -21.982616 -46.015778 24.00000000
6.262864 -22.034164 -4.025231 24.00000000
10.617517 -21.760563 3.321804 24.00000000
8.557398 -21.889999 -41.179684 24.00000000
8.056589 -21.921467 -56.893906 24.00000000
8.684571 -21.882010 0.410911 24.00000000
9.984906 -21.800310 -6.888994 24.00000000
6.546306 -22.016356 -29.491476 24.00000000
5.101817 -22.107113 -53.862354 24.00000000
6.397619 -22.025698 -31.935179 24.00000000
11.436658 -21.709097 -35.803326 24.00000000
7.854963 -21.934134 -14.815928 24.00000000
6.634730 -22.010801 -39.937141 24.00000000
10.658796 -21.757971 -58.201519 24.00000000
12.019325 -21.672487 -12.992273 24.00000000
9.890044 -21.806271 1.594811 24.00000000
9.618194 -21.823351 -4.343927 24.00000000
7.023811 -21.986355 -22.419449 24.00000000
6.701545 -22.006603 -52.086658 24.00000000
7.626516 -21.948486 -56.361504 24.00000000
4.946061 -22.116899 -22.944944 24.00000000
4.920713 -22.118492 -31.374071 24.00000000
7.158323 -21.977903 -34.169430 24.00000000
11.877548 -21.681396 -7.839908 24.00000000
4.893158 -22.120222 -37.064262 24.00000000
8.628057 -21.885559 -38.756535 24.00000000
6.228238 -22.036341 3.395630 24.00000000
9.998891 -21.799431 -52.546585 24.00000000
6.543963 -22.016502 -58.716911 24.00000000
4.897100 -22.119974 3.799314 24.00000000
8.831227 -21.872795 -43.176899 24.00000000
9.895252 -21.805943 -38.511925 24.00000000
10.402232 -21.774090 -35.291431 24.00000000
10.535447 -21.765720 -28.483986 24.00000000
6.383979 -22.026554 -9.549740 24.00000000
10.153424 -21.789722 -10.499928 24.00000000
5.399770 -22.088392 -6.090030 24.00000000
12.067396 -21.669468 -32.189373 24.00000000
4.868040 -22.121801 -9.556582 24.00000000
11.116716 -21.729198 -35.191700 24.00000000
6.583036 -22.014048 -36.486626 24.00000000
10.531903 -21.765942 -34.734619 24.00000000
9.810583 -21.811262 -1.031323 24.00000000
6.912624 -21.993341 -12.112010 24.00000000
10.361407 -21.776653 -54.290276 24.00000000
9.640040 -21.821978 3.858080 24.00000000
5.238001 -22.098557 -20.656593 24.00000000
9.318589 -21.842175 -34.352657 24.00000000
5.251900 -22.097683 -46.691147 24.00000000
7.986721 -21.925856 -27.432775 24.00000000
5.606814 -22.075384 -3.774283 24.00000000
11.037042 -21.734203 -1.470926 24.00000000
8.563340 -21.889626 -6.910437 24.00000000
11.466248 -21.707237 -28.563707 24.00000000
11.275610 -21.719215 -3.633290 24.00000000
5.698345 -22.069633 -43.768394 24.00000000
8.804235 -21.874491 -55.830975 24.00000000
10.530143 -21.766052 -17.411572 24.00000000
6.448901 -22.022476 -35.210022 24.00000000
8.067444 -21.920784 -59.243160 24.00000000
11.911925 -21.679235 -23.704279 24.00000000
5.844560 -22.060448 -22.101843 24.00000000
6.742609 -22.004023 -4.875808 24.00000000
10.606627 -21.761248 -41.548069 24.00000000
5.986830 -22.051508 -45.700207 24.00000000
5.410404 -22.087725 -4.281622 24.00000000
6.930561 -21.992214 1.447211 24.00000000
11.046563 -21.733606 -31.151342 24.00000000
5.201886 -22.100826 -17.529356 24.00000000
5.758134 -22.065878 -0.847975 24.00000000
5.959039 -22.053253 -12.739699 24.00000000
5.863758 -22.059240 3.829806 24.00000000
6.366996 -22.027622 -57.096931 24.00000000
11.066130 -21.732376 -26.843534 24.00000000
5.631393 -22.073839 -21.596403 24.00000000
6.053139 -22.047342 -59.971252 24.00000000
8.649905 -21.884188 -19.544201 24.00000000
5.538103 -22.079700 -9.654349 24.00000000
12.061381 -21.669846 -49.576233 24.00000000
6.918995 -21.992941 -1.385460 24.00000000
10.542738 -21.765261 1.301126 24.00000000
8.787219 -21.875561 -28.848642 24.00000000
6.799929 -22.000422 -6.168611 24.00000000
7.026480 -21.986187 -35.617718 24.00000000
9.611153 -21.823793 -27.983433 24.00000000
9.746645 -21.815281 -50.257095 24.00000000
8.546923 -21.890657 -60.455132 24.00000000
7.326691 -21.967325 -41.063881 24.00000000
8.800172 -21.874746 -37.492092 24.00000000
6.160480 -22.040598 -5.045961 24.00000000
7.622084 -21.948765 -18.379616 24.00000000
4.988234 -22.114248 -51.668957 24.00000000
10.307402 -21.780048 -4.397114 24.00000000
4.799960 -22.126080 -40.175709 24.00000000
11.938318 -21.677578 -48.250889 24.00000000
6.797301 -22.000586 -8.348965 24.00000000
5.532702 -22.080042 -1.923247 24.00000000
9.488394 -21.831507 -6.406148 24.00000000
4.945802 -22.116915 -10.884952 24.00000000
9.417681 -21.835949 -18.699415 24.00000000
11.004582 -21.736244 -28.077976 24.00000000
5.012881 -22.112701 -50.186638 24.00000000
8.917286 -21.867388 -28.229130 24.00000000
9.442842 -21.834368 -58.779018 24.00000000
7.416647 -21.961674 -48.079399 24.00000000
10.573426 -21.763332 -18.136646 24.00000000
9.505865 -21.830408 -15.446347 24.00000000
5.643328 -22.073090 -25.452286 24.00000000
10.302823 -21.780334 -0.124006 24.00000000
11.775622 -21.687799 -32.717068 24.00000000
9.465037 -21.832973 -27.359591 24.00000000
4.818102 -22.124939 -38.231133 24.00000000
4.801241 -22.125998 -18.015900 24.00000000
9.319133 -21.842140 -25.651731 24.00000000
11.981550 -21.674862 -2.068071 24.00000000
6.224343 -22.036585 -15.030311 24.00000000
11.623572 -21.697353 -2.467292 24.00000000
6.407600 -22.025070 -35.950230 24.00000000
8.751376 -21.877811 -25.232597 24.00000000
10.036428 -21.797073 -5.571426 24.00000000
6.923418 -21.992662 -14.327190 24.00000000
11.103735 -21.730015 0.935629 24.00000000
5.615235 -22.074856 -44.442112 24.00000000
6.381754 -22.026695 -7.016655 24.00000000
10.770968 -21.750921 -59.673737 24.00000000
11.886311 -21.680845 -58.339474 24.00000000
12.063298 -21.669725 -48.914604 24.00000000
9.460104 -21.833282 -8.356721 24.00000000
9.865775 -21.807795 2.153291 24.00000000
6.303336 -22.031622 -50.309139 24.00000000
11.108839 -21.729692 -42.575645 24.00000000
8.616028 -21.886316 -36.884354 24.00000000
9.671261 -21.820017 -29.827974 24.00000000
5.335700 -22.092419 -12.898370 24.00000000
7.823522 -21.936110 -28.197132 24.00000000
11.060173 -21.732752 -20.249395 24.00000000
7.219023 -21.974091 -20.499254 24.00000000
10.013088 -21.798538 -25.860800 24.00000000
10.369219 -21.776163 2.726111 24.00000000
5.238034 -22.098555 -33.459671 24.00000000
7.408250 -21.962200 -49.603916 24.00000000
11.073576 -21.731909 -49.341927 24.00000000
9.654818 -21.821049 -45.072124 24.00000000
9.368277 -21.839052 -7.746537 24.00000000
8.993118 -21.862623 -40.581715 24.00000000
7.884534 -21.932276 -46.591793 24.00000000
4.994886 -22.113831 -46.028122 24.00000000
7.549016 -21.953356 -47.138550 24.00000000
6.224428 -22.036579 -34.589722 24.00000000
6.921137 -21.992805 -4.067928 24.00000000
9.857984 -21.808285 -9.759521 24.00000000
6.237354 -22.035769 -24.995016 24.00000000
5.924674 -22.055412 -13.510635 24.00000000
7.531686 -21.954445 -43.248337 24.00000000
6.704512 -22.006416 -7.537108 24.00000000
7.088582 -21.982285 -32.885723 24.00000000
9.697981 -21.818336 -47.157345 24.00000000
8.813342 -21.873919 -21.265013 24.00000000
9.119141 -21.854706 -48.606239 24.00000000
5.830785 -22.061312 -39.513977 24.00000000
9.309170 -21.842766 -40.066093 24.00000000
11.128196 -21.728477 -37.671692 24.00000000
10.233859 -21.784668 -54.986439 24.00000000
10.853644 -21.745728 -4.674657 24.00000000
7.062150 -21.983946 -1.966661 24.00000000
6.225470 -22.036514 -21.612377 24.00000000
6.557343 -22.015663 -10.133023 24.00000000
8.423956 -21.898384 -23.249754 24.00000000
10.091758 -21.793596 -41.850574 24.00000000
6.067208 -22.046457 -56.583721 24.00000000
4.877155 -22.121227 -24.586790 24.00000000
7.394719 -21.963051 -41.673538 24.00000000
9.015095 -21.861242 -29.688723 24.00000000
8.204060 -21.912201 -33.201309 24.00000000
12.018414 -21.672544 -29.779924 24.00000000
12.066964 -21.669495 -8.399673 24.00000000
11.940831 -21.677420 -25.115528 24.00000000
6.243077 -22.035408 -26.010887 24.00000000
11.202904 -21.723783 -56.641331 24.00000000
7.672310 -21.945610 -39.227112 24.00000000
10.203736 -21.786560 -43.655083 24.00000000
5.045885 -22.110626 -2.563892 24.00000000
11.816087 -21.685257 -9.203106 24.00000000
11.937073 -21.677656 -46.920834 24.00000000
4.893530 -22.120199 -34.813118 24.00000000
5.725580 -22.067923 -53.682732 24.00000000
6.482615 -22.020357 -17.116339 24.00000000
11.988131 -21.674448 -42.524467 24.00000000
5.922076 -22.055576 -16.850950 24.00000000
11.439112 -21.708942 -3.036503 24.00000000
10.085286 -21.794003 -29.203974 24.00000000
8.343531 -21.903437 -5.484916 24.00000000
11.432893 -21.709333 -21.874790 24.00000000
8.281373 -21.907343 -15.333683 24.00000000
10.912230 -21.742046 -22.116184 24.00000000
6.339759 -22.029333 -15.980225 24.00000000
7.350362 -21.965837 -31.303448 24.00000000
11.224086 -21.722452 -61.082230 24.00000000
8.206304 -21.912060 -7.315379 24.00000000
9.230572 -21.847706 -9.600699 24.00000000
4.954579 -22.116364 -41.410023 24.00000000
10.521471 -21.766598 -12.774810 24.00000000
6.633730 -22.010862 -21.163031 24.00000000
9.524727 -21.829224 -17.814075 24.00000000
7.570753 -21.951990 -25.125116 24.00000000
6.768638 -22.002386 -23.016550 24.00000000
6.967246 -21.989908 -11.161551 24.00000000
5.520349 -22.080816 -22.690687 24.00000000
11.480847 -21.706320 -41.068569 24.00000000
11.132302 -21.728218 -39.557259 24.00000000
6.322119 -22.030441 -53.038528 24.00000000
8.301476 -21.906078 -4.763981 24.00000000
10.392524 -21.774698 -3.084086 24.00000000
7.131597 -21.979584 -37.750008 24.00000000
7.916660 -21.930258 -19.373432 24.00000000
11.737079 -21.690222 -26.954098 24.00000000
8.660348 -21.883532 -34.465096 24.00000000
4.833242 -22.123987 -43.623661 24.00000000
10.335513 -21.778280 -61.007900 24.00000000
7.660452 -21.946356 -12.175749 24.00000000
5.802754 -22.063072 -46.297195 24.00000000
5.180277 -22.102182 -29.988556 24.00000000
9.851978 -21.808662 -31.099607 24.00000000
7.080351 -21.982801 -48.842819 24.00000000
10.673777 -21.757029 -20.803045 24.00000000
7.532494 -21.954393 -53.954144 24.00000000
7.226453 -21.973623 -54.923740 24.00000000
6.225571 -22.036509 -41.807285 24.00000000
9.856394 -21.808384 -23.914877 24.00000000
11.260559 -21.720161 0.364435 24.00000000
9.914530 -21.804731 -31.652075 24.00000000
7.589911 -21.950787 -26.238918 24.00000000
6.283580 -22.032864 -43.312763 24.00000000
11.420512 -21.710112 -60.438194 24.00000000
8.339544 -21.903688 -21.694237 24.00000000
10.099948 -21.793081 -11.016926 24.00000000
4.799606 -22.126101 -22.319654 24.00000000
10.786232 -21.749964 -13.683469 24.00000000
11.826490 -21.684605 -21.395748 24.00000000
8.475437 -21.895149 -48.356876 24.00000000
8.280585 -21.907393 -30.325542 24.00000000
5.301442 -22.094570 -19.735975 24.00000000
10.304603 -21.780224 -33.702820 24.00000000
7.870204 -21.933176 -23.245323 24.00000000
11.700632 -21.692511 -20.063328 24.00000000
6.911242 -21.993427 -50.712685 24.00000000
9.113073 -21.855087 -35.684570 24.00000000
6.611500 -22.012260 -57.660076 24.00000000
10.072511 -21.794806 -4.947748 24.00000000
5.593468 -22.076223 -57.026031 24.00000000
8.259397 -21.908724 -21.138784 24.00000000
12.056250 -21.670168 0.841529 24.00000000
4.824869 -22.124514 -54.704506 24.00000000
12.030806 -21.671766 -43.652149 24.00000000
11.425548 -21.709795 -6.413776 24.00000000
8.748618 -21.877987 -15.070862 24.00000000
8.857700 -21.871132 -53.193066 24.00000000
5.814496 -22.062336 -6.743748 24.00000000
9.512064 -21.830017 -43.361046 24.00000000
6.576345 -22.014469 -27.849449 24.00000000
6.844594 -21.997616 -13.506912 24.00000000
5.725818 -22.067907 -43.074642 24.00000000
8.823277 -21.873295 3.080400 24.00000000
5.701998 -22.069405 -33.747105 24.00000000
9.587408 -21.825285 3.011351 24.00000000
6.416608 -22.024506 0.300880 24.00000000
5.981828 -22.051823 -17.446886 24.00000000
5.298416 -22.094761 1.886734 24.00000000
9.906870 -21.805214 -16.604441 24.00000000
5.969053 -22.052626 -29.710957 24.00000000
9.286052 -21.844219 -7.175993 24.00000000
11.533329 -21.703024 3.353486 24.00000000
10.277613 -21.781919 -22.914932 24.00000000
8.957203 -21.864880 -52.226242 24.00000000
5.478659 -22.083435 -40.482552 24.00000000
5.554592 -22.078665 -34.916714 24.00000000
11.832008 -21.684258 -19.083918 24.00000000
8.735922 -21.878782 -31.437023 24.00000000
8.167003 -21.914528 -35.096272 24.00000000
7.374416 -21.964327 -36.282829 24.00000000
10.289349 -21.781181 -29.837339 24.00000000
10.741062 -21.752802 -6.464663 24.00000000
5.837455 -22.060892 1.814910 24.00000000
9.697834 -21.818348 -14.528042 24.00000000
5.056082 -22.109987 -48.759781 24.00000000
6.600849 -22.012930 -54.910648 24.00000000
11.835928 -21.684011 0.109702 24.00000000
12.017738 -21.672588 -55.988716 24.00000000
4.813845 -22.125206 -60.643818 24.00000000
7.660234 -21.946367 -20.036976 24.00000000
10.850631 -21.745916 -30.295135 24.00000000
9.979723 -21.800636 -53.587044 24.00000000
11.428910 -21.709583 -12.687614 24.00000000
7.194001 -21.975662 -39.663097 24.00000000
10.095326 -21.793371 -24.855671 24.00000000
9.236823 -21.847313 -11.881053 24.00000000
9.669429 -21.820131 -60.436188 24.00000000
8.202167 -21.912319 -2.092843 24.00000000
7.898813 -21.931379 -6.665634 24.00000000
5.993409 -22.051094 -47.095985 24.00000000
8.333786 -21.904049 -35.607075 24.00000000
8.647513 -21.884338 -36.165154 24.00000000
11.890082 -21.680609 -31.532160 24.00000000
9.339849 -21.840839 -50.696350 24.00000000
8.733139 -21.878958 -22.684778 24.00000000
7.086907 -21.982389 -29.804962 24.00000000
9.797179 -21.812105 -37.897900 24.00000000
11.008913 -21.735971 -25.780598 24.00000000
8.730021 -21.879154 -53.870808 24.00000000
11.848374 -21.683229 2.692994 24.00000000
8.107433 -21.918270 -26.618015 24.00000000
8.653596 -21.883957 3.854024 24.00000000
10.779069 -21.750414 -29.498302 24.00000000
9.463841 -21.833048 0.806950 24.00000000
11.090915 -21.730820 -40.516098 24.00000000
9.019937 -21.860939 -5.401050 24.00000000
10.940597 -21.740265 -54.391449 24.00000000
6.483690 -22.020290 -30.114159 24.00000000
6.621095 -22.011658 -55.455208 24.00000000
7.844483 -21.934792 -47.626335 24.00000000
7.295555 -21.969280 -26.921375 24.00000000
8.898751 -21.868553 -32.078590 24.00000000
6.576225 -22.014477 -24.274818 24.00000000
6.064193 -22.046646 -2.566129 24.00000000
6.914735 -21.993208 -3.258643 24.00000000
6.633262 -22.010893 -48.080238 24.00000000
4.831979 -22.124067 -3.212793 24.00000000
8.691044 -21.881603 -17.655890 24.00000000
10.048122 -21.796337 -40.168278 24.00000000
7.203119 -21.975088 -23.710785 24.00000000
10.338714 -21.778080 -51.006138 24.00000000
6.591027 -22.013546 -23.684977 24.00000000
8.965020 -21.864389 -42.244915 24.00000000
11.019560 -21.735304 2.967565 24.00000000
9.130650 -21.853983 -1.874622 24.00000000
8.326985 -21.904476 2.814439 24.00000000
7.006239 -21.987459 -34.748158 24.00000000
11.608213 -21.698318 -5.385395 24.00000000
6.335565 -22.029596 -13.148196 24.00000000
6.367567 -22.027586 -49.601334 24.00000000
6.824348 -21.998886 -53.495571 24.00000000
8.757058 -21.877455 -46.599632 24.00000000
6.512110 -22.018505 -0.464062 24.00000000
11.051056 -21.733324 -14.182870 24.00000000
7.110108 -21.980932 -6.805824 24.00000000
10.697955 -21.755508 -45.015106 24.00000000
11.429171 -21.709566 -56.161720 24.00000000
11.474917 -21.706694 -32.139736 24.00000000
6.943362 -21.991409 -24.937075 24.00000000
10.435355 -21.772009 -37.378994 24.00000000
6.309012 -22.031265 -53.781574 24.00000000
5.136349 -22.104942 -39.394264 24.00000000
8.206407 -21.912052 -53.536949 24.00000000
11.102358 -21.730101 -52.396324 24.00000000
9.526305 -21.829124 -61.016907 24.00000000
8.910393 -21.867821 -15.965399 24.00000000
8.661930 -21.883432 -59.547058 24.00000000
8.051144 -21.921808 2.356861 24.00000000
9.111877 -21.855162 -44.593376 24.00000000
7.817588 -21.936481 -40.751881 24.00000000
5.555115 -22.078632 3.057770 24.00000000
10.103374 -21.792868 -47.942829 24.00000000
5.484943 -22.083040 -54.465931 24.00000000
7.642506 -21.947481 1.108107 24.00000000
5.482216 -22.083214 -8.912670 24.00000000
7.809701 -21.936977 -16.833838 24.00000000
5.117327 -22.106138 -11.499567 24.00000000
10.164918 -21.789000 -15.341485 24.00000000
8.484944 -21.894552 -44.677479 24.00000000
5.356720 -22.091099 -61.034195 24.00000000
12.062519 -21.669773 -51.829182 24.00000000
9.426984 -21.835363 -4.991810 24.00000000
11.221052 -21.722643 3.801122 24.00000000
8.316009 -21.905167 -4.165798 24.00000000
11.363066 -21.713720 -49.852940 24.00000000
6.575635 -22.014513 -28.875280 24.00000000
10.597848 -21.761799 -16.181967 24.00000000
4.860771 -22.122257 -30.711065 24.00000000
8.145642 -21.915871 -52.844067 24.00000000
6.658420 -22.009312 -45.224365 24.00000000
6.823605 -21.998934 3.245466 24.00000000
5.901371 -22.056877 -40.103775 24.00000000
5.920036 -22.055704 -8.420611 24.00000000
6.069735 -22.046299 -11.951800 24.00000000
9.712435 -21.817429 -49.714939 24.00000000
9.319677 -21.842106 -11.162968 24.00000000
8.952839 -21.865154 -60.787720 24.00000000
10.458945 -21.770527 -8.853772 24.00000000
7.742320 -21.941212 -5.892395 24.00000000
8.675608 -21.882572 -26.605698 24.00000000
34.699795 7.562660 -46.142899 25.00000000
34.755333 6.678672 -32.715904 25.00000000
34.527412 10.306483 -20.344547 25.00000000
34.790066 6.125840 0.363873 25.00000000
34.698032 7.590724 -10.858089 25.00000000
34.846497 5.227649 -28.032703 25.00000000
34.594444 9.239519 -21.244678 25.00000000
34.456032 11.442634 -23.912472 25.00000000
34.464783 11.303374 -31.704210 25.00000000
34.504879 10.665130 -12.548465 25.00000000
34.498142 10.772350 -26.137089 25.00000000
34.647766 8.390794 -0.558485 25.00000000
34.886917 4.584228 -24.905119 25.00000000
34.808819 5.827373 -39.317142 25.00000000
34.764317 6.535693 -3.005317 25.00000000
34.649914 8.356669 -12.069255 25.00000000
34.463932 11.316883 -46.512772 25.00000000
34.654041 8.290936 -47.338482 25.00000000
34.629230 8.685871 -55.390545 25.00000000
34.909603 4.223141 -52.787605 25.00000000
34.457806 11.414433 1.911606 25.00000000
34.631866 8.643897 -44.379131 25.00000000
34.470013 11.220110 -50.457310 25.00000000
34.548592 9.969409 -15.900909 25.00000000
34.610458 8.984623 -59.889481 25.00000000
34.553219 9.895725 -14.864092 25.00000000
34.731380 7.059926 -36.418335 25.00000000
34.742771 6.878620 -43.068565 25.00000000
34.810421 5.801858 2.095135 25.00000000
34.600285 9.146580 -6.953878 25.00000000
34.561470 9.764397 -36.580666 25.00000000
34.752563 6.722784 -33.893818 25.00000000
34.806000 5.872229 -27.675613 25.00000000
34.910072 4.215674 1.089733 25.00000000
34.608269 9.019486 -19.123055 25.00000000
34.596889 9.200647 -0.213863 25.00000000
34.790127 6.124904 -28.972601 25.00000000
34.867985 4.885639 -43.059990 25.00000000
34.554119 9.881411 -44.924461 25.00000000
34.631878 8.643716 -22.106239 25.00000000
34.544914 10.027937 -25.986189 25.00000000
34.643673 8.455963 -29.603128 25.00000000
34.907825 4.251488 -20.781689 25.00000000
34.589848 9.312718 -32.727142 25.00000000
34.798878 5.985618 -50.942589 25.00000000
34.844452 5.260214 -41.801685 25.00000000
34.750763 6.751429 -48.453011 25.00000000
34.525639 10.334713 -10.932638 25.00000000
34.890068 4.534122 -3.891591 25.00000000
34.881187 4.675456 -37.437340 25.00000000
34.910629 4.206839 -31.684486 25.00000000
34.553505 9.891190 -52.600266 25.00000000
34.752716 6.720341 -15.074992 25.00000000
34.601116 9.133343 -10.891408 25.00000000
34.634865 8.596185 -53.717121 25.00000000
34.773487 6.389738 -39.190166 25.00000000
34.620441 8.825720 -40.585915 25.00000000
34.507652 10.620995 -36.878899 25.00000000
34.464447 11.308685 -32.236893 25.00000000
34.575722 9.537541 -12.042445 25.00000000
34.820896 5.635144 -32.277809 25.00000000
34.531799 10.236641 -13.773343 25.00000000
34.523781 10.364327 3.497434 25.00000000
34.570148 9.626280 -51.171589 25.00000000
34.717426 7.282042 -34.525234 25.00000000
34.614857 8.914629 -14.363819 25.00000000
34.485435 10.974606 -38.281387 25.00000000
34.808987 5.824677 -47.048241 25.00000000
34.873344 4.800286 -26.422977 25.00000000
34.856361 5.070596 -29.596754 25.00000000
34.801617 5.941988 -51.569988 25.00000000
34.698715 7.579875 -56.524715 25.00000000
34.635242 8.590137 -11.217774 25.00000000
34.737244 6.966605 -57.686375 25.00000000
34.625443 8.746117 -30.756033 25.00000000
34.699390 7.569105 -10.222337 25.00000000
34.625141 8.750906 -58.683613 25.00000000
34.563156 9.737552 -9.718789 25.00000000
34.909035 4.232227 -41.503048 25.00000000
34.670494 8.029070 -27.720222 25.00000000
34.633530 8.617419 -36.870838 25.00000000
34.625893 8.739014 -8.153508 25.00000000
34.907379 4.258545 -34.842682 25.00000000
34.888638 4.556856 -35.399643 25.00000000
34.769508 6.453066 -42.020187 25.00000000
34.796467 6.023994 -0.232573 25.00000000
34.760746 6.592536 -49.643185 25.00000000
34.780090 6.284645 -22.934206 25.00000000
34.773529 6.389064 -12.479890 25.00000000
34.776127 6.347689 -46.759529 25.00000000
34.905319 4.291337 -26.597258 25.00000000
34.525925 10.330143 -34.084053 25.00000000
34.899090 4.390487 -47.735596 25.00000000
34.896057 4.438789 -27.252230 25.00000000
34.857677 5.049700 -48.983402 25.00000000
34.808689 5.829415 -46.010128 25.00000000
34.653828 8.294314 -54.195526 25.00000000
34.757851 6.638633 -19.169493 25.00000000
34.843113 5.281517 -31.742559 25.00000000
34.830738 5.478457 -9.342855 25.00000000
34.512699 10.540666 -33.506153 25.00000000
34.540901 10.091774 -22.969616 25.00000000
34.822117 5.615697 -36.205017 25.00000000
34.901829 4.346900 -5.495840 25.00000000
34.471325 11.199250 -11.400826 25.00000000
34.736065 6.985350 -38.621319 25.00000000
34.669289 8.048268 -39.860260 25.00000000
34.708492 7.424237 -35.877544 25.00000000
34.528423 10.290388 -40.471115 25.00000000
34.799786 5.971150 -3.212394 25.00000000
34.542088 10.072891 -3.706687 25.00000000
34.788235 6.154983 -9.723165 25.00000000
34.536282 10.165317 -46.876747 25.00000000
34.486420 10.958939 -36.297977 25.00000000
34.689861 7.720760 -33.008598 25.00000000
34.887566 4.573939 -21.792297 25.00000000
34.749680 6.768667 -46.354652 25.00000000
34.902435 4.337274 0.395771 25.00000000
34.546940 9.995694 -38.177338 25.00000000
34.690754 7.706591 -25.202900 25.00000000
34.880226 4.690764 -38.904873 25.00000000
34.716743 7.292893 -46.770149 25.00000000
34.606941 9.040644 -16.440329 25.00000000
34.885727 4.603218 -10.836255 25.00000000
34.777157 6.331335 -50.422791 25.00000000
34.668556 8.059920 -36.803387 25.00000000
34.713234 7.348791 -30.117311 25.00000000
34.636745 8.566253 -30.229830 25.00000000
34.784241 6.218594 1.202840 25.00000000
34.648701 8.375976 -35.678467 25.00000000
34.885841 4.601374 -53.337601 25.00000000
34.696091 7.621659 -2.938038 25.00000000
34.808708 5.829095 -12.104636 25.00000000
34.609222 9.004322 -29.617361 25.00000000
34.896492 4.431881 -46.085651 25.00000000
34.464802 11.303061 -60.332699 25.00000000
34.576069 9.532023 2.066050 25.00000000
34.840813 5.318132 -52.725487 25.00000000
34.677494 7.917662 -21.974825 25.00000000
34.473049 11.171748 -22.610933 25.00000000
34.519737 10.428620 -27.886398 25.00000000
34.644871 8.436905 -27.337051 25.00000000
34.759857 6.606680 -33.331654 25.00000000
34.567150 9.673985 -12.640406 25.00000000
34.642101 8.480959 -13.285868 25.00000000
34.708771 7.419805 -17.209311 25.00000000
34.698425 7.584461 -7.037574 25.00000000
34.659187 8.209013 -2.399858 25.00000000
34.497364 10.784749 -59.727440 25.00000000
34.458000 11.411330 -34.589310 25.00000000
34.481510 11.037097 -2.410680 25.00000000
34.725101 7.159859 -16.618334 25.00000000
34.724766 7.165203 -43.777119 25.00000000
34.880131 4.692311 -30.602468 25.00000000
34.903114 4.326441 -43.367584 25.00000000
34.908703 4.237525 -11.393927 25.00000000
34.819305 5.660434 -40.190571 25.00000000
34.514050 10.519169 -30.552393 25.00000000
34.545689 10.015559 -43.667168 25.00000000
34.589531 9.317762 -14.736516 25.00000000
34.868145 4.883082 1.366158 25.00000000
34.589775 9.313857 2.783319 25.00000000
34.587250 9.354061 -55.643482 25.00000000
34.847027 5.219172 -46.091991 25.00000000
34.468910 11.237629 -21.313677 25.00000000
34.500538 10.734242 -35.685787 25.00000000
34.656837 8.246426 -17.352924 25.00000000
34.787163 6.172083 -38.015728 25.00000000
34.677265 7.921294 -6.461077 25.00000000
34.773830 6.384273 -11.777269 25.00000000
34.904007 4.312232 -26.001175 25.00000000
34.858208 5.041250 -16.912991 25.00000000
34.508907 10.601052 0.556547 25.00000000
34.599270 9.162736 -37.399326 25.00000000
34.456421 11.436492 -43.071964 25.00000000
34.497604 10.780963 -19.884022 25.00000000
34.820213 5.646000 -5.428833 25.00000000
34.604424 9.080678 -50.863724 25.00000000
34.856888 5.062269 -7.806199 25.00000000
34.845264 5.247238 -25.282400 25.00000000
34.702988 7.511878 -42.948402 25.00000000
34.883511 4.638465 -46.692295 25.00000000
34.458794 11.398684 -40.988644 25.00000000
34.652782 8.310975 -60.296055 25.00000000
34.648605 8.377438 -53.197052 25.00000000
34.456451 11.435970 -1.779225 25.00000000
34.680744 7.865910 -7.556567 25.00000000
34.661041 8.179496 -2.973927 25.00000000
34.533356 10.211869 -42.760532 25.00000000
34.647469 8.395590 -5.055165 25.00000000
34.721352 7.219550 -3.903533 25.00000000
34.831970 5.458840 -51.943855 25.00000000
34.684582 7.804835 -29.098858 25.00000000
34.776855 6.336094 -34.349842 25.00000000
34.539852 10.108450 -17.321808 25.00000000
34.472282 11.183963 -49.120274 25.00000000
34.595451 9.223500 -23.890116 25.00000000
34.892406 4.496887 -36.557632 25.00000000
34.588760 9.329999 -44.869053 25.00000000
34.745697 6.832047 -52.478531 25.00000000
34.696854 7.609485 -37.440910 25.00000000
34.907570 4.255535 -30.256882 25.00000000
34.600086 9.149735 -36.823956 25.00000000
34.799576 5.974473 -19.342417 25.00000000
34.857212 5.057056 -36.855030 25.00000000
34.808155 5.837938 -28.214165 25.00000000
34.865429 4.926283 -43.793232 25.00000000
34.904079 4.311080 -55.308449 25.00000000
34.461170 11.360826 -19.988560 25.00000000
34.783474 6.230787 -39.862755 25.00000000
34.536358 10.164130 -4.676648 25.00000000
34.563808 9.727200 -41.914165 25.00000000
34.456436 11.436239 -18.560724 25.00000000
34.615135 8.910217 -35.676754 25.00000000
34.809826 5.811307 -41.588039 25.00000000
34.728371 7.107870 -33.040447 25.00000000
34.729965 7.082448 -20.533449 25.00000000
34.775860 6.351973 -20.939398 25.00000000
34.630177 8.670775 -32.394871 25.00000000
34.839542 5.338331 -4.900850 25.00000000
34.517960 10.456928 -20.875818 25.00000000
34.687176 7.763551 -48.196735 25.00000000
34.796238 6.027613 -6.486571 25.00000000
34.797329 6.010232 -42.549549 25.00000000
34.658581 8.218659 -28.380209 25.00000000
34.567402 9.669985 -26.826405 25.00000000
34.857212 5.057078 -36.154736 25.00000000
34.869949 4.854313 -20.478426 25.00000000
34.622150 8.798557 -33.070045 25.00000000
34.454369 11.469139 -55.247536 25.00000000
34.812618 5.766888 -20.444672 25.00000000
34.859585 5.019317 -11.254526 25.00000000
34.519886 10.426262 -24.923531 25.00000000
34.466476 11.276374 -6.636928 25.00000000
34.467796 11.255421 -50.998299 25.00000000
34.876289 4.753440 -19.574453 25.00000000
34.742371 6.885008 -56.401054 25.00000000
34.460274 11.375111 -25.670574 25.00000000
34.587215 9.354583 -31.877523 25.00000000
34.779377 6.295993 -7.444430 25.00000000
34.600529 9.142679 -58.211376 25.00000000
34.652454 8.316218 -23.781298 25.00000000
34.753937 6.700891 -29.623652 25.00000000
34.605293 9.066859 -43.120750 25.00000000
34.456963 11.427855 -7.946785 25.00000000
34.528061 10.296165 -13.051755 25.00000000
34.512718 10.540398 -53.351540 25.00000000
34.772263 6.409228 -40.807468 25.00000000
34.466042 11.283300 -7.323457 25.00000000
34.565956 9.692992 0.770891 25.00000000
34.811253 5.788627 -58.150269 25.00000000
34.615952 8.897194 -34.365849 25.00000000
34.816040 5.712397 -35.213608 25.00000000
34.647614 8.393244 -45.216568 25.00000000
34.867596 4.891821 -33.438259 25.00000000
34.670284 8.032375 -53.651920 25.00000000
34.563740 9.728252 -53.334705 25.00000000
34.679516 7.885444 -34.613914 25.00000000
34.481709 11.033970 -27.713207 25.00000000
34.497948 10.775463 -9.647799 25.00000000
34.558716 9.808228 2.989198 25.00000000
34.899754 4.379973 -38.337578 25.00000000
34.601620 9.125314 -38.859241 25.00000000
34.780106 6.284408 -1.023352 25.00000000
34.533642 10.207349 -56.083652 25.00000000
34.560535 9.779265 -16.637436 25.00000000
34.494022 10.837938 -1.051087 25.00000000
34.738308 6.949687 1.980560 25.00000000
34.468189 11.249128 -13.652803 25.00000000
34.829376 5.500127 -2.571248 25.00000000
34.552444 9.908072 -18.840290 25.00000000
34.453560 11.481992 -36.919865 25.00000000
34.727859 7.115948 0.295256 25.00000000
34.458725 11.399781 -12.746495 25.00000000
34.556801 9.838698 -23.550716 25.00000000
34.798347 5.994019 -54.566288 25.00000000
34.648731 8.375457 -50.816490 25.00000000
34.725655 7.151054 -24.652634 25.00000000
34.501205 10.723594 -42.975044 25.00000000
34.684902 7.799733 -9.073024 25.00000000
34.742809 6.878036 -30.506731 25.00000000
34.901726 4.348562 -19.953176 25.00000000
34.646225 8.415329 -35.017075 25.00000000
34.671207 8.017722 0.823861 25.00000000
34.623329 8.779760 -17.432371 25.00000000
34.907688 4.253638 -17.156061 25.00000000
34.780785 6.273563 -22.294033 25.00000000
34.824848 5.572239 1.352564 25.00000000
34.561253 9.767867 -27.649046 25.00000000
34.722580 7.200004 -0.324724 25.00000000
34.628822 8.692377 -20.611418 25.00000000
34.711910 7.369856 -8.673960 25.00000000
34.664436 8.125494 -57.066277 25.00000000
34.806492 5.864402 -52.917484 25.00000000
34.896702 4.428542 -16.164829 25.00000000
34.635284 8.589519 -38.641735 25.00000000
34.888458 4.559703 -23.091190 25.00000000
34.726772 7.133252 -16.009020 25.00000000
34.792271 6.090721 -8.008834 25.00000000
34.489582 10.908654 -38.890629 25.00000000
34.776302 6.344883 -59.160679 25.00000000
34.772152 6.410992 -38.656696 25.00000000
34.472210 11.185159 -15.460770 25.00000000
34.471355 11.198762 -0.548317 25.00000000
34.500187 10.739817 -19.234867 25.00000000
34.669563 8.043896 -55.812630 25.00000000
34.641724 8.487007 -13.848161 25.00000000
34.788280 6.154276 -26.825882 25.00000000
34.557083 9.834197 -5.257124 25.00000000
34.481430 11.038374 -45.398952 25.00000000
34.910110 4.215111 -13.021893 25.00000000
34.800919 5.953105 -19.875114 25.00000000
34.853687 5.113171 -4.143849 25.00000000
34.898556 4.398993 -12.471706 25.00000000
34.783905 6.223915 -17.775373 25.00000000
34.603226 9.099742 -5.522953 25.00000000
34.719635 7.246869 -23.898802 25.00000000
34.525894 10.330671 -58.096573 25.00000000
34.812733 5.765068 -30.534723 25.00000000
34.467556 11.259206 -44.090706 25.00000000
34.619328 8.843455 -25.432978 25.00000000
34.903694 4.317227 -8.645071 25.00000000
34.786575 6.181382 -55.475685 25.00000000
34.688049 7.749641 -1.820257 25.00000000
34.779350 6.296383 -48.948601 25.00000000
34.907860 4.250894 -19.276030 25.00000000
34.892410 4.496827 3.860404 25.00000000
34.663372 8.142428 -42.746521 25.00000000
34.615685 8.901461 -1.192488 25.00000000
34.711960 7.369059 -48.675728 25.00000000
34.734875 7.004325 1.424892 25.00000000
34.814133 5.742792 -18.114140 25.00000000
34.750813 6.750635 -37.587399 25.00000000
34.541950 10.075115 -59.124588 25.00000000
34.839153 5.344525 -14.064983 25.00000000
34.821026 5.633081 -13.526441 25.00000000
34.528168 10.294451 -2.793165 25.00000000
34.498138 10.772416 -4.792670 25.00000000
34.533112 10.215788 -61.034054 25.00000000
34.465874 11.285991 0.117897 25.00000000
34.532700 10.222313 -6.418022 25.00000000
34.903896 4.313995 -14.485616 25.00000000
34.810295 5.803844 -25.554890 25.00000000
34.572651 9.586413 -56.276558 25.00000000
34.693333 7.665523 -57.418438 25.00000000
34.836395 5.388425 -56.564468 25.00000000
34.852100 5.138458 -0.283215 25.00000000
34.769733 6.449486 -34.996998 25.00000000
34.643330 8.461461 -17.964724 25.00000000
34.554569 9.874233 -55.220718 25.00000000
34.890900 4.520875 -27.787806 25.00000000
34.784294 6.217674 -43.125229 25.00000000
34.772781 6.400971 -58.082973 25.00000000
34.660164 8.193491 3.803227 25.00000000
34.789326 6.137649 -9.095619 25.00000000
34.699982 7.559700 -14.845666 25.00000000
34.609020 9.007508 -7.581381 25.00000000
34.717087 7.287472 -7.704484 25.00000000
34.587296 9.353345 -45.451496 25.00000000
34.844505 5.259347 -49.535309 25.00000000
34.783813 6.225336 -52.406937 25.00000000
34.577511 9.509105 -24.446779 25.00000000
34.748577 6.786240 -19.785608 25.00000000
34.574791 9.552383 -28.335480 25.00000000
34.897732 4.412138 -44.461643 25.00000000
34.667740 8.072907 -44.272671 25.00000000
34.690250 7.714582 -11.887198 25.00000000
34.861713 4.985428 -18.171997 25.00000000
34.636173 8.575322 -48.166412 25.00000000
34.771854 6.415715 -59.742222 25.00000000
34.910450 4.209689 -61.065266 25.00000000
34.736557 6.977519 -21.257454 25.00000000
34.585300 9.385096 -13.955935 25.00000000
34.464317 11.310763 -10.729694 25.00000000
34.846291 5.230932 3.606845 25.00000000
34.490898 10.887700 -34.961742 25.00000000
34.764290 6.536097 -24.473093 25.00000000
34.589462 9.318863 -20.422297 25.00000000
34.465500 11.291940 -28.997181 25.00000000
34.756199 6.664906 -36.909832 25.00000000
34.797890 6.001295 -14.313711 25.00000000
34.910679 4.206057 -50.736359 25.00000000
34.732044 7.049340 -47.785877 25.00000000
34.492653 10.859745 -34.290817 25.00000000
34.746498 6.819289 -39.834087 25.00000000
34.845062 5.250442 -56.047382 25.00000000
34.460117 11.377613 -14.958550 25.00000000
34.730930 7.067107 -6.091628 25.00000000
34.648312 8.382134 -25.709188 25.00000000
34.532944 10.218448 -27.203959 25.00000000
34.617901 8.866199 -43.687244 25.00000000
34.855576 5.083136 -58.580410 25.00000000
34.490974 10.886484 -17.872910 25.00000000
34.684776 7.801711 -23.604740 25.00000000
34.670715 8.025524 -59.701981 25.00000000
34.454605 11.465358 -35.904182 25.00000000
34.909237 4.228992 -28.840605 25.00000000
34.689709 7.723248 -54.288582 25.00000000
34.526817 10.315938 -21.575628 25.00000000
34.806667 5.861615 3.509685 25.00000000
34.745148 6.840830 -26.671160 25.00000000
34.699905 7.560905 -5.128755 25.00000000
34.736401 6.980020 -4.984209 25.00000000
34.655807 8.262797 1.405992 25.00000000
34.454506 11.466921 -55.986717 25.00000000
34.720749 7.229180 -18.977362 25.00000000
34.472878 11.174547 0.788192 25.00000000
34.709614 7.406382 -55.889542 25.00000000
34.877148 4.739748 -49.950012 25.00000000
34.612804 8.947303 2.306639 25.00000000
34.758022 6.635878 -57.137314 25.00000000
34.578407 9.494820 -37.889042 25.00000000
34.852749 5.128103 -21.425196 25.00000000
34.519794 10.427720 -11.581477 25.00000000
34.742432 6.884064 -41.648197 25.00000000
34.468540 11.243540 -49.729927 25.00000000
34.523933 10.361867 -22.160410 25.00000000
34.458942 11.396316 -17.451981 25.00000000
34.876183 4.755101 -13.841504 25.00000000
34.575272 9.544697 -47.521133 25.00000000
34.670048 8.036145 -49.807377 25.00000000
34.491196 10.882970 -57.588001 25.00000000
34.734531 7.009768 -1.395887 25.00000000
34.460606 11.369875 -42.439671 25.00000000
34.582970 9.422218 -50.337425 25.00000000
34.754910 6.685429 -11.032953 25.00000000
34.531296 10.244677 -10.044367 25.00000000
34.699062 7.574354 -60.444607 25.00000000
34.600876 9.137150 -47.930336 25.00000000
34.866695 4.906138 -14.489096 25.00000000
34.870975 4.838030 -18.823814 25.00000000
34.656338 8.254419 -36.245174 25.00000000
34.731754 7.053986 -2.086762 25.00000000
34.559727 9.792135 -25.483551 25.00000000
34.860146 5.010394 -12.235516 25.00000000
34.454037 11.474411 -5.316450 25.00000000
34.573681 9.570019 -19.906603 25.00000000
34.557041 9.834890 -0.401831 25.00000000
34.568584 9.651131 -34.443760 25.00000000
34.506924 10.632640 -46.437099 25.00000000
34.496300 10.801713 1.267545 25.00000000
34.618465 8.857210 -36.327511 25.00000000
34.567589 9.666976 -13.358463 25.00000000
34.759575 6.611169 -45.473679 25.00000000
34.844601 5.257798 -23.102852 25.00000000
34.453751 11.478987 -40.293713 25.00000000
34.651573 8.330233 -46.663113 25.00000000
34.556572 9.842340 -40.870712 25.00000000
34.564758 9.712072 -39.713215 25.00000000
34.459637 11.385271 -33.960293 25.00000000
34.731937 7.051047 -12.087142 25.00000000
34.737579 6.961267 -55.001797 25.00000000
34.521557 10.399674 -25.513548 25.00000000
34.707066 7.446945 -52.121819 25.00000000
34.675907 7.942874 -44.858051 25.00000000
34.828251 5.518077 -16.642963 25.00000000
34.503067 10.694007 -23.493628 25.00000000
34.849628 5.177787 0.768223 25.00000000
34.816872 5.699169 -45.448597 25.00000000
34.599091 9.165583 -42.113632 25.00000000
34.735069 7.001230 -9.874853 25.00000000
34.783092 6.236859 -60.923100 25.00000000
34.501453 10.719649 -47.229321 25.00000000
34.822777 5.605202 -1.645451 25.00000000
34.550251 9.942956 -37.095993 25.00000000
34.473812 11.159622 -31.112467 25.00000000
34.658573 8.218790 -9.778923 25.00000000
34.731964 7.050625 -2.715695 25.00000000
34.792522 6.086723 -36.712784 25.00000000
34.702991 7.511784 -2.381499 25.00000000
34.878239 4.722392 -56.427105 25.00000000
34.625027 8.752764 -26.177418 25.00000000
34.903702 4.317093 -25.403431 25.00000000
34.909592 4.223361 -36.055790 25.00000000
34.816753 5.701036 -61.009995 25.00000000
34.600418 9.144439 -15.868503 25.00000000
34.495247 10.818493 -7.036383 25.00000000
34.456043 11.442435 -8.720809 25.00000000
34.908600 4.239142 -54.642052 25.00000000
34.717564 7.279888 -57.016876 25.00000000
34.669590 8.043454 -32.387016 25.00000000
34.842953 5.284079 -20.139317 25.00000000
34.804604 5.894442 -49.435635 25.00000000
34.714771 7.324309 -42.035248 25.00000000
34.684090 7.812669 -38.789772 25.00000000
34.724075 7.176183 -40.559639 25.00000000
34.548138 9.976591 -56.950817 25.00000000
34.758331 6.630953 -54.527149 25.00000000
34.587101 9.356409 -35.026691 25.00000000
34.751972 6.732173 -7.792717 25.00000000
34.650337 8.349919 -7.320139 25.00000000
34.638195 8.543159 -16.154396 25.00000000
34.572014 9.596603 -5.866333 25.00000000
34.775875 6.351721 -2.382505 25.00000000
34.470264 11.216079 -53.551823 25.00000000
34.762547 6.563875 -14.021162 25.00000000
34.455048 11.458337 -16.886326 25.00000000
34.707703 7.436830 -51.446945 25.00000000
34.746624 6.817299 -12.961002 25.00000000
34.641598 8.489007 -42.235420 25.00000000
34.671936 8.006118 -1.268368 25.00000000
34.658176 8.225116 -58.909229 25.00000000
34.597054 9.198044 0.351870 25.00000000
34.492599 10.860612 -55.851807 25.00000000
34.858593 5.035096 -13.061314 25.00000000
34.458969 11.395895 -3.878557 25.00000000
34.693054 7.669997 -33.757187 25.00000000
34.477383 11.102806 -48.437511 25.00000000
34.758003 6.636205 -42.564285 25.00000000
34.889847 4.537642 -39.841251 25.00000000
34.579914 9.470837 -36.079655 25.00000000
34.824665 5.575134 -26.774715 25.00000000
34.794006 6.063151 -31.651255 25.00000000
34.622864 8.787165 -54.410995 25.00000000
34.762222 6.569054 -35.616486 25.00000000
34.881817 4.665460 -55.806774 25.00000000
34.510017 10.583347 -44.056049 25.00000000
34.574974 9.549442 -40.295238 25.00000000
34.504044 10.678435 -52.508087 25.00000000
34.576794 9.520487 -43.429585 25.00000000
34.575085 9.547666 -61.056976 25.00000000
34.466763 11.271866 -29.713703 25.00000000
34.851139 5.153728 1.925640 25.00000000
34.852882 5.126010 -39.854027 25.00000000
34.855450 5.085124 -60.213299 25.00000000
34.458881 11.397298 -37.583057 25.00000000
34.573383 9.574761 -4.263199 25.00000000
34.466412 11.277441 -24.570719 25.00000000
34.697830 7.593946 -21.021276 25.00000000
34.497833 10.777294 -1.644791 25.00000000
34.835747 5.398771 -53.299404 25.00000000
34.517941 10.457274 -48.317886 25.00000000
34.596745 9.202942 -59.334026 25.00000000
34.667557 8.075814 -51.768543 25.00000000
34.498116 10.772779 -16.764153 25.00000000
34.740631 6.912682 -23.300505 25.00000000
34.862232 4.977198 -10.449176 25.00000000
34.880268 4.690067 -41.148193 25.00000000
34.594532 9.238131 -57.671440 25.00000000
34.532616 10.223672 -28.404106 25.00000000
34.849621 5.177894 -2.019330 25.00000000
34.903278 4.323828 -1.207319 25.00000000
34.617905 8.866099 -31.294401 25.00000000
34.475433 11.133822 -25.172956 25.00000000
34.802750 5.923972 -58.773087 25.00000000
34.820866 5.635587 -0.705209 25.00000000
34.735443 6.995247 -10.482696 25.00000000
34.500401 10.736431 -14.976044 25.00000000
34.564529 9.715668 -38.871948 25.00000000
34.844284 5.262859 -46.812057 25.00000000
34.588409 9.335572 -48.650730 25.00000000
34.696014 7.622839 2.220560 25.00000000
34.777336 6.328459 -36.202320 25.00000000
34.595940 9.215772 -27.852913 25.00000000
34.909996 4.216940 -37.059113 25.00000000
34.547592 9.985304 -8.522683 25.00000000
34.690296 7.713838 -14.227126 25.00000000
34.627781 8.708922 -3.217025 25.00000000
34.748501 6.787412 -31.209614 25.00000000
34.523746 10.364831 -38.758507 25.00000000
34.795963 6.031997 -18.719589 25.00000000
34.810394 5.802295 -56.088375 25.00000000
34.690609 7.708909 -31.281776 25.00000000
34.864204 4.945751 -22.394157 25.00000000
34.621181 8.813967 -24.442110 25.00000000
34.884350 4.625105 -59.852474 25.00000000
34.909538 4.224191 -42.568932 25.00000000
34.798134 5.997418 -35.672234 25.00000000
34.723969 7.177920 -54.304394 25.00000000
34.504906 10.664702 -8.705060 25.00000000
34.635208 8.590678 3.023734 25.00000000
34.583740 9.409909 -25.064505 25.00000000
34.818123 5.679287 -10.792619 25.00000000
34.681610 7.852140 -13.295172 25.00000000
34.494064 10.837270 1.916339 25.00000000
34.878204 4.722923 -42.157658 25.00000000
34.458813 11.398421 -39.398720 25.00000000
34.902317 4.339141 -17.868210 25.00000000
34.705303 7.474984 -53.801144 25.00000000
34.760010 6.604279 -31.897594 25.00000000
34.739937 6.923724 -4.426311 25.00000000
34.835285 5.406110 -19.566164 25.00000000
34.470058 11.219371 -14.334310 25.00000000
34.551678 9.920233 -18.083483 25.00000000
34.590149 9.307889 -29.013603 25.00000000
34.702988 7.511834 1.042597 25.00000000
34.575096 9.547494 -22.791950 25.00000000
34.519299 10.435639 -41.725910 25.00000000
34.698277 7.586848 -9.611856 25.00000000
34.820305 5.644545 -37.186451 25.00000000
34.822975 5.602021 -11.441194 25.00000000
34.864571 4.939960 -44.421600 25.00000000
34.805225 5.884539 -26.175255 25.00000000
34.463913 11.317216 -57.193680 25.00000000
34.529305 10.276357 -57.464882 25.00000000
34.748070 6.794299 -58.757141 25.00000000
34.910202 4.213656 -40.496445 25.00000000
34.724895 7.163148 -11.430415 25.00000000
34.576225 9.529512 -42.815292 25.00000000
34.653263 8.303322 -16.749798 25.00000000
34.465694 11.288818 -52.867622 25.00000000
34.596909 9.200318 -26.481274 25.00000000
34.727085 7.128325 3.783079 25.00000000
34.511257 10.563639 -56.962402 25.00000000
34.760616 6.594577 -1.753411 25.00000000
34.488014 10.933577 -40.355247 25.00000000
34.682941 7.830964 -40.705441 25.00000000
34.723083 7.191989 -28.723438 25.00000000
34.509418 10.592898 -5.984955 25.00000000
34.786743 6.178713 -37.446857 25.00000000
34.832024 5.458008 2.619043 25.00000000
34.561195 9.768743 -52.020344 25.00000000
34.816242 5.709190 -12.822647 25.00000000
34.711235 7.380584 -15.478413 25.00000000
34.855770 5.080009 -57.835281 25.00000000
34.675812 7.944421 -43.412357 25.00000000
34.471882 11.190349 -9.233764 25.00000000
34.554390 9.877101 -45.591698 25.00000000
34.837769 5.366553 -3.176302 25.00000000
34.564468 9.716658 -9.117197 25.00000000
34.565861 9.694491 -29.570110 25.00000000
34.517555 10.463377 -2.101930 25.00000000
34.655869 8.261873 -8.745508 25.00000000
34.496002 10.806449 -58.805000 25.00000000
34.526405 10.322525 -45.933857 25.00000000
34.663883 8.134251 -3.559263 25.00000000
34.825554 5.560960 -43.111843 25.00000000
34.627281 8.716858 -37.725124 25.00000000
34.496384 10.800354 -10.473169 25.00000000
34.877342 4.736665 -28.430357 25.00000000
34.886864 4.585098 -59.254601 25.00000000
34.453785 11.478408 -16.060452 25.00000000
34.724453 7.170188 -18.076668 25.00000000
34.668839 8.055391 -30.785938 25.00000000
34.592854 9.264839 -44.201191 25.00000000
34.464310 11.310865 -12.046518 25.00000000
34.778999 6.301962 -47.350826 25.00000000
34.900360 4.370319 -24.119568 25.00000000
34.539623 10.112128 -54.596184 25.00000000
34.659950 8.196880 -33.281002 25.00000000
34.654095 8.290093 -40.427597 25.00000000
34.661469 8.172710 -8.082484 25.00000000
34.619625 8.838732 -46.510941 25.00000000
34.858814 5.031592 -51.126122 25.00000000
34.597385 9.192712 -51.616486 25.00000000
34.700768 7.547200 -19.451935 25.00000000
34.631638 8.647526 -27.964493 25.00000000
34.764267 6.536494 -43.942696 25.00000000
34.568768 9.648239 -7.504183 25.00000000
34.534286 10.197078 -12.260554 25.00000000
34.904766 4.300156 -53.844715 25.00000000
34.875519 4.765705 -57.063911 25.00000000
34.876461 4.750680 -32.607323 25.00000000
34.554375 9.877307 -33.687244 25.00000000
34.781384 6.264026 -13.337698 25.00000000
34.900467 4.368610 -10.121466 25.00000000
34.848000 5.203714 -34.350639 25.00000000
34.810047 5.807793 -59.616032 25.00000000
34.696301 7.618311 3.041442 25.00000000
34.499981 10.743097 -49.550339 25.00000000
34.767365 6.487150 -18.311270 25.00000000
34.792286 6.090506 -4.856605 25.00000000
34.685921 7.783524 -58.502815 25.00000000
34.830776 5.477828 -38.479115 25.00000000
34.815235 5.725224 -29.474670 25.00000000
34.850002 5.171825 -26.012226 25.00000000
34.542347 10.068788 -33.076920 25.00000000
34.782368 6.248388 -44.438538 25.00000000
34.859386 5.022486 -26.955763 25.00000000
34.609741 8.996078 -2.700507 25.00000000
34.826080 5.552579 -55.520065 25.00000000
34.647831 8.389794 -39.319923 25.00000000
34.712345 7.362919 -58.143162 25.00000000
34.586510 9.365839 -25.885151 25.00000000
34.906479 4.272917 -33.284195 25.00000000
34.713383 7.346383 -41.124237 25.00000000
34.474091 11.155229 -30.317863 25.00000000
34.840538 5.322499 -35.665882 25.00000000
