-31.350933 -2.100663 -36.607513 18.00000000
-49.576317 -36.791740 -30.647390 18.00000000
-49.221306 -38.810078 -58.366898 18.00000000
-49.864204 -34.235439 -2.676563 18.00000000
-41.138195 -9.322912 -44.553040 18.00000000
-47.798878 -43.507488 -54.108803 18.00000000
-49.346294 -38.099461 -29.066353 18.00000000
-49.646797 -36.391037 -54.889446 18.00000000
-49.952747 -32.131668 -30.329916 18.00000000
-27.518803 -0.537412 1.873386 18.00000000
-49.954807 -31.284891 3.571337 18.00000000
-49.247532 -24.842972 -16.679199 18.00000000
-42.750717 -11.202143 -7.372722 18.00000000
-49.950172 -33.187786 1.805159 18.00000000
-47.079857 -18.308722 -3.023021 18.00000000
-47.864231 -20.207790 -51.276543 18.00000000
-48.064186 -20.771427 -48.048992 18.00000000
-49.717278 -27.592005 -59.372654 18.00000000
-49.083828 -24.208509 -28.001446 18.00000000
-34.795265 -4.016564 -30.027546 18.00000000
-42.509285 -10.906171 -19.151758 18.00000000
-28.881750 -1.028552 -1.974719 18.00000000
-49.956028 -30.784885 -9.312816 18.00000000
-24.251997 -0.342745 -9.622138 18.00000000
-44.772717 -14.004554 -23.512695 18.00000000
-44.334553 -13.361920 -42.868542 18.00000000
-28.743366 -0.974634 -15.058769 18.00000000
-49.719696 -35.868317 -1.444945 18.00000000
-49.952194 -32.358444 -60.770168 18.00000000
-37.804539 -6.189523 -9.818926 18.00000000
-49.060154 -24.117716 -23.491161 18.00000000
-47.670235 -43.864586 -14.401831 18.00000000
-43.145145 -11.685673 -50.416004 18.00000000
-33.388397 -3.167123 -6.902194 18.00000000
-46.795303 -45.853291 -21.289110 18.00000000
-47.429817 -19.078405 1.705646 18.00000000
-48.712936 -22.786106 -26.623884 18.00000000
-46.516026 -17.068668 -16.658085 18.00000000
-47.979172 -20.531792 -49.707775 18.00000000
-47.085648 -45.222923 -3.606572 18.00000000
-25.544563 -0.419768 -57.599777 18.00000000
-35.067951 -4.181206 -52.551788 18.00000000
-47.454796 -19.133347 -37.099140 18.00000000
-49.956100 -30.754244 -36.395714 18.00000000
-45.287453 -14.841473 -37.807472 18.00000000
-48.243561 -21.277050 0.591839 18.00000000
-49.952015 -32.431690 -49.968182 18.00000000
-49.424423 -37.655296 -21.642097 18.00000000
-48.502056 -41.536179 -45.284729 18.00000000
-46.350891 -16.731148 -52.872219 18.00000000
-23.010826 -0.268784 -47.366936 18.00000000
-30.046082 -1.482210 -44.031406 18.00000000
-46.341385 -46.838825 -4.933067 18.00000000
-49.716862 -35.900333 -40.660252 18.00000000
-49.133755 -24.399979 -47.623566 18.00000000
-43.185169 -11.734738 -42.531864 18.00000000
-48.452061 -41.694340 -29.944532 18.00000000
-44.988209 -14.320612 -41.431355 18.00000000
-47.664780 -19.645576 -0.044123 18.00000000
-23.392441 -0.291524 -43.377712 18.00000000
-49.294880 -38.391785 -12.933421 18.00000000
-49.951057 -32.824566 -46.568974 18.00000000
-48.086922 -20.835512 -28.780466 18.00000000
-49.723232 -27.640062 -24.416447 18.00000000
-33.757008 -3.389684 -55.763855 18.00000000
-47.656712 -19.622843 -59.534508 18.00000000
-49.894962 -29.694569 -1.867853 18.00000000
-49.729427 -27.714176 -5.514064 18.00000000
-26.728354 -0.490310 -16.927168 18.00000000
-49.888351 -29.615492 -12.217011 18.00000000
-23.012026 -0.268856 -50.501904 18.00000000
-31.944893 -2.392979 -45.185299 18.00000000
-48.041210 -42.834801 -47.021408 18.00000000
-49.956257 -30.689981 -49.071533 18.00000000
-25.516418 -0.418091 -5.659609 18.00000000
-35.314846 -4.339419 -15.576171 18.00000000
-29.381048 -1.223094 -31.553261 18.00000000
-38.018658 -6.375379 -22.214190 18.00000000
-27.180687 -0.517264 -47.728336 18.00000000
-46.885208 -17.880627 -38.306870 18.00000000
-33.883625 -3.466132 -34.460480 18.00000000
-49.950668 -32.984844 3.482335 18.00000000
-42.609600 -11.029145 -41.045601 18.00000000
-47.917439 -43.178383 -56.776043 18.00000000
-49.716297 -27.586275 -52.971199 18.00000000
-49.845539 -29.103313 -45.874001 18.00000000
-47.634792 -43.962963 -10.582932 18.00000000
-48.744892 -40.623131 -43.027260 18.00000000
-38.880512 -7.123474 -58.524620 18.00000000
-41.111176 -9.295051 -55.776134 18.00000000
-48.544716 -22.140963 -51.249336 18.00000000
-47.526218 -44.264355 -38.185192 18.00000000
-31.917391 -2.379444 -52.213917 18.00000000
-21.428679 -0.174505 -52.694233 18.00000000
-40.449032 -8.612322 -5.872358 18.00000000
-49.466656 -37.415192 -10.827790 18.00000000
-54.369801 -18.544556 -21.177620 19.00000000
-43.413918 -2.242474 -36.428181 19.00000000
-49.720715 -9.430899 -12.050877 19.00000000
-47.699314 -6.729647 -56.088577 19.00000000
-43.477371 -2.298023 -54.976704 19.00000000
-56.579334 -34.013046 -31.023529 19.00000000
-54.466320 -18.833492 -61.009914 19.00000000
-27.705751 6.395408 -33.788265 19.00000000
-56.550648 -29.533939 -18.099800 19.00000000
-55.571835 -22.735058 -34.646378 19.00000000
-43.495670 -2.314041 -31.109577 19.00000000
-21.762932 7.934461 -40.182858 19.00000000
-56.205814 -26.100174 3.559058 19.00000000
-55.894268 -24.182802 -25.627069 19.00000000
-43.737301 -2.525565 -29.400267 19.00000000
-54.133251 -17.947607 2.217086 19.00000000
-47.962132 -7.045766 -2.335601 19.00000000
-56.150417 -25.707239 -51.077229 19.00000000
-38.702984 1.380945 -28.701271 19.00000000
-31.357546 5.176083 -41.479782 19.00000000
-56.607815 -32.438915 -29.681932 19.00000000
-56.616562 -31.955345 -3.259514 19.00000000
-40.251415 0.308770 -55.403252 19.00000000
-27.100990 6.552027 -51.600693 19.00000000
-37.933979 1.864041 -49.267456 19.00000000
-45.490532 -4.244028 -34.718700 19.00000000
-56.497932 -28.670689 1.912271 19.00000000
-45.623150 -4.380068 -25.989393 19.00000000
-36.997456 2.452377 -25.194267 19.00000000
-23.493641 7.486248 2.341311 19.00000000
-46.213768 -4.985925 -30.497929 19.00000000
-25.574928 6.947242 -34.942020 19.00000000
-53.856361 -17.248854 -34.436481 19.00000000
-29.743271 5.742710 -25.395679 19.00000000
-21.945892 7.887079 -28.373257 19.00000000
-48.325100 -7.482351 -29.287031 19.00000000
-50.645206 -10.842137 -55.753895 19.00000000
-36.738914 2.614471 -10.894106 19.00000000
-41.545448 -0.654627 -51.022224 19.00000000
-33.745369 4.158751 -42.528912 19.00000000
-54.722649 -19.667381 -43.849907 19.00000000
-25.132833 7.061735 -41.042793 19.00000000
-23.977192 7.361019 -34.230827 19.00000000
-30.617594 5.449408 -2.225439 19.00000000
-56.565205 -29.772297 -58.404507 19.00000000
-25.431854 6.984295 1.947084 19.00000000
-52.547630 -14.287698 -6.051548 19.00000000
-52.453758 -14.096485 -41.509251 19.00000000
-44.523376 -3.251917 -9.379185 19.00000000
-25.211550 7.041349 -28.252506 19.00000000
-37.268322 2.282215 -21.465508 19.00000000
-46.267349 -5.040888 -56.075127 19.00000000
-56.582462 -33.840614 -9.827184 19.00000000
-41.024376 -0.266692 -31.412287 19.00000000
-38.537571 1.484858 -7.167359 19.00000000
-27.349455 6.487681 -8.653201 19.00000000
-55.873093 -24.087711 -2.295443 19.00000000
-54.922726 -20.318277 -56.807346 19.00000000
-26.943550 6.592801 -12.461582 19.00000000
-27.731112 6.388841 -36.867104 19.00000000
-51.049683 -11.523944 1.597330 19.00000000
-56.606548 -30.449324 -35.085541 19.00000000
-54.117336 -17.907444 -36.756191 19.00000000
-41.487892 -0.611778 -54.636322 19.00000000
-55.439369 -22.140289 -28.805456 19.00000000
-50.751991 -11.022143 0.039195 19.00000000
-29.044134 5.977244 -48.756470 19.00000000
-51.439812 -12.181564 -7.701932 19.00000000
-46.646877 -5.463763 -3.582505 19.00000000
-40.075146 0.440002 -17.113602 19.00000000
-55.917889 -24.288847 -30.265945 19.00000000
-24.047205 7.342887 -60.837265 19.00000000
-28.636513 6.113986 -7.795957 19.00000000
-56.417965 -27.604897 -26.316729 19.00000000
-34.880074 3.586562 -3.919851 19.00000000
-56.174355 -25.877043 -56.967152 19.00000000
-23.216288 7.558075 -36.315628 19.00000000
-33.126453 4.422440 -0.538698 19.00000000
-53.151062 -15.516821 -46.421028 19.00000000
-55.070953 -20.800501 -51.032684 19.00000000
-55.407120 -21.995489 -43.694530 19.00000000
-53.390629 -16.073549 -54.182156 19.00000000
-50.431801 -10.482410 -33.306049 19.00000000
-50.503239 -10.602827 -46.464443 19.00000000
-51.682365 -12.590425 -15.768053 19.00000000
-46.720295 -5.552067 -23.195683 19.00000000
-54.746689 -19.745602 -27.899014 19.00000000
-34.551102 3.758601 -19.465994 19.00000000
-53.939667 -17.459080 -10.501503 19.00000000
-36.250896 2.869682 -30.443941 19.00000000
-56.634079 -30.986530 -15.081781 19.00000000
-37.775444 1.963634 -32.666672 19.00000000
-49.141788 -8.610499 -43.915565 19.00000000
-49.743526 -9.463227 0.271898 19.00000000
-22.951109 7.626751 -16.926865 19.00000000
-50.287937 -10.239907 -19.877600 19.00000000
-55.501270 -22.418226 -2.353843 19.00000000
-40.031166 0.472743 3.862509 19.00000000
-47.921795 -6.997251 -38.854359 19.00000000
-31.288473 5.205511 -13.112970 19.00000000
-56.581036 -33.919518 -13.926316 19.00000000
-48.420982 -7.597681 -40.946972 19.00000000
-47.320145 -6.273578 -15.091656 19.00000000
-47.362659 -6.324714 -16.793018 19.00000000
-54.273186 -18.300737 -47.969940 19.00000000
-21.657589 7.961743 -44.019958 19.00000000
-43.041248 -1.916242 -38.316254 19.00000000
-36.651531 2.660167 0.781833 19.00000000
-40.712917 -0.034814 1.772258 19.00000000
-52.290318 -13.763578 -21.109138 19.00000000
-44.076641 -2.822622 -4.454029 19.00000000
-23.115826 7.584093 -51.895786 19.00000000
-34.065128 4.012743 -12.041253 19.00000000
-40.842785 -0.131500 -18.781176 19.00000000
-56.236759 -26.319668 -39.501808 19.00000000
-56.442410 -27.778292 3.816555 19.00000000
-48.712948 -8.002785 2.481402 19.00000000
-53.204994 -15.626671 -60.382832 19.00000000
-38.045849 1.793763 -36.038754 19.00000000
-29.413906 5.853199 -45.683113 19.00000000
-38.214146 1.688036 -45.355263 19.00000000
-56.530830 -29.209435 -12.351596 19.00000000
-24.403893 7.250513 -1.002730 19.00000000
-47.433784 -6.410265 -51.639133 19.00000000
-54.625378 -19.350945 -1.593533 19.00000000
-53.607525 -16.620901 -23.826101 19.00000000
-39.797642 0.646600 -24.314936 19.00000000
-54.522926 -19.017651 -38.136196 19.00000000
-55.047714 -20.724901 2.849350 19.00000000
-49.779682 -9.514467 -51.385715 19.00000000
-45.068153 -3.810750 -36.512379 19.00000000
-22.084402 7.851208 1.651452 19.00000000
-56.306389 -26.813503 -14.519819 19.00000000
-26.778002 6.635674 -27.865282 19.00000000
-49.002026 -8.412439 -38.779602 19.00000000
-26.881912 6.608764 -3.536077 19.00000000
-39.239304 1.044021 -59.130199 19.00000000
-40.961010 -0.219519 -49.562641 19.00000000
-39.774570 0.663776 -20.002609 19.00000000
-24.359278 7.262068 -4.688557 19.00000000
-52.744514 -14.688727 -14.268590 19.00000000
-56.580879 -33.927433 -40.923908 19.00000000
-56.502644 -28.747852 -35.254028 19.00000000
-52.467861 -14.125213 -45.349033 19.00000000
-54.570744 -19.173204 -58.945789 19.00000000
-29.888126 5.694116 -27.561071 19.00000000
-56.579418 -34.007954 -51.052212 19.00000000
-36.506638 2.735940 -27.151251 19.00000000
-37.215591 2.315342 -15.596465 19.00000000
-37.657242 2.037892 -1.869810 19.00000000
-25.617750 6.936152 -13.719606 19.00000000
-38.527740 1.491034 -39.188381 19.00000000
-56.626881 -30.782263 -43.349979 19.00000000
-30.502319 5.488078 -59.225719 19.00000000
-39.490005 0.875636 -33.954365 19.00000000
-26.149803 6.798363 -38.987843 19.00000000
-44.515831 -3.244179 -45.274719 19.00000000
-27.845566 6.359200 -13.713729 19.00000000
-48.951302 -8.340561 -13.079579 19.00000000
-56.582535 -33.836006 -43.705273 19.00000000
-51.589024 -12.433089 -51.060806 19.00000000
-36.186771 2.903216 -18.167299 19.00000000
-53.040421 -15.291455 -34.513264 19.00000000
-27.893267 6.346846 -29.336500 19.00000000
-55.357811 -21.774084 -18.955271 19.00000000
-55.687428 -23.254072 -12.206370 19.00000000
-30.774548 5.396756 -3.862340 19.00000000
-52.951992 -15.111334 -20.597534 19.00000000
-56.396851 -27.455149 -57.175144 19.00000000
-28.884951 6.030644 -50.347244 19.00000000
-55.641453 -23.047647 -45.379169 19.00000000
-56.512512 -28.909439 -14.124713 19.00000000
-25.587078 6.944096 -52.112320 19.00000000
-24.041098 7.344469 -25.084690 19.00000000
-21.567715 7.985018 -13.474493 19.00000000
-46.034500 -4.802031 -4.993583 19.00000000
-41.694935 -0.765919 -8.282585 19.00000000
-25.512836 6.963323 -46.868156 19.00000000
-24.764408 7.157148 -26.425417 19.00000000
-56.379627 -27.332972 -20.176828 19.00000000
-45.310684 -4.059541 -3.062513 19.00000000
-53.941021 -17.462503 -3.899317 19.00000000
-56.551350 -29.545395 -5.067900 19.00000000
-42.656250 -1.579215 -22.217091 19.00000000
-43.814369 -2.593031 -2.752144 19.00000000
-37.942120 1.858927 2.718317 19.00000000
-51.931633 -13.032975 -14.268647 19.00000000
-55.932697 -24.355341 -38.850033 19.00000000
-32.493519 4.692102 -27.348059 19.00000000
-56.524998 -29.113899 -60.533569 19.00000000
-22.343405 7.784132 -11.693642 19.00000000
-39.051987 1.161695 -9.148581 19.00000000
-21.830700 7.916911 -54.293423 19.00000000
-55.523098 -22.516233 -8.278122 19.00000000
-30.613863 5.450659 -33.634285 19.00000000
-30.547192 5.473025 -61.088249 19.00000000
-47.508209 -6.499785 -18.422630 19.00000000
-28.494785 6.161530 -58.381023 19.00000000
-23.475895 7.490844 -49.944550 19.00000000
-34.175613 3.954965 -17.892548 19.00000000
-50.479935 -10.563547 -6.734924 19.00000000
-48.866264 -8.220055 -56.923042 19.00000000
-54.672169 -19.503160 -13.425729 19.00000000
-53.451977 -16.228359 -43.089516 19.00000000
-56.613190 -32.141636 -21.877504 19.00000000
-28.009609 6.316716 -24.505447 19.00000000
-29.522377 5.816812 -36.325672 19.00000000
-40.702377 -0.026968 -33.512444 19.00000000
-56.169880 -25.845301 -19.810961 19.00000000
-52.241760 -13.664674 -49.143482 19.00000000
-49.082024 -8.525809 -31.244612 19.00000000
-45.532112 -4.286681 -33.132240 19.00000000
-31.219662 5.234828 -38.547714 19.00000000
-42.084545 -1.078746 0.687528 19.00000000
-43.945980 -2.708242 -14.586078 19.00000000
-45.698650 -4.457519 -59.045219 19.00000000
-54.472351 -18.853121 -29.864702 19.00000000
-28.130184 6.283840 2.735107 19.00000000
-52.601669 -14.397763 -30.768724 19.00000000
-44.821747 -3.557988 -19.908142 19.00000000
-55.558598 -22.675631 3.799646 19.00000000
-40.019760 0.481236 -7.682078 19.00000000
-32.310741 4.769973 -7.831018 19.00000000
-56.494953 -28.621960 -42.319546 19.00000000
-55.541668 -22.599613 -14.022488 19.00000000
-54.661003 -19.466848 1.283626 19.00000000
-35.317055 3.358040 -58.883366 19.00000000
-53.949841 -17.484756 -30.756559 19.00000000
-49.565983 -9.211627 -16.519566 19.00000000
-51.096661 -11.603132 -17.104862 19.00000000
-46.303898 -5.078381 -43.649300 19.00000000
-23.593239 7.460454 -8.399663 19.00000000
-52.585941 -14.365729 -8.469027 19.00000000
-26.866617 6.612724 -15.139519 19.00000000
-34.907280 3.572334 -2.091776 19.00000000
-42.209896 -1.188477 -58.235184 19.00000000
-56.255486 -26.452473 -58.720203 19.00000000
-56.617931 -30.635715 -2.323762 19.00000000
-41.106880 -0.328118 -10.699065 19.00000000
-56.478840 -28.358047 -54.041286 19.00000000
-41.731457 -0.793110 -37.403904 19.00000000
-51.711319 -12.639235 -54.697174 19.00000000
-47.439240 -6.416828 -24.710205 19.00000000
-25.298700 7.018779 -2.773582 19.00000000
-48.098457 -7.209744 -5.944077 19.00000000
-56.384766 -27.369425 -44.389774 19.00000000
-45.939365 -4.704441 -20.551323 19.00000000
-53.270752 -15.771030 -5.174509 19.00000000
-25.163839 7.053705 -10.948186 19.00000000
-55.881908 -24.127310 -3.840715 19.00000000
-32.823860 4.551359 -10.497159 19.00000000
-46.836990 -5.692430 -45.846554 19.00000000
-56.627483 -30.792143 -31.136345 19.00000000
-24.291538 7.279610 -53.542194 19.00000000
-38.808323 1.314768 -18.869038 19.00000000
-55.267067 -21.438494 -9.638042 19.00000000
-36.475494 2.752227 -52.211212 19.00000000
-43.741570 -2.529303 -21.545631 19.00000000
-40.149033 0.384993 -2.019431 19.00000000
-56.632721 -31.061623 -25.999119 19.00000000
-56.609085 -32.368774 -7.327688 19.00000000
-56.445263 -27.808264 -4.624775 19.00000000
-44.258709 -2.982004 -27.410316 19.00000000
-56.412281 -27.564585 -60.493664 19.00000000
-54.898979 -20.241034 -17.611774 19.00000000
-51.744720 -12.695535 -28.670231 19.00000000
-56.395405 -27.444897 -51.950111 19.00000000
-43.012573 -1.891139 2.229448 19.00000000
-32.019608 4.894012 -1.611598 19.00000000
-55.810669 -23.807432 -7.006942 19.00000000
-28.773899 6.067897 -4.443929 19.00000000
-42.025223 -1.026815 -39.090424 19.00000000
-23.738745 7.422771 -27.787239 19.00000000
-27.193977 6.527946 1.107410 19.00000000
-22.149422 7.834369 -34.886623 19.00000000
-54.895958 -20.231203 -47.167179 19.00000000
-55.545013 -22.614630 -4.124394 19.00000000
-46.684422 -5.508919 -35.976196 19.00000000
-49.401066 -8.977924 -27.418177 19.00000000
-56.600449 -32.846268 3.839707 19.00000000
-55.877930 -24.109438 0.529995 19.00000000
-50.108093 -9.979860 -3.477045 19.00000000
-54.125904 -17.929070 -22.958788 19.00000000
-53.706738 -16.871265 -8.776223 19.00000000
-55.506348 -22.441011 -39.770287 19.00000000
-54.545174 -19.090027 -51.565990 19.00000000
-55.089317 -20.860241 -23.329336 19.00000000
-56.617138 -31.923393 -40.558876 19.00000000
-52.827446 -14.857649 -1.557072 19.00000000
-49.195126 -8.686084 -25.532003 19.00000000
-54.736900 -19.713755 -53.725979 19.00000000
-44.753204 -3.487677 -54.851944 19.00000000
-30.363283 5.534719 -21.081089 19.00000000
-46.110756 -4.880256 -13.376133 19.00000000
-37.902271 1.883960 -27.095106 19.00000000
-47.342205 -6.300113 -34.705593 19.00000000
-56.580093 -33.970600 -55.179123 19.00000000
-47.853008 -6.914511 -45.251602 19.00000000
-34.387394 3.844213 -53.742805 19.00000000
-38.681923 1.394174 -61.008003 19.00000000
-55.693192 -23.279961 -52.563457 19.00000000
-31.471512 5.127527 -52.427574 19.00000000
-55.254234 -21.396753 -60.685986 19.00000000
-53.810410 -17.132895 -55.495113 19.00000000
-23.627213 7.451656 -3.232911 19.00000000
-40.885433 -0.163250 -15.635376 19.00000000
-56.189201 -25.982328 -23.519251 19.00000000
-36.380150 2.802088 -41.825516 19.00000000
-52.080364 -13.335927 -22.634298 19.00000000
-55.816998 -23.835846 -50.735134 19.00000000
-55.507591 -22.446608 -20.853048 19.00000000
-40.509212 0.116842 -9.238077 19.00000000
-46.886662 -5.752177 -32.954399 19.00000000
-37.861816 1.909375 -12.941807 19.00000000
-54.267166 -18.285551 0.324332 19.00000000
-27.730030 6.389120 -42.601982 19.00000000
-53.566460 -16.517263 3.611475 19.00000000
-55.799892 -23.759045 -40.795425 19.00000000
-32.156704 4.835601 -11.924165 19.00000000
-25.056868 7.081408 3.743799 19.00000000
-22.638758 7.707642 -60.408146 19.00000000
-35.898277 3.054086 -44.493774 19.00000000
-33.492435 4.266514 -4.284489 19.00000000
-46.602650 -5.410565 -52.608582 19.00000000
-37.198521 2.326065 -6.628944 19.00000000
-29.698458 5.757744 -51.772484 19.00000000
-48.289299 -7.439290 -25.902611 19.00000000
-55.415428 -22.032787 -48.642200 19.00000000
-56.177525 -25.899527 -29.387400 19.00000000
-56.608891 -30.487684 -54.786926 19.00000000
-31.928850 4.932678 -57.708241 19.00000000
-29.930704 5.679833 -32.113998 19.00000000
-56.545940 -29.456825 -15.989111 19.00000000
-56.487507 -28.500027 -9.024926 19.00000000
-56.278629 -26.616617 -6.767232 19.00000000
-36.650486 2.660714 -3.492269 19.00000000
-30.323099 5.548199 -17.402367 19.00000000
-25.149950 7.057302 -15.469871 19.00000000
-35.124413 3.458784 -48.799114 19.00000000
-54.398418 -18.616777 -45.731903 19.00000000
-50.625328 -10.808630 -37.154900 19.00000000
-55.333378 -21.664381 -6.886279 19.00000000
-50.118259 -9.994266 2.050148 19.00000000
-40.207302 0.341612 -30.213911 19.00000000
-56.465843 -28.145248 -11.128991 19.00000000
-54.745209 -19.740774 -6.019119 19.00000000
-56.599472 -32.899593 -46.294327 19.00000000
-53.848129 -17.228079 -6.148280 19.00000000
-44.913692 -3.652306 -5.532903 19.00000000
-28.011602 6.316200 -38.951977 19.00000000
-46.850945 -5.709214 -58.904018 19.00000000
-55.027351 -20.658653 -3.448467 19.00000000
-44.271881 -2.993935 -25.339294 19.00000000
-21.772156 7.932073 3.271702 19.00000000
-56.623032 -31.597311 -49.334599 19.00000000
-52.139576 -13.456534 -18.070335 19.00000000
-38.086914 1.767966 -4.492289 19.00000000
-48.272728 -7.419356 -52.905300 19.00000000
-55.004505 -20.584332 -25.291342 19.00000000
-42.468403 -1.414773 -1.103394 19.00000000
-33.251858 4.369011 -31.885050 19.00000000
-56.577496 -29.973557 -47.890800 19.00000000
-39.123863 1.116541 2.067914 19.00000000
-55.047642 -20.724663 -38.594620 19.00000000
-43.168076 -2.027265 -8.916905 19.00000000
-52.239052 -13.659154 0.255483 19.00000000
-49.833282 -9.590423 -36.275826 19.00000000
-37.367153 2.220128 -43.755245 19.00000000
-56.585869 -33.651829 -36.739864 19.00000000
-34.463848 3.804230 -29.104834 19.00000000
-30.523973 5.480814 -19.275902 19.00000000
-56.627476 -31.351604 -0.798714 19.00000000
-35.072124 3.486129 -37.458916 19.00000000
-52.238930 -13.658906 -46.939312 19.00000000
-32.646622 4.626872 -43.979118 19.00000000
-41.614307 -0.705893 -20.292837 19.00000000
-34.971699 3.538647 -7.665094 19.00000000
-54.232788 -18.198797 -57.356575 19.00000000
-56.200649 -26.063547 -47.226284 19.00000000
-51.133465 -11.665173 -14.478548 19.00000000
-48.754147 -8.061171 -21.838646 19.00000000
-51.496075 -12.276405 -34.112690 19.00000000
-56.631004 -31.156616 -20.681229 19.00000000
-46.594929 -5.401275 -48.552631 19.00000000
-56.579041 -29.998833 -10.203733 19.00000000
-53.063419 -15.338298 -18.947472 19.00000000
-26.647610 6.669443 -25.281271 19.00000000
-52.704975 -14.608187 -57.270924 19.00000000
-55.825886 -23.875751 -49.133507 19.00000000
-45.775368 -4.536214 -50.873611 19.00000000
-38.748737 1.352199 -17.124531 19.00000000
-25.021740 7.090505 -36.689369 19.00000000
-47.167965 -6.090535 -57.450371 19.00000000
-56.591152 -33.360104 -16.262991 19.00000000
-47.532345 -6.528815 -13.042513 19.00000000
-23.308582 7.534173 -48.381718 19.00000000
-51.399715 -12.113975 3.586524 19.00000000
-56.615993 -31.986576 -35.652050 19.00000000
-29.409773 5.854586 -0.633859 19.00000000
-49.217308 -8.717520 -20.171303 19.00000000
-54.056606 -17.754192 -44.256493 19.00000000
-22.096861 7.847982 -8.676230 19.00000000
-36.116642 2.939891 -1.132092 19.00000000
-56.597672 -30.303923 -39.535141 19.00000000
-48.538612 -7.755736 -1.076922 19.00000000
-56.545254 -29.445627 -26.068748 19.00000000
-43.209393 -2.063435 -45.298309 19.00000000
-56.557384 -29.644226 -0.670154 19.00000000
-31.959028 4.919821 -18.206709 19.00000000
-53.207584 -15.631952 -2.826882 19.00000000
-52.571217 -14.335737 -32.409748 19.00000000
-54.971241 -20.476114 -42.141163 19.00000000
-55.247124 -21.373621 -26.997274 19.00000000
-56.621265 -30.690275 -12.582511 19.00000000
-34.634834 3.714811 -41.002277 19.00000000
-45.055717 -3.797995 2.916508 19.00000000
-44.324696 -3.048112 1.503807 19.00000000
-21.570368 7.984331 -20.973499 19.00000000
-22.897541 7.640624 -55.558098 19.00000000
-50.426369 -10.473252 -48.332603 19.00000000
-50.853119 -11.192603 -23.214640 19.00000000
-53.328697 -15.917257 -30.550764 19.00000000
-45.119972 -3.863908 -29.537146 19.00000000
-39.982876 0.508697 -40.977146 19.00000000
-49.666473 -9.354037 -29.963879 19.00000000
-34.879417 3.586906 2.731446 19.00000000
-51.972202 -13.115612 -53.079773 19.00000000
-56.579826 -33.986267 -19.686115 19.00000000
-56.585815 -33.654411 -53.301907 19.00000000
-46.518116 -5.308886 -11.474460 19.00000000
-30.178207 5.596805 -40.181805 19.00000000
-36.670021 2.650498 -19.814867 19.00000000
-27.004631 6.576982 -47.076263 19.00000000
-55.025024 -20.651087 -36.641106 19.00000000
-25.839397 6.878751 -9.157592 19.00000000
-26.065428 6.820214 -53.691227 19.00000000
-56.585777 -33.656918 -35.195919 19.00000000
-32.316883 4.767357 -55.994789 19.00000000
-28.861273 6.038587 -14.974423 19.00000000
-22.161934 7.831129 -57.606056 19.00000000
-30.948994 5.338235 -44.389668 19.00000000
-51.321213 -11.981651 -21.957724 19.00000000
-52.501072 -14.192858 -15.982736 19.00000000
-21.925072 7.892471 -50.509220 19.00000000
-28.556751 6.140743 -20.099592 19.00000000
-38.906265 1.253238 -48.178486 19.00000000
-42.866970 -1.763678 -24.675131 19.00000000
-39.891346 0.576839 -5.970843 19.00000000
-48.071308 -7.177089 -9.375112 19.00000000
-53.229771 -15.677144 -52.300869 19.00000000
-38.099136 1.760287 -0.241436 19.00000000
-25.851910 6.875511 -0.035033 19.00000000
-36.340042 2.823062 -9.003813 19.00000000
-56.617779 -31.887953 -9.026354 19.00000000
-56.459415 -28.040003 -36.855614 19.00000000
-28.632353 6.115381 -40.566025 19.00000000
-47.101566 -6.010667 -26.279205 19.00000000
-32.792549 4.564699 -38.300369 19.00000000
-55.073410 -20.808495 -1.270661 19.00000000
-33.616863 4.213500 -59.747356 19.00000000
-42.993195 -1.874175 -49.777611 19.00000000
-41.145981 -0.357227 -23.940264 19.00000000
-53.213673 -15.644349 -44.735901 19.00000000
-52.938484 -15.083823 -49.599613 19.00000000
-50.713966 -10.958043 -54.198776 19.00000000
-56.556118 -29.623499 -38.021881 19.00000000
-38.662518 1.406364 -37.429600 19.00000000
-50.701984 -10.937844 -60.341560 19.00000000
-51.227917 -11.824387 -11.592677 19.00000000
-48.530910 -7.744820 -14.532903 19.00000000
-35.881596 3.062811 -21.921858 19.00000000
-47.033783 -5.929138 -1.561086 19.00000000
-37.656120 2.038596 -30.686239 19.00000000
-47.293198 -6.241163 -7.179182 19.00000000
-47.270531 -6.213902 -28.964066 19.00000000
-21.702681 7.950065 -19.125957 19.00000000
-55.755199 -23.558372 -18.056973 19.00000000
-31.978853 4.911374 -4.958388 19.00000000
-42.509842 -1.451051 -56.316841 19.00000000
-56.350510 -27.126448 -41.174740 19.00000000
-55.366585 -21.813473 -17.191143 19.00000000
-54.649654 -19.429918 -22.673479 19.00000000
-42.817200 -1.720109 -16.997070 19.00000000
-33.227154 4.379536 -49.686951 19.00000000
-53.924629 -17.421133 -39.190159 19.00000000
-48.255665 -7.398835 -23.448837 19.00000000
-41.723278 -0.787022 -46.141064 19.00000000
-38.979610 1.207162 -54.340294 19.00000000
-34.143028 3.972004 -6.355445 19.00000000
-51.743923 -12.694196 -42.938770 19.00000000
-54.953392 -20.418047 -30.121325 19.00000000
-54.557995 -19.131729 -15.293594 19.00000000
-31.765553 5.002252 -54.450970 19.00000000
-32.219730 4.808748 -23.270699 19.00000000
-56.606781 -32.496098 -25.085146 19.00000000
-55.274689 -21.463293 -52.940914 19.00000000
-45.040600 -3.782489 -14.603982 19.00000000
-45.036816 -3.778605 -11.656620 19.00000000
-53.561565 -16.504913 -47.701691 19.00000000
-56.298141 -26.755035 -10.559393 19.00000000
-35.195320 3.421703 -24.844036 19.00000000
-56.524490 -29.105593 -3.518976 19.00000000
-46.257694 -5.030986 -60.699780 19.00000000
-47.834873 -6.892701 -47.018799 19.00000000
-55.891689 -24.171225 -23.853989 19.00000000
-56.142822 -25.653378 -2.006150 19.00000000
-53.954723 -17.497084 -40.757210 19.00000000
-22.791868 7.667991 -1.491092 19.00000000
-54.237812 -18.211473 -26.904444 19.00000000
-56.112484 -25.438202 -41.213524 19.00000000
-33.395222 4.307931 -2.513533 19.00000000
-28.607290 6.123789 -46.909920 19.00000000
-34.821934 3.616967 -0.346125 19.00000000
-56.305695 -26.808601 -33.596516 19.00000000
-55.153027 -21.067493 -45.103355 19.00000000
-43.775944 -2.559393 -43.721577 19.00000000
-56.524231 -29.101337 -56.857113 19.00000000
-51.123135 -11.647757 -9.926558 19.00000000
-21.650166 7.963665 0.082267 19.00000000
-53.879440 -17.307100 -32.472626 19.00000000
-29.892965 5.692493 -41.766277 19.00000000
-49.665283 -9.352349 -42.520870 19.00000000
-48.267395 -7.412941 -42.632793 19.00000000
-56.052143 -25.010231 -10.464442 19.00000000
-28.880005 6.032304 -60.166298 19.00000000
-55.997185 -24.644890 -32.843616 19.00000000
-42.566483 -1.500633 -18.933384 19.00000000
-43.062305 -1.934675 -34.454250 19.00000000
-56.604588 -30.417229 -51.117405 19.00000000
-56.451370 -27.908251 -16.118708 19.00000000
-26.699774 6.655933 -55.393394 19.00000000
-55.271690 -21.453535 1.104646 19.00000000
-56.632793 -31.057657 -16.908293 19.00000000
-42.559765 -1.494753 -3.055697 19.00000000
-48.868992 -8.223917 -2.968217 19.00000000
-40.891266 -0.167594 -57.081490 19.00000000
-34.918522 3.566455 -61.039200 19.00000000
-51.490925 -12.267725 -26.535105 19.00000000
-21.854551 7.910734 -4.766013 19.00000000
-50.603161 -10.771263 -58.285713 19.00000000
-49.723583 -9.434965 -49.368462 19.00000000
-52.698891 -14.595792 -53.672462 19.00000000
-35.283836 3.375411 -32.195396 19.00000000
-39.463745 0.895185 -35.745213 19.00000000
-53.105629 -15.424280 -28.472351 19.00000000
-24.543409 7.214382 -31.456556 19.00000000
-49.407932 -8.987657 3.448564 19.00000000
-54.096848 -17.855742 -1.677187 19.00000000
-55.016232 -20.622473 -15.889058 19.00000000
-31.516100 5.108531 -36.208115 19.00000000
-53.479275 -16.297253 -27.067907 19.00000000
-53.337452 -15.939352 -33.170139 19.00000000
-35.877811 3.064789 -34.158836 19.00000000
-27.272055 6.507726 -6.605584 19.00000000
-52.859180 -14.922287 -47.801777 19.00000000
-30.994774 5.322878 -24.197556 19.00000000
-30.416586 5.516838 -57.420856 19.00000000
-36.667999 2.651556 -45.831139 19.00000000
-23.975126 7.361554 -58.460358 19.00000000
-44.449211 -3.175841 -32.913719 19.00000000
-50.515182 -10.622964 -10.872456 19.00000000
-49.438496 -9.030967 -40.912155 19.00000000
-56.581734 -33.880024 -49.096989 19.00000000
-25.451075 6.979317 -42.640072 19.00000000
-51.427670 -12.161096 -32.180344 19.00000000
-50.245605 -10.174726 -44.007385 19.00000000
-54.499935 -18.942856 -55.255928 19.00000000
-56.413239 -27.571371 -30.123796 19.00000000
-26.093735 6.812883 -5.265290 19.00000000
-42.641697 -1.566475 -10.951774 19.00000000
-54.581264 -19.207434 -10.084581 19.00000000
-45.125546 -3.869627 -60.893761 19.00000000
-40.409592 0.191009 -39.012665 19.00000000
-39.605888 0.789360 -49.649323 19.00000000
-34.054985 4.018048 1.280418 19.00000000
-32.934883 4.504059 -40.613499 19.00000000
-55.162376 -21.097914 -40.772236 19.00000000
-52.280277 -13.743128 -27.148518 19.00000000
-52.783276 -14.767678 2.926923 19.00000000
-42.161449 -1.146067 -5.004809 19.00000000
-32.980621 4.484571 -45.602985 19.00000000
-47.130047 -6.044925 -5.643104 19.00000000
-51.785198 -12.763770 -2.517599 19.00000000
-27.068708 6.560388 -49.969929 19.00000000
-34.624893 3.720011 -9.579065 19.00000000
-56.622261 -31.640013 -5.298970 19.00000000
-49.963070 -9.774345 -24.778643 19.00000000
-55.447994 -22.179010 -36.320145 19.00000000
-52.870773 -14.945901 -24.080164 19.00000000
-29.394524 5.859702 -30.331751 19.00000000
-26.995886 6.579247 -22.773813 19.00000000
-34.996460 3.525697 -52.246704 19.00000000
-25.863270 6.872569 -21.614687 19.00000000
-54.361542 -18.523710 -7.751974 19.00000000
-56.598583 -32.948456 -56.344398 19.00000000
-45.912144 -4.676518 -53.985912 19.00000000
-37.709217 2.005240 -9.304063 19.00000000
-56.627136 -31.370447 -46.395718 19.00000000
-56.616028 -31.984400 -54.164860 19.00000000
-55.637329 -23.029127 2.190072 19.00000000
-53.455463 -16.237158 -37.497749 19.00000000
-49.830402 -9.586339 -22.010433 19.00000000
-41.236641 -0.424724 -40.274189 19.00000000
-52.546997 -14.286407 -4.273783 19.00000000
-29.548071 5.808192 -23.452574 19.00000000
-49.913662 -9.704328 -31.981030 19.00000000
-44.377846 -3.102633 -50.493065 19.00000000
-45.999916 -4.766556 -39.339096 19.00000000
-52.091557 -13.358724 -10.798546 19.00000000
-35.347820 3.341951 -11.130743 19.00000000
-53.734402 -16.941078 -21.581743 19.00000000
-45.781441 -4.542443 0.867377 19.00000000
-55.503517 -22.428320 -42.097137 19.00000000
-44.175701 -2.909340 -53.144039 19.00000000
-48.771881 -8.086301 -11.464989 19.00000000
-43.602665 -2.407704 -5.935954 19.00000000
-56.270596 -26.559637 -31.447109 19.00000000
-46.418598 -5.196039 -40.955269 19.00000000
-42.195332 -1.175729 -35.722168 19.00000000
-38.819653 1.307649 -25.781403 19.00000000
-40.238697 0.318239 -37.191811 19.00000000
-50.108707 -9.980728 -1.813357 19.00000000
-56.312935 -26.859943 -54.918293 19.00000000
-31.253296 5.220498 -29.398020 19.00000000
-31.057030 5.301994 -10.368026 19.00000000
-25.496714 6.967498 -19.651068 19.00000000
-55.664261 -23.150055 -10.152112 19.00000000
-42.651402 -1.574970 3.781974 19.00000000
-56.616482 -31.959753 -13.894560 19.00000000
-47.076866 -5.980957 -20.188488 19.00000000
-52.035480 -13.244497 -12.541135 19.00000000
-33.106495 4.430943 -35.865391 19.00000000
-31.443464 5.139477 -15.982753 19.00000000
-51.020596 -11.474915 -3.039263 19.00000000
-31.302546 5.199515 -6.694144 19.00000000
-25.510784 6.963854 -24.025476 19.00000000
-47.402866 -6.373075 -21.808830 19.00000000
-36.046638 2.976499 -28.755325 19.00000000
-40.601597 0.048062 -47.671520 19.00000000
-37.895905 1.887959 -47.220482 19.00000000
-56.600128 -30.344172 -32.821289 19.00000000
-36.748661 2.608673 -61.082214 19.00000000
-56.456615 -27.994139 0.327113 19.00000000
-32.390903 4.735820 -34.237801 19.00000000
-34.351562 3.862950 -39.331146 19.00000000
-56.580082 -33.971905 -24.257013 19.00000000
-55.527893 -22.537758 -22.637300 19.00000000
-54.484982 -18.894213 -34.268616 19.00000000
-53.497490 -16.343218 -0.604189 19.00000000
-48.089161 -7.198561 -58.204231 19.00000000
-44.937962 -3.677200 -41.924904 19.00000000
-31.650770 5.051154 -49.056812 19.00000000
-22.603937 7.716660 -30.567499 19.00000000
-26.332645 6.751011 -29.425013 19.00000000
-50.359875 -10.361167 -26.737358 19.00000000
-49.452461 -9.050757 -7.037259 19.00000000
-51.422394 -12.152203 -46.449883 19.00000000
-46.340054 -5.115469 -6.746433 19.00000000
-56.037144 -24.903837 -14.065835 19.00000000
-56.491585 -28.566786 -22.360870 19.00000000
-29.953646 5.672137 3.540710 19.00000000
-56.479801 -28.373857 -47.958248 19.00000000
-23.862392 7.390749 -46.314896 19.00000000
-35.539528 3.241698 -46.869041 19.00000000
-56.048683 -24.985666 -12.217331 19.00000000
-44.946831 -3.686298 -39.683464 19.00000000
-47.381294 -6.347130 -30.780720 19.00000000
-28.911654 6.021687 -16.673246 19.00000000
-49.634239 -9.308357 -9.403556 19.00000000
-33.841927 4.117613 -24.040627 19.00000000
-49.355911 -8.913937 -55.650993 19.00000000
-32.320843 4.765670 -60.797890 19.00000000
-47.279465 -6.224648 -54.168800 19.00000000
-51.543400 -12.356180 -56.386715 19.00000000
-29.022488 5.984506 -43.979538 19.00000000
-41.101070 -0.323791 -42.109077 19.00000000
-49.261665 -8.780380 -34.830303 19.00000000
-56.020802 -24.787910 -28.175175 19.00000000
-55.991550 -24.619598 -53.464737 19.00000000
-44.387302 -3.112336 -35.126442 19.00000000
-54.943169 -20.384783 -8.320662 19.00000000
-56.583515 -33.782253 -21.478226 19.00000000
-56.335098 -27.017141 -24.779673 19.00000000
-27.538939 6.438609 -44.737099 19.00000000
-56.578823 -34.040909 -26.186460 19.00000000
-56.617077 -31.926853 -27.744507 19.00000000
-48.217232 -7.352607 -27.454674 19.00000000
-55.831478 -23.900871 -36.390507 19.00000000
-49.523621 -9.151598 -52.978889 19.00000000
-39.044678 1.166286 -11.824669 19.00000000
-54.897797 -20.237186 -19.457216 19.00000000
-56.589466 -33.453545 -4.217091 19.00000000
-46.148819 -4.919300 -37.773571 19.00000000
-53.332439 -15.926701 -7.092293 19.00000000
-23.419682 7.505402 -14.785427 19.00000000
-47.826923 -6.883136 3.606291 19.00000000
-30.424313 5.514246 -47.446831 19.00000000
-53.166416 -15.548094 -25.535835 19.00000000
-53.703640 -16.863449 -17.671194 19.00000000
-29.559771 5.804267 -9.413723 19.00000000
-27.334986 6.491428 -31.035271 19.00000000
-55.758068 -23.571259 -47.005138 19.00000000
-56.579327 -34.013634 -7.761915 19.00000000
-51.668087 -12.566359 -4.203672 19.00000000
-56.498039 -28.672457 -27.699350 19.00000000
-50.734467 -10.992601 -42.581078 19.00000000
-43.958839 -2.719499 3.624548 19.00000000
-44.558632 -3.288084 -58.416035 19.00000000
-50.320591 -10.294949 -15.493089 19.00000000
-43.945770 -2.708058 -23.586916 19.00000000
-32.750294 4.582703 -53.273159 19.00000000
-46.570217 -5.371553 3.849683 19.00000000
-53.069221 -15.350122 1.178489 19.00000000
-29.124554 5.950266 -18.280836 19.00000000
-56.044655 -24.957109 -5.380919 19.00000000
-55.484612 -22.343428 -25.605034 19.00000000
-56.606663 -32.502716 -12.104131 19.00000000
-38.066029 1.781085 -51.703083 19.00000000
-31.548540 5.094709 -31.568817 19.00000000
-34.058712 4.016098 -21.855438 19.00000000
-27.384260 6.478667 -10.671038 19.00000000
-48.891605 -8.255961 -32.996944 19.00000000
-39.135620 1.109155 -32.436623 19.00000000
-48.375847 -7.543388 -19.292444 19.00000000
-40.229424 0.325142 -60.401524 19.00000000
-45.610245 -4.366829 -45.819229 19.00000000
-41.946968 -0.958312 -60.547768 19.00000000
-56.024132 -24.811550 -8.975263 19.00000000
-35.723549 3.145463 -14.725302 19.00000000
-28.491325 6.162691 -2.376044 19.00000000
-21.652452 7.963073 -48.833542 19.00000000
-40.846870 -0.134542 -35.556065 19.00000000
-54.583801 -19.215687 -39.837078 19.00000000
-53.506500 -16.365961 -35.707870 19.00000000
-39.551647 0.829741 -51.388092 19.00000000
-39.907227 0.565016 -13.912437 19.00000000
-52.475731 -14.141244 -51.917679 19.00000000
-55.984455 -24.587736 2.755618 19.00000000
-44.062679 -2.810399 -56.385826 19.00000000
-55.896427 -24.192484 -21.989496 19.00000000
-52.665161 -14.527095 -38.151684 19.00000000
-56.247120 -26.393141 -8.644189 19.00000000
-51.935860 -13.041580 -9.040679 19.00000000
-35.509190 3.257563 -56.131432 19.00000000
-23.949041 7.368309 -19.490181 19.00000000
-48.900124 -8.268033 -36.695580 19.00000000
-50.483788 -10.570044 3.806278 19.00000000
-29.388687 5.861660 -34.427139 19.00000000
-56.581917 -33.871006 -2.179888 19.00000000
-49.504086 -9.123917 -18.535006 19.00000000
-56.634998 -30.935642 -52.791847 19.00000000
-51.554016 -12.374073 -20.416861 19.00000000
-28.483889 6.165186 -26.302912 19.00000000
-53.290615 -15.821150 -56.172253 19.00000000
-55.243065 -21.360407 -54.992153 19.00000000
-55.872353 -24.084394 -43.290146 19.00000000
-56.369541 -27.261454 -28.572050 19.00000000
-50.874981 -11.229457 -18.856291 19.00000000
-41.562416 -0.667260 -17.056076 19.00000000
-56.240303 -26.344791 -49.289688 19.00000000
-48.588127 -7.825901 -54.735302 19.00000000
-33.757217 4.153702 -15.343946 19.00000000
-53.929138 -17.432516 -13.492464 19.00000000
-25.976330 6.843289 -16.709574 19.00000000
-25.559839 6.951150 -50.190613 19.00000000
-31.972530 4.914068 -25.619751 19.00000000
-29.416338 5.852384 -38.445114 19.00000000
-23.186230 7.565860 0.510266 19.00000000
-24.509546 7.223151 -39.506889 19.00000000
-42.063339 -1.060182 -52.664635 19.00000000
-43.745079 -2.532373 -40.590618 19.00000000
-37.751400 1.978739 -40.607758 19.00000000
-46.446838 -5.225009 -18.770981 19.00000000
-28.828337 6.049636 -56.734711 19.00000000
-40.683178 -0.012674 -21.289976 19.00000000
-38.061474 1.783947 -57.117180 19.00000000
-40.409077 0.191393 -26.153091 19.00000000
-34.170727 3.957519 -44.186134 19.00000000
-47.589268 -6.597280 -48.817516 19.00000000
-56.467327 -28.169584 -58.719658 19.00000000
-40.062572 0.449361 -22.683790 19.00000000
-56.627346 -31.358679 -60.937721 19.00000000
-56.518288 -29.004032 -31.546022 19.00000000
-56.481125 -28.395477 -40.048328 19.00000000
-46.376129 -5.152478 -24.656218 19.00000000
-56.608566 -30.482338 3.840527 19.00000000
-42.263290 -1.235218 -26.274694 19.00000000
-39.547192 0.833059 -3.991704 19.00000000
-54.508678 -18.971296 -41.861469 19.00000000
-32.810200 4.557179 -29.508406 19.00000000
-56.489254 -28.528589 -33.722206 19.00000000
-56.605686 -32.556511 -33.560490 19.00000000
-44.180805 -2.913808 -37.944908 19.00000000
-22.163601 7.830697 -2.907315 19.00000000
-51.755322 -12.713407 -40.604923 19.00000000
-23.286713 7.539837 -13.007039 19.00000000
-56.499802 -28.701326 -45.946339 19.00000000
-56.597687 -30.304205 -8.217756 19.00000000
-53.656750 -16.745117 -29.279100 19.00000000
-56.203655 -26.084867 -37.240719 19.00000000
-47.689106 -6.717369 -11.358199 19.00000000
-48.026577 -7.123282 -4.032258 19.00000000
-24.986691 7.099582 -48.610298 19.00000000
-48.366901 -7.532632 -16.746321 19.00000000
-43.692375 -2.486237 -0.871267 19.00000000
-38.342495 1.607406 -20.624304 19.00000000
-54.990814 -20.539795 -34.763233 19.00000000
-30.233406 5.578288 -14.510903 19.00000000
-49.501953 -9.120890 -45.360294 19.00000000
-54.986561 -20.525951 -32.025402 19.00000000
-43.975903 -2.734436 -11.172818 19.00000000
-39.216591 1.058290 -15.629823 19.00000000
-42.399021 -1.354037 -30.140371 19.00000000
-23.947001 7.368838 -56.872299 19.00000000
-53.215965 -15.649021 -22.519566 19.00000000
-52.843216 -14.889770 -12.263192 19.00000000
-50.810356 -11.120521 -38.799274 19.00000000
-48.705818 -7.992681 -51.249786 19.00000000
-28.413790 6.188701 -21.808859 19.00000000
-52.143543 -13.464609 -25.144087 19.00000000
-56.245052 -26.378468 -45.553291 19.00000000
-55.483807 -22.339808 -50.695011 19.00000000
-42.462708 -1.409790 -13.529403 19.00000000
-50.698330 -10.931687 -8.454623 19.00000000
-44.165562 -2.900463 -48.866451 19.00000000
-29.623035 5.783045 1.125596 19.00000000
-56.608826 -30.486609 2.059611 19.00000000
-56.566750 -29.797602 -23.803698 19.00000000
-29.630070 5.780685 -54.921165 19.00000000
-56.613522 -32.123089 -51.350494 19.00000000
-49.651134 -9.332300 -58.129738 19.00000000
-51.560467 -12.384946 -30.270081 19.00000000
-54.255032 -18.254932 -53.340256 19.00000000
-45.694458 -4.453216 -8.644890 19.00000000
-56.369106 -27.258369 -18.149324 19.00000000
-52.225048 -13.630632 -35.001678 19.00000000
-56.590649 -33.387112 -58.479259 19.00000000
-25.716015 6.910704 -33.375992 19.00000000
-55.796360 -23.743191 -56.573322 19.00000000
-53.501034 -16.352156 -12.138230 19.00000000
-44.727482 -3.461291 -17.508163 19.00000000
-53.558605 -16.497452 -15.415217 19.00000000
-32.074535 4.870609 2.788769 19.00000000
-48.983505 -8.386195 -60.788860 19.00000000
-56.154282 -25.734673 -16.824343 19.00000000
-52.364574 -13.914826 -60.606087 19.00000000
-43.842426 -2.617590 -18.934507 19.00000000
-43.318371 -2.158832 -59.171215 19.00000000
-56.632320 -31.083826 -56.426193 19.00000000
-56.220222 -26.202375 -43.126953 19.00000000
-42.025616 -1.027157 -28.238918 19.00000000
-21.850100 7.911887 -25.665630 19.00000000
-56.489410 -28.531149 -49.753773 19.00000000
-45.254799 -4.002212 -22.151764 19.00000000
-22.159311 7.831808 -45.713505 19.00000000
-36.453777 2.763584 -36.278637 19.00000000
-50.667809 -10.880237 -35.167946 19.00000000
-56.157845 -25.759926 0.993235 19.00000000
-41.491795 -0.614684 -12.260788 19.00000000
-46.885963 -5.751337 -8.753676 19.00000000
-31.261574 5.216971 0.197257 19.00000000
-54.456615 -18.801920 -3.070634 19.00000000
-56.072048 -25.151407 -60.879444 19.00000000
-31.644915 5.053649 -46.117283 19.00000000
-56.327579 -26.963816 -35.424709 19.00000000
-55.252445 -21.390938 -12.358146 19.00000000
-25.030602 7.088210 -55.280956 19.00000000
-34.188370 3.948293 -34.417099 19.00000000
-41.087543 -0.313722 -59.188015 19.00000000
-46.097214 -4.866366 -28.631779 19.00000000
-43.838165 -2.613863 -12.931976 19.00000000
-45.181179 -3.926695 -31.484705 19.00000000
-43.337288 -2.175393 -61.022697 19.00000000
-49.049824 -8.480173 -48.404480 19.00000000
-55.770081 -23.625185 -15.826586 19.00000000
-52.767059 -14.734645 -43.445980 19.00000000
-32.680313 4.612517 -21.119368 19.00000000
-56.629921 -31.216341 -58.907089 19.00000000
-46.167397 -4.938359 -15.493997 19.00000000
-41.243984 -0.430190 -6.497530 19.00000000
-30.388836 5.526147 -7.970158 19.00000000
-49.842728 -9.603804 -13.679924 19.00000000
-40.328423 0.251438 -0.155591 19.00000000
-44.923981 -3.662859 -46.961239 19.00000000
-47.494057 -6.482761 1.128809 19.00000000
-39.545250 0.834506 -57.237534 19.00000000
-30.845224 5.373046 -50.760769 19.00000000
-47.660175 -6.682571 -60.926189 19.00000000
-45.451931 -4.204431 -49.335735 19.00000000
-50.769978 -11.052456 -28.172459 19.00000000
-53.902550 -17.365412 -60.241344 19.00000000
-48.621189 -7.872755 -7.647066 19.00000000
-26.498617 6.708028 -18.325630 19.00000000
-34.842052 3.606445 -27.086138 19.00000000
-55.409679 -22.006985 -57.610020 19.00000000
-42.860798 -1.758274 -15.321626 19.00000000
-25.773628 6.895783 -7.328293 19.00000000
-36.061569 2.968692 -16.512829 19.00000000
-34.426430 3.823799 -30.884476 19.00000000
-56.202545 -26.076996 -21.927225 19.00000000
-49.247845 -8.760794 -4.969133 19.00000000
-56.580990 -33.920979 -60.055378 19.00000000
-46.644833 -5.461301 2.220925 19.00000000
-36.856644 2.540837 -39.518913 19.00000000
-23.561020 7.468798 -23.542282 19.00000000
-23.000910 7.613854 -10.034316 19.00000000
-49.826855 -9.581313 -39.487919 19.00000000
-52.008263 -13.189060 -58.025749 19.00000000
-21.880470 7.904022 -23.981594 19.00000000
-25.884792 6.866995 -44.587875 19.00000000
-42.679955 -1.599966 -47.737377 19.00000000
-53.919769 -17.408871 -51.758091 19.00000000
-50.697323 -10.929985 -49.988716 19.00000000
-51.505116 -12.291647 -61.078358 19.00000000
-56.582691 -33.828342 -0.439580 19.00000000
-40.312908 0.262989 -45.878914 19.00000000
-24.427254 7.244464 -6.453558 19.00000000
-40.711525 -0.033779 -52.601437 19.00000000
-39.895287 0.573904 -42.782429 19.00000000
-52.002495 -13.177312 -38.953011 19.00000000
-27.158978 6.537010 -41.060074 19.00000000
-51.405872 -12.124359 -36.760712 19.00000000
-56.606327 -32.521278 -18.335487 19.00000000
-55.590408 -22.818464 -59.342293 19.00000000
-40.981689 -0.234912 -3.617896 19.00000000
-56.610260 -32.303410 -42.828758 19.00000000
-56.485641 -28.469425 -6.902747 19.00000000
-53.157036 -15.528985 -9.506553 19.00000000
-56.097630 -25.332827 -34.661671 19.00000000
-51.104542 -11.616416 -25.242584 19.00000000
-22.141047 7.836538 -37.717346 19.00000000
-55.392239 -21.928673 -30.899920 19.00000000
-36.549236 2.713664 -5.276981 19.00000000
-40.275097 0.291138 -27.878035 19.00000000
-54.521549 -19.013172 -31.573223 19.00000000
-25.797279 6.889658 -60.662197 19.00000000
-53.192066 -15.600339 -58.565453 19.00000000
-33.202389 4.390088 -13.600744 19.00000000
-50.608162 -10.779695 -29.854151 19.00000000
-55.562550 -22.693365 -33.055553 19.00000000
-47.158646 -6.079322 -37.704098 19.00000000
-56.584312 -30.085201 -29.594046 19.00000000
-50.668892 -10.882062 -4.828417 19.00000000
-38.117474 1.748767 -24.095329 19.00000000
-33.150089 4.412369 -47.823193 19.00000000
-53.320957 -15.897722 -40.488026 19.00000000
-36.476597 2.751652 -23.706528 19.00000000
-56.407951 -27.533890 -2.541806 19.00000000
-37.704029 2.008498 -53.963799 19.00000000
-38.544827 1.480299 -42.639187 19.00000000
-56.618271 -31.860762 -38.902699 19.00000000
-54.880733 -20.181671 -49.478119 19.00000000
-23.099474 7.588328 -20.836493 19.00000000
-24.402584 7.250852 -29.537321 19.00000000
-35.267582 3.383912 -12.728772 19.00000000
-26.578297 6.687393 -58.485809 19.00000000
-56.179676 -25.914785 -26.658119 19.00000000
-56.617233 -31.918184 -10.616441 19.00000000
-54.327251 -18.437185 -49.569675 19.00000000
-56.606159 -32.530525 1.932215 19.00000000
-42.741028 -1.653429 -32.636108 19.00000000
-54.920486 -20.310995 -21.064894 19.00000000
-42.376099 -1.333969 -41.278938 19.00000000
-51.163479 -11.715766 -52.713112 19.00000000
-51.491196 -12.268179 -48.367622 19.00000000
-29.609608 5.787549 -10.991272 19.00000000
-56.340595 -27.056141 -12.632453 19.00000000
-56.590149 -30.180780 -22.117172 19.00000000
-56.586269 -33.629887 -28.155508 19.00000000
-51.435127 -12.173672 -5.960021 19.00000000
-22.070538 7.854799 -33.053841 19.00000000
-21.695206 7.952001 -15.344642 19.00000000
-33.898285 4.093601 -51.273506 19.00000000
-36.720074 2.624322 -55.490417 19.00000000
-28.075333 6.299695 -53.648689 19.00000000
-56.587467 -30.136881 -44.918579 19.00000000
-48.865524 -8.219002 -46.655319 19.00000000
-54.472244 -18.852764 -24.707731 19.00000000
-22.690493 7.694244 -42.825684 19.00000000
-35.680721 3.167858 -50.572243 19.00000000
-53.145378 -15.505247 -16.563038 19.00000000
-41.624844 -0.713736 -43.990208 19.00000000
-48.553795 -7.777248 0.570834 19.00000000
-29.189613 5.928441 -6.106523 19.00000000
-55.895790 -24.189638 -58.455940 19.00000000
-45.098763 -3.842150 -24.191116 19.00000000
-56.593651 -33.222248 -5.888405 19.00000000
-47.155697 -6.075777 -42.356255 19.00000000
-45.218174 -3.964644 -0.523358 19.00000000
-21.889050 7.901800 -6.318531 19.00000000
-54.588764 -19.231829 3.621349 19.00000000
-23.958820 7.365777 -44.819176 19.00000000
-54.306530 -18.384886 -18.443035 19.00000000
-37.332268 2.242045 -58.947235 19.00000000
-32.737610 4.588107 -16.776445 19.00000000
-47.886784 -6.955138 -32.325462 19.00000000
-55.584244 -22.790770 -0.802683 19.00000000
-33.956272 4.068896 -56.641647 19.00000000
