25.771814 -14.787886 -31.388884 3.00000000
-1.069564 -21.112799 -51.920021 3.00000000
15.431707 33.006653 -5.628199 3.00000000
-21.078287 1.958376 -52.155415 3.00000000
4.750902 34.058044 -15.565700 3.00000000
11.426688 -21.709723 -6.567713 3.00000000
15.970153 32.827724 -52.661587 3.00000000
-5.006753 -19.672052 -54.683723 3.00000000
32.341770 -5.832593 -0.705518 3.00000000
31.882317 -6.792292 1.957239 3.00000000
22.748505 29.406691 -25.634575 3.00000000
-11.023719 28.165375 -38.762848 3.00000000
-21.244198 10.703681 -46.527603 3.00000000
26.197002 26.587738 -57.100605 3.00000000
-17.517649 20.771784 -25.922804 3.00000000
-4.920878 -19.713169 -27.190622 3.00000000
18.514446 -19.603041 -40.000366 3.00000000
33.134239 -3.965395 -16.455193 3.00000000
-13.229053 26.213877 -3.934758 3.00000000
34.855900 3.360455 -21.972206 3.00000000
1.861730 -21.788347 -12.644654 3.00000000
-6.999311 -18.665016 -8.578822 3.00000000
15.357636 -20.842747 -54.003342 3.00000000
18.084513 32.008591 -0.363597 3.00000000
-0.987020 33.324043 -27.285406 3.00000000
11.565873 33.974537 -4.747005 3.00000000
-17.198727 21.266985 -37.937260 3.00000000
9.244194 34.280769 -60.277699 3.00000000
26.760111 26.051832 -1.405862 3.00000000
-5.813382 31.490648 -20.527500 3.00000000
34.540245 10.102249 -35.182571 3.00000000
21.494001 30.214602 -58.525494 3.00000000
8.762133 34.312077 -11.483873 3.00000000
-13.796886 -13.423912 -20.109917 3.00000000
-2.313876 32.931835 -12.853734 3.00000000
18.442881 -19.636135 -4.201515 3.00000000
9.886100 34.215324 -56.430317 3.00000000
24.696983 -15.721257 -53.261761 3.00000000
6.280601 -22.033051 -55.770374 3.00000000
-14.313221 25.074709 -15.473688 3.00000000
29.951330 22.204813 3.538521 3.00000000
17.460144 32.260628 -38.308983 3.00000000
24.981726 -15.488878 -40.008694 3.00000000
19.321241 31.417742 -47.449528 3.00000000
19.882538 31.134850 -9.946277 3.00000000
-18.597307 18.810122 -7.877294 3.00000000
-4.033826 32.287666 -38.940746 3.00000000
13.767244 -21.282661 -48.703453 3.00000000
-20.685911 13.220342 -52.570759 3.00000000
0.764164 33.763443 -17.308071 3.00000000
34.672302 1.922852 -57.826595 3.00000000
28.444588 -11.986032 -43.050522 3.00000000
29.969860 22.178946 -28.842245 3.00000000
14.692421 33.246590 -32.352062 3.00000000
-15.405488 -11.580726 -8.967115 3.00000000
34.770401 6.438850 -9.252208 3.00000000
33.277390 15.780044 -20.324129 3.00000000
-12.030502 -15.131053 -30.133650 3.00000000
-11.412219 27.848316 -56.235184 3.00000000
-11.748687 -15.367373 -18.355158 3.00000000
-20.918373 -0.132375 -43.136753 3.00000000
-19.434341 -4.798722 -50.791679 3.00000000
-15.788573 23.294056 -59.027782 3.00000000
15.718576 32.911324 -15.451401 3.00000000
26.049055 26.728539 -44.452190 3.00000000
-11.846450 27.493937 -8.142538 3.00000000
34.547184 9.991770 -46.100845 3.00000000
34.408245 0.388688 -26.863144 3.00000000
10.860849 -21.745275 -43.302208 3.00000000
-18.683922 18.629204 -50.199455 3.00000000
-21.452848 6.855501 -45.672314 3.00000000
5.351149 34.099743 0.027910 3.00000000
-18.583492 -6.654134 -37.704914 3.00000000
-17.380787 -8.778675 -56.262573 3.00000000
18.368156 -19.670691 -18.806284 3.00000000
14.430673 -21.107449 -29.422323 3.00000000
16.402826 32.683941 -3.268877 3.00000000
0.213286 -21.436666 3.876908 3.00000000
-18.399572 -6.994038 -49.060726 3.00000000
-10.275492 -16.548038 -15.190829 3.00000000
31.275251 20.106728 -57.528149 3.00000000
34.861839 3.451924 -38.832176 3.00000000
12.520256 -21.582645 3.213843 3.00000000
-16.957033 -9.456346 -45.142414 3.00000000
28.642529 -11.749985 -24.489927 3.00000000
-20.055323 15.347947 3.594371 3.00000000
-19.259214 -5.204873 1.151194 3.00000000
-14.994537 24.277740 -19.441422 3.00000000
20.249277 -18.731443 -21.774908 3.00000000
-3.958766 32.316803 -43.905956 3.00000000
25.184267 -15.323582 -0.480145 3.00000000
23.006895 29.216663 -17.082050 3.00000000
30.355862 -9.401610 -53.946815 3.00000000
27.955200 24.771524 -42.288548 3.00000000
6.023526 34.146450 -29.358391 3.00000000
-0.310745 -21.304371 -16.085075 3.00000000
-15.356629 -11.640595 0.274927 3.00000000
-21.253181 10.636193 -50.263817 3.00000000
15.647755 -20.746717 -2.181287 3.00000000
27.057156 -13.536149 -35.162552 3.00000000
-9.646208 29.202974 -53.294201 3.00000000
-13.874851 -13.339768 -31.675116 3.00000000
32.727066 17.192692 -33.734451 3.00000000
20.213606 30.949945 -55.724026 3.00000000
16.986219 -20.252768 -12.789577 3.00000000
-1.884770 -6.206843 5.962533 4.00000000
15.557001 -5.987724 -31.334246 4.00000000
17.965897 -3.785750 -48.088467 4.00000000
19.772900 13.413826 -44.728058 4.00000000
0.026325 -7.337064 -59.739475 4.00000000
1.154804 -7.836498 -10.047766 4.00000000
21.647943 5.148754 -3.433490 4.00000000
8.423626 20.990997 -33.268848 4.00000000
19.840584 13.290484 -51.778454 4.00000000
-4.848884 -3.479290 -29.274105 4.00000000
11.387659 20.334978 -50.995338 4.00000000
2.657991 -8.345903 -6.128678 4.00000000
12.334566 -7.789734 -33.820770 4.00000000
-5.765664 14.458602 -22.461636 4.00000000
-8.297897 6.720473 -47.106266 4.00000000
19.923046 -0.943482 4.404641 4.00000000
1.876743 -8.102879 -47.977043 4.00000000
8.456400 -8.789266 -9.340827 4.00000000
20.793739 1.004209 -14.060960 4.00000000
-7.844619 2.403431 -51.188553 4.00000000
21.567871 7.913876 3.005082 4.00000000
-8.261082 4.892435 -55.024693 4.00000000
-4.975617 15.523666 -1.293827 4.00000000
2.152094 20.389793 -15.440398 4.00000000
6.055170 -8.884146 -29.074665 4.00000000
-2.300531 18.102072 -30.985174 4.00000000
21.299793 9.464837 -36.464222 4.00000000
15.960126 -5.686242 -55.123611 4.00000000
-6.697381 -0.674225 -52.730381 4.00000000
8.891252 -8.734649 -37.858727 4.00000000
12.589947 19.885551 -26.038958 4.00000000
9.476341 20.829283 -41.878990 4.00000000
-5.103860 15.368885 -10.870023 4.00000000
0.077977 -7.361416 -32.946167 4.00000000
-4.800940 15.734492 -60.877773 4.00000000
-8.050144 3.334532 -34.639290 4.00000000
21.363846 3.035217 -37.336201 4.00000000
21.670408 5.501573 -49.677040 4.00000000
0.335474 19.680145 -14.138758 4.00000000
2.166557 -8.197289 -20.511988 4.00000000
21.222244 2.429125 -29.519316 4.00000000
-7.436037 11.153140 -15.584663 4.00000000
11.218042 -8.192676 -35.486042 4.00000000
3.588441 20.771082 -35.798580 4.00000000
13.548520 -7.236799 1.903942 4.00000000
13.354864 19.529623 -15.570010 4.00000000
10.069705 20.708975 -49.431469 4.00000000
3.993878 -8.650907 -18.239223 4.00000000
7.635978 21.061148 -38.921383 4.00000000
18.573578 -3.045132 -52.305443 4.00000000
12.345485 -7.785420 -39.362118 4.00000000
-1.858440 18.422741 -61.007950 4.00000000
-0.574682 19.216286 -6.585647 4.00000000
-1.009429 18.971869 6.314816 4.00000000
-2.150485 -6.013466 -55.709343 4.00000000
0.291068 19.659290 -1.541539 4.00000000
8.363824 -8.800894 -61.120274 4.00000000
20.732494 11.346329 -21.004194 4.00000000
14.327556 19.005854 -9.286476 4.00000000
20.659060 0.664796 2.518129 4.00000000
-3.167753 -5.207573 -61.096512 4.00000000
9.385809 -8.649045 -14.207363 4.00000000
-7.411558 0.977638 -49.432285 4.00000000
-7.964033 2.881248 -41.463577 4.00000000
13.972500 19.201401 -19.712416 4.00000000
-5.633841 14.649966 3.179711 4.00000000
15.063166 18.538557 -51.614162 4.00000000
-7.861670 9.727940 -7.598566 4.00000000
-6.834100 -0.383102 -13.406595 4.00000000
20.898994 10.871395 -30.214596 4.00000000
-7.113903 0.224175 0.852059 4.00000000
20.777643 0.963645 -59.473366 4.00000000
21.025976 1.716495 -51.028969 4.00000000
-1.659121 -6.362211 -35.661842 4.00000000
-4.326094 -4.076528 -47.283394 4.00000000
-0.181692 -7.235251 0.708361 4.00000000
19.090574 -2.333676 0.037613 4.00000000
18.518463 -3.118799 -60.738773 4.00000000
-0.141413 -7.257435 -20.989073 4.00000000
4.488651 20.933163 -3.574010 4.00000000
21.304955 9.444669 -11.341061 4.00000000
15.116925 -6.306944 -6.235678 4.00000000
6.347283 -8.893658 -57.032249 4.00000000
16.103455 -5.567845 -19.125929 4.00000000
17.424700 -4.366368 -14.687808 4.00000000
10.955831 -8.277658 -37.476421 4.00000000
14.597190 -6.637113 6.641552 4.00000000
-7.190874 0.419014 -8.908790 4.00000000
6.995717 21.091076 -49.857380 4.00000000
-1.147029 18.884686 -12.855110 4.00000000
-4.245160 16.360241 -36.445950 4.00000000
21.513123 8.349877 -31.706375 4.00000000
-1.971916 18.340431 -39.782429 4.00000000
15.650939 -5.919584 -45.171494 4.00000000
-0.334841 -7.150906 -56.200077 4.00000000
-4.855472 -3.471314 -0.313050 4.00000000
-8.131276 8.431061 -20.588596 4.00000000
12.788672 -7.598663 -42.251793 4.00000000
20.180428 12.632901 1.985874 4.00000000
-8.307279 5.888751 -59.174747 4.00000000
19.253248 -2.077760 -38.508011 4.00000000
-5.508870 14.821698 -54.076107 4.00000000
-3.675304 16.936268 -10.787841 4.00000000
7.772496 21.052456 -12.638024 4.00000000
-8.013712 9.053373 -10.122290 4.00000000
5.570526 21.050943 -17.956177 4.00000000
18.761162 14.985022 -60.776085 4.00000000
13.101470 -7.451760 -44.398117 4.00000000
20.158133 -0.482222 -52.821976 4.00000000
-5.957210 -1.960003 -39.128548 4.00000000
-6.735925 -0.592153 -3.343191 4.00000000
-7.164847 11.843254 5.508692 4.00000000
-8.297073 5.471677 -44.951836 4.00000000
3.364665 -8.527924 -50.735432 4.00000000
20.325117 -0.128042 -3.353994 4.00000000
8.941501 -8.728338 -52.065029 4.00000000
-7.531816 10.859132 -43.459023 4.00000000
11.746375 -8.021445 -19.169464 4.00000000
4.172620 20.882044 -32.769238 4.00000000
-0.785797 19.100443 -45.948483 4.00000000
16.909691 17.064444 -40.608036 4.00000000
5.381114 -8.841229 -13.853142 4.00000000
11.754555 -8.018794 -50.439091 4.00000000
21.175671 9.949815 0.947729 4.00000000
4.420512 20.924604 5.471555 4.00000000
3.368657 -8.528952 -22.415379 4.00000000
21.498259 3.736970 1.950156 4.00000000
-4.532686 16.054527 -15.051652 4.00000000
21.544636 8.098922 -27.743748 4.00000000
-7.528321 1.326818 -60.088032 4.00000000
-6.686137 12.893953 -56.463509 4.00000000
-6.312027 13.576727 6.610922 4.00000000
21.678129 6.164750 -31.570332 4.00000000
19.567577 13.779492 -34.185646 4.00000000
-6.324411 13.554242 -32.753330 4.00000000
12.450902 -7.743772 -17.125156 4.00000000
-8.302235 5.554748 -22.140108 4.00000000
0.225514 19.628504 -21.352913 4.00000000
5.491896 21.046057 -53.773571 4.00000000
14.766614 -6.529771 -14.113102 4.00000000
10.042848 20.715893 -8.703996 4.00000000
18.895388 -2.602933 -17.391504 4.00000000
15.429558 18.277712 -18.831724 4.00000000
0.606519 19.807440 -25.642616 4.00000000
2.700079 20.554541 -55.934433 4.00000000
20.957054 10.692251 -41.689163 4.00000000
3.440817 -8.544989 -14.864803 4.00000000
21.668270 5.468004 -25.623047 4.00000000
-8.297184 6.731681 1.561235 4.00000000
18.792484 -2.744332 -14.719350 4.00000000
-5.679128 14.587735 -12.957743 4.00000000
18.779324 -2.762419 -26.544415 4.00000000
4.032171 20.855366 -23.492952 4.00000000
20.524452 11.872952 -6.525778 4.00000000
-2.163720 -6.003834 2.211421 4.00000000
20.770910 11.249083 -58.756054 4.00000000
5.889592 21.070782 -23.039530 4.00000000
-7.240246 0.543991 -41.025974 4.00000000
-2.070298 18.269070 -5.533654 4.00000000
6.406766 -8.893700 -12.231350 4.00000000
1.569073 20.197571 -27.702332 4.00000000
-3.814482 -4.607738 1.435292 4.00000000
11.833800 -7.987578 3.389989 4.00000000
-1.468770 -6.483205 -30.582506 4.00000000
-7.938487 2.770198 -54.678333 4.00000000
-8.182583 8.027452 -18.477724 4.00000000
1.426166 20.141111 -53.499611 4.00000000
19.537727 -1.630218 -4.533994 4.00000000
12.611507 19.876995 -36.569374 4.00000000
17.444094 16.543703 -4.692981 4.00000000
20.079268 -0.649502 -15.736972 4.00000000
-3.933242 16.691887 -27.185892 4.00000000
21.375093 9.104952 -57.929085 4.00000000
19.987293 13.023141 -37.062313 4.00000000
19.573404 -1.574090 -34.478203 4.00000000
5.995691 21.077377 -42.651230 4.00000000
3.762878 20.804214 -26.053082 4.00000000
5.121343 21.012629 -30.509356 4.00000000
-8.307130 6.088128 -14.793265 4.00000000
19.623167 13.686680 -30.921419 4.00000000
-7.656598 10.476099 -34.165459 4.00000000
2.319628 20.444090 -24.538399 4.00000000
-6.098849 -1.736445 -24.239777 4.00000000
11.080787 -8.237160 -12.719454 4.00000000
-2.307449 18.097054 -37.361565 4.00000000
11.971450 20.131001 -58.393494 4.00000000
-6.159776 -1.640281 -29.179293 4.00000000
-8.072586 8.746002 -23.661718 4.00000000
-1.796456 -6.271114 -33.421017 4.00000000
3.576375 20.768789 2.895662 4.00000000
8.212152 -8.819944 -54.369083 4.00000000
19.480227 -1.720679 -22.804628 4.00000000
4.283977 -8.706465 -56.468693 4.00000000
-6.502773 13.230420 -25.962582 4.00000000
-5.291251 -2.924025 6.571155 4.00000000
-4.906585 -3.409436 -52.432178 4.00000000
-3.074065 -5.285197 -0.407847 4.00000000
12.297747 20.001511 -21.200254 4.00000000
7.257303 21.085257 -31.074821 4.00000000
11.500352 20.298269 -43.245743 4.00000000
-5.513309 -2.617913 -32.085255 4.00000000
15.992372 17.857607 -32.544216 4.00000000
-4.772457 -3.571816 -40.228527 4.00000000
21.446508 8.729024 -46.619808 4.00000000
0.572692 -7.594656 -41.203865 4.00000000
9.028012 20.914164 -43.779121 4.00000000
21.142361 2.118986 -35.388767 4.00000000
-8.307098 6.130928 4.471380 4.00000000
-8.275977 7.064740 -50.868671 4.00000000
17.143946 16.844133 4.724662 4.00000000
9.619021 20.801956 -53.602985 4.00000000
-8.307383 5.637609 -49.197857 4.00000000
1.896010 20.306797 -7.126823 4.00000000
-4.683917 -3.679006 -17.591045 4.00000000
9.112817 20.898901 -19.545414 4.00000000
1.459470 -7.957404 2.110053 4.00000000
20.932430 10.768229 2.907708 4.00000000
21.427967 3.369990 -49.417786 4.00000000
10.976162 20.469025 -60.555912 4.00000000
-4.255296 16.349463 -12.960556 4.00000000
1.899500 -8.110292 -3.608564 4.00000000
13.404352 -7.309514 -7.262200 4.00000000
3.235611 -8.494683 -24.846786 4.00000000
1.926377 20.316639 -9.547120 4.00000000
-2.054603 18.280455 -57.120361 4.00000000
-6.055939 14.001942 -28.242739 4.00000000
21.552004 4.157832 -39.995823 4.00000000
5.797598 -8.867746 4.573070 4.00000000
3.834218 -8.620330 -58.868259 4.00000000
-7.074275 0.128317 -38.670532 4.00000000
-2.548057 17.917604 -25.906870 4.00000000
17.204056 -4.590913 -6.949097 4.00000000
21.678324 6.414128 -9.567063 4.00000000
-5.619993 14.668996 -42.783848 4.00000000
21.664373 6.784677 -29.318748 4.00000000
-2.011164 18.311962 3.777560 4.00000000
0.066582 19.553864 -4.304462 4.00000000
-0.083642 19.483313 -31.191830 4.00000000
14.605750 18.829306 4.818220 4.00000000
4.027322 -8.657312 -31.620302 4.00000000
20.031975 -0.745707 -60.506035 4.00000000
14.943289 -6.417835 -8.643602 4.00000000
18.583414 15.230052 -47.924999 4.00000000
7.113297 21.090984 -2.214423 4.00000000
1.936945 20.320065 -49.328548 4.00000000
-6.327924 13.547865 -60.538708 4.00000000
-3.678998 16.932804 -58.475594 4.00000000
20.831009 11.081168 -56.537277 4.00000000
19.954552 13.082803 -0.453334 4.00000000
-8.307158 6.051074 -17.416563 4.00000000
21.678217 6.276315 -44.017811 4.00000000
6.036594 -8.882963 -54.296112 4.00000000
20.178610 12.636773 -42.169224 4.00000000
1.222233 -7.863257 4.702666 4.00000000
-4.861514 -3.464000 -60.417355 4.00000000
12.095810 -7.884063 -31.902088 4.00000000
21.638298 4.997265 -47.144566 4.00000000
21.565687 4.265516 -1.172869 4.00000000
-7.508394 1.265331 -34.180267 4.00000000
3.987787 20.846935 -41.675472 4.00000000
18.397186 15.461995 -0.717525 4.00000000
15.429865 -6.079946 -36.124947 4.00000000
15.533053 18.202393 -60.081795 4.00000000
21.074883 10.328697 -28.296728 4.00000000
-2.375824 18.047459 -54.195942 4.00000000
-5.611393 14.680814 -16.097155 4.00000000
-8.087427 8.668517 -35.728409 4.00000000
21.408516 8.929017 -55.598469 4.00000000
-6.684589 12.897236 -17.858721 4.00000000
7.397099 -8.878586 -27.238527 4.00000000
7.539594 -8.869736 -6.217842 4.00000000
9.058445 20.909313 -16.760921 4.00000000
-7.875431 2.523820 -1.142484 4.00000000
12.046706 -7.903463 -14.687119 4.00000000
-7.038506 12.146560 -59.366547 4.00000000
15.234390 18.419746 -57.709923 4.00000000
19.583349 -1.558446 -13.381286 4.00000000
12.139817 -7.866676 -21.438990 4.00000000
0.269824 19.649315 0.673324 4.00000000
12.197178 20.041422 -30.115700 4.00000000
-8.146733 3.883766 -15.477693 4.00000000
20.877857 10.936617 -25.814188 4.00000000
-7.994215 3.040124 6.253636 4.00000000
-1.945294 -6.162795 -3.839501 4.00000000
-8.171893 4.084129 -46.454872 4.00000000
19.792431 13.378235 -5.332719 4.00000000
15.662173 18.108423 -11.593829 4.00000000
-6.257101 13.676447 -10.449722 4.00000000
-1.783191 18.477322 -21.541367 4.00000000
14.834606 -6.486693 -16.292824 4.00000000
20.306978 -0.166512 0.673380 4.00000000
-8.306851 6.462641 -36.993473 4.00000000
20.571327 0.443695 -37.421734 4.00000000
-2.597772 17.876535 1.944525 4.00000000
21.013575 1.678423 -39.211170 4.00000000
-4.194366 -4.217026 -26.971521 4.00000000
21.148134 10.057405 -50.464935 4.00000000
-0.554137 -7.030129 -2.286726 4.00000000
-4.033800 16.584969 4.522871 4.00000000
13.939071 -7.022494 -46.152157 4.00000000
18.489508 15.350227 -32.192593 4.00000000
7.104454 21.090992 -26.178375 4.00000000
-3.946717 16.677559 -17.459536 4.00000000
-7.403916 0.958295 -22.782997 4.00000000
-3.849754 16.772699 -4.870273 4.00000000
-4.755322 -3.592561 3.129493 4.00000000
21.678091 6.114727 -15.836471 4.00000000
-7.561109 1.427982 -37.134819 4.00000000
-4.205450 16.402462 -54.042587 4.00000000
17.767567 -4.001831 -28.613325 4.00000000
4.284858 -8.706633 -40.534744 4.00000000
13.757071 -7.122362 -20.434677 4.00000000
-2.541677 -5.726297 -51.264980 4.00000000
-8.255894 4.808946 3.027757 4.00000000
-3.451872 -4.948761 4.053187 4.00000000
19.800753 13.363069 -14.147754 4.00000000
9.081454 -8.706854 -49.789623 4.00000000
-6.874009 12.495468 -12.790299 4.00000000
20.696798 11.436686 5.654316 4.00000000
18.237398 15.655441 -45.708126 4.00000000
13.630968 19.389498 -2.222051 4.00000000
17.640261 -4.137183 -50.498901 4.00000000
10.064954 -8.512234 -53.653648 4.00000000
18.271761 15.613841 -27.605318 4.00000000
-1.364924 -6.549213 -46.023487 4.00000000
8.257775 -8.814214 -1.593000 4.00000000
-8.172476 4.088770 -28.430138 4.00000000
14.181330 -6.889561 -55.697613 4.00000000
-5.691317 -2.372525 -45.586319 4.00000000
5.416432 -8.843477 -1.536523 4.00000000
11.128511 -8.221693 -46.592430 4.00000000
11.508623 20.295574 -55.828793 4.00000000
9.336927 -8.658330 -22.288488 4.00000000
18.874975 14.828129 -16.892061 4.00000000
-6.428408 13.365434 -20.736233 4.00000000
-5.162919 15.297096 5.651912 4.00000000
3.890285 -8.631068 1.518404 4.00000000
9.260990 -8.672753 -33.464687 4.00000000
8.983505 -8.723062 -3.674112 4.00000000
2.692642 20.552637 -38.123810 4.00000000
15.455938 -6.061033 2.776693 4.00000000
10.554606 -8.386915 -9.467837 4.00000000
-6.513365 -1.013423 -55.740891 4.00000000
-4.776405 15.764104 -20.276365 4.00000000
-2.448003 -5.796944 -42.380478 4.00000000
-7.147208 11.887709 -8.918601 4.00000000
0.242400 19.636435 -11.635096 4.00000000
-7.761102 2.077109 -5.914856 4.00000000
-7.897149 2.608679 -39.423477 4.00000000
20.168629 -0.459961 -40.451447 4.00000000
-6.130125 13.885233 -1.196168 4.00000000
3.966433 -8.645651 -53.553226 4.00000000
-8.246533 4.678529 -38.116840 4.00000000
1.629862 -8.022455 -55.648476 4.00000000
15.034342 -6.360147 -11.577133 4.00000000
19.816786 13.333854 -21.829441 4.00000000
12.058969 -7.898618 -56.486362 4.00000000
-3.272860 17.313608 -42.300587 4.00000000
11.419243 20.324690 -53.140388 4.00000000
-8.272104 7.125571 -53.593250 4.00000000
20.796127 11.185249 -18.948971 4.00000000
9.677134 20.790829 -39.768429 4.00000000
19.718369 13.513195 6.437565 4.00000000
5.513102 -8.849632 -35.578590 4.00000000
17.574240 16.404902 -34.232143 4.00000000
13.475595 -7.276056 -35.494556 4.00000000
13.387234 19.514360 -23.843489 4.00000000
-7.941071 9.419640 -3.235791 4.00000000
16.234131 17.657303 -9.018603 4.00000000
14.633084 -6.614371 -53.387001 4.00000000
-2.266256 -5.929213 -9.795812 4.00000000
13.678162 19.363504 -54.821720 4.00000000
20.629955 11.605890 -48.915745 4.00000000
21.677736 5.657704 3.373992 4.00000000
-7.977167 9.244168 1.143731 4.00000000
10.984690 20.466246 -33.004875 4.00000000
16.032846 17.824072 3.374612 4.00000000
21.615170 4.654865 -23.266298 4.00000000
19.040840 -2.403067 -32.075432 4.00000000
14.370046 18.979128 2.300283 4.00000000
-3.777635 16.840321 -46.172859 4.00000000
10.107328 -8.501389 -0.891092 4.00000000
1.150708 -7.834872 -28.132622 4.00000000
6.228663 -8.893573 -59.564526 4.00000000
17.874166 16.085024 -18.503700 4.00000000
-1.214896 18.841686 -23.526150 4.00000000
19.944048 13.101945 3.902936 4.00000000
21.285601 2.675099 -12.403945 4.00000000
-7.692856 10.364800 -41.458691 4.00000000
-0.920851 19.026335 -19.605070 4.00000000
21.396660 3.206538 -24.954782 4.00000000
4.547732 -8.742811 -20.672504 4.00000000
21.355471 2.991495 -10.231744 4.00000000
21.553783 4.171853 -8.024954 4.00000000
0.206149 -7.421844 -18.538168 4.00000000
7.309885 21.081909 -20.652304 4.00000000
-0.073829 -7.289845 3.100566 4.00000000
21.495592 3.723053 4.185959 4.00000000
13.837231 -7.078377 -60.926952 4.00000000
20.276770 12.427756 -40.007374 4.00000000
-6.297332 13.603407 -36.155907 4.00000000
6.359903 -8.893667 -51.871582 4.00000000
-1.219872 18.838533 -42.233059 4.00000000
8.234977 -8.817077 -18.983150 4.00000000
13.790489 19.301641 -59.276390 4.00000000
-5.314380 15.088961 -26.631748 4.00000000
3.135500 -8.468897 -0.535416 4.00000000
5.970269 21.075796 -56.107117 4.00000000
6.542034 -8.893796 -41.273346 4.00000000
-0.924371 -6.826225 -54.213264 4.00000000
17.297495 16.699726 -57.393074 4.00000000
21.229851 9.738124 -2.077029 4.00000000
-5.687322 -2.378033 -27.166527 4.00000000
-1.723185 18.519638 -16.018028 4.00000000
17.488735 -4.298284 -56.256649 4.00000000
21.331633 2.867046 -58.341656 4.00000000
-3.926216 -4.502655 -15.477035 4.00000000
4.032694 -8.658341 -44.190380 4.00000000
9.395911 20.844685 -29.297150 4.00000000
14.049770 -6.961751 -22.385410 4.00000000
20.139532 -0.521675 -1.478835 4.00000000
-3.456536 -4.944375 -7.902098 4.00000000
15.657354 -5.914931 -0.968391 4.00000000
-6.814904 12.620832 -39.103111 4.00000000
20.720621 0.819942 -9.594186 4.00000000
12.324314 19.990967 -3.543631 4.00000000
0.448177 -7.535952 -46.267689 4.00000000
20.896282 1.318382 -44.609734 4.00000000
21.191483 9.888033 -61.043369 4.00000000
-3.108479 -5.256683 -28.618465 4.00000000
14.371015 18.978512 -25.948368 4.00000000
-6.105616 -1.725765 -22.115063 4.00000000
9.958137 -8.539572 -26.690575 4.00000000
10.158751 20.686037 2.887216 4.00000000
12.792190 -7.597011 -52.115780 4.00000000
21.663769 5.397291 -13.088161 4.00000000
8.144752 -8.828409 -30.377581 4.00000000
16.289907 -5.413823 -27.963015 4.00000000
-7.746493 2.020025 -46.788345 4.00000000
-8.253873 7.411891 -57.462605 4.00000000
21.558609 4.209815 -35.580128 4.00000000
6.149298 -8.890139 -19.077379 4.00000000
-3.833007 -4.590316 -54.377506 4.00000000
19.736856 13.479505 -8.019951 4.00000000
-8.249517 7.480298 -43.940666 4.00000000
20.928505 1.417291 -6.099676 4.00000000
6.015451 -8.881617 -46.748764 4.00000000
6.345028 -8.893656 -3.457891 4.00000000
4.348460 -8.717479 -48.409397 4.00000000
-2.688406 17.801666 -28.845800 4.00000000
17.133530 -4.657041 -46.062683 4.00000000
12.997855 -7.500422 -29.321112 4.00000000
0.124649 19.581135 -36.398029 4.00000000
6.238144 21.091665 -40.644749 4.00000000
17.314051 16.682398 -31.216770 4.00000000
-8.018905 3.170093 -57.127659 4.00000000
21.547232 4.120290 -30.917742 4.00000000
21.604422 4.570289 -20.868898 4.00000000
8.348839 -8.802776 -45.402733 4.00000000
21.098616 1.949153 -31.882294 4.00000000
-7.496207 10.968439 -10.966394 4.00000000
6.249035 21.091658 3.854868 4.00000000
-5.465937 14.880696 -46.207821 4.00000000
18.598207 15.209659 -12.611399 4.00000000
-1.042774 18.950743 -49.540134 4.00000000
-6.168283 13.825203 -8.211141 4.00000000
7.491814 21.070326 -18.177069 4.00000000
-6.624420 -0.811049 -17.884239 4.00000000
21.283825 9.527232 6.671338 4.00000000
15.220771 18.429659 -38.711674 4.00000000
17.616863 16.359442 -52.929512 4.00000000
-8.159744 3.987376 -23.757330 4.00000000
-7.889004 2.576853 2.624595 4.00000000
9.300983 -8.665157 3.195785 4.00000000
6.982778 -8.894110 -22.479404 4.00000000
-3.151714 17.418947 -50.492477 4.00000000
-8.124900 8.472878 -49.087589 4.00000000
2.076879 -8.168076 -17.013515 4.00000000
-4.251346 16.353662 2.328676 4.00000000
4.264923 20.899576 -49.630646 4.00000000
18.781868 -2.758921 -45.574974 4.00000000
20.318068 12.339816 -32.781204 4.00000000
4.787051 -8.773234 -26.064390 4.00000000
13.358850 19.527742 -57.148911 4.00000000
2.086026 -8.171055 -12.631973 4.00000000
-4.040504 -4.381131 -50.487904 4.00000000
9.301309 20.862803 -31.401150 4.00000000
6.170181 -8.891469 1.696245 4.00000000
11.635875 20.254122 1.466526 4.00000000
-1.543147 -6.435928 -6.187993 4.00000000
16.551605 17.394262 -51.172535 4.00000000
1.878571 20.301146 1.941403 4.00000000
-3.275398 17.311230 6.722669 4.00000000
19.734213 -1.286341 -20.364695 4.00000000
15.800282 18.007914 -30.169086 4.00000000
7.805816 21.050335 -8.749597 4.00000000
15.539189 18.197926 -41.726410 4.00000000
20.146969 -0.505902 -7.626402 4.00000000
3.496951 -8.555740 3.867400 4.00000000
21.659149 6.868722 -11.764752 4.00000000
6.290398 -8.893617 -33.285172 4.00000000
19.105742 14.508481 -25.916100 4.00000000
4.581439 -8.747096 -4.900415 4.00000000
20.839731 11.054253 -38.395515 4.00000000
6.452299 -8.893732 -39.249744 4.00000000
16.241615 -5.453715 -38.534664 4.00000000
10.609719 20.569880 -15.585637 4.00000000
-7.414553 11.213959 -37.571125 4.00000000
21.087881 1.907477 -16.049067 4.00000000
12.874288 19.756205 -33.757286 4.00000000
12.005608 20.117447 -6.893475 4.00000000
21.594227 7.703994 -3.478187 4.00000000
9.790090 20.769196 -35.603416 4.00000000
13.821706 -7.086895 -0.625755 4.00000000
-0.536152 -7.040035 -11.069252 4.00000000
-6.105039 -1.726676 -19.500479 4.00000000
7.537757 21.067402 -47.347164 4.00000000
2.356912 -8.259299 -29.740747 4.00000000
0.281321 -7.457285 6.682272 4.00000000
17.031906 -4.752325 -2.741548 4.00000000
13.634572 -7.189581 4.644310 4.00000000
16.507273 17.430996 -16.814487 4.00000000
21.666636 6.748294 -18.250092 4.00000000
12.058802 -7.898684 -58.846283 4.00000000
17.735043 -4.036410 -0.298445 4.00000000
16.253008 17.641661 -25.443687 4.00000000
13.915385 19.232855 -0.193279 4.00000000
14.205349 19.073158 -49.710457 4.00000000
-8.281276 5.217433 -0.303881 4.00000000
11.114418 -8.226260 -24.346407 4.00000000
-8.255490 7.386490 -32.066612 4.00000000
0.965863 19.959261 6.505269 4.00000000
17.196754 -4.597759 -12.049930 4.00000000
21.608097 4.599209 -51.585876 4.00000000
-7.630265 10.556932 -22.533190 4.00000000
0.182363 -7.410630 -38.562771 4.00000000
20.361704 -0.050440 -26.181725 4.00000000
21.065659 10.357154 -52.551125 4.00000000
-3.872354 -4.553310 -2.130117 4.00000000
2.290208 20.434555 -29.974863 4.00000000
20.919907 1.390898 -21.210588 4.00000000
4.759307 20.967157 -1.215962 4.00000000
-8.174314 8.092504 -41.298149 4.00000000
21.327223 2.844015 -55.378857 4.00000000
19.188463 -2.179679 -50.015179 4.00000000
12.428627 -7.752572 6.443535 4.00000000
3.032435 20.639603 -51.563988 4.00000000
-3.589664 17.016565 -56.333366 4.00000000
-6.772132 -0.515053 -33.690380 4.00000000
7.232739 -8.888793 6.714682 4.00000000
-1.190672 -6.659973 -16.997025 4.00000000
10.732186 20.538336 -13.267513 4.00000000
6.407464 -8.893700 -9.862047 4.00000000
21.518236 8.309151 -15.492489 4.00000000
21.111961 10.198742 -32.962902 4.00000000
4.123459 20.872705 -28.229900 4.00000000
18.222298 15.673723 -50.327934 4.00000000
18.477318 -3.168464 -54.590324 4.00000000
13.412092 19.502642 -52.654575 4.00000000
20.695158 11.440837 -13.290441 4.00000000
-7.107112 11.988756 -0.956785 4.00000000
2.429086 -8.282811 -34.575310 4.00000000
19.320068 -1.972638 -48.024307 4.00000000
20.202671 -0.387755 -43.001823 4.00000000
-8.083076 3.507883 -48.399189 4.00000000
21.435184 3.407676 -27.279636 4.00000000
-7.542688 1.371145 -2.711156 4.00000000
-7.913302 9.527461 -16.837795 4.00000000
-1.780075 -6.283035 -37.575348 4.00000000
-6.421387 -1.181033 -48.177586 4.00000000
1.969443 -8.133077 -60.776379 4.00000000
21.177788 2.256526 -53.363705 4.00000000
19.944155 -0.905159 -45.504131 4.00000000
-8.099346 3.593529 -59.472191 4.00000000
7.717966 21.055927 1.547077 4.00000000
10.653802 20.558525 -37.685890 4.00000000
17.137821 -4.653016 -20.923210 4.00000000
-7.351590 0.825839 -20.389635 4.00000000
10.127330 20.694132 -21.224575 4.00000000
1.324152 20.100809 -19.089911 4.00000000
-1.496710 18.663132 -35.263786 4.00000000
-8.307278 5.889223 -20.104424 4.00000000
0.081744 19.560984 -38.607265 4.00000000
5.473340 21.044903 -12.986854 4.00000000
5.165986 -8.821405 -24.075340 4.00000000
-8.147179 3.887316 -43.268852 4.00000000
10.299433 -8.452223 -44.561790 4.00000000
8.921532 20.927700 6.828722 4.00000000
-0.615940 19.193647 -52.803101 4.00000000
-5.905521 14.238578 -50.475349 4.00000000
6.616426 21.091372 -34.095531 4.00000000
2.441403 -8.286823 -38.272800 4.00000000
0.975841 -7.765476 -1.032579 4.00000000
14.684520 18.779238 -35.823837 4.00000000
-7.754466 2.051180 -29.665504 4.00000000
20.918919 1.387862 -57.095890 4.00000000
21.593204 4.482029 -57.218437 4.00000000
4.144447 20.876692 -39.748997 4.00000000
-7.056695 0.090882 -6.381417 4.00000000
-2.531645 -5.734609 -53.415215 4.00000000
18.335377 -3.339787 -35.608196 4.00000000
19.093718 14.526588 2.453006 4.00000000
-2.421489 -5.816240 -19.592352 4.00000000
21.371504 3.075200 6.479204 4.00000000
16.858603 -4.914819 6.385164 4.00000000
3.504172 20.755074 -11.192847 4.00000000
14.423067 -6.747432 -32.864838 4.00000000
2.423879 -8.281114 -42.139641 4.00000000
8.430953 -8.792462 -56.970474 4.00000000
21.666792 5.444771 -27.727598 4.00000000
15.115812 -6.307752 -41.342560 4.00000000
-4.428418 -3.967393 -4.245862 4.00000000
-4.812094 15.721030 -8.183612 4.00000000
8.989309 20.919085 -10.427400 4.00000000
-6.087300 -1.754675 -10.335684 4.00000000
-2.744643 17.755213 -19.959414 4.00000000
15.956719 17.887146 6.473735 4.00000000
-7.509154 1.267678 -56.552364 4.00000000
-5.620593 14.668171 -24.567415 4.00000000
3.446103 20.744043 -54.172535 4.00000000
6.503995 -8.893769 -49.758171 4.00000000
18.048471 15.884162 6.316124 4.00000000
8.951314 -8.727105 -35.902454 4.00000000
-6.928688 12.379489 -52.946274 4.00000000
-4.919016 15.591981 -31.619991 4.00000000
-0.476979 19.269899 -33.637154 4.00000000
9.207499 -8.682913 -47.590546 4.00000000
19.098642 14.519685 -58.781052 4.00000000
-0.124831 -7.265799 -4.527154 4.00000000
-3.374667 -5.021370 -44.220516 4.00000000
21.597002 7.681892 -13.640108 4.00000000
21.464102 3.558642 -4.961513 4.00000000
-7.804600 2.247066 -18.489508 4.00000000
1.390733 -7.930126 -7.802390 4.00000000
20.211504 -0.369020 -48.693478 4.00000000
-6.408052 13.402389 -5.265779 4.00000000
-8.293463 6.790118 -6.623064 4.00000000
-3.016323 -5.333038 -24.072037 4.00000000
19.949778 13.091503 -16.119322 4.00000000
-7.848514 2.418647 -32.309689 4.00000000
4.536777 -8.741418 -61.013203 4.00000000
-5.474388 14.869082 -56.837967 4.00000000
-7.835486 9.829613 -31.477501 4.00000000
5.468937 21.044628 -37.939117 4.00000000
16.724201 -5.040837 -42.356110 4.00000000
-7.406602 0.965092 -16.964750 4.00000000
12.337671 -7.788507 -54.292206 4.00000000
8.914616 20.928579 -1.264719 4.00000000
-6.740916 -0.581523 -43.201427 4.00000000
17.360992 -4.434101 -17.573481 4.00000000
21.136786 10.101753 -7.563995 4.00000000
-3.767483 -4.651938 6.090141 4.00000000
-8.163139 4.014418 -4.797081 4.00000000
-8.208100 4.372467 -6.701795 4.00000000
-7.188751 0.413639 6.433883 4.00000000
-7.942215 9.415198 5.749658 4.00000000
-5.860976 14.308657 -58.735367 4.00000000
-8.094111 8.633619 -46.510811 4.00000000
-4.471757 -3.921169 -19.523535 4.00000000
-5.820484 -2.175807 -53.935474 4.00000000
21.502176 3.765769 -15.036668 4.00000000
21.644480 7.104702 -55.056637 4.00000000
-7.498352 10.961856 -20.178295 4.00000000
0.124531 19.581078 -57.021389 4.00000000
19.366396 14.097049 -3.038031 4.00000000
-7.276506 11.561858 -29.229355 4.00000000
18.572641 -3.046420 -11.132504 4.00000000
17.887962 -3.873826 -4.886167 4.00000000
14.621994 -6.621398 -24.466524 4.00000000
2.605249 -8.332318 -45.829552 4.00000000
-6.827080 12.595006 -31.062450 4.00000000
-7.671421 10.430598 -39.426846 4.00000000
15.371473 -6.122302 -4.094733 4.00000000
13.340088 -7.339695 -26.324312 4.00000000
21.657885 6.889054 -47.818909 4.00000000
19.533775 -1.636436 -29.425308 4.00000000
15.334032 18.347233 -5.080028 4.00000000
21.678425 6.542979 -5.197669 4.00000000
18.937765 -2.544703 -6.893755 4.00000000
-1.306927 -6.586078 -49.405472 4.00000000
-8.307238 5.943544 -41.710129 4.00000000
-8.258253 4.846903 -51.676174 4.00000000
-3.284476 -5.106193 -17.295780 4.00000000
11.823977 20.189526 6.583286 4.00000000
-3.351932 -5.042752 -5.525777 4.00000000
21.383762 3.139204 -46.155094 4.00000000
-6.986243 -0.059135 3.346793 4.00000000
14.354995 18.988693 -28.001085 4.00000000
21.558920 7.985169 -0.722214 4.00000000
20.057993 -0.694626 -54.727215 4.00000000
0.471053 19.743818 3.695351 4.00000000
-5.655565 -2.421809 -12.842308 4.00000000
-1.334770 -6.568380 -28.332376 4.00000000
21.209764 2.380673 0.455829 4.00000000
7.968551 21.039972 -14.759775 4.00000000
16.224159 -5.468134 -58.012154 4.00000000
10.294831 20.650988 -23.650612 4.00000000
18.181376 15.723264 -38.330486 4.00000000
-0.834620 -6.875654 -42.470928 4.00000000
20.089737 -0.627296 -32.367603 4.00000000
0.871188 -7.723944 -50.009560 4.00000000
-7.699709 10.343763 -54.057358 4.00000000
1.394930 20.128773 -46.254868 4.00000000
-2.256877 18.133736 -33.115051 4.00000000
-7.327875 11.432400 -27.016428 4.00000000
4.669573 -8.758300 6.177433 4.00000000
-5.918256 14.218544 -3.381921 4.00000000
20.180576 12.632585 -25.187332 4.00000000
2.823809 20.586208 -13.160388 4.00000000
-1.215614 18.841232 -27.539112 4.00000000
-5.737838 -2.306251 -6.795988 4.00000000
9.513190 20.822226 -46.430126 4.00000000
-4.353338 16.245220 -24.958538 4.00000000
-8.185910 4.195756 -18.430296 4.00000000
-7.540788 10.831593 -57.535931 4.00000000
16.157251 17.720999 -48.694538 4.00000000
18.406443 -3.254009 -19.866961 4.00000000
-5.204073 15.240543 0.821802 4.00000000
-0.921539 19.025957 -58.845558 4.00000000
-7.706662 1.877088 -10.838986 4.00000000
-8.295081 5.439618 -12.737051 4.00000000
-4.448481 16.144058 -43.755203 4.00000000
-6.531806 -0.979819 -35.925987 4.00000000
21.667360 6.736622 1.030712 4.00000000
18.452055 15.395568 -35.991779 4.00000000
21.521519 8.283011 -8.873658 4.00000000
6.577925 21.091400 -4.251555 4.00000000
7.298999 21.082602 -6.307506 4.00000000
17.006754 16.973158 -13.575794 4.00000000
21.556494 8.004480 -49.784191 4.00000000
-1.176093 -6.669240 -25.114420 4.00000000
20.574734 11.745673 -3.766888 4.00000000
16.772018 17.193920 -55.439529 4.00000000
2.520746 -8.310552 6.419108 4.00000000
-3.855544 16.767271 -48.464058 4.00000000
-7.641535 1.676138 -27.526815 4.00000000
21.439173 8.767649 -20.608448 4.00000000
-8.290127 6.842513 -10.507105 4.00000000
21.499367 3.743670 -33.392075 4.00000000
11.442217 20.317205 -27.765833 4.00000000
18.602930 15.203150 -43.759113 4.00000000
20.569866 0.440016 -29.803995 4.00000000
21.128120 2.063699 -3.195820 4.00000000
-4.716906 -3.639068 -10.940611 4.00000000
8.972927 -8.724391 -11.615234 4.00000000
-2.454323 -5.792345 -15.471626 4.00000000
16.008574 -5.646221 -49.232121 4.00000000
-1.888507 18.400930 -8.273092 4.00000000
17.914415 -3.845700 -38.739861 4.00000000
-8.251591 7.447732 6.518235 4.00000000
20.764742 11.264697 -23.427322 4.00000000
-8.154580 3.946251 -11.322284 4.00000000
3.388467 20.730722 -21.419563 4.00000000
-8.185756 4.194530 -2.663293 4.00000000
5.364555 -8.840174 -7.000864 4.00000000
19.130110 14.470016 -53.478321 4.00000000
17.514912 16.468174 -59.841061 4.00000000
-8.024908 8.994923 -37.836472 4.00000000
9.843895 -8.562036 5.696242 4.00000000
8.782691 20.945351 -3.744904 4.00000000
12.519796 19.913389 4.228867 4.00000000
12.601432 19.880993 -10.925529 4.00000000
-8.291823 5.387187 -25.225449 4.00000000
2.143063 -8.189635 -52.720657 4.00000000
21.414589 8.897058 -39.549629 4.00000000
21.637350 7.219353 -42.008121 4.00000000
-8.306810 6.517661 -3.356705 4.00000000
-8.048469 3.325713 -20.541512 4.00000000
14.858256 -6.471710 -29.048286 4.00000000
20.114716 -0.574314 -57.038616 4.00000000
7.697866 21.057207 -36.229954 4.00000000
-8.218696 7.743374 -15.959749 4.00000000
18.662296 15.121311 -5.961785 4.00000000
-4.087622 -4.330876 -33.846062 4.00000000
15.660728 18.109474 -21.520533 4.00000000
13.561041 19.428009 -5.514372 4.00000000
11.861887 -7.976482 -6.338570 4.00000000
-3.733335 -4.684054 -21.349512 4.00000000
14.337746 -6.801488 -58.614632 4.00000000
-6.783139 -0.491617 -26.621828 4.00000000
15.658371 18.111191 -2.914503 4.00000000
-7.968410 9.289889 -14.269239 4.00000000
19.505836 13.876947 -10.826367 4.00000000
-7.637182 10.535698 -46.276550 4.00000000
18.792532 14.941778 -41.119587 4.00000000
0.005001 19.524942 -43.912201 4.00000000
-7.270180 11.577800 -6.585258 4.00000000
21.060575 1.822702 -19.174732 4.00000000
5.245674 21.028244 -60.919617 4.00000000
-8.198921 7.898930 -29.600170 4.00000000
-7.797850 2.220693 -25.037558 4.00000000
0.120169 -7.381308 -44.259480 4.00000000
17.403221 16.587296 -11.656872 4.00000000
-0.115965 -7.269979 -23.406479 4.00000000
2.306970 20.439987 -60.884918 4.00000000
-7.850620 9.770849 -51.598915 4.00000000
-6.811826 12.627359 -46.368298 4.00000000
-2.649759 17.833591 -13.531315 4.00000000
-8.040673 3.284675 -9.103458 4.00000000
15.379819 18.313910 -14.051579 4.00000000
-0.025148 19.510782 -29.136803 4.00000000
21.179955 9.933081 -4.768580 4.00000000
18.753059 14.996193 -14.883777 4.00000000
18.057070 -3.675704 -9.037664 4.00000000
18.009626 -3.732968 3.889552 4.00000000
-7.719059 1.915339 -44.771931 4.00000000
-3.401520 -4.996116 -31.070711 4.00000000
19.735367 -1.284245 -11.283629 4.00000000
0.289738 -7.461254 -52.155418 4.00000000
18.363010 -3.306431 -58.429623 4.00000000
21.677723 5.640969 -61.108341 4.00000000
13.633942 19.387859 -42.173832 4.00000000
2.043455 -8.157187 -32.497513 4.00000000
1.847733 20.291151 -0.264925 4.00000000
-3.679568 16.932270 -39.999981 4.00000000
-6.522522 -0.996736 -31.481115 4.00000000
-7.649547 10.497741 -25.122030 4.00000000
16.185007 17.698002 -53.473511 4.00000000
21.146727 10.062907 -44.574356 4.00000000
-6.731144 12.798490 -23.453281 4.00000000
-7.999300 9.128617 -56.327530 4.00000000
19.371933 14.088309 -28.467127 4.00000000
-5.987999 14.108825 -48.478634 4.00000000
19.950720 13.089788 -60.911343 4.00000000
0.985809 -7.769432 -36.151310 4.00000000
20.617950 11.636278 -9.096347 4.00000000
16.422867 -5.303991 -61.078865 4.00000000
-8.278995 5.180733 -32.474613 4.00000000
9.931604 -8.545377 -17.374725 4.00000000
9.708063 20.784904 0.599443 4.00000000
8.430929 -8.792465 0.999973 4.00000000
12.472684 19.932087 -48.245487 4.00000000
-1.371317 18.742580 -2.576156 4.00000000
21.412506 8.908009 -29.608814 4.00000000
3.819486 20.814966 -47.536148 4.00000000
-2.798942 -5.513145 -47.318394 4.00000000
10.756721 -8.335187 -4.539115 4.00000000
-6.828392 12.592222 3.737778 4.00000000
13.511764 19.455149 -12.640031 4.00000000
20.906940 1.351093 -47.967548 4.00000000
19.178099 14.394270 -56.490189 4.00000000
15.103163 18.513132 -7.259149 4.00000000
-6.243452 -1.505280 4.330133 4.00000000
21.596920 4.511262 -18.684086 4.00000000
19.225578 -2.121288 -42.513458 4.00000000
16.382254 17.534576 -45.813171 4.00000000
12.104227 -7.880737 -2.563772 4.00000000
21.678221 6.280435 -53.065887 4.00000000
2.139910 20.385843 -4.982644 4.00000000
-7.635139 10.541970 3.534845 4.00000000
9.811342 -8.568220 -7.004197 4.00000000
21.668310 6.721347 6.492533 4.00000000
-1.450898 -6.494565 -60.767033 4.00000000
16.265432 -5.434041 -52.605797 4.00000000
18.550585 15.275308 -9.796582 4.00000000
10.801497 -8.323728 -29.948895 4.00000000
12.788717 19.796551 -60.938965 4.00000000
-3.527901 -4.877259 -39.053177 4.00000000
14.299418 19.021351 -31.885479 4.00000000
21.429520 3.378095 -60.625580 4.00000000
-1.635184 -6.377426 -40.163765 4.00000000
5.525669 21.048157 -35.865864 4.00000000
-5.145479 -3.120221 -43.831017 4.00000000
-7.612362 1.586124 -14.604939 4.00000000
-8.307223 5.963718 -29.837978 4.00000000
0.830506 -7.707800 -57.887424 4.00000000
0.457150 -7.540183 -30.686804 4.00000000
-7.099049 0.186574 -45.878460 4.00000000
-3.981685 -4.443866 -13.195920 4.00000000
21.351307 9.230166 -17.513170 4.00000000
6.807200 21.091223 -10.856990 4.00000000
-7.468441 1.142057 -53.531219 4.00000000
10.659965 20.556938 4.998630 4.00000000
17.121552 16.865194 -20.825756 4.00000000
19.299732 14.202275 -19.042095 4.00000000
4.292211 -8.708042 -10.675355 4.00000000
17.768370 -4.000977 -33.339859 4.00000000
-1.635916 18.574930 -10.254826 4.00000000
-6.972594 12.286363 -50.216969 4.00000000
4.745257 20.965391 1.121802 4.00000000
21.673948 6.630662 -58.979805 4.00000000
1.184407 -7.848245 -14.331387 4.00000000
-8.152488 8.264194 3.268969 4.00000000
-6.048208 -1.816375 -14.666055 4.00000000
17.414711 16.575043 -42.807121 4.00000000
-4.861759 -3.463703 -37.350567 4.00000000
10.069996 -8.510943 -42.203571 4.00000000
4.173660 -8.685338 -28.243584 4.00000000
-7.762145 10.114384 -60.461716 4.00000000
-5.301705 15.106380 -5.967825 4.00000000
19.191221 -2.175340 2.331076 4.00000000
-2.736665 17.761803 -44.247086 4.00000000
16.744938 17.219389 -36.561111 4.00000000
21.666201 6.755300 -37.091232 4.00000000
21.504822 8.415974 -34.257069 4.00000000
-7.001822 -0.025962 -58.134171 4.00000000
-6.012751 -1.872339 1.537901 4.00000000
8.021569 -8.839804 -24.968754 4.00000000
-3.967618 16.655336 -30.119055 4.00000000
20.937155 1.443843 4.994113 4.00000000
6.462939 -8.893740 -43.819355 4.00000000
8.092996 -8.834910 -15.956684 4.00000000
-4.987474 -3.311508 -8.272957 4.00000000
5.783735 -8.866864 -16.141319 4.00000000
5.753624 21.062326 -58.139671 4.00000000
-8.260414 7.309158 -27.355915 4.00000000
21.629034 7.353143 -22.514435 4.00000000
-4.872718 -3.450436 -55.895279 4.00000000
11.429500 20.321348 -40.713829 4.00000000
13.746530 -7.128147 -37.592484 4.00000000
-6.514152 -1.011990 -0.823639 4.00000000
-3.359879 17.232018 -22.784376 4.00000000
6.373390 21.091560 -28.646471 4.00000000
-0.142923 19.453203 -17.188709 4.00000000
10.928336 20.484604 -1.787712 4.00000000
-7.256225 11.612968 -3.228100 4.00000000
-8.125373 8.470404 -5.245998 4.00000000
20.476301 11.994837 -11.350966 4.00000000
3.489229 20.752235 -45.443275 4.00000000
21.479965 8.552917 -24.875040 4.00000000
13.013374 19.690628 -38.851887 4.00000000
15.626922 -5.937006 4.726935 4.00000000
8.167126 21.023605 -56.821171 4.00000000
2.491007 20.499634 -2.361069 4.00000000
7.020717 21.091057 -59.973362 4.00000000
16.112700 -5.560207 -33.180744 4.00000000
-5.585171 -2.518850 -2.662855 4.00000000
21.640326 5.029101 -41.953632 4.00000000
18.024370 -3.715171 -22.919367 4.00000000
16.244633 17.648600 -27.701542 4.00000000
21.514894 8.335756 -43.693027 4.00000000
12.195075 -7.844845 -10.843000 4.00000000
6.874537 21.091169 6.787353 4.00000000
8.846547 20.937233 -61.030354 4.00000000
-2.816457 -5.498633 -58.180336 4.00000000
-3.307931 17.280725 -34.521267 4.00000000
1.523266 20.179474 -33.807060 4.00000000
14.162274 -6.900017 -48.601620 4.00000000
-2.813148 17.698624 -3.312969 4.00000000
-8.133596 3.779143 0.970809 4.00000000
3.089978 20.654329 -17.673355 4.00000000
16.713165 -5.051184 -25.920944 4.00000000
1.018379 19.980007 -51.483452 4.00000000
9.592239 20.807087 -6.079518 4.00000000
14.528683 18.878292 -45.798409 4.00000000
-8.299315 5.507754 6.576774 4.00000000
-0.550029 19.229815 -55.188004 4.00000000
21.500984 3.756403 -43.939507 4.00000000
1.851981 20.292528 -40.948601 4.00000000
20.541018 11.831021 -35.066631 4.00000000
-5.198539 -3.051830 -57.963444 4.00000000
3.115803 20.660938 -58.190533 4.00000000
11.023532 -8.255716 1.353928 4.00000000
10.122295 -8.497558 -20.283468 4.00000000
-4.182511 16.426851 -51.923443 4.00000000
21.514706 8.337267 4.918713 4.00000000
16.210588 -5.479345 -22.831299 4.00000000
20.230053 12.527231 -53.653679 4.00000000
18.706385 -2.862643 -40.536652 4.00000000
-6.597895 13.057724 -14.749153 4.00000000
0.589572 -7.602615 -26.052509 4.00000000
10.002763 20.726217 -25.898300 4.00000000
-6.918689 12.400699 -42.397873 4.00000000
-6.533126 13.175314 -44.437908 4.00000000
10.275425 -8.458367 -39.318378 4.00000000
17.309477 16.687275 -1.728788 4.00000000
-5.283447 -2.934783 -49.905792 4.00000000
17.865177 -3.898050 1.731429 4.00000000
-1.144821 -6.689118 -13.551572 4.00000000
-8.306786 6.550108 -39.501007 4.00000000
3.430389 -8.542992 -8.386511 4.00000000
20.742708 11.320473 -46.689419 4.00000000
17.393299 -4.399752 -30.511904 4.00000000
-3.494499 -4.908672 -36.918621 4.00000000
8.049088 21.034845 -22.608454 4.00000000
3.823520 -8.618282 -36.575409 4.00000000
21.678104 6.131980 -34.941315 4.00000000
16.976192 17.001900 0.916611 4.00000000
-5.808095 -2.195361 -41.429298 4.00000000
-5.194900 15.253148 -40.134045 4.00000000
-8.307096 6.134440 -34.623875 4.00000000
20.492376 0.244727 -34.494598 4.00000000
20.883257 1.278395 -41.583893 4.00000000
17.441448 16.546524 -7.311822 4.00000000
17.617550 16.358709 -23.255966 4.00000000
9.908424 -8.549780 -58.637150 4.00000000
19.978472 13.039214 -47.577606 4.00000000
20.846748 11.032600 -16.512716 4.00000000
-1.586621 18.606165 -0.328801 4.00000000
-2.641946 -5.643221 -12.302623 4.00000000
18.127308 15.788721 -54.720482 4.00000000
4.654541 20.953999 -7.929516 4.00000000
21.638113 4.994362 -38.175720 4.00000000
14.740885 -6.546072 -43.564327 4.00000000
13.028792 19.683359 -17.721231 4.00000000
19.471075 -1.735074 -9.350120 4.00000000
-4.537654 -3.850884 -24.069977 4.00000000
-7.900395 2.621363 -12.954733 4.00000000
18.386459 -3.278129 -2.583385 4.00000000
4.979250 20.994781 -20.409929 4.00000000
-5.114258 -16.817221 -61.120979 5.00000000
-7.110320 -17.996387 -61.120979 5.00000000
-12.501467 -5.793502 -61.120979 5.00000000
-11.199345 14.551649 -61.120979 5.00000000
14.196725 -9.835716 -61.120979 5.00000000
5.903791 -10.604905 -61.120979 5.00000000
25.879869 6.455969 -61.120979 5.00000000
-18.304586 16.040834 -61.120979 5.00000000
22.772829 4.090050 -61.120979 5.00000000
22.092220 7.333104 -61.120979 5.00000000
16.477648 28.643465 -61.120979 5.00000000
28.264032 -10.963799 -61.120979 5.00000000
-16.166086 -8.194439 -61.120979 5.00000000
32.711281 8.634160 -61.120979 5.00000000
19.213104 -11.285016 -61.120979 5.00000000
23.217466 20.699726 -61.120979 5.00000000
29.940166 -1.631148 -61.120979 5.00000000
-14.366454 23.192041 -61.120979 5.00000000
-8.246205 -2.317458 -61.120979 5.00000000
9.128824 -18.021185 -61.120979 5.00000000
15.837029 -6.136838 -61.120979 5.00000000
8.794407 -10.829371 -61.120979 5.00000000
15.508624 27.649723 -61.120979 5.00000000
21.120817 -4.226338 -61.120979 5.00000000
-9.552167 21.506884 -61.120979 5.00000000
-3.849254 21.133953 -61.120979 5.00000000
4.417221 29.829021 -61.120979 5.00000000
-8.729206 3.846542 -61.120979 5.00000000
28.388147 -6.122709 -61.120979 5.00000000
13.418707 -18.394327 -61.120979 5.00000000
-14.770809 16.647635 -61.120979 5.00000000
17.874222 19.720409 -61.120979 5.00000000
-13.271191 17.386871 -61.120979 5.00000000
22.013823 21.351364 -61.120979 5.00000000
6.122454 32.879509 -61.120979 5.00000000
-18.476540 -6.531536 -61.120979 5.00000000
-9.940926 -15.228850 -61.120979 5.00000000
25.779127 20.418692 -61.120979 5.00000000
-13.430078 -5.269054 -61.120979 5.00000000
3.638780 33.646191 -61.120979 5.00000000
23.948633 25.540953 -61.120979 5.00000000
-1.931212 23.020044 -61.120979 5.00000000
17.404903 29.568468 -61.120979 5.00000000
31.014694 10.425307 -61.120979 5.00000000
-2.282614 -6.014723 -61.120979 5.00000000
26.249792 3.594292 -61.120979 5.00000000
27.658587 -0.386353 -61.120979 5.00000000
10.974353 -11.891189 -61.120979 5.00000000
22.194672 -12.167096 -61.120979 5.00000000
-3.987513 -14.456799 -61.120979 5.00000000
33.109661 5.612258 -61.120979 5.00000000
-9.980184 -7.028916 -61.120979 5.00000000
-1.050044 26.377832 -61.120979 5.00000000
9.242942 25.883995 -61.120979 5.00000000
23.958315 -5.521402 -61.120979 5.00000000
16.653173 -10.358282 -61.120979 5.00000000
