-47.201223 -45.932307 -30.542341 9.00000000
-54.363068 -37.342085 -40.246476 9.00000000
-53.758033 -38.154406 -24.958915 9.00000000
-47.867603 -45.227309 -26.006474 9.00000000
-50.701755 -42.038477 2.171085 9.00000000
-52.191192 -40.225374 -7.312876 9.00000000
-46.440224 -46.737423 -19.208912 9.00000000
-50.142179 -42.699518 -36.326930 9.00000000
-53.692807 -38.253371 -38.991910 9.00000000
-48.033799 -45.051484 -27.000877 9.00000000
-49.626566 -43.321235 -0.076665 9.00000000
-56.307441 -34.456386 -35.580439 9.00000000
-47.167386 -45.968095 -45.832093 9.00000000
-52.639271 -39.638885 -7.999535 9.00000000
-55.252522 -36.022017 -37.503724 9.00000000
-53.825197 -38.065632 -4.473233 9.00000000
-54.088617 -37.717456 -13.122685 9.00000000
-51.468385 -41.132866 -26.237218 9.00000000
-49.989540 -42.879832 -32.957011 9.00000000
-53.064390 -39.071226 -46.705838 9.00000000
-55.135559 -36.195603 -45.904455 9.00000000
-49.779819 -43.127580 -21.687102 9.00000000
-49.539854 -43.411042 -31.511640 9.00000000
-55.078526 -36.280249 -47.764899 9.00000000
-50.171625 -42.664719 -60.548394 9.00000000
-47.333734 -45.792114 -32.928128 9.00000000
-48.613588 -44.438114 2.376584 9.00000000
-48.230186 -44.843726 -10.472122 9.00000000
-46.435160 -46.742788 -11.283703 9.00000000
-50.398128 -42.397155 -56.969505 9.00000000
-51.780501 -40.764167 -11.229006 9.00000000
-49.058057 -43.967884 -14.101358 9.00000000
-51.013526 -41.670190 -57.007953 9.00000000
-52.039327 -40.426100 -20.243379 9.00000000
-55.021536 -36.364828 -51.060495 9.00000000
-46.366816 -46.815062 -44.743829 9.00000000
-54.643948 -36.925228 -6.664221 9.00000000
-49.498905 -43.459401 -53.341826 9.00000000
-49.538319 -43.412860 -24.264347 9.00000000
-51.914179 -40.591515 -30.987244 9.00000000
-46.407721 -46.771780 -51.386557 9.00000000
-54.171568 -37.607816 -21.428908 9.00000000
-52.530294 -39.777165 -54.500722 9.00000000
-49.713515 -43.205889 -44.774734 9.00000000
-51.660939 -40.905405 -7.136123 9.00000000
-51.649002 -40.919505 -28.123013 9.00000000
-47.072763 -46.068200 -43.830540 9.00000000
-53.263028 -38.812331 -1.736798 9.00000000
-48.162854 -44.914952 -20.857016 9.00000000
-50.892418 -41.816631 -26.552615 9.00000000
-55.124417 -36.212140 -40.987840 9.00000000
-56.181627 -34.643119 0.080767 9.00000000
-50.402707 -42.391749 -51.598715 9.00000000
-54.087614 -37.718782 -12.266480 9.00000000
-48.772318 -44.270178 -15.807013 9.00000000
-47.133088 -46.004407 -13.584331 9.00000000
-51.296988 -41.335341 -54.700948 9.00000000
-51.373492 -41.244962 -31.549620 9.00000000
-52.475704 -39.849321 -40.242984 9.00000000
-52.692308 -39.563025 -14.434982 9.00000000
-48.436293 -44.625671 -41.576030 9.00000000
-49.430747 -43.539917 -49.319022 9.00000000
-55.257505 -36.014622 -35.592994 9.00000000
-52.630869 -39.644232 -43.736604 9.00000000
-50.257695 -42.563064 -30.011119 9.00000000
-48.062967 -45.020627 -61.054228 9.00000000
-56.155701 -34.681599 -3.233036 9.00000000
-54.969181 -36.442540 -4.363580 9.00000000
-48.378888 -44.686402 -30.226402 9.00000000
-53.407675 -38.625350 -15.284755 9.00000000
-48.831145 -44.207942 -53.801006 9.00000000
-50.696134 -42.045124 -53.853554 9.00000000
-46.947045 -46.201201 -50.967627 9.00000000
-56.080568 -34.793080 -51.415654 9.00000000
-56.574831 -34.059523 -3.530181 9.00000000
-49.930747 -42.949290 -20.681081 9.00000000
-47.667433 -45.439076 -38.385032 9.00000000
-47.581809 -45.529692 0.635528 9.00000000
-54.716794 -36.817113 -26.151649 9.00000000
-55.982262 -34.938977 -57.695555 9.00000000
-53.710262 -38.217545 -50.708383 9.00000000
-54.566170 -37.040653 -53.005373 9.00000000
-47.099674 -46.039763 -7.885127 9.00000000
-47.016592 -46.127626 -46.764097 9.00000000
-54.509381 -37.124937 -48.600110 9.00000000
-49.895715 -42.990678 -14.619303 9.00000000
-56.166183 -34.666021 -41.073535 9.00000000
-51.443686 -41.162043 -27.337190 9.00000000
-49.602910 -43.336546 -43.862824 9.00000000
-54.546325 -37.070110 -35.573368 9.00000000
-46.979904 -46.166463 -20.713193 9.00000000
-49.243015 -43.761694 -26.733246 9.00000000
-56.521301 -34.138972 -0.641910 9.00000000
-50.080629 -42.772223 -41.071772 9.00000000
-48.466519 -44.593693 -55.913389 9.00000000
-53.196273 -38.902077 0.753458 9.00000000
-53.483314 -38.517513 -52.267113 9.00000000
-53.468348 -38.546886 -32.859855 9.00000000
-55.279810 -35.981518 -36.572053 9.00000000
-48.625741 -44.425256 1.349867 9.00000000
-47.815877 -45.282059 2.281255 9.00000000
-46.599318 -46.569119 -8.389287 9.00000000
-49.933255 -42.946311 -48.210224 9.00000000
-55.018169 -36.369829 -34.200249 9.00000000
-52.067835 -40.388421 -9.709890 9.00000000
-51.824303 -40.710308 -0.239271 9.00000000
-53.332756 -38.716513 -31.559042 9.00000000
-52.524741 -39.784506 -38.862212 9.00000000
-52.676575 -39.583820 -41.501652 9.00000000
-55.601923 -35.503480 -7.805419 9.00000000
-47.844657 -45.251585 -42.241016 9.00000000
-47.948291 -45.141963 -6.418067 9.00000000
-55.319042 -35.923296 -21.431022 9.00000000
-54.028986 -37.796274 3.135304 9.00000000
-48.767848 -44.274907 -58.717437 9.00000000
-51.840914 -40.688352 -46.604816 9.00000000
-54.681505 -36.869482 -46.107099 9.00000000
-53.402903 -38.623797 -34.648481 9.00000000
-52.690908 -39.564875 -23.061237 9.00000000
-48.962855 -44.068602 -56.259529 9.00000000
-46.346317 -46.836775 -17.602110 9.00000000
-54.206895 -37.561122 -18.700297 9.00000000
-54.419992 -37.257603 -27.124692 9.00000000
-52.989116 -39.170719 -22.060855 9.00000000
-52.037521 -40.428488 -26.482441 9.00000000
-56.414185 -34.297955 -45.381952 9.00000000
-52.808243 -39.409788 -32.492631 9.00000000
-54.012132 -37.818551 2.276459 9.00000000
-53.572848 -38.399175 -3.670876 9.00000000
-55.139183 -36.190231 -17.293730 9.00000000
-46.475004 -46.700643 -2.455162 9.00000000
-53.725690 -38.198935 -28.371879 9.00000000
-54.571208 -37.033182 -13.320793 9.00000000
-52.997655 -39.159432 -40.790450 9.00000000
-47.579491 -45.532140 -4.782559 9.00000000
-56.245387 -34.548486 -9.013994 9.00000000
-47.340372 -45.785116 -6.202240 9.00000000
-52.953338 -39.218008 -37.189246 9.00000000
-55.935059 -35.009034 -58.737151 9.00000000
-47.736691 -45.365837 3.480984 9.00000000
-47.039384 -46.103513 -53.627462 9.00000000
-49.664977 -43.263248 -12.295826 9.00000000
-54.451250 -37.211213 -32.234707 9.00000000
-46.707173 -46.454982 -40.588747 9.00000000
-52.791465 -39.431964 -53.642960 9.00000000
-49.151665 -43.868852 -2.362601 9.00000000
-56.307632 -34.456087 -49.892655 9.00000000
-49.167150 -43.851297 -52.551061 9.00000000
-54.575125 -37.027366 -41.055847 9.00000000
-46.862883 -46.290240 -54.542527 9.00000000
-56.508996 -34.157236 -23.574686 9.00000000
-47.641540 -45.466496 -3.026760 9.00000000
-56.495639 -34.177061 -40.399088 9.00000000
-53.731402 -38.189606 -22.269407 9.00000000
-48.066529 -45.016858 -24.878501 9.00000000
-47.352831 -45.771906 -48.337877 9.00000000
-51.904987 -40.603664 -53.137710 9.00000000
-56.433059 -34.269942 -44.450443 9.00000000
-54.295789 -37.441934 -28.783066 9.00000000
-50.644627 -42.106829 -12.182239 9.00000000
-55.296635 -35.956548 -28.450390 9.00000000
-50.764556 -41.964311 -35.470368 9.00000000
-53.398718 -38.629328 -56.534582 9.00000000
-46.540034 -46.631826 -22.065769 9.00000000
-53.029356 -39.136576 -4.025277 9.00000000
-54.407351 -37.276364 -9.649085 9.00000000
-50.102531 -42.746357 -30.905440 9.00000000
-52.685746 -39.604167 -1.936179 9.00000000
-55.804609 -35.202663 -16.118665 9.00000000
-52.468399 -39.858975 -58.286415 9.00000000
-52.901566 -39.286438 -35.216269 9.00000000
-51.766988 -40.780130 -14.090270 9.00000000
-49.602419 -43.337147 -11.338260 9.00000000
-55.239326 -36.041617 -2.664963 9.00000000
-56.461817 -34.227260 -29.306722 9.00000000
-48.430039 -44.632293 -7.075047 9.00000000
-53.796457 -38.103619 -14.747768 9.00000000
-48.540077 -44.515874 -24.290659 9.00000000
-53.732181 -38.191909 -42.874989 9.00000000
-51.797074 -40.744590 -28.923155 9.00000000
-55.686172 -35.378434 -17.754340 9.00000000
-54.789731 -36.708869 -2.288934 9.00000000
-48.736105 -44.308489 -21.649124 9.00000000
-54.859225 -36.605727 -21.530483 9.00000000
-51.502767 -41.092252 -10.544420 9.00000000
-50.865239 -41.852218 -30.483839 9.00000000
-55.847841 -35.138479 -46.910714 9.00000000
-51.325871 -41.301217 -39.073340 9.00000000
-46.802321 -46.354353 -5.026600 9.00000000
-50.153402 -42.686268 -23.691861 9.00000000
-49.199794 -43.812741 -42.032338 9.00000000
-52.268406 -40.123316 -37.463090 9.00000000
-51.467838 -41.133513 -61.081427 9.00000000
-46.920889 -46.228906 -12.633733 9.00000000
-50.059009 -42.797777 -18.984234 9.00000000
-54.488374 -37.156112 -56.843127 9.00000000
-55.495496 -35.661431 -4.852584 9.00000000
-48.619510 -44.431838 -45.540597 9.00000000
-46.963487 -46.183826 -26.396864 9.00000000
-55.150728 -36.173089 -50.039713 9.00000000
-48.050703 -45.033601 -33.361468 9.00000000
-53.983152 -37.856854 -53.189123 9.00000000
-48.037531 -45.047536 -44.013970 9.00000000
-47.740393 -45.361889 -47.610434 9.00000000
-50.435867 -42.352589 -32.421121 9.00000000
-50.440322 -42.360270 -21.113557 9.00000000
-48.433306 -44.628831 -25.631567 9.00000000
-47.101562 -46.037767 -6.986030 9.00000000
-48.071476 -45.011625 -22.021848 9.00000000
-51.742853 -40.808641 -53.967548 9.00000000
-52.684984 -39.572705 -37.930231 9.00000000
-55.203190 -36.095252 2.429210 9.00000000
-56.091583 -34.776764 -12.000876 9.00000000
-48.123105 -44.957004 -58.620949 9.00000000
-55.257528 -36.014588 -27.389738 9.00000000
-48.309247 -44.760078 -35.894323 9.00000000
-51.981200 -40.502930 -54.913145 9.00000000
-56.515502 -34.147579 -26.466268 9.00000000
-50.552045 -42.215673 -7.425132 9.00000000
-50.115146 -42.731437 -58.542631 9.00000000
-52.014356 -40.459106 -34.149196 9.00000000
-53.830605 -38.058484 -31.202245 9.00000000
-52.815669 -39.399972 -56.222729 9.00000000
-50.822274 -41.896109 -14.101116 9.00000000
-47.970105 -45.118892 1.442061 9.00000000
-52.992646 -39.188888 -5.881169 9.00000000
-54.404088 -37.281207 -27.988722 9.00000000
-51.119936 -41.544485 -9.706631 9.00000000
-50.070480 -42.784201 -59.344390 9.00000000
-52.294669 -40.088603 -32.141810 9.00000000
-50.030926 -42.840878 0.945280 9.00000000
-50.510041 -42.264957 -49.783605 9.00000000
-56.081400 -34.791865 -27.184302 9.00000000
-51.286508 -41.347725 -47.329180 9.00000000
-52.653656 -39.614112 -47.941790 9.00000000
-53.005636 -39.167242 -15.915804 9.00000000
-55.785142 -35.231532 -53.304931 9.00000000
-54.389186 -37.303320 -60.144000 9.00000000
-49.155848 -43.864427 -57.616462 9.00000000
-54.523237 -37.104371 -55.812806 9.00000000
-48.201371 -44.874218 -3.476980 9.00000000
-46.687510 -46.475802 -22.875249 9.00000000
-54.271854 -37.475262 -41.915908 9.00000000
-49.627326 -43.307693 -60.991685 9.00000000
-46.401248 -46.778621 -59.138094 9.00000000
-52.870647 -39.327305 -50.627952 9.00000000
-48.203813 -44.871620 -19.059454 9.00000000
-55.638152 -35.449710 -10.049396 9.00000000
-55.925477 -35.023299 2.851852 9.00000000
-56.383272 -34.343831 -48.344685 9.00000000
-52.186347 -40.231778 -12.020687 9.00000000
-55.861896 -35.117617 -60.644798 9.00000000
-54.470061 -37.183296 -5.805186 9.00000000
-46.622275 -46.544830 -10.128303 9.00000000
-49.384051 -43.595112 0.694018 9.00000000
-49.879009 -43.010386 -56.138300 9.00000000
-54.385087 -37.309407 -31.316441 9.00000000
-49.521763 -43.432398 -55.386257 9.00000000
-49.639028 -43.293882 -42.741263 9.00000000
-51.150433 -41.510402 -43.131144 9.00000000
-53.833250 -38.054987 -26.849445 9.00000000
-49.591457 -43.350083 -33.677310 9.00000000
-51.890752 -40.622479 -25.546123 9.00000000
-48.234968 -44.838660 -53.441238 9.00000000
-54.641443 -36.928938 -49.531598 9.00000000
-55.309246 -35.937834 -23.661996 9.00000000
-55.278079 -35.984086 -40.054019 9.00000000
-51.434396 -41.173017 -30.128584 9.00000000
-51.300085 -41.331677 2.427057 9.00000000
-48.968807 -44.062304 -37.237119 9.00000000
-53.644935 -38.303891 -43.793307 9.00000000
-55.561900 -35.562859 -26.216469 9.00000000
-50.322555 -42.493873 -19.812339 9.00000000
-52.385277 -39.968841 -60.466039 9.00000000
-48.209806 -44.865280 -31.738344 9.00000000
-53.878186 -38.000359 -41.077238 9.00000000
-56.558150 -34.084281 -14.572417 9.00000000
-49.303303 -43.690487 -16.459196 9.00000000
-52.727842 -39.516057 -57.116702 9.00000000
-55.887051 -35.080286 -47.727877 9.00000000
-49.438056 -43.531310 -8.662889 9.00000000
-46.966029 -46.181152 -10.929965 9.00000000
-54.471318 -37.181429 -7.811054 9.00000000
-51.202301 -41.447188 -12.256657 9.00000000
-52.097050 -40.349805 -14.865443 9.00000000
-54.740322 -36.782196 -18.056845 9.00000000
-46.912736 -46.237535 -9.378138 9.00000000
-52.288001 -40.097416 -48.767001 9.00000000
-53.201029 -38.890623 -38.658297 9.00000000
-47.631969 -45.476605 -20.313018 9.00000000
-56.383712 -34.343184 -10.699507 9.00000000
-48.598542 -44.454027 -4.199805 9.00000000
-53.216295 -38.873081 2.270763 9.00000000
-49.409231 -43.565328 -59.560268 9.00000000
-54.181518 -37.594664 -61.043697 9.00000000
-54.175289 -37.602898 0.083271 9.00000000
-53.369709 -38.687818 -26.323344 9.00000000
-46.438452 -46.739261 -60.728169 9.00000000
-56.128356 -34.722183 -22.393295 9.00000000
-49.751579 -43.160929 -38.724895 9.00000000
-51.403670 -41.209313 3.654610 9.00000000
-55.211091 -36.083525 1.373834 9.00000000
-52.017380 -40.455110 -27.560346 9.00000000
-46.862762 -46.290368 -59.875924 9.00000000
-50.999149 -41.687169 -18.073476 9.00000000
-52.547232 -39.754778 -44.547685 9.00000000
-55.779788 -35.239480 -45.865226 9.00000000
-55.209446 -36.085943 -52.442801 9.00000000
-53.316480 -38.738026 -53.073724 9.00000000
-50.905101 -41.798278 -48.061394 9.00000000
-48.697152 -44.349699 -42.675025 9.00000000
-50.940343 -41.756653 -39.634169 9.00000000
-56.349104 -34.394550 -4.554256 9.00000000
-46.965063 -46.182160 -25.290434 9.00000000
-46.515439 -46.657825 -45.866844 9.00000000
-47.485146 -45.631945 -12.803511 9.00000000
-51.237169 -41.405999 -36.396797 9.00000000
-50.645379 -42.105090 -40.455423 9.00000000
-47.407385 -45.714197 -29.016275 9.00000000
-53.207811 -38.900165 -14.498660 9.00000000
-51.969218 -40.518767 -39.648500 9.00000000
-52.670578 -39.591746 -24.731486 9.00000000
-53.512991 -38.478288 -45.960007 9.00000000
-55.259869 -36.011120 -10.594319 9.00000000
-52.065342 -40.391715 -38.387788 9.00000000
-47.091862 -46.048035 0.068031 9.00000000
-47.342062 -45.783300 -36.891979 9.00000000
-49.073417 -43.951635 3.180162 9.00000000
-46.628849 -46.537865 -20.062277 9.00000000
-54.949651 -36.471515 -53.649879 9.00000000
-50.594274 -42.165448 -59.667482 9.00000000
-48.656198 -44.393025 -27.466033 9.00000000
-48.822138 -44.217471 -40.749670 9.00000000
-46.597026 -46.571515 -39.460598 9.00000000
-53.976966 -37.865031 -10.165513 9.00000000
-55.274843 -35.988888 -43.661607 9.00000000
-47.634261 -45.474179 -22.694317 9.00000000
-47.760375 -45.340749 -28.241783 9.00000000
-50.236655 -42.587902 -55.462276 9.00000000
-52.413015 -39.932180 -42.740644 9.00000000
-50.191832 -42.652764 -8.868253 9.00000000
-50.697122 -42.043963 -47.100400 9.00000000
-56.081166 -34.792224 -9.894177 9.00000000
-51.379284 -41.238120 -42.203913 9.00000000
-51.175451 -41.483863 -41.064685 9.00000000
-52.618180 -39.661002 -29.144031 9.00000000
-48.775966 -44.266319 -31.457802 9.00000000
-54.344200 -37.370087 -1.708835 9.00000000
-51.894735 -40.617214 0.715390 9.00000000
-53.866055 -38.011628 -9.096340 9.00000000
-46.921797 -46.227917 -42.674199 9.00000000
-53.694536 -38.238331 -59.872700 9.00000000
-56.568924 -34.068291 -12.844859 9.00000000
-47.983715 -45.104470 -29.304313 9.00000000
-55.722269 -35.324884 0.276420 9.00000000
-52.717991 -39.529078 -31.392411 9.00000000
-53.511590 -38.480139 -48.847337 9.00000000
-55.719729 -35.328618 -37.234197 9.00000000
-49.522546 -43.431504 -6.297657 9.00000000
-51.904165 -40.604751 -33.256461 9.00000000
-54.542244 -37.076163 -50.929575 9.00000000
-49.255356 -43.747112 -39.141811 9.00000000
-50.876381 -41.832203 -48.972586 9.00000000
-51.816355 -40.720813 -40.769383 9.00000000
-47.755836 -45.345552 -34.516408 9.00000000
-51.238712 -41.404176 -6.440901 9.00000000
-47.979343 -45.109095 -60.120867 9.00000000
-47.600516 -45.509870 -46.711920 9.00000000
-47.440716 -45.678942 -21.847356 9.00000000
-51.351986 -41.270366 -16.360484 9.00000000
-50.458520 -42.336236 -18.178204 9.00000000
-56.541331 -34.109245 -56.367179 9.00000000
-47.736935 -45.365571 -3.898929 9.00000000
-47.053562 -46.088514 -47.605717 9.00000000
-50.228140 -42.597980 -25.222103 9.00000000
-48.373439 -44.692167 -37.503807 9.00000000
-48.406391 -44.657305 -16.581551 9.00000000
-53.437992 -38.590537 -22.896915 9.00000000
-54.394003 -37.296174 -29.655893 9.00000000
-49.766926 -43.162305 -1.698623 9.00000000
-50.935460 -41.762404 -13.114265 9.00000000
-53.793874 -38.107031 -46.901095 9.00000000
-46.435909 -46.741955 -55.430431 9.00000000
-53.854928 -38.026333 -49.472571 9.00000000
-52.647364 -39.622428 -51.848376 9.00000000
-47.786392 -45.313225 -39.758392 9.00000000
-54.377994 -37.319933 -22.468960 9.00000000
-46.947708 -46.200548 3.322868 9.00000000
-56.069607 -34.809360 -32.414678 9.00000000
-55.066988 -36.297378 -20.131009 9.00000000
-47.003645 -46.141322 -58.819951 9.00000000
-56.467830 -34.218327 -60.996622 9.00000000
-47.146429 -45.990276 -31.854637 9.00000000
-51.202442 -41.447025 -57.903031 9.00000000
-50.071364 -42.783162 -50.951045 9.00000000
-47.015871 -46.128389 -60.700252 9.00000000
-46.681435 -46.482235 -16.651274 9.00000000
-50.893578 -41.811880 0.910310 9.00000000
-56.091849 -34.776369 -7.466975 9.00000000
-52.699007 -39.554170 -49.616932 9.00000000
-52.005387 -40.470961 -44.905090 9.00000000
-54.231624 -37.528437 -0.840562 9.00000000
-52.204735 -40.207473 -45.991809 9.00000000
-55.480017 -35.684380 -45.080865 9.00000000
-54.690595 -36.855999 -0.459753 9.00000000
-47.652846 -45.454537 -0.561331 9.00000000
-49.413186 -43.560675 -28.580805 9.00000000
-50.778873 -41.947378 3.387289 9.00000000
-47.036684 -46.106376 -38.153180 9.00000000
-56.483643 -34.194865 -21.797872 9.00000000
-55.040929 -36.336050 -33.020567 9.00000000
-56.087553 -34.782728 -31.021672 9.00000000
-52.493154 -39.845512 0.370690 9.00000000
-47.160518 -45.975364 -39.126696 9.00000000
-47.819542 -45.278154 -44.879670 9.00000000
-53.433948 -38.582766 1.530118 9.00000000
-50.876788 -41.836151 -27.428618 9.00000000
-51.082050 -41.589239 -28.818977 9.00000000
-46.354019 -46.828643 0.979168 9.00000000
-56.420451 -34.288655 -25.604485 9.00000000
-50.161159 -42.686217 -3.468468 9.00000000
-46.495540 -46.678894 -27.207289 9.00000000
-48.165474 -44.912187 -12.608418 9.00000000
-53.896826 -37.970957 -20.667267 9.00000000
-49.385285 -43.593650 -5.490481 9.00000000
-52.740300 -39.499591 -61.116209 9.00000000
-53.252060 -38.841260 -16.784855 9.00000000
-50.974611 -41.716156 0.050879 9.00000000
-53.709637 -38.218374 -18.339044 9.00000000
-56.512230 -34.152437 -32.844108 9.00000000
-56.509237 -34.156875 -58.717060 9.00000000
-54.064367 -37.749508 -17.619654 9.00000000
-51.628343 -40.943910 -43.447864 9.00000000
-49.391160 -43.586707 -9.656334 9.00000000
-48.541901 -44.513949 -5.320004 9.00000000
-53.439361 -38.575608 -58.706893 9.00000000
-53.199190 -38.893054 -33.662375 9.00000000
-52.820661 -39.419365 1.338811 9.00000000
-56.223697 -34.580679 2.011380 9.00000000
-48.391819 -44.672722 -50.548021 9.00000000
-52.826889 -39.385142 -45.783867 9.00000000
-55.647841 -35.435303 -59.599220 9.00000000
-56.551363 -34.094355 -50.661340 9.00000000
-46.361238 -46.820981 -25.438719 9.00000000
-50.312279 -42.501996 -1.618575 9.00000000
-46.531771 -46.640559 -31.589580 9.00000000
-56.260846 -34.525527 -46.158010 9.00000000
-50.738612 -41.994956 -37.700512 9.00000000
-48.683837 -44.363784 -34.879019 9.00000000
-50.018646 -42.854938 2.130050 9.00000000
-52.639130 -39.633313 -16.841791 9.00000000
-56.556608 -34.086570 -47.206990 9.00000000
-52.522355 -39.787659 -52.705348 9.00000000
-46.992925 -46.152704 -2.954603 9.00000000
-51.824667 -40.709827 -19.379427 9.00000000
-56.174967 -34.652991 -36.454307 9.00000000
-54.967210 -36.445466 -1.284008 9.00000000
-53.816233 -38.077480 -11.169420 9.00000000
-55.415278 -35.780459 -56.363529 9.00000000
-51.650143 -40.918158 -9.146392 9.00000000
-54.540564 -37.078657 -44.638516 9.00000000
-55.917284 -35.035414 -56.212896 9.00000000
-53.440451 -38.585744 -21.367536 9.00000000
-51.354313 -41.267618 -20.287368 9.00000000
-55.030144 -36.352057 -30.685632 9.00000000
-56.097914 -34.767367 -15.190837 9.00000000
-50.061378 -42.794957 -52.880656 9.00000000
-55.178573 -36.131762 -60.152447 9.00000000
-51.140930 -41.521392 -34.810362 9.00000000
-56.057887 -34.826775 -14.220527 9.00000000
-55.851656 -35.132855 -4.056825 9.00000000
-52.174445 -40.247509 -2.193140 9.00000000
-52.146317 -40.284687 -56.597024 9.00000000
-53.923792 -37.936406 -39.900937 9.00000000
-55.245717 -36.032125 -8.403081 9.00000000
-47.688077 -45.417237 -35.713224 9.00000000
-50.485226 -42.294275 -42.934902 9.00000000
-46.571198 -46.598870 -7.456088 9.00000000
-50.261257 -42.558852 -37.095415 9.00000000
-46.347970 -46.835046 3.721299 9.00000000
-53.730824 -38.190369 -13.792385 9.00000000
-56.351750 -34.390621 -17.706832 9.00000000
-51.951681 -40.541946 -29.811746 9.00000000
-53.210846 -38.877648 -43.204332 9.00000000
-48.591594 -44.461372 -9.122582 9.00000000
-54.404233 -37.280991 -20.460038 9.00000000
-54.051302 -37.766777 -2.568425 9.00000000
-51.989325 -40.492190 -16.083122 9.00000000
-54.326881 -37.395790 -50.141126 9.00000000
-46.348841 -46.834067 -57.687783 9.00000000
-51.407290 -41.206489 -45.921146 9.00000000
-48.235692 -44.837894 -18.249269 9.00000000
-53.291305 -38.771300 -60.758203 9.00000000
-47.038380 -46.104599 -19.314627 9.00000000
-52.496735 -39.821523 -15.784834 9.00000000
-47.887635 -45.206117 -32.477020 9.00000000
-53.189780 -38.905491 -57.498890 9.00000000
-47.484945 -45.632137 -51.933809 9.00000000
-47.735513 -45.367072 -7.251899 9.00000000
-53.087200 -39.041077 -54.385364 9.00000000
-51.565939 -41.017630 -57.190830 9.00000000
-49.498476 -43.459906 -56.929829 9.00000000
-46.496656 -46.677726 -13.567689 9.00000000
-55.380051 -35.832754 -12.595882 9.00000000
-54.212674 -37.553484 -43.294128 9.00000000
-46.544368 -46.627216 -48.123475 9.00000000
-54.014528 -37.815383 -19.760640 9.00000000
-53.292162 -38.782865 -13.397290 9.00000000
-52.131534 -40.304227 -17.576409 9.00000000
-47.410022 -45.711401 -59.648592 9.00000000
-48.919983 -44.113957 -35.709555 9.00000000
-46.346959 -46.836062 -52.753800 9.00000000
-48.430510 -44.631800 -1.265386 9.00000000
-53.360059 -38.684200 -7.880025 9.00000000
-52.281021 -40.106643 1.374808 9.00000000
-48.507428 -44.550415 -52.595200 9.00000000
-47.070151 -46.070973 -33.768529 9.00000000
-49.216880 -43.792561 -7.250796 9.00000000
-50.210517 -42.621496 3.809646 9.00000000
-47.110011 -46.028836 1.690346 9.00000000
-51.387599 -41.228297 -40.131843 9.00000000
-51.409533 -41.202388 -1.865756 9.00000000
-50.687893 -42.054852 -6.522922 9.00000000
-53.427626 -38.604166 -30.613189 9.00000000
-51.485976 -41.112086 -21.685331 9.00000000
-51.052860 -41.623721 -0.851834 9.00000000
-48.984808 -44.045377 -18.812273 9.00000000
-55.211702 -36.082599 -38.859008 9.00000000
-49.871461 -43.019321 -27.047780 9.00000000
-47.529293 -45.585242 -10.091422 9.00000000
-49.087226 -43.937024 -38.230343 9.00000000
-46.607089 -46.560878 -28.537262 9.00000000
-49.332049 -43.656515 -40.152858 9.00000000
-55.840404 -35.149531 -23.563946 9.00000000
-51.492226 -41.104703 -17.619937 9.00000000
-55.549951 -35.580595 -22.166610 9.00000000
-50.130523 -42.713286 -38.087116 9.00000000
-52.757346 -39.480099 -12.459683 9.00000000
-53.925457 -37.933114 -8.222606 9.00000000
-53.449341 -38.562420 -6.568446 9.00000000
-55.899870 -35.061271 -29.201108 9.00000000
-52.164410 -40.260772 -51.069699 9.00000000
-54.801232 -36.691798 -11.229361 9.00000000
-47.203973 -45.929400 -27.931563 9.00000000
-53.094331 -39.031651 -48.428122 9.00000000
-51.486836 -41.111070 -18.689902 9.00000000
-51.823134 -40.711853 -1.155856 9.00000000
-54.628552 -36.948071 -47.518365 9.00000000
-46.486731 -46.688207 -33.877972 9.00000000
-47.954128 -45.135771 -56.522772 9.00000000
-55.416955 -35.777976 -34.825390 9.00000000
-55.882235 -35.087475 -2.311116 9.00000000
-55.950112 -34.986695 -44.731533 9.00000000
-54.654035 -36.910258 -14.468074 9.00000000
-48.473825 -44.585964 -32.671485 9.00000000
-54.248837 -37.505684 -4.034833 9.00000000
-54.061560 -37.753218 -35.133688 9.00000000
-53.535433 -38.450357 -37.170692 9.00000000
-48.364246 -44.701892 -28.246252 9.00000000
-49.989687 -42.892056 -0.887248 9.00000000
-49.027934 -43.999752 -0.033885 9.00000000
-52.211412 -40.198648 -4.349907 9.00000000
-47.289916 -45.838486 -17.633340 9.00000000
-54.886763 -36.564852 -39.696271 9.00000000
-55.530486 -35.609477 -54.123037 9.00000000
-53.024111 -39.124464 -27.380665 9.00000000
-52.581714 -39.709202 -33.371353 9.00000000
-55.883456 -35.085666 -0.526985 9.00000000
-54.639169 -36.932315 -43.751882 9.00000000
-56.506220 -34.161356 -19.419881 9.00000000
-52.889822 -39.301961 -18.357532 9.00000000
-52.944144 -39.246887 3.782027 9.00000000
-49.926090 -42.954797 -13.082314 9.00000000
-56.519366 -34.141845 -13.785996 9.00000000
-53.486573 -38.513209 -9.682139 9.00000000
-46.393151 -46.787210 -34.775957 9.00000000
-54.247825 -37.507022 -25.479848 9.00000000
-55.593576 -35.515859 -15.137614 9.00000000
-53.596922 -38.367353 -47.882049 9.00000000
-53.917325 -37.943861 -56.779930 9.00000000
-55.060386 -36.307167 -57.012675 9.00000000
-51.661897 -40.904273 -5.019965 9.00000000
-52.988821 -39.196679 -8.625704 9.00000000
-51.673027 -40.891126 -49.813875 9.00000000
-54.035066 -37.788237 -30.302800 9.00000000
-56.467225 -34.219233 -43.247141 9.00000000
-53.328553 -38.729648 -29.052300 9.00000000
-50.925142 -41.774593 -19.039792 9.00000000
11.276671 -25.078598 -61.120979 10.00000000
12.952020 -36.639226 -61.120979 10.00000000
42.370942 -54.635942 -61.120979 10.00000000
34.208341 -50.481567 -61.120979 10.00000000
24.858352 -51.902489 -61.120979 10.00000000
9.929092 -30.453754 -61.120979 10.00000000
19.046351 -46.833946 -61.120979 10.00000000
40.640663 -52.119515 -61.120979 10.00000000
14.644383 -33.129630 -61.120979 10.00000000
27.070063 -48.953867 -61.120979 10.00000000
17.343882 -43.593876 -61.120979 10.00000000
7.159062 -27.297913 -61.120979 10.00000000
8.330082 -33.556096 -61.120979 10.00000000
6.463312 -24.310059 -61.120979 10.00000000
16.379644 -41.404224 -61.120979 10.00000000
7.474832 -29.989208 -61.120979 10.00000000
29.174058 -48.745356 -61.120979 10.00000000
9.861626 -36.434823 -61.120979 10.00000000
34.286891 -54.930955 -61.120979 10.00000000
30.709061 -54.676022 -61.120979 10.00000000
34.773964 -50.477518 -61.120979 10.00000000
19.778634 -48.184252 -61.120979 10.00000000
44.325324 -52.972049 -61.120979 10.00000000
12.808655 -25.911627 -61.120979 10.00000000
13.325449 -35.862251 -61.120979 10.00000000
22.102422 -48.552753 -61.120979 10.00000000
50.555298 -50.277508 -61.120979 10.00000000
18.232948 -37.469418 -61.120979 10.00000000
8.136892 -24.919904 -61.120979 10.00000000
27.359067 -47.325135 -61.120979 10.00000000
34.824500 -51.304001 -61.120979 10.00000000
41.005070 -51.644515 -61.120979 10.00000000
14.606989 -35.967032 -61.120979 10.00000000
23.373071 -44.494894 -61.120979 10.00000000
53.052176 -52.413502 -61.120979 10.00000000
44.094768 -55.592065 -61.120979 10.00000000
42.668495 -51.441117 -61.120979 10.00000000
24.897800 -51.251943 -61.120979 10.00000000
6.016961 -26.541996 -61.120979 10.00000000
16.957822 -42.335168 -61.120979 10.00000000
23.022130 -43.861387 -61.120979 10.00000000
48.432363 -53.380272 -61.120979 10.00000000
21.326734 -43.064668 -61.120979 10.00000000
17.896054 -42.391982 -61.120979 10.00000000
46.689826 -51.421118 -61.120979 10.00000000
24.819702 -44.319991 -61.120979 10.00000000
19.203136 -44.011176 -61.120979 10.00000000
15.973522 -43.465567 -61.120979 10.00000000
26.042902 -45.415509 -61.120979 10.00000000
44.639193 -52.425593 -61.120979 10.00000000
43.562013 -51.553365 -61.120979 10.00000000
27.392220 -45.936269 -61.120979 10.00000000
32.706820 -53.427498 -61.120979 10.00000000
13.769233 -36.327535 -61.120979 10.00000000
18.448066 -38.654396 -61.120979 10.00000000
48.483066 -55.661351 -61.120979 10.00000000
39.762324 -54.692061 -61.120979 10.00000000
7.647430 -22.911099 -61.120979 10.00000000
25.744871 -50.863352 -61.120979 10.00000000
27.918208 -46.150057 -61.120979 10.00000000
11.516873 -30.334973 -61.120979 10.00000000
32.136637 -54.412876 -61.120979 10.00000000
5.887500 -22.134919 -61.120979 10.00000000
14.266036 -34.829903 -61.120979 10.00000000
18.835509 -38.268202 -61.120979 10.00000000
31.964196 -52.287627 -61.120979 10.00000000
14.050731 -30.099011 -61.120979 10.00000000
8.738282 -34.113330 -61.120979 10.00000000
43.878371 -54.697572 -61.120979 10.00000000
28.829572 -53.357753 -61.120979 10.00000000
8.908683 -30.781859 -61.120979 10.00000000
38.043885 -51.307088 -61.120979 10.00000000
49.759546 -52.739602 -61.120979 10.00000000
27.591465 -48.079451 -61.120979 10.00000000
36.872823 -55.970075 -61.120979 10.00000000
59.076998 -47.351103 -61.120979 10.00000000
22.691827 -45.807365 -61.120979 10.00000000
31.868516 -48.730337 -61.120979 10.00000000
50.958312 -51.238935 -61.120979 10.00000000
38.328184 -53.205205 -61.120979 10.00000000
9.160822 -23.501141 -61.120979 10.00000000
10.479761 -22.007110 -61.120979 10.00000000
28.911259 -51.603536 -61.120979 10.00000000
25.803317 -48.558337 -61.120979 10.00000000
11.566682 -27.093454 -61.120979 10.00000000
13.401378 -32.257006 -61.120979 10.00000000
26.868213 -47.305345 -61.120979 10.00000000
11.490920 -32.191248 -61.120979 10.00000000
28.006420 -48.506124 -61.120979 10.00000000
40.206136 -53.746721 -61.120979 10.00000000
6.883059 -25.767157 -61.120979 10.00000000
39.333109 -55.713165 -61.120979 10.00000000
50.421389 -50.991638 -61.120979 10.00000000
14.699942 -34.398959 -61.120979 10.00000000
39.417352 -50.235891 -61.120979 10.00000000
9.675041 -33.231819 -61.120979 10.00000000
43.896713 -52.418540 -61.120979 10.00000000
30.172203 -49.111459 -61.120979 10.00000000
55.282156 -50.157514 -61.120979 10.00000000
24.119024 -47.682252 -61.120979 10.00000000
40.299099 -50.935587 -61.120979 10.00000000
20.501442 -45.606750 -61.120979 10.00000000
12.498213 -34.864615 -61.120979 10.00000000
38.198433 -51.814484 -61.120979 10.00000000
47.876913 -53.813033 -61.120979 10.00000000
36.868117 -51.380241 -61.120979 10.00000000
7.104884 -29.141504 -61.120979 10.00000000
23.085522 -49.876943 -61.120979 10.00000000
10.407250 -28.389379 -61.120979 10.00000000
14.543159 -43.343963 -61.120979 10.00000000
12.045352 -21.739520 -61.120979 10.00000000
18.817302 -44.432779 -61.120979 10.00000000
12.213252 -26.011381 -61.120979 10.00000000
9.154818 -25.967490 -61.120979 10.00000000
8.509664 -21.953314 -61.120979 10.00000000
45.230702 -54.694685 -61.120979 10.00000000
39.324674 -56.604483 -61.120979 10.00000000
18.213925 -44.624513 -61.120979 10.00000000
8.631621 -23.806115 -61.120979 10.00000000
25.155875 -45.481727 -61.120979 10.00000000
33.625880 -50.549542 -61.120979 10.00000000
42.237280 -55.264182 -61.120979 10.00000000
46.115534 -55.480857 -61.120979 10.00000000
8.398441 -30.308053 -61.120979 10.00000000
36.068290 -51.410586 -61.120979 10.00000000
43.134414 -52.712197 -61.120979 10.00000000
16.664100 -38.756062 -61.120979 10.00000000
13.661893 -38.105124 -61.120979 10.00000000
18.733099 -44.961342 -61.120979 10.00000000
39.658948 -53.711280 -61.120979 10.00000000
38.423921 -54.978697 -61.120979 10.00000000
50.939499 -53.431273 -61.120979 10.00000000
24.069643 -48.594735 -61.120979 10.00000000
36.933739 -50.804083 -61.120979 10.00000000
12.718701 -28.433997 -61.120979 10.00000000
51.949114 -50.575496 -61.120979 10.00000000
35.617260 -49.777520 -61.120979 10.00000000
16.038202 -42.609819 -61.120979 10.00000000
18.768316 -46.330801 -61.120979 10.00000000
45.508928 -52.760624 -61.120979 10.00000000
24.266463 -45.092402 -61.120979 10.00000000
31.444987 -51.897359 -61.120979 10.00000000
13.192206 -40.612897 -61.120979 10.00000000
40.215376 -52.679258 -61.120979 10.00000000
22.018276 -43.940116 -61.120979 10.00000000
37.830473 -54.124738 -61.120979 10.00000000
32.643310 -49.254281 -61.120979 10.00000000
44.717039 -54.047317 -61.120979 10.00000000
20.028138 -40.755872 -61.120979 10.00000000
10.063713 -23.266542 -61.120979 10.00000000
10.582055 -32.611482 -61.120979 10.00000000
7.437069 -24.623998 -61.120979 10.00000000
25.192191 -48.554315 -61.120979 10.00000000
18.032153 -47.040661 -61.120979 10.00000000
8.699476 -25.105625 -61.120979 10.00000000
10.281791 -24.002107 -61.120979 10.00000000
43.475284 -53.617249 -61.120979 10.00000000
14.330865 -40.222785 -61.120979 10.00000000
30.003367 -52.027734 -61.120979 10.00000000
24.998987 -47.127675 -61.120979 10.00000000
7.727221 -27.015410 -61.120979 10.00000000
9.715559 -25.857321 -61.120979 10.00000000
25.956389 -49.088329 -61.120979 10.00000000
11.257430 -36.216948 -61.120979 10.00000000
11.660705 -39.237964 -61.120979 10.00000000
54.553886 -49.506766 -61.120979 10.00000000
13.882655 -33.570936 -61.120979 10.00000000
26.625274 -46.438417 -61.120979 10.00000000
12.558739 -35.786249 -61.120979 10.00000000
17.563714 -36.533500 -61.120979 10.00000000
42.540945 -50.578869 -61.120979 10.00000000
10.296778 -37.276918 -61.120979 10.00000000
7.398760 -31.344423 -61.120979 10.00000000
52.691600 -51.262713 -61.120979 10.00000000
33.281165 -53.278284 -61.120979 10.00000000
17.232843 -44.679949 -61.120979 10.00000000
15.244845 -38.045874 -61.120979 10.00000000
9.177000 -33.431508 -61.120979 10.00000000
41.155574 -55.387254 -61.120979 10.00000000
38.759576 -50.111268 -61.120979 10.00000000
9.146083 -24.278160 -61.120979 10.00000000
10.548499 -31.235027 -61.120979 10.00000000
41.039782 -54.819413 -61.120979 10.00000000
41.448470 -56.417451 -61.120979 10.00000000
48.473051 -54.100577 -61.120979 10.00000000
5.333628 -22.923976 -61.120979 10.00000000
41.456302 -52.247033 -61.120979 10.00000000
52.077068 -52.575902 -61.120979 10.00000000
8.105813 -28.384198 -61.120979 10.00000000
36.328586 -50.674899 -61.120979 10.00000000
38.135725 -50.722505 -61.120979 10.00000000
24.779842 -50.277837 -61.120979 10.00000000
49.296236 -51.977011 -61.120979 10.00000000
54.002093 -51.657840 -61.120979 10.00000000
21.700895 -47.058771 -61.120979 10.00000000
11.053871 -30.557302 -61.120979 10.00000000
35.575840 -54.343273 -61.120979 10.00000000
19.821729 -39.554718 -61.120979 10.00000000
23.580088 -48.709970 -61.120979 10.00000000
57.479299 -48.017941 -61.120979 10.00000000
13.937963 -32.019125 -61.120979 10.00000000
27.162190 -46.712662 -61.120979 10.00000000
12.162620 -27.884333 -61.120979 10.00000000
54.624662 -51.439072 -61.120979 10.00000000
16.114682 -39.743895 -61.120979 10.00000000
49.736843 -53.354703 -61.120979 10.00000000
42.087532 -51.881984 -61.120979 10.00000000
44.707791 -53.414834 -61.120979 10.00000000
7.820360 -28.929163 -61.120979 10.00000000
6.865390 -29.673571 -61.120979 10.00000000
21.822466 -44.455934 -61.120979 10.00000000
37.234732 -54.277057 -61.120979 10.00000000
55.700854 -49.584260 -61.120979 10.00000000
44.694086 -56.702921 -61.120979 10.00000000
11.642706 -37.307307 -61.120979 10.00000000
24.376691 -49.685584 -61.120979 10.00000000
21.874667 -49.630183 -61.120979 10.00000000
6.547807 -22.116305 -61.120979 10.00000000
37.494997 -52.834357 -61.120979 10.00000000
28.011110 -50.164994 -61.120979 10.00000000
34.475890 -51.864019 -61.120979 10.00000000
21.492576 -45.438510 -61.120979 10.00000000
11.894534 -32.701105 -61.120979 10.00000000
16.518447 -43.724606 -61.120979 10.00000000
32.400781 -53.994632 -61.120979 10.00000000
14.538051 -41.127966 -61.120979 10.00000000
11.906761 -38.365400 -61.120979 10.00000000
26.998375 -45.560184 -61.120979 10.00000000
22.298470 -47.779148 -61.120979 10.00000000
32.539896 -51.329748 -61.120979 10.00000000
21.452559 -43.980806 -61.120979 10.00000000
15.114264 -36.157206 -61.120979 10.00000000
47.214821 -52.644463 -61.120979 10.00000000
46.696027 -55.453812 -61.120979 10.00000000
46.608214 -56.415925 -61.120979 10.00000000
12.537325 -32.187656 -61.120979 10.00000000
18.850994 -42.739040 -61.120979 10.00000000
8.011127 -23.914633 -61.120979 10.00000000
9.146335 -34.606882 -61.120979 10.00000000
24.460984 -47.283638 -61.120979 10.00000000
5.361885 -24.040389 -61.120979 10.00000000
40.307284 -55.605209 -61.120979 10.00000000
19.683428 -41.181934 -61.120979 10.00000000
35.281795 -55.451922 -61.120979 10.00000000
49.018213 -53.811948 -61.120979 10.00000000
20.337308 -48.293980 -61.120979 10.00000000
10.625613 -26.328086 -61.120979 10.00000000
23.900785 -46.758645 -61.120979 10.00000000
34.581062 -52.619316 -61.120979 10.00000000
23.297377 -46.670873 -61.120979 10.00000000
39.905296 -52.133041 -61.120979 10.00000000
48.449067 -52.751328 -61.120979 10.00000000
12.131832 -22.470268 -61.120979 10.00000000
45.494306 -56.663863 -61.120979 10.00000000
10.949087 -37.155748 -61.120979 10.00000000
57.245119 -49.174163 -61.120979 10.00000000
10.739996 -31.777550 -61.120979 10.00000000
47.875168 -55.091558 -61.120979 10.00000000
48.145851 -51.035834 -61.120979 10.00000000
29.999923 -47.239479 -61.120979 10.00000000
6.341949 -25.294954 -61.120979 10.00000000
53.627291 -52.176337 -61.120979 10.00000000
18.918233 -43.288554 -61.120979 10.00000000
48.745351 -50.910409 -61.120979 10.00000000
13.879595 -37.501979 -61.120979 10.00000000
28.969607 -53.960343 -61.120979 10.00000000
29.487770 -51.827022 -61.120979 10.00000000
43.547358 -56.081267 -61.120979 10.00000000
27.802307 -51.906626 -61.120979 10.00000000
11.161893 -29.507768 -61.120979 10.00000000
7.169861 -22.778876 -61.120979 10.00000000
15.633602 -41.469890 -61.120979 10.00000000
32.434826 -48.292662 -61.120979 10.00000000
41.204811 -54.073990 -61.120979 10.00000000
25.471049 -45.918931 -61.120979 10.00000000
14.531001 -37.084260 -61.120979 10.00000000
32.517898 -52.145498 -61.120979 10.00000000
40.817327 -56.178553 -61.120979 10.00000000
40.501921 -51.510000 -61.120979 10.00000000
7.842011 -22.343177 -61.120979 10.00000000
21.097008 -48.418351 -61.120979 10.00000000
26.286644 -50.361512 -61.120979 10.00000000
7.350351 -28.637520 -61.120979 10.00000000
31.058414 -49.808677 -61.120979 10.00000000
41.522935 -52.817855 -61.120979 10.00000000
35.331140 -53.365394 -61.120979 10.00000000
40.803099 -50.746205 -61.120979 10.00000000
36.889799 -55.394905 -61.120979 10.00000000
50.982146 -52.885523 -61.120979 10.00000000
34.179218 -49.967113 -61.120979 10.00000000
12.443117 -36.805323 -61.120979 10.00000000
43.885969 -50.698515 -61.120979 10.00000000
11.844843 -31.659594 -61.120979 10.00000000
22.696405 -46.725930 -61.120979 10.00000000
29.914393 -47.948233 -61.120979 10.00000000
44.350309 -54.846531 -61.120979 10.00000000
45.600704 -53.868296 -61.120979 10.00000000
20.529088 -40.268788 -61.120979 10.00000000
33.428737 -48.622927 -61.120979 10.00000000
26.892078 -51.346442 -61.120979 10.00000000
10.078374 -29.293543 -61.120979 10.00000000
57.309545 -48.609263 -61.120979 10.00000000
27.909804 -46.862417 -61.120979 10.00000000
10.320145 -27.452064 -61.120979 10.00000000
35.451490 -51.750260 -61.120979 10.00000000
21.648465 -47.932172 -61.120979 10.00000000
29.940248 -49.806530 -61.120979 10.00000000
52.179353 -53.299126 -61.120979 10.00000000
27.327999 -53.053928 -61.120979 10.00000000
33.875164 -53.009535 -61.120979 10.00000000
5.839578 -25.849237 -61.120979 10.00000000
33.334316 -55.089484 -61.120979 10.00000000
42.508670 -53.842897 -61.120979 10.00000000
18.686065 -40.153460 -61.120979 10.00000000
16.469194 -45.518958 -61.120979 10.00000000
35.131781 -55.931068 -61.120979 10.00000000
43.291991 -54.857088 -61.120979 10.00000000
17.669540 -41.311606 -61.120979 10.00000000
47.134188 -51.145234 -61.120979 10.00000000
22.779403 -45.265419 -61.120979 10.00000000
51.565135 -51.789573 -61.120979 10.00000000
26.363090 -45.874445 -61.120979 10.00000000
36.310798 -53.592764 -61.120979 10.00000000
21.105220 -47.012848 -61.120979 10.00000000
40.287730 -56.963065 -61.120979 10.00000000
47.723526 -53.076832 -61.120979 10.00000000
8.912726 -29.858536 -61.120979 10.00000000
51.054962 -51.793331 -61.120979 10.00000000
21.024829 -47.630481 -61.120979 10.00000000
7.980549 -32.542765 -61.120979 10.00000000
49.730898 -53.971485 -61.120979 10.00000000
22.173936 -50.185970 -61.120979 10.00000000
22.666595 -48.210683 -61.120979 10.00000000
31.865244 -52.855205 -61.120979 10.00000000
18.315504 -44.055122 -61.120979 10.00000000
29.431580 -50.258643 -61.120979 10.00000000
30.503183 -51.375998 -61.120979 10.00000000
38.464641 -56.345586 -61.120979 10.00000000
24.567503 -48.298027 -61.120979 10.00000000
7.375157 -23.904607 -61.120979 10.00000000
48.865797 -55.189076 -61.120979 10.00000000
14.936275 -40.460189 -61.120979 10.00000000
36.406483 -49.680541 -61.120979 10.00000000
17.343272 -46.172329 -61.120979 10.00000000
38.293916 -55.696341 -61.120979 10.00000000
37.984372 -56.515619 -61.120979 10.00000000
31.171261 -52.872785 -61.120979 10.00000000
20.665102 -41.387568 -61.120979 10.00000000
15.323398 -34.535852 -61.120979 10.00000000
42.183537 -53.099507 -61.120979 10.00000000
35.819980 -50.797093 -61.120979 10.00000000
11.127594 -24.020253 -61.120979 10.00000000
20.087752 -42.951526 -61.120979 10.00000000
12.286674 -28.866888 -61.120979 10.00000000
19.965355 -43.476086 -61.120979 10.00000000
19.866637 -47.598726 -61.120979 10.00000000
12.337830 -23.260737 -61.120979 10.00000000
21.203208 -41.720061 -61.120979 10.00000000
48.245512 -52.242235 -61.120979 10.00000000
18.010372 -39.304988 -61.120979 10.00000000
53.434366 -49.862118 -61.120979 10.00000000
46.186827 -51.942826 -61.120979 10.00000000
12.004086 -30.569964 -61.120979 10.00000000
8.498557 -32.819478 -61.120979 10.00000000
8.555079 -24.464850 -61.120979 10.00000000
12.587259 -30.392739 -61.120979 10.00000000
37.068108 -54.822186 -61.120979 10.00000000
19.199450 -39.726914 -61.120979 10.00000000
39.841232 -54.182239 -61.120979 10.00000000
56.729841 -49.621280 -61.120979 10.00000000
16.210530 -39.112186 -61.120979 10.00000000
5.924889 -22.931268 -61.120979 10.00000000
34.200123 -55.508431 -61.120979 10.00000000
45.488686 -56.056547 -61.120979 10.00000000
24.612154 -45.585041 -61.120979 10.00000000
15.862445 -37.203365 -61.120979 10.00000000
28.567899 -47.941263 -61.120979 10.00000000
14.760375 -39.836038 -61.120979 10.00000000
11.782282 -37.836659 -61.120979 10.00000000
18.143630 -46.471175 -61.120979 10.00000000
46.356348 -54.611928 -61.120979 10.00000000
46.661963 -53.608436 -61.120979 10.00000000
20.883681 -49.150959 -61.120979 10.00000000
52.420320 -50.745060 -61.120979 10.00000000
51.086823 -50.724832 -61.120979 10.00000000
28.566582 -51.104317 -61.120979 10.00000000
44.200954 -53.544308 -61.120979 10.00000000
15.026097 -43.957742 -61.120979 10.00000000
49.113931 -50.368933 -61.120979 10.00000000
15.083388 -41.349692 -61.120979 10.00000000
47.174941 -56.845000 -61.120979 10.00000000
41.698233 -53.467239 -61.120979 10.00000000
9.512676 -26.604135 -61.120979 10.00000000
28.020501 -49.555053 -61.120979 10.00000000
10.719959 -23.692712 -61.120979 10.00000000
18.208314 -45.944264 -61.120979 10.00000000
37.816655 -53.476558 -61.120979 10.00000000
23.137106 -46.175523 -61.120979 10.00000000
10.993745 -22.309642 -61.120979 10.00000000
46.839922 -54.894259 -61.120979 10.00000000
33.486323 -52.052412 -61.120979 10.00000000
49.672189 -54.982262 -61.120979 10.00000000
10.854621 -38.340819 -61.120979 10.00000000
15.748026 -36.442556 -61.120979 10.00000000
13.674592 -36.968112 -61.120979 10.00000000
51.253613 -53.904366 -61.120979 10.00000000
28.050320 -51.401498 -61.120979 10.00000000
10.472762 -36.659184 -61.120979 10.00000000
41.771266 -54.049971 -61.120979 10.00000000
23.524019 -50.273601 -61.120979 10.00000000
42.163044 -51.305888 -61.120979 10.00000000
33.753295 -54.319993 -61.120979 10.00000000
24.148166 -50.204060 -61.120979 10.00000000
24.949316 -44.902879 -61.120979 10.00000000
8.956446 -27.570419 -61.120979 10.00000000
53.637762 -50.482697 -61.120979 10.00000000
48.428814 -50.422613 -61.120979 10.00000000
9.395375 -31.316135 -61.120979 10.00000000
10.013221 -22.695691 -61.120979 10.00000000
13.195126 -28.135129 -61.120979 10.00000000
36.059663 -50.137085 -61.120979 10.00000000
9.705129 -24.352947 -61.120979 10.00000000
9.460739 -22.694888 -61.120979 10.00000000
34.286847 -54.329429 -61.120979 10.00000000
9.477319 -30.814120 -61.120979 10.00000000
45.862488 -54.373944 -61.120979 10.00000000
47.797095 -52.515006 -61.120979 10.00000000
13.486061 -41.812399 -61.120979 10.00000000
50.001613 -51.997667 -61.120979 10.00000000
16.761656 -38.127168 -61.120979 10.00000000
30.574737 -48.268714 -61.120979 10.00000000
37.088848 -52.109474 -61.120979 10.00000000
30.586892 -47.719475 -61.120979 10.00000000
52.391117 -52.121621 -61.120979 10.00000000
36.898543 -52.709764 -61.120979 10.00000000
42.970493 -53.299069 -61.120979 10.00000000
8.652293 -27.128403 -61.120979 10.00000000
11.641249 -29.824685 -61.120979 10.00000000
45.446453 -51.606244 -61.120979 10.00000000
16.661605 -40.226682 -61.120979 10.00000000
10.104913 -33.848278 -61.120979 10.00000000
46.081902 -53.647392 -61.120979 10.00000000
13.104945 -39.528188 -61.120979 10.00000000
11.749677 -36.007910 -61.120979 10.00000000
43.343848 -52.116449 -61.120979 10.00000000
13.487259 -31.592654 -61.120979 10.00000000
33.214976 -54.493346 -61.120979 10.00000000
13.317738 -34.097245 -61.120979 10.00000000
16.898745 -41.621741 -61.120979 10.00000000
46.455240 -57.052873 -61.120979 10.00000000
13.630881 -40.334965 -61.120979 10.00000000
16.103689 -44.045383 -61.120979 10.00000000
31.267034 -47.878608 -61.120979 10.00000000
15.504057 -44.453624 -61.120979 10.00000000
20.503138 -46.257256 -61.120979 10.00000000
19.518763 -39.078437 -61.120979 10.00000000
35.962965 -54.750803 -61.120979 10.00000000
17.073725 -45.378339 -61.120979 10.00000000
43.990817 -57.070480 -61.120979 10.00000000
38.510383 -54.060573 -61.120979 10.00000000
40.782623 -53.791598 -61.120979 10.00000000
9.813639 -23.693706 -61.120979 10.00000000
35.315651 -50.640082 -61.120979 10.00000000
44.421856 -56.038468 -61.120979 10.00000000
32.010380 -51.653118 -61.120979 10.00000000
47.066195 -51.921697 -61.120979 10.00000000
37.546895 -50.987504 -61.120979 10.00000000
12.971769 -27.164166 -61.120979 10.00000000
8.826602 -22.509552 -61.120979 10.00000000
55.378492 -48.724230 -61.120979 10.00000000
6.710443 -27.751043 -61.120979 10.00000000
51.643643 -51.091331 -61.120979 10.00000000
30.173154 -50.486139 -61.120979 10.00000000
9.396568 -27.219119 -61.120979 10.00000000
22.622274 -48.815982 -61.120979 10.00000000
24.475706 -46.703191 -61.120979 10.00000000
22.255379 -44.798356 -61.120979 10.00000000
41.780774 -50.550358 -61.120979 10.00000000
47.339861 -53.493209 -61.120979 10.00000000
43.191491 -51.218002 -61.120979 10.00000000
30.487240 -49.679946 -61.120979 10.00000000
16.100915 -44.988023 -61.120979 10.00000000
16.460006 -34.958957 -61.120979 10.00000000
9.559851 -32.589033 -61.120979 10.00000000
7.558080 -25.754062 -61.120979 10.00000000
7.083729 -28.104374 -61.120979 10.00000000
23.661419 -45.830004 -61.120979 10.00000000
14.038443 -34.072254 -61.120979 10.00000000
8.671257 -29.202613 -61.120979 10.00000000
45.758027 -54.960232 -61.120979 10.00000000
27.152195 -49.754632 -61.120979 10.00000000
10.736517 -33.740844 -61.120979 10.00000000
34.044297 -49.407484 -61.120979 10.00000000
13.862953 -39.841857 -61.120979 10.00000000
12.907617 -26.443165 -61.120979 10.00000000
13.121290 -34.875475 -61.120979 10.00000000
11.627916 -23.769016 -61.120979 10.00000000
11.195052 -25.659564 -61.120979 10.00000000
8.269234 -26.653544 -61.120979 10.00000000
13.724922 -34.508837 -61.120979 10.00000000
53.006698 -50.668646 -61.120979 10.00000000
56.846779 -48.200775 -61.120979 10.00000000
10.115529 -24.706006 -61.120979 10.00000000
12.889799 -37.592031 -61.120979 10.00000000
13.268331 -33.493395 -61.120979 10.00000000
21.244814 -49.557040 -61.120979 10.00000000
29.552314 -54.078332 -61.120979 10.00000000
17.189879 -40.274553 -61.120979 10.00000000
