43.906448 7.404960 -61.120979 13.00000000
64.084305 42.854061 -61.120979 13.00000000
63.534771 54.225361 -61.120979 13.00000000
61.828106 25.333536 -61.120979 13.00000000
63.979820 30.129166 -61.120979 13.00000000
67.350220 34.505363 -61.120979 13.00000000
38.498695 6.008940 -61.120979 13.00000000
66.555191 49.015640 -61.120979 13.00000000
67.502518 47.477154 -61.120979 13.00000000
61.675617 24.620094 -61.120979 13.00000000
58.841698 26.270313 -61.120979 13.00000000
42.108772 13.140999 -61.120979 13.00000000
43.288982 12.469945 -61.120979 13.00000000
60.735214 20.617678 -61.120979 13.00000000
66.240639 32.360649 -61.120979 13.00000000
58.041435 23.301311 -61.120979 13.00000000
64.738274 35.731934 -61.120979 13.00000000
51.704636 17.660431 -61.120979 13.00000000
62.541313 54.816814 -61.120979 13.00000000
62.246315 32.342113 -61.120979 13.00000000
36.976002 7.267297 -61.120979 13.00000000
48.351166 16.206079 -61.120979 13.00000000
37.303841 6.887092 -61.120979 13.00000000
34.701836 7.582328 -61.120979 13.00000000
61.233936 32.032188 -61.120979 13.00000000
47.393597 12.841209 -61.120979 13.00000000
69.122612 42.382904 -61.120979 13.00000000
57.572235 18.679520 -61.120979 13.00000000
64.898521 25.064434 -61.120979 13.00000000
55.051178 21.820803 -61.120979 13.00000000
41.763538 9.311252 -61.120979 13.00000000
54.996487 18.880596 -61.120979 13.00000000
36.809223 8.633556 -61.120979 13.00000000
43.848709 10.617333 -61.120979 13.00000000
67.552429 49.174236 -61.120979 13.00000000
65.457680 46.346672 -61.120979 13.00000000
63.338245 44.966518 -61.120979 13.00000000
60.543324 18.477428 -61.120979 13.00000000
42.847027 9.801256 -61.120979 13.00000000
63.410988 33.548447 -61.120979 13.00000000
67.216728 42.749428 -61.120979 13.00000000
54.270107 18.754616 -61.120979 13.00000000
42.140022 8.534706 -61.120979 13.00000000
34.913456 6.532501 -61.120979 13.00000000
40.868073 7.418916 -61.120979 13.00000000
64.009125 28.266197 -61.120979 13.00000000
52.082882 19.157274 -61.120979 13.00000000
53.666649 20.039246 -61.120979 13.00000000
59.895123 25.964312 -61.120979 13.00000000
63.988663 43.821854 -61.120979 13.00000000
39.212757 7.042190 -61.120979 13.00000000
53.596912 13.665094 -61.120979 13.00000000
50.768661 10.774052 -61.120979 13.00000000
43.794983 9.845240 -61.120979 13.00000000
63.816704 45.189098 -61.120979 13.00000000
47.484077 10.072848 -61.120979 13.00000000
38.064259 9.364331 -61.120979 13.00000000
64.624352 52.321182 -61.120979 13.00000000
62.367420 20.799137 -61.120979 13.00000000
62.759022 55.738071 -61.120979 13.00000000
66.026466 27.344975 -61.120979 13.00000000
56.643089 23.319315 -61.120979 13.00000000
54.122101 20.284460 -61.120979 13.00000000
43.365688 13.302573 -61.120979 13.00000000
55.259274 17.689468 -61.120979 13.00000000
60.902916 25.776882 -61.120979 13.00000000
60.132416 21.064484 -61.120979 13.00000000
63.404015 29.343590 -61.120979 13.00000000
68.835602 42.883350 -61.120979 13.00000000
65.840820 33.311291 -61.120979 13.00000000
61.076229 23.378839 -61.120979 13.00000000
66.168549 34.837978 -61.120979 13.00000000
63.407764 25.948940 -61.120979 13.00000000
64.004601 48.418552 -61.120979 13.00000000
63.540894 50.764626 -61.120979 13.00000000
66.613548 47.552292 -61.120979 13.00000000
64.986107 39.366901 -61.120979 13.00000000
61.016918 26.383852 -61.120979 13.00000000
67.443634 44.205265 -61.120979 13.00000000
56.145031 17.994694 -61.120979 13.00000000
41.318489 7.716368 -61.120979 13.00000000
68.738434 34.187111 -61.120979 13.00000000
54.995350 14.590664 -61.120979 13.00000000
46.230259 7.850489 -61.120979 13.00000000
46.417728 12.012025 -61.120979 13.00000000
64.569862 42.182453 -61.120979 13.00000000
64.299606 26.090719 -61.120979 13.00000000
65.067795 31.965338 -61.120979 13.00000000
42.891247 7.946614 -61.120979 13.00000000
44.867069 10.917092 -61.120979 13.00000000
35.789440 9.012801 -61.120979 13.00000000
61.170872 22.261892 -61.120979 13.00000000
63.356140 35.058647 -61.120979 13.00000000
64.852898 26.336218 -61.120979 13.00000000
61.079132 27.243326 -61.120979 13.00000000
64.047173 45.811836 -61.120979 13.00000000
62.997570 38.369850 -61.120979 13.00000000
37.969772 6.170922 -61.120979 13.00000000
54.705826 15.140578 -61.120979 13.00000000
46.398067 8.406044 -61.120979 13.00000000
57.772060 21.179386 -61.120979 13.00000000
67.713356 30.986910 -61.120979 13.00000000
55.643585 21.724306 -61.120979 13.00000000
58.610298 21.818823 -61.120979 13.00000000
62.795654 27.379456 -61.120979 13.00000000
63.363503 42.465904 -61.120979 13.00000000
62.950218 51.915493 -61.120979 13.00000000
49.948425 10.210105 -61.120979 13.00000000
63.687645 26.590067 -61.120979 13.00000000
44.739567 7.531219 -61.120979 13.00000000
61.959789 21.375740 -61.120979 13.00000000
60.114426 22.427410 -61.120979 13.00000000
43.535423 11.117490 -61.120979 13.00000000
63.668919 24.904617 -61.120979 13.00000000
43.907990 8.655674 -61.120979 13.00000000
63.415524 39.923195 -61.120979 13.00000000
43.328617 7.451414 -61.120979 13.00000000
65.494446 47.138466 -61.120979 13.00000000
68.893517 35.004101 -61.120979 13.00000000
55.891678 22.213015 -61.120979 13.00000000
56.317387 20.831310 -61.120979 13.00000000
62.468712 34.504860 -61.120979 13.00000000
66.849434 29.164255 -61.120979 13.00000000
53.979282 20.899128 -61.120979 13.00000000
68.389091 41.709595 -61.120979 13.00000000
55.568493 14.480572 -61.120979 13.00000000
47.314476 14.895495 -61.120979 13.00000000
62.579620 22.193399 -61.120979 13.00000000
40.571381 9.088576 -61.120979 13.00000000
59.697102 28.648396 -61.120979 13.00000000
64.816963 33.177261 -61.120979 13.00000000
64.400055 37.997272 -61.120979 13.00000000
58.666142 20.853218 -61.120979 13.00000000
68.136063 46.501862 -61.120979 13.00000000
69.839958 41.987617 -61.120979 13.00000000
40.259754 8.567396 -61.120979 13.00000000
68.201172 32.270073 -61.120979 13.00000000
64.653938 49.427666 -61.120979 13.00000000
50.167896 10.685803 -61.120979 13.00000000
58.164268 25.941288 -61.120979 13.00000000
64.969040 40.366714 -61.120979 13.00000000
53.313931 11.889725 -61.120979 13.00000000
66.826317 31.942982 -61.120979 13.00000000
59.602139 23.567541 -61.120979 13.00000000
55.533180 18.161850 -61.120979 13.00000000
66.978149 47.088173 -61.120979 13.00000000
48.582745 13.741323 -61.120979 13.00000000
56.898113 21.980879 -61.120979 13.00000000
63.554531 34.101124 -61.120979 13.00000000
51.002747 17.680346 -61.120979 13.00000000
67.945511 38.925774 -61.120979 13.00000000
64.786194 48.168285 -61.120979 13.00000000
56.839970 15.690400 -61.120979 13.00000000
37.361256 4.881339 -61.120979 13.00000000
53.084255 19.884945 -61.120979 13.00000000
53.778576 15.708541 -61.120979 13.00000000
37.701210 11.318938 -61.120979 13.00000000
52.977718 16.438540 -61.120979 13.00000000
62.319511 25.170593 -61.120979 13.00000000
56.530888 22.828651 -61.120979 13.00000000
65.882744 42.109707 -61.120979 13.00000000
66.087059 39.878323 -61.120979 13.00000000
47.765884 13.618815 -61.120979 13.00000000
39.276207 5.501956 -61.120979 13.00000000
60.681049 57.441940 -61.120979 13.00000000
62.229443 31.745462 -61.120979 13.00000000
61.667660 20.790222 -61.120979 13.00000000
65.143692 29.573181 -61.120979 13.00000000
67.038979 41.606529 -61.120979 13.00000000
64.734062 27.998543 -61.120979 13.00000000
45.703819 13.624685 -61.120979 13.00000000
68.073997 34.832420 -61.120979 13.00000000
68.671707 40.657776 -61.120979 13.00000000
35.506844 10.222251 -61.120979 13.00000000
52.589890 18.454260 -61.120979 13.00000000
37.488274 5.919338 -61.120979 13.00000000
59.970249 19.155762 -61.120979 13.00000000
57.219376 21.071587 -61.120979 13.00000000
53.260227 15.331567 -61.120979 13.00000000
40.896915 5.950970 -61.120979 13.00000000
54.047276 18.145981 -61.120979 13.00000000
59.939426 20.547901 -61.120979 13.00000000
51.529175 13.344361 -61.120979 13.00000000
38.282310 10.685412 -61.120979 13.00000000
63.566833 31.142179 -61.120979 13.00000000
64.001740 41.063770 -61.120979 13.00000000
64.690002 45.996994 -61.120979 13.00000000
46.025799 11.403131 -61.120979 13.00000000
69.130470 43.893089 -61.120979 13.00000000
58.981396 18.666170 -61.120979 13.00000000
40.628174 9.673329 -61.120979 13.00000000
52.477028 12.023886 -61.120979 13.00000000
66.504028 45.552647 -61.120979 13.00000000
68.712097 40.157001 -61.120979 13.00000000
62.154621 53.166695 -61.120979 13.00000000
67.475906 32.617706 -61.120979 13.00000000
43.604889 6.789878 -61.120979 13.00000000
34.877583 9.839295 -61.120979 13.00000000
62.725548 50.288540 -61.120979 13.00000000
54.828682 16.591974 -61.120979 13.00000000
53.497787 14.678614 -61.120979 13.00000000
69.060684 41.603176 -61.120979 13.00000000
52.350864 14.716751 -61.120979 13.00000000
59.922413 23.002245 -61.120979 13.00000000
67.266571 33.185642 -61.120979 13.00000000
68.554672 44.482433 -61.120979 13.00000000
47.938644 10.319232 -61.120979 13.00000000
43.788120 12.912358 -61.120979 13.00000000
58.766773 26.837496 -61.120979 13.00000000
56.528145 19.680813 -61.120979 13.00000000
69.497185 38.776203 -61.120979 13.00000000
60.957546 56.466873 -61.120979 13.00000000
55.285725 21.307346 -61.120979 13.00000000
63.377979 27.056393 -61.120979 13.00000000
36.438583 10.862545 -61.120979 13.00000000
50.042187 12.058219 -61.120979 13.00000000
38.575500 11.357427 -61.120979 13.00000000
56.361263 14.959436 -61.120979 13.00000000
59.628059 21.450912 -61.120979 13.00000000
64.177956 52.789906 -61.120979 13.00000000
37.863331 6.735535 -61.120979 13.00000000
40.222515 7.521697 -61.120979 13.00000000
61.706200 19.987461 -61.120979 13.00000000
68.234489 38.164009 -61.120979 13.00000000
42.574596 11.332524 -61.120979 13.00000000
64.142982 29.244120 -61.120979 13.00000000
53.001991 17.875071 -61.120979 13.00000000
38.630569 9.281164 -61.120979 13.00000000
61.621719 27.642595 -61.120979 13.00000000
50.806061 17.010315 -61.120979 13.00000000
57.790379 24.293032 -61.120979 13.00000000
37.428829 10.714900 -61.120979 13.00000000
37.102848 8.108168 -61.120979 13.00000000
51.374680 17.049187 -61.120979 13.00000000
60.699211 24.967955 -61.120979 13.00000000
66.425537 38.418224 -61.120979 13.00000000
39.962322 11.450905 -61.120979 13.00000000
64.950012 44.531673 -61.120979 13.00000000
69.572227 45.959152 -61.120979 13.00000000
65.618767 43.774933 -61.120979 13.00000000
52.439018 12.734051 -61.120979 13.00000000
46.468006 9.504952 -61.120979 13.00000000
63.573330 49.906670 -61.120979 13.00000000
43.362583 10.333845 -61.120979 13.00000000
54.481972 15.742983 -61.120979 13.00000000
38.974323 8.615266 -61.120979 13.00000000
53.676571 18.498642 -61.120979 13.00000000
35.001877 5.856715 -61.120979 13.00000000
64.052704 32.386044 -61.120979 13.00000000
65.180588 36.398972 -61.120979 13.00000000
55.900467 15.680255 -61.120979 13.00000000
47.193951 11.725286 -61.120979 13.00000000
48.454918 11.510609 -61.120979 13.00000000
48.593281 8.807801 -61.120979 13.00000000
60.158730 17.969507 -61.120979 13.00000000
46.764240 7.948041 -61.120979 13.00000000
54.701691 18.261251 -61.120979 13.00000000
64.376907 43.321217 -61.120979 13.00000000
68.963005 47.534996 -61.120979 13.00000000
66.259659 32.883759 -61.120979 13.00000000
65.981163 39.077484 -61.120979 13.00000000
67.094986 42.201771 -61.120979 13.00000000
65.452820 50.615097 -61.120979 13.00000000
66.176773 43.471394 -61.120979 13.00000000
67.122948 30.595709 -61.120979 13.00000000
56.388477 17.197073 -61.120979 13.00000000
62.222000 27.724936 -61.120979 13.00000000
63.967991 38.274113 -61.120979 13.00000000
64.139870 52.015072 -61.120979 13.00000000
58.988426 21.262489 -61.120979 13.00000000
35.472881 8.230258 -61.120979 13.00000000
67.262650 29.548717 -61.120979 13.00000000
48.752697 11.950184 -61.120979 13.00000000
66.113617 28.049042 -61.120979 13.00000000
64.253883 32.924313 -61.120979 13.00000000
60.876339 29.407913 -61.120979 13.00000000
51.943615 15.962475 -61.120979 13.00000000
65.938805 45.798447 -61.120979 13.00000000
42.311695 10.721380 -61.120979 13.00000000
62.210590 26.898579 -61.120979 13.00000000
60.534519 28.933657 -61.120979 13.00000000
68.572792 47.890125 -61.120979 13.00000000
64.335388 50.057716 -61.120979 13.00000000
37.312092 8.774035 -61.120979 13.00000000
57.632832 22.653801 -61.120979 13.00000000
56.485474 18.646959 -61.120979 13.00000000
56.779625 14.448891 -61.120979 13.00000000
54.667583 13.905771 -61.120979 13.00000000
67.420135 46.177322 -61.120979 13.00000000
42.067486 6.646413 -61.120979 13.00000000
67.542435 41.286743 -61.120979 13.00000000
66.696503 34.540539 -61.120979 13.00000000
64.182770 26.718485 -61.120979 13.00000000
44.357582 10.317028 -61.120979 13.00000000
46.657078 14.344736 -61.120979 13.00000000
68.313293 48.574677 -61.120979 13.00000000
49.586166 12.892909 -61.120979 13.00000000
68.338394 36.091358 -61.120979 13.00000000
67.057487 47.856380 -61.120979 13.00000000
62.764927 37.647694 -61.120979 13.00000000
46.824066 10.296154 -61.120979 13.00000000
57.938622 19.232712 -61.120979 13.00000000
37.707821 7.318911 -61.120979 13.00000000
41.719578 10.284610 -61.120979 13.00000000
42.671394 12.655110 -61.120979 13.00000000
65.203827 42.279629 -61.120979 13.00000000
63.716244 39.026100 -61.120979 13.00000000
56.085724 19.251999 -61.120979 13.00000000
54.643177 19.991709 -61.120979 13.00000000
51.854538 12.536974 -61.120979 13.00000000
62.302624 26.285915 -61.120979 13.00000000
64.562202 53.642406 -61.120979 13.00000000
61.167568 30.521479 -61.120979 13.00000000
50.753250 15.480338 -61.120979 13.00000000
41.097229 8.279287 -61.120979 13.00000000
49.637199 11.059445 -61.120979 13.00000000
62.600662 24.137724 -61.120979 13.00000000
44.789879 10.071116 -61.120979 13.00000000
58.505295 20.344753 -61.120979 13.00000000
59.385582 18.246662 -61.120979 13.00000000
40.907536 10.645160 -61.120979 13.00000000
65.522003 26.945152 -61.120979 13.00000000
69.197266 45.103516 -61.120979 13.00000000
45.321690 11.344420 -61.120979 13.00000000
63.200989 23.975868 -61.120979 13.00000000
67.229492 39.297779 -61.120979 13.00000000
62.131931 22.439640 -61.120979 13.00000000
63.565132 32.247883 -61.120979 13.00000000
68.512863 42.494404 -61.120979 13.00000000
59.026615 27.541090 -61.120979 13.00000000
60.938026 21.088505 -61.120979 13.00000000
65.071976 41.519035 -61.120979 13.00000000
69.253677 40.705898 -61.120979 13.00000000
63.394257 28.655518 -61.120979 13.00000000
67.884697 45.854504 -61.120979 13.00000000
66.110641 36.089375 -61.120979 13.00000000
39.419750 7.711057 -61.120979 13.00000000
47.432980 10.713245 -61.120979 13.00000000
62.827061 33.215649 -61.120979 13.00000000
62.474804 25.669537 -61.120979 13.00000000
63.219105 46.917568 -61.120979 13.00000000
58.961380 19.893724 -61.120979 13.00000000
58.078888 15.872792 -61.120979 13.00000000
62.943363 32.581692 -61.120979 13.00000000
58.918259 16.914261 -61.120979 13.00000000
37.888142 7.931299 -61.120979 13.00000000
64.784218 37.633369 -61.120979 13.00000000
65.368896 26.181513 -61.120979 13.00000000
52.562424 15.187182 -61.120979 13.00000000
58.174824 22.668556 -61.120979 13.00000000
65.359917 30.272375 -61.120979 13.00000000
64.144997 24.409922 -61.120979 13.00000000
69.383247 39.344345 -61.120979 13.00000000
35.220741 9.040655 -61.120979 13.00000000
35.661591 6.076368 -61.120979 13.00000000
65.188210 34.978905 -61.120979 13.00000000
64.517120 34.454105 -61.120979 13.00000000
62.903442 30.646473 -61.120979 13.00000000
41.271877 7.030217 -61.120979 13.00000000
63.434486 46.405472 -61.120979 13.00000000
41.228012 12.572203 -61.120979 13.00000000
67.336632 31.924496 -61.120979 13.00000000
59.997986 26.593618 -61.120979 13.00000000
63.144749 29.876862 -61.120979 13.00000000
64.316071 47.995636 -61.120979 13.00000000
69.605064 46.519455 -61.120979 13.00000000
52.869488 11.487401 -61.120979 13.00000000
49.145241 9.470356 -61.120979 13.00000000
65.523392 39.623264 -61.120979 13.00000000
47.993778 15.038471 -61.120979 13.00000000
65.503036 50.081085 -61.120979 13.00000000
63.042419 39.521343 -51.544624 14.00000000
59.571995 28.662279 -4.878424 14.00000000
62.262405 52.269478 -39.277981 14.00000000
45.002357 14.436075 -38.703835 14.00000000
61.582699 33.384762 -39.628506 14.00000000
62.893936 49.292435 -28.390221 14.00000000
61.852695 34.145859 -60.805626 14.00000000
63.322422 44.861263 -19.286953 14.00000000
59.778332 58.892918 3.000860 14.00000000
62.296215 35.797764 -8.520905 14.00000000
57.064716 24.619469 -29.886192 14.00000000
35.435001 11.670694 -24.035439 14.00000000
59.850403 58.736439 -45.733501 14.00000000
58.151360 26.213234 -1.694889 14.00000000
60.601257 57.106216 -29.452330 14.00000000
63.327423 42.807514 -46.811508 14.00000000
56.002987 23.254028 -41.649567 14.00000000
36.574814 11.889698 -47.493576 14.00000000
47.191658 15.625519 -56.141102 14.00000000
37.905201 12.145320 -56.502567 14.00000000
63.325687 43.519798 -33.207756 14.00000000
34.552650 11.501157 -55.723057 14.00000000
57.174355 24.780273 -56.247150 14.00000000
60.539410 30.700960 -31.420330 14.00000000
60.948540 56.319115 -49.964207 14.00000000
58.863590 27.403482 -44.151302 14.00000000
58.137100 26.192322 -30.056726 14.00000000
34.791233 11.546999 -14.644397 14.00000000
59.758545 58.935879 -15.849467 14.00000000
49.402813 17.058517 1.640537 14.00000000
60.734791 31.130651 -44.842827 14.00000000
61.893482 53.656548 -26.802179 14.00000000
62.550049 36.771187 -43.027981 14.00000000
58.927364 27.516806 -2.696244 14.00000000
63.150986 47.384171 -30.413757 14.00000000
61.912128 34.324821 -50.589397 14.00000000
39.046516 12.364614 -4.314397 14.00000000
63.326923 43.012417 -11.693148 14.00000000
62.533314 36.707020 1.283584 14.00000000
37.214123 12.012535 -5.164246 14.00000000
62.650826 37.229534 -35.549820 14.00000000
63.182777 40.897343 -18.714243 14.00000000
34.729637 11.535164 -16.489435 14.00000000
61.612877 54.475002 -7.322564 14.00000000
51.762058 18.896036 -0.163746 14.00000000
61.585918 54.549831 -59.212029 14.00000000
40.320511 12.609400 -46.551548 14.00000000
51.430031 18.607838 3.065501 14.00000000
58.857925 27.393417 -54.925556 14.00000000
60.573895 57.165630 -3.125475 14.00000000
62.882927 38.587914 1.765193 14.00000000
45.572842 14.716837 -17.613974 14.00000000
49.208134 16.916862 -27.426056 14.00000000
62.449070 51.567669 -52.863674 14.00000000
51.405857 18.586855 -14.174079 14.00000000
61.370441 32.786427 -11.900249 14.00000000
60.267612 30.103197 -15.946401 14.00000000
41.954830 13.109880 -16.007801 14.00000000
38.320095 12.225038 -14.457811 14.00000000
60.936520 31.574312 -18.460812 14.00000000
50.994556 18.229841 -1.973222 14.00000000
63.323605 44.375126 -4.325439 14.00000000
58.237064 26.338934 -35.755547 14.00000000
45.810253 14.833679 -40.579121 14.00000000
63.326916 43.017025 -60.982731 14.00000000
62.620171 37.050125 -32.372578 14.00000000
35.164036 11.618630 -48.507111 14.00000000
59.736542 58.983646 -19.921375 14.00000000
47.478970 15.798993 -44.453915 14.00000000
61.669338 54.318275 -42.363186 14.00000000
63.198563 46.846569 -10.107900 14.00000000
52.570473 19.597746 -14.921931 14.00000000
54.015415 21.011211 -33.225430 14.00000000
61.162544 32.200390 -20.097248 14.00000000
53.151852 20.120785 -34.906841 14.00000000
62.724541 37.660961 -5.337374 14.00000000
62.114189 52.826748 -4.121699 14.00000000
62.391983 51.782303 -37.562675 14.00000000
62.221359 35.510696 -28.330276 14.00000000
47.178913 15.617823 -19.234673 14.00000000
60.771774 31.211996 -27.029903 14.00000000
34.525047 11.495854 -13.052475 14.00000000
46.845219 15.416345 -26.689117 14.00000000
49.386002 17.046286 -46.711998 14.00000000
52.952888 19.929682 -27.298429 14.00000000
50.302532 17.713186 -51.387302 14.00000000
62.873287 38.531498 -43.883621 14.00000000
61.642906 54.391651 -44.498898 14.00000000
63.327682 42.701157 -18.120262 14.00000000
39.341206 12.421236 -28.951443 14.00000000
46.935848 15.471065 -9.903079 14.00000000
61.900551 53.629971 3.802394 14.00000000
48.215763 16.243855 -29.056429 14.00000000
53.634678 20.618629 -4.527056 14.00000000
57.416046 25.134764 -17.991356 14.00000000
59.037579 27.712650 -24.393904 14.00000000
63.081764 39.751629 -19.997225 14.00000000
39.282455 12.409947 -40.257908 14.00000000
61.700432 33.716633 -25.920462 14.00000000
43.782581 13.835763 -29.466160 14.00000000
61.408218 32.892921 -45.051037 14.00000000
58.675209 27.068743 -20.404360 14.00000000
62.722267 37.647648 -7.672871 14.00000000
60.705318 31.065840 -23.663673 14.00000000
63.110672 40.034801 -57.077534 14.00000000
63.323044 44.605034 -44.545834 14.00000000
41.695156 13.008705 -35.222546 14.00000000
59.890072 29.272879 -2.692853 14.00000000
59.919041 58.587418 -26.571569 14.00000000
63.327438 42.801552 -53.267784 14.00000000
34.483070 11.487789 -32.344551 14.00000000
60.229897 57.912502 -55.040142 14.00000000
52.971405 19.945755 -39.359295 14.00000000
42.683430 13.393761 -30.976191 14.00000000
43.024189 13.526529 -44.370548 14.00000000
60.320679 30.219904 1.086513 14.00000000
50.438450 17.812086 -35.588993 14.00000000
59.778248 58.893097 -14.271183 14.00000000
53.819080 20.808771 -11.868800 14.00000000
44.191299 14.036914 -20.248653 14.00000000
60.183907 29.919104 -26.263987 14.00000000
36.010929 11.781353 -10.214198 14.00000000
44.800350 14.336657 -5.725774 14.00000000
63.326385 43.234180 -48.819927 14.00000000
49.502644 17.131159 -58.053219 14.00000000
62.692059 50.440178 -35.549053 14.00000000
52.929806 19.909647 -16.687897 14.00000000
57.346146 25.032242 -42.692112 14.00000000
36.265743 11.830313 -59.379086 14.00000000
52.412533 19.460651 -24.316252 14.00000000
55.082977 22.126207 -56.493572 14.00000000
47.510880 15.818259 -17.211336 14.00000000
62.269470 52.242912 -45.329006 14.00000000
45.596703 14.728581 -21.382931 14.00000000
63.302868 45.668060 -17.701385 14.00000000
42.860462 13.462736 -51.747738 14.00000000
53.751442 20.739027 -24.242607 14.00000000
62.435413 51.619007 1.296674 14.00000000
61.716576 54.187153 -50.779324 14.00000000
63.196651 41.063278 -26.605015 14.00000000
57.717159 25.576399 -46.131451 14.00000000
60.985126 56.217560 2.954844 14.00000000
57.179520 24.787848 -7.641581 14.00000000
56.166679 23.454699 -48.372799 14.00000000
35.407154 11.665342 3.813358 14.00000000
58.568748 26.879566 -9.973321 14.00000000
62.696712 37.498100 -37.869102 14.00000000
46.384003 15.137873 -48.429783 14.00000000
61.949215 53.447006 -8.834692 14.00000000
60.618073 57.069710 -60.842159 14.00000000
63.324577 43.975464 -51.229118 14.00000000
52.727810 19.734314 -29.178549 14.00000000
48.544636 16.442419 -50.484344 14.00000000
60.341839 30.266438 -58.797016 14.00000000
51.303944 18.498392 -39.779011 14.00000000
61.349033 32.726082 -34.827549 14.00000000
63.325378 43.647552 -35.097900 14.00000000
61.295982 32.576542 -30.942947 14.00000000
63.307560 45.615025 -48.331436 14.00000000
62.240036 52.353584 -7.376926 14.00000000
39.974419 12.542902 -53.935970 14.00000000
36.193115 11.816358 -45.417130 14.00000000
60.554607 57.207504 -47.032555 14.00000000
53.900082 20.892290 -59.530910 14.00000000
60.814327 31.305580 -8.199084 14.00000000
50.587093 17.920242 -7.104432 14.00000000
63.014175 48.608849 -4.254187 14.00000000
60.602482 30.839668 2.506833 14.00000000
45.839188 14.847919 -1.190112 14.00000000
41.704460 13.012330 -25.644848 14.00000000
58.677673 27.073124 -6.606833 14.00000000
47.088062 15.562971 -14.173682 14.00000000
41.378098 12.885172 -57.955303 14.00000000
62.361511 51.896866 -40.963879 14.00000000
60.169250 29.886873 -40.833378 14.00000000
38.953468 12.346735 -6.548757 14.00000000
62.673565 50.545307 -7.827378 14.00000000
35.817986 11.744280 -3.485289 14.00000000
50.366066 17.759415 -54.712952 14.00000000
63.179840 40.862194 -30.884045 14.00000000
44.583046 14.229711 -41.823479 14.00000000
63.137627 47.535107 -1.538099 14.00000000
37.474438 12.062552 -32.769501 14.00000000
63.000275 48.687881 -7.412915 14.00000000
56.169544 23.458206 -16.913940 14.00000000
53.236324 20.207884 -18.686411 14.00000000
47.935467 16.074617 -47.660519 14.00000000
51.719868 18.859415 -32.062489 14.00000000
41.563072 12.957241 -42.394352 14.00000000
47.672581 15.915890 -33.077477 14.00000000
34.595459 11.509383 -2.152222 14.00000000
63.019119 39.384975 -16.681265 14.00000000
63.325001 43.801956 -24.938568 14.00000000
61.747105 33.848202 -0.271396 14.00000000
39.397079 12.431971 -37.918503 14.00000000
57.261639 24.908293 -48.841438 14.00000000
38.232166 12.208143 -58.349197 14.00000000
63.055267 39.596539 -3.453356 14.00000000
61.573051 54.585556 -16.409906 14.00000000
43.374523 13.663028 -32.846798 14.00000000
61.074596 55.969200 -11.585052 14.00000000
40.963169 12.732881 -19.295712 14.00000000
62.886314 38.607738 -10.403892 14.00000000
62.231754 35.550560 -0.182136 14.00000000
60.469887 57.391445 -45.162800 14.00000000
49.101521 16.839287 -0.175091 14.00000000
60.455746 57.422146 -10.999324 14.00000000
62.704517 50.369343 -23.313433 14.00000000
49.134350 16.863174 -31.187943 14.00000000
63.325039 43.786564 -39.332832 14.00000000
36.470779 11.869709 -36.361618 14.00000000
50.758186 18.044739 -15.737368 14.00000000
47.454269 15.784080 -54.050175 14.00000000
62.503395 36.592281 -18.320206 14.00000000
63.010624 39.335258 -13.386826 14.00000000
53.218468 20.189470 -8.636180 14.00000000
48.319382 16.306416 -10.879685 14.00000000
49.930210 17.442272 -26.016968 14.00000000
60.175514 58.030575 -43.250828 14.00000000
62.681007 37.406166 -24.702978 14.00000000
53.173920 20.143539 -55.056255 14.00000000
53.103931 20.071373 -2.700030 14.00000000
61.298363 55.348061 -55.021561 14.00000000
55.726059 22.914551 -4.717666 14.00000000
37.597061 12.086114 -30.713217 14.00000000
59.479332 28.497622 -31.196110 14.00000000
49.827797 17.367752 -10.760447 14.00000000
62.965324 48.886581 -24.302917 14.00000000
61.287369 55.378578 -19.722485 14.00000000
63.323204 44.539261 -46.964790 14.00000000
61.387493 32.834503 -7.950996 14.00000000
61.347748 55.210968 -27.718718 14.00000000
44.064152 13.974339 -55.586239 14.00000000
57.207531 24.828934 -24.320856 14.00000000
35.933514 11.766478 -11.887564 14.00000000
55.451416 22.577868 -9.264743 14.00000000
62.983673 48.782265 -55.078220 14.00000000
59.614456 28.737730 -9.007225 14.00000000
60.517979 57.287029 -7.482575 14.00000000
63.205975 41.174824 -47.986820 14.00000000
63.325855 43.451584 -37.304768 14.00000000
63.077507 39.726704 -28.011820 14.00000000
62.978767 39.148827 -37.027061 14.00000000
62.818336 38.209908 -27.286236 14.00000000
62.739494 50.170494 0.474566 14.00000000
63.019028 39.384453 -32.672729 14.00000000
43.894318 13.890755 -22.145348 14.00000000
62.877399 49.386471 -30.196880 14.00000000
53.060719 20.026817 -49.616730 14.00000000
55.221806 22.296394 0.364428 14.00000000
63.289021 45.824490 -53.303719 14.00000000
41.190201 12.811961 -27.681873 14.00000000
52.159496 19.241016 -36.160755 14.00000000
44.139938 14.011637 -25.723078 14.00000000
45.670486 14.764894 -59.707047 14.00000000
48.166950 16.214380 -6.823502 14.00000000
63.324360 44.066010 -43.107475 14.00000000
57.919998 25.873899 -52.506153 14.00000000
49.005054 16.769094 -54.085678 14.00000000
63.208927 41.210155 -2.628574 14.00000000
55.891094 23.116863 -18.880745 14.00000000
43.184635 13.589043 -49.795959 14.00000000
63.171711 40.764950 -24.344427 14.00000000
57.026051 24.562759 -53.915401 14.00000000
38.977299 12.351314 -47.328289 14.00000000
63.144611 47.456173 -37.010372 14.00000000
59.544132 28.612768 -21.658070 14.00000000
50.003510 17.495607 -42.664902 14.00000000
63.194454 46.892982 -16.003788 14.00000000
63.325947 43.413700 -26.763712 14.00000000
40.001392 12.548085 -13.812797 14.00000000
62.027504 53.152653 -49.369709 14.00000000
50.201569 17.639721 -53.097576 14.00000000
62.587429 36.914543 -44.997292 14.00000000
43.575809 13.741453 -4.713291 14.00000000
62.002056 53.248337 2.043608 14.00000000
52.699074 19.709370 -60.490517 14.00000000
42.051727 13.147633 -40.679333 14.00000000
61.868893 53.749004 -37.910526 14.00000000
56.889645 24.362698 -4.122342 14.00000000
62.002338 53.247276 -54.041443 14.00000000
57.907509 25.855581 -32.109932 14.00000000
40.935234 12.727514 -9.064019 14.00000000
51.583660 18.741188 -29.980242 14.00000000
49.833118 17.371624 -60.983791 14.00000000
57.802876 25.702118 -39.865864 14.00000000
60.173462 29.896133 -13.055870 14.00000000
47.510139 15.817812 -0.390880 14.00000000
60.578468 30.786860 -48.264828 14.00000000
49.466766 17.105053 -17.673285 14.00000000
63.312962 42.454605 -50.654945 14.00000000
62.880501 49.368824 -18.262253 14.00000000
40.674728 12.677460 -2.664962 14.00000000
63.160484 40.630661 -33.793114 14.00000000
51.986858 19.091166 -3.989683 14.00000000
46.482372 15.197267 -15.994367 14.00000000
40.512089 12.646210 -6.164310 14.00000000
52.642738 19.660473 -45.219978 14.00000000
34.846653 11.557648 -39.392998 14.00000000
63.210674 41.231018 2.279155 14.00000000
60.418522 30.435085 -46.536713 14.00000000
62.590981 51.014828 -42.554028 14.00000000
55.509521 22.649099 -58.047432 14.00000000
60.960762 56.285187 -22.740278 14.00000000
54.084301 21.082241 0.509222 14.00000000
60.871769 31.431910 -57.758877 14.00000000
63.279774 45.928959 -5.108941 14.00000000
39.245094 12.402768 -1.054192 14.00000000
63.108894 47.859764 -22.593225 14.00000000
49.874893 17.402021 -22.724552 14.00000000
61.870956 34.197323 -1.968865 14.00000000
63.053852 48.383289 -19.642511 14.00000000
63.257526 41.791485 -32.424446 14.00000000
63.210526 46.711418 -19.602995 14.00000000
36.646530 11.903478 -57.653496 14.00000000
60.968521 31.653463 -39.716698 14.00000000
62.881149 49.365139 -41.951626 14.00000000
35.230469 11.631394 -30.623926 14.00000000
38.283939 12.218091 -44.952744 14.00000000
61.288601 32.555737 -42.907032 14.00000000
59.400826 28.358120 -17.688866 14.00000000
54.664024 21.679996 -46.084618 14.00000000
39.300602 12.413434 -31.167002 14.00000000
62.053265 34.866070 -46.564671 14.00000000
62.582565 36.895889 -57.256252 14.00000000
62.632771 37.123867 -52.439465 14.00000000
59.867268 29.222719 -39.040520 14.00000000
42.910397 13.482192 -26.835972 14.00000000
63.186069 46.987770 1.216119 14.00000000
50.837395 18.102371 -24.788849 14.00000000
61.389565 55.094894 -0.326545 14.00000000
62.227886 52.399269 -43.699615 14.00000000
42.595955 13.359679 -13.597506 14.00000000
62.075420 52.972500 -16.103729 14.00000000
50.367695 17.760603 -30.622620 14.00000000
57.657631 25.489088 -58.953289 14.00000000
61.145447 32.152199 -1.652074 14.00000000
63.327236 42.884983 -20.562975 14.00000000
47.998077 16.112419 -39.869419 14.00000000
54.200371 21.201920 -26.393417 14.00000000
61.905823 53.610157 -1.039556 14.00000000
61.357704 55.183331 -33.506527 14.00000000
54.594437 21.608246 -5.612685 14.00000000
62.270721 35.699993 -15.279072 14.00000000
57.637035 25.458885 -22.570801 14.00000000
63.297630 45.727196 -1.420052 14.00000000
63.209629 41.218525 -16.607492 14.00000000
53.573528 20.555578 2.217314 14.00000000
57.324154 24.999983 -26.041763 14.00000000
53.971504 20.965937 -48.404408 14.00000000
62.902130 38.700294 -42.018066 14.00000000
59.891487 29.275991 -28.024536 14.00000000
59.735573 58.985756 -40.964317 14.00000000
63.326561 43.161591 -2.288299 14.00000000
62.514801 36.636024 -50.486488 14.00000000
62.758450 37.859398 -20.294405 14.00000000
56.811436 24.247988 -38.827339 14.00000000
63.165668 40.692692 -0.724717 14.00000000
62.616249 50.871166 -29.028233 14.00000000
37.842693 12.133310 0.032452 14.00000000
39.982986 12.544548 -34.843967 14.00000000
63.144985 47.451942 -60.897285 14.00000000
55.834084 23.046972 -1.805771 14.00000000
49.082153 16.825193 -34.798901 14.00000000
43.296501 13.632628 -42.686493 14.00000000
62.376801 51.839386 3.526258 14.00000000
55.035679 22.068226 -60.162548 14.00000000
36.156544 11.809331 -28.018379 14.00000000
63.250111 46.264164 -40.390846 14.00000000
60.978168 31.680658 -21.796118 14.00000000
53.173931 20.143553 -51.897369 14.00000000
51.012947 18.245806 -57.655746 14.00000000
59.488918 28.514658 -60.538120 14.00000000
59.915657 29.329142 -23.647871 14.00000000
63.325027 43.790970 -41.403152 14.00000000
51.829887 18.954912 -55.598118 14.00000000
61.037514 31.847937 -60.915882 14.00000000
61.275959 55.410240 -31.773090 14.00000000
40.789581 12.699528 -61.092030 14.00000000
34.779198 11.544686 -18.269274 14.00000000
60.923115 56.389690 -43.436886 14.00000000
40.208046 12.587791 -59.669102 14.00000000
55.201885 22.271975 -51.362457 14.00000000
45.806709 14.831936 -19.705320 14.00000000
62.617542 50.863823 -11.072146 14.00000000
60.874264 56.513489 -1.125612 14.00000000
57.016483 24.548725 -35.499256 14.00000000
53.689384 20.675037 -57.611870 14.00000000
62.375301 36.101048 -5.082220 14.00000000
63.032642 39.464127 -48.533504 14.00000000
62.399410 36.193501 -20.287401 14.00000000
63.275822 45.973633 -55.850830 14.00000000
62.546402 36.757202 3.399427 14.00000000
61.800270 53.954826 -20.040907 14.00000000
59.549213 28.621799 -53.208965 14.00000000
47.845673 16.020399 -37.614052 14.00000000
58.935780 27.531757 -56.661373 14.00000000
43.663231 13.777025 -37.039501 14.00000000
57.571316 25.362492 -11.888939 14.00000000
60.365158 30.317726 -52.073212 14.00000000
45.668633 14.763980 -44.133629 14.00000000
57.597610 25.401060 -38.180954 14.00000000
41.205227 12.817816 -31.727341 14.00000000
62.930290 38.865108 -2.077338 14.00000000
55.935863 23.171743 -44.738132 14.00000000
35.113628 11.608944 -0.150844 14.00000000
36.532387 11.881546 -50.264549 14.00000000
61.437000 54.963215 -21.939581 14.00000000
37.158852 12.001916 -22.226814 14.00000000
62.747398 50.125549 -48.737717 14.00000000
62.512398 51.329575 -47.194527 14.00000000
63.314758 45.533661 -42.142921 14.00000000
58.150043 26.211302 -8.650964 14.00000000
61.946297 34.455856 -11.720450 14.00000000
63.179749 47.059193 -3.266597 14.00000000
60.283466 30.138065 -1.075632 14.00000000
60.130531 29.801720 -33.044811 14.00000000
50.981834 18.218801 -17.383898 14.00000000
47.229645 15.648454 -31.432140 14.00000000
44.359177 14.119534 -31.345446 14.00000000
61.956142 34.493614 -32.812527 14.00000000
58.645267 27.015533 -58.796879 14.00000000
48.551125 16.446337 -18.815180 14.00000000
61.585545 54.550873 -29.305986 14.00000000
63.243214 41.620289 -10.720615 14.00000000
60.811150 31.298590 -41.862965 14.00000000
41.058445 12.760627 -22.638784 14.00000000
60.023869 58.359821 -5.028843 14.00000000
59.869747 58.694443 0.023303 14.00000000
44.993881 14.431903 -54.205627 14.00000000
54.843880 21.865446 -24.604389 14.00000000
41.305042 12.856708 -37.090450 14.00000000
58.663773 27.048422 -53.296749 14.00000000
61.760582 54.064995 -11.690689 14.00000000
50.117062 17.578230 -32.404434 14.00000000
56.899792 24.377577 -19.651888 14.00000000
56.828594 24.273155 -13.112936 14.00000000
41.260044 12.839174 -1.040664 14.00000000
47.555710 15.845325 -58.776531 14.00000000
60.543674 57.231239 -12.901376 14.00000000
63.327385 42.823662 -55.210968 14.00000000
47.884529 16.043861 -4.991558 14.00000000
56.021225 23.276386 -50.119728 14.00000000
55.021206 22.050484 -47.890434 14.00000000
62.894012 38.652790 -52.925522 14.00000000
61.279839 55.399471 -60.486984 14.00000000
61.090343 31.996862 -29.313370 14.00000000
45.746014 14.802065 -6.951120 14.00000000
62.355530 36.025227 -30.043194 14.00000000
54.895084 21.918243 -2.578961 14.00000000
46.739212 15.352341 -3.222866 14.00000000
63.223469 41.384087 -12.623059 14.00000000
62.539486 36.730682 -13.927477 14.00000000
49.586758 17.192364 -40.510639 14.00000000
42.001621 13.128111 -48.029259 14.00000000
60.818268 56.635063 -59.051922 14.00000000
60.454433 57.425003 -51.583168 14.00000000
56.295273 23.612339 -14.842683 14.00000000
53.765579 20.753601 -20.414511 14.00000000
34.665722 11.522883 1.960105 14.00000000
51.348038 18.536667 -60.662525 14.00000000
57.429764 25.154879 -44.392841 14.00000000
59.777466 58.894798 -22.859409 14.00000000
42.812408 13.444013 -0.610127 14.00000000
36.225121 11.822508 -55.824306 14.00000000
46.581448 15.257085 -23.941784 14.00000000
56.888302 24.360727 -47.185165 14.00000000
63.129665 40.261993 -46.118050 14.00000000
59.863796 58.707359 -35.360874 14.00000000
56.407360 23.749744 -37.154030 14.00000000
61.811108 53.924747 -34.705605 14.00000000
50.336716 17.738062 -12.468423 14.00000000
61.419155 32.923752 -41.338291 14.00000000
58.432236 26.636992 -28.263998 14.00000000
59.846939 58.743961 -50.498817 14.00000000
47.923531 16.067408 -22.150316 14.00000000
46.036797 14.945173 -35.087910 14.00000000
59.798107 58.849976 -10.727583 14.00000000
46.949883 15.479539 -46.010094 14.00000000
60.069839 29.668240 -57.133743 14.00000000
63.195889 46.876816 -46.550041 14.00000000
48.559589 16.451448 -14.113140 14.00000000
61.380238 55.120777 -13.280831 14.00000000
56.266876 23.577524 -59.462749 14.00000000
35.896835 11.759431 -8.533775 14.00000000
53.203308 20.173843 -37.642422 14.00000000
61.021748 56.115898 -17.522490 14.00000000
62.395718 36.179352 -10.757113 14.00000000
36.500797 11.875477 -14.347823 14.00000000
61.243702 55.499783 -9.090067 14.00000000
62.887058 49.331547 -36.876427 14.00000000
52.360298 19.415314 -11.391990 14.00000000
62.926643 38.843781 -18.490795 14.00000000
62.066605 53.005646 -47.610672 14.00000000
38.097122 12.182196 -50.541634 14.00000000
61.385448 55.106312 -39.114803 14.00000000
40.579746 12.659210 0.751151 14.00000000
62.040733 34.818012 2.011545 14.00000000
37.941761 12.152345 -39.045475 14.00000000
55.421768 22.541527 -21.073572 14.00000000
44.880562 14.376132 -15.431995 14.00000000
39.451176 12.442365 2.190566 14.00000000
63.152714 40.537720 -8.852130 14.00000000
63.312939 42.454334 -14.623030 14.00000000
62.678925 37.393993 -0.575473 14.00000000
46.460052 15.183791 -4.991522 14.00000000
58.499676 26.756830 -61.023922 14.00000000
63.327518 42.769428 -4.949103 14.00000000
52.810970 19.806498 -13.309330 14.00000000
61.095291 32.010811 -56.017574 14.00000000
62.445049 51.582787 -14.606584 14.00000000
49.390858 17.049820 -37.799213 14.00000000
37.528358 12.072913 -34.655445 14.00000000
34.674309 11.524533 -20.100374 14.00000000
54.621750 21.636408 -54.514408 14.00000000
62.808815 49.776390 -21.293053 14.00000000
60.781815 31.234074 -12.474723 14.00000000
60.941826 56.337749 -25.854797 14.00000000
59.126141 27.870018 -0.700283 14.00000000
56.298286 23.616032 0.037771 14.00000000
59.456158 28.456442 -33.578743 14.00000000
62.625778 37.082943 -16.365160 14.00000000
61.003464 31.751959 0.379353 14.00000000
41.698093 13.009849 -7.519650 14.00000000
47.367550 15.731719 -34.712948 14.00000000
43.385723 13.667392 -14.894670 14.00000000
38.787815 12.314906 -19.080641 14.00000000
62.016373 53.194508 -32.616848 14.00000000
61.006165 56.159153 -4.615841 14.00000000
63.285774 42.129402 -28.132969 14.00000000
37.396217 12.047523 -20.347198 14.00000000
61.222721 55.558022 -51.890720 14.00000000
62.057442 34.882076 -16.684927 14.00000000
63.324451 44.028370 -6.489322 14.00000000
40.019772 12.551616 -55.799084 14.00000000
60.679207 31.008413 -14.561963 14.00000000
48.706310 16.551718 -9.080591 14.00000000
34.455746 11.482538 -51.807369 14.00000000
60.309582 57.739494 -37.024780 14.00000000
57.120026 24.700588 -9.992576 14.00000000
55.579353 22.734705 -32.956581 14.00000000
62.930923 38.868816 -55.705421 14.00000000
63.161362 40.641182 -37.949001 14.00000000
62.193146 52.529877 -57.373718 14.00000000
62.849850 49.543083 -2.949472 14.00000000
38.862507 12.329258 -24.613548 14.00000000
44.450031 14.164249 -58.162315 14.00000000
41.193142 12.813107 -12.722435 14.00000000
63.220181 46.602318 3.504155 14.00000000
63.321453 45.259010 -7.989073 14.00000000
63.190861 46.933613 -52.006062 14.00000000
57.098343 24.668789 -1.231003 14.00000000
60.264851 30.097118 -60.999966 14.00000000
62.235840 52.369362 -35.815678 14.00000000
37.559792 12.078953 -17.269806 14.00000000
61.537781 33.258137 -21.942486 14.00000000
43.754658 13.822022 -39.782326 14.00000000
60.612022 57.082844 -19.383661 14.00000000
59.431103 28.411921 1.121728 14.00000000
62.317127 35.877956 -25.137766 14.00000000
61.445091 32.996864 -37.998001 14.00000000
62.305744 52.106529 -24.974989 14.00000000
62.445328 51.581730 -0.636768 14.00000000
42.989334 13.512948 -2.287615 14.00000000
56.871578 24.336201 -58.076504 14.00000000
58.679638 27.076614 -46.581184 14.00000000
62.151325 35.242126 -57.140091 14.00000000
59.739193 58.977890 -6.848366 14.00000000
58.949711 27.556515 -8.074446 14.00000000
60.828968 31.337782 -53.450733 14.00000000
63.196270 41.058746 -60.054646 14.00000000
55.443275 22.567890 -35.843880 14.00000000
40.467354 12.637615 -44.581596 14.00000000
58.869869 27.414644 -38.595295 14.00000000
62.969910 48.860523 -50.585907 14.00000000
61.082420 31.974524 -16.261049 14.00000000
60.703545 31.061937 -6.240400 14.00000000
60.315674 57.726261 -9.239267 14.00000000
46.863537 15.427407 3.663563 14.00000000
56.610683 23.998993 -5.708521 14.00000000
62.938107 49.041336 -46.752380 14.00000000
50.796391 18.072535 -59.202354 14.00000000
62.757175 50.069962 -44.870567 14.00000000
63.203163 41.141216 -55.786324 14.00000000
47.281120 15.679535 -41.677731 14.00000000
61.173473 32.231201 -32.675533 14.00000000
46.429089 15.165096 -50.280983 14.00000000
62.124573 35.139530 -48.874897 14.00000000
60.076046 29.681889 -36.950146 14.00000000
54.738876 21.757175 -10.446413 14.00000000
41.439194 12.908975 -54.273956 14.00000000
63.039028 39.501514 -59.658638 14.00000000
54.254120 21.257341 -7.491990 14.00000000
59.754745 58.944122 -2.833645 14.00000000
63.203804 41.148849 -39.966667 14.00000000
37.963306 12.156484 -8.415016 14.00000000
62.625523 37.081444 -28.715193 14.00000000
53.798805 20.787863 -28.321173 14.00000000
61.259392 55.456230 -41.053352 14.00000000
36.703907 11.914502 -18.861242 14.00000000
47.447803 15.780176 -12.407719 14.00000000
44.661610 14.268376 -8.178819 14.00000000
57.778725 25.666698 -34.371181 14.00000000
59.659504 28.817780 -6.824812 14.00000000
54.353977 21.360308 -36.669724 14.00000000
61.517876 33.202034 -17.946642 14.00000000
62.835114 49.626858 2.010907 14.00000000
62.850941 38.400719 -40.244690 14.00000000
63.193886 41.030228 -4.378064 14.00000000
63.237286 46.409069 -13.865611 14.00000000
39.320332 12.417225 -42.132519 14.00000000
62.591328 36.929489 -26.417723 14.00000000
61.528629 54.708866 -5.417065 14.00000000
60.817730 56.636227 -56.287727 14.00000000
63.280140 45.924839 -27.490337 14.00000000
62.309593 52.092064 -26.651274 14.00000000
48.655071 16.514435 -41.848721 14.00000000
55.487717 22.622368 -7.106853 14.00000000
52.786804 19.785522 -0.942074 14.00000000
43.051289 13.537088 -58.103676 14.00000000
62.606228 50.928143 -57.835323 14.00000000
53.853298 20.844049 -44.388897 14.00000000
59.770733 58.909416 -58.503410 14.00000000
63.323421 42.579739 -30.216127 14.00000000
44.246826 14.064241 -46.684464 14.00000000
63.326080 43.358486 -8.440636 14.00000000
63.189377 40.976273 -41.826458 14.00000000
63.151062 40.517963 -14.757229 14.00000000
42.409885 13.287181 -9.816008 14.00000000
42.782368 13.432309 -18.733824 14.00000000
55.196060 22.264833 -28.770027 14.00000000
41.461884 12.917816 3.691962 14.00000000
61.540737 33.266476 -23.716618 14.00000000
61.411568 55.033817 -46.142471 14.00000000
54.653728 21.669382 -30.405638 14.00000000
60.570354 30.769009 -34.373905 14.00000000
59.769573 58.911934 -33.226681 14.00000000
34.719467 11.533210 -57.732735 14.00000000
63.227173 41.428406 -35.380054 14.00000000
53.079857 20.046551 -22.052017 14.00000000
37.776810 12.120651 -52.489525 14.00000000
63.123760 40.191395 1.068040 14.00000000
62.822598 38.234829 -58.422211 14.00000000
63.309105 42.408466 -0.131809 14.00000000
60.980453 31.687099 -49.811741 14.00000000
57.001621 24.526928 -40.973938 14.00000000
63.310093 45.586407 -50.239910 14.00000000
51.559685 18.720375 -22.215647 14.00000000
59.814362 29.106365 -35.042316 14.00000000
44.565250 14.220953 -23.867744 14.00000000
41.793636 13.047075 -59.706081 14.00000000
49.739670 17.303629 -5.341911 14.00000000
45.194763 14.530768 -33.432533 14.00000000
62.841084 49.592934 -1.098556 14.00000000
46.143105 14.997491 -12.236928 14.00000000
63.323177 44.550117 -30.202959 14.00000000
58.138996 26.195099 -57.126091 14.00000000
63.159409 47.288990 -8.164734 14.00000000
56.064251 23.329130 -27.452452 14.00000000
38.536900 12.266696 -2.402033 14.00000000
59.817616 29.113522 -44.526844 14.00000000
59.806503 58.831753 -30.587971 14.00000000
62.398014 51.759621 -12.624813 14.00000000
62.586472 51.040466 -60.798981 14.00000000
49.889473 17.412628 -14.465909 14.00000000
42.352638 13.264876 -38.290089 14.00000000
50.613644 17.939564 -27.487339 14.00000000
63.327618 42.728443 1.750111 14.00000000
63.323616 44.370613 -10.347564 14.00000000
58.748547 27.199055 -42.249683 14.00000000
45.154724 14.511061 -3.726799 14.00000000
62.088333 35.000549 -6.717858 14.00000000
59.027870 27.695402 -35.066017 14.00000000
55.289406 22.379263 -16.111328 14.00000000
37.954197 12.154734 -54.424488 14.00000000
48.240936 16.259052 -24.933449 14.00000000
63.288334 45.832268 -38.281090 14.00000000
52.955036 19.931547 -31.905703 14.00000000
52.867882 19.855896 -53.557297 14.00000000
40.590263 12.661231 -24.239019 14.00000000
48.954552 16.732347 -52.107254 14.00000000
60.504333 57.316658 -21.321024 14.00000000
63.026409 48.539303 -9.770993 14.00000000
57.814156 25.718658 -0.113640 14.00000000
43.838203 13.863139 -60.316486 14.00000000
61.889423 34.249386 -8.482444 14.00000000
62.896969 38.670082 -61.103779 14.00000000
62.194397 52.525181 -28.178371 14.00000000
60.765823 56.748920 -34.759113 14.00000000
63.117184 47.766079 -48.628281 14.00000000
59.375515 28.313147 -49.496967 14.00000000
39.605282 12.471975 -51.285923 14.00000000
46.477379 15.194252 -52.909966 14.00000000
62.351109 51.935974 -55.366436 14.00000000
39.069328 12.368997 -22.534861 14.00000000
48.833904 16.644560 -43.413063 14.00000000
58.401852 26.582998 -18.667082 14.00000000
62.046650 34.840698 -21.616604 14.00000000
56.750332 24.170185 -21.635565 14.00000000
43.528450 13.723001 -34.788837 14.00000000
61.771072 54.035870 -57.281651 14.00000000
40.068653 12.561008 -17.812574 14.00000000
59.956966 58.505070 -60.259235 14.00000000
43.513275 13.717089 3.272457 14.00000000
36.195614 11.816838 -53.149662 14.00000000
63.286915 42.143028 -25.347757 14.00000000
62.983501 48.783249 -26.565565 14.00000000
58.639446 27.005196 -40.490746 14.00000000
56.340954 23.668335 -23.516619 14.00000000
62.108891 35.079388 -44.737953 14.00000000
59.700584 28.890774 -14.304057 14.00000000
37.560600 12.079108 -12.783196 14.00000000
54.777477 21.796980 -43.120399 14.00000000
49.994366 17.488953 -19.191013 14.00000000
62.677799 50.521240 -27.356611 14.00000000
63.245892 46.311810 -44.916351 14.00000000
63.312534 45.558800 -32.633076 14.00000000
57.776390 25.663271 -20.450544 14.00000000
63.144588 40.440521 -49.886326 14.00000000
63.184578 47.004593 -24.591185 14.00000000
37.239883 12.017486 1.914729 14.00000000
51.669273 18.815498 -43.596142 14.00000000
34.764816 11.541923 -6.262419 14.00000000
60.363613 57.622177 -39.478382 14.00000000
38.537056 12.266725 -60.951485 14.00000000
50.078220 17.549969 3.711126 14.00000000
61.176735 55.685677 -14.985693 14.00000000
63.167629 47.196117 -33.193836 14.00000000
37.303715 12.029750 3.661295 14.00000000
35.745205 11.730296 -34.320911 14.00000000
61.831886 34.087196 -30.079222 14.00000000
60.263699 30.094591 -50.463615 14.00000000
62.311966 52.083141 -18.850368 14.00000000
62.998882 39.266548 3.414657 14.00000000
63.324406 44.046677 0.223277 14.00000000
46.330097 15.105325 -57.809971 14.00000000
61.723705 33.782242 -36.500015 14.00000000
60.880936 56.498997 1.255297 14.00000000
55.622185 22.787210 -39.383804 14.00000000
42.009663 13.131244 -55.929195 14.00000000
63.290108 45.812222 -60.993603 14.00000000
62.178276 52.585793 -51.201035 14.00000000
57.070099 24.627363 -61.042866 14.00000000
63.322990 44.627071 -57.169548 14.00000000
63.318104 42.516090 -44.984165 14.00000000
61.472897 33.075241 -48.864391 14.00000000
62.061607 34.898052 -39.972351 14.00000000
60.497177 30.608080 -55.509277 14.00000000
59.611603 28.732658 -10.556177 14.00000000
62.641148 37.172886 -9.385660 14.00000000
42.114140 13.171951 -3.806502 14.00000000
