-11.000057 -2.385369 -61.120979 5.00000000
34.852402 4.761049 -61.120979 5.00000000
-14.367885 0.007938 -61.120979 5.00000000
32.096073 -0.533919 -61.120979 5.00000000
-20.898090 11.758940 -61.120979 5.00000000
4.852370 24.099100 -61.120979 5.00000000
12.644582 -12.026167 -61.120979 5.00000000
3.468006 -10.572591 -61.120979 5.00000000
13.871458 -18.230940 -61.120979 5.00000000
-3.335001 32.254074 -61.120979 5.00000000
19.739159 23.693277 -61.120979 5.00000000
1.595483 -8.538765 -61.120979 5.00000000
-13.561106 -10.591271 -61.120979 5.00000000
-15.355215 10.725112 -61.120979 5.00000000
16.614737 -7.566518 -61.120979 5.00000000
26.743879 14.276139 -61.120979 5.00000000
-18.780552 12.856849 -61.120979 5.00000000
-9.222587 -11.803866 -61.120979 5.00000000
-17.409700 15.983683 -61.120979 5.00000000
15.052617 21.600737 -61.120979 5.00000000
10.430335 -14.502489 -61.120979 5.00000000
25.412176 0.139262 -61.120979 5.00000000
-10.314858 3.645262 -61.120979 5.00000000
22.341957 28.399298 -61.120979 5.00000000
24.118231 -11.254164 -61.120979 5.00000000
22.102875 2.806401 -61.120979 5.00000000
-13.862596 20.914707 -61.120979 5.00000000
4.844710 31.319675 -61.120979 5.00000000
-13.458612 13.068587 -61.120979 5.00000000
18.500286 20.716055 -61.120979 5.00000000
-9.577530 29.002689 -61.120979 5.00000000
-4.306480 23.772600 -61.120979 5.00000000
18.143564 22.916590 -61.120979 5.00000000
-15.926187 8.537762 -61.120979 5.00000000
23.562206 18.307144 -61.120979 5.00000000
25.653290 1.326405 -61.120979 5.00000000
22.436527 24.022417 -61.120979 5.00000000
19.057938 -9.687635 -61.120979 5.00000000
-13.671767 5.354708 -61.120979 5.00000000
23.512190 2.456101 -61.120979 5.00000000
29.565062 7.294678 -61.120979 5.00000000
3.081647 -21.885178 -61.120979 5.00000000
32.591389 11.710410 -61.120979 5.00000000
-6.222482 22.803032 -61.120979 5.00000000
23.240131 -4.752725 -61.120979 5.00000000
-6.491755 30.109673 -61.120979 5.00000000
2.506579 -19.615505 -61.120979 5.00000000
-8.986890 -3.188861 -61.120979 5.00000000
-2.564580 -20.585480 -61.120979 5.00000000
6.510610 -8.906724 -61.120979 5.00000000
31.507250 7.733205 -61.120979 5.00000000
10.246450 26.762199 -61.120979 5.00000000
32.649235 -5.115701 -61.120979 5.00000000
-9.643952 13.161633 -61.120979 5.00000000
18.841251 21.796537 -61.120979 5.00000000
18.954025 30.250668 -61.120979 5.00000000
14.859743 32.847992 -61.120979 5.00000000
1.633640 29.853971 -61.120979 5.00000000
-12.540967 -0.416261 -61.120979 5.00000000
-5.412972 18.422678 -61.120979 5.00000000
5.370166 -20.387589 -61.120979 5.00000000
5.809997 26.274202 -61.120979 5.00000000
4.870259 -19.216541 -61.120979 5.00000000
18.707287 -3.169040 -61.120979 5.00000000
-5.565388 -4.090219 -61.120979 5.00000000
14.112949 -10.435440 -61.120979 5.00000000
-18.086863 -4.101509 -61.120979 5.00000000
-2.383099 -11.199228 -61.120979 5.00000000
23.563463 16.056364 -61.120979 5.00000000
-12.135503 26.640909 -61.120979 5.00000000
-1.483808 -11.896557 -61.120979 5.00000000
23.828127 17.191690 -61.120979 5.00000000
15.339042 -18.674953 -61.120979 5.00000000
-6.612030 26.675198 -61.120979 5.00000000
-6.942257 24.915564 -61.120979 5.00000000
25.473310 25.457296 -61.120979 5.00000000
-19.279295 -4.940502 -61.120979 5.00000000
34.429523 11.030375 -61.120979 5.00000000
7.463049 -15.256010 -61.120979 5.00000000
-1.777019 28.436895 -61.120979 5.00000000
-19.526295 3.663594 -61.120979 5.00000000
9.766420 -18.981531 -61.120979 5.00000000
18.075705 31.603054 -61.120979 5.00000000
1.871254 -17.044998 -61.120979 5.00000000
-4.572986 21.272282 -61.120979 5.00000000
-8.441992 19.139977 -61.120979 5.00000000
-8.984437 -12.892754 -61.120979 5.00000000
23.072008 -12.057339 -61.120979 5.00000000
13.416639 -13.242064 -61.120979 5.00000000
-7.946042 -4.021307 -61.120979 5.00000000
1.247625 24.989204 -61.120979 5.00000000
2.756319 -15.055927 -61.120979 5.00000000
-11.635617 10.113358 -61.120979 5.00000000
14.260328 -9.264630 -61.120979 5.00000000
30.956156 4.561660 -61.120979 5.00000000
-2.783225 21.795492 -61.120979 5.00000000
-14.014553 19.513266 -61.120979 5.00000000
-0.806656 -7.481029 -61.120979 5.00000000
-4.456775 29.305914 -61.120979 5.00000000
4.968239 -17.833313 -61.120979 5.00000000
-11.345406 14.222691 -61.120979 5.00000000
-12.113224 4.246475 -61.120979 5.00000000
23.006987 -7.650976 -61.120979 5.00000000
1.509271 -15.651941 -61.120979 5.00000000
25.567570 6.884920 -61.120979 5.00000000
-13.220177 14.177048 -61.120979 5.00000000
8.889747 -21.171841 -61.120979 5.00000000
31.492786 -1.445988 -61.120979 5.00000000
-8.820018 27.764286 -61.120979 5.00000000
30.310555 16.747484 -61.120979 5.00000000
-18.395184 19.208303 -61.120979 5.00000000
16.398636 -16.416958 -61.120979 5.00000000
-4.692210 27.179716 -61.120979 5.00000000
-14.843603 -5.127407 -61.120979 5.00000000
-2.869352 27.362194 -61.120979 5.00000000
-11.085610 7.222185 -61.120979 5.00000000
23.013052 7.481516 -61.120979 5.00000000
-5.932993 27.638493 -61.120979 5.00000000
8.204946 29.798342 -61.120979 5.00000000
-11.595720 12.786180 -61.120979 5.00000000
8.384712 -20.099010 -61.120979 5.00000000
10.614491 29.573208 -61.120979 5.00000000
12.749792 27.746634 -61.120979 5.00000000
-0.760989 31.818571 -61.120979 5.00000000
-7.633414 -7.888471 -61.120979 5.00000000
16.403887 17.629881 -61.120979 5.00000000
21.280397 12.896945 -61.120979 5.00000000
-16.162462 -3.276349 -61.120979 5.00000000
-8.631564 10.912927 -61.120979 5.00000000
33.977345 2.196927 -61.120979 5.00000000
-13.849032 -6.034350 -61.120979 5.00000000
10.875498 -19.625072 -61.120979 5.00000000
8.797512 24.629795 -61.120979 5.00000000
-0.796126 -14.911404 -61.120979 5.00000000
4.062123 -13.008064 -61.120979 5.00000000
11.234653 31.843620 -61.120979 5.00000000
-4.433458 -17.523462 -61.120979 5.00000000
-17.665295 -2.550135 -61.120979 5.00000000
2.386619 -9.252465 -61.120979 5.00000000
24.054920 15.102618 -61.120979 5.00000000
3.537914 -18.984039 -61.120979 5.00000000
-8.177007 12.979060 -61.120979 5.00000000
5.693649 32.970520 -61.120979 5.00000000
-1.957269 -6.541719 -61.120979 5.00000000
-7.859381 17.372421 -61.120979 5.00000000
8.494423 28.645966 -61.120979 5.00000000
24.264717 11.367317 -61.120979 5.00000000
-5.037699 -15.047525 -61.120979 5.00000000
-20.854168 0.981237 -61.120979 5.00000000
30.767588 9.369997 -61.120979 5.00000000
-16.492821 -5.207037 -61.120979 5.00000000
29.924522 12.610616 -61.120979 5.00000000
12.404807 -18.051409 -61.120979 5.00000000
22.418303 -8.966434 -61.120979 5.00000000
8.861733 33.096390 -61.120979 5.00000000
22.257597 -3.874439 -61.120979 5.00000000
-7.140891 15.072862 -61.120979 5.00000000
13.078240 -19.021444 -61.120979 5.00000000
2.185123 32.442440 -61.120979 5.00000000
10.638653 -9.536700 -61.120979 5.00000000
21.998917 22.868216 -61.120979 5.00000000
11.236489 23.833338 -61.120979 5.00000000
-10.829726 -15.534666 -61.120979 5.00000000
-3.721583 -14.658023 -61.120979 5.00000000
-15.480218 7.388373 -61.120979 5.00000000
24.453161 -3.387503 -61.120979 5.00000000
25.278337 24.388283 -61.120979 5.00000000
21.603371 -12.474606 -61.120979 5.00000000
25.760521 13.230059 -61.120979 5.00000000
-2.780842 18.289400 -61.120979 5.00000000
25.975021 2.662625 -61.120979 5.00000000
16.720053 19.189987 -61.120979 5.00000000
31.400011 19.724705 -61.120979 5.00000000
-18.780275 4.927247 -61.120979 5.00000000
12.976381 -9.568557 -61.120979 5.00000000
23.213963 -16.824230 -61.120979 5.00000000
33.711887 -2.149641 -61.120979 5.00000000
-14.458821 -8.191705 -61.120979 5.00000000
-2.979124 30.046156 -61.120979 5.00000000
0.593960 -12.142452 -61.120979 5.00000000
-8.114609 22.337547 -61.120979 5.00000000
-14.413913 16.984991 -61.120979 5.00000000
28.812628 -1.534297 -61.120979 5.00000000
5.309322 25.074680 -61.120979 5.00000000
-9.385532 22.422367 -61.120979 5.00000000
22.289366 17.162886 -61.120979 5.00000000
-18.018995 -1.209936 -61.120979 5.00000000
7.951565 21.059650 -61.120979 5.00000000
-12.953060 17.516447 -61.120979 5.00000000
-14.173972 -12.911307 -61.120979 5.00000000
20.020964 20.113869 -61.120979 5.00000000
28.664656 22.307156 -61.120979 5.00000000
3.870238 -20.242270 -61.120979 5.00000000
21.601845 8.009511 -61.120979 5.00000000
31.224808 12.116850 -61.120979 5.00000000
-7.446256 -5.531058 -61.120979 5.00000000
21.017588 -16.605753 -61.120979 5.00000000
22.369541 -2.381831 -61.120979 5.00000000
29.612297 -2.398170 -61.120979 5.00000000
32.846783 1.171328 -61.120979 5.00000000
3.899777 30.588282 -61.120979 5.00000000
-19.303761 -1.317565 -61.120979 5.00000000
21.564615 10.704471 -61.120979 5.00000000
2.552095 -18.344027 -61.120979 5.00000000
-10.087155 5.195105 -61.120979 5.00000000
-3.919811 19.717377 -61.120979 5.00000000
-7.266013 23.204762 -61.120979 5.00000000
28.299990 -12.072586 -61.120979 5.00000000
25.352091 12.188077 -61.120979 5.00000000
31.898640 0.541402 -61.120979 5.00000000
-12.813645 24.931061 -61.120979 5.00000000
-13.416502 22.228954 -61.120979 5.00000000
14.955824 -20.724478 -61.120979 5.00000000
-19.659966 13.521312 -61.120979 5.00000000
19.889320 21.407709 -61.120979 5.00000000
-15.641926 -4.272575 -61.120979 5.00000000
-14.347475 1.730033 -61.120979 5.00000000
-10.973328 26.056105 -61.120979 5.00000000
26.952370 6.981767 -61.120979 5.00000000
24.138151 4.018583 -61.120979 5.00000000
17.682785 21.544579 -61.120979 5.00000000
0.069094 27.084908 -61.120979 5.00000000
13.441613 26.461485 -61.120979 5.00000000
3.468350 22.812302 -61.120979 5.00000000
-12.595778 -11.266641 -61.120979 5.00000000
15.968065 -14.297902 -61.120979 5.00000000
20.103865 17.659128 -61.120979 5.00000000
-8.538558 29.558720 -61.120979 5.00000000
-7.787416 -2.780458 -61.120979 5.00000000
28.062792 0.597930 -61.120979 5.00000000
32.071228 -6.188276 -61.120979 5.00000000
-3.517306 23.018890 -61.120979 5.00000000
27.256393 13.273192 -61.120979 5.00000000
-7.879563 -16.705982 -61.120979 5.00000000
-6.543895 -8.279966 -61.120979 5.00000000
31.608580 17.420568 -61.120979 5.00000000
23.536621 13.967853 -61.120979 5.00000000
23.601929 19.772427 -61.120979 5.00000000
-17.149771 21.239227 -61.120979 5.00000000
-9.778688 -5.538767 -61.120979 5.00000000
-16.919132 14.797717 -61.120979 5.00000000
6.931969 -12.397473 -61.120979 5.00000000
15.533615 -7.914180 -61.120979 5.00000000
-35.989117 67.663498 -27.867737 6.00000000
-33.677917 69.220802 -35.446209 6.00000000
-38.465450 65.862915 -18.237020 6.00000000
-43.421635 61.803944 -18.896782 6.00000000
-41.268307 63.641163 -43.722382 6.00000000
-40.271343 64.485107 -27.309547 6.00000000
-34.763046 68.489632 -37.315479 6.00000000
-36.263603 67.478546 -19.020617 6.00000000
-43.211327 61.996376 -56.588974 6.00000000
-42.901344 62.258778 -53.789669 6.00000000
-46.038799 59.330074 -29.418690 6.00000000
-43.594593 61.640453 -52.692024 6.00000000
-36.449936 67.352989 2.046848 6.00000000
-39.254467 65.265961 -13.587825 6.00000000
-46.030338 59.338074 -23.683725 6.00000000
-38.426323 65.892517 -52.603230 6.00000000
-34.250481 68.835007 -37.955914 6.00000000
-44.125759 61.138371 -31.479053 6.00000000
-45.441124 59.895027 -38.097607 6.00000000
-37.027344 66.950958 -4.378158 6.00000000
-34.596138 68.602097 -41.473164 6.00000000
-39.724709 64.910187 -12.732549 6.00000000
-44.437473 60.843723 -20.754654 6.00000000
-35.032764 68.307892 -20.637840 6.00000000
-43.632526 61.604599 -6.306763 6.00000000
-33.516235 69.329750 -7.512985 6.00000000
-42.927647 62.236511 -18.248520 6.00000000
-36.610554 67.244766 -56.137089 6.00000000
-46.233101 59.146412 -45.767143 6.00000000
-40.069118 64.649612 -4.179460 6.00000000
-38.001534 66.213905 -27.784681 6.00000000
-43.950924 61.303635 -13.162133 6.00000000
-42.007427 63.015491 -60.057259 6.00000000
-45.455456 59.881481 -12.747364 6.00000000
-34.831314 68.443634 -56.752308 6.00000000
-39.154503 65.341591 -46.991226 6.00000000
-39.605488 65.000381 -7.041144 6.00000000
-36.562851 67.276909 0.066824 6.00000000
-34.542126 68.638489 -39.731186 6.00000000
-37.273708 66.764565 -22.355345 6.00000000
-44.208736 61.059940 -29.543758 6.00000000
-38.618011 65.747490 -4.176808 6.00000000
-37.074478 66.915298 -36.947670 6.00000000
-45.132153 60.187080 -10.670404 6.00000000
-41.473049 63.467850 -0.738376 6.00000000
-34.723019 68.516609 -16.089636 6.00000000
-45.321594 60.008011 -48.653435 6.00000000
-45.628349 59.718056 -60.557693 6.00000000
-41.092121 63.790306 -1.605199 6.00000000
-36.841038 67.089462 -54.866673 6.00000000
-37.317856 66.731163 -50.128174 6.00000000
-41.467293 63.472721 -16.187309 6.00000000
-36.964554 66.998466 -15.003528 6.00000000
-40.937393 63.921284 -11.818634 6.00000000
-43.926781 61.326454 -56.404686 6.00000000
-40.985790 63.880318 3.811366 6.00000000
-35.683548 67.869392 -32.953918 6.00000000
-46.008923 59.358318 -9.081767 6.00000000
-37.313976 66.734100 -41.445107 6.00000000
-39.383862 65.168060 2.628714 6.00000000
-44.880585 60.424873 -30.967991 6.00000000
-39.237267 65.278969 -25.422482 6.00000000
-37.872993 66.311157 -51.738426 6.00000000
-43.800098 61.446201 -1.454661 6.00000000
-44.662872 60.630665 -6.472707 6.00000000
-42.619507 62.497356 -0.235727 6.00000000
-39.330959 65.208084 0.414128 6.00000000
-46.017395 59.350307 -3.429209 6.00000000
-41.645805 63.321606 -35.245804 6.00000000
-40.714195 64.110222 -27.979082 6.00000000
-39.786697 64.863281 -1.214308 6.00000000
-43.237083 61.974567 -57.483749 6.00000000
-35.518745 67.980438 3.582368 6.00000000
-37.562859 66.545799 1.530944 6.00000000
-42.081829 62.952507 -57.238007 6.00000000
-43.960472 61.294605 0.299305 6.00000000
-45.381287 59.951591 -28.311274 6.00000000
-37.173931 66.840050 -56.696648 6.00000000
-45.037315 60.276726 -19.854429 6.00000000
-44.709274 60.586807 0.297803 6.00000000
-35.932449 67.701675 -44.645847 6.00000000
-43.044800 62.137341 -37.856754 6.00000000
-35.899666 67.723770 -21.283180 6.00000000
-35.472275 68.011749 -37.490307 6.00000000
-38.322311 65.971207 -44.989414 6.00000000
-44.826237 60.476246 -29.737663 6.00000000
-46.110775 59.262043 -10.370471 6.00000000
-41.179153 63.716633 -22.670006 6.00000000
-44.290833 60.982334 -18.116417 6.00000000
-33.839149 69.112167 -22.869102 6.00000000
-38.708370 65.679123 -27.379595 6.00000000
-34.344898 68.771385 -1.826232 6.00000000
-41.903393 63.103558 -30.651825 6.00000000
-41.627930 63.336739 2.974735 6.00000000
-45.652599 59.695133 -19.910978 6.00000000
-38.282951 66.000992 -7.177542 6.00000000
-40.898487 63.954220 -31.537996 6.00000000
-34.824116 68.448486 -4.486438 6.00000000
-33.811253 69.130959 -16.520039 6.00000000
-44.068474 61.192520 -6.987529 6.00000000
-36.926697 67.027107 -40.548985 6.00000000
-40.867405 63.980534 -51.483868 6.00000000
-45.109474 60.208519 -4.565080 6.00000000
-37.897507 66.292610 -16.817142 6.00000000
-37.182526 66.833549 -53.315357 6.00000000
-37.821411 66.350182 2.672349 6.00000000
-39.325809 65.211983 -49.452461 6.00000000
-40.524277 64.270996 -43.647671 6.00000000
-38.043964 66.181801 -43.011097 6.00000000
-34.370861 68.753891 -17.371433 6.00000000
-42.271141 62.792252 -10.406892 6.00000000
-42.337681 62.735928 -31.987415 6.00000000
-38.507206 65.831322 -21.171183 6.00000000
-43.139412 62.057251 -6.842360 6.00000000
-44.398838 60.880245 -42.291901 6.00000000
-43.193874 62.011147 -30.863794 6.00000000
-41.776081 63.211327 -40.354259 6.00000000
-40.930462 63.927155 -55.236130 6.00000000
-36.598263 67.253052 -53.935051 6.00000000
-33.701820 69.204697 -6.535572 6.00000000
-37.141369 66.864693 -61.025906 6.00000000
-34.801247 68.463898 -27.928356 6.00000000
-36.127258 67.570412 -30.389299 6.00000000
-39.765572 64.879265 3.344845 6.00000000
-35.743214 67.829185 -10.896297 6.00000000
-43.238697 61.973206 -39.988060 6.00000000
-43.436974 61.789444 -3.638190 6.00000000
-45.174404 60.147144 -22.387859 6.00000000
-40.839790 64.003906 -29.761806 6.00000000
-46.230576 59.148800 -60.527740 6.00000000
-38.824352 65.591377 -39.811455 6.00000000
-38.486729 65.846817 -24.928762 6.00000000
-40.803570 64.034569 0.372311 6.00000000
-36.558632 67.279755 -47.488125 6.00000000
-42.766308 62.373089 -3.193264 6.00000000
-34.509552 68.660439 -28.940928 6.00000000
-42.320339 62.750607 -18.795464 6.00000000
-33.789669 69.145508 -39.979507 6.00000000
-40.223869 64.525291 -0.155456 6.00000000
-40.938385 63.920448 -50.597012 6.00000000
-40.520035 64.274590 1.303508 6.00000000
-45.679989 59.669243 -39.143524 6.00000000
-41.522987 63.425575 -3.756691 6.00000000
-35.822620 67.775681 -3.305886 6.00000000
-44.105728 61.157307 -32.393707 6.00000000
-43.144547 62.052906 -58.838871 6.00000000
-37.944851 66.256790 3.696910 6.00000000
-43.747143 61.496262 -30.080437 6.00000000
-42.422768 62.663898 -27.490490 6.00000000
-43.099571 62.090977 -23.365974 6.00000000
-35.472240 68.011772 -31.838108 6.00000000
-38.472603 65.857506 1.905603 6.00000000
-42.220261 62.835323 -50.818058 6.00000000
-45.560085 59.782581 -26.761667 6.00000000
-42.632004 62.486778 -6.402469 6.00000000
-35.004436 68.326981 -3.206596 6.00000000
-39.198799 65.308075 -52.825035 6.00000000
-40.751743 64.078438 -59.185951 6.00000000
-46.213909 59.164555 -31.463764 6.00000000
-43.349121 61.872486 -42.116974 6.00000000
-39.934719 64.751289 2.046794 6.00000000
-37.909286 66.283699 -11.128670 6.00000000
-33.682541 69.217690 -9.565256 6.00000000
-40.074100 64.645836 -33.587620 6.00000000
-36.548649 67.286476 -41.387222 6.00000000
-35.621155 67.911430 -23.527634 6.00000000
-45.361824 59.969986 -15.587651 6.00000000
-45.891552 59.469261 -25.971966 6.00000000
-41.651176 63.317062 -23.369530 6.00000000
-34.394581 68.737907 -11.856642 6.00000000
-44.541775 60.745132 -4.968473 6.00000000
-46.119808 59.253502 -34.378887 6.00000000
-40.202251 64.543594 -21.421831 6.00000000
-36.330452 67.433502 -53.137615 6.00000000
-39.444695 65.122032 -54.834846 6.00000000
-37.608524 66.511246 -59.036137 6.00000000
-39.695770 64.932076 -56.717495 6.00000000
-41.840168 63.157078 -61.089802 6.00000000
-43.843121 61.405537 -58.068573 6.00000000
-41.879253 63.123993 -22.270279 6.00000000
-36.972919 66.992134 -37.953651 6.00000000
-45.433533 59.902206 -59.003807 6.00000000
-36.188374 67.529236 -43.399593 6.00000000
-40.856239 63.989983 -54.422131 6.00000000
-41.428043 63.505947 -30.030420 6.00000000
-37.012337 66.962311 -6.562857 6.00000000
-34.667835 68.553787 -12.873186 6.00000000
-41.844994 63.152992 -41.183285 6.00000000
-38.597996 65.762634 -12.849207 6.00000000
-44.375671 60.902142 -28.243851 6.00000000
-45.982037 59.383732 -36.394192 6.00000000
-44.715168 60.581234 -32.598499 6.00000000
-43.466259 61.761761 -2.651098 6.00000000
-35.934410 67.700356 -40.388618 6.00000000
-33.806538 69.134140 -33.375080 6.00000000
-37.950523 66.252495 0.722460 6.00000000
-42.340050 62.733921 -8.617738 6.00000000
-46.253468 59.127163 -41.770092 6.00000000
-39.451138 65.117157 -39.109806 6.00000000
-40.801086 64.036674 -56.326492 6.00000000
-38.988712 65.467026 -24.275166 6.00000000
-35.869480 67.744110 -24.638561 6.00000000
-35.448505 68.027763 -8.683226 6.00000000
-35.240173 68.168144 -59.552605 6.00000000
-40.109798 64.618835 -42.274273 6.00000000
-42.582214 62.528923 -15.905380 6.00000000
-39.012600 65.448952 -45.640278 6.00000000
-42.240211 62.818436 -16.742296 6.00000000
-43.360432 61.861794 -15.243286 6.00000000
-36.068165 67.610229 -49.000576 6.00000000
-40.037254 64.673714 -18.638048 6.00000000
-44.295200 60.978207 -44.787701 6.00000000
-36.586098 67.261246 -11.216701 6.00000000
-36.992069 66.977646 -11.896792 6.00000000
-42.586563 62.525242 -21.786022 6.00000000
-38.685226 65.696632 -9.051260 6.00000000
-36.457687 67.347771 -23.694654 6.00000000
-38.878441 65.550453 -59.915264 6.00000000
-35.563515 67.950272 -4.163015 6.00000000
-44.522678 60.763187 -17.167711 6.00000000
-38.211487 66.055061 -37.588787 6.00000000
-40.376762 64.395866 -11.189931 6.00000000
-37.867748 66.315125 -8.657292 6.00000000
-43.872292 61.377960 -0.574643 6.00000000
-41.391178 63.537151 -4.708183 6.00000000
-43.594521 61.640522 -17.917677 6.00000000
-41.547192 63.405087 -17.363415 6.00000000
-41.661133 63.308632 -38.698776 6.00000000
-34.175240 68.885704 -5.011605 6.00000000
-44.741474 60.556370 -45.811230 6.00000000
-36.810303 67.110168 -22.962284 6.00000000
-37.943909 66.257500 -58.311028 6.00000000
-35.319218 68.114883 -11.613658 6.00000000
-35.120560 68.248741 2.006791 6.00000000
-44.495358 60.789009 -35.911015 6.00000000
-38.085426 66.150429 -60.262199 6.00000000
-38.860260 65.564209 -10.303515 6.00000000
-45.560749 59.781952 -53.682648 6.00000000
-33.960728 69.030243 -24.710651 6.00000000
-44.092701 61.169621 -4.420248 6.00000000
-37.859501 66.321365 -32.444958 6.00000000
-34.886147 68.406685 -1.075101 6.00000000
-43.876320 61.374153 1.742634 6.00000000
-34.551743 68.632011 2.675757 6.00000000
-37.219017 66.805939 -31.388197 6.00000000
-39.277073 65.248856 -31.039335 6.00000000
-36.965206 66.997971 -13.773341 6.00000000
-35.336739 68.103073 -15.397708 6.00000000
-41.197144 63.701405 1.224846 6.00000000
-41.878956 63.124245 -24.361000 6.00000000
-42.720718 62.411678 -34.050922 6.00000000
-44.582878 60.706284 -34.717106 6.00000000
-39.153320 65.342484 -55.783535 6.00000000
-38.096027 66.142410 -6.176391 6.00000000
-43.167297 62.033646 -29.205482 6.00000000
-34.876022 68.413506 -54.023670 6.00000000
-37.476074 66.611458 -26.222269 6.00000000
-34.216663 68.857796 -46.700089 6.00000000
-40.844238 64.000137 -6.913326 6.00000000
-42.379105 62.700859 -51.792671 6.00000000
-43.342541 61.878708 -33.834122 6.00000000
-44.219131 61.050110 -52.708935 6.00000000
-35.378895 68.074669 -45.148613 6.00000000
-41.401669 63.528275 -36.257347 6.00000000
-44.130707 61.133698 -12.112513 6.00000000
-43.365437 61.857067 -10.900704 6.00000000
-36.419113 67.373756 -4.944079 6.00000000
-44.754841 60.543736 -12.416282 6.00000000
-35.807575 67.785820 -14.141562 6.00000000
-41.655415 63.313473 -51.447220 6.00000000
-37.901894 66.289291 -40.217152 6.00000000
-33.761822 69.164268 -14.099968 6.00000000
-44.079868 61.181751 -24.304039 6.00000000
-33.649765 69.239777 -31.322863 6.00000000
-42.041237 62.986870 -11.349502 6.00000000
-38.793919 65.614403 -50.131931 6.00000000
-39.325966 65.211861 -3.800893 6.00000000
-34.448772 68.701393 -54.975578 6.00000000
-45.091442 60.225563 -11.577671 6.00000000
-40.612846 64.196022 -49.171604 6.00000000
-41.549644 63.403008 -32.264565 6.00000000
-41.575180 63.381393 -55.100609 6.00000000
-42.984779 62.188148 -27.017506 6.00000000
-34.200283 68.868828 -43.067177 6.00000000
-33.568913 69.294250 -20.919981 6.00000000
-36.556549 67.281151 -42.742378 6.00000000
-34.867496 68.419258 -45.817463 6.00000000
-40.695232 64.126282 -32.284962 6.00000000
-46.202629 59.175217 -56.309818 6.00000000
-34.387985 68.742355 -20.918360 6.00000000
-42.801094 62.343639 -11.209739 6.00000000
-45.259209 60.066982 -57.127274 6.00000000
-43.534111 61.697624 -36.445969 6.00000000
-45.275810 60.051289 -47.132034 6.00000000
-33.661648 69.231766 -28.692314 6.00000000
-40.760395 64.071121 -42.712311 6.00000000
-40.333088 64.432838 -34.452717 6.00000000
-46.130882 59.243034 -16.924990 6.00000000
-39.889191 64.785736 -58.395248 6.00000000
-39.514870 65.068947 -10.046691 6.00000000
-40.650860 64.163841 -24.364170 6.00000000
-42.458904 62.633308 -40.050713 6.00000000
-41.963497 63.052677 -6.391512 6.00000000
-34.566341 68.622177 -10.736725 6.00000000
-35.651138 67.891228 -0.263201 6.00000000
-39.774212 64.872726 -15.635957 6.00000000
-38.165195 66.090080 -53.841904 6.00000000
-39.412762 65.146194 -26.868036 6.00000000
-45.886765 59.473785 -50.674038 6.00000000
-39.959461 64.732574 -38.240486 6.00000000
-33.476643 69.356430 -46.924496 6.00000000
-44.743935 60.554043 -46.756691 6.00000000
-40.228230 64.521599 -39.233559 6.00000000
-39.688976 64.937218 -19.492941 6.00000000
-40.372570 64.399414 -28.931797 6.00000000
-34.924309 68.380974 -9.454921 6.00000000
-38.820232 65.594490 -33.274117 6.00000000
-42.394299 62.688000 -53.218285 6.00000000
-34.816158 68.453850 -49.317108 6.00000000
-37.323715 66.726730 -45.580769 6.00000000
-40.207092 64.539497 -60.441898 6.00000000
-39.997112 64.704086 -49.657169 6.00000000
-37.475117 66.612183 -21.282005 6.00000000
-42.318695 62.751999 -45.010189 6.00000000
-45.081120 60.235321 2.548469 6.00000000
-46.233013 59.146500 -55.317692 6.00000000
-36.907650 67.041512 -27.065023 6.00000000
-44.532787 60.753632 -57.245190 6.00000000
-41.382027 63.544899 -57.375824 6.00000000
-34.896198 68.399918 -8.136053 6.00000000
-33.611961 69.265244 -23.904024 6.00000000
-38.703281 65.682976 2.698429 6.00000000
-35.614346 67.916023 -38.368088 6.00000000
-39.011444 65.449829 -14.721675 6.00000000
-37.636749 66.489891 -26.992008 6.00000000
-42.138359 62.904655 -39.175503 6.00000000
-46.127037 59.246670 -59.101479 6.00000000
-37.207554 66.814613 -44.794304 6.00000000
-35.632221 67.903976 1.287282 6.00000000
-43.863686 61.386097 -44.009483 6.00000000
-41.333652 63.585846 -21.307932 6.00000000
-35.915977 67.712776 -28.925184 6.00000000
-41.565071 63.389950 -29.058111 6.00000000
-45.923653 59.438919 -5.879435 6.00000000
-41.908943 63.098858 -54.099922 6.00000000
-39.952450 64.737877 -32.671783 6.00000000
-40.698093 64.123856 -20.007444 6.00000000
-46.221046 59.157806 -19.463564 6.00000000
-36.339825 67.427185 -7.664314 6.00000000
-39.016167 65.446251 -15.919850 6.00000000
-44.602879 60.687378 -15.834397 6.00000000
-40.256073 64.498032 -6.285486 6.00000000
-41.534351 63.415955 -31.371969 6.00000000
-33.733017 69.183678 -18.314381 6.00000000
-44.512409 60.772892 -47.789368 6.00000000
-40.179504 64.562851 -56.145603 6.00000000
-41.774361 63.212784 -18.429281 6.00000000
-35.516800 67.981750 -49.507610 6.00000000
-42.529793 62.573303 -48.017792 6.00000000
-38.030685 66.191849 -21.964344 6.00000000
-37.711197 66.433571 -1.903222 6.00000000
-33.849621 69.105110 -45.724705 6.00000000
-37.932289 66.266289 -29.273655 6.00000000
-46.122646 59.250820 -0.281352 6.00000000
-39.357803 65.187775 -18.755487 6.00000000
-37.086586 66.906136 -5.546072 6.00000000
-35.904148 67.720749 -60.133125 6.00000000
-39.548576 65.043442 -21.035849 6.00000000
-34.595135 68.602776 -51.703953 6.00000000
-40.055386 64.659996 -29.945299 6.00000000
-41.950191 63.063938 -13.090836 6.00000000
-40.830772 64.011543 -2.621405 6.00000000
-42.395493 62.686989 -37.680916 6.00000000
-37.406605 66.664017 -24.445049 6.00000000
-36.007584 67.651054 -12.287245 6.00000000
-38.718708 65.671303 -19.551966 6.00000000
-37.575119 66.536522 -42.398163 6.00000000
-36.552814 67.283669 -32.824383 6.00000000
-42.542637 62.562428 -35.753990 6.00000000
-38.063461 66.167053 -41.157951 6.00000000
-35.091789 68.268127 -6.378452 6.00000000
-34.341259 68.773842 -2.753705 6.00000000
-40.911976 63.942802 -8.069749 6.00000000
-44.539494 60.747292 -39.734756 6.00000000
-39.276814 65.249054 -30.014355 6.00000000
-33.668591 69.227089 -2.038247 6.00000000
-33.502396 69.339073 -26.833393 6.00000000
-41.259956 63.648232 -24.207647 6.00000000
-33.591290 69.279175 -57.007122 6.00000000
-44.027981 61.230797 -51.808907 6.00000000
-45.164299 60.156696 -61.082420 6.00000000
-44.149780 61.115665 -5.594155 6.00000000
-42.578239 62.532291 -29.630428 6.00000000
-33.572777 69.291649 1.179210 6.00000000
-45.225857 60.098511 -41.496403 6.00000000
-40.563995 64.237373 -23.515978 6.00000000
-39.834751 64.826927 -57.552151 6.00000000
-33.474380 69.357948 -8.498904 6.00000000
-41.448448 63.488670 -12.394388 6.00000000
-36.774715 67.134148 -31.991098 6.00000000
-44.112366 61.151031 -50.863735 6.00000000
-45.335297 59.995064 -46.238579 6.00000000
-43.569778 61.663914 2.815862 6.00000000
-39.643723 64.971451 -22.588877 6.00000000
-42.842140 62.308895 -17.255730 6.00000000
-37.609653 66.510391 -23.080544 6.00000000
-40.914921 63.940311 -12.790325 6.00000000
-40.700554 64.121773 -36.257397 6.00000000
-38.929142 65.512093 -48.772167 6.00000000
-34.760635 68.491257 -18.751123 6.00000000
-43.805141 61.441433 -28.743912 6.00000000
-38.084629 66.151039 -15.567661 6.00000000
-43.477551 61.751087 -9.475401 6.00000000
-35.256802 68.156937 -27.077036 6.00000000
-36.128910 67.569298 -55.440155 6.00000000
-33.505795 69.336784 -55.888027 6.00000000
-41.169334 63.724949 -41.157459 6.00000000
-42.828117 62.320763 -2.273045 6.00000000
-42.995537 62.179047 -10.243877 6.00000000
-37.175110 66.839157 -29.463688 6.00000000
-35.244038 68.165535 -28.760010 6.00000000
-45.618435 59.727428 -14.849048 6.00000000
-33.716518 69.194794 -25.563334 6.00000000
-44.921532 60.386173 -55.075279 6.00000000
-42.086918 62.948200 -28.244076 6.00000000
-40.656242 64.159286 -46.435371 6.00000000
-45.195873 60.126846 -35.430923 6.00000000
-34.814049 68.455269 -38.356354 6.00000000
-42.151245 62.893745 -17.697220 6.00000000
-43.687717 61.552429 -53.761711 6.00000000
-45.263355 60.063065 -45.281731 6.00000000
-43.451382 61.775826 -19.872910 6.00000000
-41.964851 63.051533 -25.212374 6.00000000
-40.021255 64.685822 -47.799385 6.00000000
-43.477646 61.750999 0.859067 6.00000000
-43.167450 62.033516 -45.462288 6.00000000
-43.338554 61.882473 -13.048620 6.00000000
-45.782726 59.572128 -41.257942 6.00000000
-43.123421 62.070789 1.930682 6.00000000
-41.203896 63.695686 -10.945560 6.00000000
-45.736217 59.616093 -24.588928 6.00000000
-42.207806 62.845867 -14.044261 6.00000000
-46.225189 59.153893 -43.387173 6.00000000
-39.004715 65.454918 -21.701963 6.00000000
-40.789291 64.046654 -18.618099 6.00000000
-41.160564 63.732368 -5.774366 6.00000000
-45.643429 59.703800 -18.142475 6.00000000
-36.682392 67.196358 -44.053303 6.00000000
-40.025520 64.682594 0.640323 6.00000000
-34.340069 68.774643 -50.870247 6.00000000
-41.236343 63.668221 -9.771134 6.00000000
-41.935703 63.076206 -48.636871 6.00000000
-41.984955 63.034515 -0.170942 6.00000000
-38.887318 65.543739 -2.539378 6.00000000
-37.092106 66.901962 -10.517464 6.00000000
-33.785679 69.148193 -27.771025 6.00000000
-45.694927 59.655121 -51.423210 6.00000000
-36.960770 67.001328 -49.330681 6.00000000
-41.622173 63.341614 -52.276970 6.00000000
-36.982430 66.984940 -12.860097 6.00000000
-45.136177 60.183277 -5.750830 6.00000000
-34.342247 68.773170 1.602495 6.00000000
-43.770023 61.474628 -42.791790 6.00000000
-40.056122 64.659439 -44.418056 6.00000000
-36.153316 67.552856 -42.038143 6.00000000
-37.810501 66.358437 -36.822655 6.00000000
-36.873390 67.067436 -30.470306 6.00000000
-45.892017 59.468822 -37.521877 6.00000000
-42.849434 62.302723 -20.910410 6.00000000
-37.702854 66.439880 -12.171641 6.00000000
-43.307137 61.912170 -0.040153 6.00000000
-45.052284 60.262577 -42.527855 6.00000000
-42.925056 62.238705 2.818865 6.00000000
-40.225262 64.524117 -54.867290 6.00000000
-42.546131 62.559471 -41.029285 6.00000000
-34.662838 68.557159 -45.057739 6.00000000
-39.737122 64.900795 -43.125416 6.00000000
-44.502735 60.782036 -7.958575 6.00000000
-41.292419 63.620750 -48.747147 6.00000000
-45.722939 59.628643 -55.872799 6.00000000
-37.242661 66.788055 -27.822319 6.00000000
-34.259747 68.828766 0.579447 6.00000000
-35.354568 68.091064 -25.249451 6.00000000
-34.215893 68.858315 -7.732573 6.00000000
-34.300316 68.801430 -44.110317 6.00000000
-42.796619 62.347427 0.595709 6.00000000
-44.460815 60.821663 -11.341228 6.00000000
-36.895042 67.051056 -8.286101 6.00000000
-38.904343 65.530853 -60.730663 6.00000000
-41.779213 63.208675 -37.648529 6.00000000
-39.017326 65.445374 -7.586881 6.00000000
-42.041008 62.987064 0.982102 6.00000000
-42.846424 62.305267 -19.296734 6.00000000
-34.536777 68.642097 -5.844990 6.00000000
-38.405300 65.908424 -22.690397 6.00000000
-43.461067 61.766670 -8.518799 6.00000000
-37.552380 66.553726 -48.889854 6.00000000
-36.870281 67.069756 -18.157555 6.00000000
-39.522678 65.063034 -50.337608 6.00000000
-41.488094 63.455109 -20.397968 6.00000000
-45.410431 59.924042 -33.413353 6.00000000
-40.597382 64.209114 -47.345699 6.00000000
-35.375355 68.077057 -39.670277 6.00000000
-46.054237 59.315483 -15.600007 6.00000000
-45.998947 59.367744 -57.107941 6.00000000
-45.729359 59.622578 0.322634 6.00000000
-45.237480 60.087521 -3.464224 6.00000000
-45.239822 60.085308 -25.978279 6.00000000
-41.364815 63.559471 -14.781429 6.00000000
-46.115479 59.257595 -11.648649 6.00000000
-42.724358 62.408600 -7.842397 6.00000000
-44.412952 60.866905 -13.658706 6.00000000
-35.442528 68.031792 -41.852810 6.00000000
-43.797688 61.448483 -35.377132 6.00000000
-38.683975 65.697586 -43.649075 6.00000000
-45.300812 60.027657 -17.451843 6.00000000
-37.809963 66.358841 -5.365827 6.00000000
-43.548553 61.683975 -38.506851 6.00000000
-44.947224 60.361885 -58.049339 6.00000000
-46.034805 59.333851 -54.503559 6.00000000
-43.403076 61.821484 -4.477742 6.00000000
-36.286819 67.462898 -37.820267 6.00000000
-42.198742 62.853539 -3.807940 6.00000000
-45.047855 60.266766 -50.552265 6.00000000
-43.492825 61.736652 -51.273808 6.00000000
-35.585876 67.935204 -51.645817 6.00000000
-36.731174 67.163490 -28.362000 6.00000000
-42.790527 62.352585 -59.625854 6.00000000
-38.760235 65.639885 -42.807262 6.00000000
-34.103794 68.933846 -60.915062 6.00000000
-41.751427 63.232201 -8.361271 6.00000000
-39.757256 64.885559 -17.553963 6.00000000
-42.879898 62.276932 -52.535316 6.00000000
-37.793629 66.371201 -47.942249 6.00000000
-39.435413 65.129059 -43.941124 6.00000000
-44.575287 60.713459 -56.318825 6.00000000
-35.283131 68.139198 -10.200063 6.00000000
-42.548054 62.557846 -30.890638 6.00000000
-34.975830 68.346260 -24.505722 6.00000000
-42.772873 62.367531 3.749193 6.00000000
-37.245842 66.785645 0.485237 6.00000000
-46.005051 59.361977 -2.383517 6.00000000
-46.225426 59.153667 1.319880 6.00000000
-35.085072 68.272652 -51.051151 6.00000000
-43.194118 62.010941 -46.332642 6.00000000
-37.115681 66.884125 2.171744 6.00000000
-42.453983 62.637474 -46.376675 6.00000000
-33.673943 69.223480 -43.665607 6.00000000
-42.641987 62.478329 -13.154876 6.00000000
-40.187092 64.556427 -51.144482 6.00000000
-43.585609 61.648949 -16.949162 6.00000000
-36.660076 67.211395 -46.304733 6.00000000
-41.855652 63.143970 -1.507771 6.00000000
-33.870388 69.091118 -3.546150 6.00000000
-45.310726 60.018288 -9.915253 6.00000000
-40.472004 64.315247 -22.195698 6.00000000
-36.282726 67.465660 -13.268177 6.00000000
-37.787586 66.375771 -30.052019 6.00000000
-39.047356 65.422653 -16.833675 6.00000000
-46.014519 59.353027 -7.959541 6.00000000
-36.191959 67.526817 -26.910219 6.00000000
-42.578388 62.532166 -60.530315 6.00000000
-40.717003 64.107849 -40.218960 6.00000000
-46.195644 59.181820 -22.893761 6.00000000
-35.318481 68.115372 -36.410847 6.00000000
-40.289734 64.469536 -52.135639 6.00000000
-40.482456 64.306396 -8.650605 6.00000000
-38.913174 65.524178 -5.621358 6.00000000
-33.624767 69.256615 -50.567085 6.00000000
-43.194244 62.010834 -35.699574 6.00000000
-44.981888 60.329117 -18.338749 6.00000000
-35.149971 68.228920 -22.890232 6.00000000
-40.742004 64.086685 -38.463100 6.00000000
-35.545609 67.962334 -29.633772 6.00000000
-39.284897 65.242935 -33.860802 6.00000000
-44.982353 60.328678 -2.690249 6.00000000
-44.601677 60.688511 -49.963837 6.00000000
-44.367985 60.909409 -21.649563 6.00000000
-40.213833 64.533791 -10.298721 6.00000000
-44.042824 61.216766 -45.533627 6.00000000
-39.685032 64.940201 -48.670311 6.00000000
-45.934132 59.429012 -40.428413 6.00000000
-39.534908 65.053780 1.312183 6.00000000
-35.625298 67.908638 -5.064696 6.00000000
-45.400265 59.933651 -32.421242 6.00000000
-42.358547 62.718262 -58.750233 6.00000000
-39.280575 65.246208 -8.547409 6.00000000
-44.344948 60.931187 -2.477782 6.00000000
-41.019783 63.851543 -52.349552 6.00000000
-40.780834 64.053818 -17.623892 6.00000000
-36.279442 67.467873 3.683127 6.00000000
-39.097965 65.384361 -11.223277 6.00000000
-38.154438 66.098221 -46.224930 6.00000000
-43.734463 61.508244 -14.162237 6.00000000
-36.034115 67.633179 -18.092857 6.00000000
-43.710068 61.531303 -26.918167 6.00000000
-43.890015 61.361210 -37.280022 6.00000000
-43.675159 61.564301 -46.797726 6.00000000
-39.769588 64.876228 -14.773228 6.00000000
-35.584671 67.936012 -61.103615 6.00000000
-36.105484 67.585091 -36.862541 6.00000000
-43.423458 61.802219 3.794408 6.00000000
-45.491016 59.847866 -19.057341 6.00000000
-37.438957 66.639534 -55.820553 6.00000000
-33.525269 69.323662 -37.788456 6.00000000
-38.191048 66.070518 -35.695385 6.00000000
-42.380669 62.699539 -23.322386 6.00000000
-42.445251 62.644867 -43.314121 6.00000000
-40.598610 64.208069 2.312721 6.00000000
-37.959366 66.245804 -38.526859 6.00000000
-39.283413 65.244057 -42.085163 6.00000000
-37.821087 66.350426 -4.259573 6.00000000
-37.438557 66.639847 -33.309410 6.00000000
-33.599022 69.273964 -10.490419 6.00000000
-37.791153 66.373070 -39.301502 6.00000000
-37.640305 66.487198 -2.783143 6.00000000
-45.282887 60.044598 -44.424213 6.00000000
-36.094337 67.592598 -49.971928 6.00000000
-44.980553 60.330379 -60.089222 6.00000000
-42.877659 62.278828 -47.199780 6.00000000
-42.237129 62.821045 -26.565853 6.00000000
-38.307152 65.982681 -49.264088 6.00000000
-43.458157 61.769421 -5.339204 6.00000000
-43.085552 62.102844 -43.121578 6.00000000
-34.509521 68.660461 -40.523037 6.00000000
-41.371960 63.553421 -27.259081 6.00000000
-34.787804 68.472954 -32.454914 6.00000000
-45.503304 59.836250 3.200018 6.00000000
-33.591038 69.279343 -39.087997 6.00000000
-42.848919 62.303158 -39.148743 6.00000000
-45.059505 60.255749 -21.131807 6.00000000
-37.547775 66.557205 -35.144432 6.00000000
-34.533756 68.644135 -59.165443 6.00000000
-36.651291 67.217316 -36.152077 6.00000000
-33.543762 69.311195 -13.007975 6.00000000
-37.152405 66.856339 -1.371477 6.00000000
-33.821308 69.124184 2.173917 6.00000000
-42.964043 62.205704 -55.033676 6.00000000
-34.114613 68.926552 -52.433167 6.00000000
-39.980690 64.716515 -53.656101 6.00000000
-43.337296 61.883667 -27.996635 6.00000000
-46.169174 59.206841 -47.827927 6.00000000
-38.472115 65.857872 -11.739237 6.00000000
-42.718067 62.413925 -42.132008 6.00000000
-41.011745 63.858349 -37.059906 6.00000000
-42.362301 62.715084 -56.542240 6.00000000
-39.215675 65.295311 -37.849335 6.00000000
-40.294819 64.465233 -13.110292 6.00000000
-44.864502 60.440079 -37.384247 6.00000000
-44.754677 60.543888 -53.501751 6.00000000
-43.090607 62.098564 -26.227943 6.00000000
-33.771935 69.157455 -1.169114 6.00000000
-41.792122 63.197750 -43.294033 6.00000000
-37.307270 66.739174 -43.278355 6.00000000
-37.672958 66.462494 -14.714069 6.00000000
-38.241329 66.032478 -0.188665 6.00000000
-44.771561 60.527927 3.254104 6.00000000
-38.053040 66.174934 -24.303213 6.00000000
-45.999458 59.367264 -52.386505 6.00000000
-43.357674 61.864403 -25.067257 6.00000000
-46.108757 59.263950 -21.836479 6.00000000
-46.141884 59.232639 -12.522856 6.00000000
-39.721096 64.912918 -23.609198 6.00000000
-41.503025 63.442471 -44.763584 6.00000000
-41.497578 63.447086 -59.474991 6.00000000
-41.260166 63.648056 -60.288784 6.00000000
-44.242744 61.027794 2.403735 6.00000000
-38.336803 65.960243 -14.197150 6.00000000
-38.707993 65.679413 -56.501839 6.00000000
-44.540890 60.745968 -10.162747 6.00000000
-45.278744 60.048519 -6.706456 6.00000000
-40.896889 63.955574 -3.462306 6.00000000
-38.783958 65.621933 -6.540291 6.00000000
-40.355701 64.413696 3.588259 6.00000000
-46.010448 59.356873 -28.301691 6.00000000
-44.148613 61.116768 -55.536129 6.00000000
-40.719955 64.105354 -48.134956 6.00000000
-35.801929 67.789627 -1.999879 6.00000000
-35.061680 68.288414 -2.145984 6.00000000
-41.609699 63.352173 -26.002384 6.00000000
-39.628082 64.983284 -34.579605 6.00000000
-33.667877 69.227570 -4.327420 6.00000000
-43.451191 61.776005 -24.253845 6.00000000
-34.319115 68.788757 -9.923710 6.00000000
-35.871723 67.742599 -53.760609 6.00000000
-35.782818 67.802505 -33.890789 6.00000000
-46.209991 59.168259 -17.903698 6.00000000
-37.821209 66.350334 -13.068239 6.00000000
-35.896011 67.726234 -19.748924 6.00000000
-45.975342 59.390060 -46.769539 6.00000000
-45.982693 59.383114 -48.949833 6.00000000
-36.685097 67.194534 -50.972466 6.00000000
-40.023857 64.683853 -9.323693 6.00000000
-40.654713 64.160583 -35.289627 6.00000000
-36.744095 67.154785 -16.171938 6.00000000
-45.146942 60.173100 -52.538204 6.00000000
-43.970226 61.285389 -34.066795 6.00000000
-43.392071 61.831890 -44.588978 6.00000000
-44.427593 60.853065 -38.926289 6.00000000
-37.373508 66.689056 3.346938 6.00000000
-38.633587 65.735703 -58.380772 6.00000000
-41.105103 63.779320 -39.351116 6.00000000
-43.510014 61.720406 -41.132954 6.00000000
-41.417397 63.514957 -28.183636 6.00000000
-38.128990 66.117470 -61.079933 6.00000000
-36.709274 67.178246 1.234876 6.00000000
-44.828590 60.474022 -28.880369 6.00000000
-33.647697 69.241165 -58.683865 6.00000000
-40.575695 64.227470 -0.954958 6.00000000
-38.675716 65.703835 -38.726448 6.00000000
-39.739918 64.898674 -46.102592 6.00000000
-43.848965 61.400009 -39.385799 6.00000000
-33.766533 69.161095 -59.828201 6.00000000
-45.213398 60.110283 0.805892 6.00000000
-45.441349 59.894814 -16.502089 6.00000000
-41.665428 63.304996 -34.114582 6.00000000
-41.348240 63.573498 -53.504242 6.00000000
-37.764347 66.393356 -50.854889 6.00000000
-44.711937 60.584290 -49.099384 6.00000000
-44.202789 61.065559 3.840732 6.00000000
-34.785320 68.474625 3.447921 6.00000000
-46.219734 59.159050 -13.905596 6.00000000
-41.491596 63.452145 -49.699947 6.00000000
-38.451912 65.873154 -55.478703 6.00000000
-35.099190 68.263138 -44.339508 6.00000000
-43.671432 61.567825 -59.416210 6.00000000
-44.900288 60.406254 -14.976230 6.00000000
-34.413609 68.725090 -48.283684 6.00000000
-33.901855 69.069916 3.873036 6.00000000
-43.541496 61.690643 -60.540977 6.00000000
-43.885288 61.365677 -25.865955 6.00000000
-39.722496 64.911858 -11.057034 6.00000000
-44.938446 60.370182 -36.515087 6.00000000
-38.659050 65.716438 -3.355369 6.00000000
-41.357414 63.565735 -33.255241 6.00000000
-38.881073 65.548462 -51.040192 6.00000000
-39.100033 65.382797 -12.204662 6.00000000
-37.703175 66.439636 -7.734591 6.00000000
-42.422699 62.663960 2.168746 6.00000000
-40.213909 64.533722 -16.701660 6.00000000
-40.073063 64.646622 -40.183201 6.00000000
-43.199398 62.006474 -48.479980 6.00000000
-33.659126 69.233467 -55.015808 6.00000000
-37.338055 66.715881 -3.610296 6.00000000
-40.132767 64.601456 -41.280785 6.00000000
-37.803284 66.363899 -18.508518 6.00000000
-37.004486 66.968246 -34.082085 6.00000000
-34.139809 68.909576 -57.678661 6.00000000
-36.619877 67.238480 -2.543224 6.00000000
-35.009071 68.323860 -19.703070 6.00000000
-38.773457 65.629883 -28.345028 6.00000000
-34.416473 68.723160 -27.232138 6.00000000
-42.023010 63.002296 -21.198366 6.00000000
-44.739918 60.557838 -33.703938 6.00000000
-43.760365 61.483761 -49.899387 6.00000000
-41.990696 63.029652 -42.418919 6.00000000
-36.287361 67.462540 -6.663172 6.00000000
-39.478935 65.096130 -59.211819 6.00000000
-35.240963 68.167610 -40.782570 6.00000000
-44.329243 60.946030 -30.511318 6.00000000
-36.668259 67.205887 -24.792669 6.00000000
-33.666451 69.228531 -11.959343 6.00000000
-45.460613 59.876606 -54.781963 6.00000000
-35.922920 67.708099 -35.614861 6.00000000
-33.472157 69.359451 -5.239502 6.00000000
-35.799732 67.791100 -25.965378 6.00000000
-44.039768 61.219654 -15.036368 6.00000000
-41.605057 63.356102 -56.471485 6.00000000
-35.107319 68.257660 -30.814011 6.00000000
-44.333694 60.941822 -54.227856 6.00000000
-46.014874 59.352695 -32.922512 6.00000000
-40.397022 64.378716 -15.300799 6.00000000
-42.819378 62.328163 -36.560482 6.00000000
-37.856178 66.323875 -44.332172 6.00000000
-45.924679 59.437946 -35.292297 6.00000000
-38.437584 65.883995 -25.981693 6.00000000
-39.603210 65.002106 -2.192287 6.00000000
-37.970001 66.237762 -57.301807 6.00000000
-39.703705 64.926071 -24.722853 6.00000000
-36.541233 67.291473 -34.672417 6.00000000
-41.915375 63.093414 -47.077774 6.00000000
-36.864445 67.073692 -48.337051 6.00000000
-44.058277 61.202160 -40.678425 6.00000000
-36.735744 67.160408 -21.496605 6.00000000
-37.294212 66.749046 -47.449902 6.00000000
-34.110123 68.929581 -15.255226 6.00000000
-46.220882 59.157963 -38.311962 6.00000000
-44.630920 60.660870 -59.030296 6.00000000
-42.791256 62.351971 -1.319695 6.00000000
-38.643776 65.727997 0.958940 6.00000000
-34.518803 68.654205 -23.853432 6.00000000
-34.330929 68.780800 -31.467087 6.00000000
-41.972565 63.045002 -36.767967 6.00000000
-46.177494 59.198978 -49.789200 6.00000000
-35.541973 67.964783 -47.092312 6.00000000
-45.592052 59.752365 -30.867580 6.00000000
-35.415436 68.050049 -19.020113 6.00000000
-39.540993 65.049179 -35.757500 6.00000000
-36.125496 67.571602 -54.550816 6.00000000
-37.568924 66.541206 -55.032997 6.00000000
-38.997292 65.460533 -1.332152 6.00000000
-45.306339 60.022430 -49.654087 6.00000000
-33.566727 69.295731 -32.193378 6.00000000
-39.735764 64.901817 -7.970373 6.00000000
-38.153008 66.099304 -1.188977 6.00000000
-35.955574 67.686096 -56.832520 6.00000000
-36.094780 67.592300 -9.313009 6.00000000
-42.626968 62.491039 -49.070087 6.00000000
-34.055698 68.966255 -53.376896 6.00000000
-34.759003 68.492355 -60.227036 6.00000000
-33.927357 69.052727 -36.287083 6.00000000
-36.059246 67.616241 -10.158085 6.00000000
-44.765350 60.533798 -24.426617 6.00000000
-45.485802 59.852795 -0.960752 6.00000000
-41.926235 63.084221 -45.682388 6.00000000
-36.982063 66.985214 -18.970219 6.00000000
-37.347218 66.708946 -9.600541 6.00000000
-34.346806 68.770103 -13.582051 6.00000000
-38.676636 65.703133 -41.395103 6.00000000
-35.788498 67.798676 -46.056999 6.00000000
-44.846397 60.457191 -27.397320 6.00000000
-40.218018 64.530251 -2.777309 6.00000000
-40.740032 64.088356 -5.064392 6.00000000
-44.835339 60.467644 -1.542405 6.00000000
-40.719002 64.106155 -30.701488 6.00000000
-37.357201 66.701393 -0.629192 6.00000000
-37.123035 66.878555 -59.617535 6.00000000
-42.232285 62.825146 3.246984 6.00000000
-35.455612 68.022980 -13.074447 6.00000000
-40.007359 64.696335 -26.346312 6.00000000
-35.972031 67.675011 -16.197945 6.00000000
-35.005695 68.326134 1.034201 6.00000000
-41.375156 63.550713 -13.396195 6.00000000
-39.586117 65.015038 -60.030624 6.00000000
-38.754478 65.644241 -54.634865 6.00000000
-45.169891 60.151409 -14.192553 6.00000000
-42.712944 62.418262 -28.543364 6.00000000
-36.573997 67.269394 -57.374748 6.00000000
-38.017433 66.201874 -19.426374 6.00000000
-39.571011 65.026466 -4.651826 6.00000000
-34.860920 68.423683 -47.142124 6.00000000
-41.063000 63.814960 -45.804943 6.00000000
-38.423450 65.894691 -34.161499 6.00000000
-38.003098 66.212723 -31.010096 6.00000000
-39.357201 65.188232 -40.408566 6.00000000
-41.160320 63.732574 -25.388180 6.00000000
-36.570110 67.272018 -39.787083 6.00000000
-41.954575 63.060230 -9.639115 6.00000000
-43.691650 61.548710 -20.659365 6.00000000
-40.811230 64.028084 -14.463494 6.00000000
-34.273335 68.819611 -8.564851 6.00000000
-40.693378 64.127846 -45.105206 6.00000000
-44.417141 60.862942 -3.407088 6.00000000
-35.981331 67.668739 -58.745049 6.00000000
-46.227615 59.151600 2.890448 6.00000000
-42.593498 62.519375 -24.982195 6.00000000
-45.639587 59.707432 -4.061260 6.00000000
-33.568539 69.294510 -44.789993 6.00000000
-33.628349 69.254204 -19.475384 6.00000000
-46.064365 59.305908 -1.132204 6.00000000
-33.543610 69.311302 2.981260 6.00000000
-33.952141 69.036034 -29.821404 6.00000000
-41.012421 63.857773 -61.039536 6.00000000
-37.212654 66.810753 -51.456139 6.00000000
-41.781055 63.207115 -15.417964 6.00000000
-36.269363 67.474663 -15.479374 6.00000000
-37.216957 66.807503 -57.778347 6.00000000
-39.301796 65.230148 -29.141897 6.00000000
-34.775566 68.481194 -43.465450 6.00000000
-37.204937 66.816597 -17.258615 6.00000000
-36.313129 67.445175 -52.158154 6.00000000
-44.411438 60.868332 -0.861809 6.00000000
-44.501965 60.782764 -44.008198 6.00000000
-38.719677 65.670570 -47.688267 6.00000000
-36.505112 67.315811 -45.514278 6.00000000
-44.276058 60.996300 -37.916805 6.00000000
-42.457161 62.634785 -12.314542 6.00000000
-34.759171 68.492249 -14.643188 6.00000000
-40.099094 64.626930 -59.501999 6.00000000
-45.217896 60.106033 -23.409441 6.00000000
-41.406506 63.524178 -58.468357 6.00000000
-37.941349 66.259438 -25.355103 6.00000000
-35.234989 68.171638 -17.157169 6.00000000
-36.153149 67.552971 -5.809005 6.00000000
