8.435699 -21.897646 -40.163052 24.00000000
9.247409 -21.846647 1.532592 24.00000000
10.331010 -21.778564 -20.726610 24.00000000
11.592719 -21.699291 -10.328183 24.00000000
7.002937 -21.987665 -34.454670 24.00000000
4.886376 -22.120649 -31.117514 24.00000000
11.105685 -21.729893 -45.799900 24.00000000
9.500748 -21.830729 -47.357258 24.00000000
10.673505 -21.757046 -56.184357 24.00000000
11.107003 -21.729809 1.611591 24.00000000
11.922784 -21.678555 -58.611504 24.00000000
10.323996 -21.779005 1.051840 24.00000000
6.069017 -22.046345 -17.395571 24.00000000
6.482447 -22.020369 -8.854241 24.00000000
5.869182 -22.058901 -53.192181 24.00000000
7.944924 -21.928480 -43.324844 24.00000000
8.730010 -21.879154 -57.062389 24.00000000
6.446799 -22.022608 -54.223011 24.00000000
5.785946 -22.064129 -4.143704 24.00000000
11.802764 -21.686094 -21.151480 24.00000000
6.380494 -22.026773 -44.857021 24.00000000
5.162707 -22.103287 -9.010671 24.00000000
9.397656 -21.837208 -5.462199 24.00000000
10.349374 -21.777411 -53.369286 24.00000000
4.852154 -22.122799 -11.454521 24.00000000
6.274497 -22.033434 -22.724485 24.00000000
9.906519 -21.805235 -44.956432 24.00000000
4.920252 -22.118521 -29.493513 24.00000000
10.344089 -21.777742 -18.631804 24.00000000
4.844813 -22.123260 -34.097073 24.00000000
12.018311 -21.672552 -36.317204 24.00000000
9.179547 -21.850910 -0.758850 24.00000000
8.261165 -21.908611 -54.640263 24.00000000
7.526572 -21.954765 -37.081150 24.00000000
8.163399 -21.914755 -6.067035 24.00000000
10.365573 -21.776394 -34.558544 24.00000000
11.259659 -21.720219 -4.347745 24.00000000
10.862834 -21.745150 -59.461174 24.00000000
6.035854 -22.048428 -41.787567 24.00000000
11.659825 -21.695074 -39.909870 24.00000000
5.551340 -22.078871 -2.243959 24.00000000
11.164356 -21.726206 -40.274727 24.00000000
10.428614 -21.772432 -59.931267 24.00000000
11.102215 -21.730110 -43.470699 24.00000000
8.073669 -21.920391 -20.452040 24.00000000
11.157787 -21.726618 -14.899198 24.00000000
8.021683 -21.923658 -30.326405 24.00000000
5.192771 -22.101398 -18.489326 24.00000000
6.448323 -22.022512 -26.522114 24.00000000
9.204099 -21.849367 -31.267082 24.00000000
9.145693 -21.853037 -60.612572 24.00000000
5.425647 -22.086767 -48.733852 24.00000000
11.984764 -21.674660 -34.950279 24.00000000
12.008837 -21.673147 2.205094 24.00000000
5.225911 -22.099316 -34.561607 24.00000000
10.677215 -21.756811 -33.541592 24.00000000
6.156907 -22.040821 0.382312 24.00000000
9.259026 -21.845917 -36.391403 24.00000000
5.466817 -22.084181 -15.794455 24.00000000
11.719191 -21.691345 -42.642754 24.00000000
9.185385 -21.850544 -16.979433 24.00000000
7.870458 -21.933161 -47.916782 24.00000000
9.575559 -21.826029 -46.483425 24.00000000
9.581867 -21.825632 -53.175793 24.00000000
6.638296 -22.010576 -16.463041 24.00000000
11.341174 -21.715096 -33.002865 24.00000000
9.274227 -21.844961 -49.926304 24.00000000
9.940978 -21.803070 2.308644 24.00000000
11.436301 -21.709120 -31.493526 24.00000000
8.727398 -21.879318 -7.227540 24.00000000
9.401713 -21.836952 2.495856 24.00000000
10.261636 -21.782923 -15.869271 24.00000000
5.450597 -22.085199 -40.190205 24.00000000
11.025438 -21.734934 -34.619930 24.00000000
11.219407 -21.722748 -2.469061 24.00000000
5.555896 -22.078583 -19.416611 24.00000000
5.374071 -22.090008 -13.056640 24.00000000
7.944435 -21.928513 -39.463573 24.00000000
11.247032 -21.721010 -27.372040 24.00000000
10.964321 -21.738773 -19.607182 24.00000000
5.505138 -22.081772 -32.712231 24.00000000
9.793438 -21.812340 1.260068 24.00000000
5.960153 -22.053185 1.340596 24.00000000
5.658487 -22.072138 -22.662251 24.00000000
4.830434 -22.124165 -7.163099 24.00000000
11.905210 -21.679659 -6.555993 24.00000000
4.798791 -22.126152 -45.718788 24.00000000
9.903986 -21.805393 -15.189607 24.00000000
11.880309 -21.681223 -54.605228 24.00000000
8.150133 -21.915588 -4.142088 24.00000000
5.603808 -22.075573 -60.046482 24.00000000
8.611532 -21.886599 -37.960312 24.00000000
5.772006 -22.065004 -47.523159 24.00000000
10.341128 -21.777929 -19.526381 24.00000000
9.832635 -21.809877 -38.226063 24.00000000
8.516611 -21.892563 -51.197987 24.00000000
7.084596 -21.982536 -11.227642 24.00000000
8.817523 -21.873655 -53.065060 24.00000000
5.449444 -22.085272 -8.489657 24.00000000
7.424658 -21.961170 -45.597790 24.00000000
11.955864 -21.676476 -35.739738 24.00000000
9.172587 -21.851349 -40.155128 24.00000000
11.489171 -21.705797 -60.501274 24.00000000
6.800927 -22.000359 -5.810768 24.00000000
10.735147 -21.753172 -12.158930 24.00000000
9.088350 -21.856640 -13.971362 24.00000000
4.858539 -22.122398 -1.831039 24.00000000
6.914899 -21.993198 -24.613358 24.00000000
6.984783 -21.988808 -55.918331 24.00000000
10.048123 -21.796337 -2.323058 24.00000000
11.999445 -21.673737 -10.870779 24.00000000
5.584298 -22.076799 -0.442124 24.00000000
6.904615 -21.993843 -13.309677 24.00000000
7.327791 -21.967257 -41.582535 24.00000000
8.884498 -21.869448 3.041614 24.00000000
5.453248 -22.085033 -50.315006 24.00000000
7.251990 -21.972017 -34.984398 24.00000000
10.274136 -21.782139 -60.878304 24.00000000
9.868187 -21.807644 -3.796491 24.00000000
4.813653 -22.125217 -1.011769 24.00000000
11.797948 -21.686398 -24.827528 24.00000000
7.502364 -21.956287 -57.210655 24.00000000
9.998997 -21.799425 -27.665943 24.00000000
8.532243 -21.891581 -37.161350 24.00000000
5.073821 -22.108871 3.113575 24.00000000
10.870487 -21.744669 -25.610899 24.00000000
4.858533 -22.122398 -24.881790 24.00000000
9.948571 -21.802593 -24.399578 24.00000000
11.841140 -21.683683 -4.001337 24.00000000
10.411332 -21.773518 -58.424618 24.00000000
7.897028 -21.931492 -29.287209 24.00000000
8.386273 -21.900751 -27.068542 24.00000000
11.372938 -21.713100 -44.866276 24.00000000
9.371445 -21.838854 -30.146988 24.00000000
5.926622 -22.055290 -34.716503 24.00000000
6.864583 -21.996359 -10.449306 24.00000000
5.460063 -22.084604 -35.956116 24.00000000
11.928357 -21.678204 3.394381 24.00000000
5.302709 -22.094490 -40.992989 24.00000000
5.511287 -22.081387 -25.245899 24.00000000
5.191647 -22.101469 -21.817038 24.00000000
9.536731 -21.828468 -33.480995 24.00000000
6.781587 -22.001574 -33.307697 24.00000000
8.780051 -21.876011 -1.618565 24.00000000
11.252084 -21.720694 -7.551933 24.00000000
11.250633 -21.720785 -57.986019 24.00000000
11.537871 -21.702738 -57.232460 24.00000000
5.007243 -22.113054 -17.141916 24.00000000
4.992060 -22.114010 -51.538914 24.00000000
4.855858 -22.122566 -28.204966 24.00000000
5.393425 -22.088791 -38.114967 24.00000000
12.060037 -21.669930 -11.459361 24.00000000
6.124018 -22.042889 -0.294365 24.00000000
6.582341 -22.014091 -4.169340 24.00000000
10.909015 -21.742249 -16.708862 24.00000000
5.415407 -22.087410 -59.230873 24.00000000
6.423413 -22.024078 -23.520763 24.00000000
7.613080 -21.949331 -15.596749 24.00000000
10.676849 -21.756836 -36.259064 24.00000000
7.633973 -21.948017 -2.985459 24.00000000
9.108747 -21.855358 -12.586863 24.00000000
10.947126 -21.739855 -47.134560 24.00000000
6.417634 -22.024441 1.841706 24.00000000
7.432213 -21.960695 -33.975948 24.00000000
11.135933 -21.727991 -9.953132 24.00000000
4.815181 -22.125122 -53.954327 24.00000000
6.763600 -22.002705 -59.351048 24.00000000
5.935346 -22.054743 -37.276623 24.00000000
8.761083 -21.877201 -32.747349 24.00000000
11.660388 -21.695040 -8.549336 24.00000000
9.121668 -21.854548 -53.828369 24.00000000
8.380346 -21.901123 -9.230977 24.00000000
11.383630 -21.712427 -29.913912 24.00000000
11.212810 -21.723162 3.864702 24.00000000
9.878453 -21.806997 -32.857513 24.00000000
7.361582 -21.965134 -58.405739 24.00000000
7.646531 -21.947229 -11.538537 24.00000000
10.843168 -21.746386 -40.759506 24.00000000
6.662918 -22.009029 -46.152340 24.00000000
10.293047 -21.780949 -43.071323 24.00000000
8.352014 -21.902905 -45.753082 24.00000000
9.910046 -21.805014 -19.046001 24.00000000
9.479963 -21.832035 -9.496698 24.00000000
7.820429 -21.936302 -48.859444 24.00000000
7.637937 -21.947769 -2.043637 24.00000000
5.721042 -22.068207 -55.792248 24.00000000
10.281021 -21.781706 -13.997085 24.00000000
5.625708 -22.074198 -6.732533 24.00000000
12.058352 -21.670036 -42.147339 24.00000000
8.777334 -21.876181 -39.520588 24.00000000
11.454739 -21.707960 -16.956411 24.00000000
7.637324 -21.947807 -3.556773 24.00000000
11.385383 -21.712318 -30.768637 24.00000000
6.605815 -22.012617 -1.081438 24.00000000
8.381360 -21.901060 -28.256199 24.00000000
7.707804 -21.943380 -4.589263 24.00000000
8.954972 -21.865021 -58.716724 24.00000000
11.447143 -21.708439 -3.061091 24.00000000
8.782735 -21.875841 -51.810646 24.00000000
10.359258 -21.776789 -2.789092 24.00000000
5.623670 -22.074326 -17.017855 24.00000000
8.613391 -21.886482 -52.332397 24.00000000
5.845951 -22.060358 -61.070526 24.00000000
7.892619 -21.931768 -44.631062 24.00000000
5.107375 -22.106764 -12.058723 24.00000000
8.763809 -21.877031 -28.996675 24.00000000
11.958921 -21.676283 -33.522720 24.00000000
9.833873 -21.809799 -48.197495 24.00000000
11.170985 -21.725788 -24.760342 24.00000000
9.409441 -21.836466 -35.182930 24.00000000
6.929151 -21.992302 -13.912720 24.00000000
12.050039 -21.670559 -60.757797 24.00000000
9.001352 -21.862106 -46.174294 24.00000000
4.876374 -22.121279 -56.864666 24.00000000
9.732405 -21.816174 -20.995129 24.00000000
7.429512 -21.960865 -32.859791 24.00000000
6.237718 -22.035746 -12.361338 24.00000000
9.334427 -21.841179 -23.891031 24.00000000
8.079673 -21.920015 -59.951305 24.00000000
10.019555 -21.798134 3.723429 24.00000000
5.872183 -22.058710 -43.690380 24.00000000
5.629117 -22.073982 0.797251 24.00000000
9.539570 -21.828291 -7.880030 24.00000000
9.123679 -21.854422 3.768625 24.00000000
5.995397 -22.050970 -1.145884 24.00000000
8.768210 -21.876755 -42.365654 24.00000000
7.686639 -21.944710 -60.507725 24.00000000
34.556477 9.843889 -6.505830 25.00000000
34.503868 10.681252 -25.833191 25.00000000
34.547985 9.979056 -27.101444 25.00000000
34.765152 6.522381 -25.324549 25.00000000
34.593700 9.251382 -39.284168 25.00000000
34.873096 4.804220 -21.315948 25.00000000
34.492435 10.863245 -8.921953 25.00000000
34.607658 9.029212 -53.941551 25.00000000
34.570621 9.618743 -19.528933 25.00000000
34.593231 9.258875 -56.705086 25.00000000
34.577034 9.516668 0.424464 25.00000000
34.601688 9.124226 -60.048798 25.00000000
34.496738 10.794750 -39.933041 25.00000000
34.810555 5.799694 -48.217052 25.00000000
34.736088 6.984996 -50.019463 25.00000000
34.598545 9.174289 -38.207893 25.00000000
34.552391 9.908899 -32.079113 25.00000000
34.459778 11.383031 -47.373096 25.00000000
34.669849 8.039350 -53.324337 25.00000000
34.811558 5.783751 -32.512802 25.00000000
34.901199 4.356902 -43.382748 25.00000000
34.539997 10.106149 -4.619391 25.00000000
34.556873 9.837544 -25.224800 25.00000000
34.719341 7.251573 -10.697763 25.00000000
34.757732 6.640504 -20.779245 25.00000000
34.527615 10.303270 0.261953 25.00000000
34.901657 4.349672 -55.584957 25.00000000
34.478535 11.084445 -50.581249 25.00000000
34.650764 8.343069 -43.596554 25.00000000
34.638363 8.540528 -51.828129 25.00000000
34.453880 11.476887 -38.621655 25.00000000
34.530369 10.259423 -1.087468 25.00000000
34.804573 5.894931 -33.395226 25.00000000
34.785397 6.200190 -42.574848 25.00000000
34.897465 4.416408 -13.202726 25.00000000
34.748135 6.793276 -42.188988 25.00000000
34.560596 9.778328 -10.501414 25.00000000
34.645481 8.427170 -1.293340 25.00000000
34.768276 6.472656 -29.790432 25.00000000
34.730221 7.078396 -17.288881 25.00000000
34.549702 9.951707 -48.895210 25.00000000
34.865047 4.932377 -29.222906 25.00000000
34.908062 4.247696 -2.173787 25.00000000
34.565262 9.704061 -34.398743 25.00000000
34.510597 10.574146 -20.316256 25.00000000
34.466534 11.275515 -31.736368 25.00000000
34.463181 11.328876 -13.821082 25.00000000
34.500916 10.728220 -56.997799 25.00000000
34.657318 8.238778 -14.383729 25.00000000
34.729233 7.094152 -7.813952 25.00000000
34.808819 5.827379 -13.095862 25.00000000
34.589596 9.316707 -55.133251 25.00000000
34.453560 11.482006 -58.431454 25.00000000
34.499912 10.744216 -4.205618 25.00000000
34.825642 5.559613 -25.951740 25.00000000
34.775574 6.356514 -15.036734 25.00000000
34.880135 4.692212 -40.640545 25.00000000
34.529083 10.279889 -30.387211 25.00000000
34.506683 10.636457 -44.360634 25.00000000
34.806328 5.867005 -15.299495 25.00000000
34.566486 9.684527 -21.719765 25.00000000
34.544590 10.033060 2.992992 25.00000000
34.840309 5.326131 -59.122078 25.00000000
34.815578 5.719752 -31.126678 25.00000000
34.546143 10.008350 -59.281685 25.00000000
34.832787 5.445883 -29.535776 25.00000000
34.709858 7.402509 -57.285915 25.00000000
34.903603 4.318675 -40.219402 25.00000000
34.857250 5.056445 -41.319286 25.00000000
34.800652 5.957350 -7.565843 25.00000000
34.908073 4.247509 -60.389786 25.00000000
34.681992 7.846086 -23.420469 25.00000000
34.772575 6.404247 -27.772575 25.00000000
34.819447 5.658195 -51.410957 25.00000000
34.836948 5.379628 -25.256477 25.00000000
34.717270 7.284538 -9.503390 25.00000000
34.530277 10.260870 -3.836517 25.00000000
34.499691 10.747746 -1.333950 25.00000000
34.660690 8.185124 -18.036684 25.00000000
34.810440 5.801541 -22.047371 25.00000000
34.674133 7.971157 -61.025265 25.00000000
34.705048 7.479074 -49.646149 25.00000000
34.723701 7.182161 -26.537983 25.00000000
34.765881 6.510818 -33.705975 25.00000000
34.795559 6.038430 -44.677773 25.00000000
34.515583 10.494794 -49.856640 25.00000000
34.655289 8.271110 -2.377268 25.00000000
34.835072 5.409511 -27.613804 25.00000000
34.827461 5.530592 -24.678007 25.00000000
34.722630 7.199234 -1.741385 25.00000000
34.768028 6.476635 -23.023088 25.00000000
34.833248 5.438511 -34.271698 25.00000000
34.585651 9.379500 -10.060970 25.00000000
34.455574 11.449960 -0.770560 25.00000000
34.506927 10.632549 -23.929686 25.00000000
34.904884 4.298277 -48.548485 25.00000000
34.775852 6.352049 -48.824989 25.00000000
34.623455 8.777773 1.256244 25.00000000
34.614414 8.921657 1.896440 25.00000000
34.788219 6.155249 -41.860626 25.00000000
34.523186 10.373741 -39.467228 25.00000000
34.686363 7.776479 -20.312366 25.00000000
34.853283 5.119611 -30.940466 25.00000000
34.613132 8.942079 -25.952749 25.00000000
34.689697 7.723380 -22.606237 25.00000000
34.657909 8.229387 -8.238287 25.00000000
34.541683 10.079342 -60.087101 25.00000000
34.779762 6.289861 -13.729347 25.00000000
34.870705 4.842341 -37.188278 25.00000000
34.708282 7.427568 -24.324295 25.00000000
34.785149 6.204129 -28.284698 25.00000000
34.855991 5.076538 -49.261593 25.00000000
34.898426 4.401098 -0.342609 25.00000000
34.599838 9.153695 -51.962177 25.00000000
34.563572 9.730940 -54.590664 25.00000000
34.889709 4.539846 -54.640495 25.00000000
34.822174 5.614765 -48.812271 25.00000000
34.836803 5.381944 -60.166492 25.00000000
34.770733 6.433570 -54.106346 25.00000000
34.465939 11.284983 -25.145960 25.00000000
34.637619 8.552356 -19.591009 25.00000000
34.457214 11.423830 -11.752280 25.00000000
34.515182 10.501139 -1.984284 25.00000000
34.778053 6.317056 -8.973814 25.00000000
34.482788 11.016768 -34.130886 25.00000000
34.528435 10.290234 -26.429386 25.00000000
34.774918 6.366973 -36.510925 25.00000000
34.810215 5.805114 -19.834270 25.00000000
34.489159 10.915400 -37.246052 25.00000000
34.472500 11.180520 -22.745132 25.00000000
34.682140 7.843669 -2.936217 25.00000000
34.770252 6.441238 -19.490816 25.00000000
34.530300 10.260512 -31.388132 25.00000000
34.735527 6.993927 -48.195885 25.00000000
34.782417 6.247601 -26.190100 25.00000000
34.580040 9.468808 1.053010 25.00000000
34.560047 9.787062 -5.811807 25.00000000
34.502136 10.708816 -35.383297 25.00000000
34.717468 7.281401 3.469722 25.00000000
34.469315 11.231237 -47.940510 25.00000000
34.853958 5.108885 -61.032898 25.00000000
34.691677 7.691876 -34.093861 25.00000000
34.499081 10.757475 -52.231506 25.00000000
34.671127 8.018958 1.654376 25.00000000
34.805264 5.883964 -57.374458 25.00000000
34.707962 7.432672 -19.091875 25.00000000
34.855881 5.078247 -39.357925 25.00000000
34.862720 4.969376 -15.309848 25.00000000
34.488503 10.925787 -58.881618 25.00000000
34.673508 7.981113 -1.700869 25.00000000
34.665405 8.110047 -52.620003 25.00000000
34.588871 9.328246 -29.665060 25.00000000
34.664513 8.124255 -54.918510 25.00000000
34.691128 7.700645 -39.465618 25.00000000
34.507748 10.619523 3.211319 25.00000000
34.641563 8.489537 -35.431049 25.00000000
34.511566 10.558716 -53.348663 25.00000000
34.906876 4.266565 -59.437702 25.00000000
34.731918 7.051389 -23.318453 25.00000000
34.827286 5.533425 -23.181881 25.00000000
34.727406 7.123228 2.951263 25.00000000
34.493542 10.845613 -47.430920 25.00000000
34.781479 6.262522 -38.939949 25.00000000
34.591492 9.286570 -27.611532 25.00000000
34.891090 4.517821 -41.299419 25.00000000
34.858330 5.039309 2.047642 25.00000000
34.744896 6.844807 -32.539242 25.00000000
34.871704 4.826404 -8.907881 25.00000000
34.903500 4.320335 -24.866795 25.00000000
34.737740 6.958743 -58.467613 25.00000000
34.860588 5.003355 -12.917813 25.00000000
34.697021 7.606832 -0.004836 25.00000000
34.865791 4.920506 -51.241421 25.00000000
34.507145 10.629083 -51.439213 25.00000000
34.778038 6.317311 -59.936211 25.00000000
34.908566 4.239688 -44.150539 25.00000000
34.647579 8.393772 -37.447021 25.00000000
34.779606 6.292355 -22.264978 25.00000000
34.816364 5.707241 -37.706947 25.00000000
34.529747 10.269315 -21.436239 25.00000000
34.611935 8.961150 -35.059586 25.00000000
34.703003 7.511622 -12.701895 25.00000000
34.722435 7.202316 -24.908470 25.00000000
34.890968 4.519754 -32.576241 25.00000000
34.685204 7.794948 -9.234567 25.00000000
34.703987 7.495917 -40.928143 25.00000000
34.595161 9.228099 -15.547715 25.00000000
34.508598 10.605955 -59.375797 25.00000000
34.467560 11.259134 -10.763495 25.00000000
34.698528 7.582830 -58.395885 25.00000000
34.576946 9.518044 3.728730 25.00000000
34.907841 4.251213 -44.755329 25.00000000
34.834187 5.423551 -3.301890 25.00000000
34.841862 5.301441 -16.500151 25.00000000
34.459213 11.391975 -27.832909 25.00000000
34.816162 5.710441 0.261920 25.00000000
34.506393 10.641045 -48.451340 25.00000000
34.910130 4.214804 -16.353432 25.00000000
34.756252 6.664050 -50.688335 25.00000000
34.903271 4.323970 -61.024727 25.00000000
34.851868 5.142165 -20.798265 25.00000000
34.611851 8.962482 -37.488144 25.00000000
34.770657 6.434796 -4.939235 25.00000000
34.838531 5.354388 -53.245007 25.00000000
34.757286 6.647619 -34.908798 25.00000000
34.711620 7.374434 -0.779351 25.00000000
34.665508 8.108445 -22.188654 25.00000000
34.891106 4.517571 -11.945749 25.00000000
34.624611 8.759360 -39.592468 25.00000000
34.786819 6.177536 -50.137558 25.00000000
34.656696 8.248706 -33.554474 25.00000000
34.703300 7.506877 -48.441452 25.00000000
34.790874 6.112979 -10.598925 25.00000000
34.661545 8.171506 3.252838 25.00000000
34.836998 5.378822 -14.951545 25.00000000
34.832954 5.443175 -45.244503 25.00000000
34.522526 10.384254 -17.118132 25.00000000
34.842564 5.290251 -32.996780 25.00000000
34.892750 4.491416 -31.249430 25.00000000
34.676514 7.933238 -0.906708 25.00000000
34.465019 11.299614 -1.926624 25.00000000
34.666920 8.085978 -29.990095 25.00000000
34.804947 5.888967 -21.294052 25.00000000
34.454536 11.466436 -36.354443 25.00000000
34.531952 10.234227 -22.727865 25.00000000
34.502110 10.709209 -14.838904 25.00000000
34.870136 4.851371 -23.629963 25.00000000
34.511814 10.554753 0.878231 25.00000000
34.474957 11.141425 3.550940 25.00000000
34.698399 7.584892 -5.937076 25.00000000
34.491936 10.871165 -28.221888 25.00000000
34.654720 8.280123 -42.927383 25.00000000
34.840050 5.330278 -33.685520 25.00000000
34.596008 9.214615 -6.829054 25.00000000
34.656895 8.245529 0.608890 25.00000000
34.763954 6.541462 -5.748753 25.00000000
34.759979 6.604746 -11.252235 25.00000000
34.594765 9.234425 -30.580221 25.00000000
34.822594 5.608133 -38.974461 25.00000000
34.910683 4.205995 -12.562617 25.00000000
34.478420 11.086302 -0.352711 25.00000000
34.555637 9.857249 -57.419090 25.00000000
34.743744 6.863145 -55.840450 25.00000000
34.621803 8.804048 -31.921656 25.00000000
34.464306 11.310971 -29.044107 25.00000000
34.680000 7.877734 -45.150696 25.00000000
34.628082 8.704126 -14.081397 25.00000000
34.587112 9.356270 -26.812559 25.00000000
34.826561 5.544943 -18.619951 25.00000000
34.597538 9.190315 -1.119016 25.00000000
34.821453 5.626241 -41.113621 25.00000000
34.659515 8.203780 -58.638329 25.00000000
34.523056 10.375817 -12.133524 25.00000000
34.710777 7.387850 -34.923157 25.00000000
34.737324 6.965361 -40.831257 25.00000000
34.615314 8.907350 -55.561970 25.00000000
34.464367 11.310000 -49.863991 25.00000000
34.506653 10.636917 -33.589878 25.00000000
34.730904 7.067559 -51.934162 25.00000000
34.647285 8.398475 -28.669193 25.00000000
34.727196 7.126548 -59.278362 25.00000000
34.715027 7.320231 -6.550138 25.00000000
34.668652 8.058373 -13.849765 25.00000000
34.739029 6.938179 -21.298780 25.00000000
34.471745 11.192541 -44.819691 25.00000000
34.803982 5.904326 -43.095352 25.00000000
34.734104 7.016574 -16.494234 25.00000000
34.641148 8.496165 -14.912770 25.00000000
34.596825 9.201634 -61.092308 25.00000000
34.824673 5.575003 -31.935589 25.00000000
34.711613 7.374566 -29.463364 25.00000000
34.842758 5.287131 -11.114532 25.00000000
34.853882 5.110092 -54.841301 25.00000000
34.741310 6.901872 -24.086952 25.00000000
34.847332 5.214354 -0.115579 25.00000000
34.539005 10.121962 -41.595753 25.00000000
34.685497 7.790240 -42.411655 25.00000000
34.876076 4.756835 -45.082211 25.00000000
34.766243 6.505026 -31.282099 25.00000000
34.766945 6.493860 -11.902021 25.00000000
34.829033 5.505596 -13.906508 25.00000000
34.454433 11.468109 -19.751228 25.00000000
34.896755 4.427678 -57.083031 25.00000000
34.686157 7.779734 -16.246685 25.00000000
34.455864 11.445312 -46.666748 25.00000000
34.569965 9.629203 -53.742821 25.00000000
34.517616 10.462400 -55.886402 25.00000000
34.653374 8.301598 -26.056133 25.00000000
34.454247 11.471069 -45.651531 25.00000000
34.702759 7.515520 -40.167686 25.00000000
34.482925 11.014555 -56.434471 25.00000000
34.832123 5.456416 -23.811789 25.00000000
34.617413 8.873939 -58.428673 25.00000000
34.673668 7.978543 -6.530295 25.00000000
34.621826 8.803704 -59.512787 25.00000000
34.581436 9.446583 -58.749088 25.00000000
34.468086 11.250763 -35.735329 25.00000000
34.734982 7.002614 -46.528442 25.00000000
34.839417 5.340346 -45.859600 25.00000000
34.710522 7.391941 -60.617752 25.00000000
34.563450 9.732915 -52.545269 25.00000000
34.780285 6.281563 -41.117035 25.00000000
34.905468 4.288992 -17.120140 25.00000000
34.752762 6.719633 3.699100 25.00000000
34.907875 4.250683 -13.875329 25.00000000
34.565224 9.704624 -3.413136 25.00000000
34.518410 10.449771 -52.819168 25.00000000
34.836620 5.384821 -56.959354 25.00000000
34.634941 8.594945 -18.990353 25.00000000
34.694653 7.644505 -31.172636 25.00000000
34.468452 11.244963 -2.872884 25.00000000
34.863697 4.953875 -19.781847 25.00000000
34.587902 9.343692 -10.900517 25.00000000
34.733982 7.018528 -13.096905 25.00000000
34.825199 5.566653 -17.792479 25.00000000
34.632008 8.641655 -6.008282 25.00000000
34.694607 7.645272 -8.317010 25.00000000
34.506901 10.632980 -15.474513 25.00000000
34.747635 6.801234 -17.738810 25.00000000
34.890270 4.530886 -7.291188 25.00000000
34.706665 7.453353 -35.487110 25.00000000
34.512711 10.540503 -45.764538 25.00000000
34.715450 7.313518 -31.984341 25.00000000
34.555073 9.866214 -51.491570 25.00000000
34.503654 10.684671 -24.735577 25.00000000
34.552994 9.899289 -11.084797 25.00000000
34.898575 4.398738 -2.804771 25.00000000
34.455963 11.443719 -4.022909 25.00000000
34.891872 4.505412 -26.846096 25.00000000
34.520042 10.423795 -37.694057 25.00000000
34.766983 6.493261 -1.635191 25.00000000
34.579887 9.471251 -11.996810 25.00000000
34.521450 10.401384 -27.804970 25.00000000
34.580997 9.453576 -50.726822 25.00000000
34.777718 6.322406 -47.846287 25.00000000
34.580616 9.459641 -41.886791 25.00000000
34.533806 10.204699 3.640826 25.00000000
34.458076 11.410128 -12.913075 25.00000000
34.481159 11.042715 -29.511320 25.00000000
34.519238 10.436626 -13.174481 25.00000000
34.504856 10.665481 -23.135853 25.00000000
34.693733 7.659149 -13.357108 25.00000000
34.861454 4.989538 -24.700272 25.00000000
34.751347 6.742132 -28.528770 25.00000000
34.513615 10.526086 -14.261165 25.00000000
34.542164 10.071669 -11.668916 25.00000000
34.691685 7.691793 -56.496754 25.00000000
34.898266 4.403641 -4.006345 25.00000000
34.812572 5.767613 3.861667 25.00000000
34.779510 6.293835 -2.514591 25.00000000
34.461411 11.357021 -8.698253 25.00000000
34.715694 7.309634 -16.006243 25.00000000
34.554668 9.872658 -55.640312 25.00000000
34.675953 7.942185 -55.514610 25.00000000
34.671452 8.013799 -46.378899 25.00000000
34.459663 11.384874 -10.184054 25.00000000
34.470020 11.219994 -43.409550 25.00000000
34.538544 10.129297 -24.745136 25.00000000
34.569611 9.634831 -56.174866 25.00000000
34.626472 8.729748 -39.000919 25.00000000
34.868896 4.871085 -13.674014 25.00000000
34.528294 10.292444 -37.137363 25.00000000
34.708839 7.418750 -14.789731 25.00000000
34.518097 10.454762 -57.511539 25.00000000
34.641781 8.486081 -4.598059 25.00000000
34.819786 5.652805 -26.636276 25.00000000
34.742489 6.883115 -47.139000 25.00000000
34.815044 5.728234 -0.442987 25.00000000
34.740391 6.916546 -22.244967 25.00000000
34.602318 9.114247 -39.982414 25.00000000
34.508846 10.602025 -3.269896 25.00000000
34.799152 5.981233 -20.378784 25.00000000
34.639893 8.516119 -10.859815 25.00000000
34.768047 6.476304 -37.874580 25.00000000
34.501205 10.723617 -43.686977 25.00000000
34.604572 9.078326 -47.290554 25.00000000
34.520088 10.423072 -25.262243 25.00000000
34.525997 10.329031 2.051142 25.00000000
34.463543 11.323089 -40.168369 25.00000000
34.627708 8.710070 -30.020809 25.00000000
34.502808 10.698104 -54.071125 25.00000000
34.478947 11.077887 -46.152271 25.00000000
34.859295 5.023933 -0.741738 25.00000000
34.622013 8.800742 -1.724397 25.00000000
34.799969 5.968203 -22.746010 25.00000000
34.684330 7.808821 -26.590162 25.00000000
34.856018 5.076097 -2.776085 25.00000000
34.462360 11.341906 -26.318838 25.00000000
34.746548 6.818530 -43.649822 25.00000000
34.591904 9.279957 -46.677879 25.00000000
34.873692 4.794774 -7.837443 25.00000000
34.663311 8.143381 -20.944839 25.00000000
34.806850 5.858689 -29.895056 25.00000000
34.630894 8.659387 -38.418495 25.00000000
34.593906 9.248097 -4.021996 25.00000000
34.683689 7.819054 -36.957394 25.00000000
34.561470 9.764387 -28.362333 25.00000000
34.530556 10.256485 -10.165031 25.00000000
34.490768 10.889741 -21.457239 25.00000000
34.873653 4.795401 -53.193081 25.00000000
34.611755 8.964029 0.544307 25.00000000
34.745476 6.835615 -12.409002 25.00000000
34.686333 7.776979 3.837004 25.00000000
34.596375 9.208791 -35.611492 25.00000000
34.594845 9.233189 -6.270003 25.00000000
34.631054 8.656838 -46.190971 25.00000000
34.568096 9.658917 -33.189304 25.00000000
34.904755 4.300378 -26.213648 25.00000000
34.565224 9.704678 -18.228483 25.00000000
34.460430 11.372665 -32.745304 25.00000000
34.558838 9.806274 -7.633666 25.00000000
34.677086 7.924134 -19.482674 25.00000000
34.872551 4.812928 -29.745796 25.00000000
34.772640 6.403210 -3.035594 25.00000000
34.830299 5.485423 -5.901042 25.00000000
34.786118 6.188703 -24.535650 25.00000000
34.750610 6.753825 -25.980335 25.00000000
34.707127 7.445954 -52.747639 25.00000000
34.534840 10.188285 -7.134172 25.00000000
34.474457 11.149364 -52.801628 25.00000000
34.509613 10.589792 -9.527628 25.00000000
34.830711 5.478877 -53.835571 25.00000000
34.653511 8.299365 -31.407019 25.00000000
34.525665 10.334296 -55.236256 25.00000000
34.806179 5.869361 -60.895100 25.00000000
34.532635 10.223389 -2.890597 25.00000000
34.571594 9.603216 -60.454960 25.00000000
34.540302 10.101325 -45.304047 25.00000000
34.796471 6.023884 -1.349630 25.00000000
34.552387 9.908977 -15.074671 25.00000000
34.905888 4.282309 3.488598 25.00000000
34.613064 8.943184 -42.942101 25.00000000
34.550415 9.940372 -12.497490 25.00000000
34.753418 6.709171 -60.984974 25.00000000
34.908932 4.233869 -28.446396 25.00000000
34.591217 9.290894 -57.396935 25.00000000
34.908554 4.239883 -18.126526 25.00000000
34.863583 4.955697 -26.337116 25.00000000
34.540794 10.093512 -35.299240 25.00000000
34.650883 8.341232 -41.342106 25.00000000
34.853706 5.112895 -48.278942 25.00000000
34.851685 5.145083 1.340950 25.00000000
34.664227 8.128844 -39.084515 25.00000000
34.774536 6.373000 -21.687700 25.00000000
34.611305 8.971170 -16.839970 25.00000000
34.661972 8.164696 -53.853168 25.00000000
34.557827 9.822383 -5.070136 25.00000000
34.474503 11.148637 -6.997090 25.00000000
34.542358 10.068576 -49.491138 25.00000000
34.903183 4.325382 -47.695156 25.00000000
34.776493 6.341877 -0.335151 25.00000000
34.910309 4.211917 -24.311577 25.00000000
34.723495 7.185423 -11.806376 25.00000000
34.647926 8.388245 -22.688169 25.00000000
34.560009 9.787638 -23.490080 25.00000000
34.534615 10.191833 -50.980106 25.00000000
34.616589 8.887094 -60.539799 25.00000000
34.559132 9.801587 2.456329 25.00000000
34.807739 5.844556 -1.959749 25.00000000
34.898117 4.405985 -29.061987 25.00000000
34.464504 11.307761 -54.719845 25.00000000
34.615021 8.912053 -51.201439 25.00000000
34.866550 4.908433 -38.196445 25.00000000
34.869328 4.864266 -16.864149 25.00000000
34.847645 5.209378 -14.376648 25.00000000
34.671146 8.018693 -30.697517 25.00000000
34.710701 7.389104 0.584311 25.00000000
34.877655 4.731666 -3.386968 25.00000000
34.454327 11.469797 -29.907076 25.00000000
34.692474 7.679205 -54.388336 25.00000000
34.754734 6.688224 -0.896422 25.00000000
34.548729 9.967204 -14.509144 25.00000000
34.820702 5.638238 -43.638103 25.00000000
34.464310 11.310911 -20.674246 25.00000000
34.906605 4.270893 -53.375240 25.00000000
34.508835 10.602180 -4.931058 25.00000000
34.686199 7.779100 -46.953506 25.00000000
34.582035 9.437067 -20.695498 25.00000000
34.731037 7.065401 -54.315708 25.00000000
34.643265 8.462489 -44.766953 25.00000000
34.715950 7.305551 -30.479935 25.00000000
34.598396 9.176648 -20.017122 25.00000000
34.530373 10.259390 -5.424865 25.00000000
34.794479 6.055606 -35.026962 25.00000000
34.654640 8.281406 -21.631121 25.00000000
34.750645 6.753284 -45.844288 25.00000000
34.779766 6.289804 -33.023846 25.00000000
34.499908 10.744273 -10.481516 25.00000000
34.663734 8.136656 -45.844273 25.00000000
34.736740 6.974621 -5.269596 25.00000000
34.653515 8.299338 -32.895840 25.00000000
34.586975 9.358396 -1.731191 25.00000000
34.907227 4.260992 -21.989946 25.00000000
34.863209 4.961604 -10.580320 25.00000000
34.892387 4.497188 -9.836081 25.00000000
34.809792 5.811846 -5.123466 25.00000000
34.785866 6.192683 -26.923162 25.00000000
34.736629 6.976403 -19.703684 25.00000000
34.567032 9.675886 -47.166843 25.00000000
34.466278 11.279582 -23.608406 25.00000000
34.460361 11.373750 -31.027323 25.00000000
34.536137 10.167638 -58.630203 25.00000000
34.897324 4.418636 -49.584949 25.00000000
34.585819 9.376815 -8.597511 25.00000000
34.879379 4.704271 -45.683685 25.00000000
34.905003 4.296379 -27.654963 25.00000000
34.602528 9.110904 -25.260088 25.00000000
34.809410 5.817926 -46.412952 25.00000000
34.695805 7.626179 -49.013088 25.00000000
34.840683 5.320162 -35.930813 25.00000000
34.886971 4.583415 -20.770294 25.00000000
34.636410 8.571597 -13.221332 25.00000000
34.589050 9.325375 -5.400727 25.00000000
34.516781 10.475735 -0.532812 25.00000000
34.710846 7.386780 -28.620207 25.00000000
34.856274 5.071997 -4.884887 25.00000000
34.481792 11.032597 -22.173761 25.00000000
34.548992 9.962992 -25.814188 25.00000000
34.486477 10.958048 -36.626934 25.00000000
34.597752 9.186886 -7.989109 25.00000000
34.683254 7.825972 -28.947355 25.00000000
34.626801 8.724540 -53.403854 25.00000000
34.707024 7.447656 -22.068531 25.00000000
34.905281 4.291955 -25.536005 25.00000000
34.533321 10.212430 -13.671801 25.00000000
34.656162 8.257159 -0.426519 25.00000000
34.674179 7.970408 -35.988125 25.00000000
34.458420 11.404633 -43.998260 25.00000000
34.654701 8.280421 -47.447590 25.00000000
34.843964 5.267929 -56.213985 25.00000000
34.624474 8.761549 -47.832928 25.00000000
34.806953 5.857064 -15.842759 25.00000000
34.789421 6.136122 -18.758568 25.00000000
34.788738 6.146953 -52.728176 25.00000000
34.462799 11.334933 -12.299402 25.00000000
34.857925 5.045740 -43.186092 25.00000000
34.725334 7.156167 -13.768425 25.00000000
34.829651 5.495763 -10.446365 25.00000000
34.637794 8.549512 -26.560808 25.00000000
34.903519 4.319991 -38.829426 25.00000000
34.565117 9.706364 -9.098528 25.00000000
34.527725 10.301483 -48.001129 25.00000000
34.832012 5.458209 -34.875351 25.00000000
34.488770 10.921565 -39.329128 25.00000000
34.583138 9.419493 2.958789 25.00000000
34.531582 10.240118 -51.917465 25.00000000
34.613922 8.929489 -41.145329 25.00000000
34.778133 6.315752 -16.378595 25.00000000
34.769096 6.459640 -12.787045 25.00000000
34.790272 6.122549 -6.242912 25.00000000
34.495850 10.808877 -19.707752 25.00000000
34.801731 5.940167 3.174351 25.00000000
34.740479 6.915108 -7.239909 25.00000000
34.455128 11.457065 -37.729530 25.00000000
34.910114 4.215047 -5.207154 25.00000000
34.720825 7.227953 -43.105579 25.00000000
34.730282 7.077431 -57.829792 25.00000000
34.852604 5.130418 -55.494518 25.00000000
34.802277 5.931456 -58.446697 25.00000000
34.460297 11.374739 -59.766151 25.00000000
34.837029 5.378317 -50.873692 25.00000000
34.572063 9.595802 -59.769032 25.00000000
34.783047 6.237571 -45.438072 25.00000000
34.904808 4.299511 -15.661092 25.00000000
34.545177 10.023715 -20.455095 25.00000000
34.539890 10.107885 -43.669640 25.00000000
34.687668 7.755682 -16.825602 25.00000000
34.754101 6.698281 -30.768633 25.00000000
34.717102 7.287194 -11.273660 25.00000000
34.898918 4.393237 -15.063956 25.00000000
34.665367 8.110684 -39.946503 25.00000000
34.810337 5.803197 -36.473087 25.00000000
34.662621 8.154357 -7.046931 25.00000000
34.882027 4.662100 -14.529934 25.00000000
34.798752 5.987592 -11.534724 25.00000000
34.599197 9.163871 -14.890189 25.00000000
34.712212 7.365044 -38.425671 25.00000000
34.732372 7.044129 -2.330892 25.00000000
34.675220 7.953802 -3.607508 25.00000000
34.479729 11.065484 -19.104851 25.00000000
34.847153 5.217169 -9.935421 25.00000000
34.565598 9.698727 -36.831154 25.00000000
34.694344 7.649421 -37.528915 25.00000000
34.629997 8.673668 -30.719069 25.00000000
34.587280 9.353574 -2.942055 25.00000000
34.772961 6.398103 -37.297821 25.00000000
34.458229 11.407678 -57.822300 25.00000000
34.801266 5.947599 -8.428924 25.00000000
34.466061 11.283032 -17.219355 25.00000000
34.865356 4.927418 -17.754690 25.00000000
34.550243 9.943079 -45.985935 25.00000000
34.631344 8.652199 -36.351913 25.00000000
34.705498 7.471921 -7.293262 25.00000000
34.623310 8.780104 -12.637477 25.00000000
34.595791 9.218107 -22.528955 25.00000000
34.779289 6.297372 -17.048218 25.00000000
34.647774 8.390728 -17.401440 25.00000000
34.574455 9.557690 -58.182533 25.00000000
34.788902 6.144352 -56.457970 25.00000000
34.826935 5.538980 1.720440 25.00000000
34.740986 6.907077 -44.292313 25.00000000
34.622818 8.787904 -54.736679 25.00000000
34.777676 6.323028 -32.209824 25.00000000
34.903324 4.323110 -18.694300 25.00000000
34.768593 6.467620 -14.307781 25.00000000
34.904217 4.308907 -11.161938 25.00000000
34.742680 6.880073 -9.098923 25.00000000
34.609341 9.002436 -57.888176 25.00000000
34.704552 7.486979 -55.912228 25.00000000
34.455421 11.452358 -52.179638 25.00000000
34.628902 8.691044 -20.687578 25.00000000
34.801846 5.938324 -12.444388 25.00000000
34.617985 8.864885 -11.300654 25.00000000
34.822315 5.612529 -55.132874 25.00000000
34.782089 6.252808 1.999771 25.00000000
34.836521 5.386415 -52.664883 25.00000000
34.470943 11.205324 -51.196056 25.00000000
34.685833 7.784924 -43.357605 25.00000000
34.828644 5.511834 -42.166496 25.00000000
34.825562 5.560852 -28.205820 25.00000000
34.849117 5.185889 -36.534924 25.00000000
34.855690 5.081307 -18.376389 25.00000000
34.729862 7.084119 -33.857288 25.00000000
34.905827 4.283303 -50.809231 25.00000000
34.607197 9.036594 -44.297394 25.00000000
34.461197 11.360463 -25.785513 25.00000000
34.788471 6.151243 -38.314934 25.00000000
34.651421 8.332681 -15.971549 25.00000000
34.878723 4.714667 -56.539146 25.00000000
34.771034 6.428758 -3.607310 25.00000000
34.825111 5.568036 -40.158825 25.00000000
34.613670 8.933489 -43.546082 25.00000000
34.457394 11.420999 -49.124657 25.00000000
34.674648 7.962955 -59.717255 25.00000000
34.661140 8.177932 -57.963558 25.00000000
34.718342 7.267482 -10.122020 25.00000000
34.611675 8.965244 -29.029644 25.00000000
34.549603 9.953258 -16.705721 25.00000000
34.755203 6.680765 -40.192917 25.00000000
34.856884 5.062307 -6.851250 25.00000000
34.531216 10.245934 -32.713062 25.00000000
34.481861 11.031530 -8.224249 25.00000000
34.904747 4.300474 -6.301407 25.00000000
34.753582 6.706575 -29.183193 25.00000000
34.872711 4.810348 -5.699603 25.00000000
34.807693 5.845240 1.236355 25.00000000
34.750866 6.749797 -6.308705 25.00000000
34.703682 7.500825 -4.631322 25.00000000
34.738022 6.954228 -34.420788 25.00000000
34.734116 7.016404 -3.055096 25.00000000
34.640068 8.513361 -7.714173 25.00000000
34.884033 4.630135 -50.288979 25.00000000
34.908875 4.234767 -10.383319 25.00000000
34.872097 4.820137 -22.532658 25.00000000
34.865608 4.923420 -2.226851 25.00000000
34.497925 10.775864 -41.391155 25.00000000
34.841904 5.300767 -28.753817 25.00000000
34.573078 9.579605 -34.969879 25.00000000
34.557671 9.824869 -17.362301 25.00000000
34.471786 11.191905 -24.231220 25.00000000
34.613892 8.930010 -49.529640 25.00000000
34.464142 11.313575 -56.954365 25.00000000
34.622894 8.786688 -8.486196 25.00000000
34.628475 8.697850 -7.062853 25.00000000
34.671307 8.016158 -4.895306 25.00000000
34.892105 4.501695 -51.557598 25.00000000
34.546074 10.009448 -33.773479 25.00000000
34.583534 9.413170 -31.870331 25.00000000
34.552658 9.904658 -0.662515 25.00000000
34.456619 11.433309 2.403073 25.00000000
34.757706 6.640953 -44.828781 25.00000000
34.908215 4.245305 -33.394901 25.00000000
34.693756 7.658803 -51.386372 25.00000000
34.776215 6.346289 -35.723301 25.00000000
34.661125 8.178204 -12.225538 25.00000000
34.572472 9.589310 -43.857513 25.00000000
34.769821 6.448043 1.072507 25.00000000
34.822628 5.607550 -57.932980 25.00000000
34.698776 7.578904 -43.983841 25.00000000
34.768955 6.461828 -57.957153 25.00000000
34.669472 8.045349 -10.162654 25.00000000
34.456570 11.434085 -21.312447 25.00000000
34.550175 9.944209 -29.076036 25.00000000
34.535267 10.181500 -56.535229 25.00000000
34.518356 10.450608 -34.499413 25.00000000
34.659630 8.201971 -48.948208 25.00000000
34.566998 9.676410 -31.363148 25.00000000
34.505821 10.650153 1.409204 25.00000000
34.565258 9.704077 -37.355164 25.00000000
34.509296 10.594820 -46.503151 25.00000000
34.863327 4.959733 -1.684420 25.00000000
34.470467 11.212907 -16.509483 25.00000000
34.733601 7.024601 1.020665 25.00000000
34.652802 8.310648 -56.154507 25.00000000
34.503799 10.682319 -54.655262 25.00000000
34.903278 4.323829 -38.123547 25.00000000
34.587967 9.342665 -49.006748 25.00000000
34.790291 6.122253 -28.905531 25.00000000
34.740784 6.910289 -56.500244 25.00000000
34.662281 8.159807 -47.971104 25.00000000
34.454498 11.467047 -17.993546 25.00000000
34.834538 5.417985 -44.429855 25.00000000
34.502415 10.704390 -58.170937 25.00000000
34.864819 4.936026 0.605358 25.00000000
34.570122 9.626698 -44.627979 25.00000000
34.593758 9.250494 -14.222857 25.00000000
34.803802 5.907192 2.534922 25.00000000
34.902000 4.344156 -37.573654 25.00000000
34.629055 8.688642 -27.944880 25.00000000
34.701729 7.531902 -5.319674 25.00000000
34.471809 11.191522 1.135889 25.00000000
34.862980 4.965275 -3.995722 25.00000000
34.908371 4.242785 -29.781725 25.00000000
34.475800 11.128014 -5.664319 25.00000000
34.570747 9.616703 -40.448902 25.00000000
34.453800 11.478152 -41.201576 25.00000000
34.575531 9.540591 -43.315796 25.00000000
34.636444 8.571026 -50.730042 25.00000000
34.592346 9.272931 -50.045898 25.00000000
34.551662 9.920477 -1.660448 25.00000000
34.889801 4.538355 -8.338847 25.00000000
34.653740 8.295749 -16.789877 25.00000000
34.653732 8.295841 -8.805492 25.00000000
34.614449 8.921108 -18.557508 25.00000000
34.694115 7.653069 -59.090023 25.00000000
34.681683 7.851007 -23.962564 25.00000000
34.824863 5.571957 -49.960449 25.00000000
34.775169 6.362921 -23.771019 25.00000000
34.787300 6.169872 -53.553429 25.00000000
34.565746 9.696351 1.728471 25.00000000
34.621033 8.816314 -5.126713 25.00000000
34.633312 8.620869 -27.217756 25.00000000
34.570660 9.618138 -16.125362 25.00000000
34.756245 6.664181 1.588108 25.00000000
34.592739 9.266680 -45.868103 25.00000000
34.641270 8.494212 -46.809170 25.00000000
34.709183 7.413285 -46.118458 25.00000000
34.866211 4.913825 -59.771313 25.00000000
34.909019 4.232456 2.010834 25.00000000
34.623325 8.779856 -33.126472 25.00000000
34.649628 8.361206 -20.132269 25.00000000
34.590343 9.304809 -12.624497 25.00000000
34.840542 5.322442 -11.779473 25.00000000
34.454384 11.468874 -55.665062 25.00000000
34.659164 8.209411 -5.699959 25.00000000
34.777668 6.323182 -39.701523 25.00000000
34.811161 5.790051 -35.549858 25.00000000
34.802204 5.932646 -40.625385 25.00000000
34.897228 4.420116 -35.651196 25.00000000
34.867294 4.896579 -34.025791 25.00000000
34.902668 4.333573 -36.920567 25.00000000
34.650311 8.350332 -3.117917 25.00000000
34.740658 6.912274 0.189947 25.00000000
34.826618 5.544015 -4.245845 25.00000000
34.761173 6.585719 -20.133516 25.00000000
34.476151 11.122400 -3.541070 25.00000000
34.665829 8.103347 -37.955524 25.00000000
34.488895 10.919558 -60.988487 25.00000000
34.769165 6.458511 -57.261116 25.00000000
34.534199 10.198484 -18.683073 25.00000000
34.624043 8.768459 -42.231464 25.00000000
34.684181 7.811213 -17.561636 25.00000000
34.906574 4.271395 -56.214035 25.00000000
34.818829 5.668044 -6.676199 25.00000000
34.546837 9.997288 -24.122105 25.00000000
34.868095 4.883827 -30.445690 25.00000000
34.730164 7.079279 -31.248499 25.00000000
34.789944 6.127767 -34.361832 25.00000000
34.669315 8.047815 -18.668304 25.00000000
34.628353 8.699836 -24.698545 25.00000000
34.552956 9.899936 -9.685911 25.00000000
34.722637 7.199102 -55.044117 25.00000000
34.515194 10.500977 -11.193061 25.00000000
34.641777 8.486128 -23.367439 25.00000000
34.843952 5.268145 -40.707306 25.00000000
34.580242 9.465598 -45.284447 25.00000000
34.857304 5.055595 -46.534927 25.00000000
34.614086 8.926914 -21.412052 25.00000000
34.858612 5.034803 -51.863247 25.00000000
34.903816 4.315303 0.554148 25.00000000
34.624290 8.764470 -57.022198 25.00000000
34.663132 8.146235 -40.836887 25.00000000
34.546947 9.995549 0.797284 25.00000000
34.617390 8.874334 -11.996680 25.00000000
34.473339 11.167164 -6.366409 25.00000000
34.695621 7.629095 -25.878515 25.00000000
34.638050 8.545469 -3.681934 25.00000000
34.624741 8.757310 -17.884029 25.00000000
34.730545 7.073254 -29.922264 25.00000000
34.494049 10.837522 -45.275558 25.00000000
34.796295 6.026709 -52.177719 25.00000000
34.905575 4.287321 -22.977690 25.00000000
34.534935 10.186770 -47.453804 25.00000000
34.599499 9.159089 -33.572495 25.00000000
34.751919 6.733045 -52.939270 25.00000000
34.499462 10.751364 -59.971504 25.00000000
34.521927 10.393807 -29.659266 25.00000000
34.590069 9.309219 -13.211485 25.00000000
34.858513 5.036365 -31.668097 25.00000000
34.703808 7.498813 1.991262 25.00000000
34.853020 5.123838 -26.896011 25.00000000
34.564137 9.721932 -30.313217 25.00000000
34.591171 9.291628 -17.760063 25.00000000
34.573227 9.577249 -32.527561 25.00000000
34.756351 6.662458 -18.371086 25.00000000
34.850964 5.156505 -47.672028 25.00000000
34.501099 10.725348 -18.190426 25.00000000
34.874550 4.781097 -52.450550 25.00000000
34.689323 7.729325 -25.311270 25.00000000
34.799500 5.975713 -14.642075 25.00000000
34.542030 10.073821 -22.127935 25.00000000
34.456165 11.440492 -34.541546 25.00000000
34.706867 7.450086 -38.971130 25.00000000
34.742874 6.876997 -51.358780 25.00000000
34.879253 4.706220 -58.700401 25.00000000
34.902565 4.335204 -4.559839 25.00000000
34.483276 11.009003 -7.668419 25.00000000
34.762596 6.563085 2.679197 25.00000000
34.856392 5.070166 -42.595745 25.00000000
34.740639 6.912568 -35.478046 25.00000000
34.512569 10.542712 -16.314125 25.00000000
34.660362 8.190342 -56.917145 25.00000000
34.892933 4.488540 -42.560875 25.00000000
34.896618 4.429849 -47.130615 25.00000000
34.604794 9.074836 2.485106 25.00000000
34.874603 4.780263 -60.493050 25.00000000
34.781693 6.259142 -43.543163 25.00000000
34.672680 7.994284 -34.569607 25.00000000
34.510979 10.568086 -32.125950 25.00000000
34.601784 9.122712 -31.161398 25.00000000
34.676811 7.928523 -7.606838 25.00000000
34.882999 4.646598 -36.362915 25.00000000
34.668167 8.066112 -44.313389 25.00000000
34.572510 9.588670 -2.277467 25.00000000
34.686275 7.777866 -50.768276 25.00000000
34.587822 9.344958 -53.027233 25.00000000
34.485790 10.968980 -49.411400 25.00000000
34.539524 10.113715 -43.067890 25.00000000
34.621895 8.802614 3.093149 25.00000000
34.610100 8.990341 -34.293739 25.00000000
34.717785 7.276366 -4.014468 25.00000000
34.525467 10.337443 -28.454075 25.00000000
34.503490 10.687278 -36.044182 25.00000000
34.698830 7.578072 -32.989170 25.00000000
34.853642 5.113940 3.244592 25.00000000
34.783325 6.233152 -51.608768 25.00000000
34.609848 8.994356 -0.119979 25.00000000
34.686905 7.767882 -15.376131 25.00000000
34.709339 7.410733 -59.808323 25.00000000
34.747692 6.800328 -49.409710 25.00000000
34.461765 11.351405 -27.061621 25.00000000
34.699192 7.572275 -20.972366 25.00000000
34.776398 6.343373 -8.068752 25.00000000
34.485844 10.968152 -30.252174 25.00000000
34.894096 4.470016 -19.332466 25.00000000
34.737919 6.955862 -27.803818 25.00000000
34.549133 9.960777 -38.252350 25.00000000
34.728645 7.103466 -25.497026 25.00000000
34.528297 10.292379 -38.800888 25.00000000
34.764854 6.527107 -59.361111 25.00000000
34.645859 8.421167 -25.447128 25.00000000
34.703007 7.511540 -36.322330 25.00000000
34.575871 9.535173 -48.452797 25.00000000
34.694443 7.647877 -14.210983 25.00000000
34.759052 6.619507 -52.362179 25.00000000
34.690956 7.703370 -32.448711 25.00000000
34.539581 10.112788 -54.161316 25.00000000
34.868107 4.883678 -44.303635 25.00000000
34.636154 8.575632 -24.069437 25.00000000
34.661873 8.166304 -32.052483 25.00000000
34.765594 6.515352 -55.005642 25.00000000
34.859455 5.021341 -21.983868 25.00000000
34.770992 6.429450 -46.436928 25.00000000
34.502022 10.710629 -12.639362 25.00000000
34.842812 5.286285 -58.502659 25.00000000
34.541492 10.082378 -15.621215 25.00000000
34.714596 7.327122 -41.787556 25.00000000
34.654888 8.277460 -51.289715 25.00000000
34.777260 6.329656 -9.981770 25.00000000
34.721359 7.219439 -45.014072 25.00000000
34.468159 11.249603 -33.555206 25.00000000
34.611313 8.971055 -2.355833 25.00000000
34.560631 9.777776 -39.505264 25.00000000
34.455666 11.448499 -14.592826 25.00000000
34.475266 11.136530 1.875373 25.00000000
34.523136 10.374518 -8.134659 25.00000000
34.839619 5.337087 -12.388982 25.00000000
34.474854 11.143070 -15.973039 25.00000000
34.910465 4.209423 -23.713356 25.00000000
34.904278 4.307950 -46.208542 25.00000000
34.551266 9.926800 -50.100025 25.00000000
34.729725 7.086324 -33.327248 25.00000000
34.460354 11.373884 0.198983 25.00000000
34.491608 10.876363 -38.043842 25.00000000
34.746216 6.823838 -38.574341 25.00000000
34.491734 10.874364 -33.050301 25.00000000
34.592838 9.265116 -4.756119 25.00000000
34.605682 9.060676 -3.468566 25.00000000
34.679340 7.888237 -35.133541 25.00000000
34.613155 8.941713 -48.430801 25.00000000
34.494740 10.826557 -31.430052 25.00000000
34.890469 4.527758 -34.459797 25.00000000
34.870121 4.851616 -57.815655 25.00000000
34.800503 5.959711 -50.762173 25.00000000
34.543613 10.048600 -8.658169 25.00000000
34.899170 4.389255 -35.020691 25.00000000
34.726685 7.134678 -47.613190 25.00000000
34.874874 4.775961 -16.102222 25.00000000
34.657772 8.231566 -50.125488 25.00000000
34.629925 8.674778 -0.771528 25.00000000
34.539688 10.111061 -41.000187 25.00000000
