15.173815 18.463833 -39.399361 4.00000000
1.616099 20.216080 0.571985 4.00000000
-6.470818 13.288436 -21.303978 4.00000000
-7.285606 0.658812 -10.078929 4.00000000
14.625449 -6.619208 -28.996134 4.00000000
-5.183850 15.268333 1.828053 4.00000000
7.078735 21.091011 -27.271841 4.00000000
-6.851015 -0.347083 3.267471 4.00000000
1.762518 20.263533 -17.331118 4.00000000
5.125357 -8.816240 -44.209499 4.00000000
21.647667 7.053408 -48.789124 4.00000000
4.091323 -8.669569 -23.757626 4.00000000
-7.124928 0.252082 1.348270 4.00000000
11.241841 -8.184963 -43.115143 4.00000000
12.971028 -7.513021 -54.097103 4.00000000
15.620657 -5.941550 -27.158693 4.00000000
-0.290384 19.372288 -60.996162 4.00000000
-4.068501 16.548073 6.167498 4.00000000
-6.878803 -0.287913 -37.514668 4.00000000
-0.024037 19.511305 -31.311829 4.00000000
19.397524 -1.850785 -46.632751 4.00000000
14.643536 18.805288 -36.157349 4.00000000
8.574100 -8.774483 -40.112782 4.00000000
9.025964 20.914425 -25.224848 4.00000000
-5.889569 14.263674 -33.858002 4.00000000
-4.848793 -3.479401 3.730921 4.00000000
17.496298 -4.290244 -46.775532 4.00000000
10.736380 20.537254 -61.118908 4.00000000
-4.339360 -4.062379 -14.651268 4.00000000
1.903589 20.309254 -52.111668 4.00000000
21.621941 7.467255 -32.827656 4.00000000
20.528849 0.336645 -49.712296 4.00000000
13.582463 19.416210 -2.491018 4.00000000
-7.966071 9.302103 -10.922269 4.00000000
16.519478 -5.224185 -50.740837 4.00000000
19.146406 14.444293 -55.116768 4.00000000
19.035469 14.606884 -50.767387 4.00000000
5.292728 -8.835601 -15.338954 4.00000000
-8.287605 6.882110 -46.207684 4.00000000
9.655665 20.794939 -10.950611 4.00000000
15.932327 -5.709206 -41.409397 4.00000000
13.413434 19.502008 -44.100193 4.00000000
19.859039 13.256853 -19.701820 4.00000000
1.169955 20.039890 5.576764 4.00000000
11.755565 20.215134 -49.905289 4.00000000
20.045025 -0.722015 -10.658031 4.00000000
21.677948 5.930372 4.376899 4.00000000
19.612867 13.705450 -1.773115 4.00000000
-7.682476 1.802464 -23.009966 4.00000000
-5.837593 14.345443 -17.618380 4.00000000
-1.117233 -6.706654 -39.317184 4.00000000
19.046572 14.591579 -24.152208 4.00000000
18.174723 15.731318 -0.310126 4.00000000
12.556794 -7.701936 -20.286257 4.00000000
19.759624 13.438017 -38.769604 4.00000000
9.354737 -8.654947 -4.478806 4.00000000
-7.872191 9.687091 -37.823929 4.00000000
21.082891 1.891198 -31.834499 4.00000000
-0.551308 19.229113 -48.282570 4.00000000
-3.341431 17.249315 0.371559 4.00000000
15.062391 -6.342376 -7.686008 4.00000000
-3.829976 16.791245 -55.494286 4.00000000
-3.639810 16.969547 -3.959707 4.00000000
-8.306915 6.376413 -51.065636 4.00000000
-1.485895 18.669985 -7.683023 4.00000000
4.620219 -8.752026 -10.859959 4.00000000
-5.615948 -2.476422 -14.465347 4.00000000
19.348265 14.125669 -10.955822 4.00000000
6.184097 21.089090 -17.650658 4.00000000
20.316282 12.343615 -26.103876 4.00000000
6.594479 -8.893834 -32.109818 4.00000000
20.024906 12.954597 -4.327893 4.00000000
-8.236022 4.594826 -3.904005 4.00000000
1.627021 20.219620 -40.103493 4.00000000
10.899910 -8.295781 -36.592216 4.00000000
8.336323 -8.804348 -28.310204 4.00000000
12.965429 19.713234 -39.698490 4.00000000
5.332744 21.036161 -28.731466 4.00000000
5.209915 -8.826989 -40.889061 4.00000000
10.129052 -8.495829 6.419194 4.00000000
6.784147 -8.893969 -26.919359 4.00000000
14.960506 -6.406927 -20.669928 4.00000000
1.172103 -7.843363 -7.036917 4.00000000
-7.794094 9.990332 3.910591 4.00000000
13.695655 19.353870 -13.737964 4.00000000
-7.381574 11.297071 -10.111148 4.00000000
-6.278350 -1.441687 -10.023524 4.00000000
21.653753 6.955503 -24.737309 4.00000000
2.950488 20.618629 -47.150600 4.00000000
-8.199547 7.894006 -5.914203 4.00000000
11.647967 20.250183 -51.909039 4.00000000
-3.635606 -4.775965 -1.662354 4.00000000
-7.105001 0.201641 -20.328394 4.00000000
-6.359512 -1.293786 -16.866060 4.00000000
18.935728 -2.547500 -48.694897 4.00000000
21.599386 7.662894 -27.200531 4.00000000
-7.151557 11.876747 -54.728153 4.00000000
-4.304391 -4.099676 -24.075624 4.00000000
7.546988 21.066813 -6.677385 4.00000000
18.792332 -2.744542 -30.962763 4.00000000
20.868237 1.232286 -45.309811 4.00000000
16.645678 17.312740 0.332005 4.00000000
5.133456 21.014151 -47.393421 4.00000000
11.212053 -8.194617 -52.792770 4.00000000
-8.287196 5.312713 -53.495182 4.00000000
-8.271781 7.130641 -11.687193 4.00000000
20.742205 11.321746 -8.937495 4.00000000
-4.337656 16.261894 -37.455036 4.00000000
-2.779675 -5.529108 1.367832 4.00000000
-4.282654 -4.122861 -40.640499 4.00000000
-2.142105 -6.019564 4.197233 4.00000000
16.321251 17.585119 -56.495319 4.00000000
-1.695966 18.536884 -44.308357 4.00000000
4.997111 -8.799937 -7.267694 4.00000000
11.159432 -8.211672 -28.301315 4.00000000
-3.580078 17.025555 -12.170284 4.00000000
-3.259074 -5.130083 -56.933578 4.00000000
0.980024 -7.767136 -55.398350 4.00000000
21.677645 5.615231 -5.100762 4.00000000
-6.076329 13.969865 -29.766468 4.00000000
0.670203 19.837349 -38.019489 4.00000000
-1.492554 18.665764 -20.247889 4.00000000
7.687160 21.057888 -54.220684 4.00000000
-0.190489 19.427103 1.490759 4.00000000
0.792875 -7.692866 -39.736603 4.00000000
0.043907 -7.345353 -2.753566 4.00000000
20.550714 11.806474 -16.105391 4.00000000
20.870102 1.238010 -59.397781 4.00000000
-6.104991 -1.726751 -55.430744 4.00000000
-8.089298 3.540638 -14.384185 4.00000000
1.872543 20.299192 -14.990220 4.00000000
-1.685235 18.543682 -52.561893 4.00000000
6.777628 -8.893964 -36.764404 4.00000000
-7.091966 0.168644 -42.936573 4.00000000
-6.119879 -1.703252 4.625973 4.00000000
15.607085 -5.951395 -10.005321 4.00000000
21.296234 2.716382 1.835906 4.00000000
20.713999 0.803252 -24.542728 4.00000000
-8.261816 4.904241 -56.887188 4.00000000
14.392155 -6.767016 -49.413338 4.00000000
-2.932039 -5.402870 -15.179779 4.00000000
-0.200851 -7.224700 -29.646608 4.00000000
20.985922 10.603182 -11.945450 4.00000000
-6.314274 13.572647 -50.932571 4.00000000
4.622512 20.949974 -7.425755 4.00000000
-8.219806 4.465692 -48.298233 4.00000000
9.895394 -8.552255 -22.960211 4.00000000
15.261111 18.400301 -11.996402 4.00000000
-8.281594 6.976520 -34.305176 4.00000000
21.637556 7.216040 -60.540901 4.00000000
7.246599 21.085938 4.392559 4.00000000
21.067175 1.842958 -20.616753 4.00000000
-6.433841 13.355569 0.260555 4.00000000
16.535013 -5.211351 -2.212935 4.00000000
0.182209 19.608166 -44.834991 4.00000000
10.395221 -8.427707 -59.633068 4.00000000
18.218834 15.677915 -58.717583 4.00000000
21.654654 6.941020 2.318585 4.00000000
1.787216 -8.073715 -14.751244 4.00000000
9.512080 20.822437 6.399032 4.00000000
-8.143521 3.858184 6.196562 4.00000000
-1.640573 18.571980 -46.511662 4.00000000
-7.555668 1.411197 -14.825198 4.00000000
20.337765 12.297874 -21.727234 4.00000000
12.583782 -7.691273 -57.457451 4.00000000
21.362438 9.171564 -9.971797 4.00000000
2.228153 20.414442 -31.106283 4.00000000
-1.537645 -6.439425 -17.588655 4.00000000
-6.697288 -0.674423 -48.713272 4.00000000
-8.201010 4.316004 -17.604916 4.00000000
12.176958 -7.852003 -60.353088 4.00000000
2.434988 -8.284733 -25.061394 4.00000000
13.570070 19.423037 1.428927 4.00000000
-4.719709 -3.635674 -38.830200 4.00000000
21.234770 2.477749 -16.978251 4.00000000
20.865047 1.222498 -53.996872 4.00000000
0.872243 -7.724363 -51.346264 4.00000000
-0.982957 -6.792004 -0.505361 4.00000000
5.383359 21.039309 -9.461208 4.00000000
12.386298 19.966370 -58.269119 4.00000000
-4.423213 -3.972944 -50.287418 4.00000000
21.360180 3.016084 -34.544167 4.00000000
0.442356 -7.533208 -48.928032 4.00000000
14.988742 18.585863 -16.004696 4.00000000
17.100327 16.885157 5.447543 4.00000000
2.644511 20.540319 2.482395 4.00000000
15.189631 18.452320 -51.983238 4.00000000
-6.033748 14.036852 -6.883211 4.00000000
10.980724 20.467537 -15.342310 4.00000000
11.941168 20.143019 2.934493 4.00000000
18.619392 -2.982177 -29.003956 4.00000000
-8.284789 5.273970 -39.915859 4.00000000
-6.394937 13.426201 -1.917992 4.00000000
12.516926 19.914530 -37.318802 4.00000000
-5.820797 14.371866 -23.528570 4.00000000
1.536340 -7.987910 -27.129841 4.00000000
-5.217579 -3.025583 6.347525 4.00000000
17.883152 -3.878940 -3.641643 4.00000000
21.414045 3.297309 -12.118095 4.00000000
-7.762036 2.080758 -17.524347 4.00000000
18.468376 15.375809 -37.917343 4.00000000
11.933903 20.145903 -54.190960 4.00000000
-5.879978 -2.081903 1.166406 4.00000000
-8.233302 4.573166 -11.580113 4.00000000
-7.595055 10.665012 -28.264366 4.00000000
9.143487 20.893028 -3.382836 4.00000000
19.353411 14.117546 -15.393560 4.00000000
-8.052251 8.852167 -57.436466 4.00000000
-6.969585 12.292745 -34.393078 4.00000000
-1.367018 18.745302 -37.312206 4.00000000
6.394095 -8.893691 -22.882185 4.00000000
18.521851 15.311072 -43.891144 4.00000000
21.649315 7.026924 -57.985825 4.00000000
11.814748 20.193190 5.491900 4.00000000
21.502739 3.770205 -19.435749 4.00000000
-2.599061 -5.678753 -51.586246 4.00000000
-5.760986 14.465961 -13.206915 4.00000000
6.915794 -8.894063 -10.977260 4.00000000
20.131264 12.737587 -28.469610 4.00000000
19.582958 13.755213 -59.809765 4.00000000
18.689175 -2.886291 -39.232750 4.00000000
-2.507561 -5.753600 -43.102531 4.00000000
10.234310 -8.468890 -0.341743 4.00000000
21.067570 10.351261 -0.637787 4.00000000
18.095083 -3.629823 -27.047026 4.00000000
3.014162 -8.437643 -20.336630 4.00000000
-8.166125 4.038195 -22.238905 4.00000000
12.075186 -7.892211 2.349493 4.00000000
21.663391 6.800491 -35.964848 4.00000000
9.993766 -8.530453 -38.884960 4.00000000
8.917301 -8.731377 -45.789154 4.00000000
-7.560320 10.771637 -57.105900 4.00000000
-4.194624 16.413973 -59.661888 4.00000000
0.294859 -7.463668 -9.285856 4.00000000
1.506651 -7.976128 -1.203044 4.00000000
17.956522 -3.797066 -35.590446 4.00000000
-7.017700 0.007848 -45.988178 4.00000000
-4.649511 15.917258 -33.587868 4.00000000
-7.892955 9.606467 -30.970772 4.00000000
10.125330 20.694647 -18.611540 4.00000000
20.618111 0.561595 5.271373 4.00000000
21.670780 5.507409 -44.800709 4.00000000
-2.225607 18.156418 -55.101845 4.00000000
16.906288 17.067642 -28.427099 4.00000000
3.378353 20.728134 -10.524820 4.00000000
11.335945 20.351824 -2.069423 4.00000000
2.720846 20.559856 -8.507189 4.00000000
18.059481 15.870834 -35.954762 4.00000000
-1.224743 18.835447 -0.118115 4.00000000
-3.371673 -5.024186 -60.830299 4.00000000
19.607807 13.714671 -57.205070 4.00000000
-2.723448 -5.575694 -7.568756 4.00000000
-8.306125 6.591259 1.139103 4.00000000
-7.850060 2.424690 1.035476 4.00000000
-6.939586 12.356373 -41.176662 4.00000000
14.690496 -6.577997 5.978017 4.00000000
19.939552 13.110139 -41.098801 4.00000000
21.367146 9.146790 -17.386974 4.00000000
20.761320 11.273359 -39.834305 4.00000000
6.790393 -8.893973 -18.617167 4.00000000
4.053997 20.859510 -59.160419 4.00000000
-7.172395 11.824232 -23.983540 4.00000000
12.213323 20.035013 -32.052608 4.00000000
2.628390 -8.338278 -10.425710 4.00000000
17.823454 -3.942412 -58.838306 4.00000000
11.158491 -8.211976 -17.153284 4.00000000
20.577988 0.460481 -30.375315 4.00000000
-6.275458 -1.446957 -51.084599 4.00000000
20.095245 -0.615612 -8.358508 4.00000000
20.832289 11.077216 -23.295795 4.00000000
21.449272 8.714482 -52.605099 4.00000000
20.083864 12.838517 -52.286564 4.00000000
18.647678 15.141463 3.979654 4.00000000
21.621881 4.739435 -31.116373 4.00000000
-7.610929 10.616285 -52.746960 4.00000000
7.661625 -8.862158 -49.107407 4.00000000
21.635754 4.957315 6.238125 4.00000000
-6.094129 -1.743895 -18.885109 4.00000000
-3.200291 17.378820 -51.902214 4.00000000
12.947729 19.721579 -35.130684 4.00000000
15.585417 18.164284 -44.453159 4.00000000
14.080552 19.141891 -54.829765 4.00000000
18.861050 -2.650118 -25.047771 4.00000000
1.098879 20.011810 -24.144302 4.00000000
2.132220 20.383352 -21.481779 4.00000000
-1.186426 18.859726 -40.040421 4.00000000
-8.219264 7.738900 4.560047 4.00000000
9.193107 -8.685647 -15.751019 4.00000000
17.176689 16.813339 -26.063690 4.00000000
5.689622 -8.860871 -53.690559 4.00000000
-3.185309 17.391195 -57.833271 4.00000000
-0.507014 19.253418 6.376826 4.00000000
-8.210890 4.394681 -41.960754 4.00000000
12.492806 19.924101 -9.124048 4.00000000
6.734231 -8.893933 -51.722164 4.00000000
2.823929 20.586239 -57.157978 4.00000000
17.846331 16.114710 -8.496199 4.00000000
-1.073159 -6.734669 -6.819258 4.00000000
-8.296001 6.750251 -3.676187 4.00000000
-0.117237 -7.269380 -36.989735 4.00000000
18.988535 -2.474941 4.850248 4.00000000
-8.284775 6.926558 -13.781106 4.00000000
3.617677 -8.578860 -16.298141 4.00000000
20.767672 11.257283 -42.317711 4.00000000
10.452172 -8.413132 -2.325121 4.00000000
1.269404 -7.881976 4.338633 4.00000000
-3.826579 16.794430 -31.661697 4.00000000
13.361907 -7.329448 -32.133095 4.00000000
-7.198370 0.437989 -12.935846 4.00000000
-8.283893 6.940422 -9.578667 4.00000000
21.677843 5.796343 -0.568935 4.00000000
-1.611778 -6.392304 -20.869272 4.00000000
-7.515848 1.288331 -2.512831 4.00000000
8.042358 -8.838512 -12.573521 4.00000000
-3.654515 -4.758182 -5.766884 4.00000000
-7.056272 12.108878 6.770829 4.00000000
11.919658 20.151554 -17.428619 4.00000000
-1.029122 -6.762660 -11.259561 4.00000000
-1.034180 -6.759445 -41.804844 4.00000000
1.072857 20.001532 -33.363922 4.00000000
-8.055787 8.833706 1.542698 4.00000000
1.776474 -8.070215 -29.127428 4.00000000
5.346813 -8.839045 -48.148125 4.00000000
-3.741395 -4.676474 -35.202736 4.00000000
-7.168569 11.833876 -39.129662 4.00000000
-7.883796 9.642028 -26.430054 4.00000000
20.932058 10.769379 -27.517408 4.00000000
-8.276096 7.062869 -60.720646 4.00000000
-6.542599 -0.960150 -3.632872 4.00000000
-6.092731 13.944061 -44.700027 4.00000000
17.134544 16.852974 -49.095814 4.00000000
19.178089 14.394282 -26.096830 4.00000000
-6.758109 -0.544915 -40.424400 4.00000000
9.655921 -8.597740 -48.153439 4.00000000
20.515512 11.895583 -2.289213 4.00000000
0.245481 19.637880 -53.664124 4.00000000
2.382404 -8.267603 -49.789707 4.00000000
8.941785 20.925125 -12.997393 4.00000000
8.156350 -8.826952 -2.764417 4.00000000
21.333858 9.322009 1.376925 4.00000000
21.677927 5.903260 -17.272085 4.00000000
-1.580019 18.610348 -27.942814 4.00000000
21.122095 2.040312 -4.189432 4.00000000
17.023335 -4.760362 2.099578 4.00000000
3.542835 20.762419 -40.974449 4.00000000
21.678221 6.280440 -54.301449 4.00000000
20.575750 0.454842 -39.315884 4.00000000
14.306647 19.017370 -56.822693 4.00000000
11.778593 -8.009390 -26.176903 4.00000000
9.936595 20.741138 -58.651833 4.00000000
21.524403 3.940656 -55.778252 4.00000000
12.420364 19.952850 -46.957848 4.00000000
19.404518 -1.839781 -0.781987 4.00000000
21.236994 2.486386 -50.107445 4.00000000
-3.769233 -4.650293 -52.893471 4.00000000
21.518410 3.893513 -51.699173 4.00000000
15.139887 18.488523 -29.162283 4.00000000
19.607172 13.715828 0.352138 4.00000000
17.026062 16.955000 -17.254749 4.00000000
-4.981573 15.516477 -57.644714 4.00000000
21.667137 5.450200 -27.642673 4.00000000
11.208838 20.393229 -13.388168 4.00000000
-7.871846 2.509813 -12.406155 4.00000000
-6.809146 -0.436238 -60.880833 4.00000000
-3.625684 -4.785297 -55.051460 4.00000000
12.206814 20.037598 -4.588627 4.00000000
-7.908282 2.652178 -25.520805 4.00000000
21.006201 1.655790 -47.216465 4.00000000
14.693832 -6.575883 -51.838486 4.00000000
-8.069409 3.435942 -6.419419 4.00000000
15.775165 -5.829474 -45.511314 4.00000000
-5.617006 -2.474965 -22.537237 4.00000000
5.078473 -8.810280 -25.792400 4.00000000
9.791051 20.769011 1.171262 4.00000000
21.271454 9.575564 -37.952396 4.00000000
17.228605 -4.567896 -16.782919 4.00000000
20.939449 1.450888 0.046874 4.00000000
3.957232 20.841131 -51.208218 4.00000000
-2.126323 -6.031050 -34.700291 4.00000000
9.568899 20.811556 -21.149731 4.00000000
-6.583043 -0.886450 -24.092884 4.00000000
-2.835472 17.680182 -21.968006 4.00000000
19.365788 14.098011 -46.277973 4.00000000
-4.132959 -4.282521 -47.704948 4.00000000
-5.440945 14.915039 -55.514660 4.00000000
-7.122917 11.948925 -5.030880 4.00000000
-2.381953 -5.845013 -4.516380 4.00000000
20.088650 12.828330 -12.822281 4.00000000
18.000381 -3.744126 -50.255428 4.00000000
-7.081816 0.144374 -0.795061 4.00000000
-3.202195 -5.179037 -30.920607 4.00000000
-8.053968 3.354661 -55.538956 4.00000000
17.136551 16.851088 -43.281044 4.00000000
-7.476662 11.028437 -13.085886 4.00000000
4.094975 20.867294 -21.845448 4.00000000
3.345762 -8.523055 -13.268614 4.00000000
0.154768 19.595280 -25.887543 4.00000000
-8.306084 5.616703 -58.888939 4.00000000
-4.329396 16.270676 -23.652824 4.00000000
-8.307292 5.870316 -5.625058 4.00000000
4.599591 20.947096 -30.935225 4.00000000
-8.156331 3.960200 -28.873148 4.00000000
18.596518 15.211988 -21.191448 4.00000000
8.727227 20.952402 -56.208317 4.00000000
5.487991 21.045813 -44.957016 4.00000000
-6.990011 -0.051111 -57.927441 4.00000000
-0.505520 -7.056905 -60.086887 4.00000000
19.981541 -0.837280 -19.175468 4.00000000
3.646506 20.782110 -19.661270 4.00000000
21.645720 7.084754 -9.639352 4.00000000
5.367963 21.038351 -57.369167 4.00000000
2.606279 -8.332583 -38.663296 4.00000000
-0.453339 19.282869 -14.765110 4.00000000
7.043086 -8.894153 -57.112103 4.00000000
11.302221 -8.165394 -40.703053 4.00000000
4.581310 -14.280889 -61.120979 5.00000000
-7.625043 -7.596781 -61.120979 5.00000000
1.163872 21.924423 -61.120979 5.00000000
11.302638 -18.590343 -61.120979 5.00000000
8.556990 -21.160130 -61.120979 5.00000000
-18.569553 13.966518 -61.120979 5.00000000
-19.488819 3.347342 -61.120979 5.00000000
13.775650 -13.517693 -61.120979 5.00000000
7.740801 -13.957815 -61.120979 5.00000000
-12.738103 -14.287398 -61.120979 5.00000000
28.106203 -2.586991 -61.120979 5.00000000
32.612984 -3.302898 -61.120979 5.00000000
24.497856 13.132182 -61.120979 5.00000000
27.907396 -5.616752 -61.120979 5.00000000
-19.163397 -0.512755 -61.120979 5.00000000
29.120802 -10.811847 -61.120979 5.00000000
-6.534100 22.559910 -61.120979 5.00000000
9.864717 -15.096362 -61.120979 5.00000000
19.914963 25.515139 -61.120979 5.00000000
13.010170 -16.491358 -61.120979 5.00000000
-3.338530 18.151501 -61.120979 5.00000000
-4.050068 -19.503412 -61.120979 5.00000000
30.391834 -1.964699 -61.120979 5.00000000
-0.243674 22.070852 -61.120979 5.00000000
-12.181187 -5.319982 -61.120979 5.00000000
34.127689 9.765943 -61.120979 5.00000000
18.123276 31.547979 -61.120979 5.00000000
-15.826582 5.624507 -61.120979 5.00000000
-12.572411 9.293584 -61.120979 5.00000000
27.200363 14.767076 -61.120979 5.00000000
14.933317 -16.382107 -61.120979 5.00000000
-0.273918 26.393932 -61.120979 5.00000000
34.439533 11.337783 -61.120979 5.00000000
15.807410 -8.462761 -61.120979 5.00000000
3.384603 -14.232895 -61.120979 5.00000000
-9.302048 3.697942 -61.120979 5.00000000
22.607092 -17.205799 -61.120979 5.00000000
1.861490 25.263748 -61.120979 5.00000000
-8.675298 19.410376 -61.120979 5.00000000
-8.642863 -16.043610 -61.120979 5.00000000
10.931326 23.015963 -61.120979 5.00000000
2.601650 -13.282538 -61.120979 5.00000000
-13.472660 21.473492 -61.120979 5.00000000
16.791021 -5.176850 -61.120979 5.00000000
28.106598 24.179462 -61.120979 5.00000000
-0.622396 32.882484 -61.120979 5.00000000
34.494331 8.407712 -61.120979 5.00000000
30.739744 8.926713 -61.120979 5.00000000
-14.208865 2.350815 -61.120979 5.00000000
-10.744348 9.677498 -61.120979 5.00000000
7.611547 34.213375 -61.120979 5.00000000
9.026759 23.281464 -61.120979 5.00000000
10.040275 -16.685915 -61.120979 5.00000000
-2.505625 -7.665421 -61.120979 5.00000000
-5.315174 -11.154295 -61.120979 5.00000000
25.628283 -11.939652 -61.120979 5.00000000
-11.297121 20.681221 -61.120979 5.00000000
26.191261 9.257236 -61.120979 5.00000000
21.936834 2.499682 -61.120979 5.00000000
-7.908992 -8.898059 -61.120979 5.00000000
21.858700 -6.991687 -61.120979 5.00000000
3.587170 27.861174 -61.120979 5.00000000
29.458364 3.716494 -61.120979 5.00000000
19.705528 24.467010 -61.120979 5.00000000
9.332717 27.280443 -61.120979 5.00000000
26.176601 18.726398 -61.120979 5.00000000
13.154733 -14.544099 -61.120979 5.00000000
21.736322 29.939939 -61.120979 5.00000000
-19.913946 7.050780 -61.120979 5.00000000
12.038642 -15.026959 -61.120979 5.00000000
-1.719082 -16.683022 -61.120979 5.00000000
10.473651 -9.697319 -61.120979 5.00000000
25.146494 -14.371846 -61.120979 5.00000000
-11.084553 8.346126 -61.120979 5.00000000
18.352781 -17.421499 -61.120979 5.00000000
-16.576862 3.686862 -61.120979 5.00000000
-16.370529 19.327353 -61.120979 5.00000000
26.472059 -10.922472 -61.120979 5.00000000
5.903157 -19.366108 -61.120979 5.00000000
-3.490929 32.315224 -61.120979 5.00000000
15.514272 18.302279 -61.120979 5.00000000
7.762845 30.319122 -61.120979 5.00000000
20.954191 0.999786 -61.120979 5.00000000
6.801781 33.484756 -61.120979 5.00000000
-14.559745 12.966086 -61.120979 5.00000000
20.531916 13.440430 -61.120979 5.00000000
-16.394852 0.835954 -61.120979 5.00000000
-11.401437 15.406353 -61.120979 5.00000000
-4.612234 17.680065 -61.120979 5.00000000
0.318676 23.432215 -61.120979 5.00000000
26.740717 -7.982837 -61.120979 5.00000000
6.985042 -12.575542 -61.120979 5.00000000
-0.463041 -13.039895 -61.120979 5.00000000
-7.498969 30.556040 -61.120979 5.00000000
10.196011 30.963858 -61.120979 5.00000000
-16.022364 9.910969 -61.120979 5.00000000
-7.473019 -13.104430 -61.120979 5.00000000
23.724258 17.310631 -61.120979 5.00000000
-0.756494 -8.589919 -61.120979 5.00000000
25.798372 24.163137 -61.120979 5.00000000
26.557238 5.441217 -61.120979 5.00000000
32.076050 8.487058 -61.120979 5.00000000
-6.252877 29.998674 -61.120979 5.00000000
34.133018 -0.239303 -61.120979 5.00000000
22.282145 -5.757319 -61.120979 5.00000000
-10.638617 -6.743946 -61.120979 5.00000000
-19.922470 12.724586 -61.120979 5.00000000
12.707624 26.827250 -61.120979 5.00000000
20.574638 28.915562 -61.120979 5.00000000
10.060240 22.344490 -61.120979 5.00000000
4.199622 33.015503 -61.120979 5.00000000
13.147817 -7.604115 -61.120979 5.00000000
25.947828 14.750452 -61.120979 5.00000000
-6.769482 15.287234 -61.120979 5.00000000
21.548210 26.807152 -61.120979 5.00000000
2.694331 -8.442034 -61.120979 5.00000000
24.519051 26.460999 -61.120979 5.00000000
1.191842 -15.473444 -61.120979 5.00000000
11.864502 28.069256 -61.120979 5.00000000
29.898607 19.923248 -61.120979 5.00000000
11.136726 -12.409210 -61.120979 5.00000000
13.365557 25.937574 -61.120979 5.00000000
24.090942 15.998904 -61.120979 5.00000000
-0.292415 27.617693 -61.120979 5.00000000
23.411814 27.403603 -61.120979 5.00000000
5.307929 -15.370154 -61.120979 5.00000000
27.037809 -2.985404 -61.120979 5.00000000
16.069389 22.265799 -61.120979 5.00000000
-9.819012 24.811131 -61.120979 5.00000000
-5.042418 20.399298 -61.120979 5.00000000
-13.913375 -5.456747 -61.120979 5.00000000
-4.764380 -13.173169 -61.120979 5.00000000
-9.221794 23.744406 -61.120979 5.00000000
-2.922794 30.214975 -61.120979 5.00000000
-16.622807 -3.709310 -61.120979 5.00000000
-13.694807 -10.486022 -61.120979 5.00000000
-8.658893 22.633207 -61.120979 5.00000000
10.618276 25.397743 -61.120979 5.00000000
-16.548218 -7.477428 -61.120979 5.00000000
32.701469 -0.921302 -61.120979 5.00000000
-6.786294 -16.136101 -61.120979 5.00000000
-12.153733 23.973534 -61.120979 5.00000000
12.166625 -21.029274 -61.120979 5.00000000
2.525484 20.807360 -61.120979 5.00000000
0.459655 -18.742718 -61.120979 5.00000000
-17.870420 0.426342 -61.120979 5.00000000
22.132084 6.141622 -61.120979 5.00000000
20.720278 -2.169611 -61.120979 5.00000000
18.351868 -5.883667 -61.120979 5.00000000
21.654266 0.071847 -61.120979 5.00000000
12.128498 -8.690125 -61.120979 5.00000000
-9.304244 -10.869253 -61.120979 5.00000000
-5.483284 -8.908970 -61.120979 5.00000000
5.698334 29.511978 -61.120979 5.00000000
-13.368353 3.604867 -61.120979 5.00000000
18.623421 22.383345 -61.120979 5.00000000
-5.742004 19.181908 -61.120979 5.00000000
-6.201774 -7.598004 -61.120979 5.00000000
-8.880692 -8.198541 -61.120979 5.00000000
-5.405971 -15.320975 -61.120979 5.00000000
2.984261 -19.732771 -61.120979 5.00000000
2.943423 -16.176504 -61.120979 5.00000000
3.394375 24.359522 -61.120979 5.00000000
24.778625 18.084536 -61.120979 5.00000000
-17.342196 2.803514 -61.120979 5.00000000
-18.907925 8.813350 -61.120979 5.00000000
26.762890 -1.710378 -61.120979 5.00000000
-4.958568 -18.890280 -61.120979 5.00000000
26.048601 26.611403 -61.120979 5.00000000
23.084232 19.056482 -61.120979 5.00000000
25.513157 -1.183950 -61.120979 5.00000000
-9.672937 13.936921 -61.120979 5.00000000
8.319446 28.219057 -61.120979 5.00000000
15.979272 25.643021 -61.120979 5.00000000
-13.689484 -4.193403 -61.120979 5.00000000
19.712490 -2.784992 -61.120979 5.00000000
20.958347 -12.585943 -61.120979 5.00000000
-10.457245 26.301321 -61.120979 5.00000000
-10.869336 7.078475 -61.120979 5.00000000
27.964161 -4.481945 -61.120979 5.00000000
-16.879498 16.351278 -61.120979 5.00000000
13.814887 26.869284 -61.120979 5.00000000
8.754413 31.229031 -61.120979 5.00000000
-17.042627 11.549879 -61.120979 5.00000000
-15.959850 16.900469 -61.120979 5.00000000
18.818722 25.781040 -61.120979 5.00000000
32.267780 3.017515 -61.120979 5.00000000
32.692814 16.389629 -61.120979 5.00000000
0.422281 -12.185562 -61.120979 5.00000000
27.555939 6.149559 -61.120979 5.00000000
-4.851942 -7.373248 -61.120979 5.00000000
2.508041 -11.304638 -61.120979 5.00000000
27.266563 23.109182 -61.120979 5.00000000
33.471226 12.130581 -61.120979 5.00000000
-12.934213 -12.194081 -61.120979 5.00000000
-18.981083 6.396673 -61.120979 5.00000000
7.307072 27.330877 -61.120979 5.00000000
0.972630 26.057547 -61.120979 5.00000000
21.760452 -4.302854 -61.120979 5.00000000
12.293200 -12.027219 -61.120979 5.00000000
-16.615446 13.858160 -61.120979 5.00000000
22.559868 -14.150863 -61.120979 5.00000000
-15.755079 4.453908 -61.120979 5.00000000
-5.142566 21.950333 -61.120979 5.00000000
8.222580 22.422522 -61.120979 5.00000000
-2.648870 -15.246000 -61.120979 5.00000000
26.606329 15.684085 -61.120979 5.00000000
4.116103 -18.449793 -61.120979 5.00000000
-15.600532 -2.728084 -61.120979 5.00000000
-10.985016 -14.295390 -61.120979 5.00000000
17.288202 -12.974400 -61.120979 5.00000000
10.418903 27.784704 -61.120979 5.00000000
25.835094 -2.707509 -61.120979 5.00000000
26.725586 -9.163757 -61.120979 5.00000000
10.739994 33.960266 -61.120979 5.00000000
-4.604444 -16.316322 -61.120979 5.00000000
2.148693 27.516109 -61.120979 5.00000000
-7.457013 -4.335879 -61.120979 5.00000000
-13.543979 18.490053 -61.120979 5.00000000
19.717093 14.428103 -61.120979 5.00000000
-21.203926 6.769883 -61.120979 5.00000000
-0.344756 25.258591 -61.120979 5.00000000
-1.152331 -6.808011 -61.120979 5.00000000
-13.434641 10.009368 -61.120979 5.00000000
5.763052 -12.961375 -61.120979 5.00000000
24.781853 -2.077432 -61.120979 5.00000000
-18.401379 11.022821 -61.120979 5.00000000
-9.322872 9.524616 -61.120979 5.00000000
15.750070 -12.656061 -61.120979 5.00000000
22.789793 26.186621 -61.120979 5.00000000
32.412144 1.917375 -61.120979 5.00000000
1.352292 -11.527284 -61.120979 5.00000000
-18.371172 1.779303 -61.120979 5.00000000
17.610312 30.462814 -61.120979 5.00000000
3.572282 32.169632 -61.120979 5.00000000
6.838993 -20.183876 -61.120979 5.00000000
-6.978933 16.860256 -61.120979 5.00000000
5.673247 23.516455 -61.120979 5.00000000
30.760515 14.272197 -61.120979 5.00000000
18.265753 -13.543394 -61.120979 5.00000000
-4.206498 19.363474 -61.120979 5.00000000
-19.659700 -1.917107 -61.120979 5.00000000
31.992317 13.941641 -61.120979 5.00000000
7.961839 23.750982 -61.120979 5.00000000
26.249809 11.636736 -61.120979 5.00000000
3.396700 -17.516890 -61.120979 5.00000000
-15.914805 -1.432795 -61.120979 5.00000000
3.011289 -10.060525 -61.120979 5.00000000
12.800297 33.711662 -61.120979 5.00000000
-8.721098 16.642227 -61.120979 5.00000000
29.838762 16.281010 -61.120979 5.00000000
-9.600906 5.900645 -61.120979 5.00000000
23.868246 -2.871178 -61.120979 5.00000000
29.476667 2.534846 -61.120979 5.00000000
0.436135 32.615307 -61.120979 5.00000000
8.979651 25.957491 -61.120979 5.00000000
-3.744707 29.432629 -61.120979 5.00000000
22.684107 17.707026 -61.120979 5.00000000
12.745178 22.689119 -61.120979 5.00000000
5.617741 22.383583 -61.120979 5.00000000
11.206122 -17.042822 -61.120979 5.00000000
-13.333605 -6.588522 -61.120979 5.00000000
31.519302 19.182402 -61.120979 5.00000000
5.458079 32.632690 -61.120979 5.00000000
19.482695 -8.028997 -61.120979 5.00000000
26.081301 25.214821 -61.120979 5.00000000
19.039692 21.115627 -61.120979 5.00000000
17.485662 17.336630 -61.120979 5.00000000
5.242881 34.085045 -61.120979 5.00000000
8.644038 -18.357262 -61.120979 5.00000000
-2.986808 -10.309192 -61.120979 5.00000000
-12.534508 -13.185093 -61.120979 5.00000000
-15.800363 11.066568 -61.120979 5.00000000
-17.411734 -1.757699 -61.120979 5.00000000
-7.049209 28.929745 -61.120979 5.00000000
-6.242727 -12.201478 -61.120979 5.00000000
15.084592 26.721136 -61.120979 5.00000000
-19.294462 16.823254 -61.120979 5.00000000
-3.656523 25.165348 -61.120979 5.00000000
27.828999 9.115080 -61.120979 5.00000000
19.190134 -16.717213 -61.120979 5.00000000
17.267048 -6.290798 -61.120979 5.00000000
28.710993 6.059149 -61.120979 5.00000000
-16.796444 17.888371 -61.120979 5.00000000
29.924959 -8.317025 -61.120979 5.00000000
4.464816 23.705732 -61.120979 5.00000000
8.143516 21.155569 -61.120979 5.00000000
-21.456350 8.225685 -61.120979 5.00000000
27.673714 3.690130 -61.120979 5.00000000
29.075375 -4.302136 -61.120979 5.00000000
26.959997 -13.479842 -61.120979 5.00000000
-10.391090 19.897457 -61.120979 5.00000000
-6.653028 -3.080025 -61.120979 5.00000000
-16.126545 21.355427 -61.120979 5.00000000
6.260143 -21.769880 -61.120979 5.00000000
-12.242836 20.174501 -61.120979 5.00000000
-7.343129 -11.658052 -61.120979 5.00000000
-7.666284 11.447578 -61.120979 5.00000000
-6.061994 -19.119551 -61.120979 5.00000000
14.947061 -9.407036 -61.120979 5.00000000
-3.465144 -12.597252 -61.120979 5.00000000
-17.719059 9.919823 -61.120979 5.00000000
21.999842 11.384030 -61.120979 5.00000000
18.623381 28.874638 -61.120979 5.00000000
-10.623232 -15.546777 -61.120979 5.00000000
20.650543 30.141403 -61.120979 5.00000000
24.185827 -0.756852 -61.120979 5.00000000
-6.272605 24.907951 -61.120979 5.00000000
-6.973044 -5.932898 -61.120979 5.00000000
21.751982 -2.062291 -61.120979 5.00000000
27.434484 11.592043 -61.120979 5.00000000
25.722490 8.025399 -61.120979 5.00000000
33.344635 15.538220 -61.120979 5.00000000
30.656719 0.939087 -61.120979 5.00000000
-7.839068 -17.931976 -61.120979 5.00000000
31.155478 -4.033558 -61.120979 5.00000000
17.689325 -19.857327 -61.120979 5.00000000
7.915191 -16.512228 -61.120979 5.00000000
21.709991 4.988181 -61.120979 5.00000000
-18.005304 5.795884 -61.120979 5.00000000
-16.058014 -10.101695 -61.120979 5.00000000
-4.931362 23.168131 -61.120979 5.00000000
3.857790 26.532169 -61.120979 5.00000000
0.312331 -9.125057 -61.120979 5.00000000
10.159278 28.857735 -61.120979 5.00000000
21.358297 -18.087872 -61.120979 5.00000000
-9.632854 -1.732881 -61.120979 5.00000000
23.096315 -10.949299 -61.120979 5.00000000
-10.828734 1.757337 -61.120979 5.00000000
-18.891130 -3.226976 -61.120979 5.00000000
19.402884 -13.087343 -61.120979 5.00000000
23.718451 0.823883 -61.120979 5.00000000
-14.101450 5.888974 -61.120979 5.00000000
10.930557 -14.791379 -61.120979 5.00000000
27.736925 -8.409204 -61.120979 5.00000000
13.451059 -17.842163 -61.120979 5.00000000
-15.481165 2.850830 -61.120979 5.00000000
3.658131 -11.276147 -61.120979 5.00000000
33.534756 10.776629 -61.120979 5.00000000
25.549652 6.387281 -61.120979 5.00000000
-15.234740 6.602976 -61.120979 5.00000000
-13.784134 14.657672 -61.120979 5.00000000
-9.994756 -7.753913 -61.120979 5.00000000
-0.446043 -11.169142 -61.120979 5.00000000
24.047787 -7.562999 -61.120979 5.00000000
1.091401 20.168432 -61.120979 5.00000000
-1.309903 -15.582552 -61.120979 5.00000000
-4.496302 -17.460272 -61.120979 5.00000000
28.392136 -9.858678 -61.120979 5.00000000
23.239883 5.323259 -61.120979 5.00000000
20.961573 19.854204 -61.120979 5.00000000
-15.255741 8.224792 -61.120979 5.00000000
14.938936 31.681496 -61.120979 5.00000000
15.147301 19.451738 -61.120979 5.00000000
29.478220 22.593103 -61.120979 5.00000000
22.158804 12.625369 -61.120979 5.00000000
18.927385 -6.892953 -61.120979 5.00000000
-17.567041 12.520595 -61.120979 5.00000000
4.546904 20.929354 -61.120979 5.00000000
5.753558 -10.186064 -61.120979 5.00000000
23.071701 -15.767254 -61.120979 5.00000000
0.862784 27.533079 -61.120979 5.00000000
-7.879922 28.123413 -61.120979 5.00000000
-0.055612 -14.891388 -61.120979 5.00000000
31.616259 -2.469968 -61.120979 5.00000000
20.847145 11.119712 -61.120979 5.00000000
31.163620 7.075505 -61.120979 5.00000000
-12.202756 22.793997 -61.120979 5.00000000
28.532297 19.116180 -61.120979 5.00000000
27.350859 25.126240 -61.120979 5.00000000
-9.108492 -9.343192 -61.120979 5.00000000
22.428562 -12.863184 -61.120979 5.00000000
-11.492756 14.212730 -61.120979 5.00000000
11.559370 24.041483 -61.120979 5.00000000
-18.075291 -0.619558 -61.120979 5.00000000
-14.030777 -2.359561 -61.120979 5.00000000
27.343840 -10.103319 -61.120979 5.00000000
-2.582799 -17.797001 -61.120979 5.00000000
33.088543 6.318630 -61.120979 5.00000000
0.259524 20.962753 -61.120979 5.00000000
-8.362974 27.083200 -61.120979 5.00000000
-4.126040 21.196095 -61.120979 5.00000000
26.812777 7.564874 -61.120979 5.00000000
-12.378142 12.892094 -61.120979 5.00000000
4.891079 25.166075 -61.120979 5.00000000
1.975513 -14.385722 -61.120979 5.00000000
-15.535111 18.225519 -61.120979 5.00000000
21.264801 -3.230152 -61.120979 5.00000000
0.354904 29.199581 -61.120979 5.00000000
27.219372 20.722977 -61.120979 5.00000000
-15.004594 0.167446 -61.120979 5.00000000
-10.338147 -9.883610 -61.120979 5.00000000
-8.837004 21.262005 -61.120979 5.00000000
15.125215 21.450399 -61.120979 5.00000000
-17.485313 -5.717868 -61.120979 5.00000000
-12.537436 14.002789 -61.120979 5.00000000
22.467260 22.414658 -61.120979 5.00000000
-18.725189 -6.218657 -61.120979 5.00000000
15.313068 -11.319518 -61.120979 5.00000000
28.054871 1.646227 -61.120979 5.00000000
17.256207 29.359758 -61.120979 5.00000000
28.936792 9.605360 -61.120979 5.00000000
21.898125 15.104948 -61.120979 5.00000000
29.658367 14.604005 -61.120979 5.00000000
-17.469189 8.156897 -61.120979 5.00000000
12.760338 29.067284 -61.120979 5.00000000
-8.995148 27.975391 -61.120979 5.00000000
-9.569567 1.566562 -61.120979 5.00000000
20.367804 27.168839 -61.120979 5.00000000
28.965799 -0.222869 -61.120979 5.00000000
-10.249989 -16.542744 -61.120979 5.00000000
34.619347 2.192558 -61.120979 5.00000000
14.578536 -7.867136 -61.120979 5.00000000
-10.055507 21.102278 -61.120979 5.00000000
13.694522 29.799959 -61.120979 5.00000000
16.526558 -14.917526 -61.120979 5.00000000
30.652319 3.359622 -61.120979 5.00000000
21.875532 -8.295770 -61.120979 5.00000000
6.539385 -18.201126 -61.120979 5.00000000
-4.372826 16.296818 -61.120979 5.00000000
0.800852 33.675247 -61.120979 5.00000000
21.527630 -13.620559 -61.120979 5.00000000
16.695751 28.191040 -61.120979 5.00000000
22.399628 -3.194172 -61.120979 5.00000000
2.316910 -20.701460 -61.120979 5.00000000
26.673304 10.523977 -61.120979 5.00000000
5.209038 26.471928 -61.120979 5.00000000
21.414986 -16.319342 -61.120979 5.00000000
11.679564 22.101198 -61.120979 5.00000000
5.011453 28.586096 -61.120979 5.00000000
0.259964 31.390768 -61.120979 5.00000000
-12.319344 -9.735069 -61.120979 5.00000000
-11.782379 -6.334292 -61.120979 5.00000000
-4.970149 29.189346 -61.120979 5.00000000
-12.069517 -0.130514 -61.120979 5.00000000
4.581555 -10.478861 -61.120979 5.00000000
2.894757 31.093866 -61.120979 5.00000000
-15.705618 -8.964807 -61.120979 5.00000000
13.778596 -8.979558 -61.120979 5.00000000
20.647150 -4.906598 -61.120979 5.00000000
32.522724 9.641444 -61.120979 5.00000000
29.915749 -6.783892 -61.120979 5.00000000
21.649866 24.201082 -61.120979 5.00000000
15.923284 -19.495352 -61.120979 5.00000000
-8.698020 -4.321731 -61.120979 5.00000000
-9.059224 10.827631 -61.120979 5.00000000
16.070126 -18.236830 -61.120979 5.00000000
17.713276 27.506853 -61.120979 5.00000000
16.123692 27.252871 -61.120979 5.00000000
-2.795738 -11.681851 -61.120979 5.00000000
-15.471183 -6.983743 -61.120979 5.00000000
-11.171209 2.824138 -61.120979 5.00000000
14.814685 -18.613455 -61.120979 5.00000000
9.650541 33.349552 -61.120979 5.00000000
7.060450 -10.281704 -61.120979 5.00000000
-16.399244 6.569081 -61.120979 5.00000000
17.931383 -4.568525 -61.120979 5.00000000
-1.623811 29.816654 -61.120979 5.00000000
-10.228745 10.668705 -61.120979 5.00000000
-18.806383 4.480980 -61.120979 5.00000000
23.035057 4.092866 -61.120979 5.00000000
-11.291183 -13.135424 -61.120979 5.00000000
-14.586508 11.502715 -61.120979 5.00000000
-9.979604 15.872447 -61.120979 5.00000000
-2.902261 -19.042500 -61.120979 5.00000000
23.086418 13.682487 -61.120979 5.00000000
-10.054134 2.920472 -61.120979 5.00000000
-0.247581 -16.086802 -61.120979 5.00000000
25.645658 -0.020104 -61.120979 5.00000000
13.575618 31.220186 -61.120979 5.00000000
4.727684 -16.527309 -61.120979 5.00000000
21.669817 3.811910 -61.120979 5.00000000
-2.888752 23.807859 -61.120979 5.00000000
30.096169 -3.521538 -61.120979 5.00000000
13.510388 23.975105 -61.120979 5.00000000
-11.308361 27.018774 -61.120979 5.00000000
26.597509 16.733263 -61.120979 5.00000000
32.504047 5.216375 -61.120979 5.00000000
17.861332 23.183275 -61.120979 5.00000000
33.974655 13.202196 -61.120979 5.00000000
16.638191 -20.334520 -61.120979 5.00000000
-0.757646 19.852940 -61.120979 5.00000000
-10.202455 4.432836 -61.120979 5.00000000
-17.923332 15.420107 -61.120979 5.00000000
24.611427 -11.283199 -61.120979 5.00000000
-13.974394 16.873249 -61.120979 5.00000000
23.594479 -14.691119 -61.120979 5.00000000
1.575057 23.266870 -61.120979 5.00000000
8.090166 -19.885033 -61.120979 5.00000000
24.411446 23.098415 -61.120979 5.00000000
-11.199598 21.969704 -61.120979 5.00000000
2.424871 21.853912 -61.120979 5.00000000
28.137344 4.782185 -61.120979 5.00000000
24.804373 4.120250 -61.120979 5.00000000
-13.064118 -0.604201 -61.120979 5.00000000
24.930927 7.270446 -61.120979 5.00000000
-5.527345 28.018660 -61.120979 5.00000000
18.433437 -3.368028 -61.120979 5.00000000
21.999689 1.263754 -61.120979 5.00000000
-1.885075 -20.671595 -61.120979 5.00000000
-11.528967 -11.812907 -61.120979 5.00000000
-0.383253 -20.376526 -61.120979 5.00000000
-8.041291 9.646354 -61.120979 5.00000000
8.743987 34.072037 -61.120979 5.00000000
23.251816 23.861193 -61.120979 5.00000000
17.232683 20.517366 -61.120979 5.00000000
24.384047 -15.350748 -61.120979 5.00000000
7.446468 25.889805 -61.120979 5.00000000
-8.766675 -2.362650 -61.120979 5.00000000
24.316191 5.917976 -61.120979 5.00000000
-13.831777 15.720851 -61.120979 5.00000000
-2.742409 28.228601 -61.120979 5.00000000
-1.737418 32.107830 -61.120979 5.00000000
-12.150662 1.379453 -61.120979 5.00000000
-13.618085 8.452832 -61.120979 5.00000000
-1.518503 -18.531212 -61.120979 5.00000000
8.319953 -12.336240 -61.120979 5.00000000
30.001326 4.720448 -61.120979 5.00000000
-5.939901 -4.585110 -61.120979 5.00000000
25.596018 1.334358 -61.120979 5.00000000
28.468954 20.635033 -61.120979 5.00000000
12.506007 32.509346 -61.120979 5.00000000
7.513944 24.834177 -61.120979 5.00000000
7.609710 -17.677147 -61.120979 5.00000000
-9.192976 -6.854930 -61.120979 5.00000000
6.497514 -14.589772 -61.120979 5.00000000
28.063002 10.366273 -61.120979 5.00000000
-12.951825 6.866153 -61.120979 5.00000000
17.801107 26.335484 -61.120979 5.00000000
-18.504837 7.458065 -61.120979 5.00000000
17.882723 24.532038 -61.120979 5.00000000
-10.067002 -0.412580 -61.120979 5.00000000
-8.399454 -1.007230 -61.120979 5.00000000
-14.737778 10.227271 -61.120979 5.00000000
-13.937009 -13.223148 -61.120979 5.00000000
4.543258 30.020212 -61.120979 5.00000000
17.014830 18.336327 -61.120979 5.00000000
-20.766722 10.472583 -61.120979 5.00000000
19.206573 -4.669573 -61.120979 5.00000000
8.964195 -14.335221 -61.120979 5.00000000
-9.792115 -3.167225 -61.120979 5.00000000
-16.066154 15.641265 -61.120979 5.00000000
29.624971 -9.882505 -61.120979 5.00000000
2.212762 33.611607 -61.120979 5.00000000
34.387821 7.383262 -61.120979 5.00000000
-3.211087 -6.743844 -61.120979 5.00000000
-12.491746 26.843601 -61.120979 5.00000000
11.567673 26.652842 -61.120979 5.00000000
24.340754 -10.022033 -61.120979 5.00000000
-15.451885 23.599419 -61.120979 5.00000000
6.191132 25.303427 -61.120979 5.00000000
-11.455631 17.484827 -61.120979 5.00000000
30.457432 -5.829120 -61.120979 5.00000000
23.111290 -0.369484 -61.120979 5.00000000
20.288271 -16.385267 -61.120979 5.00000000
29.389799 -5.456166 -61.120979 5.00000000
18.288151 18.275835 -61.120979 5.00000000
-4.053443 30.615776 -61.120979 5.00000000
5.447844 -18.243183 -61.120979 5.00000000
6.731135 22.371950 -61.120979 5.00000000
9.042837 29.346575 -61.120979 5.00000000
-5.542366 14.815344 -61.120979 5.00000000
24.418030 24.292650 -61.120979 5.00000000
-14.652086 3.536754 -61.120979 5.00000000
19.276243 18.904716 -61.120979 5.00000000
-13.369861 23.234808 -61.120979 5.00000000
12.029231 30.237223 -61.120979 5.00000000
-12.609564 -10.852835 -61.120979 5.00000000
-6.192296 20.471725 -61.120979 5.00000000
14.867933 -17.516329 -61.120979 5.00000000
14.603781 25.614204 -61.120979 5.00000000
17.940573 16.224483 -61.120979 5.00000000
19.770723 22.633261 -61.120979 5.00000000
-9.368059 26.073404 -61.120979 5.00000000
20.724745 16.013788 -61.120979 5.00000000
-1.614258 -14.475161 -61.120979 5.00000000
16.171915 31.373713 -61.120979 5.00000000
34.363495 1.110569 -61.120979 5.00000000
31.881617 12.848211 -61.120979 5.00000000
25.310383 20.160128 -61.120979 5.00000000
16.805582 -10.142744 -61.120979 5.00000000
-13.511253 1.398367 -61.120979 5.00000000
-10.128744 17.208174 -61.120979 5.00000000
-3.560681 -15.790902 -61.120979 5.00000000
-3.280044 26.163748 -61.120979 5.00000000
25.132395 9.511590 -61.120979 5.00000000
-12.502772 -7.333191 -61.120979 5.00000000
3.011684 25.541903 -61.120979 5.00000000
34.730709 6.102657 -61.120979 5.00000000
13.365206 -11.305326 -61.120979 5.00000000
-1.440915 26.059702 -61.120979 5.00000000
8.065962 -11.178856 -61.120979 5.00000000
13.259692 -19.139774 -61.120979 5.00000000
21.192625 -15.030056 -61.120979 5.00000000
31.376526 -5.266536 -61.120979 5.00000000
-11.704976 -15.084350 -61.120979 5.00000000
-8.298272 0.944723 -61.120979 5.00000000
30.820026 20.412292 -61.120979 5.00000000
-14.467317 -12.317264 -61.120979 5.00000000
-0.688605 -19.256807 -61.120979 5.00000000
-1.358245 31.100731 -61.120979 5.00000000
-13.224576 25.568319 -61.120979 5.00000000
-8.402427 6.489386 -61.120979 5.00000000
-8.220464 2.276971 -61.120979 5.00000000
24.719875 -12.981545 -61.120979 5.00000000
-4.565534 -9.993335 -61.120979 5.00000000
25.797976 -5.686446 -61.120979 5.00000000
-16.438948 2.201060 -61.120979 5.00000000
-14.757493 -8.168738 -61.120979 5.00000000
19.370634 27.985249 -61.120979 5.00000000
-15.005795 13.930664 -61.120979 5.00000000
18.732706 20.103607 -61.120979 5.00000000
-5.201078 25.362698 -61.120979 5.00000000
19.141733 30.825056 -61.120979 5.00000000
17.941040 -7.312365 -61.120979 5.00000000
-16.023245 22.629808 -61.120979 5.00000000
-6.909259 -14.647741 -61.120979 5.00000000
-11.007521 25.107529 -61.120979 5.00000000
-8.104971 -5.324783 -61.120979 5.00000000
26.825851 -0.459631 -61.120979 5.00000000
-12.424298 11.819844 -61.120979 5.00000000
13.842323 32.986713 -61.120979 5.00000000
-10.067573 -4.769979 -61.120979 5.00000000
-6.080013 26.130354 -61.120979 5.00000000
11.392141 20.896223 -61.120979 5.00000000
30.217730 -0.750167 -61.120979 5.00000000
-3.154208 19.720949 -61.120979 5.00000000
-8.154918 12.479629 -61.120979 5.00000000
3.143748 -21.948259 -61.120979 5.00000000
16.110899 -16.349829 -61.120979 5.00000000
-2.124164 25.018328 -61.120979 5.00000000
-17.740805 -7.829627 -61.120979 5.00000000
-16.606258 -0.336199 -61.120979 5.00000000
-16.316463 12.555523 -61.120979 5.00000000
-8.318816 13.583814 -61.120979 5.00000000
-2.287160 21.532434 -61.120979 5.00000000
30.559801 12.880771 -61.120979 5.00000000
23.666330 9.251353 -61.120979 5.00000000
-14.707338 4.991906 -61.120979 5.00000000
3.907974 22.662811 -61.120979 5.00000000
25.100912 12.271851 -61.120979 5.00000000
-6.947621 19.423426 -61.120979 5.00000000
31.649916 15.085750 -61.120979 5.00000000
28.278978 21.935137 -61.120979 5.00000000
10.363301 -21.635336 -61.120979 5.00000000
11.567111 -9.767773 -61.120979 5.00000000
-10.935900 -3.358740 -61.120979 5.00000000
25.036789 14.136384 -61.120979 5.00000000
31.682472 -6.623939 -61.120979 5.00000000
27.467159 -7.055082 -61.120979 5.00000000
21.887831 21.078581 -61.120979 5.00000000
5.725631 -8.937151 -61.120979 5.00000000
9.496423 -20.312086 -61.120979 5.00000000
-1.778808 18.983362 -61.120979 5.00000000
20.134844 21.145983 -61.120979 5.00000000
9.200451 24.632599 -61.120979 5.00000000
1.507877 29.359987 -61.120979 5.00000000
32.032982 11.759250 -61.120979 5.00000000
16.079428 19.932219 -61.120979 5.00000000
-12.562946 -4.186385 -61.120979 5.00000000
-1.416939 23.739027 -61.120979 5.00000000
17.605202 -15.587314 -61.120979 5.00000000
24.396467 -8.696171 -61.120979 5.00000000
13.998988 -15.829369 -61.120979 5.00000000
-6.344683 -1.696718 -61.120979 5.00000000
-11.041395 -8.875088 -61.120979 5.00000000
4.081978 -19.688538 -61.120979 5.00000000
7.380625 -21.430494 -61.120979 5.00000000
19.079170 15.524305 -61.120979 5.00000000
23.603853 21.231979 -61.120979 5.00000000
32.042130 10.658436 -61.120979 5.00000000
-12.043149 3.767045 -61.120979 5.00000000
-14.738248 -9.907225 -61.120979 5.00000000
13.994958 21.752752 -61.120979 5.00000000
-7.985307 -3.099600 -61.120979 5.00000000
23.128946 -8.077249 -61.120979 5.00000000
17.210934 32.302025 -61.120979 5.00000000
23.034475 15.103568 -61.120979 5.00000000
33.341358 8.942935 -61.120979 5.00000000
-15.160092 -4.895643 -61.120979 5.00000000
1.039947 24.412855 -61.120979 5.00000000
31.709473 -0.438819 -61.120979 5.00000000
23.508469 -1.721269 -61.120979 5.00000000
-9.884191 11.703409 -61.120979 5.00000000
6.174060 -17.001949 -61.120979 5.00000000
1.393214 -13.077914 -61.120979 5.00000000
6.699588 -11.432237 -61.120979 5.00000000
2.078004 32.067547 -61.120979 5.00000000
-3.512735 -17.099174 -61.120979 5.00000000
29.479362 1.012411 -61.120979 5.00000000
15.319497 -6.943419 -61.120979 5.00000000
28.161482 -1.114543 -61.120979 5.00000000
21.627405 17.058153 -61.120979 5.00000000
-7.656149 23.359919 -61.120979 5.00000000
24.044317 2.335218 -61.120979 5.00000000
-3.602666 -14.511311 -61.120979 5.00000000
29.748737 6.590423 -61.120979 5.00000000
23.725773 25.468897 -61.120979 5.00000000
-1.472221 22.341745 -61.120979 5.00000000
10.329301 26.721968 -61.120979 5.00000000
30.325392 11.096376 -61.120979 5.00000000
31.754881 6.100032 -61.120979 5.00000000
7.264115 -19.210611 -61.120979 5.00000000
9.489790 -10.767591 -61.120979 5.00000000
-11.426466 -4.547547 -61.120979 5.00000000
27.689634 -11.717001 -61.120979 5.00000000
19.399210 -9.716111 -61.120979 5.00000000
17.190325 25.432154 -61.120979 5.00000000
20.292963 -3.666625 -61.120979 5.00000000
16.132929 21.109474 -61.120979 5.00000000
1.386254 -19.985571 -61.120979 5.00000000
-1.639545 -10.122275 -61.120979 5.00000000
-14.620872 -1.303031 -61.120979 5.00000000
-18.697281 18.027636 -61.120979 5.00000000
26.836111 -5.841120 -61.120979 5.00000000
7.111503 28.921864 -61.120979 5.00000000
1.370535 -21.491261 -61.120979 5.00000000
-9.356485 29.015148 -61.120979 5.00000000
25.425922 -10.356183 -61.120979 5.00000000
-9.723851 -11.963421 -61.120979 5.00000000
24.742727 27.879177 -61.120979 5.00000000
25.523144 4.893697 -61.120979 5.00000000
-5.290530 30.633286 -61.120979 5.00000000
-10.732036 5.478666 -61.120979 5.00000000
3.754380 -20.877228 -61.120979 5.00000000
-11.334410 10.922915 -61.120979 5.00000000
15.313931 -14.977193 -61.120979 5.00000000
-13.508791 11.086752 -61.120979 5.00000000
25.539558 16.374720 -61.120979 5.00000000
-12.304043 18.855419 -61.120979 5.00000000
-4.730012 31.740496 -61.120979 5.00000000
-7.374694 26.342939 -61.120979 5.00000000
15.204516 27.831417 -61.120979 5.00000000
