81.578049 4.814323 6.584550 2.00000000
58.353157 60.318016 4.488440 2.00000000
12.282010 -68.591492 4.644140 2.00000000
78.802704 26.378197 4.123297 2.00000000
-60.656898 38.884640 5.074750 2.00000000
-66.575073 21.732084 4.369743 2.00000000
-42.049412 62.982510 4.984041 2.00000000
-62.561577 34.644646 4.169912 2.00000000
65.198257 -40.667084 6.768667 2.00000000
-46.930183 58.408195 6.801002 2.00000000
69.881790 46.289276 3.899389 2.00000000
34.625019 -63.389645 6.561616 2.00000000
81.580750 8.371494 5.478710 2.00000000
-37.323895 -54.500168 6.143143 2.00000000
42.140659 72.072678 5.487575 2.00000000
32.444313 -64.251152 5.410712 2.00000000
78.374306 27.820103 3.984710 2.00000000
-64.639755 28.943579 5.610809 2.00000000
12.394871 80.780350 4.012878 2.00000000
57.930431 -48.518108 5.331234 2.00000000
-67.358986 -5.346915 4.269744 2.00000000
-64.031494 -18.621557 6.354976 2.00000000
-26.036663 -61.273800 5.322884 2.00000000
-67.629723 -3.190791 4.232295 2.00000000
-26.785254 73.121132 5.361753 2.00000000
-56.669785 -33.841019 4.338525 2.00000000
-28.355139 72.298904 5.090151 2.00000000
74.416870 -25.862211 6.462491 2.00000000
-44.424366 60.842159 5.680911 2.00000000
77.958900 29.101898 4.000408 2.00000000
74.681747 37.495857 6.006182 2.00000000
-24.266676 74.303970 6.505741 2.00000000
-9.384665 79.278793 6.326969 2.00000000
-68.189278 8.775400 6.796745 2.00000000
-23.457417 74.684029 4.105041 2.00000000
35.476028 75.248688 6.717986 2.00000000
73.406075 -28.000780 4.028876 2.00000000
67.612740 -37.459362 6.869954 2.00000000
53.731209 -52.180378 5.705905 2.00000000
50.932987 66.524246 5.783301 2.00000000
21.480055 79.519928 4.309748 2.00000000
75.777702 35.040916 6.826899 2.00000000
27.999111 -65.722313 6.471735 2.00000000
-51.277710 -41.329468 6.782547 2.00000000
24.252773 -66.712738 5.353335 2.00000000
30.041782 77.257332 4.025288 2.00000000
-60.900021 38.368996 3.893245 2.00000000
73.955750 -26.840214 6.776293 2.00000000
75.721146 35.184078 4.073522 2.00000000
-9.735262 -67.009743 3.958481 2.00000000
-66.683853 21.164167 5.572652 2.00000000
5.490913 -68.793945 6.780995 2.00000000
-17.864679 76.870796 6.550562 2.00000000
18.732523 -67.845695 3.915658 2.00000000
23.484972 79.109589 4.484903 2.00000000
37.714211 74.269600 6.073072 2.00000000
40.283932 73.058014 4.270605 2.00000000
69.986671 -33.926674 5.447492 2.00000000
-51.722710 -40.790710 5.031750 2.00000000
-19.887974 76.126717 3.908229 2.00000000
57.624420 61.003384 5.795952 2.00000000
17.578804 -68.015121 3.993882 2.00000000
-60.351135 -27.341864 4.162444 2.00000000
21.161421 -67.384270 6.465983 2.00000000
-38.169697 -53.884670 5.462083 2.00000000
81.210091 -1.544143 6.643272 2.00000000
52.396626 -53.265705 5.041647 2.00000000
-37.937794 -54.053429 4.228116 2.00000000
23.054798 -67.019356 4.795540 2.00000000
79.834290 22.333452 4.735584 2.00000000
78.291138 -15.885392 5.215590 2.00000000
80.498940 18.834915 4.283927 2.00000000
-40.338184 64.395988 6.528824 2.00000000
-55.274616 48.233746 5.936613 2.00000000
72.523613 41.799110 6.853974 2.00000000
-8.213871 -67.302467 3.945770 2.00000000
81.411011 1.078508 5.565886 2.00000000
67.278206 50.116470 6.565586 2.00000000
72.515533 41.813835 5.770355 2.00000000
-50.554985 54.400093 4.241006 2.00000000
-62.014351 -23.800383 4.122747 2.00000000
5.209954 -68.793732 5.327385 2.00000000
37.462944 74.388062 4.047667 2.00000000
-12.812569 78.415955 5.077742 2.00000000
-18.683199 -64.404373 5.762993 2.00000000
32.668968 76.362526 4.111327 2.00000000
75.070702 -24.475496 6.770587 2.00000000
-36.200577 -55.317616 5.658697 2.00000000
73.816391 -27.135777 4.568861 2.00000000
-67.504097 16.377605 5.643794 2.00000000
-15.826811 77.531235 3.970250 2.00000000
79.591270 23.297228 5.344414 2.00000000
-67.970917 12.204706 6.834788 2.00000000
13.522695 -68.514389 3.888528 2.00000000
-59.306004 -29.322287 6.857961 2.00000000
1.166945 80.793732 5.488210 2.00000000
73.918793 39.120411 4.011578 2.00000000
-43.038319 -49.948837 5.811945 2.00000000
51.479416 -53.931007 4.417824 2.00000000
57.714836 -48.734821 4.126505 2.00000000
-68.153931 2.902747 6.264331 2.00000000
-54.073570 49.887901 4.173509 2.00000000
50.039711 -54.975342 6.199174 2.00000000
-4.845537 80.132439 6.811136 2.00000000
-38.855461 -53.385628 6.843232 2.00000000
66.127159 -39.500828 5.685340 2.00000000
52.833706 -52.921726 6.311608 2.00000000
-68.206993 7.509980 5.483235 2.00000000
-51.126892 53.709835 6.753342 2.00000000
-15.984321 77.480186 5.924043 2.00000000
-2.591392 -68.218254 6.536492 2.00000000
-67.045776 -7.070218 4.081468 2.00000000
29.552794 -65.218796 6.710085 2.00000000
-64.952744 27.982758 5.809735 2.00000000
-47.824730 57.457062 4.487222 2.00000000
79.217552 -12.559825 6.682386 2.00000000
-39.630833 -52.786495 4.111734 2.00000000
10.863995 -68.679626 3.925707 2.00000000
1.299797 80.801987 6.569714 2.00000000
6.394897 80.992447 6.061254 2.00000000
37.727306 -62.064461 6.859996 2.00000000
-60.148438 39.963039 3.886458 2.00000000
58.144894 -48.317005 6.760908 2.00000000
13.006747 80.741386 6.670510 2.00000000
-67.803299 -1.808408 3.977679 2.00000000
-57.941566 -31.808641 3.942870 2.00000000
37.963779 -61.953403 5.800203 2.00000000
51.206699 66.325066 6.693972 2.00000000
-68.187340 3.440258 5.282870 2.00000000
71.302559 -31.820194 4.127414 2.00000000
-55.859028 -35.120663 6.479491 2.00000000
19.072788 -67.781052 5.127120 2.00000000
44.547375 70.747192 6.639224 2.00000000
52.222904 65.585564 6.692911 2.00000000
48.978100 -55.745399 5.476574 2.00000000
36.358044 -62.705002 5.131287 2.00000000
70.766457 -32.699989 4.140542 2.00000000
66.320938 -39.234543 6.640025 2.00000000
68.082977 49.007038 5.641529 2.00000000
43.009651 -59.397160 6.714908 2.00000000
-56.274956 46.660118 4.154998 2.00000000
77.792061 29.616692 6.815043 2.00000000
-6.488480 -67.632957 3.881142 2.00000000
75.204430 36.382931 4.085078 2.00000000
-59.370182 -29.205338 4.051201 2.00000000
-13.874178 78.144241 3.974151 2.00000000
54.055935 -51.912155 3.953436 2.00000000
-65.591522 -13.556605 5.471709 2.00000000
-21.496061 -63.292957 6.876134 2.00000000
-67.194862 -6.285454 6.775548 2.00000000
40.906284 72.752495 4.983419 2.00000000
-49.405979 -43.578827 5.203211 2.00000000
27.033886 -66.000923 6.678361 2.00000000
35.129021 75.386375 5.815768 2.00000000
51.986130 -53.563469 6.416807 2.00000000
40.220448 -60.893578 5.588893 2.00000000
65.479599 -40.327518 5.508045 2.00000000
-7.897786 79.561264 4.016831 2.00000000
-65.992012 24.192583 6.085472 2.00000000
8.525586 -68.796227 6.619550 2.00000000
-34.936466 -56.187622 4.961801 2.00000000
31.184498 -64.689987 4.311623 2.00000000
80.065430 21.116793 6.746889 2.00000000
-47.802559 -45.286308 4.950596 2.00000000
-53.178623 51.117741 6.522237 2.00000000
-8.000273 79.541794 6.540370 2.00000000
42.674702 71.778557 3.993917 2.00000000
-59.228073 41.663544 5.987776 2.00000000
-38.796333 -53.428661 4.097836 2.00000000
-1.556974 -68.349724 6.816289 2.00000000
80.699821 -5.558873 6.371421 2.00000000
-15.085571 77.771454 6.632091 2.00000000
-14.027829 -65.904099 6.241751 2.00000000
68.827385 -35.750370 4.921588 2.00000000
76.517586 -20.972904 4.009225 2.00000000
-64.917236 -15.888479 6.860838 2.00000000
-66.539391 21.918367 6.612340 2.00000000
81.137955 14.294826 6.491404 2.00000000
-50.876640 54.011871 5.401048 2.00000000
15.094989 -68.326981 5.414385 2.00000000
-57.931171 44.018398 4.025241 2.00000000
-38.013744 -53.998154 6.869457 2.00000000
81.129356 14.363292 5.258074 2.00000000
-56.440010 -34.203644 5.349199 2.00000000
68.651436 48.223358 5.107575 2.00000000
-67.561409 -3.734841 5.668427 2.00000000
-68.023186 0.799010 5.123074 2.00000000
73.487770 40.038162 4.201836 2.00000000
6.800399 -68.794930 6.757967 2.00000000
28.753559 -65.477814 4.650488 2.00000000
81.580521 8.077686 4.003956 2.00000000
44.097141 -58.800385 6.519420 2.00000000
71.545891 43.580791 5.190643 2.00000000
-65.119225 -15.265222 4.233437 2.00000000
-65.165901 27.328423 3.953862 2.00000000
57.670135 60.960388 3.941620 2.00000000
70.190727 -33.605675 4.023722 2.00000000
-68.209503 4.206249 4.469546 2.00000000
-66.469482 22.283331 5.338464 2.00000000
-66.766136 20.734604 4.086465 2.00000000
-68.207748 6.514167 4.083486 2.00000000
0.354537 80.743240 6.805401 2.00000000
72.411461 -29.806732 5.325243 2.00000000
-53.432697 50.768593 4.428031 2.00000000
-60.807705 -26.369694 6.147613 2.00000000
42.645798 71.794472 6.358261 2.00000000
-26.896299 -60.868496 6.762916 2.00000000
78.150169 28.511717 4.791224 2.00000000
-54.921818 48.722237 6.777166 2.00000000
81.433586 1.433030 4.214912 2.00000000
-24.161718 -62.157806 3.924423 2.00000000
64.917496 -41.005943 3.959910 2.00000000
-68.018585 11.456004 5.696552 2.00000000
-65.554955 25.889448 4.957303 2.00000000
49.030834 67.908463 3.983219 2.00000000
78.031174 28.878893 5.709535 2.00000000
-49.589081 -43.373817 6.392946 2.00000000
12.813707 80.753677 5.294816 2.00000000
-58.494129 -30.801731 4.712589 2.00000000
77.426567 30.744474 6.877540 2.00000000
78.592735 27.146120 5.082397 2.00000000
-66.761131 20.760717 6.532593 2.00000000
79.480942 23.728273 6.290704 2.00000000
47.426117 68.945236 3.988714 2.00000000
9.187346 -68.783829 4.186089 2.00000000
19.149841 79.966270 6.792025 2.00000000
-36.891811 67.010933 5.262290 2.00000000
-31.548008 -58.341587 5.877036 2.00000000
-33.361839 69.385780 4.369758 2.00000000
-2.577205 80.417244 5.268801 2.00000000
-67.493721 16.459263 6.808245 2.00000000
81.546715 8.943428 6.442443 2.00000000
-37.018707 -54.722256 5.109166 2.00000000
57.129360 -49.269199 5.255531 2.00000000
-56.553982 46.221184 6.765652 2.00000000
81.008232 15.328009 5.566413 2.00000000
0.174154 -68.531898 6.806595 2.00000000
28.678747 -65.502052 5.755871 2.00000000
68.417191 48.546280 6.757867 2.00000000
69.012924 -35.458492 6.178763 2.00000000
81.578735 5.716835 6.222684 2.00000000
80.231483 20.242737 6.056242 2.00000000
75.477913 -23.593002 4.263736 2.00000000
-54.795589 -36.694416 4.941479 2.00000000
20.190268 -67.568764 5.459283 2.00000000
-30.221123 -59.075924 5.883617 2.00000000
-62.745262 -21.986626 3.986171 2.00000000
68.829842 47.949657 3.954819 2.00000000
78.435059 -15.443588 4.074090 2.00000000
2.101806 -68.654640 4.335765 2.00000000
-52.095245 -40.339691 4.095387 2.00000000
-62.169910 35.631699 4.676550 2.00000000
-40.330524 -52.206772 5.497967 2.00000000
-61.758347 36.548561 5.690307 2.00000000
-29.368887 -59.545292 5.710633 2.00000000
78.695381 26.797529 6.858023 2.00000000
19.395643 -67.719719 6.500524 2.00000000
12.600144 -68.571724 5.989237 2.00000000
80.621208 18.191343 5.602444 2.00000000
-43.300934 61.895535 4.885411 2.00000000
40.594120 72.911766 6.751132 2.00000000
-25.836767 73.566582 5.476719 2.00000000
40.344002 -60.835552 6.584581 2.00000000
-65.295715 -14.712372 5.922876 2.00000000
8.500470 -68.796204 5.232069 2.00000000
-56.072105 -34.784389 4.150069 2.00000000
-32.099712 70.185394 5.964336 2.00000000
13.915873 -68.475029 5.052200 2.00000000
73.254585 -28.275846 6.538479 2.00000000
30.160774 -65.021759 4.250144 2.00000000
81.001663 15.380342 4.125569 2.00000000
51.183952 -54.145344 6.875171 2.00000000
41.146351 -60.419670 6.168842 2.00000000
-32.711720 -57.601841 5.168630 2.00000000
-32.802509 -57.544128 6.822725 2.00000000
-16.754601 -65.032623 6.327837 2.00000000
-4.812562 80.136581 4.276616 2.00000000
81.579933 7.300669 6.048842 2.00000000
-50.480370 54.490147 6.743791 2.00000000
81.578545 5.471631 5.050893 2.00000000
-47.161594 -45.970432 4.296327 2.00000000
-1.004906 80.614662 6.655716 2.00000000
56.498569 62.062229 4.117827 2.00000000
-63.568584 32.106873 4.058940 2.00000000
19.484838 79.902100 4.480756 2.00000000
-67.626190 15.417005 5.592097 2.00000000
-68.089478 10.342738 5.232315 2.00000000
-48.703495 56.522705 6.823022 2.00000000
52.999718 64.985588 4.201151 2.00000000
-64.619240 -16.807981 6.110381 2.00000000
-39.273022 65.275818 6.805432 2.00000000
-10.435916 79.024246 3.884024 2.00000000
21.284002 -67.360977 5.368197 2.00000000
78.904747 25.979519 5.017112 2.00000000
-66.277969 -10.874629 6.798104 2.00000000
63.294010 -42.965385 6.745193 2.00000000
-61.282009 -25.359756 5.827128 2.00000000
-40.365185 64.373688 4.826827 2.00000000
81.574097 3.639686 4.444023 2.00000000
57.484688 61.134800 6.822865 2.00000000
-61.514084 -24.865604 4.499836 2.00000000
-53.830208 -38.025288 5.406236 2.00000000
-24.647541 74.125099 4.211532 2.00000000
-20.418512 75.917122 6.565991 2.00000000
-58.847519 42.354530 5.373250 2.00000000
40.173347 -60.915699 3.965390 2.00000000
-10.995174 78.881104 6.823810 2.00000000
71.886986 42.959217 4.086643 2.00000000
14.905662 80.549942 6.355699 2.00000000
45.167274 70.381142 5.853791 2.00000000
81.232826 -1.365274 4.160455 2.00000000
54.643353 63.623768 3.985508 2.00000000
11.506331 80.836929 5.607703 2.00000000
-65.504738 26.084433 3.890014 2.00000000
6.331720 -68.794579 4.924101 2.00000000
-17.991095 76.829826 3.928899 2.00000000
-48.776409 56.445179 5.758019 2.00000000
-48.484634 -44.561462 5.303007 2.00000000
-54.906979 -36.540863 3.895238 2.00000000
67.612366 -37.459877 5.769446 2.00000000
-22.265535 -62.987629 5.123212 2.00000000
14.689383 -68.377907 4.272744 2.00000000
56.131645 -50.197582 6.675493 2.00000000
-44.717522 60.567287 6.651761 2.00000000
80.897606 -4.002720 6.816705 2.00000000
81.577591 4.207126 5.413901 2.00000000
46.887913 -57.090111 4.907103 2.00000000
81.443352 10.606403 5.873287 2.00000000
49.089706 67.865623 5.406543 2.00000000
18.165440 80.135635 5.259017 2.00000000
-64.455635 -17.312817 5.136660 2.00000000
69.410187 47.033661 4.376396 2.00000000
-41.724087 63.251236 4.021814 2.00000000
-57.345753 -32.774048 3.899731 2.00000000
54.558323 63.694218 6.319831 2.00000000
38.801067 -61.560177 4.301383 2.00000000
81.580460 7.990375 6.847033 2.00000000
5.268344 80.993294 4.815747 2.00000000
-63.227116 -20.766909 3.946701 2.00000000
81.465843 10.244544 4.320981 2.00000000
-54.820839 48.861000 4.640368 2.00000000
-65.843674 24.768513 5.011579 2.00000000
80.144699 -8.497529 3.966814 2.00000000
20.497337 79.708160 4.130102 2.00000000
-18.397598 -64.497406 4.655840 2.00000000
-41.184811 63.696671 4.931020 2.00000000
-34.666420 -56.359283 3.970502 2.00000000
71.069656 44.414352 6.298803 2.00000000
-3.037431 -68.161560 5.190327 2.00000000
27.657089 78.034195 5.448812 2.00000000
-41.406456 63.513592 6.588211 2.00000000
35.389133 75.283165 3.928690 2.00000000
24.401091 -66.674774 6.461041 2.00000000
-27.541901 72.745178 4.682532 2.00000000
77.587212 30.248789 5.755034 2.00000000
-67.685333 -2.747875 5.376785 2.00000000
14.803581 -68.363571 6.788838 2.00000000
-68.208672 5.298656 4.288670 2.00000000
-46.689465 -46.470757 5.811287 2.00000000
37.707550 -62.073742 4.065477 2.00000000
-67.931679 12.820895 5.942357 2.00000000
77.142464 -19.398123 6.065254 2.00000000
-19.142609 -64.226807 6.859804 2.00000000
17.022961 80.280838 3.925467 2.00000000
80.903130 -3.959251 5.508469 2.00000000
-42.939949 -50.041351 6.835880 2.00000000
65.833374 52.092552 3.931772 2.00000000
-1.109640 80.601509 5.351253 2.00000000
-36.134140 67.560524 5.538212 2.00000000
68.315544 -36.493580 4.012088 2.00000000
-59.672680 40.856247 5.167865 2.00000000
-23.416086 -62.509361 6.619605 2.00000000
-52.556652 -39.781002 4.881057 2.00000000
-29.548994 71.643761 3.957865 2.00000000
-39.853271 -52.602196 6.438499 2.00000000
32.519825 -64.221313 4.125818 2.00000000
30.230259 77.195930 6.493430 2.00000000
76.064728 -22.114153 5.509561 2.00000000
81.505524 2.562729 3.945883 2.00000000
-67.923141 12.954891 4.829908 2.00000000
-13.290807 -66.093941 5.621093 2.00000000
76.159073 -21.876392 6.637359 2.00000000
42.045856 -59.926052 5.691677 2.00000000
-31.787590 -58.189289 4.300570 2.00000000
-67.158447 18.686440 6.728867 2.00000000
72.468575 41.899399 3.971221 2.00000000
80.226433 -8.070778 4.954504 2.00000000
78.640137 -14.801665 5.382858 2.00000000
7.334654 -68.795334 5.746652 2.00000000
-17.385532 77.026077 5.396325 2.00000000
13.360185 80.718880 3.919150 2.00000000
-16.308701 77.375061 4.910309 2.00000000
-6.325504 -67.664177 6.500586 2.00000000
-46.348042 59.027164 3.912664 2.00000000
81.287788 13.101464 6.549030 2.00000000
-57.056107 -33.231236 5.234799 2.00000000
-23.132198 74.836769 6.748045 2.00000000
-64.773102 -16.333233 4.509290 2.00000000
5.593256 -68.794022 3.886757 2.00000000
59.903206 58.837460 3.939804 2.00000000
-14.397103 -65.800591 5.097550 2.00000000
-57.249119 45.127666 4.321095 2.00000000
-37.058155 66.890266 6.629233 2.00000000
-48.999214 56.208279 4.651920 2.00000000
81.317856 12.625574 4.631270 2.00000000
67.472610 49.848484 4.010279 2.00000000
81.354790 12.031374 6.805449 2.00000000
39.396511 73.476418 5.431012 2.00000000
25.907364 78.485680 6.715919 2.00000000
23.312580 -66.953377 6.024587 2.00000000
-62.214771 35.518639 6.876558 2.00000000
32.713058 76.345032 5.441876 2.00000000
34.267891 75.728073 3.957159 2.00000000
80.648834 -5.865505 3.997377 2.00000000
-26.835651 73.097458 6.562266 2.00000000
81.487907 2.286118 6.724136 2.00000000
65.812950 -39.925186 4.060807 2.00000000
25.064434 -66.504997 4.175919 2.00000000
18.346807 -67.918694 6.783469 2.00000000
3.050364 80.910782 3.938542 2.00000000
-55.462730 -35.746174 4.927215 2.00000000
31.737057 76.705055 5.680736 2.00000000
-66.624847 -9.285928 6.860955 2.00000000
66.878960 -38.467712 5.220908 2.00000000
-64.780296 28.512136 4.227231 2.00000000
38.361130 73.964584 5.062893 2.00000000
52.765404 65.179726 5.555561 2.00000000
-60.365673 -27.310913 6.751845 2.00000000
29.022703 77.589317 6.776638 2.00000000
64.240196 54.021343 5.508431 2.00000000
62.059574 56.535999 5.416213 2.00000000
-0.262603 -68.504089 3.927172 2.00000000
81.404663 11.228900 4.168259 2.00000000
0.838023 80.773285 4.358321 2.00000000
45.114967 -58.213375 5.561693 2.00000000
37.314106 -62.258518 4.977308 2.00000000
-45.736336 59.615978 4.664704 2.00000000
71.686188 -31.123629 5.492566 2.00000000
77.399384 30.828365 4.052209 2.00000000
8.074764 -68.795891 3.949479 2.00000000
6.191103 80.992599 4.073451 2.00000000
-1.879477 -68.308739 5.648276 2.00000000
66.765030 50.823933 5.470506 2.00000000
81.370018 0.434764 4.348642 2.00000000
73.671394 39.647167 6.654018 2.00000000
47.354748 -56.794323 5.954309 2.00000000
-20.619678 -63.640705 6.590512 2.00000000
-47.182320 58.140114 5.436430 2.00000000
-17.802286 -64.691338 6.555637 2.00000000
-12.265805 78.555893 3.906939 2.00000000
52.567326 -53.141762 3.899095 2.00000000
13.263313 -68.530510 6.853894 2.00000000
-63.013203 -21.308393 5.659509 2.00000000
20.412626 79.724388 5.773170 2.00000000
-29.609943 71.610313 6.508587 2.00000000
-68.052681 10.920647 6.810695 2.00000000
-22.389706 -62.938358 6.510349 2.00000000
64.326286 53.917130 6.856795 2.00000000
77.978432 -16.845316 5.671883 2.00000000
66.858795 50.694668 3.892774 2.00000000
63.763676 -42.398529 4.126123 2.00000000
-10.863242 -66.719208 5.688453 2.00000000
79.584816 -11.133920 6.823165 2.00000000
-51.033527 -41.625065 4.066091 2.00000000
-8.433967 -67.260307 6.749051 2.00000000
73.623901 39.748299 5.367084 2.00000000
-11.394653 -66.582336 6.662183 2.00000000
44.276859 -58.701759 5.097386 2.00000000
-5.228699 -67.874268 5.021439 2.00000000
-39.746159 64.884995 4.048627 2.00000000
79.375008 -11.948496 5.820330 2.00000000
1.149775 -68.594025 6.442578 2.00000000
-47.638302 57.655281 6.828957 2.00000000
-24.565569 -61.967400 5.817976 2.00000000
50.524620 -54.623604 5.327465 2.00000000
10.190341 -68.721489 4.816355 2.00000000
-55.419441 48.005920 3.916857 2.00000000
-67.938660 -0.560955 4.061315 2.00000000
70.069160 45.993530 5.432402 2.00000000
-49.670403 55.467731 6.700054 2.00000000
-47.363037 -45.752377 6.479020 2.00000000
-56.784008 45.859325 5.712806 2.00000000
-15.564377 -65.420349 6.820592 2.00000000
4.468229 80.993896 5.419373 2.00000000
-9.093372 -67.134003 5.042736 2.00000000
81.578430 5.314036 3.910066 2.00000000
-57.535183 44.677658 5.840602 2.00000000
22.319292 79.359177 6.559720 2.00000000
81.579933 7.299963 4.613221 2.00000000
29.580791 -65.209717 5.314546 2.00000000
-68.208427 5.621434 5.797761 2.00000000
-67.643440 15.281295 6.734338 2.00000000
41.218224 72.580696 4.018082 2.00000000
-52.769897 -39.487026 6.211765 2.00000000
56.452793 -49.903568 5.679295 2.00000000
65.538849 52.449116 5.082432 2.00000000
55.499390 -50.719837 4.009581 2.00000000
75.687805 -23.064049 5.797773 2.00000000
-61.275940 37.571709 6.658905 2.00000000
-21.437765 -63.316090 4.566983 2.00000000
45.242401 -58.132637 6.544608 2.00000000
10.464348 80.903275 4.849001 2.00000000
39.139839 73.597435 6.864547 2.00000000
73.492195 -27.823380 5.614493 2.00000000
-58.674961 -30.472212 6.778437 2.00000000
64.300133 -41.751060 6.770373 2.00000000
57.131618 61.466854 4.754450 2.00000000
18.118286 80.141624 6.382533 2.00000000
9.572871 80.960045 5.781259 2.00000000
30.758821 77.023743 5.069761 2.00000000
-22.187016 75.218468 5.338544 2.00000000
-39.470787 65.112465 5.464786 2.00000000
35.948357 -62.866856 4.180392 2.00000000
80.857094 16.531721 4.015208 2.00000000
-64.317429 29.933054 5.761838 2.00000000
53.991432 64.163910 4.557024 2.00000000
10.762525 80.884293 6.513135 2.00000000
64.571312 -41.423763 5.157863 2.00000000
-59.697731 40.810760 6.756326 2.00000000
72.318512 -29.975510 6.718731 2.00000000
-63.416126 32.491081 6.838555 2.00000000
41.618053 -60.160816 4.072168 2.00000000
-19.479078 -64.093292 5.239889 2.00000000
-61.009399 -25.940224 4.578946 2.00000000
60.741951 57.941261 6.811077 2.00000000
-23.469858 -62.484009 4.628221 2.00000000
-60.182194 39.891445 5.170714 2.00000000
76.567017 33.042896 6.121345 2.00000000
59.902313 -46.634876 5.478459 2.00000000
-68.033493 0.964911 6.860968 2.00000000
-59.041302 -29.804647 5.338595 2.00000000
62.738976 55.811405 6.008886 2.00000000
72.100487 42.570168 5.162934 2.00000000
-47.201134 58.120106 3.887118 2.00000000
63.138443 55.355202 4.059851 2.00000000
80.150436 -8.467565 6.876913 2.00000000
-7.080873 79.716454 4.728507 2.00000000
31.166914 -64.695686 6.756098 2.00000000
54.875813 63.431164 5.038416 2.00000000
-65.645943 25.536213 5.922990 2.00000000
-45.263496 60.062927 5.695788 2.00000000
81.529533 9.219880 4.206382 2.00000000
80.929092 15.958332 6.618797 2.00000000
31.371536 76.824135 6.854080 2.00000000
80.345642 -7.448429 6.533889 2.00000000
-65.271690 26.989244 5.275116 2.00000000
77.584610 -18.054268 4.634425 2.00000000
54.148537 -51.835659 6.821912 2.00000000
-40.849724 63.973457 3.959636 2.00000000
30.439528 -64.931419 5.990785 2.00000000
-60.589401 -26.834522 5.225620 2.00000000
-55.505566 -35.678581 3.920572 2.00000000
51.396919 66.186646 4.607165 2.00000000
-68.041092 1.087109 3.921448 2.00000000
-65.128601 27.442917 6.842140 2.00000000
81.569122 3.561541 6.765717 2.00000000
-35.619770 67.933640 4.710744 2.00000000
-56.144173 46.865852 5.257058 2.00000000
-16.823704 77.208160 6.338174 2.00000000
-42.194946 -50.662022 6.006276 2.00000000
-42.803101 62.359951 6.389808 2.00000000
81.340317 -0.031768 6.026839 2.00000000
62.037086 -44.365036 5.741191 2.00000000
-38.109180 66.127892 3.898138 2.00000000
-40.585197 -51.995766 4.032752 2.00000000
79.975838 21.588367 4.020970 2.00000000
41.875095 -60.019760 6.779468 2.00000000
59.072758 59.641243 3.969104 2.00000000
8.348317 80.990982 6.649240 2.00000000
47.477848 68.912346 5.249834 2.00000000
45.779194 -57.792542 4.658060 2.00000000
67.668442 -37.382812 4.176539 2.00000000
-68.118980 9.879401 6.588238 2.00000000
-63.976002 -18.792778 5.165883 2.00000000
61.755451 56.877880 3.967192 2.00000000
-25.347216 -61.598866 4.199452 2.00000000
-17.105692 -64.918251 4.093888 2.00000000
-68.088921 1.856748 4.647102 2.00000000
17.223543 80.255348 5.919635 2.00000000
58.317406 60.351643 6.741484 2.00000000
-19.271742 -64.175568 4.126331 2.00000000
22.300259 -67.167915 6.467914 2.00000000
-63.523289 -20.017212 5.877861 2.00000000
49.914246 67.265594 3.978858 2.00000000
46.102566 -57.587666 6.375758 2.00000000
-12.537282 78.486412 6.746562 2.00000000
80.397186 19.370522 6.767694 2.00000000
-27.715998 -60.455616 6.249543 2.00000000
-64.318871 29.928619 4.333416 2.00000000
-62.201767 -23.362362 6.849245 2.00000000
-66.661919 -9.090807 5.040507 2.00000000
-46.388168 58.984501 5.183808 2.00000000
74.925018 -24.784473 3.941116 2.00000000
-26.052368 73.465324 4.006034 2.00000000
-6.164537 79.890533 5.380916 2.00000000
-49.888088 55.204994 3.887594 2.00000000
60.408661 -46.096497 4.455572 2.00000000
-66.076912 23.862951 4.336910 2.00000000
70.698708 44.999855 4.142772 2.00000000
-57.913757 -31.859312 5.406907 2.00000000
-53.394833 50.820621 5.536533 2.00000000
69.625587 -34.494698 4.418783 2.00000000
-57.701660 -32.212269 6.551111 2.00000000
-67.794228 14.094889 6.836169 2.00000000
-0.517604 80.675842 3.902929 2.00000000
-12.819398 -66.215363 3.980692 2.00000000
-67.532700 16.152571 3.940027 2.00000000
74.269089 38.374535 6.417438 2.00000000
39.339512 -61.307304 5.087712 2.00000000
60.068871 -46.457787 6.484342 2.00000000
77.741035 29.774157 4.870284 2.00000000
-62.777302 34.100994 5.868180 2.00000000
74.325417 -26.056177 4.139248 2.00000000
-66.350105 -10.592771 4.233673 2.00000000
44.328033 70.867996 5.451855 2.00000000
-37.211975 66.778709 4.006069 2.00000000
-66.857811 -8.059654 3.898375 2.00000000
-5.106193 80.091591 5.538253 2.00000000
45.623249 70.091286 6.779079 2.00000000
-8.097776 79.523270 5.435150 2.00000000
64.130852 54.153728 4.156107 2.00000000
31.430115 76.805054 3.883725 2.00000000
-66.327774 22.888981 6.184674 2.00000000
-43.897930 -49.140385 4.055105 2.00000000
36.208675 74.957970 5.994365 2.00000000
-43.991116 -49.052746 6.830566 2.00000000
-35.939205 67.701927 6.745893 2.00000000
-21.372032 75.540428 5.911564 2.00000000
-46.242970 -46.934906 4.088625 2.00000000
-65.445328 26.315083 6.579014 2.00000000
4.363335 80.992386 4.344844 2.00000000
-15.870421 -65.320648 5.577411 2.00000000
-2.076135 80.480156 6.878379 2.00000000
74.053391 38.833813 4.946124 2.00000000
76.028641 -22.205093 3.975872 2.00000000
69.207542 47.353493 6.810016 2.00000000
-54.003475 -37.786423 6.468773 2.00000000
61.492474 -44.944107 3.947608 2.00000000
6.868748 -68.794983 3.895643 2.00000000
-66.352043 22.794762 4.434656 2.00000000
-13.996690 78.112885 5.256040 2.00000000
-25.038271 -61.744526 6.829817 2.00000000
63.378323 55.064789 5.556055 2.00000000
14.894996 80.551300 5.113157 2.00000000
-62.369656 -22.937391 4.911000 2.00000000
20.707386 -67.470520 4.399002 2.00000000
-48.930248 -44.080917 6.629417 2.00000000
-64.714699 28.713514 6.871307 2.00000000
-7.537330 -67.432053 5.968027 2.00000000
65.857368 52.063511 6.780545 2.00000000
-11.737605 -66.493996 3.970676 2.00000000
-60.202801 39.847740 6.221540 2.00000000
-6.707769 -67.590958 5.418197 2.00000000
44.801010 -58.412289 4.107753 2.00000000
41.622433 72.358086 6.318325 2.00000000
-10.801974 78.930557 5.663248 2.00000000
79.509483 -11.426392 3.982862 2.00000000
-67.146553 18.748541 5.520172 2.00000000
-37.047081 -54.701607 3.891719 2.00000000
4.259903 -68.792061 6.565539 2.00000000
81.263992 13.290995 5.407103 2.00000000
-38.376316 65.934120 5.375102 2.00000000
-55.324265 -35.964729 6.110949 2.00000000
-43.551739 61.660374 5.857809 2.00000000
62.493011 -43.880268 6.764336 2.00000000
-41.931473 -50.880322 4.765651 2.00000000
76.542969 -20.908928 6.266869 2.00000000
-17.103699 -64.918900 5.149301 2.00000000
-66.429375 -10.283070 5.461300 2.00000000
60.491276 58.215313 4.727077 2.00000000
-4.132463 -68.022385 6.816261 2.00000000
-63.831528 31.424652 5.665666 2.00000000
-28.351274 72.301025 6.463900 2.00000000
-57.133778 45.309109 6.560747 2.00000000
69.330536 47.159367 5.553229 2.00000000
80.149353 20.675028 5.047301 2.00000000
11.597529 -68.634033 6.499115 2.00000000
-0.790880 -68.447098 5.880405 2.00000000
-63.926479 31.133171 6.731670 2.00000000
-58.475807 43.029469 4.567636 2.00000000
-21.342493 -63.353893 5.745430 2.00000000
-67.221184 18.358919 3.907261 2.00000000
53.660858 64.437805 6.658036 2.00000000
-11.942693 78.638596 5.963631 2.00000000
48.194153 -56.262508 6.252204 2.00000000
-7.576456 -67.424561 4.886729 2.00000000
34.110172 75.790657 6.258748 2.00000000
80.421318 -7.053339 5.391073 2.00000000
-36.474354 -55.118385 6.687986 2.00000000
-66.823074 -8.242494 6.632977 2.00000000
-65.893707 -12.375977 5.082274 2.00000000
81.089249 -2.494902 6.875940 2.00000000
71.974396 42.799938 6.763773 2.00000000
-1.817195 -68.316650 4.142096 2.00000000
-11.255206 78.814552 4.507616 2.00000000
-50.954624 -41.720612 5.242430 2.00000000
-51.554661 53.193546 5.853251 2.00000000
76.738472 32.608891 4.603514 2.00000000
68.183281 48.868778 4.194254 2.00000000
79.798180 -10.305533 4.011830 2.00000000
-52.163448 52.458778 5.107819 2.00000000
50.368320 -54.736973 4.102150 2.00000000
8.683693 80.990730 5.227652 2.00000000
-39.414040 -52.966118 5.598453 2.00000000
67.019508 -38.274578 6.350124 2.00000000
-50.291683 -42.523205 5.368587 2.00000000
7.323989 80.991753 3.925351 2.00000000
-62.790630 -21.871782 6.734293 2.00000000
79.841675 -10.079571 6.371142 2.00000000
-24.224480 74.323784 5.126407 2.00000000
-61.840916 -24.169676 5.643925 2.00000000
-48.494881 -44.562893 3.967253 2.00000000
-44.726219 60.570789 4.246998 2.00000000
-67.414909 -4.901543 6.141001 2.00000000
51.495888 -53.919071 5.469190 2.00000000
63.231075 55.243053 6.756052 2.00000000
-67.163551 -6.450290 5.056560 2.00000000
-22.201212 75.212860 4.355277 2.00000000
74.263153 -26.188240 5.418561 2.00000000
-32.842812 69.714592 5.385574 2.00000000
-67.008965 -7.264012 5.692353 2.00000000
-51.823849 52.868652 4.073070 2.00000000
70.978294 44.558552 5.268963 2.00000000
81.355301 12.023069 5.719336 2.00000000
-56.456463 -34.177673 6.403107 2.00000000
66.190865 51.615456 4.852451 2.00000000
-65.959053 -12.120661 6.208016 2.00000000
50.701756 66.692520 4.000615 2.00000000
-5.474401 31.647404 -40.953331 3.00000000
27.147209 25.643578 -16.966105 3.00000000
-21.442425 9.214558 -54.820904 3.00000000
34.872055 3.609293 -9.237012 3.00000000
20.718027 30.668222 -14.742553 3.00000000
-10.710542 28.420959 -46.008495 3.00000000
34.886051 3.824878 -60.955528 3.00000000
-15.276227 23.941832 -38.652458 3.00000000
7.437076 34.244652 1.126025 3.00000000
30.653212 -8.939890 -39.813179 3.00000000
34.478065 11.091937 -53.340450 3.00000000
-12.291575 -14.899016 -55.985744 3.00000000
30.460136 21.442377 -1.019842 3.00000000
34.294510 -0.081700 -15.973532 3.00000000
4.343272 34.029724 1.738474 3.00000000
-9.244944 29.490423 -4.264736 3.00000000
32.349400 -5.816654 -13.212562 3.00000000
-21.049068 11.737045 -21.416712 3.00000000
25.060423 -15.424653 -10.852016 3.00000000
-21.015844 1.142005 -2.007098 3.00000000
-15.066413 -11.996216 -43.925243 3.00000000
-20.621704 -1.263925 -41.737263 3.00000000
24.302572 28.249916 -11.182061 3.00000000
22.611889 -17.295900 -11.676936 3.00000000
1.110574 33.805153 -47.024551 3.00000000
-0.971824 33.328056 -22.606329 3.00000000
-13.239198 -13.997147 -7.904376 3.00000000
22.188387 29.767410 -0.163458 3.00000000
30.536606 21.320089 -16.005136 3.00000000
12.833373 -21.522480 -53.213303 3.00000000
18.776714 -19.481756 -4.185916 3.00000000
-13.392387 -13.851354 -38.214008 3.00000000
-19.139618 17.677355 -0.851087 3.00000000
31.485523 -7.521076 -0.270335 3.00000000
4.378998 -22.099770 -60.749783 3.00000000
23.018740 29.207937 -8.484982 3.00000000
34.776897 6.335453 -27.156197 3.00000000
4.273491 34.024879 -8.307178 3.00000000
13.643440 -21.315357 -43.820972 3.00000000
-20.190361 14.941582 -60.119373 3.00000000
-12.967325 26.460423 -58.353615 3.00000000
10.792041 -21.749598 -24.754692 3.00000000
23.915297 -16.359198 3.825048 3.00000000
-20.046211 -3.207125 -37.565205 3.00000000
30.461857 21.439629 -45.302944 3.00000000
-10.553392 28.549212 -26.542124 3.00000000
-17.961197 19.993082 -18.045429 3.00000000
-17.733707 -8.214280 -11.789507 3.00000000
-18.077763 -7.588779 -15.039982 3.00000000
8.652254 34.319214 -60.313976 3.00000000
33.992249 -1.278978 -56.204365 3.00000000
-13.569967 -13.668817 -5.341461 3.00000000
33.688660 14.584250 -1.465544 3.00000000
32.728840 -4.969679 -19.864021 3.00000000
11.740626 -21.689999 -59.676926 3.00000000
31.351961 19.964956 -57.898922 3.00000000
-0.712039 -21.203060 -42.251167 3.00000000
-17.876179 20.145311 -0.112681 3.00000000
34.883873 3.791349 -6.391453 3.00000000
11.849285 33.918510 -11.711230 3.00000000
-20.600628 -1.343728 -3.984639 3.00000000
11.901513 33.908188 -36.617603 3.00000000
31.283709 20.091099 -9.144781 3.00000000
-21.348530 5.491588 -0.028580 3.00000000
-5.299971 -19.531666 -32.077423 3.00000000
33.926712 -1.538573 2.862414 3.00000000
15.948994 -20.647009 -12.157703 3.00000000
22.330412 -17.487587 -24.152071 3.00000000
10.975254 34.070324 -53.006851 3.00000000
-13.887884 25.521624 -55.183308 3.00000000
-3.853704 -20.158298 -60.939785 3.00000000
8.271713 -21.907949 -35.707462 3.00000000
34.641022 8.498167 -30.123531 3.00000000
15.418787 -20.822506 -46.632473 3.00000000
-9.448144 -17.157639 -43.828335 3.00000000
33.878212 -1.730689 -2.834443 3.00000000
-20.224457 14.838980 -26.070629 3.00000000
-15.486005 -11.482064 -38.019711 3.00000000
19.353676 31.402214 -49.167648 3.00000000
-17.808777 -8.085894 -42.426834 3.00000000
28.682802 23.892839 0.375929 3.00000000
25.727150 27.034895 -22.356791 3.00000000
30.907028 -8.545764 -45.295986 3.00000000
-17.903124 20.097063 -3.868255 3.00000000
-4.128211 -20.047489 -26.082087 3.00000000
32.523365 17.633192 -9.884513 3.00000000
23.152128 29.109652 -60.515003 3.00000000
5.810870 34.131680 -54.925159 3.00000000
-16.826742 -9.663540 -23.718863 3.00000000
-5.186219 31.780668 -60.238216 3.00000000
-12.505841 26.888016 -9.591549 3.00000000
1.955195 -21.806824 -6.325635 3.00000000
32.535042 -5.428886 -34.598690 3.00000000
33.001266 -4.294800 -10.336616 3.00000000
-20.753290 -0.765711 0.403461 3.00000000
-9.366211 29.403555 -7.134143 3.00000000
-0.545731 33.440598 -50.366676 3.00000000
-5.121984 31.810373 -21.471537 3.00000000
34.611618 8.966210 -18.285603 3.00000000
-10.833808 -16.134562 -25.460005 3.00000000
17.821955 -19.923277 -13.810271 3.00000000
-17.154745 21.335274 -37.063152 3.00000000
-20.884130 -0.270317 -55.819458 3.00000000
-4.965360 -19.691872 -55.183239 3.00000000
15.503943 -20.794319 -36.994923 3.00000000
-10.988548 28.194078 -60.641937 3.00000000
18.374645 -19.667690 -48.539825 3.00000000
-19.230610 -5.266727 -7.741882 3.00000000
-21.384068 5.956227 -53.581367 3.00000000
8.455198 34.315376 -24.849518 3.00000000
34.831738 5.462529 -58.308231 3.00000000
-7.402143 30.645393 -1.714583 3.00000000
2.457581 33.898727 -15.202554 3.00000000
14.559357 33.280182 -12.437142 3.00000000
-21.191734 3.441621 -22.484158 3.00000000
27.429829 25.338551 2.349776 3.00000000
-5.700706 31.542753 -46.425056 3.00000000
11.365749 34.014099 -39.862789 3.00000000
34.458931 11.396483 -24.417147 3.00000000
9.894078 -21.806017 -30.032501 3.00000000
-15.806290 -11.087993 -0.143488 3.00000000
27.303135 25.475288 -43.771648 3.00000000
31.946472 18.866236 -31.413626 3.00000000
-11.898674 27.450594 -6.371601 3.00000000
-21.116127 2.453106 -8.297339 3.00000000
21.260054 -18.156878 -50.723793 3.00000000
34.591255 9.290321 -26.613407 3.00000000
-19.362600 -4.981299 -16.538496 3.00000000
32.021873 18.717653 -37.958382 3.00000000
11.347470 34.017712 -59.429417 3.00000000
34.300549 -0.057778 -5.615778 3.00000000
-20.795078 -0.607486 -31.466406 3.00000000
12.057994 33.877254 -1.876585 3.00000000
17.814764 -19.926601 -51.183849 3.00000000
15.767399 32.895100 -54.969692 3.00000000
-10.091886 28.883707 -57.754940 3.00000000
13.509296 33.545284 -4.562405 3.00000000
7.836129 34.272369 -21.886166 3.00000000
-21.330347 5.253892 -34.904335 3.00000000
34.901730 4.348483 -34.230438 3.00000000
4.090246 34.012150 -46.055805 3.00000000
-14.298398 25.090282 -52.236553 3.00000000
-11.649415 27.654739 -18.117086 3.00000000
28.884722 -11.461167 -18.173309 3.00000000
0.578427 33.727749 -54.362053 3.00000000
-20.564016 -1.482348 -7.603796 3.00000000
10.122666 -21.791655 -4.733767 3.00000000
15.400128 33.017147 0.166361 3.00000000
23.909292 28.551754 -48.914062 3.00000000
-21.476624 8.957619 -57.997574 3.00000000
33.281429 -3.586410 -60.597511 3.00000000
-9.508145 29.301876 -16.872065 3.00000000
34.130470 12.939518 -47.878506 3.00000000
-8.148182 -18.001017 -19.982149 3.00000000
34.194939 -0.476104 -30.340338 3.00000000
25.281448 -15.242240 -57.992222 3.00000000
-17.449081 -8.669457 -53.535252 3.00000000
0.295913 -21.457525 -11.605590 3.00000000
-16.101826 22.868893 -42.366482 3.00000000
12.919609 -21.505911 -50.028412 3.00000000
31.774460 -7.003731 -26.562737 3.00000000
31.245159 -7.951453 -60.214935 3.00000000
21.940792 -17.731213 -20.974422 3.00000000
1.455747 33.829132 -43.461525 3.00000000
9.652936 -21.821167 -45.548447 3.00000000
-11.024297 -15.974822 -12.135302 3.00000000
-18.394419 19.217363 -34.825645 3.00000000
31.714079 19.295725 0.054231 3.00000000
4.889087 34.067642 -43.537777 3.00000000
13.963945 33.430504 -52.103607 3.00000000
6.757372 34.197430 -5.145272 3.00000000
-6.574281 31.093361 -15.567262 3.00000000
-10.457211 28.622004 -49.800350 3.00000000
-19.788050 -3.887583 -41.577404 3.00000000
26.233454 26.553047 -10.324668 3.00000000
-4.924108 -19.711622 -50.838909 3.00000000
-16.199486 22.736345 -0.766857 3.00000000
28.234163 -12.236964 -32.798698 3.00000000
16.360983 32.697845 -58.204212 3.00000000
32.743881 17.154284 3.597893 3.00000000
27.474245 25.290611 -56.070061 3.00000000
-17.620298 20.603485 -53.815689 3.00000000
34.852829 5.126864 -46.906506 3.00000000
-21.466486 7.033793 -5.151281 3.00000000
33.969612 13.548544 -34.437046 3.00000000
25.429682 -15.104894 -25.684891 3.00000000
-21.077166 1.943730 -46.567856 3.00000000
-0.530964 -21.248774 -29.975168 3.00000000
34.852650 5.129723 -40.578247 3.00000000
-1.338101 -21.045006 -50.489250 3.00000000
33.340019 -3.410102 -54.781902 3.00000000
26.196173 26.588528 -41.124878 3.00000000
3.321494 -21.996189 -29.577696 3.00000000
-20.845339 -0.417194 -44.923203 3.00000000
27.310522 -13.269934 -51.424465 3.00000000
34.799286 2.876808 -15.572317 3.00000000
-14.669977 24.664772 -29.730345 3.00000000
16.749311 -20.344736 -43.937122 3.00000000
9.138175 34.287655 -37.935879 3.00000000
-9.179397 -17.336905 -5.172849 3.00000000
14.570399 -21.070547 -61.041431 3.00000000
19.376780 -19.203564 -43.409706 3.00000000
17.183311 32.372379 3.600220 3.00000000
34.684307 2.013032 -37.603802 3.00000000
-21.063114 1.760008 3.350706 3.00000000
-20.967182 0.505763 -21.707785 3.00000000
25.170813 27.521839 3.459219 3.00000000
32.943039 16.641281 -29.257690 3.00000000
24.069515 -16.233339 -44.814377 3.00000000
-11.124380 -15.890896 -6.406709 3.00000000
-9.572005 -17.066376 -40.446903 3.00000000
7.623824 -21.948656 -7.280419 3.00000000
-20.813690 12.714202 -39.924427 3.00000000
-17.196766 21.270027 -49.252769 3.00000000
4.180671 -22.086887 -48.738930 3.00000000
33.073566 16.305059 -44.595615 3.00000000
-20.627550 -1.241789 -34.712982 3.00000000
27.415165 25.354376 -49.515182 3.00000000
-0.551642 33.439037 -61.000198 3.00000000
-20.128202 -2.959415 -12.882617 3.00000000
34.553951 9.884081 -7.894489 3.00000000
-17.549170 20.722836 -13.917209 3.00000000
24.854265 27.787287 -30.979401 3.00000000
34.312069 -0.012137 -35.644730 3.00000000
28.488998 24.130322 -9.385887 3.00000000
-2.549789 32.853748 -5.720830 3.00000000
-19.818834 -3.808280 1.193430 3.00000000
2.578689 33.907143 -56.922016 3.00000000
-5.889839 -19.249245 -37.494671 3.00000000
33.488815 15.188076 -54.696194 3.00000000
14.806193 33.214516 -30.678560 3.00000000
-18.171062 19.617302 -60.262615 3.00000000
-4.709657 -19.812780 -3.578480 3.00000000
18.117331 -19.786682 3.439667 3.00000000
-12.301768 27.077101 -35.225376 3.00000000
22.185995 -17.577888 -43.271736 3.00000000
32.457157 17.776363 -2.503468 3.00000000
-21.255671 4.277548 -14.848315 3.00000000
-1.770481 -20.905727 -27.368395 3.00000000
-20.368414 -2.222949 -21.583866 3.00000000
8.917948 -21.867348 -16.565905 3.00000000
29.022654 -11.282426 -55.587280 3.00000000
34.507923 10.616705 -49.041286 3.00000000
-5.584298 31.596584 1.299887 3.00000000
25.611168 27.145275 -47.291279 3.00000000
-4.277644 32.193012 -23.993465 3.00000000
27.868975 24.864586 -31.206873 3.00000000
9.273816 34.278847 -34.471840 3.00000000
-19.687799 16.349789 -34.833134 3.00000000
8.149054 -21.915655 -51.272118 3.00000000
17.831066 32.110897 -42.915375 3.00000000
32.223595 18.281439 -13.165896 3.00000000
-15.340060 -11.660899 -25.219721 3.00000000
1.942085 -21.804232 -39.699810 3.00000000
-5.687815 31.548714 -11.285355 3.00000000
27.722998 25.022137 -46.283421 3.00000000
23.239973 29.044926 -22.671490 3.00000000
9.355194 34.273560 -2.794499 3.00000000
2.316693 -21.862411 -23.005705 3.00000000
9.635314 34.248707 -5.656729 3.00000000
-21.307026 10.231738 -8.358852 3.00000000
5.699323 -22.069572 -56.234249 3.00000000
-13.040684 -14.186076 -46.417847 3.00000000
28.523905 -11.891446 -1.956994 3.00000000
-14.060018 25.340755 -40.691929 3.00000000
-0.949558 33.333939 -42.106804 3.00000000
20.254829 -18.728439 -26.483158 3.00000000
14.665202 -21.045509 2.951632 3.00000000
12.251535 -21.634281 -21.970816 3.00000000
-11.502065 27.774992 -55.114975 3.00000000
13.218000 33.618824 -46.815361 3.00000000
-15.851676 -11.024639 -32.397591 3.00000000
22.990471 -17.024698 -31.009108 3.00000000
19.816654 31.171644 -25.510281 3.00000000
-17.493881 -8.597813 -8.381627 3.00000000
23.023699 -17.000895 -53.193924 3.00000000
-19.206629 -5.318589 -12.410244 3.00000000
31.850721 -6.858285 -47.615486 3.00000000
12.741119 -21.540207 -30.754353 3.00000000
-14.693860 -12.452727 -22.658531 3.00000000
-5.305472 31.725521 -4.821159 3.00000000
29.592291 22.705996 -47.692490 3.00000000
21.761106 30.042583 -19.639099 3.00000000
33.460243 -3.048341 -37.730713 3.00000000
30.191563 21.869473 -50.960426 3.00000000
34.526649 10.318637 -60.492020 3.00000000
27.081402 25.714602 -3.230069 3.00000000
6.562048 34.183861 -58.361389 3.00000000
34.676838 7.928072 -13.351856 3.00000000
-14.541382 24.818117 -17.358921 3.00000000
33.621719 14.786505 -5.925535 3.00000000
8.316523 -21.905134 -43.127831 3.00000000
30.791710 20.912125 -25.429075 3.00000000
-3.751451 32.397285 -44.563435 3.00000000
-9.352456 29.413406 -23.585430 3.00000000
20.585676 -18.549414 -6.103957 3.00000000
33.439949 -3.109408 -41.493256 3.00000000
34.650806 8.342401 -43.069653 3.00000000
-18.523399 18.964500 -23.330830 3.00000000
22.853752 -17.122639 -57.841961 3.00000000
-9.817345 29.080379 -20.154320 3.00000000
-7.471065 -18.401558 -52.141502 3.00000000
-5.557127 -19.408543 -21.150320 3.00000000
-20.979671 0.669058 -10.951517 3.00000000
-15.861524 23.195044 -32.222900 3.00000000
29.575954 -10.531480 -60.088974 3.00000000
-19.445276 16.950556 -45.600620 3.00000000
-16.486565 22.346706 -46.683098 3.00000000
-18.700689 18.594177 -32.118462 3.00000000
33.291214 -3.556965 -31.762522 3.00000000
31.555445 -7.395882 -24.001541 3.00000000
-16.177481 -10.569847 -5.997444 3.00000000
0.631941 33.738029 -17.335648 3.00000000
32.254166 -6.015582 -40.104733 3.00000000
-16.164778 22.783453 -10.330077 3.00000000
19.970394 31.085779 -7.965631 3.00000000
-0.946502 33.334747 -45.485100 3.00000000
-11.887455 27.460472 -23.448118 3.00000000
-20.796175 12.783579 -3.338786 3.00000000
25.972965 26.800953 -0.656398 3.00000000
34.437000 11.568266 -32.195587 3.00000000
8.705310 34.315769 -19.247086 3.00000000
-7.000146 -18.664551 -25.559656 3.00000000
30.453625 -9.249805 -33.249405 3.00000000
-7.284708 -18.505632 -28.356998 3.00000000
-21.456993 6.909670 -23.079439 3.00000000
-21.016375 1.148930 -49.663788 3.00000000
33.531246 -2.834684 -44.143646 3.00000000
34.394176 0.313102 -12.934487 3.00000000
-12.548811 -14.654200 -19.146782 3.00000000
-13.575890 -13.662424 -60.784229 3.00000000
34.677086 1.958782 -19.599718 3.00000000
-2.974112 32.699059 -19.322252 3.00000000
23.144129 -16.914623 -27.869108 3.00000000
6.758992 34.197544 -1.386065 3.00000000
-21.353193 5.552573 -56.677006 3.00000000
19.132456 -19.317247 -30.834394 3.00000000
15.944428 32.836273 -19.204323 3.00000000
12.856063 -21.518120 -4.121344 3.00000000
-10.405112 -16.452534 -49.869911 3.00000000
23.735842 -16.490744 0.671680 3.00000000
31.918591 18.917763 -27.638834 3.00000000
10.603886 -21.761419 -1.647483 3.00000000
19.544287 -19.112925 -23.498655 3.00000000
-17.137196 -9.168226 1.971090 3.00000000
-16.859442 -9.612415 -27.776686 3.00000000
32.223907 -6.078777 -17.289242 3.00000000
-20.966450 12.109105 -10.958857 3.00000000
26.190292 -14.400142 -39.728661 3.00000000
25.138248 -15.361138 -52.007553 3.00000000
34.489922 10.903204 -1.440349 3.00000000
31.978024 18.807924 -15.953558 3.00000000
4.679576 -22.119293 -43.816486 3.00000000
9.747597 34.233761 -56.992298 3.00000000
-20.550520 13.756643 -50.011051 3.00000000
-13.459236 -13.787733 3.380577 3.00000000
1.645756 -21.745657 -59.097984 3.00000000
16.375397 -20.489891 -55.348728 3.00000000
32.906918 -4.528529 -25.663563 3.00000000
-20.806637 12.742140 -7.230198 3.00000000
31.533890 -7.434476 -36.274574 3.00000000
-20.982468 0.705602 -17.654354 3.00000000
29.520037 22.806856 -59.371124 3.00000000
-9.856670 -16.856632 -55.289509 3.00000000
3.965324 -22.072901 -12.020076 3.00000000
34.526505 10.320914 -45.322975 3.00000000
6.877916 34.205807 -48.613483 3.00000000
-5.775879 -19.303806 -10.840378 3.00000000
-7.266588 30.718744 -25.198353 3.00000000
-20.658129 13.330394 -16.784893 3.00000000
6.778801 -22.001749 -29.626366 3.00000000
24.850319 27.790594 -27.499294 3.00000000
14.609533 -21.060211 -15.632524 3.00000000
20.826269 -18.419228 2.731412 3.00000000
25.320530 -15.206030 -47.118629 3.00000000
3.663989 -22.041780 2.605060 3.00000000
9.432272 34.268555 -46.717899 3.00000000
34.685047 7.797408 -48.237015 3.00000000
11.180953 -21.725163 -18.129545 3.00000000
26.173668 -14.415545 0.457591 3.00000000
-21.276569 4.550776 -12.112645 3.00000000
0.294084 33.662411 -32.314724 3.00000000
7.757621 34.266918 -8.390178 3.00000000
-7.523966 -18.372013 -22.699297 3.00000000
-19.993713 15.533344 -55.507874 3.00000000
34.560291 9.783162 -4.830160 3.00000000
17.090155 32.409985 -24.736671 3.00000000
25.339167 -15.188762 -16.822399 3.00000000
1.367897 33.823029 -34.902660 3.00000000
-21.279301 4.586470 2.779756 3.00000000
-9.401624 -17.191916 -2.425447 3.00000000
31.762711 -7.024770 -10.739068 3.00000000
-19.617342 -4.327320 -4.175549 3.00000000
-3.299778 32.572632 -51.073772 3.00000000
31.216511 20.215288 2.719990 3.00000000
27.622269 25.130854 -28.241585 3.00000000
-18.953539 18.066032 -15.822528 3.00000000
23.631721 -16.565332 -60.382473 3.00000000
24.469452 28.109978 -37.270889 3.00000000
2.762935 -21.921835 -18.040749 3.00000000
33.943031 13.649187 -18.727758 3.00000000
27.800453 -12.754169 -29.793562 3.00000000
12.723326 -21.543627 -46.418785 3.00000000
-10.808333 -16.155437 -20.763315 3.00000000
-6.580946 31.089752 -36.076031 3.00000000
-19.784742 -3.896100 -60.647549 3.00000000
-7.504615 -18.382820 -56.265419 3.00000000
-15.048113 24.213852 -44.745487 3.00000000
-20.333591 14.510565 -29.968460 3.00000000
20.384909 -18.658052 -36.306774 3.00000000
-16.052694 22.935577 -22.801167 3.00000000
23.978615 -16.307526 -38.909534 3.00000000
7.287102 -21.969812 -25.068670 3.00000000
-2.466802 32.881218 -54.958900 3.00000000
-1.034617 -21.121622 3.392936 3.00000000
15.735574 32.905678 -34.538567 3.00000000
34.829765 5.493953 -43.205109 3.00000000
-7.247255 30.729204 -20.108599 3.00000000
0.360999 33.680084 -4.026810 3.00000000
34.720482 7.233394 -52.933640 3.00000000
-14.794736 24.515999 -47.296185 3.00000000
29.472963 -10.671259 -26.648346 3.00000000
34.132763 12.930838 -10.332042 3.00000000
34.219715 12.601622 -58.704853 3.00000000
33.830624 14.074785 -22.370232 3.00000000
22.916407 29.283339 -28.995756 3.00000000
34.853336 5.118750 3.723342 3.00000000
-15.229697 -11.796134 -47.265614 3.00000000
-13.908436 25.500029 -25.456577 3.00000000
3.457140 33.968166 -1.713321 3.00000000
-13.048755 -14.178395 -42.669399 3.00000000
27.350689 -13.227732 -11.174163 3.00000000
-20.608095 13.528582 -57.393360 3.00000000
34.817665 5.686539 -0.611131 3.00000000
32.466358 17.756466 -7.073189 3.00000000
