34.674652 7.962886 -26.868723 25.00000000
34.498322 10.769529 -30.253979 25.00000000
34.796616 6.021561 -20.305952 25.00000000
34.675900 7.943017 -40.339951 25.00000000
34.829285 5.501591 -55.996761 25.00000000
34.761520 6.580214 -11.709296 25.00000000
34.581600 9.443968 -14.898361 25.00000000
34.607437 9.032746 -17.981281 25.00000000
34.654415 8.284967 -10.466049 25.00000000
34.700890 7.545290 -8.157158 25.00000000
34.695518 7.630774 -21.866114 25.00000000
34.858734 5.032841 -40.691589 25.00000000
34.668724 8.057242 -22.237144 25.00000000
34.870213 4.850155 -28.083237 25.00000000
34.569256 9.640467 -34.967201 25.00000000
34.645836 8.421522 -59.862164 25.00000000
34.729507 7.089733 -57.028622 25.00000000
34.756550 6.659307 -18.707973 25.00000000
34.870296 4.848800 3.865551 25.00000000
34.578629 9.491251 -19.013630 25.00000000
34.696247 7.619125 -41.536964 25.00000000
34.748547 6.786725 -15.203102 25.00000000
34.464230 11.312162 -11.514317 25.00000000
34.863552 4.956184 -25.635988 25.00000000
34.897881 4.409744 -20.126610 25.00000000
34.575710 9.537754 -57.698963 25.00000000
34.513847 10.522413 -22.803749 25.00000000
34.768295 6.472329 2.565887 25.00000000
34.803413 5.913418 -46.354656 25.00000000
34.643818 8.453692 -27.121311 25.00000000
34.780926 6.271324 -27.975344 25.00000000
34.651737 8.327610 -54.582615 25.00000000
34.692127 7.684726 -41.005520 25.00000000
34.722794 7.196630 -40.544224 25.00000000
34.744865 6.845272 -34.833759 25.00000000
34.678207 7.906316 -56.451275 25.00000000
34.662693 8.153255 -32.623207 25.00000000
34.698761 7.579156 -46.897903 25.00000000
34.458061 11.410337 -42.328388 25.00000000
34.567127 9.674319 -59.773800 25.00000000
34.584995 9.389913 -42.479912 25.00000000
34.683613 7.820243 0.882724 25.00000000
34.607094 9.038217 -47.460087 25.00000000
34.796520 6.023133 -53.741886 25.00000000
34.454994 11.459135 -14.773703 25.00000000
34.765419 6.518157 -57.105988 25.00000000
34.457764 11.415056 -56.864521 25.00000000
34.905983 4.280810 -17.301605 25.00000000
34.531292 10.244735 -28.586643 25.00000000
34.846992 5.219752 -43.314484 25.00000000
34.854053 5.107337 -39.637943 25.00000000
34.648811 8.374157 0.313290 25.00000000
34.800301 5.962939 -7.991104 25.00000000
34.805897 5.873889 -24.742493 25.00000000
34.822868 5.603700 -15.775620 25.00000000
34.753475 6.708238 -47.773365 25.00000000
34.626884 8.723205 -14.349051 25.00000000
34.652660 8.312926 -58.815716 25.00000000
34.572430 9.589967 -3.123541 25.00000000
34.495205 10.819126 -6.698804 25.00000000
34.575932 9.534241 -11.936162 25.00000000
34.561279 9.767429 3.817305 25.00000000
34.751644 6.737401 -18.144121 25.00000000
34.871166 4.834944 -26.895279 25.00000000
34.540775 10.093780 -22.090155 25.00000000
34.895863 4.441900 3.258979 25.00000000
34.800003 5.967672 -59.944241 25.00000000
34.527699 10.301936 -25.630627 25.00000000
34.526829 10.315760 1.997364 25.00000000
34.719574 7.247882 -1.190917 25.00000000
34.759468 6.612880 -6.233316 25.00000000
34.802925 5.921176 -27.001713 25.00000000
34.909126 4.230773 -52.783039 25.00000000
34.884357 4.624980 -11.657036 25.00000000
34.718876 7.258946 -0.307506 25.00000000
34.839558 5.338079 -14.445258 25.00000000
34.862762 4.968743 -13.773938 25.00000000
34.637127 8.560176 -0.337453 25.00000000
34.880322 4.689256 -22.321365 25.00000000
34.593887 9.248425 -27.770573 25.00000000
34.753471 6.708294 -51.177139 25.00000000
34.615562 8.903399 -51.954739 25.00000000
34.906044 4.279830 -60.557438 25.00000000
34.621017 8.816565 -5.620409 25.00000000
34.455566 11.450036 -5.321231 25.00000000
34.611263 8.971823 -43.937378 25.00000000
34.620762 8.820669 -60.272690 25.00000000
34.770447 6.438151 -1.766582 25.00000000
34.905685 4.285530 -56.087425 25.00000000
34.624332 8.763844 -30.352669 25.00000000
34.826721 5.542422 -13.594331 25.00000000
34.566254 9.688226 -35.905132 25.00000000
34.542217 10.070845 -58.597210 25.00000000
34.495300 10.817593 -43.004078 25.00000000
34.635887 8.579904 -4.439601 25.00000000
34.454140 11.472798 -53.563412 25.00000000
34.795490 6.039519 -25.545921 25.00000000
34.613991 8.928406 -15.969828 25.00000000
34.566319 9.687210 -40.937691 25.00000000
34.762203 6.569299 -14.553418 25.00000000
34.728889 7.099592 -31.949808 25.00000000
34.459015 11.395187 -6.664506 25.00000000
34.910538 4.208269 -22.712248 25.00000000
34.654984 8.275949 -24.825846 25.00000000
34.843185 5.280370 -42.186848 25.00000000
34.460110 11.377727 -15.729346 25.00000000
34.654217 8.288166 -39.891769 25.00000000
34.668327 8.063534 1.377182 25.00000000
34.660587 8.186768 -46.023182 25.00000000
34.906399 4.274204 -42.914787 25.00000000
34.766098 6.507357 -32.043308 25.00000000
34.789742 6.130991 -52.630844 25.00000000
34.829185 5.503201 -17.629032 25.00000000
34.761940 6.573506 -45.161400 25.00000000
34.833874 5.428569 -26.190016 25.00000000
34.907715 4.253246 -31.987604 25.00000000
34.693130 7.668769 -18.050367 25.00000000
34.776779 6.337347 -39.453529 25.00000000
34.679981 7.878078 -47.828785 25.00000000
34.805904 5.873732 -8.672611 25.00000000
34.604393 9.081198 -46.607365 25.00000000
34.747314 6.806292 -53.769096 25.00000000
34.769012 6.460917 -60.491257 25.00000000
34.904736 4.300625 -10.087356 25.00000000
34.797581 6.006257 -41.770008 25.00000000
34.692902 7.672426 -55.299690 25.00000000
34.544231 10.038758 -51.206387 25.00000000
34.790051 6.126071 -34.281399 25.00000000
34.626980 8.721702 -19.420462 25.00000000
34.692463 7.679370 -32.156227 25.00000000
34.565933 9.693355 -46.998268 25.00000000
34.473068 11.171467 -27.458023 25.00000000
34.886997 4.582954 -35.527229 25.00000000
34.832584 5.449045 -52.608891 25.00000000
34.658085 8.226583 -36.624619 25.00000000
34.705261 7.475668 -4.737681 25.00000000
34.892525 4.494981 -51.461102 25.00000000
34.470013 11.220145 -3.202804 25.00000000
34.636906 8.563668 -33.851303 25.00000000
34.675640 7.947138 -29.992191 25.00000000
34.456711 11.431863 -43.415684 25.00000000
34.678230 7.905917 -20.108627 25.00000000
34.759918 6.605706 -20.960054 25.00000000
34.480186 11.058161 -16.743776 25.00000000
34.885460 4.607441 -7.591253 25.00000000
34.561466 9.764448 -39.727818 25.00000000
34.769505 6.453147 -8.386595 25.00000000
34.742756 6.878890 -21.680702 25.00000000
34.600475 9.143535 -29.076923 25.00000000
34.696331 7.617840 -59.392605 25.00000000
34.570217 9.625191 -26.414223 25.00000000
34.841026 5.314677 -41.264378 25.00000000
34.559494 9.795838 -12.801446 25.00000000
34.658871 8.214057 -15.814704 25.00000000
34.652458 8.316131 -12.719241 25.00000000
34.705193 7.476767 -12.098523 25.00000000
34.781593 6.260713 -19.144575 25.00000000
34.672478 7.997518 -38.669495 25.00000000
34.909859 4.219088 -41.586685 25.00000000
34.872948 4.806591 -21.775492 25.00000000
34.786060 6.189591 3.781421 25.00000000
34.694080 7.653659 -57.119160 25.00000000
34.489002 10.917837 1.899839 25.00000000
34.467106 11.266404 -38.539566 25.00000000
34.518284 10.451767 -41.297283 25.00000000
34.623634 8.774901 -52.990715 25.00000000
34.789795 6.130131 -16.541550 25.00000000
34.572788 9.584255 -18.312725 25.00000000
34.498264 10.770453 -22.204206 25.00000000
34.473091 11.171089 -37.432739 25.00000000
34.820415 5.642797 -39.138920 25.00000000
34.523155 10.374265 -37.143085 25.00000000
34.721649 7.214846 -2.781139 25.00000000
34.535263 10.181532 -23.791101 25.00000000
34.744972 6.843623 -22.935587 25.00000000
34.729572 7.088735 -24.529694 25.00000000
34.793388 6.072954 -35.403751 25.00000000
34.714931 7.321760 -27.338842 25.00000000
34.522045 10.391882 2.599109 25.00000000
34.857960 5.045151 -23.391594 25.00000000
34.644226 8.447170 -56.111946 25.00000000
34.786407 6.184076 -28.699503 25.00000000
34.736187 6.983429 1.920830 25.00000000
34.676189 7.938379 -25.538403 25.00000000
34.905228 4.292795 -15.887552 25.00000000
34.614311 8.923287 -21.921078 25.00000000
34.501160 10.724361 -25.026276 25.00000000
34.574005 9.564863 -16.137039 25.00000000
34.811535 5.784142 -6.294211 25.00000000
34.457256 11.423164 -45.380745 25.00000000
34.625046 8.752474 -13.283639 25.00000000
34.849461 5.180455 -24.967377 25.00000000
34.517414 10.465619 -24.419512 25.00000000
34.748779 6.782987 -37.825100 25.00000000
34.777012 6.333619 -13.001474 25.00000000
34.891369 4.513382 -4.741878 25.00000000
34.865700 4.921957 -14.928996 25.00000000
34.597626 9.188907 -50.270950 25.00000000
34.507774 10.619080 -17.456379 25.00000000
34.579578 9.476179 1.428816 25.00000000
34.481796 11.032563 -54.636024 25.00000000
34.810734 5.796857 -20.937525 25.00000000
34.578342 9.495826 -50.878277 25.00000000
34.711185 7.381373 3.843881 25.00000000
34.544823 10.029371 -52.195107 25.00000000
34.763226 6.553032 -25.772522 25.00000000
34.882992 4.646740 -13.284102 25.00000000
34.806751 5.860277 -23.165625 25.00000000
34.822811 5.604632 -40.697182 25.00000000
34.909550 4.224020 -21.964626 25.00000000
34.731518 7.057744 -15.923243 25.00000000
34.631824 8.644564 -37.075558 25.00000000
34.538910 10.123503 -1.568817 25.00000000
34.460011 11.379329 -55.270233 25.00000000
34.569180 9.641696 -56.045788 25.00000000
34.632996 8.625899 -50.419205 25.00000000
34.660610 8.186398 -14.646318 25.00000000
34.768780 6.464669 -15.730598 25.00000000
34.714863 7.322862 -7.640233 25.00000000
34.586040 9.373288 -37.740959 25.00000000
34.606823 9.042491 -26.733208 25.00000000
34.487267 10.945466 -21.532215 25.00000000
34.750511 6.755397 -27.467962 25.00000000
34.456146 11.440826 -34.984966 25.00000000
34.486336 10.960305 -34.257751 25.00000000
34.601627 9.125213 -38.683876 25.00000000
34.866943 4.902174 -52.260265 25.00000000
34.757782 6.639707 -0.342321 25.00000000
34.885815 4.601842 -49.558945 25.00000000
34.871029 4.837161 -3.891954 25.00000000
34.509205 10.596281 -39.099503 25.00000000
34.541851 10.076663 -5.189593 25.00000000
34.734009 7.018124 -44.780743 25.00000000
34.624134 8.766956 -24.205591 25.00000000
34.833359 5.436755 -37.228039 25.00000000
34.844730 5.255741 -27.279320 25.00000000
34.751904 6.733287 -40.003986 25.00000000
34.700489 7.551626 -18.808088 25.00000000
34.504421 10.672419 -58.639355 25.00000000
34.702286 7.523049 -20.523224 25.00000000
34.900764 4.363826 -50.814030 25.00000000
34.457466 11.419824 -52.812813 25.00000000
34.829838 5.492817 -2.792541 25.00000000
34.513962 10.520587 -32.364189 25.00000000
34.769829 6.447965 -33.844849 25.00000000
34.561493 9.764046 -33.070885 25.00000000
34.839485 5.339202 -53.257183 25.00000000
34.585110 9.388114 -29.901253 25.00000000
34.813000 5.760789 -49.405380 25.00000000
34.530270 10.261025 -54.281349 25.00000000
34.745125 6.841150 -20.477461 25.00000000
34.799431 5.976757 -50.722542 25.00000000
34.674721 7.961766 -33.832844 25.00000000
34.747841 6.797924 -49.880749 25.00000000
34.522724 10.381111 -27.984840 25.00000000
34.832741 5.446614 -1.298528 25.00000000
34.869625 4.859524 -37.514172 25.00000000
34.473064 11.171552 3.214549 25.00000000
34.501423 10.720166 -47.022129 25.00000000
34.763176 6.553831 -43.045208 25.00000000
34.501572 10.717820 -1.837322 25.00000000
34.754402 6.693514 -46.644691 25.00000000
34.460693 11.368468 -13.478385 25.00000000
34.586407 9.367472 -24.017948 25.00000000
34.464436 11.308883 -1.527017 25.00000000
34.596886 9.200700 3.253386 25.00000000
34.908443 4.241637 -40.480022 25.00000000
34.678516 7.901361 -15.283824 25.00000000
34.825562 5.560847 -30.983568 25.00000000
34.858158 5.041997 0.149015 25.00000000
34.757534 6.643650 -5.364888 25.00000000
34.830536 5.481669 -58.833977 25.00000000
34.596020 9.214484 -43.212688 25.00000000
34.749393 6.773211 -9.668221 25.00000000
34.709030 7.415675 -49.221287 25.00000000
34.876301 4.753245 -56.991081 25.00000000
34.458801 11.398541 -26.564743 25.00000000
34.830021 5.489874 -34.477245 25.00000000
34.838600 5.353338 -6.781137 25.00000000
34.760715 6.593004 -41.615627 25.00000000
34.453793 11.478291 -23.782200 25.00000000
34.456699 11.432049 -7.891401 25.00000000
34.512360 10.546074 -19.149157 25.00000000
34.604061 9.086479 -53.716141 25.00000000
34.904774 4.300073 -7.029133 25.00000000
34.771793 6.416700 -35.913891 25.00000000
34.658382 8.221834 -28.668064 25.00000000
34.908672 4.237998 -27.187246 25.00000000
34.716461 7.297377 -56.098927 25.00000000
34.632244 8.637847 -51.080219 25.00000000
34.871323 4.832480 -18.487160 25.00000000
34.602879 9.105305 -23.041906 25.00000000
34.564213 9.720747 -51.700199 25.00000000
34.622318 8.795894 -2.158486 25.00000000
34.604759 9.075384 -7.353639 25.00000000
34.775223 6.362128 -19.840921 25.00000000
34.595268 9.226394 -52.491741 25.00000000
34.571579 9.603476 -28.745037 25.00000000
34.505722 10.651712 -37.781387 25.00000000
34.871044 4.836896 -15.948529 25.00000000
34.590504 9.302299 -45.301105 25.00000000
34.501678 10.716090 -5.968615 25.00000000
34.487556 10.940860 1.012341 25.00000000
34.855217 5.088830 1.614477 25.00000000
34.480953 11.045995 -33.308270 25.00000000
34.662949 8.149171 -20.625410 25.00000000
34.735321 6.997230 -8.377428 25.00000000
34.818417 5.674616 -5.606477 25.00000000
34.712109 7.366682 -53.448692 25.00000000
34.808910 5.825912 -0.799261 25.00000000
34.754883 6.685884 -25.209890 25.00000000
34.486343 10.960208 -43.855965 25.00000000
34.627201 8.718174 -48.686615 25.00000000
34.556698 9.840367 0.462332 25.00000000
34.542164 10.071702 -27.459915 25.00000000
34.725761 7.149392 -46.239002 25.00000000
34.458004 11.411253 -41.144627 25.00000000
34.748039 6.794786 -56.565426 25.00000000
34.869560 4.860527 -58.902378 25.00000000
34.531853 10.235814 -40.168098 25.00000000
34.842640 5.289045 -2.013174 25.00000000
34.665306 8.111638 -6.694617 25.00000000
34.513371 10.530001 -10.195622 25.00000000
34.590408 9.303758 -31.702995 25.00000000
34.869461 4.862092 -54.599743 25.00000000
34.818104 5.679555 -12.287174 25.00000000
34.719357 7.251310 -29.251740 25.00000000
34.618446 8.857520 -39.863083 25.00000000
34.484821 10.984427 -41.595123 25.00000000
34.564697 9.713012 -23.484106 25.00000000
34.908215 4.245245 -50.169376 25.00000000
34.909546 4.224081 -3.461993 25.00000000
34.740929 6.907981 3.352955 25.00000000
34.454971 11.459558 -46.066410 25.00000000
34.580456 9.462207 -24.867680 25.00000000
34.697727 7.595577 -45.832603 25.00000000
34.835651 5.400289 2.631411 25.00000000
34.790321 6.121792 -43.781330 25.00000000
34.660500 8.188162 -55.588219 25.00000000
34.563766 9.727810 2.702788 25.00000000
34.819233 5.661604 -32.154537 25.00000000
34.529884 10.267134 -13.410358 25.00000000
34.828922 5.507339 -44.799988 25.00000000
34.575474 9.541494 -58.378128 25.00000000
34.689228 7.730867 0.182262 25.00000000
34.865910 4.918670 2.280546 25.00000000
34.715008 7.320541 -25.683268 25.00000000
34.515530 10.495604 -29.723394 25.00000000
34.846546 5.226832 -9.132180 25.00000000
34.626656 8.726862 -45.940781 25.00000000
34.541862 10.076486 -0.941817 25.00000000
34.753033 6.715297 -32.772533 25.00000000
34.880001 4.694325 -38.806835 25.00000000
34.691586 7.693338 -1.564830 25.00000000
34.883408 4.640097 -19.402781 25.00000000
34.883327 4.641383 -27.544945 25.00000000
34.586338 9.368565 -21.132929 25.00000000
34.522160 10.390117 -12.838908 25.00000000
34.573093 9.579400 -8.762620 25.00000000
34.876160 4.755502 -0.288001 25.00000000
34.485851 10.967986 -28.671284 25.00000000
34.893829 4.474263 -16.600948 25.00000000
34.513729 10.524251 -11.141553 25.00000000
34.460197 11.376371 0.158113 25.00000000
34.487434 10.942831 -16.077166 25.00000000
34.666119 8.098732 -49.349773 25.00000000
34.621262 8.812710 -54.302727 25.00000000
34.888836 4.553742 -28.676161 25.00000000
34.905701 4.285312 -31.185055 25.00000000
34.786777 6.178166 -48.891705 25.00000000
34.647732 8.391367 -35.137672 25.00000000
34.833427 5.435679 -48.115334 25.00000000
34.595692 9.219688 -51.456432 25.00000000
34.666687 8.089657 -8.191269 25.00000000
34.724964 7.162028 -52.864601 25.00000000
34.660656 8.185671 -9.760884 25.00000000
34.626869 8.723463 -55.053520 25.00000000
34.603413 9.096808 -1.684189 25.00000000
34.561958 9.756620 -25.614862 25.00000000
34.626312 8.732315 -9.562669 25.00000000
34.699032 7.574818 -15.779224 25.00000000
34.656521 8.251458 -53.890278 25.00000000
34.501682 10.716054 -2.606827 25.00000000
34.863323 4.959783 -51.165768 25.00000000
34.468189 11.249138 -10.897217 25.00000000
34.585201 9.386665 -54.389652 25.00000000
34.787090 6.173170 -48.139706 25.00000000
34.835709 5.399335 -58.227757 25.00000000
34.710896 7.385991 -8.992020 25.00000000
34.818974 5.665707 -55.235161 25.00000000
34.905167 4.293797 -46.996807 25.00000000
34.652931 8.308614 -18.460835 25.00000000
34.752354 6.726090 -54.468899 25.00000000
34.685173 7.795406 -0.550700 25.00000000
34.515888 10.489891 -43.435856 25.00000000
34.538895 10.123732 -5.912804 25.00000000
34.665821 8.103446 -4.785596 25.00000000
34.706268 7.459672 -38.581490 25.00000000
34.628193 8.702364 3.707869 25.00000000
34.549767 9.950707 -29.828794 25.00000000
34.593464 9.255181 0.734217 25.00000000
34.625027 8.752781 -37.636517 25.00000000
34.648430 8.380255 -51.539795 25.00000000
34.718800 7.260201 -12.761363 25.00000000
34.538700 10.126835 -2.380188 25.00000000
34.524719 10.349348 -50.151173 25.00000000
34.504990 10.663385 -4.050624 25.00000000
34.872120 4.819821 -41.576565 25.00000000
34.709335 7.410812 -31.021650 25.00000000
34.727448 7.122541 -43.432533 25.00000000
34.812981 5.761112 -57.322105 25.00000000
34.894073 4.470327 -39.511642 25.00000000
34.839664 5.336398 -54.058868 25.00000000
34.902897 4.329894 -8.402390 25.00000000
34.477901 11.094571 -19.529362 25.00000000
34.908695 4.237642 -26.510349 25.00000000
34.711334 7.378983 -16.780846 25.00000000
34.545776 10.014213 -50.615513 25.00000000
34.813663 5.750255 -36.001606 25.00000000
34.869385 4.863328 -34.621376 25.00000000
34.692345 7.681257 -33.060253 25.00000000
34.488644 10.923562 -8.417966 25.00000000
34.632038 8.641186 -6.922210 25.00000000
34.891087 4.517925 -21.277187 25.00000000
34.847931 5.204789 -32.809296 25.00000000
34.524590 10.351440 -45.227844 25.00000000
34.719612 7.247218 -32.589394 25.00000000
34.641209 8.495205 -38.164471 25.00000000
34.636993 8.562287 -20.086676 25.00000000
34.491795 10.873406 -0.314331 25.00000000
34.454651 11.464607 -3.897640 25.00000000
34.587452 9.350829 -14.343165 25.00000000
34.629704 8.678344 -28.103046 25.00000000
34.909695 4.221712 -56.804607 25.00000000
34.899372 4.386041 -41.052841 25.00000000
34.837288 5.374198 -28.984119 25.00000000
34.845493 5.243626 -19.875265 25.00000000
34.814056 5.743986 -22.458481 25.00000000
34.522446 10.385525 0.968167 25.00000000
34.741314 6.901805 -26.832418 25.00000000
34.900661 4.365515 -34.948967 25.00000000
34.817280 5.692709 0.489917 25.00000000
34.458660 11.400806 -18.226782 25.00000000
34.651340 8.333937 -47.453896 25.00000000
34.464848 11.302319 -4.578868 25.00000000
34.718731 7.261258 -25.099079 25.00000000
34.839218 5.343513 -40.197075 25.00000000
34.870781 4.841102 -30.663511 25.00000000
34.479618 11.067209 -29.721014 25.00000000
34.538254 10.133913 -55.673618 25.00000000
34.627487 8.713573 -31.336842 25.00000000
34.656693 8.248749 -44.249107 25.00000000
34.646133 8.416819 -40.588554 25.00000000
34.741737 6.895108 -29.931896 25.00000000
34.909981 4.217188 -18.115307 25.00000000
34.551304 9.926240 -36.566372 25.00000000
34.470112 11.218573 -49.765396 25.00000000
34.486904 10.951271 -15.355899 25.00000000
34.857994 5.044648 0.753594 25.00000000
34.726315 7.140602 -59.112770 25.00000000
34.794266 6.058971 -10.741931 25.00000000
34.498043 10.773950 -42.099907 25.00000000
34.508957 10.600220 -48.330467 25.00000000
34.534199 10.198444 -47.463482 25.00000000
34.470570 11.211282 -60.125576 25.00000000
34.602768 9.107035 -36.119896 25.00000000
34.481499 11.037303 -9.075743 25.00000000
34.900482 4.368367 2.238018 25.00000000
34.580975 9.453927 -58.947594 25.00000000
34.697247 7.603215 -11.521993 25.00000000
34.686089 7.780827 -54.357006 25.00000000
34.766621 6.499040 -53.227062 25.00000000
34.604340 9.082055 -40.565128 25.00000000
34.582146 9.435334 -4.937349 25.00000000
34.482311 11.024377 -12.006162 25.00000000
34.765865 6.511030 -2.950240 25.00000000
34.737801 6.957774 -6.689300 25.00000000
34.677071 7.924416 -53.351643 25.00000000
34.870544 4.844868 -1.195102 25.00000000
34.689533 7.726041 -43.422874 25.00000000
34.576080 9.531815 -22.276863 25.00000000
34.833984 5.426787 -21.838820 25.00000000
34.712116 7.366573 -33.786156 25.00000000
34.710533 7.391751 -28.038649 25.00000000
34.534084 10.200280 -48.843918 25.00000000
34.645824 8.421703 -7.554238 25.00000000
34.904892 4.298137 -1.154639 25.00000000
34.572811 9.583893 -6.860083 25.00000000
34.510990 10.567888 -23.377142 25.00000000
34.708527 7.423702 -60.021072 25.00000000
34.769947 6.446060 0.480108 25.00000000
34.788849 6.145244 -26.264830 25.00000000
34.840805 5.318244 -45.340244 25.00000000
34.746445 6.820153 -10.223555 25.00000000
34.688751 7.738455 -61.011330 25.00000000
34.749134 6.777352 -7.863787 25.00000000
34.726768 7.133365 -33.155308 25.00000000
34.641994 8.482657 -41.620441 25.00000000
34.619427 8.841883 -24.987125 25.00000000
34.841213 5.311758 -10.576804 25.00000000
34.770374 6.439293 -59.619282 25.00000000
34.573753 9.568865 -32.321026 25.00000000
34.792534 6.086586 -40.426918 25.00000000
34.600147 9.148791 -0.051226 25.00000000
34.906384 4.274418 -36.596024 25.00000000
34.629551 8.680761 -20.895151 25.00000000
34.902622 4.334277 -48.956490 25.00000000
34.804153 5.901641 -39.804619 25.00000000
34.455341 11.453617 -25.037933 25.00000000
34.839642 5.336724 -35.527660 25.00000000
34.875290 4.769327 -24.409203 25.00000000
34.659050 8.211208 -13.426802 25.00000000
34.855183 5.089380 3.292738 25.00000000
34.875862 4.760212 -8.738201 25.00000000
34.553391 9.893011 -10.033471 25.00000000
34.886982 4.583247 -23.736307 25.00000000
34.510872 10.569767 -51.639149 25.00000000
34.567135 9.674252 -53.820435 25.00000000
34.457626 11.417266 -35.526535 25.00000000
34.690208 7.715278 -3.781826 25.00000000
34.742542 6.882273 -31.365395 25.00000000
34.457615 11.417442 -20.037380 25.00000000
34.623756 8.773000 -26.199083 25.00000000
34.828293 5.517388 -51.788071 25.00000000
34.733463 7.026806 -58.445923 25.00000000
34.629917 8.674919 -57.305679 25.00000000
34.656956 8.244541 -52.207577 25.00000000
34.608807 9.010913 -33.109947 25.00000000
34.697403 7.600739 -44.633854 25.00000000
34.656017 8.259514 -57.917366 25.00000000
34.506531 10.638869 -35.338531 25.00000000
34.871010 4.837455 -47.100754 25.00000000
34.600517 9.142881 -30.892033 25.00000000
34.627068 8.720275 -18.893581 25.00000000
34.507965 10.616042 -49.493389 25.00000000
34.910667 4.206257 -25.057478 25.00000000
34.464870 11.301993 -24.410133 25.00000000
34.508808 10.602616 -14.040446 25.00000000
34.763737 6.544901 -24.238598 25.00000000
34.707314 7.442985 -40.030277 25.00000000
34.589195 9.323070 -0.649177 25.00000000
34.549747 9.950980 -42.493752 25.00000000
34.867256 4.897188 -60.513691 25.00000000
34.707886 7.433895 -23.939241 25.00000000
34.614883 8.914214 -58.758907 25.00000000
34.456139 11.440941 -2.619287 25.00000000
34.802647 5.925619 -59.178867 25.00000000
34.561783 9.759451 -0.058480 25.00000000
34.509735 10.587826 -27.301029 25.00000000
34.908268 4.244446 -37.125168 25.00000000
34.671864 8.007236 -31.390263 25.00000000
34.500187 10.739842 -56.482868 25.00000000
34.653652 8.297126 -3.360443 25.00000000
34.783039 6.237686 -12.127292 25.00000000
34.686718 7.770822 -52.828632 25.00000000
34.698719 7.579788 -10.859539 25.00000000
34.609344 9.002349 -55.961395 25.00000000
34.674240 7.969400 -16.440926 25.00000000
34.895287 4.451039 -14.491376 25.00000000
34.454475 11.467441 -30.090630 25.00000000
34.742031 6.890399 -12.320607 25.00000000
34.461060 11.362636 -33.752605 25.00000000
34.507645 10.621148 -36.573414 25.00000000
34.556725 9.839901 -11.269460 25.00000000
34.725513 7.153303 -14.407141 25.00000000
34.619797 8.836026 -28.616959 25.00000000
34.468616 11.242352 -22.593405 25.00000000
34.558868 9.805786 -33.810059 25.00000000
34.676254 7.937386 -35.584999 25.00000000
34.694881 7.640920 -13.411125 25.00000000
34.506466 10.639907 -4.847766 25.00000000
34.874111 4.788092 -43.842880 25.00000000
34.591518 9.286101 -4.314169 25.00000000
34.905304 4.291620 -44.979012 25.00000000
34.642494 8.474722 -32.000847 25.00000000
34.610149 8.989590 -34.352673 25.00000000
34.867664 4.890719 -44.667389 25.00000000
34.570541 9.620029 -48.540054 25.00000000
34.532436 10.226507 -36.132710 25.00000000
34.500732 10.731139 -57.914810 25.00000000
34.677116 7.923667 -21.182556 25.00000000
34.544212 10.039072 -14.510206 25.00000000
34.455799 11.446366 -58.867386 25.00000000
34.546467 10.003212 -38.004684 25.00000000
34.555550 9.858624 -29.248775 25.00000000
34.661743 8.168373 -36.072372 25.00000000
34.618488 8.856802 -32.407421 25.00000000
34.836151 5.392317 -30.352243 25.00000000
34.642048 8.481830 -3.885964 25.00000000
34.675014 7.957126 -8.746378 25.00000000
34.906410 4.274010 -32.737759 25.00000000
34.525932 10.330049 -34.816158 25.00000000
34.867027 4.900819 -5.853613 25.00000000
34.714790 7.323972 -54.031952 25.00000000
34.506859 10.633669 -50.876198 25.00000000
34.794922 6.048578 -18.126150 25.00000000
34.649788 8.358666 -60.837730 25.00000000
34.671135 8.018884 -42.058777 25.00000000
34.771130 6.427224 -58.771713 25.00000000
34.758701 6.625046 -0.962036 25.00000000
34.578560 9.492396 -8.203542 25.00000000
34.589466 9.318766 -5.849470 25.00000000
34.499226 10.755168 -53.195358 25.00000000
34.542156 10.071790 -58.025696 25.00000000
34.831051 5.473491 -5.024760 25.00000000
34.617172 8.877753 -1.163795 25.00000000
34.849106 5.186101 -61.034645 25.00000000
34.497017 10.790269 -55.621338 25.00000000
34.902706 4.332942 -18.778540 25.00000000
34.669670 8.042160 -24.283220 25.00000000
34.824574 5.576612 -29.606867 25.00000000
34.546394 10.004344 -48.141933 25.00000000
34.802303 5.931051 -6.945560 25.00000000
34.637779 8.549788 -48.105602 25.00000000
34.866959 4.901919 -2.409868 25.00000000
34.619339 8.843278 -4.933900 25.00000000
34.518505 10.448288 -7.612202 25.00000000
34.464340 11.310378 -51.560509 25.00000000
34.810478 5.800952 -27.557131 25.00000000
34.866756 4.905135 -12.511586 25.00000000
34.798000 5.999556 -31.527452 25.00000000
34.494610 10.828630 -44.501663 25.00000000
34.835930 5.395863 -7.784271 25.00000000
34.799595 5.974177 -43.211735 25.00000000
34.775551 6.356866 -29.973873 25.00000000
34.801296 5.947098 -17.135086 25.00000000
34.832851 5.444838 -42.824627 25.00000000
34.561359 9.766163 -55.246094 25.00000000
34.460133 11.377400 -0.803466 25.00000000
34.744766 6.846876 -13.573691 25.00000000
34.878265 4.721953 -36.173454 25.00000000
34.489712 10.906552 -26.204576 25.00000000
34.800041 5.967031 -14.245116 25.00000000
34.625362 8.747420 -25.586201 25.00000000
34.904606 4.302741 -47.683006 25.00000000
34.567204 9.673115 -30.399469 25.00000000
34.693569 7.661792 -52.180016 25.00000000
34.608459 9.016442 -34.907890 25.00000000
34.660442 8.189048 -11.498604 25.00000000
34.455135 11.456896 -28.105026 25.00000000
34.881245 4.674560 -29.303217 25.00000000
34.792702 6.083883 -0.034248 25.00000000
34.898335 4.402547 -38.070595 25.00000000
34.587471 9.350528 -39.202583 25.00000000
34.902477 4.336609 -33.573086 25.00000000
34.908089 4.247305 -54.020916 25.00000000
34.502209 10.707660 3.514362 25.00000000
34.572372 9.590845 -1.323983 25.00000000
34.552731 9.903520 -17.147200 25.00000000
34.456509 11.435077 -17.560640 25.00000000
34.785946 6.191455 -54.600784 25.00000000
34.721272 7.220808 -19.293409 25.00000000
34.707199 7.444811 -14.860298 25.00000000
34.622772 8.788631 2.770848 25.00000000
34.827477 5.530384 -47.098957 25.00000000
34.759415 6.613742 -38.944977 25.00000000
34.468567 11.243166 -18.803995 25.00000000
34.686481 7.774573 -45.165401 25.00000000
34.619762 8.836544 -56.756817 25.00000000
34.711697 7.373218 -35.427448 25.00000000
34.768692 6.466038 -22.330299 25.00000000
34.752598 6.722251 -35.405357 25.00000000
34.775688 6.354677 -17.611271 25.00000000
34.470654 11.209946 -14.130082 25.00000000
34.863892 4.950788 -3.049857 25.00000000
34.865406 4.926658 -56.305218 25.00000000
34.879074 4.709105 -59.970051 25.00000000
34.746426 6.820473 -43.955978 25.00000000
34.510372 10.577730 -33.670471 25.00000000
34.730984 7.066266 -60.405293 25.00000000
34.671696 8.009927 -26.238375 25.00000000
34.894806 4.458706 1.650071 25.00000000
34.656883 8.245719 -1.124906 25.00000000
34.549480 9.955229 -4.634119 25.00000000
34.673805 7.976343 -60.296181 25.00000000
34.532612 10.223715 -59.121506 25.00000000
34.905098 4.294895 -15.030078 25.00000000
34.456741 11.431364 -7.275357 25.00000000
34.791611 6.101227 -51.923931 25.00000000
34.701744 7.531682 -34.851871 25.00000000
34.631332 8.652374 -38.976254 25.00000000
34.631550 8.648949 -22.538500 25.00000000
34.812748 5.764824 -37.991539 25.00000000
34.523331 10.371472 -38.476055 25.00000000
34.546875 9.996722 -61.104565 25.00000000
34.907700 4.253463 -5.607172 25.00000000
34.645069 8.433757 -29.794102 25.00000000
34.894520 4.463241 -48.350502 25.00000000
34.841366 5.309309 -4.240932 25.00000000
34.711288 7.379764 -28.593636 25.00000000
34.453743 11.479096 -10.281621 25.00000000
34.803864 5.906214 -53.154282 25.00000000
34.858952 5.029401 -17.320036 25.00000000
34.456997 11.427293 2.099535 25.00000000
34.792377 6.089022 2.055216 25.00000000
34.696415 7.616462 -57.833359 25.00000000
34.711311 7.379374 -30.261908 25.00000000
34.614132 8.926184 -10.536095 25.00000000
34.857655 5.050027 -47.618446 25.00000000
34.533604 10.207972 -11.688061 25.00000000
34.484463 10.990139 -59.276642 25.00000000
34.666069 8.099510 -48.605614 25.00000000
34.687199 7.763178 -51.655617 25.00000000
34.723083 7.191986 -34.321014 25.00000000
34.601795 9.122540 -6.560386 25.00000000
34.794800 6.050524 -32.517307 25.00000000
34.594906 9.232224 -19.780115 25.00000000
34.910492 4.209035 -9.253208 25.00000000
34.549309 9.957953 -31.858624 25.00000000
34.572426 9.590011 -17.686785 25.00000000
34.710152 7.397842 -47.497341 25.00000000
34.594498 9.238673 -36.832718 25.00000000
34.457218 11.423764 -40.110622 25.00000000
34.724079 7.176149 -6.125004 25.00000000
34.782761 6.242146 -57.936264 25.00000000
34.515305 10.499219 -45.926289 25.00000000
34.769352 6.455523 -44.596844 25.00000000
34.794781 6.050813 -51.354858 25.00000000
34.504711 10.667787 -21.005289 25.00000000
34.582554 9.428795 -49.192940 25.00000000
34.456146 11.440833 -20.670958 25.00000000
34.832729 5.446798 -0.319038 25.00000000
34.591530 9.285962 -11.343782 25.00000000
34.717865 7.275078 -42.030731 25.00000000
34.646381 8.412889 -33.255829 25.00000000
34.460930 11.364681 -37.961166 25.00000000
34.751644 6.737409 -28.343788 25.00000000
34.520996 10.408618 -29.155289 25.00000000
34.511906 10.553329 -30.864914 25.00000000
34.524986 10.345097 -33.107010 25.00000000
34.641506 8.490455 -23.129118 25.00000000
34.758564 6.627271 -36.853043 25.00000000
34.906910 4.266023 -46.254070 25.00000000
34.457577 11.418057 -50.603851 25.00000000
34.618565 8.855629 -49.224430 25.00000000
34.609764 8.995669 -60.863098 25.00000000
34.809113 5.822668 -9.512780 25.00000000
34.698326 7.586070 -36.208199 25.00000000
34.896622 4.429828 -10.973498 25.00000000
34.522221 10.389118 -40.745865 25.00000000
34.624958 8.753872 -41.161488 25.00000000
34.454899 11.460707 -57.511120 25.00000000
34.665363 8.110735 -37.432991 25.00000000
34.508884 10.601369 -19.880629 25.00000000
34.466869 11.270133 -30.863304 25.00000000
34.551674 9.920325 -24.322914 25.00000000
34.769382 6.455088 -7.001532 25.00000000
34.900146 4.373715 -13.860278 25.00000000
34.905296 4.291731 3.811902 25.00000000
34.650425 8.348521 -9.109461 25.00000000
34.639183 8.527460 -8.572929 25.00000000
34.637100 8.560562 -29.230471 25.00000000
34.789730 6.131194 -46.961987 25.00000000
34.492065 10.869105 -60.649349 25.00000000
34.467983 11.252389 -31.469522 25.00000000
34.805717 5.876721 -47.568642 25.00000000
34.836895 5.380472 -45.884315 25.00000000
34.908161 4.246143 -43.678787 25.00000000
34.642513 8.474435 0.945673 25.00000000
34.554104 9.881640 -45.715740 25.00000000
34.764996 6.524888 -55.302650 25.00000000
34.671852 8.007458 -30.667768 25.00000000
34.849648 5.177500 -46.532684 25.00000000
34.848385 5.197575 -49.110600 25.00000000
34.819866 5.651511 3.236709 25.00000000
34.743755 6.862942 -30.547192 25.00000000
34.455044 11.458402 -12.730014 25.00000000
34.682507 7.837872 -6.196218 25.00000000
34.666889 8.086423 -23.652561 25.00000000
34.585514 9.381681 2.225654 25.00000000
34.691486 7.694943 -50.876751 25.00000000
34.561146 9.769577 -7.388744 25.00000000
34.700115 7.557600 -5.682192 25.00000000
34.502888 10.696840 -18.539652 25.00000000
34.461903 11.349195 -36.695461 25.00000000
34.576607 9.523493 -53.287666 25.00000000
34.534618 10.191802 -21.426132 25.00000000
34.868279 4.880905 -42.787415 25.00000000
34.837090 5.377341 -36.632759 25.00000000
34.623234 8.781282 -49.834869 25.00000000
34.473442 11.165519 -48.129982 25.00000000
34.896793 4.427060 -6.294727 25.00000000
34.734787 7.005697 -51.828594 25.00000000
34.558506 9.811592 -43.116280 25.00000000
34.736156 6.983916 -4.020709 25.00000000
34.515182 10.501167 -59.908363 25.00000000
34.629395 8.683233 -45.223885 25.00000000
34.555279 9.862913 -4.033556 25.00000000
34.590778 9.297903 -44.747414 25.00000000
34.907692 4.253597 -59.496281 25.00000000
34.548882 9.964776 -6.476524 25.00000000
34.683826 7.816869 1.960276 25.00000000
34.618107 8.862920 -12.446208 25.00000000
34.525330 10.339611 -16.853748 25.00000000
34.589764 9.314029 -9.622565 25.00000000
34.763195 6.553553 1.551595 25.00000000
34.561626 9.761912 -13.873976 25.00000000
34.466469 11.276553 -58.326256 25.00000000
34.606304 9.050750 -58.020550 25.00000000
34.504864 10.665387 -0.948887 25.00000000
34.766365 6.503083 -4.734602 25.00000000
34.548157 9.976283 -19.517275 25.00000000
34.870682 4.842672 -45.934006 25.00000000
34.481865 11.031444 2.571317 25.00000000
34.909523 4.224431 -27.959446 25.00000000
34.724873 7.163547 -26.314190 25.00000000
34.761005 6.588384 -29.394321 25.00000000
34.608299 9.018982 -59.354923 25.00000000
34.789963 6.127497 -1.288250 25.00000000
34.836861 5.381040 -12.944353 25.00000000
34.722649 7.198897 -22.469042 25.00000000
34.660954 8.180896 -5.727810 25.00000000
34.769096 6.459626 -49.341583 25.00000000
34.910198 4.213679 -24.237967 25.00000000
34.876453 4.750830 -42.161709 25.00000000
34.613487 8.936448 -8.107565 25.00000000
34.843788 5.270761 -49.738335 25.00000000
34.524738 10.349078 -9.026299 25.00000000
34.815712 5.717633 -19.086113 25.00000000
34.681355 7.856208 -17.071571 25.00000000
34.648876 8.373156 -12.081452 25.00000000
34.668293 8.064104 -2.686672 25.00000000
4.948907 34.071796 -22.125948 26.00000000
8.530025 34.320576 -5.160435 26.00000000
2.290570 33.887127 -23.037647 26.00000000
3.259607 33.954445 -11.062167 26.00000000
4.785233 34.060429 -0.352710 26.00000000
1.730045 33.848186 -25.352146 26.00000000
2.842306 33.925453 -59.125519 26.00000000
6.107743 34.152302 -39.544735 26.00000000
3.331696 33.959454 -33.515526 26.00000000
2.995139 33.936069 -19.857759 26.00000000
4.410008 34.034363 -22.343254 26.00000000
8.541032 34.321342 -38.929920 26.00000000
6.909003 34.207966 -14.102995 26.00000000
3.581764 33.976826 -55.491013 26.00000000
3.786021 33.991013 -17.535006 26.00000000
8.529355 34.320530 -47.175941 26.00000000
1.552202 33.835831 -40.760216 26.00000000
8.462448 34.315880 -58.477646 26.00000000
1.056517 33.801395 -60.835896 26.00000000
6.500223 34.179565 -50.469662 26.00000000
3.254015 33.954056 -50.284702 26.00000000
4.972960 34.073467 -57.104572 26.00000000
4.965099 34.072922 -25.536812 26.00000000
4.835208 34.063900 -16.520527 26.00000000
2.174966 33.879093 -16.067554 26.00000000
6.669324 34.191315 -9.560976 26.00000000
8.575921 34.323765 -49.380192 26.00000000
6.904031 34.207619 -32.362583 26.00000000
8.466141 34.316139 -6.067743 26.00000000
3.759936 33.989201 -12.995561 26.00000000
7.972770 34.281864 -33.229687 26.00000000
5.244572 34.092339 -36.886593 26.00000000
3.177550 33.948742 -17.152122 26.00000000
6.822217 34.201935 -18.727339 26.00000000
1.889974 33.859299 -56.986374 26.00000000
6.090624 34.151112 -44.433758 26.00000000
7.753327 34.266621 -14.833513 26.00000000
5.673688 34.122147 -34.188656 26.00000000
1.023276 33.799088 -26.080229 26.00000000
7.392492 34.241550 -28.561514 26.00000000
2.332704 33.890053 -42.878223 26.00000000
3.153821 33.947094 -42.801407 26.00000000
2.362036 33.892090 -28.583605 26.00000000
8.325856 34.306393 -16.181522 26.00000000
2.311591 33.888584 -36.282879 26.00000000
4.822911 34.063046 -28.267797 26.00000000
6.380156 34.171227 -42.333019 26.00000000
2.720254 33.916973 2.967574 26.00000000
1.036670 33.800018 -16.637730 26.00000000
6.338458 34.168327 -12.530530 26.00000000
7.711256 34.263699 -20.226748 26.00000000
6.739801 34.196209 -53.581142 26.00000000
7.556108 34.252918 -19.608891 26.00000000
1.239702 33.814121 -56.844509 26.00000000
1.740906 33.848942 -30.681952 26.00000000
4.194405 34.019382 -38.781654 26.00000000
0.933813 33.792873 -33.778172 26.00000000
8.367023 34.309254 -19.596365 26.00000000
8.207016 34.298138 -37.837215 26.00000000
7.863763 34.274292 -54.554379 26.00000000
7.152048 34.224850 -56.926895 26.00000000
5.437889 34.105766 -31.902180 26.00000000
5.441822 34.106041 -35.416519 26.00000000
2.346738 33.891029 0.843764 26.00000000
0.970394 33.795414 -14.545635 26.00000000
2.801575 33.922626 -32.423412 26.00000000
5.832516 34.133183 -46.895294 26.00000000
6.702576 34.193623 -22.556253 26.00000000
2.210681 33.881577 -31.804068 26.00000000
3.461033 33.968437 1.100927 26.00000000
0.973119 33.795605 -35.017159 26.00000000
1.008593 33.798069 -6.091629 26.00000000
3.447038 33.967464 -4.657758 26.00000000
4.152077 34.016441 -48.542492 26.00000000
4.660456 34.051762 -22.921816 26.00000000
4.467491 34.038357 -14.039347 26.00000000
1.156257 33.808327 -54.691517 26.00000000
5.079215 34.080853 -17.799387 26.00000000
1.495923 33.831921 -59.485771 26.00000000
6.086581 34.150833 -5.154778 26.00000000
1.956048 33.863888 -12.818967 26.00000000
2.429927 33.896809 -7.039764 26.00000000
7.026398 34.216122 1.633458 26.00000000
6.756235 34.197353 -8.309687 26.00000000
1.244992 33.814491 -54.029617 26.00000000
1.016557 33.798622 -60.170353 26.00000000
3.957142 34.002899 -10.941843 26.00000000
4.258101 34.023808 -15.416492 26.00000000
3.716086 33.986156 -25.630634 26.00000000
8.041092 34.286610 -61.063076 26.00000000
6.548462 34.182919 -4.114185 26.00000000
6.103795 34.152027 -36.180870 26.00000000
3.287029 33.956348 -25.183353 26.00000000
2.507679 33.902206 -29.189413 26.00000000
5.812527 34.131794 -50.918346 26.00000000
4.387553 34.032803 -54.412037 26.00000000
3.203264 33.950531 -40.433990 26.00000000
6.300200 34.165672 -31.035172 26.00000000
5.321288 34.097668 -59.549145 26.00000000
1.923749 33.861645 -26.625307 26.00000000
7.656911 34.259922 -56.504013 26.00000000
5.876347 34.136227 -18.689051 26.00000000
2.126283 33.875713 -38.067650 26.00000000
6.443707 34.175640 -16.528418 26.00000000
1.137280 33.807007 -55.358017 26.00000000
1.419501 33.826614 -36.207306 26.00000000
7.671668 34.260944 -30.152430 26.00000000
7.593408 34.255508 -46.052055 26.00000000
3.702954 33.985245 -48.146446 26.00000000
4.255844 34.023651 -16.628128 26.00000000
8.494354 34.318096 -59.170494 26.00000000
1.117922 33.805664 -32.591202 26.00000000
4.950388 34.071899 -49.238270 26.00000000
5.233967 34.091602 -11.050762 26.00000000
7.240231 34.230976 -11.090330 26.00000000
5.443274 34.106140 -0.094499 26.00000000
1.521845 33.833721 -33.724941 26.00000000
0.929653 33.792583 -32.020409 26.00000000
4.271302 34.024727 -30.338261 26.00000000
2.097445 33.873711 -45.092152 26.00000000
2.527367 33.903576 -33.474289 26.00000000
2.394244 33.894329 -21.107321 26.00000000
7.091925 34.220673 -54.574352 26.00000000
6.573207 34.184635 -4.827389 26.00000000
0.991144 33.796856 -28.093550 26.00000000
4.014897 34.006912 -59.983330 26.00000000
6.628766 34.188496 -6.886926 26.00000000
8.005255 34.284122 -28.874693 26.00000000
6.900648 34.207382 0.987858 26.00000000
6.410915 34.173363 -46.916325 26.00000000
7.317748 34.236359 -35.903908 26.00000000
6.025966 34.146622 -37.306305 26.00000000
4.841775 34.064358 -14.544894 26.00000000
5.206735 34.089710 -1.624926 26.00000000
4.323465 34.028351 -56.109863 26.00000000
3.312777 33.958138 -15.725449 26.00000000
3.473671 33.969315 -32.501068 26.00000000
3.358008 33.961281 -18.272921 26.00000000
5.387508 34.102268 -50.485710 26.00000000
7.351458 34.238701 -25.702015 26.00000000
7.867937 34.274582 -59.173447 26.00000000
0.990794 33.796829 -26.734758 26.00000000
1.605818 33.839558 -27.118256 26.00000000
3.821821 33.993500 -54.058453 26.00000000
2.176413 33.879196 -1.564242 26.00000000
1.549965 33.835674 -60.449223 26.00000000
6.767100 34.198109 -27.790997 26.00000000
6.472130 34.177616 -40.553242 26.00000000
3.425054 33.965939 -0.820062 26.00000000
5.575341 34.115314 -19.307482 26.00000000
1.921401 33.861481 -39.257347 26.00000000
2.403581 33.894978 -57.907082 26.00000000
2.735064 33.918003 -1.142218 26.00000000
7.111988 34.222065 -60.484550 26.00000000
5.577279 34.115452 -39.775970 26.00000000
1.764788 33.850601 -46.403603 26.00000000
4.841977 34.064369 -2.752251 26.00000000
7.952961 34.280487 -42.497356 26.00000000
7.951872 34.280411 -45.461967 26.00000000
8.552985 34.322170 -27.208399 26.00000000
8.432157 34.313778 -17.249344 26.00000000
2.272193 33.885849 -30.039146 26.00000000
1.010357 33.798191 -1.954382 26.00000000
7.193535 34.227730 -17.335873 26.00000000
5.044434 34.078434 -44.130730 26.00000000
8.572560 34.323532 3.163474 26.00000000
3.093811 33.942924 -23.514055 26.00000000
5.579211 34.115585 -6.966289 26.00000000
0.908766 33.791134 -6.826686 26.00000000
3.186913 33.949394 -12.469006 26.00000000
2.910030 33.930161 -17.644556 26.00000000
2.778250 33.921005 -34.767624 26.00000000
8.569795 34.323338 -48.599957 26.00000000
4.197067 34.019569 -19.657843 26.00000000
1.010387 33.798191 0.232859 26.00000000
2.298832 33.887699 -49.022110 26.00000000
1.681062 33.844784 -18.997322 26.00000000
5.072913 34.080414 -20.409863 26.00000000
1.608821 33.839764 -18.108044 26.00000000
5.760364 34.128170 -48.080463 26.00000000
5.395750 34.102840 -53.389614 26.00000000
7.993834 34.283325 -3.530934 26.00000000
0.959515 33.794659 -12.408312 26.00000000
4.729505 34.056557 -54.850006 26.00000000
4.221763 34.021282 -4.114929 26.00000000
1.431077 33.827415 -47.866039 26.00000000
7.172315 34.226257 -22.215521 26.00000000
2.854638 33.926311 -29.702332 26.00000000
1.015249 33.798531 -15.860008 26.00000000
4.398921 34.033592 -25.848461 26.00000000
6.343475 34.168678 -60.904556 26.00000000
1.515167 33.833260 -20.442989 26.00000000
1.865332 33.857586 -2.098538 26.00000000
4.320142 34.028118 -53.741280 26.00000000
5.031174 34.077515 -33.395611 26.00000000
3.415771 33.965294 -57.268898 26.00000000
6.612202 34.187347 -33.336864 26.00000000
6.462875 34.176971 -48.029034 26.00000000
1.083514 33.803272 -21.761944 26.00000000
3.080971 33.942036 -26.250757 26.00000000
8.528875 34.320496 -17.938974 26.00000000
1.065952 33.802052 -4.904423 26.00000000
7.372590 34.240170 -22.874384 26.00000000
1.609372 33.839802 -15.583438 26.00000000
8.430491 34.313660 -20.200127 26.00000000
4.665278 34.052094 -4.731034 26.00000000
6.930021 34.209427 -48.988514 26.00000000
3.310939 33.958012 -54.391445 26.00000000
4.694947 34.054157 -41.254734 26.00000000
4.459116 34.037773 -32.127869 26.00000000
0.970591 33.795429 -59.140182 26.00000000
3.635550 33.980560 -27.903166 26.00000000
7.993869 34.283329 -60.460220 26.00000000
6.875262 34.205620 -36.332291 26.00000000
2.723382 33.917194 -53.520077 26.00000000
8.479721 34.317081 -45.053844 26.00000000
1.721886 33.847618 -37.069798 26.00000000
6.134177 34.154137 -51.628040 26.00000000
6.221309 34.160191 -8.798517 26.00000000
6.527295 34.181450 -15.946858 26.00000000
7.253584 34.231903 -10.264076 26.00000000
2.118448 33.875168 -50.458935 26.00000000
8.511313 34.319275 -10.007630 26.00000000
1.377797 33.823715 -45.496933 26.00000000
3.292780 33.956749 -44.639408 26.00000000
2.833869 33.924870 -7.680782 26.00000000
3.178613 33.948818 -11.791586 26.00000000
2.850450 33.926022 -0.413451 26.00000000
6.243334 34.161720 -19.391382 26.00000000
5.288337 34.095379 -23.595062 26.00000000
1.875912 33.858318 0.429122 26.00000000
7.106347 34.221676 -15.973204 26.00000000
1.391679 33.824680 -55.870621 26.00000000
5.539190 34.112804 -22.257612 26.00000000
4.148689 34.016209 -28.360849 26.00000000
5.635128 34.119469 -58.526592 26.00000000
3.069406 33.941231 -15.041408 26.00000000
2.851411 33.926086 -18.537382 26.00000000
4.618658 34.048855 -34.985584 26.00000000
1.667755 33.843861 -38.503040 26.00000000
7.312685 34.236008 -24.714251 26.00000000
5.574941 34.115288 -33.055984 26.00000000
7.316327 34.236259 -39.626541 26.00000000
4.354278 34.030491 -33.353161 26.00000000
3.515097 33.972195 -27.270700 26.00000000
3.967921 34.003651 -18.115486 26.00000000
3.469384 33.969017 -29.521545 26.00000000
4.156728 34.016766 -32.625023 26.00000000
2.743885 33.918617 -41.632629 26.00000000
5.967428 34.142555 -49.572487 26.00000000
4.043743 34.008919 -29.425692 26.00000000
6.794458 34.200008 -46.438148 26.00000000
6.061205 34.149071 -50.120331 26.00000000
2.488288 33.900860 -55.194382 26.00000000
3.671150 33.983032 -23.620132 26.00000000
6.906126 34.207764 -45.630829 26.00000000
3.343027 33.960239 -38.097046 26.00000000
7.823724 34.271511 -5.715602 26.00000000
8.425228 34.313297 -53.100212 26.00000000
5.321347 34.097672 -3.938967 26.00000000
6.030047 34.146904 -40.193501 26.00000000
4.248794 34.023163 2.826641 26.00000000
6.355502 34.169514 -3.089723 26.00000000
1.919456 33.861343 -42.490990 26.00000000
8.404741 34.311874 -37.131626 26.00000000
4.836603 34.063995 -27.605642 26.00000000
7.785268 34.268837 -12.152956 26.00000000
8.529314 34.320526 -33.128681 26.00000000
7.968187 34.281544 -38.530106 26.00000000
7.375209 34.240353 -6.955700 26.00000000
7.814192 34.270847 -17.244446 26.00000000
7.979529 34.282333 -2.463227 26.00000000
3.110580 33.944092 -16.428272 26.00000000
1.797302 33.852859 -9.696949 26.00000000
1.330591 33.820438 -23.135378 26.00000000
0.991720 33.796898 -20.219448 26.00000000
5.043370 34.078362 -29.280834 26.00000000
4.003621 34.006130 -34.969318 26.00000000
6.242412 34.161655 -22.002855 26.00000000
4.373517 34.031826 -1.516238 26.00000000
3.543115 33.974140 -51.556137 26.00000000
8.475086 34.316757 -21.075945 26.00000000
5.481379 34.108788 -4.913554 26.00000000
1.792577 33.852531 -39.872055 26.00000000
8.491788 34.317921 -46.576515 26.00000000
3.746078 33.988239 -24.650053 26.00000000
2.240653 33.883659 -46.008743 26.00000000
6.263711 34.163136 -28.167137 26.00000000
4.124493 34.014526 -18.666355 26.00000000
1.107826 33.804962 -42.299000 26.00000000
6.859065 34.204494 -29.438910 26.00000000
1.147716 33.807732 -18.672235 26.00000000
8.458766 34.315624 -21.664942 26.00000000
8.224882 34.299377 -39.370911 26.00000000
2.820705 33.923954 -43.420994 26.00000000
1.207308 33.811871 -49.128933 26.00000000
2.041147 33.869797 -7.700826 26.00000000
1.680656 33.844753 -28.110712 26.00000000
6.966641 34.211967 -6.345788 26.00000000
4.416986 34.034847 -40.465019 26.00000000
8.397844 34.311394 -26.419527 26.00000000
5.403868 34.103405 -17.172493 26.00000000
3.702487 33.985210 -12.125928 26.00000000
8.385099 34.310509 -18.940565 26.00000000
7.021964 34.215813 -12.542098 26.00000000
2.226697 33.882687 -59.116360 26.00000000
5.793465 34.130470 -12.139821 26.00000000
7.958869 34.280899 -18.404772 26.00000000
2.474127 33.899876 -3.116038 26.00000000
4.842308 34.064392 -30.530882 26.00000000
5.136800 34.084850 -39.445850 26.00000000
5.085220 34.081268 -56.050591 26.00000000
7.083230 34.220070 -55.892239 26.00000000
4.635453 34.050022 -49.718014 26.00000000
7.367778 34.239834 2.338252 26.00000000
8.006392 34.284199 -41.109455 26.00000000
5.869864 34.135777 -42.679340 26.00000000
1.276233 33.816662 -48.495464 26.00000000
1.882357 33.858768 -0.959457 26.00000000
4.511092 34.041386 0.303189 26.00000000
2.473286 33.899818 -18.060354 26.00000000
4.276815 34.025108 -30.947395 26.00000000
8.347762 34.307915 -15.516636 26.00000000
