65.597214 26.626591 3.879021 22.00000000
-9.989769 -21.385523 3.879021 22.00000000
-5.930722 57.786804 3.879021 22.00000000
71.268478 -2.449749 3.879021 22.00000000
-32.266624 8.717284 3.879021 22.00000000
57.474136 33.510849 3.879021 22.00000000
-40.691769 32.234997 3.879021 22.00000000
51.415813 26.709223 3.879021 22.00000000
-10.512401 -60.033714 3.879021 22.00000000
-19.481852 -48.392208 3.879021 22.00000000
-0.559857 -33.656815 3.879021 22.00000000
-32.664341 -16.653030 3.879021 22.00000000
-0.508280 42.587700 3.879021 22.00000000
-32.492996 3.794003 3.879021 22.00000000
20.041607 60.606457 3.879021 22.00000000
-1.919787 -40.990471 3.879021 22.00000000
68.127373 4.177976 3.879021 22.00000000
-53.185497 -1.708306 3.879021 22.00000000
-29.258726 28.272358 3.879021 22.00000000
-4.458279 -25.053801 3.879021 22.00000000
-28.662840 -51.228249 3.879021 22.00000000
27.575220 -22.965096 3.879021 22.00000000
-25.682400 -58.237232 3.879021 22.00000000
58.872917 25.119928 3.879021 22.00000000
66.002968 -39.236752 3.879021 22.00000000
-44.032196 48.184746 3.879021 22.00000000
76.114517 10.436344 3.879021 22.00000000
-42.240318 -7.066582 3.879021 22.00000000
45.989998 58.380840 3.879021 22.00000000
-45.960835 -11.425352 3.879021 22.00000000
-28.760900 -1.750772 3.879021 22.00000000
13.932348 77.692650 3.879021 22.00000000
-24.055746 43.218445 3.879021 22.00000000
-9.586704 -29.295881 3.879021 22.00000000
70.126633 -12.039637 3.879021 22.00000000
20.713760 56.120720 3.879021 22.00000000
58.176357 36.482666 3.879021 22.00000000
-0.443145 66.784966 3.879021 22.00000000
-17.776152 62.771133 3.879021 22.00000000
70.152061 15.376162 3.879021 22.00000000
18.526871 39.975128 3.879021 22.00000000
58.375015 -26.342775 3.879021 22.00000000
-13.860140 -58.134167 3.879021 22.00000000
52.437794 -5.012900 3.879021 22.00000000
-19.131521 -18.275133 3.879021 22.00000000
-43.433823 44.633480 3.879021 22.00000000
6.613613 45.718983 3.879021 22.00000000
47.201321 -49.779552 3.879021 22.00000000
-13.207152 48.799934 3.879021 22.00000000
-39.369099 -47.931160 3.879021 22.00000000
68.724823 -21.655012 3.879021 22.00000000
-40.092247 3.100435 3.879021 22.00000000
29.450275 76.925163 3.879021 22.00000000
38.295162 -9.221743 3.879021 22.00000000
-31.020672 25.080822 3.879021 22.00000000
-48.705860 -36.994366 3.879021 22.00000000
62.546398 -39.207535 3.879021 22.00000000
-26.504877 70.634865 3.879021 22.00000000
-43.504169 -14.169283 3.879021 22.00000000
-49.545361 -12.336020 3.879021 22.00000000
-21.244139 -2.069951 3.879021 22.00000000
23.247610 29.514700 3.879021 22.00000000
64.685577 4.081610 3.879021 22.00000000
54.981617 57.816776 3.879021 22.00000000
-8.425229 -51.654392 3.879021 22.00000000
4.841677 42.296196 3.879021 22.00000000
-13.379109 62.895351 3.879021 22.00000000
51.237125 -13.873035 3.879021 22.00000000
-39.892216 48.799099 3.879021 22.00000000
34.026108 35.484200 3.879021 22.00000000
20.622269 -23.743896 3.879021 22.00000000
64.206535 49.356232 3.879021 22.00000000
38.839283 65.915199 3.879021 22.00000000
-20.843128 -63.288250 3.879021 22.00000000
-10.913947 52.578304 3.879021 22.00000000
-11.297965 56.873569 3.879021 22.00000000
-50.051296 -3.705476 3.879021 22.00000000
-28.053120 -5.125054 3.879021 22.00000000
43.530052 64.938049 3.879021 22.00000000
-7.002834 -43.171692 3.879021 22.00000000
-11.302781 60.521633 3.879021 22.00000000
29.074238 31.297741 3.879021 22.00000000
60.542988 -20.190269 3.879021 22.00000000
37.790436 -22.596273 3.879021 22.00000000
75.164040 2.533646 3.879021 22.00000000
76.564064 28.980522 3.879021 22.00000000
-15.318557 45.697571 3.879021 22.00000000
49.735672 4.449771 3.879021 22.00000000
53.237301 22.944941 3.879021 22.00000000
26.483089 -62.656353 3.879021 22.00000000
-3.708189 -45.150101 3.879021 22.00000000
-41.347672 36.808765 3.879021 22.00000000
36.229507 63.370880 3.879021 22.00000000
66.967323 42.791859 3.879021 22.00000000
-55.558903 2.681660 3.879021 22.00000000
-43.203945 -37.762383 3.879021 22.00000000
38.225643 3.662057 3.879021 22.00000000
21.464775 -28.132114 3.879021 22.00000000
-56.826866 -7.643314 3.879021 22.00000000
-37.990570 -44.127914 3.879021 22.00000000
-9.447691 35.036831 3.879021 22.00000000
-56.368900 25.068537 3.879021 22.00000000
35.014568 -25.656923 3.879021 22.00000000
-17.096155 -33.110405 3.879021 22.00000000
0.811035 -29.248833 3.879021 22.00000000
9.239522 38.056911 3.879021 22.00000000
-19.321533 50.807186 3.879021 22.00000000
-30.761286 -38.553501 3.879021 22.00000000
-33.566811 17.932850 3.879021 22.00000000
3.732338 -58.659653 3.879021 22.00000000
-6.867184 33.074162 3.879021 22.00000000
55.142033 37.885307 3.879021 22.00000000
53.185589 -47.316711 3.879021 22.00000000
55.907513 26.806759 3.879021 22.00000000
-2.470024 75.198555 3.879021 22.00000000
-32.186356 -52.622440 3.879021 22.00000000
42.892429 53.197449 3.879021 22.00000000
16.165184 -63.826805 3.879021 22.00000000
12.351793 67.347389 3.879021 22.00000000
42.028717 -23.699505 3.879021 22.00000000
55.318672 6.570022 3.879021 22.00000000
79.216331 -2.496429 3.879021 22.00000000
75.978462 34.249813 3.879021 22.00000000
62.765888 -27.614079 3.879021 22.00000000
-14.875264 69.055290 3.879021 22.00000000
56.619713 52.880787 3.879021 22.00000000
-34.491528 62.041477 3.879021 22.00000000
52.890362 -30.391989 3.879021 22.00000000
46.550793 36.584976 3.879021 22.00000000
18.187408 -46.001240 3.879021 22.00000000
4.345753 -67.460678 3.879021 22.00000000
-29.529928 60.500477 3.879021 22.00000000
-60.265060 27.251055 3.879021 22.00000000
-20.940426 74.710403 3.879021 22.00000000
8.860291 34.892426 3.879021 22.00000000
46.556362 -29.165552 3.879021 22.00000000
-32.318115 -13.185548 3.879021 22.00000000
-61.296402 -23.934963 3.879021 22.00000000
-2.629309 -28.701578 3.879021 22.00000000
14.077668 -67.150513 3.879021 22.00000000
45.183716 70.201332 3.879021 22.00000000
57.161976 -1.857605 3.879021 22.00000000
66.909752 35.413239 3.879021 22.00000000
11.861646 -34.434448 3.879021 22.00000000
-9.768912 64.061455 3.879021 22.00000000
49.164700 33.922165 3.879021 22.00000000
41.068588 -54.908192 3.879021 22.00000000
71.662834 -18.838865 3.879021 22.00000000
-10.305529 -42.819595 3.879021 22.00000000
73.123253 -14.938146 3.879021 22.00000000
-31.816015 -45.254261 3.879021 22.00000000
50.785770 -42.760143 3.879021 22.00000000
-18.607883 -41.848682 3.879021 22.00000000
-32.539227 -7.690634 3.879021 22.00000000
46.388699 17.440531 3.879021 22.00000000
24.975098 -36.863632 3.879021 22.00000000
36.383423 -62.453724 3.879021 22.00000000
38.956650 12.760538 3.879021 22.00000000
34.879528 7.761251 3.879021 22.00000000
-15.868614 24.074223 3.879021 22.00000000
68.767220 -35.163918 3.879021 22.00000000
-42.887394 -30.591084 3.879021 22.00000000
5.181947 50.795860 3.879021 22.00000000
-35.007671 -26.701584 3.879021 22.00000000
-63.162071 15.925065 3.879021 22.00000000
-20.388506 42.728531 3.879021 22.00000000
-55.162937 6.497946 3.879021 22.00000000
-22.691229 48.679211 3.879021 22.00000000
-22.238417 -32.066730 3.879021 22.00000000
-60.384674 -26.937040 3.879021 22.00000000
-28.867052 54.762009 3.879021 22.00000000
-57.807819 41.565529 3.879021 22.00000000
45.608677 -14.459460 3.879021 22.00000000
31.411886 26.352165 3.879021 22.00000000
-17.884834 -60.328991 3.879021 22.00000000
24.605856 38.784973 3.879021 22.00000000
-49.475349 43.313068 3.879021 22.00000000
12.417890 -64.049126 3.879021 22.00000000
15.064531 -46.379406 3.879021 22.00000000
54.770096 30.612057 3.879021 22.00000000
-1.152445 59.222122 3.879021 22.00000000
-15.373519 65.709465 3.879021 22.00000000
-51.094238 -16.044987 3.879021 22.00000000
-6.093786 -19.408031 3.879021 22.00000000
42.090542 41.073517 3.879021 22.00000000
-14.382584 -43.980400 3.879021 22.00000000
46.553486 6.922385 3.879021 22.00000000
-22.065046 71.427940 3.879021 22.00000000
-4.621497 -37.474079 3.879021 22.00000000
16.799215 -40.315231 3.879021 22.00000000
62.832554 1.341992 3.879021 22.00000000
-9.293241 -63.802662 3.879021 22.00000000
31.221630 -12.163309 3.879021 22.00000000
-31.032370 42.752968 3.879021 22.00000000
5.822220 57.310329 3.879021 22.00000000
54.839088 17.449011 3.879021 22.00000000
50.513062 -23.786592 3.879021 22.00000000
-47.037758 -16.814476 3.879021 22.00000000
67.938950 49.209412 3.879021 22.00000000
-29.616938 -58.867500 3.879021 22.00000000
2.239479 -39.979107 3.879021 22.00000000
59.441246 4.698174 3.879021 22.00000000
13.979408 -60.664822 3.879021 22.00000000
16.450420 -34.083904 3.879021 22.00000000
-34.834225 -1.518581 3.879021 22.00000000
-18.284954 40.137222 3.879021 22.00000000
-27.273781 -11.749867 3.879021 22.00000000
-6.046231 -27.953039 3.879021 22.00000000
34.729149 38.415794 3.879021 22.00000000
-7.227550 66.766129 3.879021 22.00000000
28.140886 24.728092 3.879021 22.00000000
-5.962247 47.326126 3.879021 22.00000000
-58.438057 5.773616 3.879021 22.00000000
-31.719263 64.315453 3.879021 22.00000000
24.249052 -65.540604 3.879021 22.00000000
15.118793 51.998016 3.879021 22.00000000
-43.866665 28.919657 3.879021 22.00000000
45.334560 41.995045 3.879021 22.00000000
-45.874149 56.138199 3.879021 22.00000000
-43.272522 3.876602 3.879021 22.00000000
51.896584 -39.112141 3.879021 22.00000000
-28.613710 -28.436594 3.879021 22.00000000
37.689690 47.317467 3.879021 22.00000000
44.846630 -4.688624 3.879021 22.00000000
59.079674 46.578072 3.879021 22.00000000
-64.782181 28.406185 3.879021 22.00000000
-13.297069 -22.052816 3.879021 22.00000000
19.009169 -50.312824 3.879021 22.00000000
-60.695869 23.042500 3.879021 22.00000000
48.795792 56.174160 3.879021 22.00000000
-14.957442 40.719894 3.879021 22.00000000
-39.376698 -18.618244 3.879021 22.00000000
57.193569 60.239853 3.879021 22.00000000
66.304062 -17.647667 3.879021 22.00000000
-52.964153 -12.147268 3.879021 22.00000000
38.544449 -45.934856 3.879021 22.00000000
39.374027 -39.481110 3.879021 22.00000000
-35.697170 -21.947353 3.879021 22.00000000
37.233994 -35.767014 3.879021 22.00000000
35.275177 -6.181797 3.879021 22.00000000
-63.941135 23.270746 3.879021 22.00000000
-49.755150 9.675461 3.879021 22.00000000
43.279930 26.694752 3.879021 22.00000000
22.517094 58.830238 3.879021 22.00000000
73.964859 30.552446 3.879021 22.00000000
-29.759033 70.205635 3.879021 22.00000000
3.494935 53.626072 3.879021 22.00000000
-52.676460 46.524380 3.879021 22.00000000
0.300981 63.355167 3.879021 22.00000000
-47.096928 45.411270 3.879021 22.00000000
-45.422707 -4.825097 3.879021 22.00000000
17.660816 -27.581966 3.879021 22.00000000
24.653193 -16.245697 3.879021 22.00000000
-1.209980 -24.130512 3.879021 22.00000000
25.095394 -52.095600 3.879021 22.00000000
34.051449 -49.078037 3.879021 22.00000000
-20.538412 18.658365 3.879021 22.00000000
-53.099152 9.583610 3.879021 22.00000000
76.580727 -20.547571 3.879021 22.00000000
40.628475 -1.749322 3.879021 22.00000000
35.545540 44.749336 3.879021 22.00000000
23.992237 -19.993736 3.879021 22.00000000
32.940178 -22.650141 3.879021 22.00000000
12.370347 -22.087429 3.879021 22.00000000
-67.032707 -5.766204 3.879021 22.00000000
61.274120 -42.265285 3.879021 22.00000000
-27.644712 1.203962 3.879021 22.00000000
68.301033 -4.998042 3.879021 22.00000000
8.064532 62.600002 3.879021 22.00000000
30.026171 43.655670 3.879021 22.00000000
68.209457 -30.944395 3.879021 22.00000000
-26.732401 49.618988 3.879021 22.00000000
-21.991926 8.922458 3.879021 22.00000000
-32.642033 27.893492 3.879021 22.00000000
17.402105 77.016289 3.879021 22.00000000
73.037987 -22.328087 3.879021 22.00000000
-18.086246 56.344795 3.879021 22.00000000
-22.196432 -37.595226 3.879021 22.00000000
-3.826634 42.512856 3.879021 22.00000000
41.394577 9.578422 3.879021 22.00000000
49.746880 -35.213428 3.879021 22.00000000
0.311320 69.694382 3.879021 22.00000000
-6.201051 76.086937 3.879021 22.00000000
-24.534624 39.142231 3.879021 22.00000000
-62.987068 -0.956937 3.879021 22.00000000
-9.001959 -32.358871 3.879021 22.00000000
19.444225 43.407936 3.879021 22.00000000
5.230740 -22.124199 3.879021 22.00000000
10.245560 -38.925209 3.879021 22.00000000
57.699520 21.682085 3.879021 22.00000000
-38.086205 -24.871912 3.879021 22.00000000
-36.243233 49.582214 3.879021 22.00000000
-0.004957 53.847252 3.879021 22.00000000
-34.803944 -46.733540 3.879021 22.00000000
51.131924 0.745114 3.879021 22.00000000
-15.276079 -48.495613 3.879021 22.00000000
54.353542 -10.523421 3.879021 22.00000000
-56.267136 -12.555035 3.879021 22.00000000
-12.736395 73.656693 3.879021 22.00000000
-45.995831 41.241589 3.879021 22.00000000
35.941750 52.088142 3.879021 22.00000000
-22.827154 30.826925 3.879021 22.00000000
3.786239 80.679756 3.879021 22.00000000
-36.777950 19.443556 3.879021 22.00000000
-37.184166 26.317322 3.879021 22.00000000
71.182663 19.926153 3.879021 22.00000000
30.701504 -52.735519 3.879021 22.00000000
27.489588 -39.315731 3.879021 22.00000000
5.181609 -47.624878 3.879021 22.00000000
-11.951459 67.040619 3.879021 22.00000000
-25.182356 16.095625 3.879021 22.00000000
42.790123 6.548994 3.879021 22.00000000
-1.893863 -49.321316 3.879021 22.00000000
42.550076 -13.041971 3.879021 22.00000000
-28.122499 18.173986 3.879021 22.00000000
-1.800171 -57.083717 3.879021 22.00000000
-12.992390 -65.939339 3.879021 22.00000000
-47.234997 36.563873 3.879021 22.00000000
3.486686 -52.136299 3.879021 22.00000000
-23.951317 -23.230564 3.879021 22.00000000
-50.611500 -19.401331 3.879021 22.00000000
42.732887 -41.309910 3.879021 22.00000000
13.053681 -40.647812 3.879021 22.00000000
76.595528 14.536733 3.879021 22.00000000
62.466984 26.506508 3.879021 22.00000000
28.063107 -18.975634 3.879021 22.00000000
-21.131451 62.677101 3.879021 22.00000000
-23.550943 -20.012703 3.879021 22.00000000
26.668612 59.419228 3.879021 22.00000000
35.824303 -44.528336 3.879021 22.00000000
24.121058 -24.478176 3.879021 22.00000000
74.063408 -25.890957 3.879021 22.00000000
-6.922560 51.625782 3.879021 22.00000000
20.575384 -65.875656 3.879021 22.00000000
-63.983475 -4.175857 3.879021 22.00000000
-42.331604 -10.866015 3.879021 22.00000000
-25.391537 32.548145 3.879021 22.00000000
-55.613289 -15.702020 3.879021 22.00000000
79.993874 -8.736865 3.879021 22.00000000
32.496975 -46.173969 3.879021 22.00000000
23.322123 69.924141 3.879021 22.00000000
-38.546013 35.183746 3.879021 22.00000000
45.548473 -24.740082 3.879021 22.00000000
9.219464 -31.526520 3.879021 22.00000000
23.721706 42.381668 3.879021 22.00000000
21.559271 78.306656 3.879021 22.00000000
20.003401 -54.891548 3.879021 22.00000000
-15.716606 73.098160 3.879021 22.00000000
-5.043632 -52.871002 3.879021 22.00000000
-9.230642 49.563690 3.879021 22.00000000
57.401382 -35.048267 3.879021 22.00000000
61.970814 36.498695 3.879021 22.00000000
-28.011410 -15.535747 3.879021 22.00000000
-15.768009 -29.365225 3.879021 22.00000000
-6.650769 79.744293 3.879021 22.00000000
56.779663 41.181347 3.879021 22.00000000
29.213718 -15.817039 3.879021 22.00000000
-17.896194 -14.555007 3.879021 22.00000000
23.812389 62.545357 3.879021 22.00000000
10.499930 -59.426819 3.879021 22.00000000
48.227440 -2.573190 3.879021 22.00000000
41.079769 70.440399 3.879021 22.00000000
-38.096272 10.488033 3.879021 22.00000000
54.694920 -25.892818 3.879021 22.00000000
-15.625340 -17.342093 3.879021 22.00000000
52.619877 63.950626 3.879021 22.00000000
40.642311 57.223648 3.879021 22.00000000
-15.030593 58.285519 3.879021 22.00000000
41.889397 37.627762 3.879021 22.00000000
38.301678 -26.276064 3.879021 22.00000000
-30.889719 47.743000 3.879021 22.00000000
58.639530 28.927896 3.879021 22.00000000
-44.897182 -19.479996 3.879021 22.00000000
42.577785 44.120682 3.879021 22.00000000
-25.216549 -39.634567 3.879021 22.00000000
-24.938232 -30.259832 3.879021 22.00000000
-26.959175 -55.192696 3.879021 22.00000000
8.428724 -68.617294 3.879021 22.00000000
-57.939259 -29.683659 3.879021 22.00000000
22.480194 -58.084106 3.879021 22.00000000
8.588152 50.225788 3.879021 22.00000000
71.559517 27.369267 3.879021 22.00000000
1.673152 56.637756 3.879021 22.00000000
-27.264938 36.233673 3.879021 22.00000000
-32.286621 20.690212 3.879021 22.00000000
-24.485012 19.981207 3.879021 22.00000000
-44.442261 -25.099112 3.879021 22.00000000
-31.386078 -3.999644 3.879021 22.00000000
30.796434 -8.760259 3.879021 22.00000000
73.491524 12.211985 3.879021 22.00000000
-65.482338 -12.854950 3.879021 22.00000000
-39.912407 -12.838556 3.879021 22.00000000
-21.674770 34.441586 3.879021 22.00000000
-11.752676 -49.401798 3.879021 22.00000000
0.316216 -54.408039 3.879021 22.00000000
26.310411 51.506981 3.879021 22.00000000
-22.799356 -10.280700 3.879021 22.00000000
25.199675 -59.800606 3.879021 22.00000000
54.810055 -40.907307 3.879021 22.00000000
-44.317455 -1.556665 3.879021 22.00000000
68.750862 8.855488 3.879021 22.00000000
21.214546 32.770309 3.879021 22.00000000
-41.653194 10.784288 3.879021 22.00000000
42.476635 -51.328182 3.879021 22.00000000
14.974574 -29.529633 3.879021 22.00000000
-59.227493 -20.718538 3.879021 22.00000000
17.707920 -67.878212 3.879021 22.00000000
17.050804 -59.803726 3.879021 22.00000000
63.440662 -4.335591 3.879021 22.00000000
-13.097066 36.609165 3.879021 22.00000000
32.870865 -40.239220 3.879021 22.00000000
0.561218 45.847466 3.879021 22.00000000
44.629452 11.117358 3.879021 22.00000000
66.619865 -25.076593 3.879021 22.00000000
63.905140 42.119991 3.879021 22.00000000
14.801708 48.720764 3.879021 22.00000000
36.860580 -18.930962 3.879021 22.00000000
-34.410500 -35.718952 3.879021 22.00000000
-51.702480 -39.678207 3.879021 22.00000000
-16.025099 30.553778 3.879021 22.00000000
-49.879395 47.747643 3.879021 22.00000000
-8.037991 -40.001793 3.879021 22.00000000
52.615532 35.944763 3.879021 22.00000000
-58.253326 -0.558319 3.879021 22.00000000
-51.275986 33.246067 3.879021 22.00000000
25.378254 -33.419109 3.879021 22.00000000
59.202255 -16.213125 3.879021 22.00000000
34.725163 41.548946 3.879021 22.00000000
76.948212 -5.214155 3.879021 22.00000000
4.396809 -43.401291 3.879021 22.00000000
-54.747288 39.589306 3.879021 22.00000000
74.618706 7.114768 3.879021 22.00000000
7.327620 -57.549454 3.879021 22.00000000
27.907990 -13.037178 3.879021 22.00000000
-41.829094 -46.234867 3.879021 22.00000000
-1.910460 -20.897383 3.879021 22.00000000
31.882477 -62.578674 3.879021 22.00000000
-48.396652 -21.510290 3.879021 22.00000000
6.898318 53.604687 3.879021 22.00000000
-38.141335 52.302353 3.879021 22.00000000
56.647022 -48.349106 3.879021 22.00000000
71.827553 41.889660 3.879021 22.00000000
-51.568409 19.227308 3.879021 22.00000000
-63.966827 -16.987680 3.879021 22.00000000
46.598534 -33.068470 3.879021 22.00000000
51.495369 18.762699 3.879021 22.00000000
-37.106125 -8.641108 3.879021 22.00000000
21.888603 -47.225277 3.879021 22.00000000
26.856005 43.616982 3.879021 22.00000000
52.260742 -19.958347 3.879021 22.00000000
4.375825 67.892342 3.879021 22.00000000
45.779476 -46.609055 3.879021 22.00000000
-46.923889 -40.580902 3.879021 22.00000000
73.264542 16.308304 3.879021 22.00000000
-20.553095 -25.531769 3.879021 22.00000000
62.352188 -30.950647 3.879021 22.00000000
-42.131058 60.117214 3.879021 22.00000000
-35.444962 13.856569 3.879021 22.00000000
-35.483360 7.625896 3.879021 22.00000000
15.892217 -23.755335 3.879021 22.00000000
72.519920 -6.696524 3.879021 22.00000000
-45.578720 -28.220730 3.879021 22.00000000
78.517502 17.794453 3.879021 22.00000000
-9.233382 -57.106602 3.879021 22.00000000
-28.647455 40.281387 3.879021 22.00000000
-28.257547 -8.514558 3.879021 22.00000000
23.502254 73.266518 3.879021 22.00000000
65.549339 -35.096626 3.879021 22.00000000
77.326935 25.709145 3.879021 22.00000000
-63.303478 32.399857 3.879021 22.00000000
-19.230867 46.930027 3.879021 22.00000000
-42.376343 0.768178 3.879021 22.00000000
39.716949 33.320389 3.879021 22.00000000
12.690958 46.012131 3.879021 22.00000000
60.033302 15.144108 3.879021 22.00000000
16.645302 -52.797276 3.879021 22.00000000
-21.387217 5.997412 -7.358665 23.00000000
-21.244953 4.137422 -28.431589 23.00000000
-21.020067 1.197211 -40.938042 23.00000000
-21.321651 5.140176 -2.641437 23.00000000
-21.194887 3.482843 -3.009301 23.00000000
-20.983435 0.718258 -8.873186 23.00000000
-21.111000 2.386073 -14.799788 23.00000000
-21.268745 4.448486 -27.782352 23.00000000
-21.064241 1.774745 -4.795972 23.00000000
-21.157669 2.996237 -42.417461 23.00000000
-21.409658 6.290804 -17.959503 23.00000000
-21.053072 1.628720 -45.126453 23.00000000
-21.134865 2.698087 -56.331039 23.00000000
-21.405975 6.242661 -14.487032 23.00000000
-21.387705 6.003787 -18.574471 23.00000000
-21.050083 1.589642 -32.454365 23.00000000
-21.040775 1.467957 -51.053864 23.00000000
-21.419786 6.423226 -45.896626 23.00000000
-21.481495 7.230006 -2.805987 23.00000000
-21.053699 1.636923 -57.054592 23.00000000
-20.945993 0.228756 -37.894142 23.00000000
-21.238964 4.059116 -43.053104 23.00000000
-21.188143 3.394649 -3.574198 23.00000000
-21.277414 4.561811 -55.119270 23.00000000
-21.397566 6.132706 -21.934719 23.00000000
-21.121046 2.517429 -31.339188 23.00000000
-21.133324 2.677932 -41.153206 23.00000000
-20.926147 -0.030729 -16.585161 23.00000000
-21.076521 1.935283 -12.985760 23.00000000
-20.968729 0.525998 -56.469032 23.00000000
-21.138613 2.747088 -22.139702 23.00000000
-21.139256 2.755488 -44.330154 23.00000000
-21.079226 1.970664 -3.536819 23.00000000
-20.988817 0.788632 -5.584922 23.00000000
-20.921091 -0.096844 -8.875990 23.00000000
-21.093672 2.159518 -27.751905 23.00000000
-21.237997 4.046482 -53.290104 23.00000000
-21.299969 4.856693 -48.926350 23.00000000
-21.539593 7.989599 -34.719662 23.00000000
-21.511986 7.628650 -42.219334 23.00000000
-21.008207 1.042147 0.151062 23.00000000
-21.435835 6.633038 -52.438362 23.00000000
-21.370142 5.774165 -5.879818 23.00000000
-20.937971 0.123863 -52.561947 23.00000000
-21.426512 6.511145 -0.542824 23.00000000
-21.303625 4.904515 -25.598280 23.00000000
-21.224653 3.872004 -26.477991 23.00000000
-21.076683 1.937404 -37.046478 23.00000000
-21.090998 2.124554 -11.669577 23.00000000
-21.140226 2.768194 -57.057323 23.00000000
-21.172131 3.185322 -20.024078 23.00000000
-21.307281 4.952315 -35.620113 23.00000000
-21.410955 6.307770 -55.820980 23.00000000
-21.218311 3.789094 -36.204262 23.00000000
-21.309797 4.985218 -19.398312 23.00000000
-21.226379 3.894567 -15.268624 23.00000000
-21.273819 4.514820 2.539891 23.00000000
-21.253649 4.251113 -48.470715 23.00000000
-21.047766 1.559323 -24.113049 23.00000000
-21.167271 3.121776 -52.675613 23.00000000
-21.360720 5.650975 -44.754616 23.00000000
-21.239136 4.061363 -36.856285 23.00000000
-21.123474 2.549184 -30.101521 23.00000000
-21.200909 3.561555 -59.259590 23.00000000
-21.377918 5.875826 -61.095284 23.00000000
-21.487055 7.302702 -40.690948 23.00000000
-21.485840 7.286821 -52.554417 23.00000000
-21.458504 6.929425 -3.421893 23.00000000
-21.442093 6.714856 -45.328487 23.00000000
-21.037823 1.429344 -44.066589 23.00000000
-21.316559 5.073596 -38.989170 23.00000000
-21.244249 4.128206 -33.815144 23.00000000
-20.970118 0.544152 -14.772757 23.00000000
-21.222853 3.848473 -44.527218 23.00000000
-21.250504 4.209987 0.170452 23.00000000
-21.029270 1.317522 -10.626965 23.00000000
-21.065279 1.788308 -54.737816 23.00000000
-21.119135 2.492432 -58.913437 23.00000000
-20.918055 -0.136527 -48.091347 23.00000000
-21.452717 6.853776 -57.537399 23.00000000
-21.311460 5.006954 -46.619652 23.00000000
-21.235727 4.016803 -21.686600 23.00000000
-21.075974 1.928141 -49.503838 23.00000000
-21.006012 1.013434 -0.611426 23.00000000
-21.533012 7.903572 -35.400681 23.00000000
-20.927053 -0.018886 -43.066528 23.00000000
-21.452290 6.848188 -4.596738 23.00000000
-21.305664 4.931170 -1.732954 23.00000000
-20.919025 -0.123836 -19.529816 23.00000000
-21.536793 7.953003 -14.193243 23.00000000
-21.086966 2.071838 -5.367774 23.00000000
-21.421829 6.449941 -19.456553 23.00000000
-21.289038 4.713781 -7.807566 23.00000000
-21.372416 5.803883 -46.801991 23.00000000
-21.526922 7.823960 -53.505077 23.00000000
-21.056742 1.676691 -10.049465 23.00000000
-21.492046 7.367973 -41.518185 23.00000000
-21.165064 3.092921 -40.422550 23.00000000
-21.496309 7.423715 -18.919088 23.00000000
-21.364660 5.702509 -42.810890 23.00000000
-21.399218 6.154299 -50.228195 23.00000000
-21.291016 4.739634 -52.388241 23.00000000
-21.277369 4.561212 -42.020382 23.00000000
-21.304747 4.919162 -58.456600 23.00000000
-21.122320 2.534074 -52.214718 23.00000000
-21.362406 5.673020 -17.664547 23.00000000
-21.383406 5.947562 -23.277046 23.00000000
-21.203337 3.593311 -60.030804 23.00000000
-21.358671 5.624187 -55.911865 23.00000000
-21.437828 6.659102 -48.919357 23.00000000
-21.394253 6.089402 -53.030518 23.00000000
-20.934912 0.083857 -25.732204 23.00000000
-21.106710 2.329986 -17.840805 23.00000000
-21.357098 5.603606 -13.874641 23.00000000
-21.441351 6.705158 -54.879387 23.00000000
-21.444355 6.744444 -61.072662 23.00000000
-21.191780 3.442225 -41.682716 23.00000000
-21.184074 3.341464 -46.711903 23.00000000
-21.535141 7.931408 -22.748880 23.00000000
-21.468945 7.065944 -22.856735 23.00000000
-21.535870 7.940930 -57.571949 23.00000000
-21.208834 3.665172 -9.696435 23.00000000
-21.048044 1.562989 -52.471767 23.00000000
-20.982031 0.699908 -48.155445 23.00000000
-21.189398 3.411075 3.750588 23.00000000
-21.487947 7.314383 -59.147469 23.00000000
-21.356394 5.594417 -34.660217 23.00000000
-21.319956 5.118015 -31.597719 23.00000000
-21.114279 2.428930 -22.822630 23.00000000
-21.363714 5.690119 1.964626 23.00000000
-21.125877 2.580578 -38.313812 23.00000000
-21.138037 2.739560 -38.852272 23.00000000
-21.042963 1.496544 -28.748508 23.00000000
-21.367189 5.735566 -58.709183 23.00000000
-21.474129 7.133705 -20.998657 23.00000000
-21.293095 4.766828 -30.452791 23.00000000
-21.161160 3.041864 -60.649239 23.00000000
-21.034641 1.387755 -14.499813 23.00000000
-21.189722 3.415318 -55.512703 23.00000000
-20.942963 0.189105 -22.096634 23.00000000
-21.424603 6.486186 -1.312476 23.00000000
-21.096687 2.198955 -17.092590 23.00000000
-21.026354 1.279388 -50.348976 23.00000000
-20.973413 0.587227 -36.698307 23.00000000
-21.446457 6.771910 -7.141893 23.00000000
-20.977831 0.644981 -6.227440 23.00000000
-21.216713 3.768185 -35.124180 23.00000000
-21.457939 6.922058 -44.018547 23.00000000
-21.444258 6.743174 0.667856 23.00000000
-20.919344 -0.119691 -49.153252 23.00000000
-21.277884 4.567964 -12.339168 23.00000000
-21.163738 3.075586 -58.675888 23.00000000
-21.167685 3.127179 -32.025948 23.00000000
-21.536070 7.943549 -3.990179 23.00000000
-21.479675 7.206230 -3.910184 23.00000000
-21.483271 7.253244 -35.274509 23.00000000
-21.103779 2.291675 -44.780216 23.00000000
-20.918156 -0.135212 -30.416866 23.00000000
-21.535864 7.940857 -24.904648 23.00000000
-20.925083 -0.044633 -3.709140 23.00000000
-21.152395 2.927306 1.667071 23.00000000
-21.049677 1.584332 -17.614271 23.00000000
-20.999878 0.933230 -2.657972 23.00000000
-21.355551 5.583384 -59.567196 23.00000000
-21.190315 3.423069 -17.611792 23.00000000
-21.384138 5.957160 -54.984112 23.00000000
-21.423780 6.475446 -5.194590 23.00000000
-20.942533 0.183503 -46.353313 23.00000000
-21.030201 1.329691 -60.060474 23.00000000
-21.125475 2.575321 -8.609516 23.00000000
-21.187023 3.380041 -5.700729 23.00000000
-21.306084 4.936647 -20.744534 23.00000000
-21.516638 7.689489 -37.964172 23.00000000
-21.270025 4.465216 -25.089342 23.00000000
-21.112095 2.400376 -13.856023 23.00000000
-21.076452 1.934397 -19.752689 23.00000000
-21.001812 0.958532 -45.181278 23.00000000
-21.211868 3.704867 -47.770794 23.00000000
-20.999575 0.929287 -55.711040 23.00000000
-21.153580 2.942772 -3.959404 23.00000000
-21.168030 3.131703 -54.484718 23.00000000
-21.342133 5.407950 -44.162838 23.00000000
-21.257639 4.303269 -56.482849 23.00000000
-21.465569 7.021805 -15.263193 23.00000000
-21.057144 1.681952 0.055869 23.00000000
-21.112135 2.400907 -29.470055 23.00000000
-21.202646 3.584288 -30.894993 23.00000000
-20.922506 -0.078327 -14.644804 23.00000000
-21.062801 1.755910 -26.329491 23.00000000
-20.945518 0.222529 -19.969435 23.00000000
-21.296795 4.815212 -7.142698 23.00000000
-21.427334 6.521912 0.129866 23.00000000
-21.535517 7.936314 -19.934404 23.00000000
-21.445875 6.764318 -25.740992 23.00000000
-21.356524 5.596106 -28.788584 23.00000000
-21.281990 4.621648 -34.225910 23.00000000
-21.354853 5.574257 -30.471264 23.00000000
-21.080294 1.984607 -30.428818 23.00000000
-21.062025 1.745783 -33.335709 23.00000000
-21.478373 7.189191 -32.905510 23.00000000
-20.978271 0.650746 -48.788101 23.00000000
-20.966171 0.492562 -32.675064 23.00000000
-21.424665 6.487029 -44.577583 23.00000000
-21.474434 7.137704 2.681033 23.00000000
-20.922956 -0.072445 -32.420216 23.00000000
-21.335720 5.324129 -23.565456 23.00000000
-21.355438 5.581940 -14.597530 23.00000000
-20.922012 -0.084786 -15.446572 23.00000000
-21.539476 7.988085 -0.459755 23.00000000
-21.402906 6.202546 -8.931943 23.00000000
-21.132893 2.672318 -26.609110 23.00000000
-21.167566 3.125636 -39.588585 23.00000000
-21.198612 3.531545 -2.177921 23.00000000
-21.266338 4.417025 -54.466423 23.00000000
-21.349070 5.498654 -25.256701 23.00000000
-20.976381 0.626049 -4.139584 23.00000000
-20.949854 0.279211 -1.005243 23.00000000
-21.220793 3.821535 -24.813576 23.00000000
-21.328003 5.223235 -59.063457 23.00000000
-20.928213 -0.003717 -4.350061 23.00000000
-21.018171 1.172410 -16.096970 23.00000000
-21.191151 3.433998 -4.425359 23.00000000
-21.274471 4.523346 -15.339431 23.00000000
-21.517794 7.704594 -60.506004 23.00000000
-21.362860 5.678958 -24.725693 23.00000000
-21.095308 2.180931 -18.428343 23.00000000
-21.533602 7.911282 -18.457724 23.00000000
-21.064348 1.776153 -47.784126 23.00000000
-21.245274 4.141605 -29.162659 23.00000000
-20.968430 0.522073 1.616458 23.00000000
-21.390751 6.043607 2.471145 23.00000000
-20.996817 0.893221 -52.298290 23.00000000
-21.443060 6.727509 -47.438469 23.00000000
-21.283953 4.647298 -37.413239 23.00000000
-21.339573 5.374491 -54.877262 23.00000000
-21.237328 4.037724 -5.344607 23.00000000
-21.467442 7.046273 -27.503910 23.00000000
-21.497089 7.433912 -61.069935 23.00000000
-21.290920 4.738403 -8.400021 23.00000000
-21.271885 4.489530 -31.316236 23.00000000
-21.515448 7.673913 -12.648053 23.00000000
-21.350513 5.517526 -50.348930 23.00000000
-21.297289 4.821669 -24.061472 23.00000000
-21.031124 1.341773 -2.063594 23.00000000
-20.917933 -0.138140 -44.150307 23.00000000
-21.308844 4.972723 -61.024139 23.00000000
-21.412086 6.322567 -51.836002 23.00000000
-20.952936 0.319509 -36.141174 23.00000000
-21.096849 2.201061 -36.186054 23.00000000
-21.307739 4.958305 -26.244104 23.00000000
-21.061211 1.735113 -43.486801 23.00000000
-20.985085 0.739835 -58.638027 23.00000000
-21.357893 5.614012 -35.638908 23.00000000
-21.486694 7.298005 -37.468868 23.00000000
-21.419777 6.423093 -28.441862 23.00000000
-21.309845 4.985827 -13.938729 23.00000000
-21.168049 3.131937 -50.320026 23.00000000
-21.105804 2.318149 0.739042 23.00000000
-21.143431 2.810073 -41.768280 23.00000000
-21.270050 4.465534 -52.904778 23.00000000
-21.395832 6.110058 3.651625 23.00000000
-21.370724 5.781778 -9.623430 23.00000000
-21.163603 3.073819 -33.473850 23.00000000
-21.082096 2.008191 -47.181648 23.00000000
-21.042620 1.492044 -28.127254 23.00000000
-21.507114 7.564986 -45.357487 23.00000000
-21.053263 1.631196 -27.477077 23.00000000
-21.215176 3.748106 -40.564842 23.00000000
-21.257751 4.304741 -24.304962 23.00000000
-21.308645 4.970155 -3.883963 23.00000000
-21.016762 1.153990 -9.483201 23.00000000
-20.940414 0.155810 -3.032939 23.00000000
-21.525951 7.811254 -32.457058 23.00000000
-21.346317 5.462688 -7.554326 23.00000000
-20.925900 -0.033978 -26.798134 23.00000000
-21.424524 6.485182 -24.843330 23.00000000
-21.113647 2.420686 3.802034 23.00000000
-20.989618 0.799120 -30.224810 23.00000000
-21.468100 7.054890 -13.013871 23.00000000
-21.028149 1.302867 -13.135980 23.00000000
-21.329672 5.245034 -26.813910 23.00000000
-20.964478 0.470418 -37.262230 23.00000000
-21.410698 6.304398 -43.136852 23.00000000
-21.175236 3.225902 -30.028671 23.00000000
-21.279093 4.583751 -45.182713 23.00000000
-21.485842 7.286844 -25.409645 23.00000000
-21.184031 3.340885 -44.805794 23.00000000
-21.376291 5.854562 -2.498040 23.00000000
-21.532709 7.899617 -21.891356 23.00000000
-21.020266 1.199795 -6.011454 23.00000000
-21.076714 1.937800 -20.484303 23.00000000
-20.940842 0.161378 -21.503096 23.00000000
-21.235180 4.009639 -18.489174 23.00000000
-21.347736 5.481219 -19.939711 23.00000000
-21.281853 4.619850 -23.361980 23.00000000
-21.186152 3.368617 -0.541432 23.00000000
-21.465837 7.025308 -56.541515 23.00000000
-21.248100 4.178562 -35.693001 23.00000000
-21.169470 3.150530 -59.670052 23.00000000
-20.964426 0.469739 3.837588 23.00000000
-20.921085 -0.096898 -50.211369 23.00000000
-21.472061 7.106676 -53.186844 23.00000000
-21.400669 6.173279 -27.543871 23.00000000
-21.532568 7.897759 3.358536 23.00000000
-21.523878 7.784146 -58.345966 23.00000000
-20.975546 0.615121 -19.444427 23.00000000
-20.983553 0.719801 -1.980909 23.00000000
-20.962191 0.440497 -10.376630 23.00000000
-21.189220 3.408749 -8.824757 23.00000000
-21.518213 7.710096 -8.259923 23.00000000
-21.226139 3.891433 2.579013 23.00000000
-21.073009 1.889377 -48.817474 23.00000000
-21.512295 7.632695 -3.294530 23.00000000
-21.110395 2.378177 2.205218 23.00000000
-20.982452 0.705405 -52.999424 23.00000000
-21.060398 1.724503 -2.598878 23.00000000
-21.462090 6.976304 -23.882862 23.00000000
-21.136328 2.717212 -23.530512 23.00000000
-21.495792 7.416954 -33.996403 23.00000000
-21.092802 2.148153 -5.992277 23.00000000
-21.327288 5.213885 -50.868382 23.00000000
-21.018705 1.179393 -33.112240 23.00000000
-21.399509 6.158128 -26.313887 23.00000000
-21.203249 3.592163 -52.230900 23.00000000
-21.394274 6.089662 -45.278610 23.00000000
-21.410398 6.300496 -56.528271 23.00000000
-21.440130 6.689221 -50.798679 23.00000000
-21.171278 3.174162 -34.744869 23.00000000
-21.284525 4.654778 -18.440229 23.00000000
-21.463600 6.996066 -39.804497 23.00000000
-21.502970 7.510775 -0.984579 23.00000000
-21.114643 2.433718 -42.421890 23.00000000
-20.975031 0.608382 -33.510174 23.00000000
-21.285025 4.661319 -9.021009 23.00000000
-21.168791 3.141658 -19.319065 23.00000000
-21.056017 1.667219 -0.800982 23.00000000
-21.202377 3.580770 0.345747 23.00000000
-20.979891 0.671918 -38.427456 23.00000000
-21.236797 4.030791 -43.669308 23.00000000
-20.937668 0.119880 -8.269348 23.00000000
-21.050915 1.600512 -36.375797 23.00000000
-21.363739 5.690447 -5.174042 23.00000000
-21.086308 2.063247 -41.171150 23.00000000
-21.493849 7.391524 3.713976 23.00000000
-21.191132 3.433727 -42.982727 23.00000000
-21.463573 6.995711 -34.542233 23.00000000
-21.449184 6.807585 -31.613235 23.00000000
-21.010611 1.073555 -33.956238 23.00000000
-21.368961 5.758718 -38.939754 23.00000000
-21.287947 4.699521 -44.443024 23.00000000
-21.062717 1.754810 1.542803 23.00000000
-21.051638 1.609953 3.644950 23.00000000
-21.057478 1.686305 -16.606550 23.00000000
-21.083187 2.022439 -60.269577 23.00000000
-21.329767 5.246292 -22.811192 23.00000000
-21.439920 6.686471 -41.485950 23.00000000
-21.309467 4.980883 3.021620 23.00000000
-21.142347 2.795913 -18.276218 23.00000000
-21.161837 3.050737 -27.436773 23.00000000
-21.434397 6.614241 -12.543884 23.00000000
-21.505304 7.541301 -39.279335 23.00000000
-21.371374 5.790278 -46.005131 23.00000000
-21.161497 3.046285 -17.017656 23.00000000
-20.921799 -0.087585 -14.025664 23.00000000
-21.363804 5.691293 -39.820930 23.00000000
-21.035486 1.398804 -3.850819 23.00000000
-21.474295 7.135877 -32.261169 23.00000000
-21.110819 2.383701 -10.244584 23.00000000
-20.922874 -0.073528 -39.306000 23.00000000
-21.457546 6.916907 -60.390823 23.00000000
-21.341972 5.405874 0.739004 23.00000000
-21.262012 4.360455 -4.793314 23.00000000
-21.041077 1.471872 -25.721848 23.00000000
-21.078949 1.967040 -53.755955 23.00000000
-21.238810 4.057098 -8.024187 23.00000000
-21.027407 1.293146 -46.173035 23.00000000
-20.917910 -0.138422 -53.134983 23.00000000
-20.992096 0.831480 -21.729149 23.00000000
-21.095478 2.183154 -57.268642 23.00000000
-20.939987 0.150227 -23.127253 23.00000000
-20.929394 0.011703 -41.755337 23.00000000
-21.346962 5.471106 -43.470070 23.00000000
-21.395330 6.103492 -10.310046 23.00000000
-21.259289 4.324841 -14.799763 23.00000000
-21.237738 4.043073 -0.634196 23.00000000
-21.134884 2.698341 -55.637577 23.00000000
-21.272736 4.500653 -13.318402 23.00000000
-21.308809 4.972300 -24.645224 23.00000000
-21.389210 6.023446 -57.648994 23.00000000
-21.443859 6.737954 -37.417255 23.00000000
-21.538828 7.979597 -33.636387 23.00000000
-21.476690 7.167212 -2.052704 23.00000000
-21.524694 7.794831 -23.637569 23.00000000
-21.236446 4.026202 -17.063030 23.00000000
-21.156452 2.980327 -48.816956 23.00000000
-21.028006 1.300986 -38.153336 23.00000000
-21.292126 4.754153 -6.556713 23.00000000
-21.317595 5.087157 -49.538513 23.00000000
-21.403921 6.215796 -25.453419 23.00000000
-21.064062 1.772401 -21.453230 23.00000000
-21.345037 5.445945 -6.748179 23.00000000
-21.481977 7.236336 -16.375725 23.00000000
-21.375273 5.841232 -15.430424 23.00000000
-21.153549 2.942371 -51.709534 23.00000000
-20.917931 -0.138157 -12.871472 23.00000000
-21.334003 5.301683 -34.007851 23.00000000
-20.956516 0.366318 -11.671024 23.00000000
-21.304024 4.909714 -22.175434 23.00000000
-21.308220 4.964582 1.199684 23.00000000
-21.335649 5.323190 -31.022823 23.00000000
-21.315191 5.055724 -36.326859 23.00000000
-21.534742 7.926183 -37.043110 23.00000000
-21.431267 6.573325 -2.891933 23.00000000
-21.436602 6.643074 -6.555752 23.00000000
-21.235132 4.009006 -1.727719 23.00000000
-21.426470 6.510615 -32.626190 23.00000000
-20.922516 -0.078204 -45.690914 23.00000000
-21.113043 2.412773 -61.064522 23.00000000
-21.442406 6.718950 -11.829042 23.00000000
-20.994268 0.859902 -43.211937 23.00000000
-21.518848 7.718395 0.218402 23.00000000
-21.533588 7.911103 -5.720415 23.00000000
-21.002031 0.961392 -32.285507 23.00000000
-21.531557 7.884547 -9.662351 23.00000000
-21.138138 2.740880 -51.119549 23.00000000
-21.187864 3.391032 -28.856588 23.00000000
-21.525858 7.810017 -56.655125 23.00000000
-21.485897 7.287575 -18.241343 23.00000000
-21.180187 3.290664 -21.850424 23.00000000
-21.272999 4.504092 -19.056652 23.00000000
-20.919767 -0.114135 -17.237894 23.00000000
-21.230518 3.948697 -13.039733 23.00000000
-21.054304 1.644832 -11.222617 23.00000000
-21.439821 6.685179 -9.642010 23.00000000
-21.383720 5.951682 -40.627918 23.00000000
-21.130346 2.639017 -19.685753 23.00000000
-21.061352 1.736968 -13.850474 23.00000000
-21.396666 6.120943 -4.377546 23.00000000
-21.362453 5.673649 -51.665577 23.00000000
-21.528669 7.846793 -46.846893 23.00000000
-21.130709 2.643743 -1.904795 23.00000000
-21.129976 2.634192 -36.623180 23.00000000
-20.970762 0.552578 -9.588858 23.00000000
-21.396004 6.112289 -53.833408 23.00000000
-21.309002 4.974810 -56.752827 23.00000000
-21.464052 7.001967 -8.160768 23.00000000
-21.371454 5.791314 -1.304490 23.00000000
-21.314827 5.050958 -56.132282 23.00000000
-21.085617 2.054230 -50.995243 23.00000000
-20.970924 0.554709 -40.953716 23.00000000
-21.238651 4.055029 -16.323807 23.00000000
-21.216393 3.764015 -7.350176 23.00000000
-21.405334 6.234284 1.832781 23.00000000
-21.531055 7.877980 -11.184878 23.00000000
-21.093256 2.154091 -23.695656 23.00000000
-21.128912 2.620258 -53.675892 23.00000000
-21.271732 4.487537 -32.891865 23.00000000
-21.374851 5.835725 -12.335899 23.00000000
-21.122305 2.533880 -20.469236 23.00000000
-20.928299 -0.002603 -33.158577 23.00000000
-21.403620 6.211860 -42.199795 23.00000000
-20.970114 0.544097 -14.074824 23.00000000
-21.075457 1.921369 -15.985682 23.00000000
-21.494568 7.400935 -31.276237 23.00000000
-21.260948 4.346546 -57.235584 23.00000000
-21.354191 5.565608 -16.097204 23.00000000
-21.306089 4.936724 -59.616196 23.00000000
-20.942554 0.183776 -5.811165 23.00000000
-21.151487 2.915429 -1.263541 23.00000000
-20.925097 -0.044457 3.435166 23.00000000
-21.118917 2.489585 -34.476612 23.00000000
-21.088388 2.090453 -28.551634 23.00000000
-21.054430 1.646465 -8.112186 23.00000000
-21.365864 5.718238 -3.088145 23.00000000
-21.482038 7.237124 -6.658146 23.00000000
-20.973925 0.593910 -20.632685 23.00000000
-20.973074 0.582796 -18.828320 23.00000000
-21.316969 5.078948 -37.004456 23.00000000
-21.199474 3.542818 -28.056446 23.00000000
-21.095943 2.189236 -7.640964 23.00000000
-21.344706 5.441593 -8.832648 23.00000000
-21.061235 1.735455 -19.165667 23.00000000
-21.457157 6.911831 -20.359083 23.00000000
-21.180952 3.300654 -8.154382 23.00000000
-21.053371 1.632617 -15.433876 23.00000000
-21.108885 2.358428 -1.019574 23.00000000
-21.080370 1.985608 -51.777412 23.00000000
-21.295033 4.792158 -42.778709 23.00000000
-21.119381 2.495651 -58.061207 23.00000000
-21.379744 5.899697 -26.938618 23.00000000
-21.121471 2.522978 0.108915 23.00000000
-21.039877 1.456184 -59.347698 23.00000000
-21.411842 6.319379 -23.748886 23.00000000
-21.353876 5.561508 -25.908075 23.00000000
-21.432915 6.594856 -3.973535 23.00000000
-21.219061 3.798895 -13.669553 23.00000000
-21.285105 4.662375 -10.419619 23.00000000
-20.991493 0.823632 -39.803665 23.00000000
-21.358950 5.627835 -21.322948 23.00000000
-21.529470 7.857276 -45.912457 23.00000000
-21.466217 7.030271 -58.323151 23.00000000
-21.111288 2.389839 -54.378036 23.00000000
-21.071304 1.867099 -1.438044 23.00000000
-20.991758 0.827080 -11.187499 23.00000000
-21.538582 7.976377 -56.002403 23.00000000
-20.955162 0.348618 -43.569065 23.00000000
-20.923979 -0.059096 2.598503 23.00000000
-21.293385 4.770628 -11.395266 23.00000000
-21.108900 2.358632 -11.015872 23.00000000
-21.170067 3.158341 -10.232906 23.00000000
-21.430613 6.564766 -15.792400 23.00000000
-21.389673 6.029531 -20.741554 23.00000000
-21.039072 1.445672 -20.870680 23.00000000
-21.226002 3.889630 -55.158875 23.00000000
-21.158377 3.005482 -55.085754 23.00000000
-21.204821 3.612708 -21.237099 23.00000000
-21.379309 5.894002 0.302798 23.00000000
-21.539536 7.988847 -25.831944 23.00000000
-21.432867 6.594251 -5.882666 23.00000000
-21.169741 3.154077 -16.244217 23.00000000
-21.252369 4.234359 -17.786222 23.00000000
-21.358503 5.621995 -52.453655 23.00000000
-21.436522 6.642033 -48.182037 23.00000000
-21.181774 3.311410 -14.761825 23.00000000
-21.311974 5.013666 -54.414879 23.00000000
-21.245478 4.144260 -29.771542 23.00000000
-20.951281 0.297872 -25.032431 23.00000000
-21.228197 3.918340 -39.410622 23.00000000
-21.519226 7.723330 -13.297713 23.00000000
-21.309784 4.985028 -45.932323 23.00000000
-21.498573 7.453314 -26.333027 23.00000000
-20.937714 0.120495 -2.306582 23.00000000
-21.400805 6.175052 -34.657269 23.00000000
-21.111214 2.388883 -59.613697 23.00000000
-21.374134 5.826372 -1.904891 23.00000000
-20.927547 -0.012415 -34.072769 23.00000000
-20.920835 -0.100171 0.942207 23.00000000
-21.077318 1.945729 -35.467812 23.00000000
-21.010090 1.066749 -10.068132 23.00000000
-21.324568 5.178314 -12.524955 23.00000000
-21.277721 4.565842 -39.607834 23.00000000
-21.071115 1.864612 -38.267441 23.00000000
-21.219135 3.799857 -53.872684 23.00000000
-20.982258 0.702865 -54.246952 23.00000000
-21.530863 7.875476 2.414451 23.00000000
-21.034595 1.387140 -29.380529 23.00000000
-21.156614 2.982455 -11.240138 23.00000000
-21.315308 5.057253 0.142456 23.00000000
-20.926435 -0.026961 -51.754791 23.00000000
-21.529312 7.855197 -2.331332 23.00000000
-21.428696 6.539703 -53.420444 23.00000000
-21.087677 2.081147 -12.330734 23.00000000
-21.243092 4.113076 -45.587624 23.00000000
-21.074371 1.907186 -22.483076 23.00000000
-21.046049 1.536889 -60.716454 23.00000000
-20.933468 0.064974 -4.954802 23.00000000
-21.344027 5.432724 -45.479828 23.00000000
-20.920126 -0.109452 -7.573816 23.00000000
-21.011711 1.087953 -19.128759 23.00000000
-21.345301 5.449386 3.853975 23.00000000
-20.963465 0.457166 -15.779336 23.00000000
-21.535852 7.940694 -28.791063 23.00000000
-21.165487 3.098455 -13.385605 23.00000000
-21.294392 4.783783 -29.631813 23.00000000
-20.997604 0.903520 -4.969999 23.00000000
-21.360558 5.648846 -37.181648 23.00000000
-20.964277 0.467803 0.432342 23.00000000
-21.240974 4.085387 -23.716961 23.00000000
-21.529873 7.862522 -41.146622 23.00000000
-21.255852 4.279890 -61.109882 23.00000000
-20.989601 0.798888 -29.556454 23.00000000
-21.111021 2.386353 -46.403748 23.00000000
-21.014498 1.124372 -22.471373 23.00000000
-21.087509 2.078967 -9.085484 23.00000000
-21.515837 7.679021 -1.648888 23.00000000
-21.505718 7.546712 -59.837234 23.00000000
-21.535534 7.936539 -42.962288 23.00000000
-21.384325 5.959598 -11.671132 23.00000000
-21.421682 6.448023 -46.624695 23.00000000
-21.078558 1.961930 -7.078714 23.00000000
-21.300528 4.864009 -15.917136 23.00000000
-20.926069 -0.031753 -18.716848 23.00000000
-21.178013 3.262209 -49.720123 23.00000000
-21.401112 6.179064 -13.205335 23.00000000
-21.302164 4.885404 3.588155 23.00000000
-20.940002 0.150413 -6.871878 23.00000000
-21.074545 1.909462 -25.292879 23.00000000
-20.929775 0.016716 -54.237747 23.00000000
-21.516659 7.689764 -49.436241 23.00000000
-21.488308 7.319088 -29.321358 23.00000000
-21.120899 2.515510 -33.091904 23.00000000
-21.442055 6.714371 -26.561186 23.00000000
-21.319635 5.113820 -21.598127 23.00000000
-21.328041 5.223726 -57.315018 23.00000000
-21.409283 6.285889 -59.514996 23.00000000
-21.536211 7.945386 -16.319836 23.00000000
-20.982634 0.707784 -25.971819 23.00000000
-20.962738 0.447662 -59.768608 23.00000000
-21.128454 2.614284 -9.722000 23.00000000
-21.373550 5.818737 -19.380005 23.00000000
-21.299911 4.855962 -41.406479 23.00000000
-21.352165 5.539147 -32.534328 23.00000000
-21.446209 6.768678 -58.911312 23.00000000
-21.262383 4.365287 -9.678349 23.00000000
-21.056791 1.677353 -6.363823 23.00000000
-20.928053 -0.005828 -57.984180 23.00000000
-20.983150 0.714532 -42.460300 23.00000000
-21.198481 3.529816 -61.024269 23.00000000
-21.358271 5.618962 -47.468002 23.00000000
-21.102606 2.276319 -40.592976 23.00000000
-21.487919 7.314000 -22.221676 23.00000000
-21.007107 1.027750 -24.565880 23.00000000
-20.922308 -0.080927 0.176176 23.00000000
-21.086990 2.072164 -52.769985 23.00000000
-21.076530 1.935409 -56.494469 23.00000000
-20.968828 0.527285 -12.544263 23.00000000
-21.535610 7.937542 -31.732555 23.00000000
-21.056314 1.671118 -45.740345 23.00000000
-20.919012 -0.124020 -23.781809 23.00000000
-20.968979 0.529253 2.811815 23.00000000
-21.017328 1.161399 -49.090473 23.00000000
-21.246231 4.154139 -30.724533 23.00000000
-21.222656 3.845893 -32.871353 23.00000000
-21.152130 2.923827 -15.586800 23.00000000
-21.104061 2.295355 -15.534898 23.00000000
-21.476950 7.170587 -46.712353 23.00000000
-21.240719 4.082051 -41.579693 23.00000000
-21.208971 3.666972 -12.480481 23.00000000
-21.125566 2.576515 -25.883118 23.00000000
-21.086599 2.067063 -4.131522 23.00000000
-21.358692 5.624477 -54.243904 23.00000000
-21.477095 7.172484 -13.797577 23.00000000
-21.210245 3.683632 -32.334248 23.00000000
-21.133774 2.683812 -4.534621 23.00000000
-21.067028 1.811178 -46.562412 23.00000000
-21.157669 2.996250 -6.511821 23.00000000
-21.151667 2.917775 -2.511165 23.00000000
-20.951866 0.305521 -18.022879 23.00000000
-21.184780 3.350704 -41.041237 23.00000000
-21.234215 3.997007 -6.598649 23.00000000
-21.010000 1.065580 -12.295432 23.00000000
-21.181358 3.305955 -26.731953 23.00000000
-21.455395 6.888789 -33.419815 23.00000000
-21.507607 7.571417 -54.905472 23.00000000
-20.928066 -0.005645 -1.606491 23.00000000
-20.922556 -0.077700 -34.756638 23.00000000
-21.508814 7.587180 -40.069283 23.00000000
-21.021517 1.216161 -19.818581 23.00000000
-21.452103 6.845734 -16.954029 23.00000000
-21.008610 1.047398 -25.182970 23.00000000
-21.389906 6.032563 -3.688904 23.00000000
-21.201710 3.572033 1.026437 23.00000000
-21.530725 7.873673 -11.883107 23.00000000
-21.348368 5.489472 -22.274342 23.00000000
-21.121466 2.522908 -39.506748 23.00000000
-21.529362 7.855840 -27.411861 23.00000000
-21.267649 4.434136 -40.852608 23.00000000
-21.480137 7.212264 -10.580117 23.00000000
