-55.417046 -35.777866 2.593725 9.00000000
-48.222622 -44.851719 -18.837984 9.00000000
-50.934917 -41.763050 -56.286236 9.00000000
-52.442730 -39.892902 -19.146275 9.00000000
-52.047058 -40.415882 -12.056062 9.00000000
-53.458061 -38.550892 -47.557320 9.00000000
-55.420803 -35.772263 -49.798752 9.00000000
-48.102364 -44.978951 -31.422199 9.00000000
-53.184647 -38.920471 -24.377483 9.00000000
-53.404282 -38.641525 -27.815191 9.00000000
-47.208363 -45.924744 -60.831146 9.00000000
-50.283562 -42.532494 -52.611931 9.00000000
-54.484299 -37.162167 -5.278928 9.00000000
-56.521317 -34.138950 -50.816837 9.00000000
-49.028809 -43.998825 -45.267967 9.00000000
-48.744389 -44.299725 -58.282661 9.00000000
-49.042942 -43.983875 -33.049324 9.00000000
-50.450947 -42.334782 -25.300993 9.00000000
-48.802799 -44.237930 -38.133434 9.00000000
-55.984318 -34.935928 -54.625065 9.00000000
-54.315990 -37.411953 -58.435108 9.00000000
-53.418362 -38.603363 -45.722065 9.00000000
-47.533710 -45.580563 -18.630136 9.00000000
-50.236839 -42.587688 -44.363327 9.00000000
-52.845078 -39.361099 -22.494839 9.00000000
-51.518303 -41.073898 -6.184912 9.00000000
-49.480598 -43.481041 -31.651459 9.00000000
-51.354607 -41.270329 -46.005177 9.00000000
-55.112270 -36.230175 -17.719793 9.00000000
-47.659142 -45.447849 -44.113598 9.00000000
-52.490402 -39.829895 -11.114920 9.00000000
-54.478500 -37.170769 -23.076767 9.00000000
-56.489182 -34.186646 -2.488805 9.00000000
-52.419418 -39.923714 -57.499496 9.00000000
-54.515362 -37.116062 -17.525963 9.00000000
-54.872005 -36.586758 -34.406506 9.00000000
-53.423603 -38.596436 -56.474388 9.00000000
-48.481754 -44.577576 -59.957664 9.00000000
-54.045734 -37.774139 -32.984028 9.00000000
-49.862545 -43.047558 -3.188867 9.00000000
-55.393116 -35.813381 -0.875786 9.00000000
-47.077461 -46.063229 -44.550907 9.00000000
-47.989082 -45.098804 -10.529252 9.00000000
-55.279709 -35.981663 -59.233719 9.00000000
-49.186497 -43.828449 -44.492435 9.00000000
-48.564419 -44.490124 -9.797367 9.00000000
-48.528690 -44.527924 -6.860820 9.00000000
-56.477570 -34.203880 -49.225029 9.00000000
-49.627960 -43.306957 -40.164562 9.00000000
-53.750755 -38.164024 -58.754883 9.00000000
-47.663090 -45.443672 -38.798035 9.00000000
-54.742332 -36.779209 -27.199146 9.00000000
-46.387924 -46.792736 -35.000961 9.00000000
-53.717094 -38.211269 -28.902451 9.00000000
-55.559914 -35.565834 -2.370430 9.00000000
-51.407536 -41.204746 -38.390537 9.00000000
-56.158642 -34.677208 -53.687042 9.00000000
-56.570911 -34.065342 -33.768059 9.00000000
-50.513092 -42.261368 -28.640268 9.00000000
-50.404385 -42.400097 -15.707685 9.00000000
-48.343582 -44.723755 -24.775990 9.00000000
-56.129524 -34.720448 -3.650033 9.00000000
-52.323189 -40.050903 -33.650623 9.00000000
-47.679630 -45.426174 -40.860947 9.00000000
-53.850502 -38.032185 -12.964490 9.00000000
-56.435009 -34.267040 -58.849529 9.00000000
-46.983643 -46.162506 -22.057905 9.00000000
-53.871311 -38.008625 -39.755611 9.00000000
-46.563915 -46.606548 -34.048504 9.00000000
-53.141720 -38.969013 -53.646954 9.00000000
-55.546814 -35.585243 -54.244823 9.00000000
-51.404545 -41.209232 -45.071552 9.00000000
-51.903290 -40.605907 -43.461479 9.00000000
-50.525867 -42.251381 -13.312998 9.00000000
-46.553001 -46.618122 -5.256851 9.00000000
-48.252758 -44.819839 -14.537604 9.00000000
-53.988281 -37.850075 -23.699684 9.00000000
-55.227970 -36.058456 -26.719307 9.00000000
-56.495480 -34.177296 0.230452 9.00000000
-56.434200 -34.268246 -24.365976 9.00000000
-54.095867 -37.707874 -45.444580 9.00000000
-48.857700 -44.179848 -20.834764 9.00000000
-53.622173 -38.333977 -60.748608 9.00000000
-48.355473 -44.711170 -41.064240 9.00000000
-49.210522 -43.800068 -51.661083 9.00000000
-49.032116 -43.995331 -30.332253 9.00000000
-48.426643 -44.635880 -15.921350 9.00000000
-54.744987 -36.775265 -51.639011 9.00000000
-50.831619 -41.885452 -19.534163 9.00000000
-48.838455 -44.200207 -27.368469 9.00000000
-54.348782 -37.363285 -21.162977 9.00000000
-52.040035 -40.425163 -18.509167 9.00000000
-49.322098 -43.668282 -18.461693 9.00000000
-49.958748 -42.916199 -46.151634 9.00000000
-50.227894 -42.598251 -54.074467 9.00000000
-50.508671 -42.266575 -50.801933 9.00000000
-49.895088 -42.991405 -33.885281 9.00000000
-54.622524 -36.957020 -9.452431 9.00000000
-51.047234 -41.630379 -46.786602 9.00000000
-52.762356 -39.470436 -44.148846 9.00000000
-52.173401 -40.248886 -4.163711 9.00000000
-53.444115 -38.569324 1.798671 9.00000000
-55.325291 -35.914028 -10.064140 9.00000000
-47.469845 -45.648125 -24.908649 9.00000000
-51.549263 -41.037327 -1.365431 9.00000000
-51.924290 -40.578152 -44.572197 9.00000000
-55.412777 -35.784176 -48.933804 9.00000000
-49.603523 -43.335846 -8.039152 9.00000000
-52.906509 -39.279907 -57.922031 9.00000000
-52.999859 -39.170208 -17.049582 9.00000000
-47.073826 -46.067120 -1.646878 9.00000000
-47.060593 -46.081074 -51.633202 9.00000000
-53.082207 -39.047680 -58.908978 9.00000000
-48.069836 -45.013363 -28.769766 9.00000000
-55.832718 -35.160950 -14.752150 9.00000000
-53.985317 -37.857834 -46.710194 9.00000000
-55.390995 -35.816502 -28.646250 9.00000000
-56.321922 -34.434895 2.984259 9.00000000
-51.492001 -41.104969 3.737902 9.00000000
-50.200058 -42.633530 -17.722120 9.00000000
-49.310059 -43.682484 -53.305264 9.00000000
-53.323868 -38.728260 -37.587929 9.00000000
-56.529560 -34.126717 -21.297564 9.00000000
-54.919659 -36.516026 -58.104839 9.00000000
-49.709854 -43.210220 -38.033733 9.00000000
-53.056377 -39.081818 -44.808643 9.00000000
-52.723804 -39.528282 -10.326454 9.00000000
-47.046375 -46.096119 -45.963387 9.00000000
-47.553009 -45.560131 -56.730209 9.00000000
-48.361687 -44.704601 -49.435684 9.00000000
-52.852455 -39.354282 -15.465076 9.00000000
-47.155334 -45.980858 -26.624994 9.00000000
-50.230644 -42.595020 -24.255325 9.00000000
-54.840988 -36.632790 -29.569450 9.00000000
-56.529167 -34.127296 -16.108488 9.00000000
-54.519493 -37.109932 -33.487957 9.00000000
-47.528553 -45.586002 -39.912022 9.00000000
-52.688244 -39.581924 -7.344349 9.00000000
-50.003876 -42.862900 -31.539864 9.00000000
-55.770718 -35.252975 -5.724344 9.00000000
-55.951130 -34.985226 0.998748 9.00000000
-54.859760 -36.604935 -18.611921 9.00000000
-56.513153 -34.151066 -46.095497 9.00000000
-46.482227 -46.692951 -56.643494 9.00000000
-54.528332 -37.096813 1.515240 9.00000000
-56.481594 -34.197903 -44.137985 9.00000000
-46.345329 -46.837803 -36.904854 9.00000000
-48.227985 -44.846046 -54.008881 9.00000000
-56.193150 -34.626019 -23.504444 9.00000000
-47.723804 -45.379440 -47.127666 9.00000000
-48.399033 -44.665100 -3.526693 9.00000000
-48.537670 -44.518417 -45.747700 9.00000000
-50.187119 -42.646420 -57.942833 9.00000000
-49.496742 -43.461960 -48.922115 9.00000000
-50.299942 -42.513149 -42.076283 9.00000000
-53.149132 -38.959221 -49.377495 9.00000000
-51.945637 -40.549934 -41.560654 9.00000000
-50.968346 -41.730427 -34.937176 9.00000000
-55.214340 -36.078701 3.385222 9.00000000
-48.712761 -44.333187 -48.426170 9.00000000
-48.971989 -44.058937 -9.109773 9.00000000
-48.666889 -44.381721 -1.688023 9.00000000
-54.331944 -37.388279 -37.897896 9.00000000
-51.689327 -40.871868 -46.633720 9.00000000
-52.287476 -40.098110 -20.342663 9.00000000
-54.271191 -37.476143 -36.849659 9.00000000
-53.001877 -39.153851 -32.793327 9.00000000
-55.431686 -35.756119 -18.401628 9.00000000
-53.003960 -39.175694 -8.498565 9.00000000
-49.220116 -43.788738 -42.267258 9.00000000
-51.327633 -41.299137 -11.409369 9.00000000
-47.321499 -45.805054 -55.907032 9.00000000
-53.391102 -38.639397 -50.407097 9.00000000
-54.677128 -36.875980 -44.463627 9.00000000
-52.295033 -40.088123 -48.190281 9.00000000
-48.645794 -44.404034 -33.943081 9.00000000
-51.571861 -41.010632 -23.811054 9.00000000
-47.085255 -46.054985 -54.583511 9.00000000
-50.632267 -42.120583 -34.297428 9.00000000
-49.382965 -43.596371 -38.643032 9.00000000
-56.148602 -34.692139 -9.831875 9.00000000
-55.549820 -35.580811 -4.203901 9.00000000
-53.259445 -38.815746 -0.076077 9.00000000
-51.586014 -40.993912 -15.184795 9.00000000
-55.943417 -34.996651 -24.387089 9.00000000
-49.963428 -42.922085 1.700677 9.00000000
-47.498665 -45.617657 1.448679 9.00000000
-52.698997 -39.554184 -37.395527 9.00000000
-56.560555 -34.080715 -9.233243 9.00000000
-54.121555 -37.673923 -8.196694 9.00000000
-48.584850 -44.468506 -41.836338 9.00000000
-48.109592 -44.971321 -1.098381 9.00000000
-55.420982 -35.771999 -39.056740 9.00000000
-46.516346 -46.656891 -19.922270 9.00000000
-46.396442 -46.783733 -26.517948 9.00000000
-55.270172 -35.995823 -20.635975 9.00000000
-51.871387 -40.648075 -60.305801 9.00000000
-53.263474 -38.826729 -18.095503 9.00000000
-49.836819 -43.060234 -37.174053 9.00000000
-56.026302 -34.873650 -16.905645 9.00000000
-49.936085 -42.942989 -14.084752 9.00000000
-49.797417 -43.106781 -39.280750 9.00000000
-50.967236 -41.724869 0.870959 9.00000000
-46.750931 -46.408707 -23.638681 9.00000000
-49.100300 -43.923195 3.430948 9.00000000
-54.800900 -36.692295 -7.799337 9.00000000
-52.965233 -39.218155 3.414949 9.00000000
-47.744671 -45.357365 -30.055658 9.00000000
-49.432007 -43.538456 -10.221859 9.00000000
-52.024788 -40.445316 -35.890881 9.00000000
-49.609013 -43.329330 -52.554935 9.00000000
-53.131348 -38.998013 -6.250380 9.00000000
-52.823948 -39.389030 -40.549236 9.00000000
-53.304897 -38.753334 -31.793440 9.00000000
-55.547119 -35.584808 -15.497581 9.00000000
-53.022400 -39.126724 -35.004166 9.00000000
-50.474590 -42.306824 1.309276 9.00000000
-46.956276 -46.191437 -59.425331 9.00000000
-48.736107 -44.308491 -2.790952 9.00000000
-48.512379 -44.545177 -51.997322 9.00000000
-56.557468 -34.085293 -41.844784 9.00000000
-51.625801 -40.946911 -30.071587 9.00000000
-55.593956 -35.515289 -19.946159 9.00000000
-53.523834 -38.463959 3.432153 9.00000000
-51.141918 -41.518524 -49.596386 9.00000000
-46.487186 -46.687710 -52.724960 9.00000000
-47.598988 -45.511509 -8.694282 9.00000000
-52.648384 -39.621082 -12.097370 9.00000000
-51.998333 -40.480282 -33.032143 9.00000000
-49.902382 -42.982777 -60.458744 9.00000000
-53.173779 -38.926640 -41.342960 9.00000000
-52.741001 -39.498665 -56.220356 9.00000000
-48.924343 -44.109344 -54.481472 9.00000000
-48.422108 -44.640678 -17.732920 9.00000000
-56.162148 -34.672009 -41.422314 9.00000000
-55.393787 -35.812386 0.945277 9.00000000
-46.845413 -46.308769 2.585452 9.00000000
-53.574554 -38.396923 -13.650909 9.00000000
-51.870457 -40.649303 -56.987160 9.00000000
-50.031662 -42.830055 -58.944183 9.00000000
-46.357616 -46.824821 -12.785921 9.00000000
-51.270329 -41.366825 1.646481 9.00000000
-53.437302 -38.578331 -57.628372 9.00000000
-54.200012 -37.571884 -57.644852 9.00000000
-49.795250 -43.128139 -1.880965 9.00000000
-55.969826 -34.957474 -4.648246 9.00000000
-56.535912 -34.117287 -5.683510 9.00000000
-53.765766 -38.144184 -11.430292 9.00000000
-47.833435 -45.263470 -16.053043 9.00000000
-55.303791 -35.945946 -1.722084 9.00000000
-55.707363 -35.347012 3.670014 9.00000000
-56.134754 -34.712666 -38.920380 9.00000000
-54.704468 -36.835407 -22.179625 9.00000000
-52.637508 -39.635456 -24.163914 9.00000000
-49.565598 -43.380646 -9.385453 9.00000000
-55.132317 -36.200413 -44.066494 9.00000000
-54.125820 -37.668285 -25.686728 9.00000000
-47.759022 -45.342182 -27.963369 9.00000000
-47.396210 -45.726032 -13.740878 9.00000000
-55.617256 -35.480698 -55.409103 9.00000000
-52.485603 -39.836235 -26.878742 9.00000000
-50.135551 -42.707355 -27.639914 9.00000000
-56.496132 -34.176331 -27.689932 9.00000000
-48.107456 -44.973560 -37.755516 9.00000000
-51.543346 -41.044312 -13.031062 9.00000000
-51.142796 -41.517483 -22.495077 9.00000000
-51.876179 -40.641739 -37.734081 9.00000000
-54.811249 -36.676933 -16.928738 9.00000000
-50.393848 -42.404308 -3.183860 9.00000000
-53.118870 -39.003757 -23.348637 9.00000000
-52.652645 -39.617699 -9.406340 9.00000000
-52.115898 -40.324894 3.343535 9.00000000
-50.353313 -42.450100 -51.688732 9.00000000
-54.861984 -36.601631 -3.424903 9.00000000
-48.711647 -44.334366 -57.443787 9.00000000
-52.123825 -40.314415 -30.472008 9.00000000
-46.677944 -46.485920 -25.149038 9.00000000
-54.448025 -37.216000 -48.974720 9.00000000
-48.589367 -44.463734 -5.604665 9.00000000
-49.037033 -43.990128 -0.927405 9.00000000
-46.419174 -46.759708 -0.971545 9.00000000
-54.905273 -36.537384 -21.124098 9.00000000
-47.203907 -45.929459 -41.512512 9.00000000
-55.344227 -35.885914 -29.487356 9.00000000
-54.934341 -36.494240 -32.538109 9.00000000
-55.309937 -35.936813 -9.225745 9.00000000
-54.685074 -36.864185 -45.567677 9.00000000
-48.330246 -44.737862 -44.161041 9.00000000
-53.887447 -37.983349 -50.745480 9.00000000
-47.107025 -46.031952 -50.154747 9.00000000
-55.559208 -35.566849 -46.849941 9.00000000
-46.964127 -46.183147 -30.008226 9.00000000
-51.709328 -40.848988 -57.907913 9.00000000
-54.223480 -37.539200 -60.737499 9.00000000
-49.432602 -43.537735 -36.190800 9.00000000
-48.847740 -44.190384 -43.832554 9.00000000
-54.462406 -37.194656 -0.440425 9.00000000
-49.175117 -43.841885 -39.628178 9.00000000
-53.263721 -38.807758 -55.519287 9.00000000
-48.100830 -44.980579 -8.334028 9.00000000
-52.694275 -39.594589 0.261138 9.00000000
-53.639145 -38.324032 -34.675903 9.00000000
-50.488277 -42.290676 -35.648544 9.00000000
-52.507847 -39.806831 -32.763908 9.00000000
-48.839516 -44.199085 -52.670971 9.00000000
-47.698929 -45.405758 -54.944580 9.00000000
-53.798832 -38.100479 -3.828922 9.00000000
-50.062069 -42.802010 2.654933 9.00000000
-55.995075 -34.919987 -18.413548 9.00000000
-51.588947 -40.990444 -25.429552 9.00000000
-55.796059 -35.215328 -59.239487 9.00000000
-47.337921 -45.787697 -17.187820 9.00000000
-54.053425 -37.763973 -12.089221 9.00000000
-53.887180 -37.983704 -27.869209 9.00000000
-49.079391 -43.945312 -49.671974 9.00000000
-50.320755 -42.492580 -20.558455 9.00000000
-49.741062 -43.173359 -29.428659 9.00000000
-50.670345 -42.086128 -27.487831 9.00000000
-50.026611 -42.836037 -34.762829 9.00000000
-48.866398 -44.170650 0.272536 9.00000000
-56.172058 -34.657299 -51.774574 9.00000000
-54.427330 -37.246716 -47.800098 9.00000000
-46.363201 -46.818928 0.303031 9.00000000
-55.728615 -35.315426 -47.897331 9.00000000
-47.713890 -45.389931 -46.223572 9.00000000
-55.152988 -36.169739 -27.730658 9.00000000
-54.677250 -36.875793 -57.082146 9.00000000
-49.207615 -43.803505 -12.610767 9.00000000
-49.433346 -43.536861 -28.597633 9.00000000
-53.371208 -38.665688 -52.355553 9.00000000
-52.941299 -39.252857 1.549831 9.00000000
-52.754227 -39.481186 -48.699940 9.00000000
-55.354973 -35.869968 -42.028687 9.00000000
-51.098587 -41.569714 -54.469086 9.00000000
-55.295567 -35.958134 -40.852200 9.00000000
-46.757839 -46.401417 -3.758380 9.00000000
-54.345940 -37.367508 -11.386969 9.00000000
-55.629436 -35.462639 -17.519844 9.00000000
-52.994198 -39.183250 -2.068861 9.00000000
-49.113758 -43.908955 -7.071882 9.00000000
-52.758831 -39.475098 -32.031067 9.00000000
-55.864365 -35.113956 -50.963268 9.00000000
-50.021278 -42.859123 -8.677650 9.00000000
-56.113831 -34.743725 -33.886890 9.00000000
-50.697220 -42.050697 -23.240768 9.00000000
-56.410660 -34.303185 -47.794697 9.00000000
-54.036240 -37.786686 -14.052963 9.00000000
-54.030727 -37.793968 -35.107574 9.00000000
-54.126114 -37.667896 -40.671665 9.00000000
-56.358913 -34.379974 -57.336708 9.00000000
-54.189083 -37.584663 0.523116 9.00000000
-48.714100 -44.331772 -25.391560 9.00000000
-46.407749 -46.771751 -50.130623 9.00000000
-49.429668 -43.541203 -35.271881 9.00000000
-55.320961 -35.920448 -16.864876 9.00000000
-56.446442 -34.250080 -1.695461 9.00000000
-50.798183 -41.934158 -31.591864 9.00000000
-54.694298 -36.850502 -6.555102 9.00000000
-53.692974 -38.242142 -26.307617 9.00000000
-46.542786 -46.628929 -8.737108 9.00000000
-56.266506 -34.517139 -22.129538 9.00000000
-56.540039 -34.111164 -26.580681 9.00000000
-56.437721 -34.263016 -52.847023 9.00000000
-48.789581 -44.251911 -59.106220 9.00000000
-55.921066 -35.029800 -50.031181 9.00000000
-46.905193 -46.245514 -10.385956 9.00000000
-48.336983 -44.730732 -56.635571 9.00000000
-48.084942 -44.997398 0.584448 9.00000000
-51.432396 -41.175381 -4.078497 9.00000000
-56.390423 -34.333225 -36.065392 9.00000000
-51.574711 -41.007267 -21.593636 9.00000000
-56.427467 -34.278244 -14.982865 9.00000000
-48.212635 -44.862286 -21.136353 9.00000000
-55.572914 -35.546501 -57.749668 9.00000000
-47.834343 -45.262497 -60.724529 9.00000000
-48.059486 -45.024323 -4.453450 9.00000000
-48.299965 -44.769897 -53.043709 9.00000000
-54.427895 -37.245876 -2.547970 9.00000000
-46.349236 -46.833675 -29.376122 9.00000000
-53.636955 -38.316036 -22.672789 9.00000000
-46.987190 -46.158730 -58.444073 9.00000000
-52.781910 -39.444595 -59.836025 9.00000000
-56.502064 -34.167526 -10.361984 9.00000000
-47.035343 -46.107826 -2.967737 9.00000000
-52.844059 -39.362446 -52.834702 9.00000000
-46.358231 -46.824192 3.576531 9.00000000
-52.224964 -40.180733 -29.524845 9.00000000
-55.763233 -35.264050 -37.586597 9.00000000
-52.489052 -39.837372 -3.317420 9.00000000
-47.594604 -45.516144 -11.119455 9.00000000
-53.970486 -37.873596 -0.377914 9.00000000
-56.219975 -34.586205 -14.004635 9.00000000
-50.961258 -41.732159 -24.896109 9.00000000
-49.616386 -43.320618 -61.118683 9.00000000
-48.444973 -44.616486 -29.456602 9.00000000
-54.728649 -36.799519 -15.337605 9.00000000
-54.540417 -37.078876 -56.281563 9.00000000
-48.115944 -44.964581 -22.300703 9.00000000
-55.990093 -34.927357 -48.771175 9.00000000
-49.999825 -42.867672 -48.168423 9.00000000
-49.163734 -43.855328 -47.881882 9.00000000
-53.041832 -39.105907 -20.845394 9.00000000
-52.339272 -40.029652 -28.725342 9.00000000
-54.532146 -37.091152 2.848495 9.00000000
-50.811783 -41.908512 -52.555779 9.00000000
-54.480782 -37.167377 -54.142239 9.00000000
-55.733574 -35.308075 -25.293192 9.00000000
-47.711025 -45.392975 -12.829580 9.00000000
-50.234303 -42.603683 -12.296166 9.00000000
-52.351673 -40.013260 -52.880180 9.00000000
-47.100430 -46.038956 -14.680379 9.00000000
-52.682495 -39.608662 2.629857 9.00000000
-52.306633 -40.072788 -50.778046 9.00000000
-49.936253 -42.942764 -54.868797 9.00000000
-51.381004 -41.236088 -32.062408 9.00000000
-49.300735 -43.693497 -55.485828 9.00000000
-48.685349 -44.362194 2.430640 9.00000000
-48.809792 -44.230534 -34.977207 9.00000000
-51.731640 -40.821884 -16.190434 9.00000000
-52.448708 -39.884998 -41.956177 9.00000000
-48.449825 -44.611355 -16.794750 9.00000000
-53.899319 -37.967663 -52.501812 9.00000000
-47.717113 -45.386539 -2.837925 9.00000000
-47.655762 -45.451424 -58.308559 9.00000000
-55.121323 -36.216736 -24.917397 9.00000000
-54.624508 -36.954075 -35.210262 9.00000000
-46.912094 -46.238186 -38.113190 9.00000000
-47.332588 -45.793327 -31.504147 9.00000000
-54.776653 -36.728264 -59.464191 9.00000000
-49.789551 -43.116089 -11.347438 9.00000000
-53.161060 -38.955044 -4.063737 9.00000000
-54.473888 -37.177612 -50.774048 9.00000000
-53.469067 -38.536346 -43.669159 9.00000000
-56.026714 -34.873043 2.185602 9.00000000
-54.996052 -36.402664 -2.421638 9.00000000
-52.453606 -39.878529 -44.832314 9.00000000
-53.924061 -37.934959 -33.796391 9.00000000
-51.008846 -41.675716 -4.848644 9.00000000
-48.601364 -44.451035 -36.852108 9.00000000
-46.836723 -46.317944 -16.237354 9.00000000
-46.522182 -46.650692 -41.443523 9.00000000
-52.142197 -40.290134 -34.613327 9.00000000
-49.689617 -43.234131 -24.490908 9.00000000
-52.987064 -39.200333 -12.930466 9.00000000
-49.189121 -43.825348 -3.664295 9.00000000
-55.832016 -35.161999 -6.619998 9.00000000
-53.538452 -38.460869 -33.182873 9.00000000
-52.246040 -40.152878 -7.850966 9.00000000
-53.776924 -38.129436 -10.339509 9.00000000
-46.618717 -46.548576 -27.332870 9.00000000
-50.708027 -42.031082 -44.813091 9.00000000
-55.660686 -35.416245 -45.624584 9.00000000
-49.277821 -43.720585 -5.707135 9.00000000
-54.446602 -37.218113 -30.983055 9.00000000
-54.284454 -37.458611 -7.189176 9.00000000
-53.528606 -38.457649 -8.282923 9.00000000
-53.572685 -38.399384 -51.441441 9.00000000
-53.265572 -38.811886 -5.072274 9.00000000
-47.900700 -45.192318 -2.036684 9.00000000
-54.972710 -36.437305 -4.470785 9.00000000
-55.502525 -35.650978 -43.225269 9.00000000
-53.530342 -38.455357 -1.909235 9.00000000
-49.992554 -42.876263 -50.997902 9.00000000
-46.870003 -46.282726 -28.905348 9.00000000
-54.483921 -37.162727 -26.226831 9.00000000
-52.509956 -39.804047 -36.407322 9.00000000
-51.682415 -40.880032 -34.254154 9.00000000
-49.285053 -43.712025 -46.907433 9.00000000
-46.423233 -46.755398 -22.592613 9.00000000
-46.577259 -46.592422 -43.529182 9.00000000
-53.170700 -38.930710 -36.044415 9.00000000
-55.217041 -36.074673 -45.296524 9.00000000
-50.116146 -42.730274 -30.077049 9.00000000
-54.776039 -36.729179 -30.376198 9.00000000
-51.959057 -40.532200 -6.840454 9.00000000
-55.320648 -35.920914 -10.877861 9.00000000
-51.886112 -40.628609 -53.378700 9.00000000
-54.733295 -36.792618 -47.117138 9.00000000
-54.789539 -36.709148 -31.547291 9.00000000
-47.481339 -45.635986 -1.120062 9.00000000
-53.166721 -38.953598 -10.993051 9.00000000
-47.207920 -45.925243 -7.975843 9.00000000
-56.572113 -34.063557 -31.569975 9.00000000
-49.165676 -43.853035 -25.931837 9.00000000
-54.999863 -36.396996 -50.871197 9.00000000
-51.882851 -40.632923 1.933690 9.00000000
-46.611797 -46.555908 -13.653232 9.00000000
-52.976902 -39.186859 -51.184216 9.00000000
-55.582844 -35.531799 -7.473784 9.00000000
-49.134682 -43.886818 -41.236385 9.00000000
-50.605900 -42.151733 -29.799313 9.00000000
-51.271095 -41.365932 -48.565128 9.00000000
-56.023125 -34.878368 -15.882784 9.00000000
-51.027264 -41.653957 -12.601703 9.00000000
-48.271397 -44.800117 -34.589993 9.00000000
-56.091469 -34.776932 -13.051425 9.00000000
-47.519871 -45.595219 -3.824757 9.00000000
-50.812443 -41.907722 -6.147682 9.00000000
-55.677643 -35.391071 -60.054527 9.00000000
-46.472099 -46.703697 -19.088427 9.00000000
-50.071411 -42.783108 -50.065437 9.00000000
-54.059959 -37.755333 -38.794109 9.00000000
-55.763569 -35.263554 -52.109474 9.00000000
-52.157955 -40.269306 -27.734592 9.00000000
-49.079540 -43.945156 -17.054359 9.00000000
-52.869820 -39.328396 -19.974966 9.00000000
-50.649708 -42.099960 2.396220 9.00000000
-54.047131 -37.772289 -56.652859 9.00000000
-47.847561 -45.248516 -23.058544 9.00000000
-47.740185 -45.362129 -5.443475 9.00000000
-53.151188 -38.956501 -33.962482 9.00000000
-47.109352 -46.029526 -7.091262 9.00000000
-54.863968 -36.598690 0.817155 9.00000000
-53.934692 -37.920902 -2.497723 9.00000000
-49.186054 -43.828968 -43.165218 9.00000000
-50.544472 -42.224277 -56.999058 9.00000000
-54.189007 -37.584766 -26.975922 9.00000000
-51.754856 -40.794460 -40.202927 9.00000000
-52.104668 -40.339737 -55.891064 9.00000000
-47.237286 -45.894180 -5.098077 9.00000000
-53.653942 -38.291988 -6.065882 9.00000000
-47.971684 -45.117210 -9.602112 9.00000000
-52.977425 -39.186172 -38.390125 9.00000000
-50.519562 -42.253719 -37.223209 9.00000000
-48.170261 -44.907124 -12.318635 9.00000000
-55.385399 -35.824829 -3.407129 9.00000000
-51.961857 -40.528500 -26.891075 9.00000000
-52.575409 -39.755184 3.837114 9.00000000
-56.473839 -34.209419 -32.653645 9.00000000
-55.121964 -36.215786 -14.893578 9.00000000
-53.260235 -38.812370 -48.491409 9.00000000
-50.920094 -41.780571 -43.553043 9.00000000
-55.284683 -35.974277 -60.905518 9.00000000
-54.787914 -36.711555 -38.798702 9.00000000
-52.475864 -39.856441 -2.443351 9.00000000
-54.941284 -36.483940 -23.961319 9.00000000
-54.003960 -37.829353 -20.437437 9.00000000
-46.440285 -46.737343 -40.140461 9.00000000
-54.250004 -37.504143 -41.506889 9.00000000
-53.483128 -38.524788 -19.050388 9.00000000
-49.453205 -43.513382 -58.677750 9.00000000
-47.160801 -45.975067 -37.048275 9.00000000
-49.938850 -42.955811 -4.123994 9.00000000
-55.030121 -36.352089 -36.609730 9.00000000
-50.569702 -42.194485 -39.591908 9.00000000
-47.714745 -45.389023 -49.174244 9.00000000
-54.792873 -36.704205 -28.663233 9.00000000
-54.317696 -37.409428 -10.355267 9.00000000
-48.730213 -44.314724 -28.636162 9.00000000
-52.674732 -39.586254 -30.116396 9.00000000
-48.364574 -44.701550 -11.141146 9.00000000
-52.058468 -40.400803 -61.062004 9.00000000
-47.626488 -45.482395 -45.038143 9.00000000
-47.335953 -45.789764 -50.890179 9.00000000
-47.047642 -46.094810 -6.213520 9.00000000
-46.696903 -46.465836 -60.184677 9.00000000
-51.295296 -41.337341 -51.199051 9.00000000
-55.358265 -35.865082 -32.126095 9.00000000
-54.065907 -37.747471 -16.369719 9.00000000
-46.363338 -46.818783 -2.587589 9.00000000
-54.766808 -36.742889 -1.308836 9.00000000
-52.908455 -39.300232 -0.732335 9.00000000
-55.693031 -35.368240 -30.201984 9.00000000
-49.222599 -43.785809 -37.393452 9.00000000
-55.237797 -36.043865 -51.756657 9.00000000
-51.994358 -40.485538 -51.453831 9.00000000
-47.450859 -45.668198 -42.743664 9.00000000
-55.403221 -35.798382 0.016619 9.00000000
-49.203671 -43.808163 -11.102133 9.00000000
-56.216145 -34.591888 -19.946140 9.00000000
-53.823673 -38.067646 -24.555857 9.00000000
-52.525406 -39.783630 -21.283634 9.00000000
-50.950001 -41.745232 -57.967468 9.00000000
-47.599663 -45.510773 -53.396301 9.00000000
-53.730453 -38.190861 -9.093360 9.00000000
-55.286484 -35.971611 -30.549723 9.00000000
-56.495445 -34.177345 -43.233742 9.00000000
-56.358997 -34.379864 -35.242954 9.00000000
-52.486732 -39.834743 -55.115238 9.00000000
-52.075073 -40.378853 -5.475087 9.00000000
-49.745399 -43.184692 3.683936 9.00000000
-55.145184 -36.181332 -6.935965 9.00000000
-52.636250 -39.651062 -5.602529 9.00000000
-47.534935 -45.579285 -0.105926 9.00000000
-52.082569 -40.368942 -9.370571 9.00000000
-51.459808 -41.142998 -41.159660 9.00000000
-48.187359 -44.889046 -0.228918 9.00000000
-56.100311 -34.763775 -60.722031 9.00000000
-48.064766 -45.018723 -42.660454 9.00000000
-49.376938 -43.603493 -34.461796 9.00000000
-51.775303 -40.770309 -50.446705 9.00000000
-55.361469 -35.860321 -34.653107 9.00000000
-49.655411 -43.274548 -13.224326 9.00000000
-50.491169 -42.287243 -61.001450 9.00000000
-54.416275 -37.263119 -52.881020 9.00000000
-47.755741 -45.345650 -33.386024 9.00000000
-50.634930 -42.121494 -16.465443 9.00000000
-46.666168 -46.498390 -9.546882 9.00000000
-54.592037 -37.002266 -13.350467 9.00000000
-49.063396 -43.962234 -19.935122 9.00000000
-55.623932 -35.470798 -27.301882 9.00000000
-50.528336 -42.243336 -5.469131 9.00000000
-56.467831 -34.218334 -17.317219 9.00000000
-55.216682 -36.075199 -60.051174 9.00000000
-48.793842 -44.247406 -4.742972 9.00000000
-48.523464 -44.533447 -22.837852 9.00000000
-52.292065 -40.092045 -16.850594 9.00000000
-55.779484 -35.239960 -10.335636 9.00000000
-49.169609 -43.848392 -2.177345 9.00000000
-55.801388 -35.207447 -11.266911 9.00000000
-51.785450 -40.758324 -28.546019 9.00000000
-46.551567 -46.619598 -51.010368 9.00000000
-54.387611 -37.305656 -42.719326 9.00000000
-52.199806 -40.213989 -59.492809 9.00000000
-49.552616 -43.395973 -25.299870 9.00000000
-49.389256 -43.588928 -59.610790 9.00000000
-51.865849 -40.655396 -22.772301 9.00000000
-47.315842 -45.811039 -35.420353 9.00000000
-49.769619 -43.139618 -42.062473 9.00000000
-47.019981 -46.124043 -40.348038 9.00000000
-50.866035 -41.844418 -0.468342 9.00000000
-49.912392 -42.970966 -35.900890 9.00000000
-47.871830 -45.222836 -24.095268 9.00000000
-49.176464 -43.840294 1.570352 9.00000000
-50.557667 -42.218872 -22.096676 9.00000000
-50.598118 -42.160927 -33.377899 9.00000000
-52.888973 -39.303085 -54.705879 9.00000000
-48.265343 -44.806522 -30.382782 9.00000000
-54.086395 -37.720394 -31.761297 9.00000000
-47.565659 -45.546783 3.599331 9.00000000
-55.488899 -35.671211 -13.156131 9.00000000
-48.864346 -44.172821 -32.015823 9.00000000
-48.863750 -44.173447 -40.487659 9.00000000
-55.966713 -34.962055 -46.375038 9.00000000
-51.370361 -41.252399 -47.686890 9.00000000
-47.410301 -45.711105 -48.155907 9.00000000
-50.563374 -42.209530 -18.526327 9.00000000
-51.482475 -41.116222 -0.320401 9.00000000
-53.981918 -37.858482 -22.034294 9.00000000
-51.676407 -40.887131 -36.979160 9.00000000
-55.300159 -35.951317 -37.310215 9.00000000
-50.725346 -42.010620 -53.637470 9.00000000
-51.668430 -40.896557 -10.088141 9.00000000
-47.467232 -45.650883 -29.110212 9.00000000
-50.812172 -41.908043 -10.672956 9.00000000
-54.943016 -36.481373 -8.597660 9.00000000
-49.274326 -43.724689 -56.907166 9.00000000
-48.606415 -44.445690 -51.159500 9.00000000
-53.950489 -37.900028 -30.986923 9.00000000
-53.477009 -38.530262 -15.826425 9.00000000
-46.565784 -46.604568 -38.934330 9.00000000
-52.847614 -39.357746 -60.928074 9.00000000
-49.323223 -43.666958 -14.663731 9.00000000
-55.826500 -35.170158 -29.035501 9.00000000
-53.829029 -38.060566 -18.365702 9.00000000
-48.556515 -44.498482 -39.774117 9.00000000
-52.244537 -40.154865 0.732140 9.00000000
-54.318481 -37.408257 -43.696007 9.00000000
-50.503193 -42.273037 3.459799 9.00000000
-48.721909 -44.323505 -47.234970 9.00000000
-46.515907 -46.657330 -47.391129 9.00000000
-52.610882 -39.670650 -25.516918 9.00000000
-48.509392 -44.548336 -50.305828 9.00000000
-55.215004 -36.077702 -22.277090 9.00000000
-55.972145 -34.954033 -0.104598 9.00000000
-51.426262 -41.182629 -59.838776 9.00000000
-51.045006 -41.635071 -40.295143 9.00000000
-52.119793 -40.319744 -24.974840 9.00000000
-54.425175 -37.249912 -32.497475 9.00000000
-52.860844 -39.340260 -18.628323 9.00000000
-55.167049 -36.148869 -35.627895 9.00000000
-55.682514 -35.383842 -56.207981 9.00000000
-48.330509 -44.737583 -38.763474 9.00000000
-55.206612 -36.090149 -48.097569 9.00000000
-52.005989 -40.470165 -20.986692 9.00000000
-55.426743 -35.763451 -21.523933 9.00000000
-55.633125 -35.457150 -35.548470 9.00000000
-56.326866 -34.427555 -25.615673 9.00000000
-50.731560 -42.003269 -8.909672 9.00000000
-51.580170 -41.000816 -20.405241 9.00000000
-53.706703 -38.223408 -42.689716 9.00000000
-48.331882 -44.736134 -54.903240 9.00000000
-49.939236 -42.939266 -14.997440 9.00000000
-46.543095 -46.628593 -14.478824 9.00000000
-55.110840 -36.232300 -23.135302 9.00000000
-54.359283 -37.347702 3.781498 9.00000000
-52.436958 -39.900532 -31.131466 9.00000000
-55.642281 -35.443562 -31.163607 9.00000000
-55.965527 -34.963821 -44.466305 9.00000000
-54.926048 -36.506561 2.194567 9.00000000
-46.976753 -46.169769 -48.982243 9.00000000
-51.939449 -40.558113 -42.633854 9.00000000
-47.993473 -45.094147 -25.688009 9.00000000
-49.753727 -43.158401 -19.533751 9.00000000
-55.796837 -35.214191 -22.769747 9.00000000
-50.589516 -42.171078 -49.184898 9.00000000
-49.925533 -42.955437 -45.163036 9.00000000
-51.060432 -41.614788 -42.442974 9.00000000
-56.529808 -34.126347 -54.228291 9.00000000
-53.745731 -38.170666 -14.804463 9.00000000
-51.218178 -41.428436 -57.227203 9.00000000
-50.972099 -41.719124 -9.649544 9.00000000
-46.647579 -46.518051 -18.053917 9.00000000
-54.832279 -36.645718 -14.163901 9.00000000
-48.765217 -44.277691 -21.942039 9.00000000
-52.605469 -39.677803 -49.541950 9.00000000
-48.033413 -45.051914 2.022709 9.00000000
-53.949665 -37.901115 -17.305161 9.00000000
-49.824612 -43.074642 -55.819687 9.00000000
-53.338341 -38.718086 -12.181009 9.00000000
-50.813980 -41.915230 -32.461052 9.00000000
-48.477379 -44.582203 -19.569704 9.00000000
-51.191841 -41.459545 -61.111404 9.00000000
-52.748085 -39.489304 -27.898092 9.00000000
-51.880592 -40.635910 -8.611886 9.00000000
-56.253395 -34.536583 -45.334888 9.00000000
-49.567707 -43.378143 -23.559801 9.00000000
-48.251202 -44.821491 -13.447688 9.00000000
-51.160686 -41.496353 -53.182163 9.00000000
-55.889839 -35.076153 -42.736923 9.00000000
-52.581963 -39.708874 -14.642418 9.00000000
-53.549213 -38.430412 -38.964458 9.00000000
-49.410244 -43.564156 -22.230644 9.00000000
-53.519524 -38.469658 -59.707478 9.00000000
-49.922665 -42.958820 -53.240685 9.00000000
-48.057076 -45.026859 -55.855690 9.00000000
-56.558815 -34.083294 -12.624801 9.00000000
-47.120609 -46.017597 -28.088589 9.00000000
-52.232635 -40.170593 -1.466346 9.00000000
-48.502914 -44.555187 -60.943935 9.00000000
-51.485020 -41.113216 -9.187780 9.00000000
-55.113865 -36.227802 -55.286732 9.00000000
-54.670403 -36.885963 -39.792362 9.00000000
-56.342815 -34.403866 -55.333282 9.00000000
-47.736401 -45.366119 -20.664865 9.00000000
-56.124771 -34.727493 -30.794184 9.00000000
-53.264141 -38.829220 -21.813835 9.00000000
-52.115578 -40.325317 -0.612808 9.00000000
-47.527931 -45.586693 2.549335 9.00000000
-51.457977 -41.145161 0.582572 9.00000000
-50.499687 -42.277184 -55.069752 9.00000000
-48.899700 -44.135414 -7.937372 9.00000000
-53.776649 -38.140846 -41.633198 9.00000000
-53.552982 -38.434387 -25.487528 9.00000000
-55.277493 -35.984955 -38.134613 9.00000000
-49.668747 -43.258793 -15.826485 9.00000000
-53.669041 -38.272030 -53.291016 9.00000000
-52.967857 -39.198818 -26.833509 9.00000000
-54.025581 -37.800774 1.877091 9.00000000
-49.909622 -42.992336 -5.792689 9.00000000
-47.534210 -45.580017 -37.844555 9.00000000
-46.381435 -46.799610 -28.463291 9.00000000
-51.102417 -41.565178 -20.769951 9.00000000
-49.922096 -42.959507 -26.232059 9.00000000
-53.527512 -38.459099 -54.335972 9.00000000
-54.282230 -37.461544 -28.604851 9.00000000
-51.178978 -41.474743 -18.034513 9.00000000
-51.321758 -41.306076 -30.983047 9.00000000
-52.034023 -40.433113 -38.987637 9.00000000
-52.357765 -40.005207 -40.327797 9.00000000
-52.431267 -39.924847 1.612243 9.00000000
-47.602512 -45.507759 -52.368427 9.00000000
-49.573185 -43.371651 -57.769157 9.00000000
-55.971043 -34.955627 -58.103432 9.00000000
-53.251694 -38.823658 -29.706696 9.00000000
-55.287388 -35.970276 -19.299318 9.00000000
-53.031384 -39.114853 -31.065392 9.00000000
-50.908264 -41.794529 -15.293379 9.00000000
-49.696312 -43.226212 -43.912174 9.00000000
-46.394348 -46.785934 -44.886276 9.00000000
-52.581333 -39.709705 -51.764641 9.00000000
-50.838734 -41.879883 -23.998133 9.00000000
-50.507641 -42.267780 -4.619067 9.00000000
-55.489410 -35.670452 -11.958826 9.00000000
-50.025562 -42.847534 0.705175 9.00000000
-54.606239 -36.981190 -25.376608 9.00000000
-47.106236 -46.032787 -57.419399 9.00000000
-49.546837 -43.402782 -54.200283 9.00000000
-46.414173 -46.764996 -6.798339 9.00000000
-47.368191 -45.755672 -19.764540 9.00000000
-47.603954 -45.506256 -6.425612 9.00000000
-54.804153 -36.687462 -12.565875 9.00000000
-51.364796 -41.256638 -44.014694 9.00000000
-50.439281 -42.357121 -14.645362 9.00000000
-47.905861 -45.186840 -16.973473 9.00000000
-55.152592 -36.170322 -57.386066 9.00000000
-47.736076 -45.366459 -36.989349 9.00000000
-56.031696 -34.865620 -36.702667 9.00000000
-56.313717 -34.447067 -40.405407 9.00000000
-46.570675 -46.599422 -7.776325 9.00000000
-52.622910 -39.654751 -53.692413 9.00000000
-53.298027 -38.762417 -39.774292 9.00000000
-56.396332 -34.324451 -29.165945 9.00000000
-54.612926 -36.971268 -19.462954 9.00000000
-48.210388 -44.864662 -35.464931 9.00000000
-54.064129 -37.749825 -29.516665 9.00000000
-53.095100 -39.030636 -42.238319 9.00000000
-51.054985 -41.621212 -14.024963 9.00000000
-46.767223 -46.391453 -42.225704 9.00000000
-51.012634 -41.678028 -36.730057 9.00000000
-50.296558 -42.517151 -38.064751 9.00000000
-49.895927 -42.990414 -32.947144 9.00000000
-51.179558 -41.474056 -15.965932 9.00000000
-50.305477 -42.506599 -59.831425 9.00000000
-50.729210 -42.006042 -11.770296 9.00000000
-53.745457 -38.171028 -6.970925 9.00000000
-52.503361 -39.812767 -17.803003 9.00000000
-53.330822 -38.720154 -3.133470 9.00000000
-47.236168 -45.895332 -36.238094 9.00000000
-52.172989 -40.249435 -47.017517 9.00000000
-48.986774 -44.043297 -29.433687 9.00000000
-50.515297 -42.258739 -1.243293 9.00000000
-52.214233 -40.194920 -58.335602 9.00000000
-46.989288 -46.156551 0.768614 9.00000000
-54.997356 -36.400726 -5.321494 9.00000000
-48.008682 -45.078056 -58.914326 9.00000000
-54.997425 -36.400612 -54.402401 9.00000000
-48.339443 -44.728130 -46.479477 9.00000000
-50.041153 -42.818855 -40.691441 9.00000000
-55.373821 -35.841991 -25.880919 9.00000000
-52.471828 -39.854446 -6.440981 9.00000000
-55.137978 -36.192017 -46.186001 9.00000000
-51.504204 -41.090553 -5.233931 9.00000000
-46.339306 -46.844166 -48.814709 9.00000000
-54.800510 -36.692860 -49.467903 9.00000000
-50.861069 -41.850281 -3.614215 9.00000000
-54.629177 -36.947144 -55.342224 9.00000000
25.655346 -51.547386 -61.120979 10.00000000
55.482578 -49.482906 -61.120979 10.00000000
20.014582 -41.672726 -61.120979 10.00000000
5.284664 -23.424982 -61.120979 10.00000000
39.232307 -50.164463 -61.120979 10.00000000
11.277616 -24.815247 -61.120979 10.00000000
25.542166 -46.812756 -61.120979 10.00000000
26.155451 -47.094669 -61.120979 10.00000000
36.240273 -55.565826 -61.120979 10.00000000
19.397175 -45.984600 -61.120979 10.00000000
51.163490 -52.057137 -61.120979 10.00000000
13.836809 -40.480381 -61.120979 10.00000000
17.075121 -35.991924 -61.120979 10.00000000
5.061376 -22.741613 -61.120979 10.00000000
6.677078 -28.099222 -61.120979 10.00000000
28.587648 -49.057125 -61.120979 10.00000000
21.591349 -43.375435 -61.120979 10.00000000
32.770912 -49.931458 -61.120979 10.00000000
24.304174 -50.164001 -61.120979 10.00000000
8.382031 -24.751034 -61.120979 10.00000000
13.200933 -28.660200 -61.120979 10.00000000
20.774963 -41.177235 -61.120979 10.00000000
19.966740 -45.888290 -61.120979 10.00000000
15.694943 -40.817463 -61.120979 10.00000000
8.288989 -24.030487 -61.120979 10.00000000
40.193584 -51.916927 -61.120979 10.00000000
15.291851 -37.362202 -61.120979 10.00000000
14.662493 -39.424694 -61.120979 10.00000000
19.761341 -43.934402 -61.120979 10.00000000
8.279707 -30.862137 -61.120979 10.00000000
7.443843 -29.851727 -61.120979 10.00000000
9.744937 -30.570772 -61.120979 10.00000000
12.559884 -26.740648 -61.120979 10.00000000
9.731773 -25.846830 -61.120979 10.00000000
28.795361 -50.628326 -61.120979 10.00000000
46.348255 -50.947914 -61.120979 10.00000000
53.563061 -50.891174 -61.120979 10.00000000
9.230896 -34.851048 -61.120979 10.00000000
33.483688 -48.762943 -61.120979 10.00000000
31.836287 -49.933735 -61.120979 10.00000000
51.999947 -52.361916 -61.120979 10.00000000
21.278502 -46.382576 -61.120979 10.00000000
52.982903 -49.499584 -61.120979 10.00000000
9.320070 -22.208702 -61.120979 10.00000000
14.254839 -41.817616 -61.120979 10.00000000
42.954144 -51.181011 -61.120979 10.00000000
48.603630 -53.510258 -61.120979 10.00000000
39.894451 -52.787922 -61.120979 10.00000000
33.846062 -55.534851 -61.120979 10.00000000
31.148849 -50.626503 -61.120979 10.00000000
45.480808 -54.568741 -61.120979 10.00000000
16.783033 -43.640423 -61.120979 10.00000000
48.303055 -52.816288 -61.120979 10.00000000
31.262331 -52.632626 -61.120979 10.00000000
51.998516 -49.906898 -61.120979 10.00000000
10.358104 -30.479376 -61.120979 10.00000000
10.408928 -25.550962 -61.120979 10.00000000
43.833126 -54.958527 -61.120979 10.00000000
19.499277 -45.448112 -61.120979 10.00000000
38.518719 -51.765621 -61.120979 10.00000000
9.546076 -23.528008 -61.120979 10.00000000
18.771435 -40.483303 -61.120979 10.00000000
42.894890 -53.681679 -61.120979 10.00000000
46.066280 -52.108463 -61.120979 10.00000000
34.594551 -50.770226 -61.120979 10.00000000
43.727783 -50.727650 -61.120979 10.00000000
45.141747 -53.698235 -61.120979 10.00000000
27.863760 -47.276100 -61.120979 10.00000000
48.111095 -56.287056 -61.120979 10.00000000
51.804699 -51.738644 -61.120979 10.00000000
32.769207 -53.414810 -61.120979 10.00000000
7.633396 -27.493267 -61.120979 10.00000000
7.778459 -30.817747 -61.120979 10.00000000
10.445886 -22.765150 -61.120979 10.00000000
40.256718 -54.463871 -61.120979 10.00000000
11.926779 -31.534027 -61.120979 10.00000000
13.429968 -40.888676 -61.120979 10.00000000
12.188172 -40.217556 -61.120979 10.00000000
43.031059 -55.305546 -61.120979 10.00000000
11.409469 -29.896845 -61.120979 10.00000000
30.286121 -48.145058 -61.120979 10.00000000
9.588986 -34.086395 -61.120979 10.00000000
38.794830 -55.747326 -61.120979 10.00000000
14.726075 -34.855568 -61.120979 10.00000000
24.945623 -44.199677 -61.120979 10.00000000
9.584396 -33.008537 -61.120979 10.00000000
54.546577 -49.438457 -61.120979 10.00000000
42.868500 -55.920216 -61.120979 10.00000000
8.570135 -33.279068 -61.120979 10.00000000
13.116235 -27.392818 -61.120979 10.00000000
20.644894 -45.592110 -61.120979 10.00000000
20.894934 -47.301254 -61.120979 10.00000000
33.513935 -53.632530 -61.120979 10.00000000
10.761644 -23.151272 -61.120979 10.00000000
32.166618 -52.106369 -61.120979 10.00000000
44.762833 -53.144028 -61.120979 10.00000000
35.851833 -50.660023 -61.120979 10.00000000
31.241476 -49.205402 -61.120979 10.00000000
8.543112 -32.692062 -61.120979 10.00000000
9.068107 -23.154974 -61.120979 10.00000000
13.296213 -29.687786 -61.120979 10.00000000
17.161417 -40.342205 -61.120979 10.00000000
17.129084 -43.224598 -61.120979 10.00000000
37.567566 -51.426556 -61.120979 10.00000000
18.460077 -44.409920 -61.120979 10.00000000
20.057690 -48.721268 -61.120979 10.00000000
12.171718 -22.623220 -61.120979 10.00000000
11.778786 -37.138199 -61.120979 10.00000000
12.898914 -40.942188 -61.120979 10.00000000
9.316499 -28.205839 -61.120979 10.00000000
16.648069 -40.240929 -61.120979 10.00000000
26.470896 -50.598503 -61.120979 10.00000000
35.533722 -53.033073 -61.120979 10.00000000
18.453754 -43.722286 -61.120979 10.00000000
26.553949 -51.201027 -61.120979 10.00000000
22.649509 -49.704597 -61.120979 10.00000000
12.529886 -33.372208 -61.120979 10.00000000
13.468567 -33.426399 -61.120979 10.00000000
32.226910 -48.931805 -61.120979 10.00000000
14.999579 -39.824001 -61.120979 10.00000000
28.265368 -51.816967 -61.120979 10.00000000
47.350254 -54.617359 -61.120979 10.00000000
32.194294 -50.400898 -61.120979 10.00000000
52.582081 -50.790756 -61.120979 10.00000000
23.700048 -45.987019 -61.120979 10.00000000
19.838104 -39.411880 -61.120979 10.00000000
18.026245 -45.824322 -61.120979 10.00000000
24.251301 -46.575520 -61.120979 10.00000000
12.385876 -28.670902 -61.120979 10.00000000
23.172007 -45.795677 -61.120979 10.00000000
46.543571 -52.677353 -61.120979 10.00000000
28.109474 -50.728733 -61.120979 10.00000000
43.210571 -51.810398 -61.120979 10.00000000
58.709335 -47.350418 -61.120979 10.00000000
47.546589 -50.429844 -61.120979 10.00000000
13.703995 -41.781616 -61.120979 10.00000000
30.513384 -48.796673 -61.120979 10.00000000
42.553894 -54.923412 -61.120979 10.00000000
40.753735 -56.456928 -61.120979 10.00000000
14.238337 -36.201347 -61.120979 10.00000000
40.398205 -55.747868 -61.120979 10.00000000
24.432570 -47.169319 -61.120979 10.00000000
42.102322 -50.749134 -61.120979 10.00000000
21.400953 -49.344765 -61.120979 10.00000000
7.920955 -29.418484 -61.120979 10.00000000
41.222111 -50.865227 -61.120979 10.00000000
35.640312 -55.366997 -61.120979 10.00000000
22.107878 -47.633991 -61.120979 10.00000000
48.991039 -52.387573 -61.120979 10.00000000
14.650761 -36.523170 -61.120979 10.00000000
52.359173 -53.045773 -61.120979 10.00000000
39.433144 -56.305752 -61.120979 10.00000000
8.592076 -21.989605 -61.120979 10.00000000
31.546715 -53.806618 -61.120979 10.00000000
23.107693 -46.884510 -61.120979 10.00000000
18.593821 -42.064632 -61.120979 10.00000000
11.310449 -31.623301 -61.120979 10.00000000
33.903454 -54.528610 -61.120979 10.00000000
26.576574 -52.725819 -61.120979 10.00000000
35.234394 -49.505074 -61.120979 10.00000000
34.534958 -49.574535 -61.120979 10.00000000
26.683933 -47.763306 -61.120979 10.00000000
20.333801 -44.014439 -61.120979 10.00000000
6.620368 -23.859880 -61.120979 10.00000000
36.195808 -49.547737 -61.120979 10.00000000
24.881100 -46.642567 -61.120979 10.00000000
18.997347 -44.962051 -61.120979 10.00000000
53.711300 -49.923660 -61.120979 10.00000000
39.587296 -54.074722 -61.120979 10.00000000
19.473391 -40.928688 -61.120979 10.00000000
26.166647 -51.795261 -61.120979 10.00000000
9.153130 -26.312815 -61.120979 10.00000000
17.395464 -43.907772 -61.120979 10.00000000
44.679546 -56.530521 -61.120979 10.00000000
7.956345 -31.515629 -61.120979 10.00000000
10.777578 -29.968863 -61.120979 10.00000000
36.419712 -53.976727 -61.120979 10.00000000
15.823318 -34.549347 -61.120979 10.00000000
18.712824 -45.882545 -61.120979 10.00000000
30.820162 -47.790226 -61.120979 10.00000000
49.855511 -54.045364 -61.120979 10.00000000
10.276815 -26.212141 -61.120979 10.00000000
32.533989 -53.883133 -61.120979 10.00000000
34.121490 -48.995964 -61.120979 10.00000000
38.122799 -54.155449 -61.120979 10.00000000
25.815273 -50.486336 -61.120979 10.00000000
43.732162 -53.998085 -61.120979 10.00000000
16.542377 -35.071682 -61.120979 10.00000000
40.696327 -50.975746 -61.120979 10.00000000
13.904430 -29.848854 -61.120979 10.00000000
8.141980 -28.835646 -61.120979 10.00000000
19.233400 -47.896641 -61.120979 10.00000000
27.313141 -51.473000 -61.120979 10.00000000
18.426876 -45.216450 -61.120979 10.00000000
44.529095 -54.316528 -61.120979 10.00000000
10.961548 -28.236532 -61.120979 10.00000000
14.214464 -31.558027 -61.120979 10.00000000
41.356316 -55.360172 -61.120979 10.00000000
59.322079 -47.159496 -61.120979 10.00000000
50.557224 -51.769207 -61.120979 10.00000000
42.641788 -50.660042 -61.120979 10.00000000
45.535046 -52.840973 -61.120979 10.00000000
42.602921 -52.391216 -61.120979 10.00000000
6.089166 -24.773111 -61.120979 10.00000000
7.357373 -22.795046 -61.120979 10.00000000
26.738213 -45.454063 -61.120979 10.00000000
32.709026 -49.257534 -61.120979 10.00000000
15.814477 -38.355785 -61.120979 10.00000000
28.368422 -50.240005 -61.120979 10.00000000
25.675793 -47.411995 -61.120979 10.00000000
51.322205 -50.600964 -61.120979 10.00000000
16.179140 -39.680935 -61.120979 10.00000000
24.598042 -47.693554 -61.120979 10.00000000
38.407772 -53.167683 -61.120979 10.00000000
19.139496 -47.259155 -61.120979 10.00000000
33.120380 -55.452248 -61.120979 10.00000000
13.031940 -38.944134 -61.120979 10.00000000
27.307999 -50.916225 -61.120979 10.00000000
25.574459 -45.095490 -61.120979 10.00000000
43.466621 -51.202358 -61.120979 10.00000000
7.940658 -23.180868 -61.120979 10.00000000
25.486305 -48.936810 -61.120979 10.00000000
13.668181 -29.260603 -61.120979 10.00000000
50.740089 -52.569408 -61.120979 10.00000000
7.985340 -32.770725 -61.120979 10.00000000
29.362194 -50.631065 -61.120979 10.00000000
19.944279 -42.324329 -61.120979 10.00000000
35.166340 -53.932461 -61.120979 10.00000000
14.346608 -31.014448 -61.120979 10.00000000
46.813892 -53.909790 -61.120979 10.00000000
25.220873 -51.953491 -61.120979 10.00000000
16.953629 -37.482811 -61.120979 10.00000000
45.522152 -55.234676 -61.120979 10.00000000
28.452093 -51.294971 -61.120979 10.00000000
38.238117 -52.430416 -61.120979 10.00000000
37.254005 -53.428402 -61.120979 10.00000000
9.037587 -30.891401 -61.120979 10.00000000
29.753841 -48.586346 -61.120979 10.00000000
8.029996 -28.029179 -61.120979 10.00000000
47.157452 -52.224258 -61.120979 10.00000000
35.793991 -51.705776 -61.120979 10.00000000
10.465002 -27.876902 -61.120979 10.00000000
14.522890 -40.803329 -61.120979 10.00000000
30.737617 -49.393486 -61.120979 10.00000000
55.368210 -50.189529 -61.120979 10.00000000
22.550993 -44.105797 -61.120979 10.00000000
17.927862 -37.345772 -61.120979 10.00000000
13.815956 -35.230221 -61.120979 10.00000000
26.752501 -46.561985 -61.120979 10.00000000
21.261465 -45.507713 -61.120979 10.00000000
49.430447 -50.483356 -61.120979 10.00000000
38.741947 -56.276825 -61.120979 10.00000000
44.575527 -51.345455 -61.120979 10.00000000
25.403421 -47.899170 -61.120979 10.00000000
35.076458 -55.918198 -61.120979 10.00000000
15.633272 -38.855190 -61.120979 10.00000000
10.564020 -23.900406 -61.120979 10.00000000
7.958613 -25.916939 -61.120979 10.00000000
10.590396 -21.834616 -61.120979 10.00000000
56.556423 -48.320927 -61.120979 10.00000000
33.676033 -52.317379 -61.120979 10.00000000
39.514175 -55.690647 -61.120979 10.00000000
9.726734 -31.967081 -61.120979 10.00000000
19.519489 -39.038490 -61.120979 10.00000000
46.374557 -55.128040 -61.120979 10.00000000
25.412018 -48.417587 -61.120979 10.00000000
31.444065 -51.117256 -61.120979 10.00000000
30.129543 -52.858212 -61.120979 10.00000000
8.773187 -22.499941 -61.120979 10.00000000
