61.631817 19.602489 -8.261732 15.00000000
60.081593 17.737856 -26.508064 15.00000000
69.969498 45.148460 -48.085247 15.00000000
69.901344 41.399879 -12.902662 15.00000000
69.067329 35.491680 -19.904129 15.00000000
50.783894 10.006016 3.711561 15.00000000
69.505257 37.790436 -0.940070 15.00000000
39.161522 5.305989 -37.998024 15.00000000
55.680763 13.473340 -39.188194 15.00000000
39.324093 5.348091 -10.834916 15.00000000
37.285820 4.820228 1.172906 15.00000000
54.345818 12.427229 -7.811682 15.00000000
61.023182 18.870417 -33.365795 15.00000000
69.953789 46.017128 -28.093910 15.00000000
62.773346 21.177210 -24.826681 15.00000000
69.967621 42.485069 -28.548775 15.00000000
49.109528 9.059773 -14.898926 15.00000000
58.275627 15.840453 -13.699722 15.00000000
68.849640 34.514275 -14.850791 15.00000000
68.921516 34.836990 -22.938005 15.00000000
61.017864 18.864019 -31.244877 15.00000000
69.818520 40.043591 0.519352 15.00000000
35.177467 4.274216 -7.276919 15.00000000
53.094173 11.495389 -2.268266 15.00000000
51.911240 10.714239 -26.979378 15.00000000
50.293034 9.697650 -18.820469 15.00000000
69.840614 40.405384 -2.152022 15.00000000
67.589462 30.360121 -37.663673 15.00000000
48.196953 8.582538 -9.842647 15.00000000
50.424877 9.780477 -23.886303 15.00000000
39.765705 5.462458 -21.137737 15.00000000
48.868168 8.933552 -11.451136 15.00000000
46.725586 7.872172 -2.941136 15.00000000
68.385529 32.814484 2.042306 15.00000000
61.238235 19.129086 -21.543695 15.00000000
47.118706 8.039650 -45.782177 15.00000000
54.472553 12.521584 -11.512524 15.00000000
38.611935 5.163659 -59.422508 15.00000000
60.765232 18.560148 -10.324921 15.00000000
58.716934 16.293148 3.730944 15.00000000
62.297115 20.502337 -15.923569 15.00000000
63.393482 22.056013 -29.999819 15.00000000
63.568607 22.304180 -1.725340 15.00000000
48.600956 8.793813 -18.298800 15.00000000
40.240479 5.585413 -15.289490 15.00000000
51.726471 10.598161 -8.749833 15.00000000
55.189800 13.055568 -51.922607 15.00000000
37.273331 4.816993 -10.401344 15.00000000
69.556709 38.155392 -38.303825 15.00000000
50.432709 9.785396 -10.143613 15.00000000
46.655586 7.842350 -27.360886 15.00000000
68.506767 33.208916 -26.400806 15.00000000
67.921562 31.305063 -19.282036 15.00000000
64.638283 24.088224 -60.549877 15.00000000
35.914654 4.465129 -33.153088 15.00000000
49.085838 9.047386 1.773423 15.00000000
69.903107 41.428696 -18.884829 15.00000000
62.484222 20.767487 -47.001659 15.00000000
64.829239 24.410112 -35.057686 15.00000000
59.243744 16.833549 -58.626385 15.00000000
62.737476 21.126377 -57.953213 15.00000000
43.899368 6.718116 -49.299431 15.00000000
45.531811 7.363595 -26.408083 15.00000000
58.929230 16.510920 -24.037834 15.00000000
69.962273 45.548191 -45.869247 15.00000000
36.586163 4.639034 -25.191790 15.00000000
37.534328 4.884586 -38.293922 15.00000000
53.932034 12.119169 -5.601805 15.00000000
44.643185 6.985018 2.291771 15.00000000
69.385483 36.940914 -14.485221 15.00000000
37.353519 4.837761 -16.149799 15.00000000
49.427757 9.226195 -1.696164 15.00000000
38.245712 5.068817 -5.643617 15.00000000
46.016350 7.570020 -21.390354 15.00000000
69.971359 45.045670 -36.877598 15.00000000
39.806488 5.473020 -28.960529 15.00000000
49.047070 9.027111 -28.904179 15.00000000
69.982910 44.406754 0.890089 15.00000000
68.701851 33.850700 -28.898464 15.00000000
41.962078 6.068181 -1.392877 15.00000000
54.629330 12.638301 -27.612638 15.00000000
56.013527 13.764641 -23.409115 15.00000000
53.654148 11.912288 -24.280647 15.00000000
64.226204 23.393608 -6.425318 15.00000000
49.728081 9.383250 -53.331955 15.00000000
45.563179 7.376958 -37.820236 15.00000000
45.670113 7.422515 -18.449064 15.00000000
69.642921 38.766869 -2.192863 15.00000000
68.506203 33.207073 3.736296 15.00000000
38.883121 5.233891 1.874520 15.00000000
62.371101 20.607187 -18.898668 15.00000000
66.717705 28.160236 -33.575256 15.00000000
51.366119 10.371782 -17.311256 15.00000000
47.780010 8.364496 -21.792458 15.00000000
41.203651 5.834851 -23.189554 15.00000000
36.646042 4.654542 -18.131397 15.00000000
39.167820 5.307620 -0.015685 15.00000000
42.663460 6.303486 -28.940222 15.00000000
60.725903 18.512844 -29.568186 15.00000000
39.755672 5.459860 -52.475742 15.00000000
67.103691 29.134264 -39.438423 15.00000000
54.966400 12.889249 -37.608898 15.00000000
35.180557 4.275016 -52.087349 15.00000000
53.257099 11.616686 -38.395817 15.00000000
68.864372 34.580433 -42.103504 15.00000000
69.901024 41.394520 -48.212414 15.00000000
41.717228 5.986037 -16.196333 15.00000000
43.418217 6.556696 -60.477455 15.00000000
45.065533 7.164949 -9.353763 15.00000000
57.218456 14.819434 -9.853049 15.00000000
66.273720 27.208477 -34.669102 15.00000000
53.800503 12.021247 -14.902188 15.00000000
69.811623 39.963406 -56.223259 15.00000000
56.932549 14.569151 -13.102580 15.00000000
62.646374 20.997278 -59.617432 15.00000000
66.466377 27.600901 -12.822128 15.00000000
67.207291 29.395693 -27.355890 15.00000000
64.393852 23.676201 -11.996596 15.00000000
50.695522 9.950500 -52.029655 15.00000000
55.189007 13.054977 -9.463828 15.00000000
39.837486 5.481048 -46.548431 15.00000000
40.284874 5.596910 -61.033958 15.00000000
68.451874 33.030327 -61.027176 15.00000000
69.147797 35.852989 -15.695921 15.00000000
68.985802 35.125648 -37.010437 15.00000000
62.121189 20.253031 -40.462048 15.00000000
36.333038 4.573481 -42.251507 15.00000000
69.997894 43.578011 -8.219169 15.00000000
64.110817 23.199102 -19.351543 15.00000000
66.763283 28.275253 -11.443122 15.00000000
42.670341 6.305793 -48.366993 15.00000000
59.987495 17.624674 -14.829957 15.00000000
49.695099 9.366003 -30.624739 15.00000000
69.423767 37.212467 -60.326305 15.00000000
61.875088 19.904282 -10.533515 15.00000000
61.702595 19.687620 -28.780579 15.00000000
60.753166 18.545637 -11.853681 15.00000000
68.707878 33.877754 -59.301346 15.00000000
62.040806 20.139118 3.489385 15.00000000
66.362312 27.388939 -38.991531 15.00000000
53.303288 11.651072 -53.516994 15.00000000
40.561687 5.668598 -19.465664 15.00000000
66.472580 27.613537 -37.058865 15.00000000
37.530174 4.883510 -32.120201 15.00000000
48.669720 8.829774 -39.320225 15.00000000
58.154255 15.715951 -32.759380 15.00000000
69.949799 46.237965 -16.828094 15.00000000
57.806366 15.359085 -15.364961 15.00000000
37.732880 4.936006 -48.857891 15.00000000
45.047955 7.157460 -11.101672 15.00000000
69.964249 42.429932 -52.501804 15.00000000
69.878418 41.024372 -54.357040 15.00000000
55.850731 13.622129 -26.213211 15.00000000
69.968338 42.496815 3.417327 15.00000000
67.952110 31.404434 -11.847111 15.00000000
69.912773 41.586948 -3.361863 15.00000000
58.147373 15.708890 -47.503471 15.00000000
61.260246 19.155560 -39.117844 15.00000000
59.934231 17.560606 -30.700077 15.00000000
42.873802 6.374052 -19.281242 15.00000000
68.903885 34.757812 -10.076892 15.00000000
60.848152 18.659885 -42.793308 15.00000000
66.392975 27.451395 -48.032715 15.00000000
65.208847 25.049999 -29.911570 15.00000000
44.180992 6.812597 -41.080666 15.00000000
48.211185 8.589981 -25.885113 15.00000000
69.464165 37.498974 -16.256975 15.00000000
69.956741 45.853855 -26.558786 15.00000000
41.160564 5.823693 -53.196232 15.00000000
69.222527 36.188538 -35.061974 15.00000000
56.091511 13.832907 -55.728954 15.00000000
69.787079 39.789326 -59.108452 15.00000000
45.561020 7.376038 -49.287701 15.00000000
70.003914 43.244923 -18.745398 15.00000000
63.564255 22.298012 -3.892455 15.00000000
44.513462 6.929754 -7.957213 15.00000000
62.509071 20.802706 -3.601669 15.00000000
68.811562 34.343300 1.913938 15.00000000
57.380325 14.961134 -5.772018 15.00000000
57.486706 15.054257 -7.905616 15.00000000
52.313072 10.966677 -44.094547 15.00000000
48.996216 9.000517 -45.624798 15.00000000
61.356606 19.271461 -53.905987 15.00000000
63.877472 22.805767 -22.413691 15.00000000
65.409752 25.448671 -54.948231 15.00000000
66.892906 28.602354 -16.306751 15.00000000
49.243729 9.129955 -55.060036 15.00000000
69.983772 44.358768 -28.974113 15.00000000
41.344368 5.871293 -40.729744 15.00000000
52.475845 11.068934 -40.741966 15.00000000
57.291553 14.883424 -30.782017 15.00000000
63.781864 22.644604 -7.822040 15.00000000
55.206657 13.068117 -13.629655 15.00000000
50.834274 10.037668 -39.220863 15.00000000
62.143742 20.284990 -54.983101 15.00000000
35.822258 4.441201 -46.428093 15.00000000
63.831078 22.727558 -38.828613 15.00000000
56.909874 14.549301 -53.520077 15.00000000
60.644447 18.414867 -52.616341 15.00000000
57.896275 15.451315 -34.556698 15.00000000
67.545052 30.248047 -30.076677 15.00000000
68.843384 34.486172 -21.230139 15.00000000
65.577682 25.790730 -46.751446 15.00000000
46.939037 7.963108 -48.820389 15.00000000
43.005489 6.418231 -14.680893 15.00000000
60.511478 18.254932 -24.793560 15.00000000
69.357635 36.795174 -31.307941 15.00000000
68.904831 34.762066 -34.432056 15.00000000
69.939598 42.026180 -1.394312 15.00000000
69.847687 40.521183 -21.859512 15.00000000
64.309547 23.534100 -4.772241 15.00000000
69.927124 41.822014 1.735703 15.00000000
64.961433 24.632944 -10.218340 15.00000000
41.795013 6.012134 3.571512 15.00000000
55.786785 13.566153 -21.571390 15.00000000
65.215279 25.060839 -3.477468 15.00000000
40.289276 5.598050 -12.515062 15.00000000
65.852531 26.350561 -57.956871 15.00000000
54.974072 12.894961 -33.288345 15.00000000
47.280907 8.108752 3.841367 15.00000000
69.828659 40.209560 -16.015591 15.00000000
61.294918 19.197262 -48.083351 15.00000000
67.766624 30.807177 -22.250635 15.00000000
39.743999 5.456837 -30.583897 15.00000000
69.985535 44.261314 -59.453388 15.00000000
64.873062 24.483982 -0.585501 15.00000000
47.803474 8.376765 -60.708977 15.00000000
35.149841 4.267062 -18.372503 15.00000000
63.777729 22.637634 -28.562082 15.00000000
70.001213 43.035141 -9.976061 15.00000000
60.617401 18.382336 -44.689800 15.00000000
42.674549 6.307205 -8.755998 15.00000000
69.982689 44.418991 -32.277149 15.00000000
62.767361 21.168728 -27.803888 15.00000000
35.380962 4.326917 -57.855938 15.00000000
62.144024 20.285389 -22.789257 15.00000000
44.729691 7.021871 0.057862 15.00000000
54.918770 12.853788 0.368568 15.00000000
65.421036 25.471655 -16.549376 15.00000000
52.466621 11.063140 -23.715305 15.00000000
63.687443 22.485441 -46.156898 15.00000000
60.584614 18.342899 -16.433018 15.00000000
69.723549 39.338707 -52.157757 15.00000000
69.999565 43.485622 -46.826252 15.00000000
69.917274 41.660637 -33.350246 15.00000000
64.079033 23.145531 -41.711754 15.00000000
70.006165 43.116268 -24.979267 15.00000000
69.467751 37.524429 1.129965 15.00000000
38.254112 5.070992 -42.839310 15.00000000
45.480923 7.341914 -32.905338 15.00000000
58.916721 16.498091 -34.051426 15.00000000
46.327152 7.702429 -13.468502 15.00000000
53.669331 11.923589 -32.419853 15.00000000
41.821850 6.021136 -34.758320 15.00000000
43.165169 6.471801 -3.232478 15.00000000
62.632362 20.977419 -1.889053 15.00000000
50.833630 10.037263 -34.239887 15.00000000
51.329891 10.349023 -58.236317 15.00000000
69.815750 39.998222 -36.289597 15.00000000
56.291126 14.007652 -57.811592 15.00000000
53.174370 11.555094 -58.816845 15.00000000
61.216251 19.102640 -23.513369 15.00000000
63.549568 22.277203 -33.383015 15.00000000
36.835293 4.703552 -26.679764 15.00000000
40.223228 5.580945 -1.475534 15.00000000
40.937531 5.765933 -9.702075 15.00000000
49.328636 9.174358 -51.597057 15.00000000
51.912922 10.715295 -0.298001 15.00000000
69.976295 44.772270 -4.098776 15.00000000
58.514973 16.085976 -20.019596 15.00000000
59.082409 16.668051 -56.375889 15.00000000
65.523422 25.680212 -53.040970 15.00000000
65.636749 25.911041 -35.732792 15.00000000
46.895611 7.944607 -8.804410 15.00000000
64.603500 24.029594 -21.386271 15.00000000
69.140915 35.822094 -43.476227 15.00000000
66.285492 27.232464 -54.972908 15.00000000
66.826149 28.433897 -42.492657 15.00000000
69.901482 41.402046 -57.054127 15.00000000
50.780632 10.003967 -28.269590 15.00000000
55.239964 13.092914 -6.405992 15.00000000
68.753746 34.083691 -47.246365 15.00000000
39.047962 5.276581 -48.080688 15.00000000
65.334587 25.295563 -11.809902 15.00000000
51.989857 10.763626 -13.327921 15.00000000
46.643368 7.837145 -6.580505 15.00000000
69.179749 35.996452 -47.147633 15.00000000
43.252598 6.501132 -22.586260 15.00000000
53.217209 11.586989 -30.196482 15.00000000
69.676636 39.006004 -31.445108 15.00000000
66.020432 26.692566 -11.156945 15.00000000
38.008877 5.007482 -53.753780 15.00000000
39.076942 5.284086 -41.510963 15.00000000
69.954926 45.954418 -55.439301 15.00000000
69.757011 39.576084 -49.489571 15.00000000
57.784260 15.336410 -24.670811 15.00000000
69.980614 44.533852 -10.251067 15.00000000
62.773281 21.177118 -53.377270 15.00000000
69.897758 41.341084 -41.710823 15.00000000
51.288319 10.322907 -53.802784 15.00000000
69.989128 44.062992 -41.109409 15.00000000
64.895172 24.521257 -47.676872 15.00000000
69.237503 36.255791 -9.681098 15.00000000
45.427361 7.319096 -44.104782 15.00000000
67.241119 29.481062 1.104485 15.00000000
45.811802 7.482877 -16.008734 15.00000000
53.398304 11.721813 -4.043062 15.00000000
68.161949 32.087101 -55.742928 15.00000000
69.540085 38.037479 -5.485749 15.00000000
39.628265 5.426865 -3.398712 15.00000000
36.531193 4.624798 -53.099358 15.00000000
53.927841 12.116047 -35.300331 15.00000000
63.950287 22.928511 1.908813 15.00000000
48.773552 8.884073 -16.464895 15.00000000
69.984261 44.332062 -17.482735 15.00000000
56.239845 13.962760 -50.900230 15.00000000
69.964790 45.408825 -0.427821 15.00000000
63.273876 21.886515 -18.579599 15.00000000
69.950356 46.206875 -11.523798 15.00000000
68.007889 31.585909 -59.678680 15.00000000
68.944466 34.940025 -55.040531 15.00000000
43.514896 6.589131 -0.918330 15.00000000
67.582382 30.342258 -24.257586 15.00000000
65.893219 26.433447 -41.692383 15.00000000
67.548096 30.255728 -10.497403 15.00000000
57.632725 15.182084 -19.001795 15.00000000
69.852425 40.598709 -45.260792 15.00000000
35.406361 4.333494 -22.405853 15.00000000
55.875374 13.643703 -30.783314 15.00000000
35.549248 4.370498 3.344707 15.00000000
41.212315 5.837094 -37.920341 15.00000000
55.310596 13.149297 -35.200089 15.00000000
52.479725 11.071370 1.101081 15.00000000
69.313766 36.598206 3.714867 15.00000000
48.460140 8.720173 -23.293398 15.00000000
48.805737 8.900906 -13.351512 15.00000000
68.475700 33.107849 -14.275196 15.00000000
59.830315 17.435619 -1.869947 15.00000000
56.329800 14.041504 -37.146046 15.00000000
41.172085 5.826676 -7.477866 15.00000000
69.962105 45.557316 -15.017542 15.00000000
69.053864 35.431252 0.552229 15.00000000
49.483482 9.255336 -58.873444 15.00000000
37.745823 4.939358 3.754328 15.00000000
66.581230 27.834846 -23.630087 15.00000000
61.868984 19.895628 -60.776012 15.00000000
66.546440 27.763990 -57.209805 15.00000000
50.003868 9.527475 -33.061565 15.00000000
69.953484 46.033794 -31.874117 15.00000000
69.950890 46.177467 -7.507790 15.00000000
69.994560 42.926254 -42.527348 15.00000000
64.145058 23.256819 -9.696329 15.00000000
63.074497 21.603973 -42.218891 15.00000000
64.424492 23.727848 -2.469930 15.00000000
68.791718 34.254204 -12.799230 15.00000000
70.003754 43.254128 -53.977505 15.00000000
69.916740 41.651882 -35.452038 15.00000000
38.327896 5.090100 -19.968542 15.00000000
40.341892 5.611677 -36.691463 15.00000000
69.318108 36.617714 -54.017849 15.00000000
67.018517 28.919329 -19.709488 15.00000000
68.937141 34.907135 -8.086695 15.00000000
68.742218 34.031929 -16.595509 15.00000000
50.770824 9.997807 -31.560957 15.00000000
63.510616 22.222004 -54.621677 15.00000000
62.420799 20.677614 -29.754696 15.00000000
69.233032 36.235699 -41.587318 15.00000000
69.818893 40.049709 -5.657136 15.00000000
63.192146 21.770697 -56.126114 15.00000000
38.014202 5.008861 -8.793738 15.00000000
60.023502 17.667988 -3.746821 15.00000000
61.069038 18.925571 -19.942980 15.00000000
69.979424 42.678429 -31.892956 15.00000000
35.836929 4.445001 -1.927635 15.00000000
47.101948 8.032510 -38.686165 15.00000000
63.295670 21.917397 -12.194335 15.00000000
50.912197 10.086621 -41.120174 15.00000000
69.950844 46.179890 -29.823740 15.00000000
49.893955 9.469995 -57.240620 15.00000000
43.163235 6.471154 -37.514275 15.00000000
66.765923 28.281910 -53.242523 15.00000000
63.729851 22.556929 -24.083445 15.00000000
43.252670 6.501158 -58.047085 15.00000000
69.739639 39.452869 3.732907 15.00000000
69.448372 37.386974 -48.873623 15.00000000
69.271828 36.409901 -6.209275 15.00000000
54.978485 12.898246 -4.365492 15.00000000
69.952690 46.077744 -43.899792 15.00000000
50.133369 9.597345 -48.430599 15.00000000
57.617416 15.168682 -45.728836 15.00000000
58.629196 16.203148 -5.608406 15.00000000
67.813194 30.952484 -39.314255 15.00000000
69.648094 38.803551 -54.115765 15.00000000
42.584644 6.277044 -50.399395 15.00000000
58.117420 15.678165 -27.597097 15.00000000
56.954552 14.588413 -39.793728 15.00000000
67.045074 28.986351 -51.483501 15.00000000
61.241962 19.133568 -4.005058 15.00000000
68.684952 33.788612 -0.873941 15.00000000
69.391541 36.983887 -33.675667 15.00000000
63.544823 22.270473 -37.083817 15.00000000
69.389236 36.967533 -23.376263 15.00000000
43.868408 6.707729 -5.807201 15.00000000
53.576084 11.854169 -13.147595 15.00000000
57.241207 14.839351 -2.837482 15.00000000
68.506485 33.207993 -30.973381 15.00000000
40.404037 5.627771 -17.162142 15.00000000
48.678993 8.834623 -3.341715 15.00000000
37.981052 5.000277 -52.140343 15.00000000
51.527935 10.473437 -7.100844 15.00000000
69.001869 35.197784 -58.177147 15.00000000
47.375408 8.152906 -12.218400 15.00000000
38.593693 5.158935 -39.894131 15.00000000
53.355083 11.689634 -27.363708 15.00000000
67.216156 29.418077 -4.047421 15.00000000
65.632500 25.902390 -24.296827 15.00000000
50.766853 9.995312 -1.327111 15.00000000
58.314358 15.880184 -10.625609 15.00000000
55.787346 13.566641 -47.620190 15.00000000
69.744652 39.488422 -41.475903 15.00000000
56.018250 13.768777 -59.988892 15.00000000
56.723801 14.386413 -17.860371 15.00000000
59.880741 17.496273 -40.500961 15.00000000
66.241180 27.142206 -43.202579 15.00000000
67.493118 30.116995 -53.233601 15.00000000
69.810265 39.953751 -9.452418 15.00000000
46.989197 7.984476 -57.687996 15.00000000
63.398975 22.063791 -0.020869 15.00000000
59.121075 16.707718 -46.253807 15.00000000
41.286045 5.856189 -14.166849 15.00000000
38.466805 5.126074 -18.035849 15.00000000
68.496536 33.175632 -39.155930 15.00000000
69.432343 37.273293 -2.740235 15.00000000
69.298584 36.530033 -57.281467 15.00000000
62.803425 21.219833 -35.639282 15.00000000
69.230202 36.223003 -26.913914 15.00000000
69.959297 45.712315 -2.271676 15.00000000
57.155048 14.763926 3.415583 15.00000000
50.788525 10.008927 -43.253418 15.00000000
67.621841 30.441828 -0.459432 15.00000000
37.215431 4.802000 -30.417393 15.00000000
59.611130 17.210419 -27.969360 15.00000000
51.240063 10.292590 -35.997551 15.00000000
52.921913 11.367144 -46.948978 15.00000000
66.923141 28.678654 -47.029469 15.00000000
61.564510 19.521530 -0.831025 15.00000000
46.794369 7.901475 -10.429083 15.00000000
65.293526 25.211931 -22.073059 15.00000000
54.940811 12.870198 -41.063534 15.00000000
42.965763 6.404904 -53.935219 15.00000000
64.492500 23.842485 -51.674122 15.00000000
69.997971 42.982048 -4.479885 15.00000000
50.894409 10.075446 -14.610578 15.00000000
69.955162 45.941128 -39.773582 15.00000000
48.763393 8.878762 -47.263721 15.00000000
52.196426 10.893398 -37.332069 15.00000000
55.936562 13.697264 -28.046755 15.00000000
37.387173 4.846476 -45.597767 15.00000000
62.149227 20.292765 -14.124876 15.00000000
57.768726 15.320474 -49.144547 15.00000000
68.760902 34.115826 -56.781757 15.00000000
54.614567 12.627311 3.298426 15.00000000
69.334213 36.690010 -4.221576 15.00000000
35.064739 4.245023 -24.295170 15.00000000
43.430138 6.560696 1.216205 15.00000000
69.271843 36.409981 -50.751488 15.00000000
67.336411 29.721544 -2.515495 15.00000000
52.962036 11.397014 -56.897434 15.00000000
66.327209 27.317438 -7.670347 15.00000000
69.951790 46.127674 1.546994 15.00000000
68.201035 32.214260 -0.517936 15.00000000
41.531780 5.923823 -18.192327 15.00000000
63.527714 22.246231 -59.818676 15.00000000
42.458958 6.234878 -6.529265 15.00000000
42.915390 6.388004 -39.071423 15.00000000
65.563889 25.762632 -48.671928 15.00000000
45.098320 7.178917 -3.371987 15.00000000
69.747841 39.511028 -46.568218 15.00000000
69.824081 40.134586 -28.347115 15.00000000
69.989960 44.016609 -26.383410 15.00000000
67.952789 31.406639 -13.713946 15.00000000
48.315601 8.644586 -32.504581 15.00000000
53.819542 12.035421 -60.535809 15.00000000
49.469139 9.247836 -27.325554 15.00000000
67.010941 28.900206 -0.537710 15.00000000
64.325310 23.560661 -25.624699 15.00000000
35.772587 4.428338 -14.957496 15.00000000
48.706810 8.849170 -0.252282 15.00000000
64.091866 23.167154 -53.495846 15.00000000
68.919624 34.828480 -4.722165 15.00000000
64.278595 23.481924 -17.868034 15.00000000
41.048885 5.794771 -5.450078 15.00000000
48.055603 8.508618 -5.343445 15.00000000
40.410061 5.629331 -39.308750 15.00000000
44.193005 6.816626 -20.523458 15.00000000
42.151169 6.131618 -45.049866 15.00000000
68.887924 34.686157 -44.680992 15.00000000
36.687485 -49.591015 -43.216282 16.00000000
12.181366 -22.254662 -23.608040 16.00000000
15.147006 -32.470459 -41.597195 16.00000000
23.573435 -43.000717 -26.858477 16.00000000
15.431154 -33.047813 -22.555170 16.00000000
46.410004 -50.504921 -3.450932 16.00000000
44.850288 -50.539665 -19.109575 16.00000000
16.282522 -34.523781 -8.130561 16.00000000
25.982430 -44.809776 -43.943939 16.00000000
39.388340 -50.135262 -16.850311 16.00000000
20.561663 -40.220737 -28.662407 16.00000000
12.710136 -25.006660 -43.989643 16.00000000
17.426060 -36.317326 -23.109953 16.00000000
29.734735 -47.049084 -20.742161 16.00000000
43.793682 -50.542240 -28.011654 16.00000000
15.405675 -32.996044 -19.399670 16.00000000
18.835995 -38.232712 -6.182728 16.00000000
19.304996 -38.773018 -10.780244 16.00000000
25.024912 -44.156921 -50.972740 16.00000000
58.846588 -47.285744 -22.398073 16.00000000
58.903580 -47.259495 -16.458700 16.00000000
30.594770 -47.440125 -14.643773 16.00000000
12.426146 -23.528625 -20.279222 16.00000000
50.303211 -50.035149 -31.986668 16.00000000
53.750034 -49.240532 -18.568745 16.00000000
44.193947 -50.541267 -7.800928 16.00000000
59.253521 -47.098316 -27.511032 16.00000000
12.718612 -25.050777 -36.164097 16.00000000
52.622623 -49.540363 -5.062726 16.00000000
18.182428 -37.356831 -43.169094 16.00000000
12.175335 -22.223274 -31.433664 16.00000000
32.193382 -48.166985 -37.249245 16.00000000
59.530628 -46.970684 -58.467766 16.00000000
44.136635 -50.541405 -26.185352 16.00000000
19.252203 -38.712196 -12.751307 16.00000000
52.256088 -49.637844 -16.728308 16.00000000
35.163120 -49.193539 -42.488281 16.00000000
24.773327 -43.979519 -45.031120 16.00000000
49.687336 -50.143478 -7.182228 16.00000000
31.342529 -47.780121 -0.831852 16.00000000
39.950871 -50.231392 -15.008581 16.00000000
26.484722 -45.152248 -29.610247 16.00000000
14.252266 -30.596697 -29.241489 16.00000000
27.527069 -45.818775 3.499823 16.00000000
12.956295 -26.287807 -1.666590 16.00000000
44.737263 -50.539944 -15.624800 16.00000000
32.427307 -48.250671 -32.670486 16.00000000
19.442352 -38.931255 -22.687723 16.00000000
41.396252 -50.391262 -33.530910 16.00000000
19.155043 -38.600266 0.748179 16.00000000
23.216469 -42.709526 -28.594589 16.00000000
32.238094 -48.183548 -7.889986 16.00000000
21.534437 -41.169582 -15.988288 16.00000000
57.814167 -47.761261 -18.344069 16.00000000
15.401482 -32.987526 -15.752570 16.00000000
39.688465 -50.186550 -2.055551 16.00000000
14.014386 -29.986149 -36.144138 16.00000000
16.806190 -35.391087 0.329521 16.00000000
32.466606 -48.264614 -46.851021 16.00000000
46.140972 -50.528732 -12.774590 16.00000000
40.217781 -50.277004 -12.641106 16.00000000
12.555426 -24.201468 -45.616020 16.00000000
25.848213 -44.718266 3.543295 16.00000000
39.984730 -50.237179 -26.332979 16.00000000
42.517841 -50.485001 -45.311596 16.00000000
15.802891 -33.729408 -49.090492 16.00000000
45.694515 -50.537609 3.812366 16.00000000
34.325008 -48.923908 -56.766613 16.00000000
12.133097 -22.003445 -41.507748 16.00000000
26.424042 -45.110874 -57.372410 16.00000000
12.819212 -25.574352 -32.219730 16.00000000
52.546776 -49.560535 -31.840906 16.00000000
17.308237 -36.155396 -35.638515 16.00000000
20.233349 -39.842510 -39.090530 16.00000000
49.618893 -50.155514 -58.380974 16.00000000
34.351749 -48.933395 -40.251678 16.00000000
54.415665 -49.061504 -31.340206 16.00000000
46.503216 -50.496674 -45.122585 16.00000000
19.773764 -39.313053 -14.220741 16.00000000
29.622442 -46.997936 -39.453175 16.00000000
14.034665 -30.038197 -56.746319 16.00000000
49.041367 -50.257095 -15.677008 16.00000000
39.510777 -50.156185 -43.747673 16.00000000
19.884409 -39.440521 -41.886063 16.00000000
14.689547 -31.540956 -54.992702 16.00000000
14.755451 -31.674866 -36.734337 16.00000000
17.485060 -36.398411 -51.762081 16.00000000
39.291054 -50.118637 -5.409975 16.00000000
27.324682 -45.704884 -13.805032 16.00000000
34.612286 -49.025826 -14.468253 16.00000000
27.604530 -45.862366 -31.696894 16.00000000
51.349281 -49.851154 -7.314438 16.00000000
35.815273 -49.363586 -25.467554 16.00000000
26.762796 -45.341846 -45.645805 16.00000000
13.328836 -28.226603 -58.330067 16.00000000
31.196024 -47.713505 -12.676455 16.00000000
12.427988 -23.538216 0.044407 16.00000000
35.569771 -49.299572 -54.096615 16.00000000
34.878101 -49.119217 -18.398323 16.00000000
21.434610 -41.072765 -27.410692 16.00000000
12.665325 -24.773441 -50.950794 16.00000000
48.578339 -50.313019 -32.129448 16.00000000
52.053082 -49.691833 -36.716511 16.00000000
20.236597 -39.846252 -46.075630 16.00000000
12.972852 -26.373980 -0.010766 16.00000000
28.939129 -46.613403 -52.583828 16.00000000
16.011370 -34.074696 -3.672739 16.00000000
44.771832 -50.539860 -2.237856 16.00000000
27.761604 -45.950760 -3.963869 16.00000000
30.289310 -47.301239 -37.647728 16.00000000
45.078896 -50.539108 -14.074255 16.00000000
14.377318 -30.906546 -0.800296 16.00000000
45.203030 -50.538807 -31.309902 16.00000000
16.772137 -35.334686 -48.724888 16.00000000
28.268196 -46.235840 -1.219084 16.00000000
25.416443 -44.423874 -16.426292 16.00000000
59.519070 -46.976009 -55.124809 16.00000000
12.158106 -22.133606 -45.458813 16.00000000
30.186390 -47.254444 -57.046803 16.00000000
40.379341 -50.304615 -40.341755 16.00000000
26.211267 -44.965801 -51.937271 16.00000000
12.512908 -23.980183 -5.341957 16.00000000
24.150003 -43.471050 -15.917605 16.00000000
12.303051 -22.887976 -35.965874 16.00000000
17.530125 -36.460342 -30.673342 16.00000000
42.543900 -50.487179 -8.796688 16.00000000
19.225868 -38.681862 -47.318958 16.00000000
55.755863 -48.578674 -36.628304 16.00000000
13.755391 -29.321405 -49.286854 16.00000000
12.773368 -25.335754 -13.245635 16.00000000
15.784264 -33.698563 -27.646652 16.00000000
47.165394 -50.438068 2.287597 16.00000000
12.936881 -26.186768 -59.110546 16.00000000
36.525806 -49.548859 -5.977068 16.00000000
13.840478 -29.539795 -2.879149 16.00000000
57.652805 -47.835583 -2.818929 16.00000000
23.179991 -42.679768 1.508999 16.00000000
34.189007 -48.875660 -61.095806 16.00000000
58.749569 -47.330429 -13.739477 16.00000000
12.971315 -26.365976 -3.268157 16.00000000
37.332516 -49.759209 -54.763500 16.00000000
55.201664 -48.778336 -53.203857 16.00000000
12.079071 -21.722265 -60.551197 16.00000000
13.539401 -28.767042 3.401609 16.00000000
21.422390 -41.060913 -52.218655 16.00000000
18.546284 -37.856892 -25.438065 16.00000000
14.509911 -31.175957 -7.158317 16.00000000
16.946655 -35.623726 -9.355808 16.00000000
24.894785 -44.068199 -47.027809 16.00000000
29.615364 -46.993954 -0.262566 16.00000000
12.467933 -23.746107 -17.535267 16.00000000
26.546940 -45.194668 -34.548744 16.00000000
27.372198 -45.731621 -16.229006 16.00000000
30.891233 -47.574924 -50.299618 16.00000000
59.557308 -46.958397 -34.432987 16.00000000
21.701292 -41.331409 -23.500986 16.00000000
27.525944 -45.818142 -28.615198 16.00000000
49.061649 -50.253529 1.408259 16.00000000
42.852734 -50.512989 -13.520996 16.00000000
57.321190 -47.988319 -26.886862 16.00000000
45.577511 -50.537895 -27.760139 16.00000000
53.361717 -49.343803 -20.154722 16.00000000
13.033677 -26.690542 -14.366760 16.00000000
55.296284 -48.744247 -58.938740 16.00000000
34.695435 -49.055325 -35.095448 16.00000000
53.716900 -49.249344 1.175708 16.00000000
18.388433 -37.639954 -27.145369 16.00000000
53.134136 -49.404327 -34.584980 16.00000000
17.636866 -36.607040 -15.488615 16.00000000
13.873629 -29.624880 1.554980 16.00000000
12.732908 -25.125177 -28.784746 16.00000000
44.016327 -50.541698 -49.691803 16.00000000
41.796379 -50.424702 -38.021847 16.00000000
21.198833 -40.844093 3.828981 16.00000000
13.056766 -26.810711 -27.086943 16.00000000
27.937122 -46.049530 -33.292461 16.00000000
23.457266 -42.905952 -53.979179 16.00000000
22.548473 -42.153057 -32.205647 16.00000000
41.276443 -50.381248 -1.465996 16.00000000
23.271978 -42.754807 -60.870258 16.00000000
59.114395 -47.162395 -5.785803 16.00000000
15.094923 -32.364632 -43.868195 16.00000000
38.502945 -49.983959 -48.258759 16.00000000
58.865089 -47.277222 2.725859 16.00000000
13.026485 -26.653114 -61.002834 16.00000000
18.741861 -38.124268 -32.208523 16.00000000
12.089091 -21.774412 -52.568924 16.00000000
27.642332 -45.883636 -5.640736 16.00000000
12.116883 -21.919058 -0.279718 16.00000000
45.955666 -50.536976 -7.241794 16.00000000
41.844913 -50.428761 3.650116 16.00000000
31.982689 -48.071186 3.657479 16.00000000
32.790070 -48.379368 -35.464973 16.00000000
55.844875 -48.546608 -14.976078 16.00000000
43.020676 -50.527023 -33.341789 16.00000000
13.410489 -28.436174 -38.411812 16.00000000
28.875481 -46.577587 -29.067133 16.00000000
15.599391 -33.389652 -32.988625 16.00000000
49.930500 -50.100704 3.806502 16.00000000
55.658855 -48.613625 -2.174910 16.00000000
29.497530 -46.927643 -35.906055 16.00000000
33.633522 -48.678593 -33.823895 16.00000000
51.290977 -49.861408 -47.523426 16.00000000
14.067623 -30.122787 -11.927063 16.00000000
16.506056 -34.893997 -32.580315 16.00000000
12.182805 -22.262152 -2.319084 16.00000000
30.905455 -47.581387 -26.164761 16.00000000
19.236591 -38.694214 -37.653160 16.00000000
17.017357 -35.740822 -43.095779 16.00000000
48.907665 -50.280613 -22.416012 16.00000000
46.757645 -50.474155 -24.277145 16.00000000
52.441475 -49.588539 -44.384048 16.00000000
48.873447 -50.286633 -9.461947 16.00000000
57.770802 -47.781235 -42.379120 16.00000000
13.138798 -27.237646 -20.642460 16.00000000
13.546179 -28.784439 -60.638020 16.00000000
59.312927 -47.070953 -3.523925 16.00000000
16.243362 -34.458923 -17.065233 16.00000000
12.425515 -23.525345 -52.173946 16.00000000
20.001204 -39.575069 -60.810265 16.00000000
32.343613 -48.220982 -60.906429 16.00000000
55.774418 -48.571991 -22.635210 16.00000000
43.058182 -50.530159 -3.377086 16.00000000
21.016253 -40.667019 -24.838512 16.00000000
25.265217 -44.320766 -33.371025 16.00000000
42.742867 -50.503807 -58.792915 16.00000000
13.797989 -29.430738 -45.985626 16.00000000
52.945419 -49.454517 -15.076106 16.00000000
26.953039 -45.471558 -2.336443 16.00000000
59.013603 -47.208820 -32.248142 16.00000000
15.267678 -32.715649 -47.939194 16.00000000
39.454842 -50.146629 -18.534813 16.00000000
12.104296 -21.853548 -34.393829 16.00000000
20.877394 -40.532345 -14.004019 16.00000000
58.602131 -47.398338 -36.225056 16.00000000
18.384340 -37.634327 -16.411016 16.00000000
59.566555 -46.954140 -46.291420 16.00000000
53.146210 -49.401115 -30.185732 16.00000000
15.259112 -32.698246 1.035389 16.00000000
17.831078 -36.873955 -32.609615 16.00000000
14.812078 -31.789925 -57.258736 16.00000000
12.435524 -23.577433 -48.849171 16.00000000
16.636044 -35.109287 -28.489103 16.00000000
39.555187 -50.163776 -0.256486 16.00000000
47.990402 -50.365051 -11.136689 16.00000000
53.039646 -49.429459 -25.932232 16.00000000
19.653296 -39.174271 -54.878765 16.00000000
16.618877 -35.080856 -11.387178 16.00000000
31.122583 -47.680115 -31.936790 16.00000000
24.790253 -43.993324 -60.705124 16.00000000
20.673704 -40.334793 -55.710194 16.00000000
28.014364 -46.092999 -54.324181 16.00000000
47.150757 -50.439362 -21.276201 16.00000000
18.759392 -38.144463 -34.398598 16.00000000
52.378765 -49.605217 -28.661316 16.00000000
39.717148 -50.191452 -56.921917 16.00000000
53.131248 -49.405094 -6.858690 16.00000000
26.152889 -44.925999 -17.952478 16.00000000
50.703148 -49.964806 -18.618671 16.00000000
20.280210 -39.896496 -47.823494 16.00000000
54.394951 -49.068970 -24.927158 16.00000000
25.087305 -44.199463 2.024200 16.00000000
34.984905 -49.147068 -44.364712 16.00000000
16.839521 -35.446289 -18.490944 16.00000000
59.538799 -46.966923 -7.359312 16.00000000
57.551003 -47.882469 -7.911793 16.00000000
51.510178 -49.822853 -56.500431 16.00000000
31.267113 -47.745827 -53.660892 16.00000000
15.938615 -33.954197 -9.997234 16.00000000
33.801243 -48.738094 -17.354561 16.00000000
15.440854 -33.067524 -24.186094 16.00000000
43.754539 -50.542336 -57.226768 16.00000000
37.237659 -49.734474 -36.193054 16.00000000
46.988358 -50.453735 -38.603512 16.00000000
52.765003 -49.502499 -55.267513 16.00000000
31.866779 -48.018486 -42.365620 16.00000000
52.463570 -49.582664 -51.516052 16.00000000
19.124521 -38.565105 -19.422520 16.00000000
12.080776 -21.731134 -4.097690 16.00000000
18.142790 -37.302353 -54.938862 16.00000000
40.777676 -50.339565 -45.572063 16.00000000
49.036098 -50.258022 -51.444836 16.00000000
16.378916 -34.683426 -37.966145 16.00000000
35.080032 -49.171871 -47.540462 16.00000000
18.242294 -37.439106 3.796236 16.00000000
23.559933 -42.989700 -6.397379 16.00000000
13.123553 -27.158304 -32.928226 16.00000000
31.430485 -47.820110 -55.435627 16.00000000
41.589424 -50.407406 -41.592823 16.00000000
37.596046 -49.827927 -17.701155 16.00000000
55.857243 -48.542152 -48.573040 16.00000000
41.723377 -50.418602 -29.601442 16.00000000
17.534689 -36.466618 -28.670050 16.00000000
39.916630 -50.225540 -22.684340 16.00000000
39.961369 -50.233189 -60.510792 16.00000000
39.912029 -50.224754 -47.341610 16.00000000
41.269356 -50.380657 -58.368134 16.00000000
57.437481 -47.934757 -4.399549 16.00000000
47.430775 -50.414581 -41.008717 16.00000000
21.777996 -41.405804 -21.771456 16.00000000
40.263691 -50.284851 -20.115423 16.00000000
55.492050 -48.673721 -38.733166 16.00000000
13.119060 -27.134918 -18.856619 16.00000000
57.273926 -48.010090 -14.301882 16.00000000
42.093872 -50.449566 -39.747456 16.00000000
15.964767 -33.997513 -60.932247 16.00000000
24.579872 -43.821712 -1.418617 16.00000000
15.237687 -32.654713 -0.818892 16.00000000
13.714750 -29.217096 -32.966568 16.00000000
57.529823 -47.892227 -6.121742 16.00000000
32.415215 -48.246384 -24.268768 16.00000000
50.468597 -50.006058 -30.265268 16.00000000
44.708031 -50.540012 -24.618011 16.00000000
55.547096 -48.653889 -46.887020 16.00000000
21.733673 -41.362816 -50.159008 16.00000000
27.124365 -45.588367 -21.102224 16.00000000
35.182068 -49.198479 -29.408831 16.00000000
22.259195 -41.872501 -47.389015 16.00000000
52.997108 -49.440769 -47.295578 16.00000000
38.747074 -50.025681 -41.605457 16.00000000
17.160242 -35.952000 -4.294496 16.00000000
17.967134 -37.060944 -37.303425 16.00000000
12.167836 -22.184244 -54.788857 16.00000000
24.542301 -43.791061 -37.996811 16.00000000
12.166116 -22.175291 -5.607053 16.00000000
13.715164 -29.218161 -22.371441 16.00000000
54.035198 -49.164692 -40.432308 16.00000000
13.449694 -28.536800 -19.387434 16.00000000
14.530847 -31.218496 -61.070229 16.00000000
44.391731 -50.540783 -51.198772 16.00000000
21.226955 -40.871368 -12.313799 16.00000000
36.490131 -49.539555 -1.804907 16.00000000
44.529121 -50.540451 -53.559856 16.00000000
16.536457 -34.944351 -30.778822 16.00000000
37.259560 -49.740185 -24.223354 16.00000000
13.054034 -26.796490 -45.851231 16.00000000
34.898102 -49.124435 -5.923942 16.00000000
15.316391 -32.814632 -7.692810 16.00000000
14.973773 -32.118469 -28.942402 16.00000000
57.791077 -47.771896 -28.751987 16.00000000
27.709753 -45.921577 -26.477650 16.00000000
33.608734 -48.669800 -38.799110 16.00000000
18.492146 -37.782486 -2.729373 16.00000000
42.701462 -50.500347 -50.632751 16.00000000
12.758455 -25.258141 -46.851017 16.00000000
35.787266 -49.356285 -45.863808 16.00000000
13.966743 -29.863867 -50.926884 16.00000000
21.287937 -40.930515 -3.077850 16.00000000
20.507973 -40.158886 -43.883343 16.00000000
47.237911 -50.431648 -59.262928 16.00000000
32.999817 -48.453777 -19.092184 16.00000000
21.423403 -41.061897 1.600938 16.00000000
13.692539 -29.160089 -41.576511 16.00000000
30.117538 -47.223137 -11.295994 16.00000000
30.946217 -47.599922 0.946806 16.00000000
30.279463 -47.296761 -42.694790 16.00000000
47.496517 -50.408764 -57.187557 16.00000000
45.186764 -50.538849 -42.343941 16.00000000
25.810209 -44.692352 -5.633199 16.00000000
53.707878 -49.251743 -53.330303 16.00000000
51.610004 -49.805294 -50.175339 16.00000000
20.401476 -40.036198 -21.317427 16.00000000
38.130493 -49.920315 -31.377970 16.00000000
12.411714 -23.453514 3.874499 16.00000000
56.028435 -48.480476 -25.670551 16.00000000
19.444199 -38.933384 -27.960644 16.00000000
31.186419 -47.709137 -16.211657 16.00000000
35.856003 -49.374207 -19.743755 16.00000000
56.766006 -48.214752 -11.472996 16.00000000
44.797405 -50.539795 -9.227851 16.00000000
12.586350 -24.362415 -9.452960 16.00000000
15.841752 -33.793774 -29.638142 16.00000000
53.463390 -49.316765 -2.577892 16.00000000
13.715163 -29.218159 -4.998830 16.00000000
22.835791 -42.398991 -55.548893 16.00000000
12.197545 -22.338865 -15.345888 16.00000000
59.343464 -47.056889 -9.821808 16.00000000
23.435457 -42.888165 -44.426388 16.00000000
48.313675 -50.336441 -46.124130 16.00000000
28.776937 -46.522133 -46.588261 16.00000000
23.512383 -42.950912 -17.851233 16.00000000
23.860476 -43.234867 -31.484798 16.00000000
43.888756 -50.542011 -38.344410 16.00000000
14.876148 -31.920107 -45.365242 16.00000000
12.438478 -23.592810 -12.542890 16.00000000
19.691299 -39.218052 -52.882496 16.00000000
34.331047 -48.926052 -25.255814 16.00000000
57.369064 -47.966270 -30.532431 16.00000000
37.604790 -49.830204 -13.652893 16.00000000
31.397476 -47.805099 -48.013836 16.00000000
12.189080 -22.294809 2.004762 16.00000000
20.863659 -40.519024 -19.832590 16.00000000
14.172079 -30.390886 -44.680515 16.00000000
58.308418 -47.533615 0.488274 16.00000000
47.936367 -50.369835 -14.363965 16.00000000
15.447586 -33.081203 -37.041798 16.00000000
59.425278 -47.019207 -40.706638 16.00000000
41.455856 -50.396244 -47.163563 16.00000000
55.390682 -48.710239 -61.011162 16.00000000
37.549763 -49.815853 -29.185125 16.00000000
50.104885 -50.070034 -20.537773 16.00000000
13.033723 -26.690784 -38.237923 16.00000000
15.583062 -33.356476 -40.187729 16.00000000
29.607883 -46.989742 -6.389836 16.00000000
34.976738 -49.144939 -58.413551 16.00000000
12.632928 -24.604834 -11.369006 16.00000000
26.860868 -45.408710 -36.122192 16.00000000
49.368454 -50.199566 -17.644348 16.00000000
41.882015 -50.431862 -35.505695 16.00000000
38.707108 -50.018848 -45.129841 16.00000000
52.373283 -49.606674 -0.523198 16.00000000
39.796940 -50.205090 -32.491405 16.00000000
59.309982 -47.072311 -18.234289 16.00000000
42.557995 -50.488358 -53.375530 16.00000000
24.748236 -43.959053 -54.995689 16.00000000
13.067152 -26.864765 -5.952036 16.00000000
15.749500 -33.640984 -50.919621 16.00000000
23.266415 -42.750267 -59.171394 16.00000000
12.444293 -23.623072 -47.103851 16.00000000
13.152041 -27.306574 -50.168697 16.00000000
12.686969 -24.886089 -30.357101 16.00000000
24.008781 -43.355846 -24.581490 16.00000000
15.249346 -32.678402 -5.581790 16.00000000
20.029949 -39.608189 -31.304110 16.00000000
23.985674 -43.336998 -56.861877 16.00000000
12.121938 -21.945368 -37.535904 16.00000000
19.279028 -38.743099 -59.048347 16.00000000
57.246178 -48.022869 -49.606636 16.00000000
51.064705 -49.901211 -15.225666 16.00000000
37.291599 -49.748539 -20.898199 16.00000000
57.278206 -48.008118 -60.918205 16.00000000
40.466064 -50.313522 -53.956993 16.00000000
31.286438 -47.754616 -58.887444 16.00000000
22.814886 -42.381939 3.239972 16.00000000
23.287003 -42.767063 -38.261131 16.00000000
41.163891 -50.371841 -3.046103 16.00000000
50.787888 -49.949898 -5.590545 16.00000000
15.358936 -32.901077 -17.529484 16.00000000
16.256126 -34.480064 -20.187975 16.00000000
46.720509 -50.477440 -36.681923 16.00000000
38.862202 -50.045353 -54.039547 16.00000000
16.636280 -35.109680 -54.575764 16.00000000
16.124451 -34.261982 -41.882263 16.00000000
30.906290 -47.581768 -5.367030 16.00000000
32.241013 -48.184582 -4.621832 16.00000000
24.258144 -43.559261 -19.262915 16.00000000
18.408689 -37.667789 -53.150356 16.00000000
37.938564 -49.887512 -60.937969 16.00000000
47.951042 -50.368534 -3.726811 16.00000000
49.062248 -50.253426 -25.363712 16.00000000
45.270405 -50.538643 -10.882394 16.00000000
33.759399 -48.723251 -31.672325 16.00000000
50.475246 -50.004890 -52.782085 16.00000000
18.682587 -38.044216 -61.105282 16.00000000
14.222654 -30.520693 3.380443 16.00000000
28.545731 -46.392021 -21.747122 16.00000000
31.035889 -47.640694 -35.936165 16.00000000
51.391724 -49.843689 -58.409107 16.00000000
23.732332 -43.130337 -8.247546 16.00000000
14.843851 -31.854483 -20.962580 16.00000000
52.603146 -49.545544 -38.347923 16.00000000
50.144802 -50.063011 -11.002093 16.00000000
27.305050 -45.693832 -55.952141 16.00000000
47.345112 -50.422161 -61.045670 16.00000000
13.257264 -27.854210 -56.535023 16.00000000
14.886423 -31.940985 -14.590167 16.00000000
13.227396 -27.698759 -12.936711 16.00000000
31.609106 -47.901325 -27.603659 16.00000000
15.097762 -32.370403 -27.016388 16.00000000
41.477474 -50.398048 -52.170063 16.00000000
12.121231 -21.941685 -43.188484 16.00000000
57.154011 -48.065319 -55.472168 16.00000000
14.374556 -30.900930 -17.627794 16.00000000
53.981709 -49.178917 -16.514517 16.00000000
36.375252 -49.509602 -39.163246 16.00000000
57.875999 -47.732784 -39.737118 16.00000000
13.020610 -26.622536 -7.576512 16.00000000
21.750654 -41.379284 -54.822231 16.00000000
18.063950 -37.194000 -59.558140 16.00000000
56.560223 -48.288891 -19.713209 16.00000000
29.778166 -47.068832 -24.103189 16.00000000
49.949600 -50.097347 -35.142952 16.00000000
39.796284 -50.204975 -28.962889 16.00000000
14.261449 -30.620266 -19.687780 16.00000000
36.764515 -49.611103 -50.299290 16.00000000
31.287409 -47.755054 -9.082470 16.00000000
16.238953 -34.451622 -47.433361 16.00000000
53.277603 -49.366173 -11.239955 16.00000000
20.829302 -40.485703 -53.763103 16.00000000
51.211399 -49.875404 -12.179187 16.00000000
20.530582 -40.184933 -1.334906 16.00000000
55.836021 -48.549797 -8.579759 16.00000000
15.656269 -33.486572 -13.731262 16.00000000
55.746799 -48.581944 -29.453077 16.00000000
21.787615 -41.415131 -17.771559 16.00000000
14.630507 -31.420994 -31.376127 16.00000000
21.408680 -41.047619 -32.649467 16.00000000
18.010990 -37.121216 -40.630352 16.00000000
43.696655 -50.542477 -47.169201 16.00000000
23.643665 -43.058006 -36.781139 16.00000000
45.582954 -50.537884 -56.282501 16.00000000
44.491199 -50.540543 -5.318236 16.00000000
42.179409 -50.456715 -10.938714 16.00000000
36.338699 -49.500069 -22.327188 16.00000000
15.527946 -33.244484 -54.460197 16.00000000
17.882421 -36.944519 -18.516756 16.00000000
23.871954 -43.244232 -33.245949 16.00000000
48.520988 -50.318092 -5.317873 16.00000000
29.695318 -47.031162 -45.308010 16.00000000
35.665428 -49.324516 -7.486532 16.00000000
52.271706 -49.633690 -40.686356 16.00000000
26.558224 -45.202366 -9.326286 16.00000000
19.793398 -39.335674 -57.480785 16.00000000
29.178431 -46.748070 -59.870525 16.00000000
34.967186 -49.142448 3.463351 16.00000000
34.710461 -49.060654 -11.895579 16.00000000
18.259968 -37.463394 -45.558338 16.00000000
28.399851 -46.309929 -15.095632 16.00000000
25.132128 -44.230022 -9.977182 16.00000000
14.696714 -31.555519 -10.902540 16.00000000
32.028904 -48.092201 -57.516930 16.00000000
53.727551 -49.246510 -59.221348 16.00000000
28.203857 -46.199635 -49.426968 16.00000000
25.851395 -44.720432 -26.738190 16.00000000
24.874739 -44.054531 -20.842327 16.00000000
47.278049 -50.428097 -30.790785 16.00000000
12.195107 -22.326174 -19.159369 16.00000000
58.083824 -47.637062 -20.270590 16.00000000
15.541844 -33.272724 -46.106766 16.00000000
25.375616 -44.396042 -31.202248 16.00000000
33.970776 -48.798241 -7.375695 16.00000000
57.217598 -48.036034 -15.941446 16.00000000
56.030224 -48.479832 -57.075245 16.00000000
38.745724 -50.025448 -58.380409 16.00000000
21.108286 -40.756275 -38.117447 16.00000000
13.118331 -27.131128 1.871447 16.00000000
18.201777 -37.383423 -11.557928 16.00000000
12.864688 -25.811035 3.601362 16.00000000
42.982838 -50.523861 -42.463352 16.00000000
19.362972 -38.839806 -44.888088 16.00000000
29.587166 -46.978085 -48.531528 16.00000000
38.447544 -49.974491 -7.318526 16.00000000
16.428040 -34.764790 -45.465275 16.00000000
55.143173 -48.799408 -21.125793 16.00000000
15.133078 -32.442158 -3.303791 16.00000000
26.764851 -45.343246 -19.470795 16.00000000
37.790306 -49.862179 -38.126068 16.00000000
41.594261 -50.407810 -61.025940 16.00000000
50.339149 -50.028828 -40.415928 16.00000000
21.152332 -40.798996 -34.708252 16.00000000
32.133381 -48.139706 -10.673460 16.00000000
20.178135 -39.778900 -50.330170 16.00000000
29.518612 -46.939507 -31.362133 16.00000000
45.013561 -50.539268 -35.735630 16.00000000
48.401264 -50.328690 -44.316441 16.00000000
59.305302 -47.074467 -44.400894 16.00000000
24.494246 -43.751862 0.443765 16.00000000
46.162514 -50.526825 -33.067806 16.00000000
13.193610 -27.522917 -48.262081 16.00000000
38.234131 -49.938023 -25.543344 16.00000000
22.978466 -42.515377 -0.562070 16.00000000
27.457003 -45.779346 -61.082516 16.00000000
16.319548 -34.585102 -21.912350 16.00000000
18.581345 -37.905075 -4.429496 16.00000000
43.464588 -50.543041 -40.434883 16.00000000
13.745584 -29.296236 -13.362499 16.00000000
22.139124 -41.756046 -25.827362 16.00000000
59.224571 -47.111652 -61.051006 16.00000000
45.804691 -50.537342 -40.449654 16.00000000
29.784874 -47.071880 -8.020080 16.00000000
45.598415 -50.537846 1.240485 16.00000000
29.101215 -46.704617 -16.760803 16.00000000
28.178761 -46.185513 -36.432201 16.00000000
56.543194 -48.295025 2.081693 16.00000000
31.869167 -48.019569 -20.807518 16.00000000
18.889421 -38.294262 -8.192456 16.00000000
51.357643 -49.849686 -1.815010 16.00000000
23.172489 -42.673649 -42.565189 16.00000000
33.387119 -48.591179 -28.010040 16.00000000
49.564362 -50.165108 -4.084672 16.00000000
44.218468 -50.541206 -22.906517 16.00000000
12.729713 -25.108549 -25.888918 16.00000000
16.187243 -34.365978 -53.023579 16.00000000
41.014519 -50.359360 -9.763722 16.00000000
17.262253 -36.092197 -20.026901 16.00000000
37.884197 -49.878223 -56.559242 16.00000000
57.548515 -47.883617 -9.963388 16.00000000
26.298429 -45.025230 1.465012 16.00000000
20.367228 -39.996742 -16.261896 16.00000000
17.197493 -36.003197 -46.954048 16.00000000
18.009783 -37.119556 -49.673336 16.00000000
43.335663 -50.543358 0.904508 16.00000000
13.285978 -28.003651 -2.330367 16.00000000
22.226488 -41.840778 -13.993688 16.00000000
22.131544 -41.748695 -6.820840 16.00000000
24.637604 -43.868805 -27.731625 16.00000000
24.329775 -43.617695 -35.008938 16.00000000
58.737610 -47.335938 -12.036346 16.00000000
48.879776 -50.285519 -29.715340 16.00000000
43.418133 -50.543156 -54.729359 16.00000000
58.912868 -47.255215 -53.434231 16.00000000
12.449398 -23.649641 -56.281551 16.00000000
47.030228 -50.450031 -15.991809 16.00000000
47.020443 -50.450897 -25.908098 16.00000000
35.245811 -49.215099 -23.848036 16.00000000
20.253937 -39.866226 -26.945482 16.00000000
21.034271 -40.684494 -30.440536 16.00000000
22.172167 -41.788094 -36.383614 16.00000000
20.081909 -39.668045 -5.906556 16.00000000
13.331932 -28.234550 0.402168 16.00000000
12.839166 -25.678205 -49.252121 16.00000000
13.281084 -27.978182 -30.911139 16.00000000
13.533911 -28.752953 -11.362032 16.00000000
34.275860 -48.906475 -20.056137 16.00000000
58.619110 -47.390514 -51.177803 16.00000000
