-20.749992 -1.587500 2.421801
28.629096 -1.587500 7.155474
20.415756 -1.587500 -20.137912
-30.281348 -3.175000 7.170969
-6.120950 0.000000 -17.080684
-8.232335 0.000000 26.366963
26.275082 -0.490050 17.820560
16.051503 0.000000 -13.041825
-9.666442 -3.099729 14.599105
-7.694882 -1.587500 -28.552738
12.567782 1.587500 -13.950383
7.925070 -1.587500 43.098342
-17.190157 1.587500 23.628292
-20.475688 0.000000 -10.542635
9.660469 -1.345356 40.528591
7.864546 -3.175000 19.332895
14.619229 -3.175000 -9.846489
-17.225908 -0.746701 3.141517
-1.377416 0.000000 -25.237174
-17.710416 -3.175000 -24.083371
-16.420693 -3.175000 25.485901
-9.554349 -1.587500 36.648614
-26.767900 0.000000 2.733997
16.017383 -1.587500 25.986893
-26.961856 -1.587500 15.663005
29.349195 0.507633 12.108399
2.600096 0.270753 85.500439
10.249315 -1.440308 -30.049615
3.444510 -1.587500 41.417998
21.148504 -3.175000 -18.294257
28.019279 1.587500 0.728614
-12.245146 -3.175000 -27.131532
-0.865014 -1.587500 55.232875
-27.809574 1.587500 2.389343
-13.337838 0.000000 22.775466
-28.612780 -1.848760 15.110412
26.429940 -3.175000 5.728899
23.303055 -2.255459 -1.762808
26.359332 1.587500 -16.678678
5.855070 -1.587500 -20.479128
31.024810 1.468776 -6.736224
-31.248869 1.058209 -5.606571
4.162987 1.587500 76.937335
-18.843327 -1.587500 12.950905
1.649352 -1.587500 29.978292
6.174376 0.000000 18.572684
4.442850 1.587500 47.717388
-1.809391 -1.587500 72.288808
29.984658 1.581427 -10.429581
-3.232286 0.000000 18.058673
27.012100 0.000000 -3.025481
-18.426754 1.587500 23.370515
8.600536 -1.765300 24.038703
10.050807 1.587500 -15.196019
-21.795070 1.587500 -6.865412
6.623908 -3.175000 30.821958
24.682889 0.000000 15.758979
11.239865 0.000000 18.337975
-24.128140 0.000000 -5.924649
-0.418592 -1.587500 72.308586
1.204481 -2.857230 -17.471776
16.817650 -1.084989 4.888526
27.032835 -1.587500 10.509081
-10.836420 -1.587500 -19.894294
-15.951325 1.587500 -18.782079
-30.301410 -0.932471 9.476691
-25.419823 -1.587500 -0.327733
6.888746 -1.587500 22.583957
22.616899 -3.175000 10.929782
20.287423 -1.587500 -6.816472
9.660469 0.809718 48.121607
21.289985 -1.587500 -4.543829
19.936785 -1.765300 3.167124
-21.324464 0.000000 0.380408
-19.969555 -2.582528 25.459714
-3.583920 -1.587500 70.461782
-17.466905 0.000000 20.440571
-22.708811 -3.175000 21.180783
-20.376650 1.587500 11.619314
5.189572 -3.175000 -28.109201
4.369395 -3.175000 -19.594227
31.661088 -1.486464 2.342555
-19.875728 -3.175000 -9.446555
19.080480 1.261373 -25.375527
-23.456785 -1.587500 -11.662372
5.117928 -1.587500 19.614712
-3.500058 -3.175000 21.623378
-2.582797 0.242794 17.321397
20.313723 1.587500 -2.855991
-5.809886 1.587500 36.968698
-17.202512 -3.175000 -19.382244
-9.503838 -0.317142 77.920421
2.778904 1.587500 22.903180
26.269704 0.000000 11.423822
1.911576 1.532037 -31.689464
7.727020 -3.175000 18.447364
-18.282209 0.000000 -0.263349
28.899272 0.745072 13.141534
10.035397 0.000000 -24.131020
-8.522225 1.587500 53.383195
-19.223539 0.000000 9.502427
18.300178 -3.175000 15.093804
16.893959 -3.175000 -19.712229
5.572596 -1.587500 -24.497269
22.549897 -3.175000 19.777942
-29.205680 1.587500 5.852840
0.498625 1.587500 59.824969
-9.391563 1.587500 61.677838
-17.392120 -1.587500 -13.147629
0.616407 1.587500 47.797033
16.098950 -3.089127 -6.889821
-11.819390 1.506867 -16.153332
9.432421 -1.587500 27.976990
-22.573012 0.000000 15.408444
14.649557 1.587500 23.355307
-4.853549 -1.587500 80.067681
0.673376 -3.175000 24.502525
9.660469 1.421002 59.624095
16.724333 -3.175000 14.044691
-26.188073 1.587500 4.052457
-15.304017 0.000000 -25.059675
11.298435 0.000000 27.714171
-9.299331 1.587500 48.315611
-1.920841 1.587500 83.312740
7.184131 -3.175000 23.818097
17.623419 0.000000 21.361451
8.344194 -1.587500 28.476031
6.356856 1.587500 -16.534717
-23.322651 0.000000 -14.927562
-1.770484 0.557750 85.689476
-9.546167 -3.175000 -25.271344
-12.031074 -1.587500 15.161976
17.485119 1.587500 -4.722631
-22.896342 0.000000 20.148864
-6.759102 1.587500 -17.580906
-9.660469 -0.662647 38.330140
-23.096599 0.781712 -21.781368
10.115189 0.321673 30.093800
-16.340568 -2.071725 27.928969
4.573000 1.587500 76.086797
-8.811306 -1.587500 39.917706
19.786480 -1.587500 -14.736681
30.751492 0.000000 -9.909803
-24.270019 1.587500 0.748972
20.299430 -1.587500 15.073889
30.249795 -1.587500 -6.555251
6.145284 -3.175000 -22.219939
-5.662270 1.587500 47.352393
-17.764932 -3.175000 -20.193590
-17.197423 1.587500 -23.349111
6.740307 1.587500 70.236693
-3.992107 1.587500 32.826142
-16.551280 -1.587500 26.524780
-12.127843 1.581976 -29.340838
-30.727112 0.420607 -7.990627
-4.488429 1.587500 66.936244
14.921999 0.000000 17.150857
31.478831 0.000000 -2.799832
20.341196 -1.587500 16.298809
-29.128144 -1.587500 -5.156821
1.587500 0.643435 26.244422
-25.217527 -1.587500 18.491242
28.430141 -1.587500 3.420376
4.279416 0.000000 30.904908
-7.222385 1.587500 17.621240
20.440117 0.000000 12.440488
21.226766 -1.765300 2.640097
18.906271 -1.587500 1.449860
-5.696671 -3.175000 -17.607401
25.052954 -0.690667 -19.499840
9.016059 1.587500 67.129016
7.257644 -1.587500 21.460135
-9.660469 0.823860 44.716087
-20.439372 1.587500 -23.803441
10.473844 1.587500 -24.990489
-30.867602 -2.282043 9.710048
1.095005 0.000000 30.989956
31.637007 -0.974993 -2.653373
-21.306635 0.000000 -12.352240
29.124624 -1.544719 12.634792
-5.911695 0.000000 30.042879
-21.984680 1.587500 9.909687
24.941312 0.000000 18.962163
-7.355037 1.587500 18.518443
13.407874 -1.587500 -12.618369
-29.363968 0.000000 6.109035
-7.176504 1.587500 28.634630
6.543939 -1.587500 66.536400
18.402126 -3.175000 -2.506214
-21.817644 -3.175000 6.915693
-8.689695 1.587500 73.528613
3.714370 -3.175000 24.431453
25.281825 0.000000 -15.712384
18.876430 -1.587500 22.533152
-23.115318 -3.175000 -1.980266
17.216727 0.245457 -21.824677
2.897688 -0.240026 74.947583
8.479639 -1.587500 69.356901
32.121080 -0.846023 3.903070
-20.878248 -3.175000 -12.382814
-6.272830 -3.175000 22.894971
2.634664 0.554369 74.466627
-20.333653 -1.587500 -19.005592
-3.393464 1.587500 64.290960
-22.837832 1.587500 -9.921374
-25.244442 1.587500 -7.103735
3.481050 -3.175000 18.972228
12.801616 -1.587500 -14.943098
-5.297544 -1.587500 31.288648
-13.278265 0.000000 -12.991939
-0.675550 -1.587500 46.144931
7.725835 -1.587500 60.735861
22.080646 -1.587500 -1.392067
-19.615404 1.249256 24.963689
-18.642595 -3.175000 -10.944750
-14.443576 0.000000 -11.080350
-8.063314 -3.175000 17.578234
12.040560 -3.175000 24.943723
14.007426 0.000000 19.941644
17.687881 -1.587500 14.540448
5.009323 1.587500 73.979254
-22.916846 -1.587500 15.670958
22.178605 -3.175000 -19.571405
19.721262 -1.587500 20.071419
30.524793 -0.536729 -8.731281
-25.418673 -1.965350 20.025514
22.730440 -3.175000 -8.389747
23.299077 -1.587500 -16.606665
4.027369 1.587500 38.767594
15.448478 -3.175000 -25.773335
12.907446 0.000000 -23.362484
18.532586 -3.175000 11.155458
20.045210 -1.587500 -18.563574
2.007590 0.270978 73.753082
2.103609 -1.587500 43.267314
6.807565 1.587500 43.667064
-24.325521 -2.506100 21.339545
-16.735529 0.000000 11.051998
3.889552 0.000000 -22.899037
8.953544 1.587500 -19.791432
26.650014 -1.587500 13.470410
-20.485384 0.000000 -20.933849
6.823109 -1.587500 -20.683921
18.761039 1.587500 -24.397229
-26.589747 -3.175000 -13.370551
-2.497888 -3.175000 31.636695
-30.333410 -3.175000 8.482016
28.923493 -3.175000 -3.647471
16.475233 -0.873550 -19.975396
5.789427 -3.175000 28.915240
16.923673 0.000000 -23.295297
30.128493 -1.587500 -8.482808
15.079465 -1.587500 25.944436
16.004950 1.587500 -17.480894
-11.173988 1.163248 -17.031175
-7.777233 1.587500 -16.220383
17.713952 0.000000 6.014015
10.383127 1.587500 15.162321
12.446517 0.934291 12.314982
26.728384 -3.175000 8.253926
16.699941 -1.765300 14.582165
7.976202 -2.043333 -31.360286
29.272771 0.000000 -1.689582
-21.209339 0.000000 9.587578
1.782065 0.900303 85.685602
9.459015 -1.587500 53.676183
-24.197050 -3.175000 -9.304926
-5.820054 1.587500 24.441073
-2.719898 1.587500 64.927604
-11.219860 1.587500 -25.204767
-21.562449 1.316747 5.336868
-11.888491 -0.493093 -16.140690
3.329408 -1.587500 32.198140
24.813003 -1.587500 17.910660
-21.297636 -1.587500 -20.471017
-0.240932 1.587500 52.489527
17.409714 -0.410329 1.888285
-11.463049 0.000000 17.255044
-29.114734 -3.175000 -10.903115
27.828184 0.000000 3.360847
9.660469 0.187166 70.576676
27.724949 1.587500 -8.118010
18.506244 -1.587500 0.681631
27.583442 1.587500 -12.742367
-2.948993 1.587500 40.836797
-20.233826 -1.587500 1.659137
1.611021 1.587500 -25.360345
25.638690 -1.587500 -9.310000
-23.282855 0.000000 -6.611818
-17.163481 1.587500 -12.475488
-30.527325 1.587500 -0.396326
6.510151 -3.175000 -28.473108
-0.354044 -1.587500 30.321352
-5.504879 -3.175000 26.907065
6.720786 1.587500 34.662176
1.216162 1.587500 -30.903091
-23.356556 1.587500 4.375941
-16.835569 -1.587500 -8.538949
2.093284 -1.587500 71.227330
-1.389836 -1.587500 39.498707
4.054423 0.000000 28.430529
1.145871 1.587500 36.432518
6.691281 -1.587500 43.144103
-22.289645 1.587500 -8.245872
14.807143 -1.587500 18.511375
-26.269172 -3.175000 -4.594636
25.139529 1.587500 17.099580
31.307338 1.056384 5.270508
27.177876 -0.449629 17.561618
-11.936607 -3.175000 24.330993
25.960713 -3.175000 -4.346471
-18.541669 -3.175000 -16.278418
26.324687 -1.587500 1.804297
-3.954387 -1.587500 78.032866
-2.783443 1.587500 -21.764759
12.227667 -1.765300 20.483776
-21.524417 -1.587500 14.651304
13.149006 -0.260761 -11.566047
4.702865 -3.175000 -29.839364
13.755812 -0.867136 -16.296925
8.652010 1.587500 35.794337
3.866498 1.587500 69.765656
10.583849 1.587500 -26.218932
-3.501874 0.000000 30.695484
-6.722766 1.587500 66.674421
-7.625834 -1.587500 37.014177
-31.229210 0.000000 -0.075164
29.111907 -1.587500 -8.232324
-1.587500 0.180526 26.651536
-6.771510 -1.587500 26.228153
-19.252099 1.587500 -22.275088
-13.958676 -3.175000 13.122039
-19.594189 1.587500 4.446698
-24.777484 -3.175000 -18.248978
6.714487 -3.175000 -24.721109
11.541859 -2.274395 13.172941
28.662027 -1.587500 -9.217915
-14.114415 0.785091 -22.127642
-8.435791 -1.587500 66.578063
0.260404 1.587500 -28.530379
-7.390097 -1.587500 68.077296
11.032440 1.587500 -19.584413
4.490107 -1.587500 60.879931
23.555457 -3.175000 17.472413
-25.524444 1.587500 -15.863875
-26.513183 -3.175000 4.183845
-18.184224 -1.587500 10.545587
14.698877 1.587500 11.816526
28.862395 1.587500 8.038143
-6.187877 1.587500 32.112563
20.720336 -3.175000 -1.432183
13.764544 0.000000 17.644119
-19.794231 0.000000 23.757011
-5.152694 -1.587500 30.263136
-3.122428 -1.331006 76.637042
26.618115 0.000000 -4.613392
-24.408337 -3.175000 -6.905751
-14.015059 0.000000 -12.507337
-11.731108 1.587500 15.719442
-6.373817 -3.175000 16.584720
-13.803617 -3.175000 -10.971470
-28.925800 -2.246875 -14.504546
0.776296 -1.587500 35.790564
-7.611499 1.587500 -30.065699
19.049945 -1.587500 19.058137
-4.983884 1.587500 54.702209
11.151551 -3.175000 -16.171374
-0.775627 -1.851320 32.349821
25.117778 0.000000 -8.063846
1.472988 -1.587500 50.906323
7.728745 0.000000 -23.567501
30.510347 0.000000 -1.755763
-5.968819 -3.175000 28.131999
-13.951707 -3.175000 -28.425483
4.798764 1.587500 56.380808
-13.401679 0.808701 -28.781112
24.610376 -1.495393 20.058562
-14.644052 -1.333164 -28.854721
-19.615382 0.000000 -20.207662
-11.193448 0.000000 -21.906098
-16.376930 0.000000 -18.358084
-9.316498 -1.587500 29.923962
1.506253 1.587500 83.161445
6.502251 1.587500 -23.934566
-9.660469 1.225115 70.454605
26.352479 -3.175000 7.325693
-18.005582 1.587500 -1.665858
-15.389827 -1.587500 10.341900
0.460038 -1.587500 29.371747
-17.383729 1.587500 -8.440357
-5.125887 -1.587500 70.505603
10.420631 -1.587500 -23.451985
18.199101 0.000000 23.858653
-10.821053 0.000000 -16.675841
6.397200 -3.175000 -18.843020
-16.004831 0.000000 -26.740087
-18.728290 -1.587500 18.461945
27.957942 0.000000 15.695360
17.698866 -1.587500 -5.073000
11.619738 0.000000 -15.812376
-6.002758 -1.587500 53.271350
2.521501 1.587500 -19.934850
-3.373995 -1.587500 73.524849
-10.455034 -3.175000 -17.731264
29.738155 -1.587500 -7.647120
2.926557 -1.587500 56.682336
-9.660469 0.562411 38.346603
0.993918 1.587500 19.234687
0.638456 -3.175000 -22.478151
12.746904 -1.765300 22.912355
-6.244553 1.587500 81.645568
5.548037 -3.175000 -30.230507
32.038919 -1.881909 -4.528571
-12.733022 0.000000 -22.290508
-18.551461 -3.175000 25.413802
-8.341273 1.587500 -26.442417
11.806437 0.000000 -19.375196
4.388406 1.587500 73.069310
-27.477331 1.587500 -5.571798
23.021131 -1.587500 -1.021007
8.997565 -1.587500 72.188661
11.024456 -1.587500 -24.285043
31.217408 -3.175000 5.504807
-24.474691 1.587500 -5.948837
-11.479786 1.587500 16.968235
-24.328420 0.000000 3.139337
9.660469 0.713625 60.690683
-16.497474 0.000000 -24.734075
0.955493 0.481457 85.807037
-28.644118 -1.587500 8.240782
15.077070 1.587500 15.432884
-2.139261 -1.587500 61.672798
-5.591471 -1.587500 39.116016
-2.649374 -1.587500 68.305995
-6.853775 1.587500 63.245049
22.399532 0.000000 16.179948
0.985988 -1.587500 -19.031094
-19.691820 1.587500 11.003428
24.042925 1.587500 -0.969417
-12.581772 -3.175000 22.595468
6.777654 -3.175000 -31.633006
32.191210 -1.128231 -3.282368
1.545638 -1.358730 21.370865
18.043280 1.587500 -14.788350
18.091925 -1.587500 -9.990843
25.858033 1.587500 4.910564
-22.561085 1.587500 18.875238
20.974610 -1.587500 14.405390
7.695017 1.587500 35.811559
-18.785660 -3.175000 -17.301032
20.873061 1.513196 8.451265
-19.914225 1.587500 19.389624
14.379903 -1.633775 21.613751
-17.580534 1.587500 17.159475
-5.677209 1.587500 42.015831
-13.874412 1.479905 -16.442955
-0.058438 -3.175000 26.854906
19.527062 -1.587500 18.154271
-19.556237 0.741765 7.902175
-2.627515 -1.587500 51.004868
-8.245174 0.000000 -29.562937
27.513652 1.587500 -5.016299
-26.872680 -3.175000 11.729149
-2.491550 0.000000 -27.268383
-12.838766 -3.175000 -17.382001
-9.660469 1.479435 71.304574
17.566500 -3.175000 -18.992279
-12.608333 1.587500 -14.484238
14.131415 -3.175000 17.902696
-8.399691 -1.020391 15.365944
10.014781 -2.029797 30.769307
-16.142614 -3.175000 18.393074
1.878671 -1.587500 58.176123
1.821902 0.000000 -24.802122
20.597623 -2.837174 24.956724
-17.710575 1.587500 0.241504
-19.414098 0.000000 -4.727104
3.799102 -1.587500 -27.646912
13.603136 0.000000 18.496058
-7.348882 -1.587500 77.129996
12.023130 -1.587500 -14.107406
-9.660469 0.583060 36.758140
-16.560348 -1.587500 -25.157138
-30.667521 -3.175000 9.704955
-1.812104 -1.587500 68.577402
14.344039 -3.175000 26.233914
-15.915323 -1.587500 11.856668
-5.477951 -3.175000 -28.835737
18.705979 0.000000 8.992106
-13.607109 1.587500 13.396906
10.708628 1.587500 28.194694
-25.180634 -3.175000 7.110066
26.997802 0.000000 -7.018615
4.326417 1.587500 -21.895777
3.564368 1.587500 81.452385
-17.613439 0.000000 23.588237
-29.094492 0.000000 -13.845286
-21.561391 0.000000 22.417040
7.628250 1.587500 55.001714
-19.000787 -1.195269 6.418390
31.416352 -1.940034 -7.749382
-29.406802 -3.175000 -1.943504
-16.412345 0.000000 -25.613142
8.302493 -1.138761 -31.275643
6.415321 -1.587500 -16.751445
-3.198946 -1.587500 61.768176
4.810969 1.587500 -23.423606
-11.088889 -1.587500 22.377885
20.810473 0.000000 17.183595
-3.199660 -3.175000 22.608804
-11.229644 0.000000 24.530695
-6.558299 -1.587500 42.404220
-14.940685 1.587500 22.822408
-19.486413 1.587500 -8.747811
19.443915 1.587500 -12.218272
14.722214 -3.175000 -24.882006
3.889897 -1.587500 -29.501452
-3.823596 -1.587500 59.192738
-5.370835 -1.587500 59.238857
8.412416 1.587500 20.503519
-17.616271 0.000000 21.492860
22.294510 -1.765300 8.423112
20.976274 -1.081031 -23.832566
-26.475249 -1.207888 -18.605417
-20.549409 -3.175000 -14.100711
-2.793341 1.587500 -19.652443
2.278000 1.587500 54.418816
-31.732325 -0.930038 -6.322089
9.660469 -0.329783 48.146453
16.746218 0.000000 -15.979420
20.714355 1.587500 -10.363356
3.480978 -1.587500 73.383762
-9.380163 1.587500 58.883977
6.206087 0.000000 -19.545463
-7.190914 -0.719980 -30.924578
-3.310407 -3.175000 -32.088181
-31.877429 0.000000 3.719747
-2.754317 0.000000 25.873193
7.578481 -1.587500 68.626638
6.805254 -1.587500 44.115564
-7.356769 1.587500 65.254348
-30.391096 0.000000 7.774210
9.660469 -0.277540 74.856451
7.544097 -1.587500 81.579155
-23.745280 -1.587500 18.540204
-20.802251 0.000000 -14.574406
4.775524 1.587500 81.234023
-1.486282 1.587500 28.986543
2.413781 -1.587500 64.071063
-23.616709 -3.175000 -0.918853
-0.420992 -0.900971 73.080681
3.616560 -3.175000 -23.436147
-26.046007 -3.175000 8.904389
-8.997892 1.587500 76.211089
-14.958013 -1.162099 -9.105461
30.353198 1.587500 0.503433
12.689008 -1.587500 24.158097
-22.046598 -1.897602 23.685621
18.581333 -3.175000 12.303173
7.893780 1.587500 63.260535
13.864204 -0.988797 28.560414
26.682568 -3.175000 14.594316
0.415257 -1.587500 -18.410295
28.752983 -3.175000 3.246215
-13.854580 -3.152762 10.709746
5.410507 0.000000 24.344713
-9.654750 1.587500 73.134622
-13.944826 0.000000 -13.636392
25.239605 -1.587500 0.318505
8.924521 -3.175000 20.838108
11.655137 -1.587500 -22.675204
-24.457635 -0.506727 6.277571
-2.658938 1.587500 23.651985
-28.746805 -0.785784 14.852261
-13.091451 0.000000 -28.615649
-16.663582 -3.175000 24.633168
-18.670269 -3.175000 -14.084499
-11.148619 -1.049233 -30.376268
14.475774 1.002479 28.256603
21.091164 0.000000 -21.613105
2.622502 -1.587500 18.711651
-23.895765 0.000000 5.416022
4.530318 -1.587500 29.599369
20.533137 0.000000 -2.668385
-5.219482 -1.587500 65.844018
4.109213 -1.587500 34.245404
11.476082 0.000000 19.512767
5.503544 -1.587500 27.830006
1.246887 1.587500 -24.155324
-22.396026 0.000000 20.923836
16.023176 1.587500 -25.133624
-29.077323 -1.587500 -10.113958
2.904598 -1.587500 30.944135
20.188993 0.000000 -7.435370
4.202923 1.587500 44.643136
-12.696732 -3.175000 -19.627426
-30.333396 -1.587500 1.863197
18.268738 1.587500 -4.038465
-10.776974 -3.175000 16.409533
-13.220412 0.000000 20.248447
16.637542 0.000000 23.718231
21.469685 -1.587500 -6.629182
6.938756 0.000000 -23.184797
-12.467317 1.551435 -19.860605
9.660469 -0.803697 50.096379
-21.137441 -1.587500 3.362282
8.248613 0.578588 -15.444355
-22.153061 -1.587500 -21.766872
-5.678485 1.587500 -26.334440
-9.701811 0.000000 27.930118
-16.177889 -1.587500 14.266655
13.584000 -3.175000 23.835744
25.373272 -3.175000 5.925927
28.743836 -3.175000 -7.121614
-4.789702 -1.587500 46.562325
9.660469 -0.594722 71.149212
19.325546 -1.587500 15.814008
30.871792 -3.144422 9.691172
5.006176 1.587500 17.569704
-16.444925 -1.587500 -15.731656
-2.984327 -1.587500 65.933696
3.358882 -3.175000 -29.163996
-30.027510 1.587500 -4.754833
23.954618 0.000000 -1.896646
-29.715053 -3.175000 0.844033
-27.687869 0.000000 -9.003303
-10.766795 0.000000 23.438998
6.744789 -1.587500 -25.996747
-29.786204 -1.456536 12.642471
20.111044 0.000000 -22.091515
7.658472 -3.175000 -24.086959
10.876206 0.456011 13.727557
28.599661 -3.175000 1.142036
27.344889 1.587500 -7.132238
25.210134 -1.587500 -1.796427
-23.622058 1.587500 14.659140
2.304950 -1.587500 51.318935
-14.110501 -0.182002 10.369638
3.962207 -1.587500 71.084941
-4.572640 -0.923326 32.034545
27.424566 1.587500 13.489974
30.246140 1.587500 -3.179000
-1.227767 0.363705 27.641172
1.762205 1.587500 45.871888
6.826524 -1.587500 46.286764
-12.547548 -1.587500 22.475894
-1.345579 -1.587500 30.707431
-22.164663 0.000000 -7.212033
9.038252 -3.175000 23.916642
-18.576918 0.000000 -25.046364
21.403349 0.000000 4.730731
-20.078481 0.000000 -11.956243
26.221492 1.587500 2.165554
-32.328323 -0.517298 -1.393462
-27.315135 -1.587500 13.312287
-0.110977 -3.175000 -30.023917
31.693623 0.595422 1.855147
10.239655 -1.587500 -21.254208
9.660469 -0.830371 54.221813
20.664389 -1.765300 12.538134
9.178737 1.587500 24.011654
-8.834889 -3.175000 20.329235
26.205442 1.587500 -14.874990
-17.150709 1.587500 -17.016955
23.660040 1.587500 -9.709460
17.777774 -0.033284 27.038063
4.999147 1.587500 19.554210
-14.937660 0.000000 -12.880753
-29.041028 1.587500 -11.860508
3.036906 1.587500 73.572179
22.336796 -0.442343 -0.964280
15.909320 -1.267132 -19.196484
-4.036272 -1.587500 40.309004
22.163323 -1.587500 -17.981660
-8.850425 0.000000 28.408623
11.354752 -1.765300 20.918783
5.391429 -1.587500 77.329413
10.881243 -1.765300 23.068147
-15.477135 -1.517420 8.194465
-9.202603 0.000000 -15.640419
5.796702 -1.587500 35.693540
-0.146299 0.000000 28.033448
-17.011530 -0.778984 -26.804642
-25.159073 0.000000 13.224361
14.430869 1.587500 16.668710
6.076154 -3.175000 21.048924
-1.365234 -1.587500 28.269268
-17.597156 0.000000 -16.196978
-6.953907 1.587500 35.552839
-18.682805 0.000000 20.679539
9.687053 1.013857 14.586762
-28.540543 0.000000 -5.982010
-20.651647 1.587500 4.588221
9.528290 -1.587500 57.668642
-18.913453 -3.175000 -25.737493
-27.934165 1.587500 7.896912
-9.953651 0.000000 18.752523
-17.026654 -3.175000 6.134580
22.952976 -1.587500 -18.669518
10.351430 -3.175000 -26.005024
-31.320017 0.000000 7.347879
-15.211945 1.587500 -26.755744
-27.934171 0.000000 2.305252
20.364063 -1.587500 -5.766081
2.609130 -1.587500 -25.020413
2.958301 0.000000 -20.448891
5.715977 1.587500 54.657950
20.519156 0.000000 10.984301
8.440305 -1.587500 25.027143
5.377483 -1.456623 16.665148
14.050810 -3.175000 22.502329
-15.925601 1.587500 24.424729
-23.407818 0.000000 2.899974
6.785890 1.587500 -30.775880
-5.354103 -1.587500 43.456874
29.311274 1.587500 8.978904
-0.712923 1.587500 53.998089
10.067929 0.000000 16.188760
13.176821 0.000000 -27.437072
15.016142 -3.175000 -18.821659
-20.524942 -1.587500 -16.358628
3.950438 -1.587500 61.812815
5.434162 -1.587500 20.822066
-9.305098 0.698714 -14.830642
-7.266619 0.469266 15.933188
-24.357519 -0.157263 -21.300015
3.880981 1.587500 17.083045
-20.710813 0.000000 -12.968129
-10.567446 -1.587500 -27.198460
3.919951 1.587500 70.811507
-1.232695 -1.587500 37.386756
22.181274 0.000000 19.782296
-17.685551 -3.175000 -9.791169
-20.881736 -1.587500 23.322380
-16.882574 0.000000 10.157769
15.749008 -1.765300 17.083703
30.366350 1.587500 4.236174
16.308165 -3.175000 11.546653
12.020264 1.587500 21.349794
3.889415 -1.587500 80.027395
2.682922 -3.175000 24.416366
19.017579 1.258130 7.116086
-25.480647 0.000000 19.903407
17.019684 -3.175000 -25.628510
-15.013940 -0.355252 -17.964098
16.498086 -3.175000 20.286865
-0.839983 -3.175000 -31.846096
-11.098705 -1.587500 26.357614
27.456592 -0.824534 -15.938012
-14.810882 -3.175000 15.506023
-11.062679 1.587500 -18.889511
-17.218105 -3.175000 -5.049554
-22.075395 -3.175000 4.643784
-22.113617 1.587500 20.941718
24.701636 0.000000 12.375458
3.767823 0.000000 -25.109218
18.362806 -1.587500 -17.490598
-2.620908 -3.175000 -21.851050
5.558105 -3.175000 31.860293
-30.277354 1.587500 -6.468924
3.734620 1.587500 35.153853
-4.619364 -1.587500 28.055474
8.834063 -3.175000 17.913456
-4.536373 -1.587500 83.608801
-4.901442 0.000000 27.359403
-20.265117 0.657125 -24.440872
-19.644661 -3.175000 -10.391163
23.971263 -3.175000 6.515842
-20.664094 -3.175000 -5.529177
7.932139 -1.587500 66.956396
-18.357922 -3.175000 -0.916160
9.660469 1.563254 60.881719
7.084548 1.587500 -17.078678
-27.200735 -0.840321 17.523646
-10.620122 1.587500 14.327234
-14.650743 1.289402 -22.745458
-20.150252 1.587500 -22.436938
-2.286407 -1.371896 -32.276507
-9.072339 0.000000 18.101024
-7.326987 1.587500 40.063286
-20.309522 -1.587500 -20.700519
-22.661646 -1.543921 22.236070
18.918627 0.000000 6.518922
-5.406801 1.587500 66.524826
12.706196 -3.175000 12.095026
-10.494266 1.587500 16.309695
-7.853226 -3.175000 -28.663892
-29.006104 -3.175000 12.821840
-31.446279 -0.999221 4.364029
-26.258485 -2.295505 -18.906275
13.481766 1.587500 -13.732872
-2.952710 -1.587500 30.585808
-1.099154 -1.587500 47.205789
14.631245 1.574335 -9.620672
6.610222 1.587500 29.659535
-6.161062 1.587500 -30.620691
1.172694 -1.587500 -23.097129
18.091907 0.000000 -12.828897
23.149183 1.587500 -14.966317
7.248017 1.587500 17.599279
-22.933724 -3.175000 10.281540
-9.534615 -1.587500 -20.903057
9.236613 -1.587500 63.663931
0.125877 -1.587500 34.562143
-26.869127 0.000000 -14.547342
2.888672 -1.587500 28.612593
23.244657 0.000000 13.466941
20.255361 -1.587500 -23.532894
-27.429229 0.000000 13.806888
-8.350500 1.587500 59.251153
-25.732874 0.000000 -15.599116
8.159214 -0.854357 81.355144
21.951808 -3.175000 11.928069
13.694421 -1.587500 -25.336225
-26.760979 -1.587500 -5.398911
5.714831 1.587500 34.724591
19.821835 1.587500 15.888213
15.355086 0.000000 23.601535
-4.713248 0.000000 28.579696
-4.633244 0.000000 23.406168
-7.897355 1.587500 72.954064
-8.546833 1.587500 42.691103
29.334029 0.358635 -12.143454
19.870238 -3.175000 2.672471
11.558414 -3.175000 -28.499835
-9.660469 -1.568468 48.247698
-17.066728 -0.327833 -3.927565
-5.535498 -0.780536 -31.262644
21.999552 0.000000 12.073617
-21.735500 -1.076311 23.971954
9.451702 1.587500 34.022937
-19.662810 0.156834 24.925282
13.601864 1.587500 19.924355
-19.357107 1.587500 -5.607862
21.494076 -1.587500 -13.904419
-30.408587 -0.030287 -11.058018
-30.622872 -0.927951 10.449978
1.343761 -1.587500 34.836453
-26.647802 0.000000 6.227854
4.690361 1.587500 40.291617
14.889765 -3.175000 15.427784
-19.549618 -1.587500 0.766300
-25.755262 1.587500 -10.168590
-11.655603 -3.175000 -13.097936
20.779354 -1.765300 8.255642
-20.313361 1.587500 10.139869
-24.734318 -3.175000 -0.649414
-6.233143 -0.570239 83.577224
1.707745 -3.175000 27.112296
14.994400 -3.150252 9.040493
28.082978 -1.587500 4.422534
4.378637 -1.587500 41.219363
-2.545726 1.587500 20.471189
11.225600 1.587500 -26.928913
11.849602 -3.175000 13.012490
28.666000 1.587500 1.366407
5.915409 0.000000 -17.348891
-31.187886 -1.587500 2.726758
-15.585624 -0.553361 -18.750954
20.871764 1.587500 -15.505184
-6.653470 -1.587500 21.726934
13.409745 0.000000 20.703639
-1.051487 1.587500 -22.707444
8.851562 1.587500 42.490573
20.181702 -3.175000 21.525824
3.420033 -1.587500 -24.644651
6.436245 0.000000 21.024047
23.543148 -1.587500 14.158259
-18.779941 -1.587500 -22.402499
-31.576684 1.587500 2.838645
14.983407 -0.945480 -27.991555
-7.770579 -1.587500 20.113018
-13.971588 -1.587500 -26.652778
-21.376957 1.587500 -23.049562
-22.290295 1.587500 12.496802
22.844671 0.000000 7.965317
-26.556709 -3.175000 -18.352088
-8.618730 -1.587500 72.247589
-16.997281 -1.587500 -6.834365
-6.689944 1.587500 -24.268656
-17.848411 0.000000 24.449204
22.698077 -1.587500 22.097322
-16.389789 -3.175000 -24.242350
-21.092076 0.000000 -5.630633
-5.635057 1.587500 67.347736
-18.378377 -3.175000 -7.065845
16.201416 -3.175000 -17.705735
22.327880 1.587500 -14.526439
11.597104 0.000000 -20.738611
-4.288403 1.587500 25.275581
-11.577304 -3.175000 -25.504652
-16.411433 0.000000 -13.635775
-24.690024 1.587500 15.396860
6.756186 0.828964 16.156741
26.153261 -1.587500 4.209813
-31.487057 -3.175000 -2.106391
-16.896536 1.587500 -19.098837
-3.649664 0.000000 -29.749604
-8.235935 -1.587500 -20.274830
-0.056976 -1.587500 31.474672
-19.970090 -3.175000 11.477472
24.192183 -3.175000 -12.088088
2.800859 1.587500 60.733159
27.302814 -1.587500 1.249317
-21.766079 0.000000 13.189201
-2.721500 -1.587500 80.232893
0.834157 1.587500 28.502255
16.846739 1.587500 11.996673
17.551848 1.587500 -10.200529
-5.515034 -3.175000 -18.553249
0.509109 0.000000 -26.234743
23.156240 1.587500 -0.525332
-5.965841 1.587500 33.987215
-26.825091 -3.175000 -1.575633
-27.479823 0.000000 8.040227
-13.868242 1.587500 12.251555
-21.745398 -0.045789 23.959886
-24.612781 0.000000 15.738461
4.161928 -3.064243 32.090212
-23.068560 0.000000 0.953498
-6.283020 0.000000 30.926390
-15.399057 0.000000 -8.354518
24.166706 1.587500 14.169278
-21.795194 -3.175000 19.823281
-1.731953 1.587500 23.628981
-31.056288 0.991540 -6.590199
-26.372903 0.000000 -9.441244
-2.118329 1.587500 81.147098
17.450101 -1.242539 1.465149
-26.172814 -0.793987 9.588701
17.803308 0.000000 -17.956042
-1.518223 -3.175000 23.074694
21.364216 -3.175000 10.844340
-20.801859 1.587500 9.051161
16.615990 1.587500 -26.657518
19.901009 0.000000 -21.148329
-28.381080 -1.587500 4.365661
-17.664752 -3.175000 8.492808
9.660469 -1.479334 48.431863
-6.914830 -3.175000 -20.577593
-19.476038 1.587500 -24.256673
24.033980 1.587500 -13.955202
5.560654 1.587500 69.334856
-3.341276 -1.587500 64.862432
-2.859278 1.587500 56.739010
17.171795 -3.175000 -17.183059
0.052018 1.587500 47.066479
-23.884421 -0.851224 -20.914461
-23.022705 -1.587500 -19.885989
-17.447994 -2.050566 -27.251662
2.889853 -1.587500 43.933315
-17.167200 -3.175000 -27.160606
19.801729 -3.175000 -2.218032
4.112465 -3.175000 17.107398
22.232233 0.000000 -4.948606
11.967543 0.000000 -17.146355
-9.593491 1.587500 35.168134
12.071618 -3.175000 19.913358
-30.717502 0.000000 -3.130733
-12.928233 -1.514427 29.662649
24.029160 -1.587500 -0.885707
-18.501745 1.587500 9.101817
22.377257 0.000000 2.999494
7.350889 0.000000 -18.091550
8.169604 1.587500 23.042761
-18.352298 1.587500 0.890041
13.121679 0.000000 11.927074
-12.343912 -1.587500 -24.441042
26.552011 1.587500 -15.799783
-28.990085 -3.175000 5.713762
24.720874 0.000000 -3.829427
-13.140127 1.587500 18.485113
7.508982 -1.587500 30.335497
10.156645 0.000000 -16.996003
8.155587 -1.587500 44.151822
18.863120 -3.175000 10.011549
-8.961741 -1.587500 77.195016
-13.826381 -0.790772 -10.746296
0.584598 -1.587500 43.993293
-13.307097 1.587500 -27.869288
16.610422 -3.175000 -23.215168
8.950124 1.587500 -23.281239
0.055801 1.587500 19.609266
-17.151239 0.000000 -26.321452
24.694672 0.000000 -20.890324
25.034625 0.000000 -6.895633
-25.409000 -3.175000 19.827665
-14.297473 1.587500 21.551932
-10.152817 0.000000 -26.816090
-6.538947 -1.587500 49.695553
-30.421365 0.507984 -9.081348
13.852306 1.587500 -26.992683
-17.488149 -0.793354 0.937474
-12.904859 1.587500 -15.719361
3.097088 1.587500 20.080606
-18.003298 0.000000 -5.907323
-21.665331 0.000000 -16.242901
9.070244 -1.587500 35.201446
7.439435 -3.175000 -25.482864
-2.978333 0.000000 -23.776067
18.573406 0.000000 0.624544
-1.674047 1.587500 37.199821
-30.635368 1.587500 -2.486097
8.368733 0.000000 18.094426
-3.831895 -1.587500 -22.204620
16.736775 -1.359109 -5.152441
3.500401 -1.587500 -26.659177
22.054477 -3.175000 3.737596
26.493724 -3.175000 10.217445
-31.312840 0.000000 -2.222432
11.099751 -1.587500 -29.378658
9.655478 -0.545037 76.407579
13.661298 0.000000 21.667713
8.873547 1.587500 44.766001
19.437766 -3.175000 -11.819823
-0.042034 1.587500 65.110680
-13.505428 -1.587500 23.325468
7.193700 -1.587500 71.530895
9.660469 -0.188315 31.823605
25.116557 -1.587500 12.252630
16.581759 -1.587500 6.517397
-5.014090 -1.587500 20.938876
-6.050200 1.587500 48.672721
-20.187144 -3.175000 5.343429
4.493865 1.587500 67.221928
-5.146527 1.587500 44.516087
21.594472 0.000000 -8.881453
-24.796620 0.367956 9.726106
-24.253338 -1.587500 -4.286791
23.563469 -3.025115 -22.175602
-21.601365 0.000000 -13.973287
-6.145691 1.587500 17.710497
14.070636 -1.587500 19.559088
10.595571 0.000000 15.312881
-3.746399 1.587500 22.873770
2.988646 -1.587500 59.079158
-4.540517 -1.587500 20.117194
25.846024 0.000000 -11.974124
19.627279 -3.175000 -15.735138
-2.242189 0.000000 -30.346152
-8.096560 -1.587500 24.232967
-22.590118 -1.587500 20.430545
-4.342235 1.587500 -23.884568
-16.263403 -3.175000 13.771511
2.953714 1.464517 -17.262804
13.651937 1.587500 27.991382
30.305865 0.000000 -7.029983
9.922358 -3.175000 20.122242
-19.753831 -3.175000 3.004218
-2.435135 1.587500 68.849366
-5.245234 -1.587500 -23.531575
-31.578794 -0.121389 -7.056377
-30.932330 1.587500 1.632174
-25.234848 -1.587500 -5.612366
2.745951 -1.587500 -19.364617
21.228560 1.587500 -12.961020
9.833129 1.587500 -22.828628
2.990491 0.000000 -24.633516
-12.922143 0.000000 27.478246
-15.852910 0.000000 -9.252578
4.737112 -2.408472 16.855913
-30.649024 -3.175000 -0.266896
-18.757329 0.000000 23.661607
-9.660469 -0.540337 36.185952
-7.880607 -0.866898 81.779493
-27.131523 -3.175000 -9.246948
17.952146 -3.175000 4.786996
1.526013 1.159804 27.013293
10.013103 1.587500 -29.109776
-15.743531 -3.175000 26.423992
-28.292303 -1.587500 -1.459460
-21.158053 -3.175000 3.771882
-7.594117 1.587500 71.793870
1.758577 -3.175000 29.195006
-18.066204 0.000000 25.530965
-7.616031 -1.587500 41.534630
1.122941 -1.587500 71.160165
9.296912 -1.587500 21.105714
17.085882 1.587500 -12.094005
-13.197364 1.587500 28.791142
-13.640219 0.000000 -22.817358
-28.852022 1.587500 -10.989610
8.320799 -0.508864 -30.639153
-5.094244 1.587500 82.459536
-17.114602 1.208791 26.740518
9.660469 1.442678 56.416697
18.087537 1.587500 4.510149
-5.860939 1.587500 38.124300
17.459224 0.000000 -8.232656
-10.327739 1.587500 -21.544080
15.258540 0.000000 -25.497613
11.221920 -1.587500 14.377206
-13.360625 -3.175000 -20.643630
2.439891 1.587500 68.348875
6.958615 1.587500 33.610796
-12.332623 1.587500 26.954452
8.344908 1.587500 38.700997
6.984191 -3.175000 21.771306
-0.743993 1.587500 39.811785
-6.512641 -1.587500 50.797510
-2.738231 -1.587500 27.936263
3.403361 1.587500 60.092671
-17.951455 -3.175000 22.597807
-6.245542 0.000000 -27.120604
-2.907755 -3.175000 -30.936493
19.841937 -1.587500 -9.544695
1.980261 1.587500 47.225947
-2.784424 -1.587500 60.461386
-2.083658 0.000000 -21.216831
-0.842747 1.587500 65.361404
-18.815642 -3.175000 -5.511005
1.725135 -3.175000 30.187541
-17.191362 0.847355 -3.324437
21.797721 1.191870 23.082913
9.266287 -1.587500 54.831534
-11.531560 -1.336670 -16.438475
10.131731 -2.108557 -30.730751
-19.292035 0.000000 -2.317930
-6.154529 -3.175000 19.227547
18.512726 0.000000 19.206093
-6.652771 1.587500 55.091728
15.138548 -3.175000 -17.803259
-19.098040 1.587500 -11.796367
-2.794108 1.587500 74.337747
-6.817256 1.587500 43.029268
-18.371862 1.587500 15.610627
-17.474494 1.587500 21.033396
-25.207745 0.000000 18.092076
6.189547 1.587500 -21.064327
7.309575 -3.175000 -30.349331
-26.111803 -2.041741 19.109441
16.098898 0.000000 -11.792134
-2.331356 1.220749 -31.662811
-5.813914 0.000000 31.816803
8.436781 0.000000 -25.538855
15.648747 1.587500 -27.190860
20.141126 0.000000 0.744595
-16.337253 -1.892291 -6.306112
6.758696 0.084701 -16.153270
-6.040086 1.587500 27.118370
8.641937 1.587500 -26.086708
-4.391584 -3.175000 31.931083
-8.534760 -1.587500 75.079846
10.054168 -3.175000 -28.159594
-16.613856 -1.587500 11.134947
-2.878177 -1.587500 49.490420
-18.072328 -3.175000 7.414319
-16.737536 1.587500 -17.966693
-21.279878 1.587500 11.459477
4.580670 -1.587500 26.443288
6.100283 1.587500 -28.608853
10.971746 -1.587500 23.951160
-8.204822 -3.175000 -19.541480
-13.982448 0.000000 -14.927867
2.390133 -1.587500 66.282201
25.286323 1.003184 9.812965
13.115013 0.000000 -25.622518
26.405054 -1.587500 -5.821170
-13.039744 -0.848634 -11.687169
20.847704 1.587500 -18.741063
-5.042314 1.587500 41.057526
-3.977063 -1.587500 60.719036
16.226294 1.587500 14.867915
-5.403923 -1.587500 -26.434741
19.594085 1.587500 17.978275
-16.831630 -3.175000 -20.314368
3.100635 -3.175000 25.322223
-26.392588 -1.205636 18.721954
-5.547029 1.587500 46.382442
-20.741902 0.000000 21.648109
6.688079 1.587500 16.726782
24.522305 1.587500 3.126223
20.322997 1.587500 -22.416271
-18.066494 -3.175000 18.607353
10.457981 -1.587500 18.004727
31.730650 1.106380 1.084098
13.850103 -3.175000 -24.479089
10.607369 -1.587500 29.472832
-30.352950 0.000000 5.733424
11.055122 -1.038417 13.578041
-23.208341 0.000000 10.947471
2.757187 1.587500 43.352361
7.382577 -3.175000 27.045860
11.981759 1.587500 -21.535505
29.124558 -3.175000 8.026014
-25.444585 1.587500 4.523737
-14.680806 1.587500 17.531225
-20.729443 1.587500 -18.080092
0.091150 -1.587500 79.727814
12.194454 -1.587500 -19.698435
5.500968 1.587500 27.162236
21.531164 -1.587500 6.146136
19.474766 -3.175000 -3.521367
-13.114958 1.176963 -11.603914
17.463890 -1.765300 10.641946
-12.963609 0.000000 -15.506686
14.358736 -1.587500 -16.548812
5.325748 0.000000 -24.806259
-28.167066 0.000000 -1.580672
-3.174065 1.587500 62.262780
17.512849 1.246234 -0.164931
16.640490 -1.950407 5.453888
-1.652042 -1.587500 33.524973
17.583311 -1.587500 -18.021344
-4.167921 -1.587500 66.463153
25.176417 -1.587500 3.186142
-5.261079 0.000000 -18.781873
11.948249 -3.175000 -23.714682
17.344595 -1.587500 15.513756
26.770611 -1.089315 17.066978
21.009441 -3.175000 -15.817312
-17.526558 -3.175000 10.704390
2.732183 -1.587500 68.516853
25.368668 -3.175000 -7.700174
7.070604 1.587500 19.962893
17.946606 1.587500 20.492271
13.477113 0.680443 11.182016
-14.234399 0.483100 -10.201922
-13.383854 1.587500 22.210453
22.807663 -1.587500 18.334398
9.660469 1.286477 44.156516
15.095536 0.000000 20.717077
-23.417633 -1.587500 -16.450070
9.570516 -1.587500 76.160587
-21.552811 -3.175000 -20.962643
-31.494251 0.020992 -4.002005
13.149618 1.587500 14.721749
-8.297643 1.587500 41.513074
-18.964043 -1.587500 11.074654
21.480844 0.000000 -13.204787
-6.085089 1.587500 82.822932
16.253018 0.000000 -26.818145
12.351701 0.000000 18.761636
-24.702676 1.587500 -5.018961
-24.410073 -3.175000 -3.055839
7.672298 -1.587500 45.466439
-10.746612 0.000000 29.194614
-24.722610 0.000000 -2.951846
-16.112546 -1.587500 7.322145
-7.589048 -0.848084 -15.778353
-30.182368 -1.482593 -9.849091
24.469556 1.587500 -15.007406
-8.603593 1.587500 44.711023
-8.652978 -3.175000 24.533184
-23.216679 0.000000 -5.510164
-5.401635 -1.587500 38.241444
4.283997 -1.587500 65.149636
-24.336701 -3.175000 -4.118359
-24.328954 -3.175000 7.838076
26.913853 -3.175000 6.674341
6.042630 1.587500 73.890051
-16.566399 -1.587500 -24.238485
-5.176143 -1.587500 63.760857
30.864611 -3.175000 -4.404769
-32.331325 -3.165569 -1.274675
1.097659 0.000000 29.700916
1.587500 -1.252095 26.041445
17.586295 -1.587500 -16.927967
17.655214 -1.587500 24.558170
-1.082635 -1.587500 66.474922
23.920224 1.587500 16.295286
-1.549206 1.587500 32.593161
-13.878487 1.587500 -25.643763
30.126820 -1.243651 11.809174
-9.495329 -1.587500 -19.756430
4.255961 -3.175000 -28.899488
-1.444104 1.587500 43.748858
7.437853 0.000000 18.483743
30.755635 -1.065977 10.056967
-15.285272 0.000000 16.796614
-19.983834 1.587500 -0.767224
-3.935951 1.587500 -24.662181
-20.471565 -3.175000 -8.303334
6.564907 1.587500 65.631546
-7.393748 -3.175000 22.935573
-6.335240 1.587500 -25.612447
-1.758119 1.587500 44.706815
28.642077 1.587500 4.737313
-19.408579 0.000000 20.012139
-14.679013 -3.175000 16.841222
4.425996 -1.587500 74.976528
-8.371264 -1.587500 45.720507
-1.474680 -1.587500 18.549224
-8.750493 -0.568530 -31.151968
-25.044961 1.587500 -10.698753
12.848560 -1.809351 11.901146
14.377333 1.503598 -22.489518
-20.624004 1.587500 14.509924
-9.615347 1.587500 60.476762
-16.612312 -1.587500 -10.323372
9.062110 -1.587500 50.251731
3.371626 0.000000 25.780856
-26.092291 0.000000 16.510152
-24.461148 -1.587500 5.846930
4.452855 1.587500 27.390380
27.617296 -3.175000 9.813231
1.647381 -1.587500 28.086455
2.445468 0.000000 -21.839081
21.020315 -3.175000 -9.692521
20.221099 -1.587500 11.557392
5.326685 -1.587500 36.736929
26.614855 0.000000 -15.926384
-15.250642 0.599047 -18.289892
-6.373707 -1.587500 -27.011234
-2.137451 -1.587500 83.285460
24.650643 -3.175000 14.757214
23.699253 -1.587500 -14.955832
-24.767718 -3.175000 14.691435
-9.660469 -0.425609 46.581270
-0.693312 0.000000 18.613106
7.481220 -2.194255 15.833022
23.333132 1.587500 -3.347766
15.420436 0.000000 15.999700
17.155185 -1.026752 -22.093528
-0.427055 -1.587500 65.764829
-28.815896 -1.503769 -13.329767
19.260356 0.000000 19.816855
-6.646624 -1.587500 54.066313
12.703563 -2.940265 -12.051979
15.470781 -1.587500 11.731347
-5.158159 -1.587500 64.799580
7.421395 -1.587500 50.599587
26.402818 -1.587500 2.980739
-16.047631 -1.587500 25.560731
-6.622892 -3.175000 27.468156
8.441780 1.587500 54.357711
-2.759965 1.587500 53.282362
-19.243586 0.000000 -11.522088
19.023615 -1.587500 -21.704368
-11.871624 -1.587500 -14.182936
-9.660469 -0.588977 52.928805
-9.660469 -1.421606 62.906760
26.247867 -3.175000 -7.488918
20.126407 -3.175000 11.248181
-21.854787 -1.587500 -10.114860
-31.633712 0.652975 2.683900
19.977353 -1.587500 -24.486267
-21.662520 0.000000 14.110086
12.715641 0.000000 15.319552
13.327920 -3.175000 24.661406
-17.612195 0.230536 26.415112
-9.339579 1.587500 43.251569
8.002336 -1.956906 31.352338
-4.686831 1.587500 24.432380
-6.316216 -3.175000 -19.501353
-29.692355 -3.175000 -4.605841
29.862495 -3.175000 -9.192321
-16.778852 0.000000 22.442662
-8.011634 1.587500 61.928212
12.752691 -1.765300 18.683962
-19.151188 0.000000 17.229264
-27.382342 -3.175000 13.496660
-24.005580 -1.587500 -10.647439
-0.105078 1.587500 66.724013
-0.763663 -1.587500 -31.480691
1.324555 -3.175000 21.846240
-11.971709 0.000000 -28.046267
-17.457915 -3.175000 -11.050738
4.382747 -1.587500 17.917801
27.437205 1.587500 -3.664235
1.063860 -3.175000 -28.547407
-11.397490 0.000000 -14.186889
-0.747645 1.587500 67.610919
13.502452 -0.919130 -28.733470
-28.329456 -1.587500 0.062305
-20.606584 -2.218202 24.947118
-3.814059 1.587500 30.471229
6.686495 -3.078333 -16.183531
-10.757872 -1.587500 -17.674327
19.454421 -3.175000 -23.018433
11.308230 -0.779752 -16.733661
9.660469 1.425477 70.856960
-0.174687 -1.587500 -30.488375
-16.983418 0.000000 -9.629323
-7.695310 0.000000 -23.321646
-10.433039 -3.175000 -28.274910
7.189613 0.000000 -19.949503
10.931960 -2.437146 -30.455310
6.887778 0.000000 16.279492
-28.480534 -1.587500 -8.073096
1.089686 -1.347494 79.163093
21.135863 0.000000 -15.349958
17.243809 -3.175000 23.567034
28.225099 -1.587500 -11.160013
-23.374475 0.000000 -1.483474
22.172427 -3.175000 -16.321344
-1.475100 -0.433536 27.236658
20.755786 0.000000 9.803237
19.267161 1.587500 14.614312
-28.439983 1.587500 6.432867
11.339001 0.000000 26.835865
21.687193 1.587500 -18.213501
-7.801500 -0.472101 15.677583
-25.793084 0.000000 7.550363
-12.827315 0.000000 -12.113276
-27.620440 0.000000 3.259095
-13.598201 -1.587500 25.307614
-21.934648 -3.175000 -11.809625
29.114746 0.000000 -6.465943
0.366325 1.587500 61.887145
-25.831531 -3.175000 7.979007
9.042024 -3.175000 -19.121090
-6.664563 -1.587500 74.346741
-7.141690 -1.587500 61.967195
-1.152480 -1.587500 -25.799734
-16.855623 0.619015 4.747285
14.110978 -1.587500 -28.115336
-10.685092 0.000000 20.914971
10.743122 -3.175000 -15.266126
-9.609141 -1.587500 18.766891
-0.722181 -1.587500 80.349820
30.729909 0.000000 -3.259612
14.696467 -1.587500 15.151436
5.933585 -1.587500 44.415204
-8.336557 1.587500 64.789438
-1.953717 1.587500 49.318527
-16.544925 1.587500 16.448401
-6.926516 0.000000 16.779687
-20.767395 0.000000 -8.552485
23.460979 -3.175000 -3.459634
-9.660469 -0.461651 33.450726
-23.306234 1.587500 -5.133423
-26.357179 -1.587500 4.134302
-23.387899 -1.587500 3.037354
-9.039846 -1.587500 -25.899910
-9.390957 0.000000 -16.531181
-13.149690 -3.175000 20.646413
-3.328584 -1.913619 32.186831
8.246082 0.423463 81.222466
21.574402 -3.175000 2.375531
-15.213685 -3.175000 -20.270949
9.035546 0.000000 20.120896
-13.872914 1.587500 -12.437822
-12.028432 1.073830 12.726914
-23.918796 -1.587500 16.093844
-6.489405 -1.727375 16.264919
-11.453030 0.000000 26.650704
-4.765510 1.587500 -27.456393
14.260114 0.000000 -27.972811
21.426429 1.587500 22.261758
-6.931697 -1.587500 62.942483
9.660469 0.063259 50.665250
7.800709 -1.587500 22.254100
6.250900 -1.587500 31.035416
13.347063 1.587500 26.140057
20.351997 -0.002180 -25.154039
-1.462205 0.000000 28.451504
24.222737 -1.765300 0.060022
29.963802 -3.175000 0.561458
5.660695 -1.587500 55.816767
11.337236 1.587500 19.151805
-21.353196 -1.587500 -3.719270
16.166902 -3.175000 19.127879
2.693244 1.587500 70.064429
-2.488627 1.587500 -22.874653
-16.268464 0.000000 -14.539325
-15.937188 -3.175000 -21.990498
6.288278 -1.587500 37.699853
-16.049532 -1.587500 13.087920
-0.773485 -2.404389 -32.347892
-23.244303 -3.175000 -13.419102
-4.161138 0.000000 -22.505574
14.650997 -3.175000 -13.706736
19.563793 -1.587500 23.328861
-5.952535 1.587500 51.044053
-31.230393 -1.452802 -8.469509
-17.787515 -3.175000 15.230600
-0.259890 -1.587500 84.575535
-10.376819 -3.175000 -25.612997
6.422522 -0.349440 31.713632
19.250092 -1.587500 -6.911826
-2.520427 0.000000 19.789707
9.660469 0.998693 36.807094
-20.947529 -0.797170 -23.858327
10.247595 -1.041070 -14.199856
7.650848 -1.587500 -17.233261
24.755070 -1.587500 1.161061
10.993655 -1.587500 -25.455520
-20.004473 1.587500 12.596149
-15.798444 -2.409013 7.546715
-32.009253 -3.175000 1.879784
-12.869758 -1.587500 -12.493862
-5.158406 -1.587500 62.475352
16.056112 1.587500 -12.571263
-17.968075 0.000000 9.392385
-8.416957 -3.175000 -24.599756
-25.511069 -1.587500 15.546087
0.715945 -1.587500 56.461573
-7.571175 1.587500 79.995073
-20.874125 -3.175000 21.971088
0.971854 -1.587500 85.197818
9.342109 0.000000 -20.653294
-8.557633 0.000000 -26.334010
-22.455672 -3.175000 7.909574
-3.436076 -2.717368 -17.170814
2.807499 -1.587500 48.899562
-10.623778 -2.987401 -13.921722
-19.528768 1.587500 -3.132029
18.723631 -1.765300 12.651296
-31.068129 1.587500 5.893765
-19.827740 -3.175000 1.907068
-9.150356 -3.175000 16.427026
0.949824 1.587500 -22.647700
2.842295 -1.587500 -21.614787
3.242202 0.000000 -23.654946
-3.227644 -1.587500 51.769242
-9.660469 1.553069 55.492382
6.965827 1.587500 62.144595
-10.053256 -3.175000 -30.112961
12.515615 0.000000 20.038092
23.179946 0.000000 -4.544915
-26.568374 -3.175000 9.991467
-20.047811 -1.587500 11.567359
-15.511228 -3.175000 -25.826027
-1.104966 1.587500 57.740905
-7.150877 -3.175000 20.654515
-5.790662 -0.834915 16.526422
0.559481 1.587500 30.988532
-6.188441 -3.175000 -23.999048
4.873144 1.587500 62.726905
18.439248 -1.587500 6.879031
19.704814 -1.587500 12.704951
28.334802 1.587500 -4.417362
2.073671 -3.175000 19.403795
-12.054411 0.000000 25.151146
9.456295 -1.587500 -23.111021
1.693126 -3.175000 25.116440
-31.510714 1.572219 3.866115
12.234823 1.587500 15.302785
-2.060431 1.587500 -30.077454
-19.612799 -0.024146 -25.734626
1.865681 0.751167 -17.411682
17.247043 -2.722793 3.033106
-24.835544 -2.979834 20.740876
-5.930327 1.587500 78.510003
-3.756074 -1.587500 -30.582297
-16.563725 -3.175000 -17.710163
-26.014578 -1.587500 0.715389
31.611328 1.036996 -2.941137
-16.989253 -1.587500 13.690753
-24.361287 0.000000 -15.846652
20.725175 -0.659507 24.049048
2.563196 1.587500 -21.297026
26.149606 0.655491 9.591694
-26.272404 -3.175000 6.763250
-23.831883 -3.175000 9.993410
20.675174 1.587500 17.811019
16.036400 1.587500 -7.058379
19.339400 0.000000 -16.581862
-22.639356 -1.587500 5.647535
-17.177822 1.587500 -15.296674
0.419595 1.587500 69.969842
-29.569163 -3.175000 -2.958989
-23.946402 -3.175000 -18.824875
7.914560 -1.587500 54.699215
-15.048711 -1.587500 17.220533
9.204620 -3.175000 -23.851764
4.803452 -1.587500 -18.797763
2.047641 0.000000 -20.296336
-20.899503 1.587500 -3.806224
19.771234 1.587500 -19.658959
25.045484 1.587500 -10.355374
4.928864 0.000000 -28.973063
-17.921376 1.587500 -20.336449
-30.321731 -1.587500 8.606117
22.459664 -3.175000 17.332147
12.131750 0.000000 -26.778348
23.804187 1.587500 17.473257
-14.649264 1.587500 19.341137
30.936125 -1.587500 6.152025
18.822570 1.587500 -18.451853
23.987628 0.000000 -5.614347
26.940375 0.000000 10.719485
-16.313433 -3.175000 -10.664775
5.547360 1.587500 68.240673
-11.610808 1.587500 14.495556
6.184843 -1.587500 23.310880
18.061123 1.587500 -22.570005
6.298769 -1.587500 68.043784
19.282451 0.000000 10.870800
-6.181949 1.587500 19.532435
30.465881 0.442440 -8.933749
2.256529 -0.544346 73.981537
-7.066066 0.000000 -25.364493
-23.058193 -3.175000 -9.044821
-2.833358 -1.587500 29.475993
32.320057 0.000000 -0.334480
19.612505 0.000000 4.156053
-3.291378 -0.572148 17.198470
9.668313 0.000000 -29.212675
-28.649652 -3.175000 7.984185
-9.554171 -1.587500 61.905713
11.164439 -0.375694 -17.898778
12.068762 1.587500 -20.142411
21.661874 -3.175000 -10.597554
-10.681140 1.587500 24.378914
5.258148 1.587500 45.438039
25.641505 -3.175000 18.091026
17.421882 1.587500 22.769531
-24.822290 0.663951 -19.794180
-1.663783 -0.868681 32.315210
-5.632675 -1.587500 42.568890
26.865560 1.587500 -13.614740
-1.914296 0.000000 22.632535
17.250556 1.587500 8.806455
6.656797 -1.587500 -19.761607
24.508827 0.000000 7.140554
-27.485377 -1.587500 -8.130217
31.346077 -1.587500 -0.821969
