1.270718203159049153e-04 -2.547592818737030029e-01 -1.767852157354354858e-01 0.000000000000000000e+00
1.913001947104930878e-02 -2.378727495670318604e-01 1.708000898361206055e-02 1.000000000000000000e+00
-5.167243070900440216e-03 -2.030055224895477295e-02 -2.794402241706848145e-01 0.000000000000000000e+00
4.730900283902883530e-03 5.615425854921340942e-02 1.153878942131996155e-01 0.000000000000000000e+00
-1.814580336213111877e-02 -1.385053992271423340e-01 -3.255557417869567871e-01 0.000000000000000000e+00
-1.159951929003000259e-02 5.413716286420822144e-02 4.425749182701110840e-01 0.000000000000000000e+00
-8.619449101388454437e-03 -1.326920688152313232e-01 1.138518229126930237e-01 0.000000000000000000e+00
-9.432194754481315613e-03 -5.872001871466636658e-02 2.026291638612747192e-01 0.000000000000000000e+00
5.146133247762918472e-03 2.957364730536937714e-02 6.960551440715789795e-02 1.000000000000000000e+00
-1.892309635877609253e-02 -1.100530326366424561e-01 -2.390444278717041016e-01 0.000000000000000000e+00
-2.116428315639495850e-02 2.029693424701690674e-01 1.622149138711392879e-03 0.000000000000000000e+00
-4.713605158030986786e-03 1.997694745659828186e-02 -3.320897221565246582e-01 0.000000000000000000e+00
6.080026272684335709e-03 -2.308847457170486450e-01 -2.574075013399124146e-02 0.000000000000000000e+00
1.420739665627479553e-02 4.764181375503540039e-02 5.609579682350158691e-01 1.000000000000000000e+00
-1.977984234690666199e-02 -1.638629138469696045e-01 -1.404553502798080444e-01 0.000000000000000000e+00
-1.121135987341403961e-02 5.150214303284883499e-03 4.006944596767425537e-01 0.000000000000000000e+00
-2.236006036400794983e-02 -2.134362421929836273e-02 1.448919773101806641e-01 0.000000000000000000e+00
-1.373012783005833626e-03 2.675979137420654297e-01 -3.555417060852050781e-02 0.000000000000000000e+00
-1.818340644240379333e-02 -2.148405881598591805e-03 -3.264971375465393066e-01 0.000000000000000000e+00
1.574572920799255371e-02 5.104381218552589417e-02 3.874765932559967041e-01 1.000000000000000000e+00
-8.878866210579872131e-03 -2.528485655784606934e-01 -1.963704526424407959e-01 0.000000000000000000e+00
1.548908744007349014e-02 3.873732313513755798e-02 4.168645739555358887e-01 1.000000000000000000e+00
-6.378003861755132675e-03 2.059895396232604980e-01 -1.515964120626449585e-01 0.000000000000000000e+00
-9.387355297803878784e-03 3.282620385289192200e-02 1.940992623567581177e-01 0.000000000000000000e+00
1.565340161323547363e-02 8.400895446538925171e-02 3.966289162635803223e-01 1.000000000000000000e+00
2.101867832243442535e-02 -1.245607286691665649e-01 -2.000533491373062134e-01 1.000000000000000000e+00
-9.078277274966239929e-03 -7.722064107656478882e-02 1.634494960308074951e-01 0.000000000000000000e+00
-9.408016689121723175e-03 6.741552054882049561e-02 1.951137930154800415e-01 0.000000000000000000e+00
-5.220263265073299408e-03 -3.662941604852676392e-02 -2.728452980518341064e-01 0.000000000000000000e+00
-4.713888745754957199e-03 -1.846337132155895233e-02 -3.305977582931518555e-01 0.000000000000000000e+00
5.089803598821163177e-03 1.274174451828002930e-01 7.223698496818542480e-02 1.000000000000000000e+00
-1.870340295135974884e-02 3.919341787695884705e-02 -2.694699168205261230e-01 0.000000000000000000e+00
-1.869973540306091309e-02 -1.308575719594955444e-01 -1.607579588890075684e-01 0.000000000000000000e+00
-6.671848706901073456e-03 -1.797917038202285767e-01 -1.038310825824737549e-01 0.000000000000000000e+00
6.017035339027643204e-03 1.978807449340820312e-01 -3.492745757102966309e-02 1.000000000000000000e+00
-4.217243753373622894e-03 -6.616039574146270752e-02 1.756260097026824951e-01 1.000000000000000000e+00
8.974050171673297882e-03 -4.475268349051475525e-02 -3.589330017566680908e-01 1.000000000000000000e+00
1.859536021947860718e-02 2.237067073583602905e-01 -2.375522106885910034e-01 0.000000000000000000e+00
-1.907917112112045288e-02 -1.558464616537094116e-01 -2.197173535823822021e-01 0.000000000000000000e+00
2.170109190046787262e-02 -1.990936510264873505e-02 -2.809281945228576660e-01 1.000000000000000000e+00
-5.085880868136882782e-03 2.723774313926696777e-01 -1.096607893705368042e-01 0.000000000000000000e+00
2.130405232310295105e-02 -1.842695027589797974e-01 -2.299439460039138794e-01 1.000000000000000000e+00
-2.208005450665950775e-02 6.057845801115036011e-02 1.102269887924194336e-01 0.000000000000000000e+00
1.071228552609682083e-02 1.356681734323501587e-01 -1.480331718921661377e-01 0.000000000000000000e+00
-9.726809337735176086e-03 7.863881438970565796e-02 2.306117862462997437e-01 0.000000000000000000e+00
8.870480582118034363e-03 2.356890216469764709e-02 -3.498568236827850342e-01 1.000000000000000000e+00
6.319893989711999893e-03 1.870497316122055054e-01 -6.864471733570098877e-02 0.000000000000000000e+00
1.729375310242176056e-02 -3.389539942145347595e-02 2.162585556507110596e-01 1.000000000000000000e+00
-9.864097461104393005e-03 -7.990258187055587769e-02 3.496054932475090027e-02 0.000000000000000000e+00
-1.207957603037357330e-02 1.817854121327400208e-02 4.980374276638031006e-01 0.000000000000000000e+00
-2.196440659463405609e-02 1.593744903802871704e-01 9.344242513179779053e-02 0.000000000000000000e+00
1.404292974621057510e-02 -1.409288495779037476e-01 -1.374114006757736206e-01 0.000000000000000000e+00
2.061006613075733185e-02 2.083755880594253540e-01 -1.666529923677444458e-01 1.000000000000000000e+00
1.896068826317787170e-02 2.357174456119537354e-01 1.817416399717330933e-02 1.000000000000000000e+00
1.849757507443428040e-02 1.422963142395019531e-01 7.390981912612915039e-02 1.000000000000000000e+00
-1.880245655775070190e-02 5.006081983447074890e-02 -2.294251471757888794e-01 0.000000000000000000e+00
-8.317538537085056305e-03 -1.365160346031188965e-01 7.997526973485946655e-02 0.000000000000000000e+00
-1.020818483084440231e-02 4.474591836333274841e-02 2.861444056034088135e-01 0.000000000000000000e+00
-7.849002256989479065e-03 2.603275887668132782e-02 -2.358625382184982300e-01 0.000000000000000000e+00
-1.265082159079611301e-03 1.694969683885574341e-01 -2.240361645817756653e-02 0.000000000000000000e+00
7.412759121507406235e-03 1.138703525066375732e-01 -1.890184134244918823e-01 0.000000000000000000e+00
4.160080570727586746e-03 -1.337904483079910278e-02 1.823535561561584473e-01 1.000000000000000000e+00
-4.659981932491064072e-03 -7.918193936347961426e-02 -3.343662619590759277e-01 0.000000000000000000e+00
-9.430444799363613129e-03 8.642314933240413666e-03 1.998734772205352783e-01 0.000000000000000000e+00
2.155176922678947449e-02 -1.460279710590839386e-02 -2.643029093742370605e-01 1.000000000000000000e+00
-1.791695319116115570e-02 1.474076695740222931e-02 -3.571649193763732910e-01 0.000000000000000000e+00
1.968269608914852142e-02 2.543602585792541504e-01 -1.741512715816497803e-01 1.000000000000000000e+00
6.595612503588199615e-03 1.894837766885757446e-01 -9.980743378400802612e-02 0.000000000000000000e+00
-2.229797467589378357e-02 2.080632559955120087e-02 1.362946927547454834e-01 0.000000000000000000e+00
8.228197693824768066e-03 6.173742935061454773e-02 -2.789287567138671875e-01 1.000000000000000000e+00
8.090371266007423401e-03 -8.531445264816284180e-02 -2.578120827674865723e-01 0.000000000000000000e+00
6.996568292379379272e-03 -1.593376398086547852e-01 -1.317417919635772705e-01 0.000000000000000000e+00
1.801853068172931671e-02 1.024893298745155334e-01 1.294045895338058472e-01 1.000000000000000000e+00
-1.982682570815086365e-02 -2.680275142192840576e-01 -1.312046200037002563e-01 0.000000000000000000e+00
-2.156066335737705231e-02 -5.436559394001960754e-02 5.606346577405929565e-02 0.000000000000000000e+00
-1.307315775193274021e-03 1.866922527551651001e-01 -2.896603643894195557e-01 0.000000000000000000e+00
-2.161464095115661621e-02 9.286861866712570190e-02 5.655385553836822510e-02 0.000000000000000000e+00
1.096252631396055222e-02 -1.426187753677368164e-01 1.379178166389465332e-01 1.000000000000000000e+00
6.540595553815364838e-03 2.172562330961227417e-01 -2.556611895561218262e-01 0.000000000000000000e+00
1.650943793356418610e-02 3.205471485853195190e-02 3.021368980407714844e-01 1.000000000000000000e+00
-5.267706234008073807e-03 1.659558340907096863e-02 -2.695205509662628174e-01 0.000000000000000000e+00
2.092722803354263306e-02 -1.986150741577148438e-01 -1.869352757930755615e-01 1.000000000000000000e+00
-6.618251092731952667e-03 2.275690883398056030e-01 -1.253429651260375977e-01 0.000000000000000000e+00
-5.573949776589870453e-03 5.199528858065605164e-02 -2.363550513982772827e-01 0.000000000000000000e+00
-8.360179141163825989e-03 -7.259725034236907959e-02 8.235258609056472778e-02 0.000000000000000000e+00
2.074808254837989807e-02 -2.169892042875289917e-01 -1.660498827695846558e-01 1.000000000000000000e+00
-8.551693521440029144e-03 -1.762189716100692749e-01 1.078697592020034790e-01 0.000000000000000000e+00
1.953827030956745148e-02 2.679165601730346680e-01 -9.325525909662246704e-02 1.000000000000000000e+00
8.248148486018180847e-03 -1.264502406120300293e-01 -2.740294039249420166e-01 0.000000000000000000e+00
6.214235909283161163e-03 2.525468170642852783e-01 -5.922592431306838989e-02 0.000000000000000000e+00
2.090242877602577209e-02 -1.235426515340805054e-01 -1.869922131299972534e-01 1.000000000000000000e+00
6.606463342905044556e-03 2.294262349605560303e-01 -1.025472283363342285e-01 0.000000000000000000e+00
8.511275984346866608e-03 1.942903362214565277e-02 -3.092214167118072510e-01 0.000000000000000000e+00
5.591388791799545288e-03 2.206733375787734985e-01 1.217226684093475342e-02 0.000000000000000000e+00
1.379579585045576096e-02 3.896675258874893188e-02 6.076700687408447266e-01 1.000000000000000000e+00
6.626472342759370804e-03 1.685171574354171753e-01 -1.024886295199394226e-01 1.000000000000000000e+00
-9.795345366001129150e-03 -5.648814141750335693e-02 2.434672117233276367e-01 0.000000000000000000e+00
1.822118088603019714e-02 -5.857167392969131470e-02 1.126855015754699707e-01 1.000000000000000000e+00
-1.229389943182468414e-02 -1.127012260258197784e-02 -3.636813759803771973e-01 0.000000000000000000e+00
7.831078022718429565e-03 -7.893846184015274048e-02 2.907653748989105225e-01 1.000000000000000000e+00
2.037121169269084930e-02 -7.093051820993423462e-02 -3.490563631057739258e-01 0.000000000000000000e+00
1.995286531746387482e-02 -1.512746810913085938e-01 -7.893411070108413696e-02 1.000000000000000000e+00
-1.979482918977737427e-02 2.274496555328369141e-01 -1.536291688680648804e-01 0.000000000000000000e+00
-8.606520481407642365e-03 -1.708533614873886108e-01 1.138443201780319214e-01 0.000000000000000000e+00
-7.340253330767154694e-03 2.510462403297424316e-01 -4.487347602844238281e-02 0.000000000000000000e+00
-5.657413974404335022e-03 -1.164935305714607239e-01 -2.205501645803451538e-01 0.000000000000000000e+00
-2.209270745515823364e-02 3.140209941193461418e-03 1.138344705104827881e-01 0.000000000000000000e+00
-4.511779639869928360e-03 2.022853121161460876e-02 -3.548426330089569092e-01 0.000000000000000000e+00
1.960533671081066132e-02 1.541694551706314087e-01 -5.137296393513679504e-02 1.000000000000000000e+00
8.009302429854869843e-03 -1.819094717502593994e-01 -2.450077682733535767e-01 0.000000000000000000e+00
-8.502893149852752686e-03 1.637054607272148132e-02 9.505572170019149780e-02 0.000000000000000000e+00
-4.575273022055625916e-03 6.317323446273803711e-02 -3.493187725543975830e-01 0.000000000000000000e+00
1.089031939045526087e-04 -2.475967109203338623e-01 1.528989057987928391e-02 0.000000000000000000e+00
8.260051719844341278e-03 -9.703376889228820801e-02 -2.764879465103149414e-01 0.000000000000000000e+00
-1.149565167725086212e-02 4.272699356079101562e-02 4.313035309314727783e-01 0.000000000000000000e+00
7.996343076229095459e-03 -1.173322349786758423e-01 -2.460001707077026367e-01 1.000000000000000000e+00
4.979118704795837402e-03 5.300575867295265198e-02 8.753612637519836426e-02 1.000000000000000000e+00
-7.081171963363885880e-03 2.381509393453598022e-01 -7.357910275459289551e-02 0.000000000000000000e+00
8.676240220665931702e-03 -1.302806138992309570e-01 -3.221247494220733643e-01 1.000000000000000000e+00
1.690884493291378021e-02 3.616222366690635681e-02 2.569722831249237061e-01 1.000000000000000000e+00
-5.029443651437759399e-03 1.483882814645767212e-01 -3.013756275177001953e-01 0.000000000000000000e+00
-5.060760769993066788e-03 -1.177147179841995239e-01 -2.877396345138549805e-01 0.000000000000000000e+00
1.969145052134990692e-02 2.394616305828094482e-01 -6.431642174720764160e-02 1.000000000000000000e+00
-6.549777928739786148e-03 2.564530968666076660e-01 -1.341561824083328247e-01 0.000000000000000000e+00
2.074304781854152679e-02 -2.361752092838287354e-01 -1.647538840770721436e-01 1.000000000000000000e+00
-2.170764282345771790e-02 1.864012926816940308e-01 6.348164379596710205e-02 0.000000000000000000e+00
-2.211729064583778381e-02 -1.608844250440597534e-01 1.228345558047294617e-01 0.000000000000000000e+00
7.776888553053140640e-03 2.093078047037124634e-01 -2.336763590574264526e-01 1.000000000000000000e+00
-6.083194632083177567e-03 1.231002584099769592e-01 -1.816697567701339722e-01 0.000000000000000000e+00
-9.202373214066028595e-03 2.005582489073276520e-02 1.737389713525772095e-01 0.000000000000000000e+00
-6.334671285003423691e-03 2.578902244567871094e-01 -1.584507226943969727e-01 0.000000000000000000e+00
1.824397593736648560e-02 -3.905804082751274109e-02 1.093755587935447693e-01 1.000000000000000000e+00
-8.434181101620197296e-03 2.040929198265075684e-01 8.018278330564498901e-02 0.000000000000000000e+00
2.021918445825576782e-02 -2.109932303428649902e-01 -1.066771000623703003e-01 1.000000000000000000e+00
-1.906075701117515564e-02 -1.435835361480712891e-01 -2.222582101821899414e-01 0.000000000000000000e+00
-2.240156754851341248e-02 1.132344603538513184e-01 1.444579064846038818e-01 0.000000000000000000e+00
-5.644244607537984848e-03 -7.391871511936187744e-02 -2.236512452363967896e-01 0.000000000000000000e+00
-3.332911292091012001e-03 4.616196453571319580e-02 -3.597797751426696777e-01 0.000000000000000000e+00
-8.725447580218315125e-03 -1.977582871913909912e-01 -4.120347648859024048e-02 0.000000000000000000e+00
2.129965275526046753e-02 2.101881653070449829e-01 -2.444302141666412354e-01 1.000000000000000000e+00
8.263730444014072418e-03 1.863863468170166016e-01 -2.876671850681304932e-01 0.000000000000000000e+00
2.115819603204727173e-02 -2.312351614236831665e-01 -2.117238938808441162e-01 1.000000000000000000e+00
1.836970075964927673e-02 3.605991601943969727e-02 9.235485643148422241e-02 1.000000000000000000e+00
1.923863030970096588e-02 -1.646055877208709717e-01 2.058072481304407120e-03 1.000000000000000000e+00
-7.612127345055341721e-03 2.481945306062698364e-01 -1.412811782211065292e-02 0.000000000000000000e+00
1.666121743619441986e-02 2.893804199993610382e-02 2.851514220237731934e-01 1.000000000000000000e+00
-2.009784989058971405e-02 1.603187322616577148e-01 -1.169325560331344604e-01 0.000000000000000000e+00
9.485852904617786407e-03 8.569626510143280029e-02 4.271952509880065918e-01 1.000000000000000000e+00
1.039117202162742615e-02 -7.679218798875808716e-02 5.324792861938476562e-01 1.000000000000000000e+00
-9.938607923686504364e-03 7.379182428121566772e-02 2.546630501747131348e-01 0.000000000000000000e+00
1.646065525710582733e-02 6.898220628499984741e-02 3.062314391136169434e-01 1.000000000000000000e+00
-1.782864518463611603e-02 -2.728058099746704102e-01 -6.169690191745758057e-02 0.000000000000000000e+00
-2.196092344820499420e-02 -6.710924953222274780e-02 1.016521006822586060e-01 0.000000000000000000e+00
1.520195510238409042e-03 1.207851022481918335e-01 -1.749022901058197021e-01 0.000000000000000000e+00
2.168133854866027832e-02 1.072541996836662292e-01 -2.835320234298706055e-01 1.000000000000000000e+00
-4.923431668430566788e-03 -4.385969787836074829e-02 6.197080612182617188e-01 1.000000000000000000e+00
-1.109042298048734665e-02 2.466316819190979004e-01 -2.075623273849487305e-01 0.000000000000000000e+00
-2.162010036408901215e-02 -9.422083944082260132e-02 6.427494436502456665e-02 0.000000000000000000e+00
1.425893045961856842e-02 4.413487017154693604e-02 5.124769732356071472e-02 0.000000000000000000e+00
7.645177654922008514e-03 1.823621988296508789e-01 -2.178106606006622314e-01 0.000000000000000000e+00
-2.136368118226528168e-02 8.987471461296081543e-02 2.838748134672641754e-02 0.000000000000000000e+00
1.962213777005672455e-02 -2.322699278593063354e-01 -3.858878836035728455e-02 1.000000000000000000e+00
2.093646302819252014e-02 1.315102577209472656e-01 -2.005146592855453491e-01 1.000000000000000000e+00
1.926213316619396210e-02 -2.152660191059112549e-01 1.333669642917811871e-03 1.000000000000000000e+00
1.429947465658187866e-02 4.670829325914382935e-02 5.506172776222229004e-01 1.000000000000000000e+00
-1.881711371243000031e-02 1.726335883140563965e-01 -2.617242336273193359e-01 0.000000000000000000e+00
-2.065610885620117188e-02 -2.317137122154235840e-01 -3.913341462612152100e-02 0.000000000000000000e+00
-1.288387831300497055e-02 -9.825999289751052856e-02 -2.015918195247650146e-01 0.000000000000000000e+00
-2.003424614667892456e-02 -1.746947467327117920e-01 -1.113757118582725525e-01 0.000000000000000000e+00
5.828459979966282845e-04 -2.214543521404266357e-01 -2.428262680768966675e-01 0.000000000000000000e+00
-1.857169345021247864e-02 1.559175252914428711e-01 -2.887453436851501465e-01 0.000000000000000000e+00
4.461253527551889420e-03 -6.413715332746505737e-02 1.503427028656005859e-01 1.000000000000000000e+00
1.893137581646442413e-02 1.072334945201873779e-01 2.635744400322437286e-02 1.000000000000000000e+00
-5.606221035122871399e-03 -1.369337737560272217e-01 -2.255427092313766479e-01 0.000000000000000000e+00
6.703660357743501663e-03 -2.511686086654663086e-01 -9.524665027856826782e-02 0.000000000000000000e+00
-8.558213710784912109e-03 1.180099099874496460e-01 9.742932766675949097e-02 0.000000000000000000e+00
-2.240416221320629120e-02 3.178551048040390015e-02 1.478437781333923340e-01 0.000000000000000000e+00
7.032513152807950974e-03 2.400057613849639893e-01 -1.509598940610885620e-01 1.000000000000000000e+00
1.898598298430442810e-02 1.458630561828613281e-01 1.873652078211307526e-02 1.000000000000000000e+00
5.742378998547792435e-03 2.394579648971557617e-01 -5.556072574108839035e-03 0.000000000000000000e+00
-9.491084143519401550e-03 7.662545889616012573e-02 2.041247934103012085e-01 0.000000000000000000e+00
-1.913498342037200928e-02 -2.348947376012802124e-01 -2.104256749153137207e-01 0.000000000000000000e+00
-5.670099519193172455e-03 -3.612334653735160828e-02 5.366658419370651245e-02 0.000000000000000000e+00
2.181881479918956757e-02 -1.075169742107391357e-01 -2.908668816089630127e-01 1.000000000000000000e+00
-2.188668004237115383e-04 -2.033909857273101807e-01 9.373909980058670044e-02 1.000000000000000000e+00
-1.952742785215377808e-02 -2.289602905511856079e-01 -1.664271801710128784e-01 0.000000000000000000e+00
2.022411487996578217e-02 -2.643056809902191162e-01 -1.052077561616897583e-01 1.000000000000000000e+00
-4.973246250301599503e-03 1.139288693666458130e-01 -3.063996136188507080e-01 0.000000000000000000e+00
-2.227366343140602112e-02 1.464680433273315430e-01 1.287823021411895752e-01 0.000000000000000000e+00
-1.887474022805690765e-02 -1.702753603458404541e-01 -2.422062456607818604e-01 0.000000000000000000e+00
-1.890937238931655884e-02 -1.534763872623443604e-01 -2.389416545629501343e-01 0.000000000000000000e+00
-8.636883459985256195e-03 2.434170246124267578e-02 1.098520681262016296e-01 0.000000000000000000e+00
-2.196812629699707031e-02 9.376659244298934937e-02 9.635357558727264404e-02 0.000000000000000000e+00
-1.102135423570871353e-02 -6.898841261863708496e-02 3.820988833904266357e-01 0.000000000000000000e+00
-2.150001563131809235e-02 1.436787545680999756e-01 4.170713573694229126e-02 0.000000000000000000e+00
-2.048602886497974396e-02 1.472800076007843018e-01 -7.269410789012908936e-02 0.000000000000000000e+00
7.489151321351528168e-03 2.338252514600753784e-01 -2.021829187870025635e-01 1.000000000000000000e+00
7.649418897926807404e-03 -1.476004421710968018e-01 -2.057562023401260376e-01 0.000000000000000000e+00
-8.419389836490154266e-03 1.252463012933731079e-01 8.151066303253173828e-02 0.000000000000000000e+00
1.663359627127647400e-02 3.927610442042350769e-02 2.878713607788085938e-01 1.000000000000000000e+00
1.875689812004566193e-02 5.885596573352813721e-02 4.785644263029098511e-02 1.000000000000000000e+00
1.879683509469032288e-02 -1.946224868297576904e-01 5.298331007361412048e-02 1.000000000000000000e+00
1.889856159687042236e-02 -1.996318995952606201e-01 4.171019047498703003e-02 1.000000000000000000e+00
-1.892211660742759705e-02 -1.862218827009201050e-01 -2.362619638442993164e-01 0.000000000000000000e+00
1.433765329420566559e-02 3.175034373998641968e-02 5.468831062316894531e-01 1.000000000000000000e+00
4.646571818739175797e-03 6.981802731752395630e-02 1.243717372417449951e-01 1.000000000000000000e+00
-1.403473899699747562e-03 1.703585833311080933e-01 1.236174479126930237e-01 1.000000000000000000e+00
-1.030796486884355545e-02 2.820799313485622406e-02 2.980166673660278320e-01 0.000000000000000000e+00
1.557661592960357666e-02 6.436164677143096924e-02 4.060279428958892822e-01 1.000000000000000000e+00
2.183986827731132507e-02 -7.647572457790374756e-02 -2.944183051586151123e-01 1.000000000000000000e+00
-1.863855309784412384e-02 -1.730525344610214233e-01 -2.687163352966308594e-01 0.000000000000000000e+00
2.592591335996985435e-04 1.839070930145680904e-03 5.803950130939483643e-02 0.000000000000000000e+00
1.287955604493618011e-02 -1.217417512089014053e-02 5.772265046834945679e-02 0.000000000000000000e+00
-4.207306075841188431e-03 -1.453238725662231445e-01 -5.853839591145515442e-02 0.000000000000000000e+00
-1.754192262887954712e-02 4.459493979811668396e-02 -3.601571023464202881e-01 0.000000000000000000e+00
1.480294670909643173e-02 -1.152927577495574951e-01 -3.327720165252685547e-01 1.000000000000000000e+00
-2.838079584762454033e-03 8.614329993724822998e-02 4.779145121574401855e-01 1.000000000000000000e+00
-6.422463804483413696e-03 -2.145964950323104858e-01 -1.306119412183761597e-01 0.000000000000000000e+00
2.039721235632896423e-02 2.145973294973373413e-01 -1.429030895233154297e-01 1.000000000000000000e+00
-5.601655226200819016e-03 2.113811969757080078e-01 -2.392866015434265137e-01 0.000000000000000000e+00
-6.024828646332025528e-03 -1.303239166736602783e-01 -1.786215305328369141e-01 0.000000000000000000e+00
1.872202940285205841e-02 7.993806898593902588e-02 5.098500847816467285e-02 1.000000000000000000e+00
-1.945299841463565826e-02 -1.192684918642044067e-01 -1.789806634187698364e-01 0.000000000000000000e+00
2.145327813923358917e-02 4.685913026332855225e-02 -2.555385529994964600e-01 1.000000000000000000e+00
2.098030224442481995e-02 -1.873104870319366455e-01 -1.933456063270568848e-01 1.000000000000000000e+00
1.801737956702709198e-02 1.974003762006759644e-02 1.326771080493927002e-01 1.000000000000000000e+00
-4.960417281836271286e-03 -2.144762547686696053e-03 -3.034366667270660400e-01 0.000000000000000000e+00
-2.234743908047676086e-02 1.572804898023605347e-02 1.420616358518600464e-01 0.000000000000000000e+00
1.650227792561054230e-02 -1.042052879929542542e-01 -2.524709105491638184e-01 1.000000000000000000e+00
7.383640855550765991e-03 -1.743204444646835327e-01 -1.747912913560867310e-01 0.000000000000000000e+00
4.470346029847860336e-03 1.016666740179061890e-01 1.430206596851348877e-01 1.000000000000000000e+00
-1.811869442462921143e-02 1.003032401204109192e-01 -3.376806974411010742e-01 0.000000000000000000e+00
7.809595670551061630e-03 1.269013583660125732e-01 -2.342322021722793579e-01 1.000000000000000000e+00
1.846455037593841553e-02 2.014518678188323975e-01 7.538453489542007446e-02 1.000000000000000000e+00
-1.906182989478111267e-02 1.007695794105529785e-01 -2.314181178808212280e-01 0.000000000000000000e+00
1.801103167235851288e-02 1.303837746381759644e-01 1.291901171207427979e-01 1.000000000000000000e+00
1.841572113335132599e-02 -1.720187366008758545e-01 9.507198631763458252e-02 1.000000000000000000e+00
-2.058483101427555084e-02 2.445959746837615967e-01 -6.525640189647674561e-02 0.000000000000000000e+00
4.299408756196498871e-03 -2.330022118985652924e-02 1.670297086238861084e-01 1.000000000000000000e+00
-2.075012773275375366e-02 1.780909597873687744e-01 -4.410338401794433594e-02 0.000000000000000000e+00
1.452120859175920486e-02 -6.609717011451721191e-02 5.299149751663208008e-01 1.000000000000000000e+00
-5.121214315295219421e-03 -1.545777618885040283e-01 -2.795271575450897217e-01 0.000000000000000000e+00
1.458619441837072372e-02 1.459547877311706543e-01 -1.112672612071037292e-01 0.000000000000000000e+00
4.386752378195524216e-03 -7.984136044979095459e-02 1.593345850706100464e-01 1.000000000000000000e+00
1.570312492549419403e-02 7.310780137777328491e-02 3.914396762847900391e-01 1.000000000000000000e+00
1.561644207686185837e-02 -3.515841439366340637e-02 4.053198099136352539e-01 1.000000000000000000e+00
-8.509479463100433350e-03 -8.048936724662780762e-02 9.947683662176132202e-02 0.000000000000000000e+00
8.317598141729831696e-03 -1.853322684764862061e-01 -2.796190679073333740e-01 0.000000000000000000e+00
-4.287980496883392334e-03 -7.680223137140274048e-02 5.317751169204711914e-01 1.000000000000000000e+00
-5.063424818217754364e-03 -6.064977869391441345e-02 -2.896068096160888672e-01 0.000000000000000000e+00
1.683334261178970337e-02 6.827651988714933395e-03 2.665946781635284424e-01 1.000000000000000000e+00
1.681816391646862030e-02 1.467375755310058594e-01 -7.482600957155227661e-02 1.000000000000000000e+00
5.091495811939239502e-03 -9.196080267429351807e-02 -2.066199481487274170e-01 0.000000000000000000e+00
-8.243360556662082672e-03 2.204373013228178024e-03 7.936476916074752808e-02 0.000000000000000000e+00
8.550429716706275940e-03 -3.598307073116302490e-02 -3.115289211273193359e-01 0.000000000000000000e+00
8.347875438630580902e-03 -8.231296390295028687e-02 -2.869437932968139648e-01 0.000000000000000000e+00
8.359659463167190552e-03 -2.131352946162223816e-02 -2.905885279178619385e-01 1.000000000000000000e+00
-1.918838545680046082e-02 1.754141598939895630e-01 -2.199919074773788452e-01 0.000000000000000000e+00
1.951220259070396423e-02 2.322735339403152466e-01 -4.384418949484825134e-02 1.000000000000000000e+00
2.015919797122478485e-02 1.873197406530380249e-01 -1.150457188487052917e-01 1.000000000000000000e+00
2.175458148121833801e-02 1.201047077775001526e-01 -2.922738790512084961e-01 1.000000000000000000e+00
-1.800458878278732300e-02 1.297921966761350632e-02 -3.472224473953247070e-01 0.000000000000000000e+00
-1.765739358961582184e-02 6.800022721290588379e-02 1.747244149446487427e-01 1.000000000000000000e+00
-4.899408086203038692e-04 1.611461788415908813e-01 -3.044365346431732178e-01 0.000000000000000000e+00
2.142152003943920135e-02 -1.698385775089263916e-01 -2.437293678522109985e-01 1.000000000000000000e+00
-4.261604510247707367e-03 8.438303321599960327e-02 2.796533703804016113e-01 1.000000000000000000e+00
-1.071236561983823776e-02 -5.834940075874328613e-02 3.468753695487976074e-01 0.000000000000000000e+00
-1.979783922433853149e-02 -1.482045799493789673e-01 -1.390222162008285522e-01 0.000000000000000000e+00
-2.814904553815722466e-03 2.674577534198760986e-01 -7.432460039854049683e-02 0.000000000000000000e+00
1.971493661403656006e-02 -1.658279597759246826e-01 -5.156962200999259949e-02 1.000000000000000000e+00
-2.200911566615104675e-02 1.972979158163070679e-01 9.704038500785827637e-02 0.000000000000000000e+00
6.835754029452800751e-03 1.846983581781387329e-01 -1.266868263483047485e-01 0.000000000000000000e+00
-6.754519417881965637e-03 1.869996786117553711e-01 -1.084462553262710571e-01 0.000000000000000000e+00
-2.017251215875148773e-03 -5.916198343038558960e-02 4.595181345939636230e-02 0.000000000000000000e+00
-2.071251347661018372e-02 -1.524381786584854126e-01 -3.578818961977958679e-02 0.000000000000000000e+00
1.436817552894353867e-02 1.195022463798522949e-01 -3.301180899143218994e-01 0.000000000000000000e+00
-4.805359989404678345e-03 -1.039927676320075989e-01 -3.170415163040161133e-01 0.000000000000000000e+00
-8.227762766182422638e-03 -4.747535660862922668e-02 6.647664308547973633e-02 0.000000000000000000e+00
4.589043557643890381e-03 -7.280767709016799927e-02 1.362715959548950195e-01 0.000000000000000000e+00
1.831521093845367432e-02 -1.141232475638389587e-01 1.041993126273155212e-01 1.000000000000000000e+00
7.564892992377281189e-03 2.354325801134109497e-01 -2.107791900634765625e-01 0.000000000000000000e+00
1.705070585012435913e-02 6.714714318513870239e-02 2.398093044757843018e-01 1.000000000000000000e+00
6.884565576910972595e-03 -1.720306426286697388e-01 -1.186383143067359924e-01 0.000000000000000000e+00
-1.923908852040767670e-02 2.063534110784530640e-01 -2.154533267021179199e-01 0.000000000000000000e+00
1.366464886814355850e-02 3.878334164619445801e-02 6.224557161331176758e-01 1.000000000000000000e+00
2.210511639714241028e-02 -2.864210493862628937e-02 -3.261254429817199707e-01 1.000000000000000000e+00
1.844821684062480927e-02 -5.204653739929199219e-02 8.685328811407089233e-02 1.000000000000000000e+00
1.934242248535156250e-02 -1.753148585557937622e-01 -9.231231175363063812e-03 1.000000000000000000e+00
-1.311771944165229797e-02 -1.727832108736038208e-02 6.163707375526428223e-01 0.000000000000000000e+00
1.802093535661697388e-02 -1.267997175455093384e-01 1.378421634435653687e-01 1.000000000000000000e+00
4.671373404562473297e-03 -7.600630074739456177e-02 5.640884041786193848e-01 1.000000000000000000e+00
2.060179971158504486e-02 1.932422667741775513e-01 -1.651466935873031616e-01 1.000000000000000000e+00
1.788387633860111237e-02 3.470705822110176086e-02 1.471528410911560059e-01 1.000000000000000000e+00
7.695094682276248932e-03 -2.017197757959365845e-01 -2.088478207588195801e-01 0.000000000000000000e+00
1.436094637028872967e-03 1.367249637842178345e-01 -3.268109560012817383e-01 0.000000000000000000e+00
-1.833070442080497742e-02 -1.049960181117057800e-01 -3.059921264648437500e-01 0.000000000000000000e+00
2.188719622790813446e-02 -1.720138341188430786e-01 -2.961229681968688965e-01 1.000000000000000000e+00
-6.460757926106452942e-03 2.193149328231811523e-01 -1.427771002054214478e-01 0.000000000000000000e+00
1.978511922061443329e-02 2.252898961305618286e-01 -7.433352619409561157e-02 1.000000000000000000e+00
-8.003901690244674683e-03 2.127279043197631836e-01 3.136728703975677490e-02 0.000000000000000000e+00
7.024855352938175201e-03 -1.472426354885101318e-01 -1.353887915611267090e-01 0.000000000000000000e+00
1.109242322854697704e-03 1.139712706208229065e-01 3.779445542022585869e-03 1.000000000000000000e+00
-9.665223769843578339e-04 -1.560796052217483521e-01 -3.153365850448608398e-01 0.000000000000000000e+00
1.584101282060146332e-02 -2.973284805193543434e-03 3.787909448146820068e-01 1.000000000000000000e+00
8.202088996767997742e-03 -1.880282014608383179e-01 -2.665001451969146729e-01 0.000000000000000000e+00
2.096646092832088470e-02 1.652113050222396851e-01 -2.051750719547271729e-01 1.000000000000000000e+00
-4.226696619298309088e-04 2.545956708490848541e-02 5.370407700538635254e-01 1.000000000000000000e+00
1.785622909665107727e-02 2.571345679461956024e-02 1.506100594997406006e-01 1.000000000000000000e+00
2.013600058853626251e-02 9.321579337120056152e-02 -2.044935226440429688e-01 1.000000000000000000e+00
9.666597470641136169e-03 6.813952326774597168e-02 -3.495804667472839355e-01 0.000000000000000000e+00
-8.574205450713634491e-03 -1.142822429537773132e-01 1.080541834235191345e-01 0.000000000000000000e+00
2.110347151756286621e-02 -1.460512578487396240e-01 -2.087924629449844360e-01 1.000000000000000000e+00
1.359712332487106323e-02 -7.765262573957443237e-02 4.354538023471832275e-01 1.000000000000000000e+00
1.369705237448215485e-02 2.163321524858474731e-01 -2.482361793518066406e-01 0.000000000000000000e+00
-1.122250780463218689e-02 6.840150058269500732e-02 3.995482623577117920e-01 0.000000000000000000e+00
9.514032863080501556e-03 -8.741234429180622101e-03 1.442624032497406006e-01 1.000000000000000000e+00
5.447577219456434250e-03 1.489737927913665771e-01 3.110134601593017578e-02 0.000000000000000000e+00
5.122104659676551819e-03 7.590608298778533936e-02 7.055351883172988892e-02 1.000000000000000000e+00
-5.612270440906286240e-03 6.151999160647392273e-02 -2.323984801769256592e-01 0.000000000000000000e+00
6.825808901339769363e-03 1.672677397727966309e-01 -1.249040514230728149e-01 0.000000000000000000e+00
-2.175491116940975189e-02 1.881755292415618896e-01 1.078896820545196533e-01 0.000000000000000000e+00
1.755331060849130154e-03 7.092513889074325562e-02 -2.197410911321640015e-01 0.000000000000000000e+00
-9.182858280837535858e-03 5.390410125255584717e-02 1.702542752027511597e-01 0.000000000000000000e+00
-6.583199370652437210e-03 -2.531211078166961670e-01 -1.110357269644737244e-01 0.000000000000000000e+00
-2.176998183131217957e-02 -1.684791147708892822e-01 8.398534357547760010e-02 0.000000000000000000e+00
-1.863998174667358398e-02 -1.371303200721740723e-02 -2.746073007583618164e-01 0.000000000000000000e+00
4.276528488844633102e-03 6.732358038425445557e-02 1.661660373210906982e-01 1.000000000000000000e+00
6.145903840661048889e-03 -2.676905393600463867e-01 -3.176646679639816284e-02 0.000000000000000000e+00
1.847349107265472412e-02 1.843521744012832642e-01 7.502647489309310913e-02 1.000000000000000000e+00
-1.855492033064365387e-02 1.652394086122512817e-01 -2.909894287586212158e-01 0.000000000000000000e+00
-1.929482258856296539e-02 -1.876757889986038208e-01 -1.942069977521896362e-01 0.000000000000000000e+00
-4.547960124909877777e-03 -8.930388838052749634e-02 1.688124835491180420e-01 1.000000000000000000e+00
1.943050697445869446e-02 -1.027558296918869019e-01 -1.971588283777236938e-01 0.000000000000000000e+00
2.160773612558841705e-03 7.727846503257751465e-02 -2.160296738147735596e-01 0.000000000000000000e+00
-2.550077391788363457e-03 7.010604720562696457e-03 1.475700587034225464e-01 1.000000000000000000e+00
-8.474575355648994446e-03 -7.286434620618820190e-02 9.525386989116668701e-02 0.000000000000000000e+00
-7.946913130581378937e-03 -2.007330060005187988e-01 4.064909368753433228e-02 0.000000000000000000e+00
2.112465724349021912e-02 1.613694727420806885e-01 -2.228559255599975586e-01 1.000000000000000000e+00
2.111803553998470306e-02 -2.376809120178222656e-01 -2.069534808397293091e-01 1.000000000000000000e+00
5.137980915606021881e-03 -4.561996832489967346e-02 7.338017970323562622e-02 0.000000000000000000e+00
1.717718690633773804e-02 -5.189159885048866272e-02 2.300777584314346313e-01 1.000000000000000000e+00
-1.900714240036904812e-03 2.227952033281326294e-01 5.888131633400917053e-02 1.000000000000000000e+00
-1.867065764963626862e-02 -1.659116297960281372e-01 -2.653696835041046143e-01 0.000000000000000000e+00
1.917201839387416840e-02 1.514331996440887451e-01 -2.439040457829833031e-03 1.000000000000000000e+00
1.406151615083217621e-02 -2.459845840930938721e-01 -1.990151405334472656e-01 0.000000000000000000e+00
8.383376523852348328e-03 -7.905124872922897339e-02 2.780437767505645752e-01 1.000000000000000000e+00
1.471147686243057251e-02 6.036090850830078125e-02 5.036709904670715332e-01 1.000000000000000000e+00
8.683350868523120880e-03 8.538647741079330444e-02 3.923194408416748047e-01 1.000000000000000000e+00
-5.399192683398723602e-03 2.533456869423389435e-02 -2.550355195999145508e-01 0.000000000000000000e+00
1.641925424337387085e-02 1.600836217403411865e-01 1.252216100692749023e-01 1.000000000000000000e+00
-8.485464379191398621e-03 -8.801149576902389526e-02 9.705623239278793335e-02 0.000000000000000000e+00
-6.349176168441772461e-03 -2.454582750797271729e-01 -1.376984268426895142e-01 0.000000000000000000e+00
-5.984424613416194916e-03 1.827286332845687866e-01 -1.950647383928298950e-01 0.000000000000000000e+00
8.190202526748180389e-03 -6.284946203231811523e-02 -2.699151635169982910e-01 0.000000000000000000e+00
-1.217611040920019150e-02 4.325713496655225754e-03 5.094418525695800781e-01 0.000000000000000000e+00
2.179472334682941437e-02 1.413893252611160278e-01 -2.976057529449462891e-01 1.000000000000000000e+00
-1.937045529484748840e-02 -1.835322827100753784e-01 -1.858415752649307251e-01 0.000000000000000000e+00
6.755162030458450317e-03 1.557185351848602295e-01 -1.165043413639068604e-01 0.000000000000000000e+00
-1.851497590541839600e-02 -2.365725934505462646e-01 4.842174798250198364e-02 0.000000000000000000e+00
1.513578835874795914e-02 5.795983597636222839e-02 4.559471309185028076e-01 1.000000000000000000e+00
-5.416552536189556122e-03 9.891356527805328369e-02 -2.558738589286804199e-01 0.000000000000000000e+00
1.984606496989727020e-02 -1.644432544708251953e-01 -6.639883667230606079e-02 1.000000000000000000e+00
1.722096279263496399e-02 6.060179695487022400e-02 2.208719402551651001e-01 1.000000000000000000e+00
4.363787826150655746e-03 9.692388586699962616e-03 1.585218161344528198e-01 1.000000000000000000e+00
9.708747267723083496e-03 1.955049484968185425e-01 -1.410767063498497009e-02 1.000000000000000000e+00
1.652434654533863068e-02 -1.280884607695043087e-03 3.017229139804840088e-01 1.000000000000000000e+00
-1.843749172985553741e-02 1.497721821069717407e-01 -3.036350011825561523e-01 0.000000000000000000e+00
-1.055290084332227707e-02 -5.442074313759803772e-02 3.287564218044281006e-01 0.000000000000000000e+00
-1.924521289765834808e-02 -1.999911963939666748e-01 -1.993296295404434204e-01 0.000000000000000000e+00
-7.599113509058952332e-03 1.346951723098754883e-01 -1.128379534929990768e-02 0.000000000000000000e+00
7.199250627309083939e-03 -2.041502296924591064e-01 -1.528797149658203125e-01 0.000000000000000000e+00
7.928846403956413269e-03 -1.991801112890243530e-01 -2.352853417396545410e-01 0.000000000000000000e+00
-7.042781449854373932e-03 -1.510241627693176270e-01 -6.312391906976699829e-02 0.000000000000000000e+00
-5.281233228743076324e-03 -9.495615027844905853e-03 -2.670052945613861084e-01 0.000000000000000000e+00
-2.044123969972133636e-02 2.042776346206665039e-01 -7.990606129169464111e-02 0.000000000000000000e+00
-2.190252766013145447e-02 1.832370012998580933e-01 8.556322008371353149e-02 0.000000000000000000e+00
2.180182375013828278e-02 -1.484464108943939209e-01 -2.873975932598114014e-01 1.000000000000000000e+00
1.569339260458946228e-02 -4.857836663722991943e-02 3.971582055091857910e-01 1.000000000000000000e+00
-1.962842606008052826e-02 1.443627923727035522e-01 -1.205007955431938171e-01 0.000000000000000000e+00
8.438253775238990784e-03 2.303968742489814758e-02 -3.011298477649688721e-01 0.000000000000000000e+00
1.660552993416786194e-02 -5.595258995890617371e-02 2.946510016918182373e-01 1.000000000000000000e+00
1.488701626658439636e-02 7.555740326642990112e-02 -3.474479615688323975e-01 0.000000000000000000e+00
-1.805177703499794006e-02 -1.421324312686920166e-01 1.440231204032897949e-01 0.000000000000000000e+00
2.152387611567974091e-02 7.329714298248291016e-02 -2.644982635974884033e-01 1.000000000000000000e+00
-6.275384221225976944e-03 2.217192202806472778e-01 -1.637578755617141724e-01 0.000000000000000000e+00
1.956816203892230988e-02 -2.372207939624786377e-01 -3.231815993785858154e-02 1.000000000000000000e+00
-2.372965216636657715e-03 7.983466982841491699e-02 5.873480439186096191e-01 1.000000000000000000e+00
1.974511146545410156e-02 -2.652238011360168457e-01 -1.355729997158050537e-01 1.000000000000000000e+00
-1.131863798946142197e-02 2.739306166768074036e-02 4.119385778903961182e-01 0.000000000000000000e+00
-1.884299889206886292e-02 1.334122717380523682e-01 -2.573176324367523193e-01 0.000000000000000000e+00
1.366407051682472229e-02 4.890782758593559265e-02 6.221363544464111328e-01 1.000000000000000000e+00
2.184446528553962708e-02 -1.290046721696853638e-01 -2.929412424564361572e-01 1.000000000000000000e+00
-2.233796007931232452e-02 8.959764242172241211e-02 1.381877958774566650e-01 0.000000000000000000e+00
-5.105251446366310120e-03 -1.711277812719345093e-01 -2.806973457336425781e-01 0.000000000000000000e+00
1.401836518198251724e-02 -3.679380938410758972e-02 5.854665040969848633e-01 1.000000000000000000e+00
-1.890271715819835663e-02 1.925384700298309326e-01 -2.528336942195892334e-01 0.000000000000000000e+00
-1.919224299490451813e-02 -2.271611839532852173e-01 -2.042668908834457397e-01 0.000000000000000000e+00
1.792937517166137695e-02 1.148125603795051575e-01 1.389832198619842529e-01 1.000000000000000000e+00
-2.124006301164627075e-02 2.003575265407562256e-01 1.026079338043928146e-02 0.000000000000000000e+00
-1.844486035406589508e-02 6.204256787896156311e-03 -2.973516583442687988e-01 0.000000000000000000e+00
2.038196660578250885e-02 -2.168197631835937500e-01 -1.247994601726531982e-01 1.000000000000000000e+00
1.041819062083959579e-02 -1.926569640636444092e-01 -1.153079699724912643e-02 1.000000000000000000e+00
-2.034337446093559265e-02 -2.635598182678222656e-01 -7.316531985998153687e-02 0.000000000000000000e+00
-2.137381024658679962e-02 -1.903681457042694092e-01 4.017274826765060425e-02 0.000000000000000000e+00
8.108347654342651367e-03 -1.486701518297195435e-01 -2.574314773082733154e-01 0.000000000000000000e+00
-2.014738880097866058e-02 -2.501530945301055908e-01 -9.575986117124557495e-02 0.000000000000000000e+00
-1.249493472278118134e-02 -4.131003841757774353e-02 5.471029281616210938e-01 0.000000000000000000e+00
9.649222716689109802e-03 1.969640403985977173e-01 9.188462793827056885e-02 1.000000000000000000e+00
1.747544854879379272e-02 5.894767865538597107e-02 1.922573447227478027e-01 1.000000000000000000e+00
3.808220935752615333e-05 -1.771761626005172729e-01 -4.500892758369445801e-02 0.000000000000000000e+00
-1.410616561770439148e-02 2.697860002517700195e-01 -4.791633784770965576e-02 0.000000000000000000e+00
-7.261670194566249847e-03 -7.687492668628692627e-02 5.236717462539672852e-01 1.000000000000000000e+00
5.728201474994421005e-03 2.059558779001235962e-01 -2.685941057279706001e-03 1.000000000000000000e+00
7.189463824033737183e-03 2.146298587322235107e-01 -1.676825881004333496e-01 0.000000000000000000e+00
-2.116197161376476288e-02 -2.386720031499862671e-01 1.813579164445400238e-02 0.000000000000000000e+00
-2.186800539493560791e-02 2.011839747428894043e-01 8.099120110273361206e-02 0.000000000000000000e+00
2.123212255537509918e-02 1.996404528617858887e-01 -2.364195883274078369e-01 1.000000000000000000e+00
1.901690848171710968e-02 2.111944109201431274e-01 1.277017779648303986e-02 1.000000000000000000e+00
2.197407186031341553e-02 -3.422416001558303833e-02 -3.111461997032165527e-01 1.000000000000000000e+00
-9.402697905898094177e-03 7.612597942352294922e-02 1.941835731267929077e-01 0.000000000000000000e+00
1.976997032761573792e-02 -1.717567294836044312e-01 -5.754605308175086975e-02 1.000000000000000000e+00
1.964595541357994080e-02 2.478599846363067627e-01 -5.950858816504478455e-02 1.000000000000000000e+00
2.196899056434631348e-02 -6.562682241201400757e-02 -3.093809187412261963e-01 1.000000000000000000e+00
-4.861985798925161362e-03 -2.325567230582237244e-02 -3.137269020080566406e-01 0.000000000000000000e+00
8.023058995604515076e-03 3.781936690211296082e-02 -2.549035251140594482e-01 0.000000000000000000e+00
2.143861725926399231e-02 6.305046379566192627e-02 -2.545013129711151123e-01 1.000000000000000000e+00
2.083368226885795593e-02 1.954497098922729492e-01 -1.913609653711318970e-01 1.000000000000000000e+00
-2.087396197021007538e-02 2.219040244817733765e-01 6.907030194997787476e-02 0.000000000000000000e+00
1.540682278573513031e-02 3.256462514400482178e-02 4.263692796230316162e-01 1.000000000000000000e+00
8.032323792576789856e-03 -4.147144034504890442e-02 -2.529360651969909668e-01 1.000000000000000000e+00
-2.198282629251480103e-02 -5.734918266534805298e-02 1.037496775388717651e-01 0.000000000000000000e+00
2.121156081557273865e-02 -1.873557716608047485e-01 -2.194041013717651367e-01 1.000000000000000000e+00
7.463951595127582550e-03 1.577654629945755005e-01 -1.964544057846069336e-01 1.000000000000000000e+00
1.837287843227386475e-02 1.120616942644119263e-01 -2.710480988025665283e-01 1.000000000000000000e+00
1.848333328962326050e-02 -9.171254187822341919e-02 8.440274745225906372e-02 1.000000000000000000e+00
5.174055695533752441e-03 2.288889288902282715e-01 5.888876691460609436e-02 1.000000000000000000e+00
2.043053321540355682e-02 2.325278818607330322e-01 -1.473390161991119385e-01 1.000000000000000000e+00
1.296087447553873062e-02 1.307715326547622681e-01 -2.868152558803558350e-01 1.000000000000000000e+00
-2.227390184998512268e-02 1.251564025878906250e-01 1.296186298131942749e-01 0.000000000000000000e+00
-1.013285107910633087e-02 -2.738885581493377686e-01 -1.051919609308242798e-01 0.000000000000000000e+00
1.852768287062644958e-02 1.781590878963470459e-01 6.915491074323654175e-02 1.000000000000000000e+00
2.087742649018764496e-02 -2.322236597537994385e-01 -1.800468116998672485e-01 1.000000000000000000e+00
-5.009899381548166275e-03 -1.402470171451568604e-01 -2.926153242588043213e-01 0.000000000000000000e+00
1.764598675072193146e-02 8.230502158403396606e-02 1.721524298191070557e-01 1.000000000000000000e+00
-1.034973654896020889e-02 -1.406014338135719299e-02 3.043292164802551270e-01 0.000000000000000000e+00
1.484610978513956070e-02 3.180752694606781006e-02 4.895838797092437744e-01 1.000000000000000000e+00
-5.423285998404026031e-03 -3.366939723491668701e-02 -2.500794231891632080e-01 0.000000000000000000e+00
1.514087803661823273e-02 4.103876277804374695e-02 4.560162723064422607e-01 1.000000000000000000e+00
6.912420503795146942e-03 -2.018828094005584717e-01 -1.206433922052383423e-01 0.000000000000000000e+00
-8.208966813981533051e-03 -1.337818615138530731e-02 6.306351721286773682e-02 0.000000000000000000e+00
1.504614017903804779e-02 1.978060416877269745e-02 4.674995839595794678e-01 1.000000000000000000e+00
-7.940462790429592133e-03 2.044098079204559326e-01 2.453445270657539368e-02 0.000000000000000000e+00
-9.482791065238416195e-04 -5.053636431694030762e-02 -3.591918647289276123e-01 0.000000000000000000e+00
2.086557261645793915e-02 2.038301974534988403e-01 -1.952729523181915283e-01 1.000000000000000000e+00
-8.387932553887367249e-03 9.417832642793655396e-02 7.914573699235916138e-02 0.000000000000000000e+00
-5.349147599190473557e-03 -1.805364638566970825e-01 -2.528557777404785156e-01 0.000000000000000000e+00
-1.258851028978824615e-02 -5.800213664770126343e-02 5.582817792892456055e-01 0.000000000000000000e+00
-5.819768179208040237e-03 -1.116577759385108948e-01 -2.024384289979934692e-01 0.000000000000000000e+00
1.970543526113033295e-02 -1.856873184442520142e-01 -4.974459856748580933e-02 1.000000000000000000e+00
1.970233023166656494e-02 1.675236076116561890e-01 -6.281010806560516357e-02 1.000000000000000000e+00
2.183780260384082794e-02 -3.237507073208689690e-03 -2.969671487808227539e-01 1.000000000000000000e+00
3.059069626033306122e-03 -7.915062457323074341e-02 2.670038044452667236e-01 1.000000000000000000e+00
5.015312228351831436e-03 -7.827241718769073486e-02 8.844365924596786499e-02 1.000000000000000000e+00
-1.181564410217106342e-03 7.081360369920730591e-02 1.741234362125396729e-01 1.000000000000000000e+00
4.559844266623258591e-03 -1.039609163999557495e-01 1.407452225685119629e-01 1.000000000000000000e+00
-2.014502882957458496e-02 1.539136171340942383e-01 -1.113726273179054260e-01 0.000000000000000000e+00
-6.205509882420301437e-03 -1.917267441749572754e-01 -1.559287160634994507e-01 0.000000000000000000e+00
-2.149458602070808411e-02 -2.147996574640274048e-01 5.471066758036613464e-02 0.000000000000000000e+00
1.718542352318763733e-02 7.739434391260147095e-02 2.242390662431716919e-01 1.000000000000000000e+00
-2.142551727592945099e-02 1.754252016544342041e-01 3.210636228322982788e-02 0.000000000000000000e+00
1.529753115028142929e-02 -6.029014475643634796e-03 4.401509761810302734e-01 1.000000000000000000e+00
2.048319764435291290e-02 -1.048590429127216339e-02 -3.582457602024078369e-01 0.000000000000000000e+00
