-61.462267 -61.053360 110.232181
25.407730 -39.437236 87.845539
5.555121 -41.339116 96.266176
-44.364128 20.108459 126.804064
-42.343157 -105.344935 80.321297
36.505139 -111.672890 130.502250
-73.832935 -53.386915 77.210922
36.003628 -111.681961 106.559154
-3.677464 -65.479315 80.321297
-61.839452 -61.587872 97.144007
-19.251826 -71.637947 80.321297
58.410553 -90.835592 77.210922
23.704306 -79.115929 80.321297
1.953836 -54.165382 124.915676
-8.797200 -54.126948 117.392100
-9.069028 -37.663155 88.280695
-63.337586 -34.438846 80.321297
-37.134357 -22.882480 77.210922
-72.013402 -11.836132 80.321297
-46.878465 12.968604 134.139970
-16.325658 -7.323604 77.210922
55.788672 -61.311089 77.210922
15.918679 -6.498189 80.321297
4.359251 -39.532864 119.396245
-34.049284 -84.061351 80.321297
-43.829183 -33.245098 77.210922
41.282140 -109.720163 99.814207
16.613277 -24.118053 99.612570
0.846234 -11.799793 80.321297
66.585485 -69.854417 77.210922
-53.007795 -6.048172 80.321297
37.932238 -36.383256 94.496786
-37.444494 12.780615 133.986098
-49.291174 17.275382 114.203799
-29.523225 17.957380 94.039638
2.493378 -15.042852 129.694819
-16.670421 1.140790 111.089692
-68.212187 -24.719476 77.210922
48.882389 -103.696277 100.010668
-75.598536 -22.424449 80.321297
65.973358 -10.065292 81.715468
65.363074 -60.110964 80.321297
-0.054408 -36.392760 101.609224
31.171929 -93.570143 77.210922
44.324143 15.961543 82.202712
14.937865 -22.674788 119.628637
-43.698318 -43.810798 77.210922
-58.615538 -100.787249 116.618787
-31.863837 -38.375755 99.647922
-69.278464 -84.786760 102.656526
12.737779 9.829368 77.210922
21.184790 -33.743632 80.321297
45.339278 -3.669884 80.321297
61.656487 -14.850474 96.798573
-5.465069 -16.397127 110.762625
-38.629687 -44.586415 93.174100
-62.786772 -74.755692 140.421844
-80.890608 -44.783614 77.210922
-44.202305 20.111386 135.884919
39.809057 17.347255 77.210922
35.052372 -37.812173 106.449976
-4.885614 -15.417344 77.210922
-22.930831 -42.093160 140.421844
14.432255 27.064109 80.321297
50.633860 -24.173897 135.000403
-61.858139 -90.879017 92.891333
-9.698587 7.714087 87.297420
11.717462 -94.615618 94.220049
24.613176 -36.519112 120.797729
-63.582548 -51.670677 80.321297
-36.472448 -42.366680 94.074652
-3.977117 -81.594000 140.164967
-12.645002 -18.349644 140.421844
51.201195 -23.142853 80.321297
10.785133 -55.571044 80.321297
54.651312 -7.778317 77.210922
-13.007884 -48.312354 105.897450
34.111127 -104.696741 117.181091
20.224198 -100.230378 77.210922
-45.017846 -1.735284 80.321297
-60.245659 -87.440622 83.359124
8.620825 -108.479092 82.412366
20.836246 -28.973882 112.352891
28.865420 -102.484769 77.210922
-69.226297 -83.318360 99.380207
10.907649 -93.792342 106.267120
-27.904565 -44.767947 77.210922
8.340381 -32.080874 80.321297
20.510764 -63.038244 111.826204
9.737916 9.977313 77.210922
-64.391024 -94.357170 134.574258
17.114738 -38.293621 80.321297
29.970598 -48.948409 120.180274
-21.018275 -69.351810 137.522690
53.808871 4.636654 140.171639
14.138762 -78.861815 77.210922
-59.831865 5.610775 77.210922
-58.838489 -14.836105 80.321297
24.228056 -21.021269 80.321297
51.521221 -34.427851 110.961575
-3.317170 -75.217252 89.912036
44.768704 -40.292196 107.554415
58.614959 -23.919927 139.281401
-50.473640 12.345487 106.138376
1.745956 -28.303175 140.421844
39.625986 -22.584390 80.321297
6.029788 -81.903558 82.707594
2.965986 -105.640904 77.210922
24.087740 -5.821642 77.210922
-29.618154 -32.396074 87.691070
11.562305 -20.370602 126.862129
47.189525 -38.489861 98.825590
-23.022850 -16.033832 80.321297
37.174064 -104.737733 94.192528
42.925047 -46.377679 80.321297
44.428462 -107.402405 106.168045
44.844493 -44.784405 80.321297
-39.828275 -52.972648 140.210531
-18.461939 -67.731368 77.210922
22.531714 -22.517461 77.210922
30.341999 -108.710350 77.210922
46.478152 -57.101002 80.321297
-32.248377 -51.500794 124.134714
23.086916 -109.589795 140.261203
14.576616 -98.463156 80.321297
-13.313752 -45.945764 125.559764
-11.855770 6.170134 140.232267
-65.271429 -93.190473 87.032721
2.565581 -74.620012 102.477995
-56.327623 -55.161508 126.532217
-22.777993 -59.159605 77.210922
21.522532 -61.535860 117.823994
-9.095041 -30.470805 80.321297
16.982757 25.093108 80.321297
-16.010455 -39.281624 77.210922
-63.026122 -62.325958 77.210922
28.201783 -103.837544 120.445725
65.810703 -15.565876 80.321297
55.847517 -17.128249 77.210922
-36.486659 -42.381302 105.172989
16.143828 -67.843825 95.511668
-25.635819 -69.174349 80.321297
31.314183 -21.343512 80.321297
1.929955 -16.801662 84.633355
39.179159 -46.493373 87.189846
-76.818194 -20.021459 77.210922
-64.377422 -71.158078 140.421844
6.235463 -17.920752 130.902129
21.719642 -97.682269 80.321297
1.340805 -37.012339 107.133468
-1.084922 -93.039257 87.942781
9.868669 -92.595393 118.036757
-13.753585 -27.215776 77.210922
19.390608 -64.478008 113.231923
11.070024 -68.387161 140.421844
48.835949 -20.719075 77.210922
-45.243546 -89.691896 77.210922
-24.898127 -25.672693 135.423147
-68.322124 -66.483329 86.403622
46.323027 2.333381 80.321297
7.876298 -80.512882 77.210922
-36.231729 -73.759376 80.321297
3.422494 -65.740494 140.421844
-74.516540 -25.640497 80.321297
35.808642 -113.211006 80.629848
-44.530674 -88.987083 80.321297
4.814776 -76.205837 88.051227
55.335482 -1.810883 129.937798
24.995470 -58.924090 80.321297
45.163551 -29.832166 88.174852
16.979255 -67.078323 124.081105
8.968685 -70.746824 80.321297
-2.996141 -32.118759 77.210922
-37.067879 12.716262 106.261549
-1.040546 -10.645545 88.679843
-32.810920 -45.175529 103.981955
-13.567046 -3.125722 102.052052
-7.077518 -16.549672 122.063012
44.494882 -5.892526 77.210922
-56.322751 -90.308899 80.321297
53.490207 -31.718237 140.421844
-42.038782 20.150516 132.922569
-43.356499 -93.094838 80.321297
-19.265013 -9.329902 77.210922
-45.223965 -47.692956 133.248152
-32.830366 -17.827343 80.321297
18.237397 -25.743007 134.329886
28.749513 14.125801 80.321297
-19.033585 -80.076594 77.210922
-44.789215 20.100771 117.351172
36.449647 15.593344 77.210922
-42.120932 -87.043555 80.321297
-64.613648 -94.063358 138.941774
-0.817383 -15.413357 140.421844
-47.801826 -57.157450 133.175758
48.676353 -89.439731 77.210922
32.613500 -111.540212 116.575036
21.073044 -100.609513 88.989239
-25.745693 23.263121 77.210922
-52.796030 -52.221887 117.955127
13.457878 -69.831687 80.321297
36.807405 -44.571964 115.978096
53.686137 -38.181833 80.321297
-32.810811 -64.508552 77.210922
-26.338417 -100.748589 77.210922
-1.278288 -11.377379 97.526265
1.565359 -71.634975 80.321297
-12.866843 -17.177494 80.321297
-11.218000 -11.475120 86.186830
44.359452 -50.719342 77.210922
60.797066 -59.159520 77.210922
-51.423239 -106.983522 81.975376
10.681806 -22.983043 80.321297
4.686475 -32.047157 80.321297
-16.100170 -24.077792 80.321297
3.148925 3.401196 80.321297
32.098885 -111.508786 102.499610
-5.719110 -16.419981 113.264635
-53.218503 -46.924308 84.181327
-33.659161 26.090294 78.540805
-56.470429 -35.275052 77.210922
31.201762 -44.921739 80.321297
-1.711155 -86.999971 96.871031
-36.703149 -45.544219 80.321297
-27.933007 -30.982835 80.321297
39.217640 -43.520071 96.114644
33.309145 -104.629700 109.546895
-20.191614 4.732487 101.002711
-23.987871 -24.725429 92.674553
6.475867 -87.810429 127.882870
23.465764 -57.950683 139.879069
14.594142 -73.127619 80.321297
-32.754548 -47.679195 98.201339
55.236631 -32.189613 89.308704
22.305889 -65.946041 80.321297
20.044321 -77.312110 80.321297
46.794964 -12.929107 80.321297
-39.318744 18.434326 80.321297
-23.796015 15.508916 97.923179
18.665705 -26.205256 112.330190
-7.621259 -98.194850 80.321297
-12.709309 21.908044 77.210922
-37.823036 -37.891540 77.210922
44.375298 -40.557228 116.717506
21.960984 -30.709852 121.863993
-45.692211 -53.288484 80.321297
30.062125 -38.305774 108.393916
36.925759 13.839602 80.321297
-51.278506 -107.295417 79.303330
19.770386 -100.631448 130.227386
-57.251081 -58.983512 77.210922
4.369333 -96.843345 107.291097
28.606612 -42.724715 140.421844
1.713538 -16.766061 96.461832
57.007646 -26.986038 102.462431
51.277895 -101.198230 119.667495
-63.652377 -95.270711 97.506417
30.383496 -116.100897 78.659855
18.670758 -113.877963 82.557757
58.193221 2.124048 77.528382
19.103650 -64.818560 102.157791
22.111424 -30.952129 82.225158
-52.742171 -35.604515 80.321297
-6.284221 -79.351853 99.561704
-25.790397 -0.218370 77.210922
-46.480986 -48.305762 105.428929
-56.225633 -65.704597 91.451096
-14.535791 20.261602 80.321297
-19.476005 -70.431206 128.909336
-65.873473 -68.766583 95.299085
-49.369193 17.209342 134.607928
-10.000042 -38.340947 124.131908
57.823529 -23.308026 80.321297
-17.234428 -56.592197 140.421844
-60.146570 -74.662837 89.478040
26.075803 -44.376695 101.219869
16.861717 -67.187984 129.745963
7.162567 -107.682858 80.321297
-44.359641 -47.324715 114.435056
47.324920 -34.948464 80.321297
-7.608421 -54.734346 107.503648
-68.503304 -88.662283 107.692001
-49.151098 12.604128 103.852957
18.065522 -89.163006 80.321297
14.690025 -80.501999 80.321297
41.525259 11.326906 80.321297
-35.800439 -41.675200 131.450893
-39.738070 13.061103 126.492450
-40.400749 -8.413692 77.210922
-42.880918 -57.431531 77.210922
-61.234523 -76.594991 137.873280
31.661169 -38.685816 95.280676
46.280871 -15.957945 80.321297
-33.345444 -81.436046 80.321297
58.026703 -13.275134 140.421844
28.529715 -17.093218 80.321297
-16.520610 -52.886566 77.210922
53.740390 -17.511572 129.582779
5.875043 1.841795 77.210922
-29.569375 -32.296852 130.029548
3.999316 -74.282481 95.353738
27.627298 -8.901364 80.321297
31.610559 -8.894251 80.321297
-56.118280 -5.818073 77.210922
-53.514887 13.957549 113.079448
39.278030 -43.488491 119.431248
46.268410 -45.827845 82.717199
-3.132673 27.720414 80.321297
-20.999597 5.391582 139.074069
1.983232 -89.275187 77.210922
1.910367 -75.309619 80.321297
55.996913 -28.689763 116.807703
-54.826020 -53.847008 119.527197
-13.591059 -3.085950 95.332841
-47.825836 12.837230 117.861310
-80.937228 -52.787252 80.321297
21.618686 -92.748662 77.210922
47.864463 -23.056958 80.321297
21.055797 -101.296818 125.213370
-59.452827 -4.714189 77.210922
-1.780462 -35.984398 119.727432
30.147533 -111.247853 123.914674
32.565417 20.688490 80.321297
69.693680 -70.023781 77.210922
-21.815200 14.400356 96.207589
-48.176502 -57.430075 112.278659
52.387766 -78.473295 77.210922
5.294303 -50.707270 103.713052
-17.154629 -22.351487 140.421844
52.508084 -99.918792 80.321297
-66.341883 -91.796213 101.231708
39.613180 -102.215761 77.210922
29.287446 -35.439903 77.210922
33.336249 -2.851200 80.321297
-42.331631 20.145219 116.891817
-17.943713 5.825831 140.421844
-53.212210 -26.995921 77.210922
4.707969 -97.230182 137.287392
-30.171875 -76.215494 80.321297
-69.284064 -84.477103 96.845185
-33.518069 19.076150 130.365365
-12.230721 -12.778511 77.210922
8.792308 -67.606807 80.321297
50.711172 -4.033328 80.321297
25.276840 -38.896779 111.522884
27.550420 -67.957878 80.321297
59.679989 -21.437971 121.291086
22.631055 -31.912472 116.213476
-68.858976 -79.430286 123.161945
-21.200165 14.924500 77.210922
9.974979 -58.142906 77.210922
31.833728 -95.986214 80.321297
-6.714572 -75.042242 102.367427
-43.262441 -68.785191 77.210922
55.521833 -8.787197 96.558334
46.676850 -29.113553 90.569620
-68.853483 -79.391330 103.247047
-48.447587 -12.541038 77.210922
-47.481651 18.535585 107.770917
-0.810719 -75.106442 114.282518
-53.155378 -61.830654 115.375775
53.013732 6.806382 99.455114
19.727515 -89.288939 77.210922
17.657124 -66.414212 137.513174
-7.181532 -58.893176 77.210922
-10.145548 -75.599246 101.085772
-53.306751 14.125386 78.267342
-33.091089 -54.116380 127.059633
-55.782471 -26.810167 77.210922
-16.481562 -72.149133 129.789670
6.285888 -73.616462 108.806933
20.658874 -62.829119 139.191695
-72.843197 -30.605171 80.321297
-3.161632 -75.216403 127.713468
26.577333 -75.366707 80.321297
64.845219 -55.114566 77.210922
9.654235 -101.648643 77.210922
-14.686139 -1.416728 115.296989
-9.061868 -74.313102 77.210922
34.681849 -25.803374 77.210922
-25.408151 -26.218514 116.629142
-27.809425 -29.328986 102.391121
-43.676536 -38.065892 80.321297
13.940145 -1.156858 77.210922
-66.494923 -65.193606 80.321297
-30.186996 -88.111489 80.321297
-54.916477 -11.085181 77.210922
-64.423018 -55.279803 82.066639
-54.830053 8.050716 77.210922
66.133708 -81.201919 79.661636
52.917273 -32.827453 115.675685
55.428724 5.480746 116.061183
-48.456415 17.876945 132.557163
47.982542 -84.227016 77.210922
-31.919506 -5.737213 77.210922
-74.312932 -72.721855 80.321297
-59.726282 -58.818428 109.043856
13.597440 -5.692793 80.321297
-27.777834 -29.279933 105.278112
49.789256 -25.387018 80.321297
54.131892 -31.349526 132.563295
-14.916043 -57.372605 140.421844
58.405840 1.843458 124.449906
6.140702 -17.889262 109.699951
-9.589026 -16.981400 97.403411
45.165631 -104.380975 80.321297
-23.959896 -24.699508 100.322975
-1.173832 -99.157027 80.321297
52.198043 -40.194149 77.210922
28.627457 -38.967337 140.421844
-26.428020 -27.434695 124.534705
6.463568 -44.410780 119.171796
7.051302 -115.396974 77.210922
-44.031005 12.162416 87.381567
-65.767935 -92.556023 98.294783
39.436888 -102.648647 83.693513
35.697402 -98.991858 77.210922
-9.298625 -76.422321 119.595124
22.648535 -102.021020 96.682434
-27.219320 28.077833 80.321297
33.375525 -38.465490 102.382945
3.677121 -81.823708 117.767505
25.625062 -115.985376 77.210922
-16.122871 -90.320032 77.210922
23.672584 -24.609721 80.321297
1.521318 -92.982009 112.409239
-73.696877 -64.092784 77.210922
8.215138 -49.515028 77.210922
-28.700403 -85.371428 80.321297
33.880302 -45.630963 104.099287
-30.641537 -52.554372 140.421844
6.581333 -45.520956 137.309699
6.808392 -88.361171 117.971510
-70.558970 -71.998612 77.210922
4.881346 -108.609955 80.321297
34.220595 -45.516802 140.394272
-46.127387 -48.120851 93.251579
-61.503027 -85.961586 88.172798
70.396412 -70.389109 80.321297
-16.108333 -46.587815 77.210922
33.829456 -38.288634 113.922174
-68.570086 -88.554406 79.533975
47.626692 -104.769430 77.515718
12.981042 -42.419752 77.210922
36.506153 16.533889 80.321297
30.701291 -53.141509 77.210922
-10.596001 -56.303349 140.421844
-28.445728 -117.828019 77.210922
-37.680200 -16.670485 77.210922
-27.368296 17.140249 127.021756
47.828068 -54.473286 77.210922
-57.366945 -100.704373 86.935762
-64.592626 -66.103268 115.056952
-10.348276 -17.162313 108.295421
4.090473 17.061584 80.321297
5.139452 -17.556526 127.631617
-43.084757 -25.892307 80.321297
54.375169 2.768924 126.466900
28.522927 -50.438021 87.256847
-6.015042 -63.073627 77.210922
-58.009344 -83.459193 77.210922
-2.602807 -63.221493 80.321297
70.584356 -37.065749 80.321297
38.918702 19.711087 77.210922
25.933633 -42.789957 121.029575
11.997672 -51.645472 77.210922
4.156269 -83.053519 133.681531
16.582114 -67.443743 117.593810
-70.682326 -47.351723 77.210922
-21.354910 5.681421 128.336787
21.740745 -60.872040 140.421844
28.433963 -50.529561 115.367412
-42.736298 -75.868383 80.321297
8.853193 -15.856619 77.210922
-29.699676 -39.502503 77.210922
-11.765764 6.067317 103.146615
-31.655363 -53.956034 89.662923
-52.968432 -17.305627 77.210922
40.949195 -32.763994 85.872054
-10.175232 -38.468488 105.730546
62.017496 -23.786571 86.635855
1.302818 -74.862643 82.844671
28.186298 -39.326020 77.210922
-53.456102 -13.409306 80.321297
-18.638850 -24.163212 80.321297
-9.914652 20.169634 80.321297
-35.079694 -15.293432 77.210922
24.195445 -56.207077 124.197214
30.084469 -101.310166 80.321297
53.603701 7.488725 135.786890
-27.835580 -77.717606 80.321297
-20.638769 -41.309285 140.421844
-19.850282 -93.670556 80.321297
-38.595506 -14.563425 80.321297
-57.705844 -11.772574 80.321297
-31.881396 -38.445304 137.096932
17.254771 -119.104461 77.210922
0.598180 -12.338916 86.697861
-38.042827 12.882853 109.392471
-22.651234 -51.731846 77.210922
-10.345995 -10.318408 102.835751
-61.375536 -15.263597 80.321297
-41.619774 -86.915484 77.210922
4.182582 31.101391 77.210922
14.734110 -69.025357 97.143059
-8.471111 -77.226538 99.302285
1.860942 -37.245607 96.317774
44.751997 -107.147239 90.079773
18.371736 -106.813364 140.421844
24.336100 -109.973773 109.256200
11.374089 -103.487381 97.089774
-32.662623 -48.701050 118.622559
58.749859 -86.053934 80.321297
62.435679 -9.312761 99.732252
52.072095 -21.553415 110.236075
-47.846138 -57.189693 138.384302
-51.421204 -60.075315 134.633840
4.263294 -69.842028 80.321297
6.178689 -115.895568 80.321297
14.822690 -22.581608 93.222067
-34.122826 -72.368433 77.210922
28.049536 -51.550228 84.366566
25.741834 -41.176057 95.803360
58.655496 -52.630710 80.321297
43.357548 -108.224723 103.767151
4.947331 -84.911221 121.270006
34.746363 -50.391492 83.803221
58.711189 -29.857285 86.823148
-1.302877 -87.958268 108.133125
-46.863831 -62.269154 80.321297
13.060199 -95.917871 101.776137
-49.888523 -24.756311 80.321297
-21.897033 6.123646 99.726962
43.751537 -107.923601 112.603769
-18.416496 -30.736652 80.321297
-47.755429 -48.972220 121.185748
-20.452106 -87.498191 77.210922
29.397647 -111.142128 92.176318
-45.196846 -47.681402 128.076032
34.403408 -84.215648 80.321297
46.424156 -105.807977 121.242753
-76.335036 -22.563560 77.210922
-41.800163 -72.744938 80.321297
-31.162041 18.461122 138.298595
-69.233763 -87.258380 111.200571
12.497077 -109.270576 80.321297
-0.713027 -66.495290 140.421844
-49.087488 15.902830 140.421844
3.998432 -79.640649 115.423883
61.238933 -16.725279 116.935759
38.420528 -78.259401 80.321297
43.832061 -75.113171 77.210922
-25.402291 -26.211526 106.633974
-6.757715 -55.112124 138.036154
6.485293 -73.547616 92.483737
-57.797691 10.091386 113.466145
-46.688881 -48.414479 112.228374
-12.216767 -50.367369 133.049706
-33.879949 -53.928894 103.326423
56.380910 0.701663 77.210922
20.410974 -35.387081 140.421844
-41.466622 3.320896 77.210922
8.141241 -90.373644 139.294705
-9.546674 11.821691 82.591459
-65.877949 -92.400544 120.751852
25.360939 -37.474364 140.421844
29.001153 -26.983418 77.210922
-35.388438 -3.472508 77.210922
35.545801 -20.280555 77.210922
-6.019488 -16.447003 85.762321
19.379740 -91.825773 77.210922
33.351966 -45.808208 133.462213
-65.228471 -20.822006 77.210922
-5.291417 -2.807653 80.321297
-27.892608 -110.533413 80.321297
-1.475223 -55.541874 129.113581
43.195874 -104.012773 133.035642
58.604874 -23.940470 120.259240
56.036244 4.771969 113.126711
-61.558745 -77.838399 121.924721
61.489908 -20.878421 89.163354
33.450352 -104.641504 135.205344
3.357783 -38.455339 122.583256
33.807445 -86.912999 80.321297
-8.675236 2.122085 99.257614
-17.660705 -35.329997 80.321297
-5.018315 -16.356937 134.515617
5.400982 -98.021838 93.743413
-63.636806 -94.940026 77.210922
26.414189 -103.371425 131.524204
-32.808875 -45.549555 132.441193
48.034167 -92.013016 77.210922
-65.985365 -69.048944 109.388015
58.065367 -93.802478 82.499400
13.284155 -96.126934 113.796787
-44.873292 -47.380593 80.321297
72.702396 -42.776297 80.321297
17.560296 -25.019342 122.149212
21.045183 -32.744930 77.210922
-50.886660 -52.346389 80.321297
24.393558 -35.873073 131.222090
-23.695794 -67.084875 90.386779
22.745013 -102.064887 110.674346
29.272722 -104.077178 134.488308
30.987216 -111.366237 120.733093
2.664724 -94.637588 93.733309
62.213266 -11.556713 91.880053
22.649793 -27.259654 80.321297
-3.226392 -55.727632 137.938908
-37.132089 19.740648 127.600687
-37.138334 -115.351805 77.210922
30.327704 -10.930154 77.210922
55.608249 -7.118188 115.969109
24.631841 -87.208633 80.321297
6.646225 16.021197 77.210922
-43.829863 -54.735224 105.197952
-2.194725 -29.209604 140.421844
26.380040 -110.527903 102.745659
-67.519182 -48.954822 77.210922
-41.092197 -40.054734 82.276229
-13.457786 -61.294353 80.321297
-52.821704 -61.486608 98.878181
-0.312609 -1.964975 77.210922
61.784580 -14.275340 118.359101
7.748045 -73.062444 90.289403
50.844035 -94.682528 80.321297
20.522389 -28.531636 126.018023
-25.324776 -2.245177 80.321297
17.501564 -107.263818 97.786544
35.014580 -73.094184 80.321297
26.437750 -5.844377 80.321297
51.009707 -34.952560 124.176013
48.862018 -26.822446 115.972653
-55.358173 -7.957791 80.321297
-43.820470 -55.026059 90.469576
22.785366 -109.497104 98.966701
62.065315 -19.527218 77.210922
42.805303 -50.527217 80.321297
-9.495430 3.236693 132.051323
25.646707 -50.829810 84.317421
-9.287717 2.957701 121.438833
-11.421445 -17.445760 120.528772
46.649558 -66.697205 77.210922
-43.266246 -29.901442 77.210922
25.794562 -109.529526 80.321297
-2.327674 -14.211641 77.210922
-11.317331 -14.405359 85.789904
-16.759758 -18.633245 77.210922
29.939993 -20.533776 77.210922
44.536344 -103.680096 97.054174
54.740843 -30.486573 115.545677
-17.153829 -71.805716 97.418363
-25.746752 -36.073126 77.210922
41.406244 -48.829832 82.267134
-15.538801 -0.244890 112.872918
-16.414971 -57.053005 77.210922
55.540366 -66.320786 80.321297
-61.506818 -77.639255 106.515165
-31.701477 -7.515534 80.321297
-68.806216 -79.056080 130.952437
-8.019630 -100.911154 80.321297
40.617985 -108.780973 77.210922
-5.683125 -79.936026 105.426858
-26.530456 -10.937840 77.210922
0.462808 -74.981151 117.168199
-31.305430 -36.451557 96.005685
-27.273562 -62.964786 81.159684
-3.618272 -8.186253 117.053579
6.493260 -44.690686 94.559470
-48.251052 -57.484320 125.707221
0.625153 -74.961742 98.093759
31.555538 -47.317551 103.906075
-38.892192 -103.308800 77.210922
63.493323 -66.078033 77.210922
-0.624032 -57.564291 140.421844
-51.419004 -61.274014 88.052482
-44.620637 20.416365 84.093934
54.490250 2.336237 95.211199
-25.143678 20.246020 80.321297
10.087903 -102.471624 114.023075
55.499451 -78.425538 80.321297
47.001387 -62.162397 77.210922
-10.933971 -16.351698 140.421844
-37.501054 -43.425084 128.595885
-61.095414 -76.061499 124.242417
-14.837325 -72.900356 115.720390
-18.880024 -51.295453 77.210922
15.472654 -55.938302 140.421844
-74.191876 -13.142209 78.016615
-3.311701 -20.135033 80.321297
-69.239153 -86.960398 138.813791
3.336238 -38.437927 84.402296
-43.579827 -45.248284 80.321297
-32.870328 -88.023886 77.210922
22.151124 -66.284165 77.210922
28.241665 -57.978363 77.210922
-42.615477 13.196950 96.254454
17.847605 -60.484915 80.321297
-69.097865 -81.215189 116.071944
56.389331 -20.450114 140.421844
-15.763126 -4.603527 80.755133
16.720250 -62.578239 80.321297
-17.814984 11.743532 93.745789
-10.658839 -82.246428 80.321297
-60.726175 -80.680471 86.260522
-49.769346 -58.641460 102.130764
5.637441 -98.291954 134.614748
-14.928327 -114.790210 77.210922
-16.048187 -64.827242 80.321297
-61.841899 -79.428371 103.597359
62.076205 -12.528848 103.040548
23.884972 -34.559363 109.648704
23.711014 26.119081 80.321297
5.424319 -13.486062 80.321297
-22.266954 -23.184022 101.948977
-34.470936 12.874899 80.321297
-18.333125 -111.526213 77.210922
-64.174534 -94.616355 101.403952
-49.888805 -58.745154 104.663033
-8.363200 -116.037247 77.210922
-1.352121 -75.155145 100.091760
-12.331408 15.186784 81.653037
-42.262485 -57.284526 80.321297
-19.631047 -70.331354 98.103504
-21.450197 5.759149 104.926430
43.590176 -45.712264 85.129482
-41.843224 13.198832 119.063769
1.871624 -68.141896 77.210922
-26.296977 -37.842441 140.421844
49.073397 -74.884709 77.210922
6.068717 -87.136091 101.871073
17.042102 -106.651060 77.210922
-9.159754 2.785827 116.904732
13.971040 -100.091082 77.210922
-62.136909 -4.346288 77.210922
-60.172119 -97.182576 96.127168
3.681299 -52.829898 114.884421
-5.976795 -8.637073 140.421844
57.205411 -43.942037 77.210922
-29.435071 -59.484976 91.705474
65.867573 -56.531533 80.321297
-29.129393 -102.259359 77.210922
-17.414299 1.997766 129.405125
-13.120622 -47.766410 123.163335
23.034060 -71.423376 77.210922
-42.703483 17.058757 80.321297
61.821097 -14.111382 93.965552
26.078451 -44.861186 109.545662
54.531156 2.182435 113.071852
-39.441565 -44.003170 80.321297
10.998380 -21.691229 77.210922
-18.175227 -20.294784 83.332537
60.471589 -0.964695 99.704670
3.577628 -16.096575 109.465238
12.527915 -20.968538 129.568629
-38.003532 -112.926495 77.210922
-23.127668 -106.482297 80.321297
36.120044 -37.293752 103.852219
-61.948920 -80.054694 118.980186
-21.643072 -78.651033 77.210922
1.302635 -97.667524 80.321297
-28.459424 -110.685897 77.210922
-59.068188 -76.840482 82.759869
-46.357659 19.299262 90.939890
17.590372 -86.469980 80.321297
17.378006 -99.216963 107.702123
-21.285770 -7.476140 77.210922
-1.905583 -86.543618 136.428219
46.623670 -13.664836 77.210922
-6.137199 -79.494736 127.008347
-22.292438 -77.276356 80.321297
-21.686436 -68.848715 115.914098
-14.422735 -73.080905 91.923323
-27.194692 9.481509 129.566162
-44.120924 -47.223011 118.106180
-36.062782 -39.668812 80.321297
-28.603157 10.127176 135.314333
-28.900474 -60.471988 99.969227
-34.420458 -53.800432 97.124729
19.144925 13.715708 80.321297
50.253497 -101.670052 129.224630
-30.456242 -109.318640 80.321297
13.131374 -122.008619 77.678668
-69.244560 -83.617438 104.765193
55.559896 -4.305833 130.952917
-5.575072 -80.041035 90.550506
14.186709 -105.407813 108.802304
18.070862 -99.865482 80.321297
38.975740 -43.646571 139.294909
-11.542826 14.028064 77.210922
11.331938 -98.970129 80.321297
59.451702 -26.580588 80.321297
36.806608 -97.020494 80.321297
26.432929 -117.541059 80.505854
-27.027533 -28.231929 99.910530
56.050350 -89.450672 77.210922
14.078485 -69.508298 94.243274
39.455792 -68.890789 80.321297
50.776919 -26.038017 140.421844
60.488059 -24.284062 80.321297
-2.414120 -55.711808 77.210922
45.419471 -103.445215 115.551216
55.604935 -5.757676 91.629569
55.286294 -39.224002 77.210922
21.773621 -57.544721 77.210922
-15.752551 10.779509 90.646329
-3.965191 -55.713540 101.400522
65.195558 -35.063968 77.210922
-3.387083 -82.519678 112.275414
-41.455539 -110.618956 80.321297
47.902734 8.378211 80.321297
-55.753979 -82.574445 80.321297
18.227503 -25.731773 103.806636
16.699342 -59.603025 140.421844
20.306158 -28.230419 97.241182
49.287911 -79.391185 80.321297
-20.289433 -25.763879 80.321297
-69.981702 -78.831622 77.210922
51.512709 -22.612210 95.683911
17.314213 -107.171841 120.627422
-3.293144 -3.983054 77.210922
71.547731 -51.930632 80.321297
72.698081 -63.000322 78.018889
-24.046440 -66.751164 107.469616
49.745365 -22.810487 85.712317
-25.632244 23.695711 80.321297
23.220099 -109.630733 120.073942
42.539968 -44.617735 87.494730
-55.741763 -65.485805 77.210922
65.724514 -62.590255 80.321297
-23.081750 6.977265 110.692202
-23.537137 -67.235873 126.137610
71.366920 -64.943853 80.321297
51.473755 -7.199765 77.210922
3.245712 -74.481526 112.403320
17.093145 -107.063312 135.483219
-32.809674 -45.403355 134.980370
14.343577 -61.700084 77.210922
15.598067 -116.183237 77.210922
0.371951 -9.897351 86.154371
13.926443 -63.888660 140.421844
-31.511299 -37.071044 103.975221
9.536568 -121.013553 77.210922
49.028243 -92.014589 80.321297
61.282810 -2.150368 97.693820
-66.019519 0.663155 79.026731
-40.536314 -53.248508 121.553181
62.899781 -50.418054 77.210922
9.446932 23.661340 77.210922
-30.287019 18.192157 135.875853
3.753121 -110.417916 77.210922
42.425905 -108.919284 133.729430
-15.841487 -19.092443 114.545012
26.537568 -74.444398 77.210922
21.550035 -112.063302 86.989045
34.650110 -51.266328 80.321297
37.224076 -107.045847 140.421844
-21.628712 -55.634374 80.321297
-41.194220 -61.243170 80.321297
19.194054 -108.094716 91.580712
-25.229030 8.375322 95.028326
-22.298501 -23.204625 124.414270
-40.323501 -70.293171 80.321297
26.148759 -31.680829 77.210922
-9.558152 -56.850850 77.210922
-69.253556 -83.764749 138.404936
-45.369862 -21.053688 77.210922
-44.040100 -42.599258 80.321297
-21.357287 -49.044989 77.210922
-10.134929 21.159469 77.210922
60.380914 -19.566290 115.417885
-20.072016 13.336229 102.825325
44.387848 -31.736922 116.950386
-49.465321 -44.975200 80.321297
54.643150 -14.200003 91.308621
-24.622125 15.914479 120.139131
-5.867815 32.080721 80.321297
-8.396682 -34.258406 140.421844
49.832680 -102.813318 112.110141
-55.509067 -68.510209 82.782263
-52.724369 -97.368322 80.321297
-11.799689 -51.027267 114.752116
2.040460 -37.390692 89.153358
-76.960876 -19.994245 79.882502
24.855484 -37.301468 128.094369
31.013062 -62.449151 77.210922
-69.224146 -83.283131 113.668249
-75.750019 -74.765972 79.562285
-24.903993 -65.863109 116.882327
33.272591 -104.626645 121.010319
48.451310 -102.436846 105.864708
-45.970337 -55.953935 119.007399
-6.634907 -79.011041 96.859921
3.005544 -14.588647 80.321297
-47.585190 -98.126745 80.321297
-48.080260 -49.142088 101.939618
-42.604154 -103.717362 77.210922
42.129023 -41.968365 103.281512
-13.225031 -44.669066 117.673749
-45.777658 19.675591 77.941254
15.189073 -27.810781 77.210922
-68.258963 -76.146765 136.614411
-56.238066 -55.083110 110.577776
-44.815902 -51.443472 77.210922
-39.452263 -52.826150 97.787712
45.618513 -80.034975 77.210922
32.954752 -62.787288 80.321297
-1.952478 -98.542901 77.210922
2.219839 -37.535665 134.501390
-39.304759 13.024881 117.653970
-40.973687 -53.418913 132.183912
14.772371 -75.568379 77.210922
2.120895 -16.830649 140.421844
-11.547940 -15.375660 88.408455
8.300487 -90.592500 118.269257
-11.346550 -51.649697 78.622221
-42.744391 -54.201000 138.091489
-50.701851 16.204675 124.148763
-56.051883 10.552569 111.160281
-75.553817 -55.986237 80.321297
-1.935914 -69.270771 140.421844
6.266254 -48.364995 109.589090
-41.077568 -46.071641 127.211412
22.031899 -60.703646 111.187365
-43.678099 -67.521362 80.321297
43.865332 -40.110627 140.421844
10.471813 -41.665151 77.210922
-9.519858 -62.894754 77.210922
-2.992949 -16.324394 136.115004
-40.968104 -113.873777 77.210922
61.808132 -14.169593 109.624065
-50.235687 10.102708 77.210922
4.272781 -96.733051 121.629814
58.968167 -23.200463 124.289631
50.841484 -101.858182 104.386882
-55.433121 -59.735899 140.421844
51.070258 -23.398431 101.343653
-62.327984 -86.270402 116.568938
3.897140 -82.388423 110.121591
17.576256 -99.352134 104.402877
-7.356398 0.022732 138.823311
-19.022666 -41.087138 80.321297
55.845667 -64.205401 77.210922
41.156700 -33.056200 77.210922
63.481128 -63.869869 80.321297
-29.844354 -86.545663 77.210922
-11.383280 -115.167349 77.210922
53.649487 1.222566 77.210922
4.227900 -52.153570 131.261538
-30.294126 -57.710379 132.017948
-29.647052 26.824939 80.321297
0.213520 -75.010954 103.586105
-0.784051 -72.903121 80.321297
-9.238925 -96.146495 80.321297
48.281355 0.850310 77.210922
-35.992995 12.532596 111.345162
19.344360 -39.995157 80.321297
46.059301 -41.136140 89.219459
-3.153625 -23.886899 140.421844
19.024383 -26.626999 91.688102
-57.785826 -56.763918 140.421844
-32.733430 15.298613 80.321297
29.738680 -111.190209 99.402829
-5.558488 -80.057154 118.283881
22.534828 -48.978828 80.321297
-41.952054 13.198566 116.443878
4.916004 -82.738144 88.191419
-1.839751 9.636479 77.210922
-7.143447 -78.516820 117.311978
4.550905 -77.316087 123.476828
48.243738 -27.592238 124.913348
-3.575787 -55.764695 95.433800
-3.539672 -82.064839 97.999617
6.820421 -88.381094 111.708790
-7.077210 -36.578410 85.838089
-10.840367 -52.344989 96.622546
18.353969 -65.686016 96.216688
-53.474966 -19.997402 80.321297
-23.898734 -24.642837 118.118667
-23.330923 -116.380595 77.210922
30.287686 -38.359383 101.569650
-14.328450 -66.978250 80.321297
-52.691174 -45.104454 82.120118
62.158226 -69.648505 77.210922
42.428098 -77.063789 80.321297
55.298705 -87.101763 80.321297
-13.038695 7.485788 125.551959
-68.876881 -14.374168 77.210922
3.660567 -16.177179 120.099315
49.742933 -102.913312 85.057352
25.256850 -53.798719 121.143886
-78.779369 -47.301121 80.321297
44.984792 -106.968055 84.897923
-65.782662 -53.463223 77.210922
0.661162 -16.592944 93.122913
-40.596474 -35.679680 80.321297
2.386810 -61.740924 140.421844
-0.475187 -12.157868 137.499719
-63.945566 -59.962679 77.210922
61.064034 -19.874869 80.321297
-67.664252 -70.035485 89.616459
4.255355 -78.559632 90.792617
-68.568160 -77.535057 120.942347
-58.816426 -74.737241 84.307054
32.672605 -21.027452 77.210922
3.301364 -105.391565 80.765097
-49.993412 4.631684 80.321297
-46.748930 -30.776612 80.321297
-7.637809 -72.728183 140.421844
-36.074863 -107.401761 80.321297
-38.510878 18.246739 140.421844
29.421382 -33.329848 80.321297
-11.028665 5.225302 100.982861
65.749618 -18.226978 80.321297
8.403289 -101.065995 108.967096
40.084806 -6.083301 80.321297
52.236680 -21.191441 102.138745
-41.167182 -20.691218 80.321297
-1.603071 -87.253662 131.742592
-75.723061 -48.229394 80.321297
19.661583 28.590275 77.210922
-39.518190 9.009606 77.210922
-0.644709 -36.163164 133.282841
29.484612 -56.309708 80.321297
10.137715 -92.905346 121.297418
-27.743618 17.288980 114.723459
0.954780 -13.547574 92.100338
-10.850400 -122.817662 80.321297
38.918948 -38.193470 140.421844
47.038734 -105.287464 85.528736
-13.075229 -67.503767 77.210922
24.511444 -55.302264 106.218383
-10.648117 -11.589601 117.950809
-32.247347 -51.506153 100.368344
-39.228714 -45.202795 138.520070
5.150796 -51.011641 96.634755
-3.290744 -9.162553 132.644985
-39.491155 -72.066096 77.210922
25.844791 -41.927917 84.707471
39.469049 -83.553840 80.321297
6.919487 -97.764575 140.421844
-17.695352 2.321551 108.277914
43.887103 -103.852771 119.097467
57.218438 -71.118770 77.210922
-39.401794 15.560374 77.210922
63.300073 -15.848062 88.612115
2.633750 -94.595987 107.672929
11.855991 -94.749970 103.461926
14.414118 -106.229551 90.601095
38.925572 -35.783504 114.906775
-38.823354 -56.956225 77.210922
-1.459869 -79.268271 140.421844
41.317580 -25.758429 77.210922
51.062916 -23.411477 119.882239
-49.001499 -51.618309 140.421844
33.161268 -38.548967 107.802449
-2.954016 31.413704 80.321297
-1.125299 -11.526061 122.696404
47.740738 -36.856902 77.210922
-55.213581 -49.036175 80.321297
-12.453033 5.572792 80.321297
-4.190547 4.736409 83.155018
-6.662508 5.804553 80.321297
-46.581831 19.148760 101.080960
23.593093 -45.228123 77.210922
6.079391 -42.700962 111.025239
13.685293 -114.175030 80.321297
-29.510153 10.539578 123.201739
34.416827 -94.548447 77.210922
27.298357 -37.648916 88.574041
29.210937 -114.427871 80.321297
4.790235 -76.309093 92.647500
-5.345021 -96.806571 80.321297
-17.261150 1.821332 101.894389
4.348207 -17.349537 122.379462
26.557723 -100.751421 81.257039
62.104563 -3.372924 132.760181
-0.255398 -75.056487 91.950746
36.687892 -37.899549 80.321297
-53.221608 -32.840598 80.321297
43.962353 -107.762926 116.024715
-54.935045 -54.365840 77.210922
20.248135 -28.148886 122.343923
-48.075295 7.287171 77.210922
-11.013159 -52.107642 140.300262
9.000278 -19.038693 89.708039
-12.711790 -8.874729 84.048934
12.329238 -87.734876 77.210922
-51.407252 -60.063204 131.373447
34.588648 -5.675593 80.321297
-27.662232 -29.100436 112.131846
-23.893796 -44.770246 77.210922
-35.301907 -41.162226 97.699625
55.551245 -4.208087 94.080192
-19.999863 13.285313 124.676053
-33.251216 -82.645523 77.210922
47.061524 -48.501905 80.321297
59.999609 -0.277103 96.570456
53.661436 2.805006 88.772370
-1.225094 -55.515341 114.154666
-17.644698 -20.004471 115.870435
-61.971721 -80.188131 137.974916
24.584003 -55.083921 136.800203
-2.315425 -93.734778 80.321297
13.454469 -45.986066 140.421844
18.436356 11.411671 77.210922
20.316944 -108.554532 140.124990
-61.039929 -60.454861 114.346677
28.913492 -51.470956 77.210922
66.870062 -16.534850 82.728290
34.169466 16.803559 80.321297
52.171305 8.635423 94.789102
-10.337984 -10.284703 107.018412
-42.858126 -11.664320 80.321297
40.833181 -24.871417 80.321297
-60.468425 -91.552379 86.428826
34.189202 -50.199903 77.210922
-19.402362 -70.444072 77.210922
-44.947505 -55.336374 110.554565
-17.995406 12.794706 80.321297
58.276251 2.016668 120.206789
29.429404 -49.505281 110.358196
-21.162210 -69.245760 131.903738
-23.816909 -35.709147 140.421844
64.527246 -41.024721 80.321297
58.202730 -58.721407 77.210922
-32.714327 -43.279005 133.456044
3.542852 -95.817053 110.989067
-46.582917 -18.414326 80.321297
25.841659 -110.407996 120.504506
37.768084 -44.162670 98.763049
-37.226305 19.753932 94.471345
-50.544694 -50.638128 135.445487
-30.930343 -56.150754 119.048412
54.199269 6.875459 93.196996
-2.749444 -35.831882 124.449277
27.760542 -29.287204 80.321297
-7.481481 -74.935163 129.487432
5.602859 -27.576936 77.210922
52.170978 -86.184027 80.321297
-2.838642 -11.297613 77.210922
-26.277637 -60.804347 80.321297
27.325897 -49.315030 77.210922
55.342535 -10.799547 123.068592
12.867554 -104.541259 132.811172
50.318095 -101.640299 133.878386
20.307548 -108.550808 97.602190
-7.839505 -74.876268 104.886037
24.943087 -37.633144 100.511217
-25.555133 3.523034 77.210922
50.394238 -51.660792 77.210922
44.006433 3.389446 77.210922
-27.340310 -28.656439 97.312404
-64.285022 -65.490268 120.360140
54.105795 -70.489915 80.321297
30.644343 -104.311551 128.825201
-21.962939 4.836806 87.318871
26.497929 16.955562 77.210922
19.307150 -64.579626 124.451108
14.921024 1.578980 77.210922
-45.310234 8.491742 77.210922
-6.648999 -68.820739 77.210922
7.118933 -18.236685 102.314600
1.719354 -99.997000 84.989569
14.166720 -97.004660 77.210922
-3.079202 23.777352 77.210922
54.727420 -7.302333 87.945186
-17.185429 1.734099 126.714452
-45.004120 -55.370557 102.192792
11.719130 -116.260773 80.321297
7.529910 -100.214580 133.798280
29.747436 -49.178036 138.799834
15.569851 -68.338304 105.288357
43.049424 -2.319884 80.321297
38.200066 -36.221548 138.092382
-12.999005 -41.065807 140.421844
-22.625402 -23.473075 131.442449
-60.708097 -26.388036 80.321297
-31.748833 11.375370 103.447158
73.782708 -34.403296 77.668895
66.449933 -27.908714 80.321297
51.987096 8.864482 77.210922
-58.399453 9.513210 117.454160
-26.200292 -29.873680 140.421844
-57.495976 -67.615028 91.921252
-41.692749 -34.915249 77.210922
-32.802060 -46.796226 108.245617
24.932153 -111.886784 80.321297
-51.088177 15.908077 136.695745
-22.091945 -62.795059 77.210922
6.716701 -87.866366 90.828881
22.231728 -101.831502 113.259730
-61.226038 -76.562451 109.840386
20.898329 -117.612905 77.210922
-41.764912 -49.211052 140.421844
38.809184 -68.774579 77.210922
44.270362 -31.838903 114.329479
-36.643485 -42.542672 91.497171
59.215291 0.782991 103.724381
52.880122 7.096470 96.665318
10.040538 29.151662 80.321297
57.744462 -10.015015 77.210922
9.933245 -105.592648 77.210922
69.788773 -72.874432 79.850939
69.013447 -20.645753 77.210922
24.496101 -55.348432 96.029442
-78.566802 -48.922085 77.210922
-61.309477 -64.792482 77.210922
-31.277197 -21.149936 80.321297
18.678922 -26.219519 97.880715
-7.427743 26.223766 80.321297
-29.720542 21.146306 77.210922
0.518991 -72.271598 77.210922
-44.063982 -44.273080 87.193604
-3.776156 -31.301034 140.421844
-14.493240 -119.635882 80.321297
62.608273 -53.398685 77.210922
-35.710150 -6.660569 80.321297
19.829235 -63.950331 117.590453
-0.788505 -88.966937 119.662606
29.142501 -49.800497 131.929233
5.454373 -50.346813 85.530775
18.151989 -1.045325 77.210922
-35.090175 10.027936 82.507590
53.903872 7.182101 117.337143
-44.416197 20.107517 109.813314
16.728381 -67.398474 80.321297
-56.145906 10.509263 104.100307
-27.545711 -28.935215 85.442329
-47.324911 3.606541 80.321297
-6.826470 -81.862000 80.321297
4.789953 -17.461061 87.178514
40.028519 -12.004282 80.321297
-26.069256 -27.006874 80.823983
61.238501 -16.727216 104.966233
-22.064574 14.548296 104.257760
7.189699 -29.846466 77.210922
-16.084632 -13.693220 80.321297
-24.186445 -24.924900 89.822728
13.374984 -70.009800 109.326301
-21.368532 -69.093742 111.995494
-46.416056 -7.952050 80.321297
-4.295753 -75.222598 93.477971
49.602712 -5.528224 77.210922
73.474426 -34.964092 80.321297
-28.932706 -18.274689 80.321297
71.468815 -53.263934 77.210922
-61.384328 -97.884024 83.173397
16.100226 -67.895225 135.833838
-11.666432 -6.663980 91.517300
-33.926892 -111.443594 77.210922
-28.667837 -60.864079 126.997126
26.726595 -40.489589 140.421844
-10.495618 -19.196515 140.421844
60.517244 -1.018553 124.217917
2.487241 -94.399201 138.533014
-57.561872 -21.414549 80.321297
70.888732 -32.936847 77.210922
-29.757459 -32.692324 80.885253
61.188345 -56.508996 80.321297
-44.874990 13.145918 105.958951
-53.584615 -63.005305 77.210922
-14.246863 -2.089395 80.321297
4.682193 -97.200738 97.357262
-9.383660 -68.393554 77.210922
-67.784621 -89.722039 104.779232
-13.052170 -43.570821 98.330738
-35.984551 -41.864646 121.424141
23.324993 -58.231814 87.487912
2.147077 -8.527498 82.802811
58.497061 -66.169072 80.321297
-13.588173 -76.673371 77.210922
50.336272 -32.049779 140.421844
-7.652017 -83.453545 77.210922
-26.833525 -23.245484 77.210922
-28.227046 -61.566250 95.865409
25.747439 -16.134235 80.321297
62.614148 -4.206502 79.737205
14.298619 -94.181779 82.957427
-13.272054 -34.369577 77.210922
26.513893 12.208230 80.321297
-48.578912 -93.834801 80.321297
6.600844 -45.704880 122.312179
8.956038 -44.426850 77.210922
-32.802652 -46.687946 140.293543
17.279820 -9.923103 77.210922
-48.466334 12.724572 98.973724
25.775902 26.588343 78.740059
1.388551 -37.033542 116.091309
-14.863517 -20.095448 140.421844
6.543255 -73.525114 104.582602
23.333656 -107.715838 80.321297
-11.799137 30.058400 80.321297
56.835573 -48.474993 80.321297
-29.513110 -59.339762 111.363615
-37.493265 -101.108932 80.321297
-39.157217 -63.869864 77.210922
37.011048 -110.142483 80.321297
43.335534 -108.225819 77.389264
-48.261557 -0.033044 77.210922
-9.184130 -16.903601 138.419490
-53.711265 -52.903292 137.662130
24.311351 18.354251 77.210922
-2.464579 -85.231562 138.395125
12.238152 -104.097116 99.326009
-16.798130 -8.478624 80.321297
19.116743 -18.500190 80.321297
-13.339917 -38.531383 140.421844
-14.828921 -72.899503 96.853371
-15.442239 9.788797 110.780657
45.227121 -43.110844 87.332304
40.382783 -34.892023 136.834330
-17.753935 -62.961395 77.210922
13.563507 -96.354809 95.519434
-24.925568 16.063448 110.267221
-9.644403 -74.554901 131.059528
39.464318 -78.893682 77.210922
55.022336 -4.988043 89.200687
-13.394160 7.832315 119.471596
-45.541256 -36.334364 80.321297
-11.155012 -7.785807 129.612370
-56.490884 -55.316231 118.283685
22.198419 -31.112907 91.951112
21.552117 -30.055969 109.881229
21.575977 3.220917 80.321297
-8.249293 -86.758861 77.210922
-69.918133 -86.433775 89.573377
-39.745043 -106.078464 80.321297
61.759112 -9.841734 77.210922
17.663638 -9.144550 80.321297
30.461220 -104.280260 114.349115
-4.153315 -55.683930 93.052920
35.378832 -10.470956 77.210922
-9.240022 -76.479276 103.344815
-16.521436 -27.738594 77.210922
23.615742 -33.936554 118.386615
12.519310 -70.590943 96.469416
-4.491787 -5.767487 101.343136
-27.289235 -116.866564 80.321297
-34.141074 22.921907 85.707884
17.165813 -99.072285 114.474587
28.381861 -50.583173 95.529358
-49.639737 17.006717 128.603923
-6.203960 -77.784889 77.210922
-39.771605 -49.858608 80.321297
36.244997 -111.677595 110.570083
24.452315 -36.033087 89.597318
37.978572 -26.422221 80.321297
-67.128221 -27.070513 77.210922
-26.287098 -67.097573 77.210922
2.475497 -100.234063 80.321297
-30.946157 21.360322 86.968309
33.866066 -76.880364 80.321297
41.774677 -62.759049 80.321297
60.720968 -18.459999 125.623644
-16.132187 -56.429578 80.321297
-30.755694 11.023041 127.461770
48.959665 -36.945920 131.910273
29.227279 -114.614032 77.210922
0.025143 -2.111936 82.509664
4.562944 -77.265434 130.517241
-30.367675 18.216949 112.397073
-46.446597 -56.241490 100.153745
6.323967 -99.038963 131.425128
-64.655868 -66.232089 103.142515
65.745353 -77.421033 77.210922
23.118170 18.839507 80.321297
23.383007 21.824139 80.321297
59.828864 -72.400922 80.321297
-68.453812 -77.021632 94.083203
-13.638739 31.533067 79.700037
-27.139433 -56.377939 77.210922
55.490184 -9.165805 93.546201
-66.092292 -68.952040 91.336295
56.157089 -28.419765 135.433901
47.040744 -25.563791 80.321297
18.840549 -48.189653 77.210922
5.301854 -40.827623 121.824400
-11.400377 -13.176823 83.591071
-38.106294 -6.890773 77.210922
-16.353782 1.889619 140.421844
-31.662603 -53.928621 97.980590
-37.519010 -23.089818 80.321297
-29.500794 17.950485 104.264231
4.677584 -39.970125 110.285870
-3.955031 -83.565513 90.144961
-8.600948 1.575364 140.421844
-12.528399 -49.557869 85.579520
3.341777 -74.456153 92.888124
3.242920 -72.892945 140.421844
-42.866455 -54.261074 110.038409
-62.333314 -84.083405 114.483177
-47.996359 18.189890 127.170427
56.533166 4.192104 83.768934
28.078082 -102.954981 80.321297
-40.831605 20.087535 123.431197
-24.779791 -25.548352 112.965755
-6.535417 -55.210841 85.989694
-28.303130 -61.445057 140.278112
35.426339 -38.451203 77.210922
-18.037186 11.900331 117.476404
-25.172015 -65.573847 114.315779
3.981176 -39.013541 127.587017
41.141921 -67.385201 77.210922
-69.342464 -87.372688 83.592596
9.095084 -72.464503 135.543292
56.277758 -96.052718 81.666641
-60.360903 -82.489911 83.956619
-34.899451 -1.218924 80.321297
6.062054 -100.889198 89.123881
8.460895 -61.357527 77.210922
-40.287363 -100.822869 80.321297
70.089832 -44.535896 77.210922
9.323413 17.365183 77.210922
40.274917 -15.500711 77.210922
-11.781921 -6.408451 135.604099
4.695934 -97.216435 126.893611
-10.845393 -39.258274 90.308650
6.186366 -42.978843 116.519456
17.933569 -98.834172 77.210922
-57.699290 10.184958 120.375223
-12.047075 -17.475804 86.027633
14.719451 -97.297743 106.621157
-65.341302 -53.751225 80.321297
9.704931 -92.605830 140.421844
29.974340 1.781405 77.210922
-25.106522 -80.603669 77.210922
-3.806567 0.839579 80.321297
39.841499 -49.859330 77.210922
-36.463004 -26.663319 77.210922
12.667590 -53.782416 80.321297
-58.949052 -100.063140 126.658696
10.377206 -93.181250 128.405643
54.210197 -76.372827 77.210922
13.403473 -69.988712 106.465416
32.169812 -111.513117 91.774994
19.374111 -58.059869 77.210922
-14.756586 -35.130308 80.321297
-34.755084 -6.515198 77.210922
52.398934 8.767258 129.101380
-7.469703 -108.309613 80.321297
-31.003816 18.412487 107.143544
35.273657 20.582008 80.321297
-10.336787 4.366769 94.234430
-31.682930 -37.659180 124.473079
57.428747 -26.276215 122.906582
21.313477 -2.649404 80.321297
-42.073815 -81.266652 80.321297
-58.302119 9.516147 110.225390
4.076135 -79.313708 117.914338
31.636236 -47.234515 129.415318
8.308190 -100.973288 125.731723
36.960824 -111.664649 122.583294
-1.438427 -36.038234 77.944379
-2.245295 7.726302 80.321297
-19.393089 -21.052298 113.469536
-10.204363 -17.124303 83.710380
-68.301572 -76.338077 139.626439
55.170618 -11.805672 136.766671
-59.506486 -71.552352 94.884840
1.298029 -54.601686 134.073493
-32.525094 7.137453 77.210922
-61.154228 -76.287056 134.468842
-14.938101 -31.319343 80.321297
51.006860 -34.955480 92.909340
-55.575562 10.748824 135.732719
-54.804558 -63.751347 126.266021
-66.772125 -71.034344 101.170314
44.608017 -40.411032 123.755475
-0.483832 -12.149467 114.448505
60.680457 -18.591791 134.873757
-53.296372 -67.832681 77.210922
-20.285111 13.486602 109.446530
-56.991962 -54.495428 80.321297
27.128255 -66.723439 77.210922
-20.146610 -21.562235 133.884730
-37.161360 12.732236 115.809517
-53.284181 -105.688743 78.043386
-35.706147 6.657165 80.321297
44.606391 -107.260663 97.779289
-0.339066 -89.826383 133.031273
31.734006 -38.681300 90.095104
24.115534 -107.530384 140.421844
59.426394 -68.137146 77.210922
13.289810 -70.072212 115.200080
57.786698 -63.625403 80.321297
-18.426322 7.201290 80.321297
44.260744 -103.753396 135.877312
-30.898218 -35.292970 130.688657
1.054945 -75.858973 140.421844
-13.705390 8.135719 106.930425
57.768145 -74.603816 77.210922
19.429913 -99.238314 87.311299
2.635402 -109.062056 80.321297
67.934096 -58.446902 80.321297
-60.514028 -74.171610 136.198350
-25.642835 16.415577 92.566684
51.141753 -0.820209 80.321297
-41.539665 -13.922026 80.321297
47.296216 -105.064830 88.664898
-76.689033 -56.774477 77.210922
-14.214329 -37.101924 77.210922
7.451190 -80.581534 80.321297
-67.195026 -72.270027 114.148417
-27.667319 6.884068 81.448686
0.693439 -36.724860 111.715314
5.706118 -41.731346 102.372682
43.391701 -85.899923 77.210922
-66.711145 -70.880460 116.116496
-54.727736 11.054259 123.404265
-62.329217 -85.764704 95.754466
-23.354163 -30.381264 140.421844
13.324342 -70.041784 83.199453
-64.234668 -94.540759 104.782316
44.442720 -63.318121 77.210922
-55.069721 -83.335459 77.210922
-1.120874 -36.088216 106.210910
5.377060 -40.930925 90.715585
48.589455 -37.270001 116.432741
8.650550 -1.739575 80.321297
