37.376038 -44.329700 114.999359
55.435809 -9.816284 98.074828
37.291955 -36.716984 137.101755
47.745426 -38.008862 119.075507
59.878816 -0.125531 138.551264
35.081882 -37.800676 121.345018
42.315953 -41.850934 121.044811
39.966897 -35.752193 91.555038
32.416819 -39.468862 101.065973
41.698177 -33.934905 132.992688
37.098388 -41.446442 140.421844
54.114366 3.749513 120.175780
60.466132 -1.071129 117.211232
40.196042 -37.547887 91.555038
32.633719 -38.754506 133.428722
32.508335 -40.802915 113.199816
40.436675 -42.882589 131.808566
55.040095 5.851564 129.297826
59.163026 -22.742529 115.514500
55.436334 -13.741778 140.421844
52.660187 -20.260022 111.957824
59.199589 -22.650263 104.473757
62.524910 -5.135566 131.436540
54.250699 -31.181163 104.166403
56.000250 4.696513 126.868693
46.866541 -29.264327 124.972442
36.483012 -37.115113 131.166199
35.032325 -37.819984 122.202576
60.090558 -2.460666 91.555038
52.954097 8.173217 111.255656
32.642577 -42.759807 92.599605
39.314127 -35.548904 118.374879
55.623308 -29.236021 91.892700
51.482946 -22.665098 123.044524
53.822104 4.599922 108.113246
56.170169 3.190561 140.421844
32.553732 -41.464689 93.429432
56.931459 3.682878 138.148365
53.831356 -17.255161 94.665070
34.688071 -45.359973 120.867036
61.645479 -14.899900 95.772719
55.493970 -9.120518 126.073545
54.587588 6.312393 119.348521
58.536138 -24.080481 125.708049
39.294237 -43.480016 128.152476
61.451039 -15.772929 137.041614
34.327546 -38.094573 111.673693
52.092858 9.084355 117.152365
58.951043 -23.235343 91.780093
45.083622 -40.057735 101.813130
39.643488 -43.297379 126.300589
56.310882 -28.160526 124.565674
49.820412 -25.416803 133.702244
51.755895 -34.187123 92.579489
54.983380 0.190944 92.037269
53.728357 -17.545492 131.471080
56.581444 3.657062 106.398746
53.263778 6.149719 94.185850
53.785573 4.701326 105.009179
32.770474 -44.624211 113.849278
44.806216 -32.378982 140.421844
55.116963 -29.953568 128.391289
58.732270 1.116240 115.920100
56.167894 -28.401552 102.326408
48.483060 -27.298853 113.494389
46.926595 -29.202407 124.201357
55.606646 -6.459918 127.014902
53.056445 6.713646 104.901966
61.448363 -15.784942 94.192553
53.240396 6.214622 127.919706
55.430557 -9.879105 136.824833
51.919854 -21.888238 91.622574
59.628479 -0.244387 100.172329
59.375733 -13.035073 140.421844
53.169742 -32.523782 122.210647
52.188322 -21.297796 129.102249
33.203035 -38.532694 94.642180
45.289684 -39.904319 100.914998
55.148694 -11.933979 128.144726
46.088904 -39.309289 116.336761
59.001003 0.710450 111.341816
54.613123 6.091001 104.784527
40.689259 -34.669022 120.240772
43.839465 -40.893845 132.275367
50.235822 -24.807537 125.585145
55.466791 -3.253835 131.426033
60.122191 -20.322073 96.124003
39.629200 -43.304850 136.506415
35.055689 -37.810881 129.952245
55.382739 -10.451149 118.227750
62.490721 -8.411418 133.104401
52.390124 -33.461508 137.366146
55.507894 -8.953947 101.114888
38.388276 -43.898439 95.975219
54.634584 1.793555 122.853469
54.846860 0.967105 104.706629
55.093862 -0.437187 121.796150
52.446268 -20.730494 114.304482
58.258582 1.459228 99.679678
60.214480 -0.576290 137.656569
56.606630 3.940425 126.956865
47.968225 -27.929989 110.903662
46.684764 -29.451754 117.723300
35.488004 -45.091613 115.872511
50.404779 -35.573092 135.181505
60.827006 -18.115027 113.023489
37.802418 -40.797776 140.421844
34.310238 -44.381296 140.421844
52.491637 -33.339409 99.509170
55.497636 -3.602358 94.295136
62.516834 -4.689065 94.002785
62.561921 -7.181865 103.289516
53.324351 -18.684295 108.649289
35.646119 -45.038568 116.752241
59.951959 -0.395141 116.755708
40.611401 -34.725674 94.962606
59.042016 -23.047898 130.701362
59.503694 -21.882852 125.201617
52.304013 -21.043355 110.570878
33.775351 -45.666172 111.513296
57.567570 -17.824724 140.421844
35.497221 -37.600280 110.349161
57.311422 -26.473983 92.129559
46.846998 -38.744877 137.570849
45.847704 -39.488865 122.620030
51.417509 -33.084029 140.421844
42.738070 -33.168970 110.900430
57.842232 -10.861082 140.421844
62.531276 -5.487547 111.407677
44.035522 -40.770680 121.393977
47.770080 -28.172895 117.782019
57.876450 1.897863 97.153109
54.184873 3.484417 100.001535
55.496251 -3.586703 95.567245
41.971557 -42.067287 107.152679
32.430687 -39.671009 113.403657
61.014837 -1.816428 114.683628
56.989286 -27.016986 98.358172
51.893632 -21.935320 111.787060
44.821455 -31.360541 123.781552
51.916628 9.188369 96.506173
58.014534 -25.142958 115.223168
61.186599 -12.571130 140.421844
43.966104 -40.786833 140.421844
32.717048 -43.845403 104.885495
39.278587 -35.570362 130.472000
57.785149 -9.438358 140.421844
55.168938 -0.864021 134.728643
38.701861 -35.918575 121.575294
60.497294 -19.187672 114.054330
53.000471 6.835173 126.671955
42.514374 -33.341018 132.593996
43.000023 -32.941588 117.141741
45.479143 -30.694854 134.820399
41.542303 -42.304411 98.909738
58.376966 -24.404705 108.391351
33.659588 -38.354816 139.157774
54.955058 -30.183006 98.902978
44.643693 -40.385269 104.523910
55.694829 4.967345 119.641638
34.554495 -38.006151 105.282314
57.114764 -19.411362 91.555038
38.633259 -43.794065 104.820489
54.725849 1.450411 124.215209
50.498825 -24.413851 96.853919
44.223380 -31.879684 103.266246
59.882544 -20.926821 110.147145
34.727652 -37.938687 132.280892
59.058748 -12.053123 140.421844
47.041580 -29.065963 105.492954
62.186156 -11.748997 93.160592
45.675265 -30.492636 100.015214
47.470571 -28.540062 137.632735
60.861512 -1.771590 101.021031
55.449831 -3.062202 117.836013
55.093027 5.860830 138.987808
54.484840 -15.046548 94.920196
58.218509 -24.727472 125.527120
62.551536 -6.607677 104.113671
42.098946 -41.987260 124.836884
53.224330 -32.458124 118.425534
57.963782 -25.246337 93.250250
39.051324 -43.607045 130.380563
59.950448 -6.731215 140.421844
55.128980 -0.636844 117.431781
59.286033 -22.432120 110.889766
58.703549 -23.739474 103.136585
49.573559 -36.408518 104.086612
58.612242 -23.925462 114.894537
55.151848 -0.766856 123.145952
55.245510 -1.299359 98.347495
34.236666 -45.511410 97.565947
59.170040 -22.724830 118.613312
54.981924 0.199222 134.333613
45.920152 -30.240137 95.592411
47.998458 -27.892927 109.107338
57.514485 -26.131693 135.398710
58.311613 -7.680216 91.555038
49.032137 -26.572938 126.549471
32.476942 -40.345294 127.432597
60.774320 -18.286430 93.564458
54.382715 -15.438201 92.887835
60.206723 -20.108754 94.199107
33.079758 -45.899529 136.308072
54.003960 4.095128 92.537103
53.714219 -31.868884 118.098535
44.126374 -40.713606 117.884094
56.119694 4.108502 98.214089
54.808393 -30.390847 103.117927
59.021036 0.932081 128.953936
60.037019 -20.537005 124.602843
60.691123 -18.557093 101.771007
51.584007 -22.485514 130.955200
49.368710 -26.079299 113.299467
49.053907 -26.541009 136.099675
55.053581 5.785060 122.471973
33.635332 -45.713145 133.086898
55.534454 -4.018362 105.526223
32.552507 -41.446826 120.270635
40.309053 -34.945670 125.163524
57.994509 -25.183746 137.948071
61.186847 -16.944365 97.477465
55.594787 -29.276438 97.703907
38.626062 -35.964341 116.429049
54.895396 0.691161 132.889293
53.368734 5.858382 92.969655
51.885537 9.303689 125.991176
55.484608 -3.455154 139.980664
54.907989 -13.342677 118.705991
49.737813 -25.537948 130.484707
55.504623 -8.993076 132.962344
47.098273 -38.557800 109.025169
54.204077 -16.123283 129.470264
48.743830 -26.979176 136.630306
54.456129 -17.640705 91.555038
60.254412 -19.977835 107.217614
59.364819 -22.233305 101.704491
51.866847 9.296450 117.833241
55.102152 5.793745 131.388353
55.537585 -8.598761 136.417401
42.302554 -41.859351 98.784168
54.027499 -16.702277 133.042188
37.583663 -44.241242 123.338196
58.058803 -19.318631 140.421844
61.665194 -14.811380 101.358435
61.332882 -2.230160 123.212042
37.800627 -36.462719 107.001638
58.510585 -17.932794 140.421844
56.186259 -13.764969 140.421844
55.428544 -9.903188 119.628132
61.479869 -15.643482 114.779833
48.268128 -37.551290 93.947867
62.558904 -7.015067 139.462441
61.891825 -13.793817 93.853975
49.893641 -25.309402 121.211734
42.930047 -41.465153 119.583487
62.161813 -11.921656 111.993635
51.464563 -34.485971 109.584254
57.522585 -26.118040 103.652499
54.314848 -31.090256 134.549804
52.857069 8.144077 95.613850
40.890342 -42.645348 136.469268
62.530995 -7.751924 98.613033
32.701508 -43.618870 119.016371
54.409526 2.639746 92.543109
32.818809 -45.328817 113.781513
32.588957 -41.978176 115.967948
45.924641 -30.235507 92.463223
57.542857 -26.083869 105.010442
41.829271 -33.839517 131.132117
32.792454 -44.944624 135.222072
52.335630 8.278649 106.205374
48.220079 -27.621241 135.416273
59.576412 0.205777 129.931638
62.508165 -4.209734 120.170122
32.670417 -43.165645 110.043610
37.640157 -36.545613 115.196211
50.047534 -25.083693 112.477765
58.425465 1.523675 117.500325
41.364762 -34.177507 105.399288
53.650539 7.432536 121.131546
61.224201 -2.068863 133.872947
53.492189 7.603949 120.090401
35.625065 -37.537361 129.639384
56.175824 4.172049 106.942147
35.403744 -45.119880 120.948550
53.609489 -28.329528 140.421844
44.613679 -31.540896 105.542579
33.469573 -39.400658 91.555038
62.218959 -11.516338 136.794326
53.147279 -32.550801 116.871383
62.489343 -8.433978 127.797103
61.791888 -14.242531 130.411235
53.465274 5.590409 106.654210
56.917477 -16.350027 91.555038
59.826786 -0.104895 132.484802
62.511675 -4.403805 127.418995
62.548033 -6.414011 132.359733
32.823408 -45.395854 116.717213
54.568495 2.042042 139.380554
54.789381 -13.878620 118.240903
50.424940 -31.105415 140.421844
39.889227 -43.168871 115.086699
32.802247 -45.087380 118.780032
62.388129 -10.091402 101.554819
51.070964 -34.889723 118.287136
32.663893 -43.070538 130.682684
42.165921 -33.594562 110.495568
53.425427 5.701014 103.464729
55.975150 -28.726448 113.694665
32.641466 -42.743614 102.501033
41.068093 -34.393372 137.039909
55.603976 -5.364025 126.534611
59.038757 -23.056122 106.307967
53.366867 -32.286681 103.963781
55.537573 -8.598900 130.703065
54.871141 -24.648041 91.555038
51.497612 -22.639037 110.322220
32.552159 -41.441757 105.274682
36.876670 -44.542453 110.626439
51.472833 -22.683069 123.874497
62.082561 -3.407091 93.820397
55.605655 -6.053128 130.042517
46.302710 -39.150107 110.008680
61.759429 -2.863214 126.014803
56.451744 -7.240690 91.555038
36.847516 -36.935719 110.837783
52.964434 -19.590890 106.433001
54.046795 -16.647884 122.625154
39.949087 -35.165530 112.968685
54.139801 3.653882 114.168581
54.044591 3.982345 93.503611
59.619967 -21.589436 92.880890
33.259237 -42.410343 140.421844
43.214561 -41.286417 100.655827
40.588043 -34.742670 117.288496
55.300014 -11.048396 108.362079
58.905810 -23.327480 104.434834
46.585822 -29.553773 119.208074
55.608083 -7.050129 114.608824
62.131293 -12.138124 109.073388
59.993583 -0.296464 136.126174
34.676305 -45.363921 116.436833
55.609301 -7.549871 125.840457
59.209017 -22.626471 121.803729
62.415253 -9.647244 125.658105
57.746107 -25.689727 119.840619
62.276503 -3.630621 103.403172
57.953286 -7.097500 91.555038
32.635115 -42.651043 104.164511
54.700725 1.544875 104.123321
43.300944 -41.232150 126.877694
47.614783 -28.363274 134.366653
59.433272 0.175380 111.660692
46.873231 -29.257429 137.620320
54.369002 6.640104 128.728301
58.118564 -24.931055 132.247743
32.701052 -43.612228 132.679400
48.907648 -26.755521 111.648507
33.964036 -42.135360 140.421844
55.558785 -4.293282 135.403308
33.598250 -38.378714 119.558030
55.355270 5.328280 115.513746
51.619697 -22.422095 137.487548
52.523598 8.628660 119.332754
58.350666 -24.458276 111.465956
52.779978 7.313899 131.568072
32.982960 -38.618438 125.078822
62.526061 -5.199174 109.565652
57.957192 -25.259759 110.064103
37.737908 -36.497504 99.284070
59.960355 -20.229120 140.421844
32.725082 -43.962513 137.783705
51.708912 -34.235318 108.512741
57.342597 3.073832 130.399181
41.627043 -42.260097 111.391025
54.060898 3.937081 137.046123
36.257373 -44.806303 105.357718
32.381124 -38.852919 127.281239
36.597373 -37.058829 128.630980
39.362635 -35.519616 131.919650
62.364380 -10.480296 137.858086
50.399690 -35.578312 137.576884
47.181380 -28.894581 115.734587
47.650364 -28.319655 132.245098
53.159942 7.955447 135.107093
59.194847 -22.662229 99.750798
35.151411 -37.770474 116.617700
53.858562 -17.178473 118.739033
54.362928 -31.022121 121.786136
55.576581 -4.494362 116.708125
60.114419 -14.361797 91.555038
42.656856 -33.237344 136.595003
62.556973 -6.908275 98.439945
50.460434 -35.516002 106.777709
40.019030 -35.123300 136.288175
60.870336 -17.974063 119.693672
54.317717 2.984938 112.628911
57.280502 2.751636 104.294728
43.478516 -41.120598 126.176143
39.229458 -35.600025 94.220447
32.517080 -40.930405 105.734177
58.964137 0.464606 92.281006
44.928069 -34.522168 91.555038
54.384792 -15.430235 101.407455
57.707465 -25.768438 92.191877
58.454722 -24.246320 129.936931
57.967080 -25.239619 134.728138
54.011839 4.073257 91.802249
60.740750 -18.395642 130.191654
55.468304 -9.427556 132.208575
55.606297 -7.776781 136.468979
34.423613 -41.373129 140.421844
36.795814 -36.961165 112.205137
53.285605 -32.384422 95.796628
54.313582 3.000484 120.511853
60.319990 -19.764492 93.078063
55.410684 -10.116841 110.445587
41.086787 -34.379770 133.268056
49.339007 -26.122863 132.170898
53.070739 8.049817 140.013405
32.753732 -44.380158 130.106181
54.696699 6.269843 131.002065
54.274875 -15.851770 115.622055
52.511397 -20.587256 102.404217
55.578486 -4.515882 111.683531
62.386634 -10.115883 116.960889
45.995161 -39.379082 119.848233
54.927051 -30.222695 118.719749
54.026650 -16.704668 106.856927
46.950888 -38.667530 93.176539
55.215732 -29.813602 138.304979
61.770540 -14.338382 139.642171
60.954779 -17.699349 131.270479
54.424454 2.583621 140.375763
57.315779 -26.466638 127.895939
56.193967 -15.366916 140.421844
59.626955 -21.571803 96.539088
52.239702 -25.670901 140.421844
46.270482 -29.878916 140.071772
62.253044 -11.274582 134.852173
62.549688 -6.505512 134.309642
61.469331 -15.690800 121.639239
33.530384 -38.405155 124.314684
60.596425 -1.261701 114.897404
44.300935 -40.603944 99.912926
54.980788 -12.916631 92.706890
48.103967 -27.763583 123.597352
35.768785 -44.997416 135.884517
48.661876 -37.206604 123.862822
53.658196 5.054898 98.264690
55.734680 -29.078193 138.608245
54.814624 -30.382017 138.753370
54.236482 -31.201310 125.625545
53.516321 -18.143175 111.484207
53.776388 -31.794108 125.128413
62.124835 -12.183932 94.185646
55.402691 -2.529567 113.626380
54.233179 3.302790 102.954747
32.703785 -43.652070 122.665593
62.268290 -3.618431 134.903015
57.546562 2.333675 98.703600
55.927082 -28.805538 101.788811
61.256375 -2.116614 132.023937
33.449367 -43.584755 91.555038
52.161388 -33.736633 112.192623
53.633970 7.395233 113.455121
33.109012 -38.569326 111.464863
48.864883 -26.818243 101.245672
61.788050 -8.524122 140.421844
40.345556 -42.930239 99.409748
32.631620 -42.600082 138.338296
54.836674 -13.697253 132.293319
61.431585 -15.860279 106.816903
46.721284 -38.838473 110.493184
46.840171 -29.291517 135.304768
55.365858 -2.113391 112.891612
55.604715 -5.667228 93.186963
43.216859 -32.753369 95.370789
35.359895 -37.667866 99.344158
51.201293 -34.756032 101.169358
45.964859 -30.194039 118.451141
55.560243 -8.327708 111.434765
60.974559 -17.634997 93.379101
53.698274 7.176022 101.014657
53.083307 7.808585 92.159789
52.924798 -19.678061 126.672820
39.833586 -43.197968 101.374708
59.627647 -21.570055 132.292473
58.266100 -24.630532 97.367339
51.963914 -33.973738 120.346717
47.274719 -28.780157 129.589969
58.791764 -23.559786 126.166461
55.396297 5.260638 114.443203
35.501777 -37.598038 118.543853
61.739453 -2.847144 105.487868
40.450398 -34.842824 93.000642
53.572056 -32.039879 111.774520
53.632054 -17.816947 126.730483
62.438746 -9.262533 127.539891
53.926560 -31.613480 135.572077
56.451962 4.221548 134.401956
53.740465 4.826535 126.921969
60.472276 -3.115321 140.421844
35.150376 -37.770983 96.568458
55.311596 0.333730 140.421844
42.263378 -33.523650 98.548812
56.286133 -25.484874 140.421844
61.715626 -14.584943 132.790866
55.240710 -11.395468 130.121706
55.603701 -5.250968 112.127067
62.441368 -9.219600 101.842015
32.827873 -45.460948 124.746091
42.557733 -34.223295 91.555038
61.645418 -14.900174 103.988750
53.465286 7.600074 114.207654
42.709251 -40.836094 91.555038
50.305579 -24.705227 96.155498
62.234025 -3.567577 111.314455
44.376623 -40.556397 124.805929
35.362342 -45.133770 134.020163
62.494888 -8.343185 108.548921
54.663545 -30.596113 133.946401
42.990452 -32.949896 137.857855
62.405502 -9.806921 109.101443
33.830945 -38.288054 134.624202
62.431272 -9.384914 129.743258
55.594566 -7.917108 93.247423
61.783266 -9.421796 140.421844
52.231472 -21.202895 111.858829
32.893652 -45.961963 98.171324
53.155515 -19.396030 140.421844
47.077194 -29.022304 93.381176
62.245949 -11.324904 133.194563
53.739667 -17.513611 129.160084
55.424331 1.784770 140.421844
59.841008 -21.031639 108.315846
55.891448 -28.856035 123.059931
61.228706 -16.771197 129.886823
43.007161 -41.416709 93.330541
54.284417 -15.815175 114.647447
52.419687 -20.788953 117.751992
35.537077 -37.580664 93.674469
62.505540 -8.168752 102.733511
51.921095 9.178668 91.568782
52.325725 -33.538968 125.680323
55.441363 -2.966526 104.418977
36.297936 -37.206201 102.559934
62.514166 -8.027496 97.623528
60.363528 -19.622849 112.989314
50.393671 -24.576025 112.768464
47.274096 -28.780921 114.878083
55.537802 -8.596165 124.659326
40.038929 -35.111286 137.102491
43.138471 -32.821412 133.969448
56.604357 4.073643 138.736862
33.627947 -38.367144 109.903860
56.298143 -28.181999 129.861524
57.858612 -25.460561 127.872398
41.435590 -42.360216 110.354245
61.515228 -15.484725 129.795140
55.606511 -6.404420 94.250558
56.728301 1.024199 140.421844
54.265662 -31.159958 93.176856
49.258091 -26.241540 139.831464
33.653136 -38.357330 105.039815
61.308929 -2.294819 103.381094
42.345027 -33.464239 113.480061
57.692887 -5.881340 140.421844
55.376653 -2.235357 126.913896
32.674254 -43.221579 116.985354
57.901009 -25.374202 121.870234
46.234592 -39.200822 101.700494
48.937775 -36.965082 104.156182
62.234267 -11.407760 127.626292
49.773696 -36.220455 110.088680
62.374304 -10.317800 122.518566
61.627217 -14.981895 91.659766
38.187368 -43.984036 107.923360
56.349950 -16.290904 140.421844
62.506558 -4.120914 118.111756
35.846438 -38.751725 140.421844
54.835171 1.033565 122.712170
53.746855 -17.493349 106.596986
61.518948 -2.544718 106.871262
33.517912 -45.752537 138.109447
55.469110 -3.280034 114.038266
58.240814 1.804166 120.754957
53.340868 7.612644 100.373469
32.473683 -38.816857 98.374366
54.815390 1.113750 113.350926
39.037513 -35.715917 117.041903
59.548824 -21.768965 123.577002
54.725179 -14.124837 99.442642
62.396648 -9.951895 109.796200
56.079791 4.196957 100.735471
62.550119 -6.529335 122.077420
45.272259 -39.917292 127.565256
49.615520 -25.717312 123.143731
61.738292 -14.483173 112.820619
59.199569 -20.602696 91.555038
44.532084 -31.611722 115.647508
37.548886 -36.590533 123.086422
49.727333 -36.268013 127.295588
41.338034 -42.411232 139.734312
52.556543 -33.261340 101.884140
53.829687 -17.259864 112.257094
55.396845 -10.282396 124.820364
61.118757 -9.950989 140.421844
43.247068 -41.265996 122.451175
58.638338 -23.872305 135.377425
33.791150 -38.303558 109.076019
48.335768 -27.479418 108.618908
60.712472 -18.487639 95.486650
61.275967 -16.558995 120.084828
62.317426 -10.817941 118.815983
42.943119 -32.990982 119.966019
36.992094 -40.089028 91.555038
55.038944 -0.124958 109.522731
35.558491 -45.067966 108.140045
44.883583 -40.206667 133.741916
58.265554 -12.661356 91.555038
37.501836 -44.276104 108.082505
37.386207 -38.745570 91.555038
54.914003 0.585376 126.959773
42.006446 -33.710600 137.784336
40.696849 -34.663499 105.672146
55.034963 -20.998802 91.555038
55.493577 5.370247 136.637416
43.806879 -32.241217 106.922946
51.891686 9.242521 138.033598
32.404657 -39.291564 112.759924
53.356538 5.892236 104.194402
33.193596 -38.536372 136.597896
48.351662 -27.459934 110.384420
56.318094 4.246201 123.388929
58.484185 -12.994932 140.421844
36.356683 -37.177288 120.795614
62.380865 -10.210361 92.331050
44.560065 -40.441156 94.460874
62.528886 -7.786459 138.947968
62.475216 -8.665321 121.799412
51.798540 -22.104296 114.451709
54.943583 -13.134370 104.029929
53.083840 -32.627106 129.215724
55.328657 -1.772078 137.412707
43.183429 -36.479225 140.421844
50.527090 -35.447627 138.403327
52.813603 -32.952147 102.811279
59.852607 -21.002369 123.893309
60.771920 -4.284344 91.555038
55.191577 -0.992731 103.322625
55.674700 5.069564 124.932444
54.067075 6.995755 129.504097
33.425926 -45.783397 100.662673
55.020602 -0.020678 113.387167
54.438014 6.535740 125.645513
55.315614 -1.697926 127.619080
49.313131 -36.636496 94.759886
32.480227 -40.393175 113.854547
54.404474 2.658742 111.575209
45.796334 -34.510178 91.555038
55.392322 -10.336508 112.795199
48.512314 -31.927475 91.555038
55.492700 -9.135709 98.247453
60.312175 -19.789915 108.474264
42.569709 -41.691521 112.342619
39.912576 -43.156661 127.795400
61.771994 -14.331853 119.696156
40.463948 -42.868326 134.190790
48.957922 -36.947445 124.540699
61.387480 -16.058308 122.908632
53.188884 7.924827 129.237303
52.376375 -22.665454 91.555038
36.233620 -44.816423 101.171996
55.609043 -7.444260 101.047517
35.927891 -37.388322 126.008835
45.049276 -40.083306 128.214939
53.168179 -32.525662 124.785009
53.051794 8.069860 129.959748
54.951763 0.370697 131.948424
52.628086 -30.390327 91.555038
60.473989 -19.263489 92.464738
37.449503 -44.298400 135.958482
53.834379 4.565850 127.584698
54.260143 -15.908267 93.672554
45.834960 -30.327976 122.382358
58.224552 -24.715162 127.787781
55.349595 -1.929633 134.219738
61.220352 -16.808705 119.347565
58.366071 1.504351 111.393903
54.767484 -13.962598 128.637961
54.966115 0.289101 103.643069
50.550218 -24.322527 139.690080
55.413079 -2.646941 124.847568
55.400669 -10.236657 115.081892
54.081158 6.945705 124.081584
44.341424 -31.900115 140.421844
35.968370 -44.929432 120.527283
55.070539 -12.391370 99.701305
40.231059 -42.990114 131.193645
61.449905 -15.778019 96.129692
62.511191 -4.377053 136.337711
52.199989 8.573147 140.267289
52.226261 8.516106 113.455334
53.485481 -18.230106 106.273286
39.597693 -35.377694 111.862457
43.376136 -41.184914 133.238981
42.389857 -41.804506 110.373112
52.445129 -20.732999 118.414757
53.732564 4.848468 137.083153
54.425776 6.249162 99.830989
56.897467 -26.580850 140.421844
38.649650 -35.950099 134.702006
54.936487 -13.175896 121.832681
40.468538 -34.829625 135.545950
55.038277 -0.121166 106.633099
48.078472 -37.717315 95.477933
60.667956 -1.423742 107.947722
58.331464 -24.497389 106.638338
62.135882 -12.105576 131.036075
53.736242 -31.842395 95.229553
50.011614 -35.976399 106.252059
53.710812 -17.594946 111.001448
34.508598 -38.024033 139.431275
42.670300 -41.628329 100.365292
61.560943 -15.279462 140.369162
38.787017 -35.867160 126.444859
60.301097 -19.825955 136.926562
43.180426 -32.784994 136.894252
59.756376 -0.467342 96.045542
45.976696 -39.392829 138.240081
54.911196 -13.323909 110.562723
61.744803 -14.453937 93.851055
54.421323 -30.939370 126.332005
43.321870 -41.219005 136.108791
32.455096 -40.026835 109.448607
61.800149 -14.205436 131.131480
57.614065 -25.958689 137.240886
55.189173 -0.979065 101.957232
54.245317 -15.965125 100.757428
55.440454 -2.956256 97.878252
54.603553 1.910231 132.211312
48.446686 -30.986669 91.555038
53.162155 -19.141490 139.090143
53.608016 5.194186 104.055397
53.808702 4.637125 97.052661
55.789037 4.528917 98.696432
54.721677 1.466098 125.288231
38.847540 -35.830618 108.531480
62.546345 -6.320673 112.249929
59.888703 -0.217000 128.670107
58.537057 -24.078610 107.178084
37.496815 -36.616160 120.880009
58.700186 1.342090 128.051204
36.401219 -42.271277 91.555038
46.933830 -38.680229 125.267367
55.603438 -5.143083 111.356582
48.311194 -37.513590 102.324689
34.526804 -45.414075 91.913489
62.158250 -11.946926 140.382510
36.928491 -44.520375 127.360517
51.678080 -22.318350 135.911295
60.279172 -17.065306 91.555038
62.379607 -3.783641 120.948494
34.686312 -37.954794 133.745237
59.855712 -20.994534 111.817430
52.058220 -21.583931 94.492770
62.016979 -12.948922 138.756370
54.737266 -14.078483 129.517424
54.616084 1.863115 133.197745
54.753325 5.742251 93.446973
55.050603 -12.508044 96.919168
35.956791 -44.934344 93.430928
37.133145 -36.795144 98.404657
61.999875 -13.070233 103.732197
60.723474 -18.451847 97.316394
51.972009 -21.773534 137.200206
54.466590 -15.116535 96.143827
49.426206 -36.537511 99.891137
37.894985 -44.108604 112.219663
53.471565 -18.269331 138.966980
50.285610 -24.734515 119.957875
58.880092 -23.379867 95.219938
61.938020 -3.133454 102.481097
52.688041 -33.103173 139.070550
47.577998 -38.155429 140.098472
44.584733 -40.425659 108.020542
57.634302 -25.917468 101.635570
55.680706 -29.154680 93.082931
41.739176 -33.905073 102.806190
57.143902 -26.756361 119.103897
56.304040 -19.467097 91.555038
54.484522 3.997553 140.421844
57.813453 1.949608 95.393548
48.099807 -27.768683 130.158470
47.673964 -38.071421 120.931254
53.791123 -31.776384 104.477650
45.220246 -39.956016 135.967562
62.450173 -3.888371 137.921773
60.591286 -18.881890 96.081905
61.148830 -17.068044 95.164975
53.559498 5.328861 102.676286
54.977781 -12.934227 120.852080
55.185498 -0.958172 133.746462
50.527022 -24.363745 121.428731
60.568437 -18.956225 115.014932
47.257643 -28.801090 98.487146
56.180438 3.992196 95.574063
35.215569 -37.738898 94.647229
56.313168 -28.156673 133.636736
54.634186 1.795055 115.955372
39.245602 -35.590278 93.096409
53.377043 -22.866246 91.555038
35.958706 -43.590161 91.555038
61.529412 -15.421037 122.506375
61.903942 -13.739412 114.503962
54.842499 0.991900 96.549559
48.968086 -36.938548 108.249902
46.517440 -38.990238 112.939916
50.897250 -23.705861 130.823573
56.020442 -3.222040 140.421844
61.663046 -14.821026 102.544393
39.369617 -43.440597 103.669717
55.344727 -1.874620 102.503286
36.516216 -44.696024 94.065051
41.231111 -34.274755 91.849788
52.309508 -21.031270 128.200492
32.504402 -40.745586 94.353795
58.157103 1.833649 115.852095
40.056619 -35.100605 119.611086
49.618283 -34.770003 91.555038
51.026950 -33.801054 140.421844
38.206151 -43.976033 118.231753
59.704220 -3.740706 140.421844
54.952615 -13.081508 109.918389
41.323488 -42.418838 119.288377
39.266967 -43.494276 132.935779
38.530811 -36.021852 133.801045
40.629783 -42.781605 109.741594
61.216886 -16.824268 113.582534
53.765129 4.758072 131.740731
33.609218 -40.908711 140.421844
43.278118 -39.218790 91.555038
61.467933 -15.697076 110.817279
34.526029 -39.339307 140.421844
60.915425 -17.827375 137.389488
49.016678 -36.896011 111.564233
32.521858 -41.000055 124.938305
55.221312 5.523065 117.306665
56.307222 4.021909 107.855808
60.673649 -18.613941 134.323170
55.500044 -3.629562 107.880438
42.933488 -41.462991 109.851055
57.389067 2.849261 119.525060
54.192617 -31.263471 132.322435
60.969658 -1.777925 112.010367
54.265361 -15.888257 125.310888
52.754001 -31.795029 140.421844
62.032736 -5.103836 91.555038
59.161491 -22.746403 136.338934
33.103303 -45.891630 115.397540
53.458909 7.420259 97.438942
58.116823 -24.934600 107.737087
32.629753 -42.572880 100.237889
38.400009 -43.893440 95.031074
60.882905 -17.933175 116.980338
50.011036 -25.137222 99.092410
32.565756 -41.639966 113.217277
47.664348 -28.302511 93.442948
50.575231 -24.278079 132.174140
41.095547 -42.538038 99.497052
38.130502 -42.587039 91.555038
62.534881 -5.686855 126.348882
56.503346 -27.579494 140.421844
54.053017 3.958958 122.904205
43.084785 -41.367944 97.216720
59.878184 -20.937825 103.836208
55.603840 -5.307951 101.679062
50.698690 -24.058697 95.913363
40.799254 -34.588987 130.345841
55.594862 -4.700919 125.204259
33.010582 -38.607676 96.932615
61.977674 -13.227702 133.365429
55.511287 -3.756596 114.728521
62.316662 -10.823360 97.595748
48.081099 -29.671498 91.555038
60.247294 -20.000990 130.158133
33.844190 -45.643078 102.408035
50.604054 -24.226862 138.829392
54.829335 1.061317 115.631668
50.542136 -24.336889 106.618392
37.592327 -36.569153 118.541020
60.717649 -18.470796 98.839983
32.820872 -45.358880 134.615729
42.839043 -33.081323 130.959043
54.580524 -30.713763 99.501216
54.565699 -14.736452 93.201981
36.588866 -44.665072 109.132666
53.785353 4.701935 116.103716
58.352882 -24.453762 124.931282
45.065860 -40.070959 128.900080
54.748128 -14.036830 93.191266
54.908657 -13.338769 107.001283
39.535897 -43.353642 120.298602
56.467566 -27.896415 95.047541
52.863870 8.229478 103.268846
54.297264 -15.765909 121.650957
32.426929 -39.616227 99.402648
51.847792 -34.092856 103.524837
54.544297 -14.818527 128.816160
55.428581 -2.822100 95.533846
59.784282 -0.357857 105.471256
61.048110 -1.807521 128.454299
53.007546 6.819813 115.633651
59.086850 -22.934761 110.190079
41.799541 -42.169891 104.125471
62.147104 -12.025980 134.717623
55.473931 -3.334504 96.874104
34.648150 -37.969662 99.361035
53.864488 7.013804 103.979463
54.661612 1.691934 100.997971
46.384845 -29.760998 123.120386
53.152350 7.763582 94.852777
55.643820 5.216905 139.895398
54.557984 -30.745705 124.043842
47.746474 -38.007945 126.289723
55.476492 -9.329601 103.669147
34.251013 -38.124391 92.350258
44.269101 -35.546831 140.421844
62.556655 -6.890729 129.054965
51.282045 -23.022093 131.770922
62.372496 -10.347395 119.438946
62.179891 -11.793434 115.918252
55.974713 -24.545775 91.555038
62.509320 -8.106850 133.855617
53.833489 -17.249148 91.578811
62.528539 -5.336217 108.825892
41.090886 -34.376787 108.157180
61.393811 -2.320588 119.610769
38.655540 -35.946543 104.963432
52.942692 6.960621 100.403625
58.122693 1.601760 97.902932
59.962544 -0.264483 134.986285
40.471006 -42.864636 121.367632
55.561432 -9.727045 91.555038
55.498363 0.570329 91.555038
60.626132 -18.768525 100.991536
46.125867 -39.281769 114.601871
42.898920 -37.146446 91.555038
61.316611 -2.368725 99.149308
59.900389 -20.881792 96.877607
55.607218 -6.694915 122.519523
34.054410 -38.200989 118.903756
60.922756 -17.803528 107.391503
60.628567 -18.760606 117.439136
59.041145 -23.050096 94.498915
46.012758 -39.365980 94.214958
59.882759 -20.926280 95.830013
40.456315 -42.872318 101.735069
60.360056 -0.786356 135.661458
44.706712 -31.460140 93.467731
55.263027 -29.746579 129.722084
61.351134 -2.257249 127.325474
53.702750 4.931224 129.858400
52.283083 -21.089388 136.950829
44.964906 -31.225077 134.680151
61.984987 -13.175831 117.934043
57.153112 -26.740835 121.966851
39.421829 -42.917728 140.421844
58.477574 1.074084 92.392312
54.985262 0.180244 121.191449
57.098956 -10.831491 140.421844
53.430436 -32.210219 97.175496
53.681206 -17.678400 129.885855
55.244929 -29.772227 106.011469
53.819425 -17.288791 114.725312
61.966821 -3.171011 108.985930
61.344886 -16.249554 117.034319
61.577645 -2.593421 131.374783
54.994765 -30.126736 130.725230
62.508447 -4.225307 126.742823
54.385144 -15.428885 110.928412
41.212926 -42.476656 97.819476
50.143497 -26.345167 91.555038
55.268344 -1.429177 129.526396
61.184016 -16.953575 115.097929
56.599542 -18.650921 91.555038
40.328457 -42.939180 103.790407
39.213694 -35.609543 95.422239
60.485368 -1.234139 105.435662
48.885723 -26.787678 134.737913
32.390306 -39.082370 109.084782
48.677528 -27.060455 106.261018
55.542700 -4.111536 139.330105
41.252525 -34.259174 102.190429
55.733809 -7.462955 140.421844
58.227019 2.022819 134.153478
62.465151 -8.830137 123.989929
59.706061 -3.073375 140.421844
60.844010 -7.950075 140.421844
47.692481 -38.055211 132.945686
62.511174 -8.076493 111.547540
53.031615 -24.106222 140.421844
48.583468 -32.745926 91.555038
58.342575 1.501196 109.271322
42.522083 -33.335408 107.215999
43.204568 -32.764038 110.426485
45.008789 -40.113449 117.205832
36.038044 -44.899747 103.782467
61.604957 -15.081843 110.277033
57.785236 -5.012630 140.421844
57.996042 -25.180625 114.405764
56.465034 4.138001 128.309017
55.071556 -12.385420 140.285440
55.663333 -17.144469 140.421844
54.443357 6.211348 98.795783
53.504356 7.591077 128.076078
58.877435 -23.385279 99.901287
55.023899 -12.664327 134.959346
55.437983 -2.928325 129.820729
62.558085 -6.969794 135.893912
54.957122 -13.055131 136.884636
32.428012 -39.632016 114.098757
37.117691 -44.439768 114.127032
60.506260 -19.158504 138.314131
58.791450 0.794578 99.742604
52.356924 -20.926989 132.084992
48.746107 -26.976385 132.192829
54.405969 -15.349019 117.265771
52.835266 -32.926091 93.638839
47.491448 -28.514470 94.762049
62.446896 -9.129073 92.700449
37.765586 -36.483876 98.479918
32.630686 -42.586477 109.298213
59.445353 0.408329 133.627712
60.484298 -19.229951 108.825828
43.669487 -38.226794 91.555038
55.514300 -3.790636 118.201083
62.180720 -11.787557 129.758051
52.458509 8.011858 134.650137
38.843114 -35.833290 123.723263
56.607278 -27.660912 102.902103
58.941873 -16.215779 91.555038
44.600567 -31.552277 126.951680
44.262456 -40.628117 115.650454
57.964108 -25.245673 138.873540
58.475892 1.101057 94.016511
54.921990 -13.260739 122.763720
60.797633 -1.513669 116.658945
55.607718 -7.759773 134.247661
55.200249 -1.042034 95.043197
38.632756 -35.960300 129.254493
52.979593 -19.557551 134.021084
45.270331 -39.918727 139.015580
52.039112 -21.625955 113.128617
47.550761 -28.441757 120.897051
43.466818 -32.536398 96.531871
50.501275 -24.409496 129.391507
48.041600 -37.749593 101.132569
51.022041 -23.484111 111.735064
46.381062 -39.091773 93.272909
39.471645 -35.453798 121.416856
45.996912 -39.377778 108.203113
55.336327 -1.815686 105.857682
35.869478 -44.963636 94.461581
43.276276 -32.701794 131.650718
54.243024 3.265774 136.650070
55.620221 4.970421 113.756855
62.530287 -5.432846 95.791646
55.486762 -9.206748 136.702650
54.287780 -31.128615 98.598017
32.709936 -43.741731 124.809979
32.423461 -38.836424 115.750813
39.914135 -43.155846 111.234566
60.722031 -18.456542 127.489939
55.913206 -28.825202 111.139975
34.951833 -45.271487 134.740086
32.490655 -40.545195 131.798602
44.573557 -31.575722 101.552894
46.846249 -38.745435 118.029580
38.726997 -35.903399 137.301120
60.802768 -18.193880 122.533395
54.179340 -16.218151 112.267711
32.482955 -40.432947 100.880578
53.600685 -20.035174 91.555038
47.159155 -38.512472 129.739367
51.993019 9.022510 111.431472
59.872758 -0.411109 109.210574
52.033251 9.147416 101.832362
62.293805 -10.985475 107.601652
32.803634 -43.341892 140.421844
49.651398 -31.326402 91.555038
48.486254 -37.360343 114.936282
53.305074 -18.738633 120.876454
57.446114 -26.246941 136.647690
48.027120 -33.634627 91.555038
46.273417 -29.875889 132.761343
56.195318 -12.861102 91.555038
55.603194 -5.042744 102.484743
32.458617 -40.078159 106.738302
51.164243 -34.794038 124.971424
61.479580 -15.644782 133.360761
54.819429 -30.375208 101.805410
55.044672 -12.542753 103.538590
43.201773 -41.294451 98.619056
41.158289 -42.505228 96.192229
44.201338 -40.666512 133.067577
57.491142 -13.021723 91.555038
42.152949 -33.604000 109.089150
49.427902 -36.536026 98.371459
32.772862 -44.659031 124.063541
41.164852 -42.501795 105.370814
59.309610 -22.372623 128.525773
47.670413 -28.295077 102.863705
50.913893 -35.050846 134.448529
46.329956 -39.129822 98.581591
38.717773 -35.908968 138.777759
55.604071 -5.403019 109.721396
60.601258 -1.313345 109.716315
54.164302 -31.303597 97.852469
35.876431 -37.413648 132.934761
43.086878 -32.866195 105.229319
41.647697 -33.971636 111.312489
42.344626 -33.464531 115.647739
55.530504 -3.973729 122.321312
58.587028 -23.976822 118.290968
46.892570 -38.710948 136.321734
36.102645 -44.872224 100.494384
62.549335 -6.485977 137.453164
49.467533 -25.934359 126.953743
43.428424 -32.569725 133.287981
39.727309 -43.253545 129.886256
53.026034 -32.696635 103.453996
61.707073 -14.623346 117.102496
57.485695 -26.180223 140.273906
47.271875 -29.655183 91.555038
53.074419 6.674622 125.484780
56.381661 -28.041219 137.699758
54.203456 -16.125663 117.024927
60.398119 -19.510316 137.736674
61.358640 -2.303023 110.628326
32.375579 -38.867681 135.300153
54.085627 3.857568 124.457013
45.526292 -39.728161 99.123416
52.398345 -20.835892 93.816142
60.097406 -0.679507 110.008185
55.605181 -5.858618 130.695670
57.186969 -26.683766 131.663075
52.387764 8.772363 103.343305
50.603586 -35.369157 118.079597
39.041203 -43.612337 101.080189
55.604570 -5.607594 132.829268
47.650388 -38.092058 121.998756
54.155274 -16.310446 126.858278
54.352514 2.854106 131.636895
60.674438 -1.252941 137.678162
62.518482 -4.780140 96.418133
54.552605 6.226523 108.697832
57.615865 2.267513 100.036087
54.925613 0.519366 122.001933
62.518971 -4.807174 112.860078
62.509363 -8.106147 104.025632
59.941962 -0.222744 136.818302
54.835380 1.032378 133.983353
55.592244 -22.690629 91.555038
55.159756 -11.869241 93.770798
54.774383 1.267931 126.885578
58.532114 1.592983 130.803424
47.155794 -28.925947 99.322837
60.462122 -19.302096 130.565948
36.737736 -36.989748 103.487300
56.819746 3.703606 128.875899
55.006531 0.059319 93.699574
48.484300 -27.297333 107.916423
52.487270 8.667092 132.809593
54.380199 2.750013 129.053824
55.599681 -12.971476 140.421844
51.253750 -27.890018 91.555038
52.778278 -21.864194 140.421844
53.954543 4.232299 113.775364
53.542038 7.264636 94.057324
48.236691 -37.578810 126.716933
48.916839 -36.983410 106.702550
50.449590 -24.494012 127.043091
52.905500 -19.720503 117.113156
54.687095 -30.562739 98.154305
43.644651 -34.423045 140.421844
58.905941 0.872943 114.198635
53.905957 4.367165 137.549657
43.710488 -32.324887 115.550361
51.516691 -22.605133 91.656919
62.379901 -10.226147 104.031664
40.082049 -35.085251 100.761961
61.937164 -13.515027 131.315238
56.158251 -28.417806 132.174020
56.908898 -27.152491 121.395962
57.117103 -3.544882 91.555038
44.498686 -31.640712 94.987181
62.007155 -13.018601 93.754028
54.925456 -13.240451 127.591741
54.732313 -16.746435 140.421844
55.489831 -3.514161 106.011221
32.530402 -41.124591 106.563881
36.991358 -44.493591 138.869272
50.737141 -23.990370 111.356907
58.199352 1.549914 100.770271
54.235253 3.294993 121.331924
34.843547 -37.893534 109.226721
55.581592 -4.550980 137.432197
59.276792 -22.455440 102.680304
42.157942 -37.052523 91.555038
32.387602 -39.042943 97.099075
55.437228 -2.919797 126.307115
49.029648 -26.576588 124.636077
51.164386 -23.231169 92.433353
55.605003 -5.785672 119.771572
54.671243 3.704003 91.555038
56.535713 4.039270 127.626958
49.273784 -36.670941 117.128144
58.896280 -23.346894 123.131241
53.959395 4.218831 115.165394
59.132963 0.598896 114.820883
55.521046 -8.796612 135.506384
54.136997 3.664424 135.490320
47.756505 -28.189537 115.899035
39.419537 -36.228654 140.421844
55.606331 -6.330761 107.696851
49.482849 -25.911895 119.819503
37.757433 -36.487894 93.295787
59.801283 -21.131885 125.142749
49.080843 -36.839841 136.750886
34.626562 -45.380608 136.092698
32.497205 -40.640674 133.958201
43.055236 -41.386508 127.834534
55.513010 -8.892749 123.915837
42.404762 -41.795143 134.837850
32.814958 -38.683893 129.875193
51.469847 -24.056496 91.555038
54.439557 -15.220208 94.123335
32.541214 -41.282201 96.390975
62.008292 -3.232560 121.197360
33.748007 -38.320367 110.612951
36.964643 -36.878074 95.372300
55.250046 -1.325150 112.308969
44.704593 -40.339928 93.807630
45.811972 -30.351679 119.713255
44.435233 -40.519577 128.208008
54.573286 -30.724021 107.825035
32.425632 -39.597321 127.314758
32.603788 -42.194378 105.753026
56.754009 -27.413577 137.217379
62.300697 -10.936590 129.777320
53.604374 -32.001006 117.365444
62.508445 -4.225243 104.896324
55.245099 -29.771985 103.662402
62.561027 -7.132410 129.876363
51.847371 9.344066 115.038764
58.488536 -4.344790 91.555038
59.326466 -22.330089 113.588619
53.310878 6.018978 105.231785
50.759479 -23.950676 99.619408
47.784022 -28.155804 106.530776
55.584490 -29.291030 126.775060
45.604373 -39.670029 110.805533
38.314540 -36.152431 138.156063
45.926323 -30.233773 99.290425
54.099344 3.805995 123.752017
61.835711 -3.038312 97.766825
58.205456 -24.754061 104.926911
55.808170 4.752502 114.857266
58.473872 -24.207314 129.101112
56.741089 -3.962883 140.421844
45.699477 -30.467671 103.485671
43.380837 -32.611032 126.324203
51.148129 -34.810567 138.009198
53.405228 -18.456321 93.233914
33.199259 -38.534165 104.260772
60.818874 -1.503254 121.509943
55.576999 -8.127267 117.084728
61.737347 -2.830442 118.689997
45.558677 -39.704050 108.913693
52.811918 7.244552 94.322728
54.903600 -22.513450 91.555038
41.678906 -42.232976 123.983954
62.524662 -7.855617 137.043856
52.276469 -33.598212 115.744338
32.809559 -45.193978 107.531767
54.833649 -30.355057 100.968066
59.073415 -22.968664 132.980744
60.612763 -18.812018 110.544777
61.991475 -13.129816 132.650177
40.917496 -42.631148 126.978646
48.080005 -27.792959 116.611181
54.625349 1.828281 135.294173
52.652238 8.492566 135.067294
54.710863 -14.179739 137.713951
53.606889 -31.997981 139.288113
52.180054 -29.337544 91.555038
62.508624 -4.235134 104.161481
34.308682 -45.487250 136.695864
59.451886 -22.013590 119.794466
36.809118 -36.954617 138.985885
59.336588 -22.304545 120.460469
49.618924 -25.712319 96.940241
60.533349 -1.099560 124.825238
60.115329 -20.339389 139.078125
57.806644 -25.566417 99.060406
32.405145 -38.843561 110.686687
55.847830 -8.810268 91.555038
53.537323 -32.081655 100.937022
62.158761 -11.943302 128.688747
51.924060 -34.014620 123.480602
45.595402 -30.574981 137.696401
32.540340 -41.269468 110.618954
62.555666 -6.836051 110.687295
35.273897 -37.710191 130.671383
54.010811 -16.749317 106.173772
58.756821 -23.630963 115.677939
54.429561 -23.036352 91.555038
47.546141 -28.447421 111.484219
56.977358 -22.579471 140.421844
60.089691 -20.404085 131.010179
54.234394 -16.007016 131.691018
62.420750 -9.557218 140.104294
36.854205 -36.932427 130.484358
35.859753 -39.551948 140.421844
41.495929 -42.328662 130.331285
56.674405 4.001697 140.194888
62.394979 -9.979230 118.696687
39.421462 -43.413484 110.748592
39.641918 -43.298200 93.766767
55.869706 4.762858 120.552851
42.627677 -33.258575 99.721941
34.129673 -38.870143 91.555038
53.031260 -19.443919 113.847139
36.336184 -42.997038 91.555038
46.976020 -38.640644 91.555038
54.453359 2.474940 100.902753
58.946079 -23.245454 96.720940
57.464496 2.425146 97.982662
53.494506 -32.133156 110.410727
36.976693 -37.309254 140.421844
50.491533 -24.426807 97.685954
55.607138 -6.661852 103.796739
55.514072 -8.880038 114.940406
37.658164 -44.209501 137.615326
33.733827 -45.680102 113.267995
55.545877 -4.147430 121.076412
56.459668 -27.909727 131.702092
60.644474 -4.089355 140.421844
44.551913 -40.446277 114.534880
53.299704 -18.753769 136.210381
58.909560 -23.319843 99.035859
40.656599 -34.692786 129.285996
59.045758 0.964307 137.133722
47.545100 -38.184227 99.063622
32.860120 -45.931024 107.517502
38.026862 -36.326124 134.428485
54.535384 -14.852708 99.833129
36.068054 -37.319339 115.948034
53.264743 -32.409515 131.704077
55.041689 -12.560212 131.545904
60.045825 -0.815226 96.938285
37.932886 -36.382865 95.767963
47.893734 -28.021307 130.969383
53.758946 4.775235 113.382039
41.308754 -42.426544 137.997966
47.994482 -37.790840 103.383485
55.430272 -2.841206 96.322121
55.605851 -6.133764 140.358587
39.720632 -43.257037 130.675536
60.018293 -20.584259 138.325111
62.524920 -7.851405 115.822396
55.602713 -4.845341 100.432141
53.205916 7.794168 101.219266
62.557409 -7.319382 125.233727
32.424899 -39.586636 93.158540
54.129585 -31.352795 124.546549
43.432943 -41.149227 124.424303
32.861177 -45.946421 116.334323
61.177991 -16.973177 129.140327
56.457214 -27.913865 118.426054
46.407494 -34.896668 140.421844
43.388538 -41.177123 108.014043
33.122656 -38.564011 113.788709
62.543804 -6.180158 119.529524
57.672881 2.347026 109.878936
55.334426 -16.266807 140.421844
32.777273 -44.723321 105.063433
55.606628 -6.452654 96.287443
51.001673 -34.960801 106.701091
62.142990 -3.432471 110.333747
42.654706 -33.238908 117.782419
37.146333 -36.788653 131.326735
59.359095 -22.247749 100.742651
59.342004 -15.573999 91.555038
35.063247 -45.234110 130.928636
32.480960 -40.403868 138.149102
34.873473 -37.881874 117.528963
59.157153 -22.757349 112.890580
57.684735 -25.814738 123.415766
60.684134 -1.405809 111.345724
58.937281 0.524267 93.986269
52.889737 8.241307 135.753975
62.119701 -3.397906 139.159098
61.478579 -2.446394 114.758660
55.902490 -17.879728 140.421844
39.748127 -35.286865 101.411821
58.277598 -24.607113 109.903769
55.441535 -2.968467 103.173710
53.072718 -19.352741 107.226650
55.016782 -12.705975 112.092787
40.630533 -42.781213 91.959808
37.056631 -44.465782 123.832184
57.336272 -7.586827 91.555038
34.460812 -45.436214 106.576686
35.341807 -45.140659 139.611704
53.429493 7.524351 101.836818
56.461829 4.078923 124.189773
62.177207 -11.812473 112.752138
57.982466 -25.208279 123.490149
51.667517 -22.337120 113.732473
52.703390 -20.165005 125.966322
55.108720 -12.167924 119.605563
44.355368 -40.569749 139.856034
62.394258 -9.991034 133.728812
53.518286 -18.137634 136.117937
59.764576 -21.224516 102.541006
55.512005 -3.764710 137.545464
46.181905 -39.213423 91.555038
54.924256 -13.247473 120.039901
50.103454 -35.882190 103.780225
53.052709 6.721756 109.515544
49.540747 -36.437242 140.305734
55.634944 -4.409283 91.555038
33.100704 -38.572563 115.366370
46.033572 -39.350485 129.802537
56.547837 3.732836 108.605620
47.875354 -28.043839 108.271449
59.948788 -20.759655 130.383710
51.528023 -34.420873 96.658938
48.343373 -27.470095 121.918731
56.586688 -27.695620 91.615240
54.499227 2.302482 124.074660
47.882846 -32.545916 91.555038
40.214373 -42.998840 98.372378
32.520200 -40.975873 109.921514
53.286243 -18.791712 136.977623
61.091555 -1.963171 108.969100
52.660054 -20.260313 99.360167
45.345884 -39.862478 108.115936
62.510589 -4.343777 91.832822
51.007094 -23.510673 138.266533
49.666394 -28.270640 140.421844
55.560689 -4.314791 138.122316
33.625391 -38.368140 93.599640
32.735781 -44.118488 123.361020
33.419300 -45.785619 92.879256
50.529709 -24.358970 134.603676
58.864164 -23.412311 111.054084
52.321179 8.842806 127.122399
32.573702 -41.755797 132.124258
61.724703 -14.544190 118.493511
49.920618 -25.269835 104.726119
61.890724 -13.798760 132.876977
61.986896 -13.162295 110.171282
62.109571 -12.292196 101.818680
47.499037 -28.505166 124.687895
40.087158 -41.654626 140.421844
51.955968 -21.808812 106.052307
56.220990 3.961763 96.894469
61.986264 -3.207268 101.214699
61.859847 -13.937397 122.050557
51.915343 9.191157 120.995735
39.209314 -35.612187 136.822045
51.158032 -23.242459 108.416842
45.314415 -30.864704 96.181102
36.927710 -44.520708 101.606238
55.455410 -9.581797 114.313324
42.334005 -41.839593 132.583815
59.821963 -8.430680 91.555038
47.762335 -28.182389 91.750644
55.462933 -9.491805 95.177345
42.645787 -41.643728 126.836536
37.115175 -44.440839 140.027620
55.493982 -3.561061 112.973896
61.216758 -16.824844 98.460007
61.793874 -14.233610 100.103404
58.574018 -24.003321 134.204039
49.296617 -36.650953 131.927821
47.380237 -28.650803 104.230061
32.739898 -38.713137 138.254591
58.416706 1.299472 102.145344
36.201427 -44.830139 110.392790
56.342280 -13.013829 140.421844
54.447265 2.497853 93.670313
62.351286 -10.577780 128.944968
53.209469 -32.475998 127.656560
44.159861 -31.934820 107.425625
33.017271 -45.920492 130.503213
55.915717 -28.821644 130.315035
41.544004 -42.303522 105.873674
61.340724 -16.268238 100.214180
39.154674 -43.552999 116.196973
34.886548 -45.293389 128.325866
52.710825 7.464041 109.694873
54.199791 -16.139721 92.573169
32.834925 -45.563748 133.774638
52.778446 -32.994433 126.043424
44.893816 -31.297730 122.381429
60.589898 -18.886405 122.797288
51.981964 9.201675 127.590592
38.027198 -36.325921 111.153023
53.178447 6.386578 115.084425
36.566425 -37.074061 101.498771
56.986143 3.049216 99.716613
61.547720 -15.338835 93.675095
32.436090 -39.749773 97.518485
48.197136 -37.613436 113.532841
60.818340 -18.143221 100.524435
55.354599 -1.986171 115.402106
60.044704 -20.517611 110.897961
53.915870 7.155720 136.876813
48.679070 -37.191552 115.865218
53.980257 -31.548893 130.589470
62.322452 -10.782294 99.188923
48.809676 -30.792015 140.421844
59.318009 -22.351429 124.435285
59.443705 -22.034234 136.225995
