43.620458 -41.031428 93.952612
60.676764 -18.603806 135.892447
58.948623 -23.240272 122.170358
62.551647 -6.613819 118.692243
41.749469 -33.897583 95.397009
48.841182 -37.049640 138.023926
60.400088 -0.877681 130.590451
50.214824 -24.838334 121.264544
59.342320 -22.290080 111.623343
39.062936 -43.600972 118.738465
55.603811 -5.296302 108.286919
62.408339 -9.760451 125.677880
60.688011 -18.567218 110.887241
57.606682 -25.973727 113.292729
59.915326 -20.844097 96.051958
55.729638 -29.085338 119.422484
55.828110 -28.945793 134.487549
55.536964 -8.606186 94.393421
49.225948 -28.636554 140.421844
54.783697 1.232910 135.953950
61.492839 -15.585248 100.339369
59.557500 -21.747073 101.930502
36.634419 -44.645664 134.942082
51.918482 9.268835 130.135655
32.682180 -43.337124 109.757545
36.986274 -44.495757 96.557647
55.203722 -11.611931 109.211383
55.552612 -8.418992 133.214066
35.571644 -45.063553 140.390124
51.986905 -21.740774 99.061126
43.801757 -40.917534 135.012470
60.666265 -1.240812 133.214532
42.274074 -33.515866 105.185481
40.972052 -42.602618 117.975654
49.472105 -25.927653 97.794896
51.875328 -34.064610 127.337168
56.572914 -27.718836 104.720538
48.566281 -37.290287 115.733708
62.337823 -10.673268 93.817213
62.136165 -12.103568 100.157089
43.161255 -41.319905 109.519960
58.642151 -5.332703 140.421844
54.856285 0.913523 96.192255
55.607140 -6.662666 92.207888
50.792535 -35.175334 95.272060
60.704839 -18.512470 103.960254
54.476041 -15.080291 127.716154
45.192912 -39.976367 112.034716
59.093884 -5.968949 140.421844
55.513664 -8.884922 101.630685
53.179998 7.934228 139.331553
47.210922 -28.858366 93.592532
57.726431 2.246858 107.705901
58.732554 1.220497 140.421844
58.955962 -23.225325 103.603880
59.800806 -16.807312 91.555038
48.350425 -27.461451 124.059397
58.741351 -23.662474 95.384003
62.396646 -9.951928 122.732366
51.589171 -22.476340 128.033478
60.246114 -20.004829 115.062754
52.884641 8.209324 103.860459
58.113295 2.010683 123.839181
60.462916 -1.290694 99.911148
61.106477 -17.205831 108.194409
46.309585 -39.144989 137.218153
56.636986 -25.710778 140.421844
55.345670 -1.885282 118.433575
53.168263 -19.124273 136.222176
32.403422 -39.273562 129.439662
52.971618 6.897819 134.952562
46.515256 -37.560931 140.421844
39.710735 -35.309441 127.150774
52.430174 -20.765890 100.869325
52.374716 -33.480041 105.247309
32.514626 -40.894627 104.807902
49.792611 -25.457579 128.411341
62.558520 -6.993823 100.025245
49.953907 -36.035595 138.030228
37.655418 -44.210671 122.081784
37.150645 -36.786531 121.942051
49.005026 -26.612701 132.129483
43.318062 -32.665522 108.672188
39.146843 -35.649906 114.395494
43.901893 -32.158743 118.793791
60.255821 -19.973252 117.686270
43.560865 -32.454764 99.980555
62.216821 -11.531498 119.600436
59.640628 -21.537297 121.701800
53.325726 -18.680418 96.721489
55.305632 -1.641174 110.071734
60.658941 -1.293611 121.289939
38.047506 -44.043623 134.374319
59.192908 0.303675 140.421844
56.835395 -6.709400 91.555038
37.932253 -38.464770 91.555038
60.751497 -1.367307 135.691013
55.609108 -7.470629 101.139256
61.854992 -13.959196 132.455253
61.736958 -2.829863 126.223365
60.427621 -19.414337 110.700820
55.608973 -7.415297 122.393710
40.761535 -42.712706 126.815542
48.033899 -27.849480 97.869566
60.304966 -0.954603 108.974413
37.120586 -44.438534 130.881566
54.620393 -30.657265 133.588287
58.962954 0.767737 111.979090
50.482856 -35.493001 97.302044
52.214486 8.541670 120.553487
41.953940 -42.078355 129.360358
61.971346 -13.272583 112.202989
62.561919 -7.181722 118.146488
46.166958 -39.251177 106.834591
41.577255 -42.286133 122.254988
57.393809 0.567809 91.555038
59.003729 0.729395 112.801224
50.998257 -23.526375 129.035384
61.431036 -15.862741 117.875962
48.052797 -37.739790 93.074749
55.208175 -15.189649 140.421844
53.313068 6.012899 130.538776
45.054432 -37.227714 140.421844
56.426612 -27.965448 97.470382
56.134830 -28.457286 136.879843
54.056890 4.442442 140.421844
34.757314 -37.927131 128.843375
44.194378 -31.904859 132.526120
35.512938 -44.239781 91.555038
32.714186 -43.803680 139.520341
44.748309 -40.307380 115.446734
43.386475 -41.178419 121.343766
55.605742 -6.089010 124.185688
57.269493 -26.544659 131.224846
62.546255 -6.315706 110.413993
48.656903 -37.210957 101.101928
59.508225 -21.871418 117.590839
55.400010 -2.499270 137.924087
59.857876 -0.262610 117.786438
46.287369 -29.861503 116.290986
43.022732 -32.921876 105.122786
53.993333 4.124628 97.671477
59.415282 -11.248268 140.421844
54.200583 -16.136681 92.566669
60.399006 -10.672109 91.555038
50.379349 -35.599178 116.616142
55.261677 -11.272759 103.266396
33.461604 -45.771427 118.139791
57.218812 -26.630089 91.902176
53.016356 -19.476698 101.167446
54.888495 -13.456762 105.723835
49.964935 -36.024282 102.286474
48.720149 -27.008206 102.559354
58.174037 -4.813609 140.421844
62.507657 -4.181648 140.398368
62.517346 -4.717355 125.731220
32.861205 -45.946830 132.478475
59.761271 -21.232855 124.320462
49.593533 -36.391033 105.451562
34.285143 -45.495147 101.513115
52.594444 7.716721 136.611312
59.944065 -20.771573 121.556771
36.089394 -44.877870 135.673796
33.825945 -45.649198 109.194754
51.076930 -23.386575 95.203985
45.080065 -31.106339 93.590093
62.521181 -4.929365 94.766915
43.676830 -32.354103 103.179811
48.621878 -37.241618 131.637955
50.251166 -26.572275 91.555038
62.561581 -7.251067 113.247855
41.026239 -42.574282 136.928912
52.470807 -33.364463 97.229604
45.637248 -30.531835 125.793989
57.579218 -26.022577 98.558415
54.872513 5.566174 91.670922
52.268292 -21.121918 116.824003
52.499474 7.922917 95.768216
47.920502 -27.988492 116.364233
36.739288 -36.988985 125.162737
54.835186 -30.352879 104.833305
53.995865 6.906136 107.664786
38.534901 -36.019382 108.442143
57.030415 3.114332 107.579844
53.577517 -17.970675 134.015022
44.877170 -31.312179 108.279595
54.035397 -16.680013 108.079402
33.098421 -38.573453 100.275798
43.667040 -32.362601 139.144837
54.526522 -14.886695 98.354910
55.107139 -29.967490 93.070469
61.322723 -16.349063 130.132366
51.654788 -30.354602 140.421844
57.313229 -14.216237 91.555038
50.042600 -32.885169 91.555038
48.308830 -37.515660 122.642706
41.303260 -34.222257 112.415010
57.769921 2.623367 135.839484
62.077011 -12.523131 130.100361
34.069657 -45.567438 117.674318
54.893110 -13.429756 106.427905
49.426102 -32.443207 91.555038
52.056441 8.884812 92.904029
62.176406 -11.818151 130.340165
47.394634 -28.633154 99.534532
56.907174 -27.155396 110.463938
54.971604 -12.970375 96.467969
50.327150 -35.652724 134.832990
59.671671 -21.458962 139.888259
45.981516 -39.389241 99.208507
62.445508 -9.151808 109.772962
53.634494 -31.964777 112.717794
55.365017 -2.103882 95.420168
52.492424 7.938223 96.852773
47.227819 -38.461351 123.984041
55.606709 -6.485856 129.555948
51.926681 9.166541 108.975054
52.921888 8.207293 120.958747
54.816214 1.110652 106.952969
42.777563 -41.560945 118.860468
49.221515 -36.716697 134.335802
32.431460 -39.682285 109.382079
61.268620 -10.342740 140.421844
55.007625 -12.759570 131.099301
56.088384 4.377721 113.240306
35.078221 -45.229086 128.264980
54.624098 -14.512487 114.100642
54.523852 2.247721 91.555038
62.560135 -7.274736 92.062438
51.875943 -21.966755 138.681130
49.503081 -34.079588 140.421844
43.612903 -32.409593 132.363527
61.670641 -14.786923 92.703297
50.671336 -24.107304 110.351329
55.815450 4.683462 110.942705
57.157855 2.967171 108.365151
36.086971 -44.878902 113.336875
33.550599 -45.741571 113.536599
45.915011 -39.438755 103.334272
44.064656 -32.017461 92.064180
62.507817 -8.131474 98.191779
58.520484 -24.112367 121.525284
62.391973 -10.028464 127.424901
62.504522 -4.008311 129.952037
44.224845 -31.878413 139.517144
39.835645 -35.234024 105.972696
62.504038 -3.981539 122.414348
55.480152 -3.404798 103.729895
52.807269 7.254647 112.129992
60.531269 -19.077142 93.830362
48.601931 -30.697146 140.421844
45.210471 -39.963294 133.837765
47.064201 -29.038231 122.647421
58.405487 1.237850 97.206283
32.641484 -38.751480 123.547044
57.107630 -26.817501 119.212714
55.745687 5.082419 137.985476
47.306033 -28.741769 100.209530
32.466813 -40.197634 101.096544
52.898730 -23.776118 91.555038
38.692639 -35.924144 113.883512
58.091437 -24.986310 101.905591
43.894873 -40.859038 136.956939
55.858174 4.496214 102.200240
54.226994 6.813604 129.503974
39.441858 -43.402819 92.269105
55.559565 -4.302089 132.947139
40.998134 -34.444276 124.370145
62.558760 -7.297261 138.169705
38.942425 -43.662346 123.953446
53.315243 -32.348774 137.756450
52.817597 -32.947343 131.663803
35.281704 -45.160822 103.508818
56.463500 0.963515 91.555038
57.657346 2.723815 133.216265
54.152004 -16.322985 126.092669
38.338596 -43.919605 137.355427
45.924065 -30.236101 97.709068
49.470753 -25.929636 118.329488
56.046775 0.156226 91.555038
42.020453 -35.017950 140.421844
54.668942 -30.588465 120.872718
45.356307 -30.821509 108.352353
62.522424 -4.998087 102.076919
61.659613 -14.836437 93.418647
36.944992 -36.887745 109.938672
53.576567 -32.034453 138.420779
47.643980 -38.097668 140.356118
62.326093 -10.756464 111.327304
42.625058 -33.260480 108.285353
41.691142 -33.940024 117.080681
38.677090 -38.310737 91.555038
42.242544 -41.897050 103.314083
61.262960 -16.617397 134.434858
35.061667 -45.234640 107.502322
55.336063 -1.814185 93.494983
34.390731 -44.494387 140.421844
33.635577 -38.364171 106.822834
56.922198 3.015408 92.293048
42.621423 -33.263126 104.560723
54.925107 -13.242498 113.758712
37.131431 -44.433914 115.147419
32.381227 -38.950021 109.410249
54.280382 3.125311 117.833382
55.992734 -20.683092 91.555038
53.017879 -19.473349 137.073397
59.653318 -0.228327 103.247129
52.649031 -20.284557 92.012225
53.580047 -32.030267 108.780776
52.371645 8.789417 108.342470
53.199625 -19.035871 104.998654
52.197325 -30.934698 140.421844
54.222153 3.344247 107.867645
59.247871 0.110585 92.306850
59.449779 0.122462 109.551565
62.470354 -8.744943 139.369521
33.548840 -45.742161 100.159622
33.378380 -38.464378 103.671711
55.492047 -3.539203 116.320602
32.440010 -39.806925 129.994411
32.816685 -45.297849 96.661890
59.693803 -21.403112 113.481885
35.730746 -45.010178 112.743275
36.466530 -37.123225 114.043271
62.527465 -5.276795 134.365621
57.730860 -25.720785 136.871325
54.573352 -14.707099 127.133428
44.825978 -33.553094 91.555038
55.476213 -3.360292 132.254466
39.932357 -43.146317 110.173741
59.219501 -22.600013 110.399126
56.536785 -16.714316 91.555038
52.658340 -33.138897 123.981749
55.608108 -7.060399 116.985458
61.811087 -14.156325 128.181970
44.778253 -40.285087 139.171705
54.960189 -13.037183 92.825719
59.906901 -20.865358 111.303929
61.919381 -13.641158 106.806215
58.640703 -23.867489 92.145948
60.439992 -7.363224 140.421844
49.663158 -25.647443 131.633109
48.287211 -27.538945 107.093401
46.299962 -29.848520 119.574144
50.689686 -24.074696 123.197696
55.351715 -1.953585 101.865163
55.604447 -5.557289 103.313755
62.285091 -11.047278 106.655549
47.705965 -28.251494 94.084576
51.861289 -34.079011 121.256251
61.931958 -13.551949 126.658630
38.037843 -36.319494 125.601060
58.114392 1.535114 92.873877
53.083421 -19.329201 117.335951
39.170269 -43.544844 136.309905
61.888008 -13.810954 118.692007
54.745802 1.375391 94.179365
62.326975 -10.750213 130.386108
38.372432 -43.905189 123.351667
61.912228 -3.089988 128.859906
55.371068 -2.172250 125.054057
38.089758 -36.288149 114.913030
62.184920 -11.757767 92.294671
44.757010 -31.416481 138.755566
60.391738 -19.531076 102.049764
53.358357 7.510755 95.146595
59.194311 -22.663582 135.996421
54.692544 1.575636 133.752441
34.578938 -37.996628 115.868510
51.936225 9.145819 105.966210
54.259911 3.202281 98.005716
45.988892 -39.383749 91.557968
58.827118 -23.487773 108.643832
60.024856 -0.684319 103.776194
54.945073 -13.125648 125.397966
55.143443 -0.719070 113.827198
47.333648 -28.707916 126.563159
53.891810 -31.655277 111.036384
60.131193 -0.569052 124.694480
33.455594 -45.773444 133.263271
53.532477 7.561327 138.633644
40.980426 -42.598239 123.650822
60.280503 -17.386623 91.555038
61.865924 -3.021266 117.042460
62.207512 -11.597528 136.756444
41.032014 -42.571262 125.470575
51.383611 -22.841613 104.392375
38.454681 -43.870148 126.118430
54.465489 -15.120759 112.075714
59.047144 -23.034958 98.525877
46.358012 -29.788665 126.214604
55.432069 -9.861022 122.096598
61.874070 -3.033356 123.322768
45.340163 -39.866737 126.710909
40.368013 -34.902770 105.614009
33.914476 -45.619498 108.416515
46.143081 -30.010277 120.270084
60.219342 -0.783920 113.135941
55.549368 -4.186878 112.263804
48.544375 -32.777176 91.555038
43.250299 -32.724342 125.966868
61.491896 -2.547687 101.990503
32.659720 -43.009710 113.328218
38.206835 -36.217461 120.444442
54.474864 -30.863496 118.404720
48.640645 -37.225189 111.103856
45.089006 -31.097120 134.035100
54.091779 3.834436 128.547163
52.576074 -33.237848 136.594032
49.194723 -26.334479 101.212245
54.782570 -13.904744 133.455403
43.895330 -32.164440 109.511483
51.880389 -34.059417 130.288612
44.290229 -40.610670 131.107434
61.796366 -14.222423 120.865557
56.298323 4.293289 124.851146
59.010321 -23.114599 99.921172
60.702782 -18.519164 102.233579
32.690040 -43.451692 99.655370
61.241349 -16.714432 114.334833
53.030226 7.879738 92.476366
54.832585 -13.712931 129.925288
60.270625 -19.925088 115.987168
58.139287 -24.888844 115.296740
35.697548 -37.501687 134.463886
62.532399 -7.728924 114.118640
54.019356 -20.978235 140.421844
59.007470 -23.120405 96.981900
44.629175 -31.527445 114.689596
59.993109 -8.851932 140.421844
41.299171 -42.431555 139.161913
54.828289 6.087910 127.427217
34.247594 -45.507744 136.998192
61.112362 -17.186685 132.352384
60.692088 -18.553954 131.584220
62.548760 -6.454201 134.625760
59.809666 -15.994218 91.555038
55.609506 -7.634321 116.659805
59.333802 0.387616 117.406232
59.823836 -9.969654 91.555038
33.771587 -45.667434 110.068499
51.853575 9.337502 100.493904
60.631847 -1.574582 95.152584
61.649160 -14.883372 108.565682
54.922863 -13.255628 140.406449
55.581891 -8.068743 120.932511
32.845875 -45.723369 128.373557
33.298938 -38.495329 118.526947
41.473591 -34.098320 125.886902
47.367414 -28.666523 130.129945
52.869991 -32.884323 121.070871
38.212488 -43.973333 105.788997
50.110992 -24.990621 111.255862
60.995525 -1.729477 126.307543
52.550885 -20.500409 125.655127
49.332421 -36.619610 100.721103
53.538735 5.386497 92.759584
55.252907 -1.341417 95.534990
45.325813 -32.641650 140.421844
54.317519 -31.086472 127.278397
55.409021 -2.601091 105.667003
32.858994 -45.914605 134.742895
32.501077 -40.697123 97.766429
59.936496 -20.790675 118.267222
57.125136 -0.589611 140.421844
53.349238 -21.387243 91.555038
56.722255 3.450035 104.365496
47.277198 -38.418749 94.935982
55.035647 5.449781 97.376931
53.034971 -32.685886 133.751456
53.190063 -19.062824 105.813866
53.963292 4.208013 129.995271
62.528129 -7.798846 97.538217
52.925359 -32.817727 96.910592
33.754542 -45.673153 124.952698
46.981700 -38.644590 133.989557
55.607218 -6.694862 113.918554
49.969287 -30.792984 91.555038
54.762077 -13.983333 98.747607
32.626281 -42.522266 93.915008
42.367262 -33.448060 133.259795
54.842534 0.991704 136.716535
56.794705 -27.344978 116.076799
56.110452 4.281310 108.744699
54.966889 -18.880301 140.421844
41.619685 -42.263945 125.235090
55.702970 -29.123130 100.732257
54.555309 -14.776298 115.673379
54.861711 0.882675 99.172749
32.805034 -45.128008 108.777856
58.942364 -5.755304 91.555038
55.456402 -9.569930 119.351879
58.318572 -24.523650 120.841061
60.317499 -18.227728 91.555038
55.405541 -2.561771 126.924697
53.628036 -25.057864 91.555038
47.081891 -30.807085 140.421844
62.534976 -5.692083 129.979381
45.995537 -30.162408 94.214367
40.411731 -42.895633 136.066367
62.555616 -6.833285 134.048227
54.750233 1.358730 129.485324
48.759613 -37.121045 92.362731
55.388832 -10.378257 105.674428
62.554589 -6.776487 115.494161
43.183653 -36.075072 140.421844
51.746240 -22.197232 108.179044
54.247110 -15.958249 105.901083
53.767645 4.751091 104.064345
48.242660 -27.593559 122.673581
55.605302 -5.908061 140.369901
45.893314 -39.454908 129.786342
58.971929 -23.192801 116.917613
53.023869 8.099403 119.072171
61.468049 -2.430767 140.250394
34.990843 -37.836146 93.145214
56.654249 3.901182 128.278437
62.541865 -6.072995 100.068929
47.817292 -37.945951 94.839159
36.922197 -44.523057 119.192998
55.024080 -0.040453 116.649325
35.848844 -37.427225 125.653599
44.161518 -40.691528 98.475542
43.795184 -32.251369 113.389556
47.533825 -28.462519 113.141980
57.168158 -26.715473 121.795912
40.264403 -42.972677 109.567517
56.513256 3.784528 109.160381
55.141137 -11.978205 112.877308
55.059606 -0.242430 115.126326
54.984214 0.186200 124.577139
51.786693 -34.155530 138.433469
49.996715 -25.158226 140.268877
57.480105 -26.189645 108.868182
32.692916 -43.493623 108.902011
53.138874 -32.560911 110.421518
58.489581 -24.175315 110.556959
54.512006 -14.942365 121.382066
55.410215 -2.614575 130.711893
62.510534 -8.086979 92.318156
38.564549 -43.823339 113.419263
53.757128 7.219856 109.420726
32.690146 -38.732521 106.721278
62.333914 -10.700995 124.342886
52.128528 -33.776156 120.627950
60.651562 -18.685796 117.558206
55.539598 -4.076484 126.959050
57.344013 -26.419046 96.734383
46.315047 -29.832965 127.021093
32.747899 -44.295137 131.472470
44.521273 -40.465525 116.245795
60.005456 -20.616653 120.853692
54.684038 -30.567072 102.864789
49.903237 -25.295327 120.741538
59.697881 0.083963 134.813900
38.358428 -43.911156 117.731289
49.012649 -26.601520 130.548223
62.280299 -11.081266 93.146954
34.451775 -45.439246 139.766924
60.738245 -1.412550 119.510283
32.447893 -39.921835 125.401928
32.849726 -38.670347 95.798895
53.692355 4.960078 97.662373
56.449489 3.852219 108.379299
58.868067 -21.084269 91.555038
55.334029 -29.645962 117.968577
44.754696 -31.418489 123.917543
57.346008 -26.415684 133.009926
41.373811 -42.392523 110.861719
52.104901 9.071615 98.034861
47.056465 -29.047714 132.600326
56.663385 -10.112768 91.555038
54.530686 -30.719654 140.421844
38.303430 -36.159139 115.631062
56.900037 -27.167428 136.078110
55.603646 -5.228276 123.859283
39.707822 -35.311200 113.058587
44.597091 -40.417896 131.695086
54.802190 1.163378 120.474324
58.043104 -10.076083 140.421844
55.684905 4.779472 106.563917
62.021529 -12.916651 94.600377
32.696044 -43.539228 106.665700
38.111899 -36.274781 126.479448
61.396079 -2.463275 99.457227
54.516259 -14.926054 99.344899
34.652280 -45.371981 98.164542
62.063731 -12.617320 110.301884
32.488051 -38.811259 102.669549
58.121055 1.733171 106.350507
52.300234 8.864964 138.325478
41.037913 -42.568177 95.346896
52.830088 7.205102 115.532442
34.437516 -45.444029 126.844052
53.197594 -19.041596 106.578707
62.402232 -9.860467 133.457084
46.619333 -29.519220 131.906970
62.421280 -9.548550 135.251781
49.645269 -27.597385 91.555038
46.517138 -38.990463 94.735609
44.822645 -36.966925 91.555038
35.079784 -45.228562 101.539473
32.720155 -43.890691 137.568403
45.591714 -37.289950 91.555038
60.986795 -17.595190 124.253514
44.747423 -31.424802 101.059525
41.102953 -34.368006 98.506543
50.678797 -35.292006 99.075221
61.162770 -17.022693 98.354126
62.441732 -9.213626 93.651012
32.898832 -45.960226 110.389665
32.751625 -44.349451 113.728163
37.474960 -44.287554 124.776048
51.994890 -21.723210 133.029278
40.127192 -43.044430 126.675082
43.891202 -40.861343 129.094687
38.821427 -43.713897 105.124076
47.621370 -28.355198 117.244935
46.564647 -29.575606 91.936855
33.743276 -45.676932 139.634809
62.422420 -9.529868 108.977811
62.494894 -3.954742 117.229682
47.877674 -28.040996 121.342678
57.962050 -25.249865 139.695768
61.003871 -11.133808 140.421844
60.499143 -19.181656 139.186469
37.649678 -39.533724 140.421844
52.736010 7.409361 140.384207
32.555419 -41.489278 121.131707
37.241654 -44.386953 110.963384
58.744799 -11.606679 140.421844
53.010425 6.813562 101.393912
35.788048 -37.457147 101.732992
57.085065 -26.855538 128.661309
41.011835 -34.434306 132.641853
32.517146 -40.931363 124.142696
41.525327 -39.240972 140.421844
47.771578 -37.985969 123.459822
44.501229 -40.478118 123.396751
62.379988 -10.224719 132.116768
54.653341 -14.400341 114.937167
61.033084 -2.016071 99.051084
36.700257 -37.008194 94.904179
50.307964 -24.701729 110.599135
61.656646 -2.710670 113.884621
32.718660 -43.868898 120.935042
44.614596 -40.406899 117.232369
46.704576 -35.118787 140.421844
32.564195 -41.617209 131.572993
62.536928 -5.800031 109.981265
61.768223 -14.348785 120.113138
37.811947 -44.143982 106.511413
60.953018 -17.705077 110.046996
59.909832 -20.857960 126.306903
53.886891 -17.098619 132.002321
58.214866 1.658550 109.129639
54.387424 2.722849 96.007919
62.536729 -5.789021 96.440157
45.100841 -31.084916 91.937790
47.270894 -28.784847 105.112709
47.699722 -28.259146 108.231268
45.728786 -30.437451 107.919818
48.382294 -37.451349 106.207868
45.212472 -39.961804 92.555009
55.416956 -2.690741 127.766157
55.085304 -12.304959 131.620426
32.639949 -42.721501 106.486411
60.718514 -18.467981 140.061893
41.028830 -42.572927 117.308393
50.139025 -24.949505 133.967406
54.292865 -31.121409 93.571620
55.607150 -6.666982 109.540059
54.911688 0.598536 116.057955
60.719338 -18.465302 125.964999
32.722934 -43.931210 134.971798
42.731770 -41.589713 108.895649
57.845896 2.262977 118.502901
57.805794 -25.568148 95.805909
33.737240 -38.324562 112.546490
33.036832 -38.597449 136.157770
51.577977 -22.496231 111.375935
49.940244 -25.241051 118.997273
51.613418 -22.433253 133.885881
51.428851 -34.522604 105.237517
54.948878 5.571239 98.230610
54.758734 1.326767 101.122113
58.112262 1.615513 97.950171
60.116483 -20.336476 105.158040
41.984495 -33.726572 103.624313
32.679862 -43.303329 115.561253
35.861864 -37.420818 114.017781
48.803294 -26.906279 134.762884
49.623594 -26.934473 91.555038
53.781730 4.711993 108.439478
54.911475 5.939398 120.645831
55.461901 -13.848929 91.555038
55.059354 -0.240998 115.830925
62.536012 -5.749374 123.532538
54.963233 0.305488 120.310375
60.285658 -19.876181 110.024813
62.516565 -7.988218 124.972825
62.438092 -9.273242 126.971724
50.063630 -35.923042 95.628004
47.465289 -38.254094 132.885976
54.263108 3.190260 127.641868
58.995584 -9.333377 140.421844
61.677567 -14.755828 112.491854
52.061790 -33.856429 128.656250
37.221364 -36.751726 118.076034
40.654684 -34.694179 117.116548
42.839712 -41.521902 140.180662
43.566099 -32.450220 91.589496
45.051729 -40.081480 96.717271
32.709089 -43.729381 104.556996
49.305553 -26.171928 102.250630
54.262437 -31.164528 125.192882
54.905879 -13.355023 107.712133
54.954981 0.352404 105.865384
61.245198 -16.697149 122.809127
54.089469 3.843121 117.651660
54.144721 6.487379 92.461685
51.956243 9.102356 117.251135
51.999773 9.182834 112.770233
55.580284 -8.087962 128.943007
32.607250 -42.244836 122.553934
53.880039 -31.669436 125.751991
55.905435 4.669812 117.391228
53.937549 4.279471 107.816536
41.457948 -34.109703 109.336515
50.526761 -35.447963 105.482750
32.638078 -42.694233 111.404018
61.523562 -15.447305 95.560422
61.692015 -14.690954 92.053432
44.720917 -40.327774 100.866389
34.118858 -42.642625 140.421844
55.567118 -8.245462 93.286120
62.560553 -7.267900 103.889959
32.458350 -40.074265 122.817581
39.288010 -37.452746 140.421844
35.782444 -37.459905 97.551106
52.465575 8.690044 126.937867
42.347190 -41.831311 115.960062
54.176629 3.515412 129.306732
61.791725 -14.243259 108.874113
54.668639 6.204356 117.689531
34.365083 -45.468329 120.358497
62.149599 -3.442279 109.727178
55.634502 -16.041324 91.555038
48.833550 -37.056321 120.871172
58.203276 -24.758502 114.218012
32.669692 -43.155076 110.627587
58.539006 -24.074639 101.976576
56.625757 -27.629763 99.412798
34.199110 -38.327916 91.555038
50.510595 -24.392936 119.816682
37.455042 -36.636719 138.201383
45.087942 -33.365043 140.421844
59.679573 -21.439022 101.232449
35.405082 -37.781465 140.421844
51.972393 9.211800 123.895692
39.807057 -43.211842 117.265521
41.605526 -42.271349 110.157798
53.290584 -18.779477 115.065532
36.717601 -42.478143 140.421844
36.371297 -44.757766 134.069920
43.946372 -32.120134 93.086971
51.776077 -22.144212 115.735944
32.744010 -44.238435 99.932743
55.126493 -12.063908 94.165249
54.199525 -16.140739 138.056959
47.599881 -28.381541 131.494333
40.744988 -34.628472 109.175218
62.193805 -11.694748 107.062332
53.037994 8.084459 132.940395
53.453068 5.624290 103.115081
39.764348 -35.277071 120.491297
38.247714 -36.192779 112.086130
55.370784 -10.594154 134.589893
60.050372 -20.503307 114.349244
54.102268 -31.391506 95.739135
53.173176 -32.519652 132.264200
60.144204 -0.544015 130.017494
60.483356 -19.233016 102.862577
40.715726 -37.870883 140.421844
47.852825 -37.914846 120.314093
34.205907 -45.521729 131.064501
42.736274 -33.170529 125.933016
54.054254 -16.626859 101.329405
60.727322 -1.743028 91.940647
59.316159 -19.616514 91.555038
35.550761 -45.070559 111.147831
61.876678 -13.861824 128.874732
51.455373 -34.495398 93.777176
32.375797 -38.870866 119.767435
55.058516 5.753689 119.087516
56.716736 -27.476405 121.398791
48.235342 -27.602530 139.563471
34.636973 -43.155971 140.421844
55.543076 -4.115781 92.378709
58.161120 -24.844370 110.152054
40.491910 -34.812618 138.300083
57.997096 -25.178479 125.176013
59.640514 -21.537587 125.096776
45.503726 -39.744962 106.471284
40.889815 -40.382100 140.421844
62.388735 -10.081475 115.444822
41.591090 -34.012825 134.782848
35.580583 -45.060554 122.761063
54.197286 6.438235 93.540154
49.176166 -36.756395 95.892682
62.541574 -6.056873 107.641048
61.919684 -13.639009 98.502386
36.740368 -44.600524 110.280167
53.903284 -17.052410 98.754972
50.787181 -23.901450 109.225837
62.553423 -7.384644 96.828655
52.388131 -33.463905 100.183823
40.172222 -35.030807 115.789506
62.440306 -9.236988 117.949858
62.132212 -12.131609 126.043175
51.681203 -22.312801 133.070535
59.069211 0.883999 130.919222
53.520419 -18.131621 122.407409
41.861372 -33.816160 100.714537
53.887297 -31.660705 105.227293
38.041889 -36.317051 133.174200
54.911512 -13.322060 136.123268
53.038411 -19.428193 134.975580
48.708951 -27.021934 103.264281
41.510622 -34.071376 104.296611
32.464813 -40.168479 121.575156
43.439007 -41.145418 124.951270
33.368179 -45.802769 130.781742
54.052371 -16.632168 106.343407
43.901794 -34.660467 91.555038
60.111119 -20.350013 128.066959
52.544252 -33.276123 111.787690
44.135001 -40.708186 102.632479
53.814190 -17.303547 121.902570
62.070394 -12.570062 136.192425
60.202381 -11.238086 140.421844
45.345636 -30.832512 119.470254
40.971460 -34.463685 139.035713
44.257544 -39.109076 140.421844
51.933207 9.253256 95.735362
62.536380 -5.769721 93.089768
57.452192 -16.884174 140.421844
33.872000 -45.633748 106.332833
52.643620 7.609953 137.783344
37.351138 -44.340308 110.161488
49.482635 -36.488113 120.613308
55.603144 -5.022153 137.300505
39.557705 -35.401837 104.104076
57.302423 -5.096627 140.421844
50.635934 -35.335975 140.176967
44.480161 -31.656792 106.675798
54.782021 1.239213 104.020792
54.115968 -23.486963 91.555038
47.439240 -38.276897 118.462592
53.564120 -32.049424 110.504944
38.504726 -36.037601 121.368643
53.126314 -19.234866 132.679537
55.204066 -11.609920 138.266848
53.437760 -18.364620 105.048712
57.791144 2.318669 117.673669
38.032125 -44.050176 111.429572
44.657947 -35.031823 140.421844
62.502330 -8.221314 104.238134
48.721609 -37.154313 124.175437
36.931853 -44.518943 125.509470
54.909083 0.613348 103.024516
60.625728 -1.180649 136.389113
54.667608 1.669391 125.977617
57.457372 -26.227964 119.429641
32.387824 -39.046184 105.626375
55.530014 -8.689328 131.568363
32.375908 -38.872483 139.707668
51.928067 -34.010510 100.012048
60.212487 -0.927845 103.178461
43.573114 -32.444131 134.275464
48.500537 -37.347839 126.036123
61.389472 -16.049365 96.698572
48.263514 -27.567995 94.197480
61.060027 -17.356945 122.103243
40.207832 -35.009306 128.146452
38.164838 -36.242817 92.811155
54.870337 -13.563029 109.359741
53.226300 7.343242 91.555038
44.020984 -32.055369 128.491512
57.008431 -26.984715 130.573314
57.617367 -25.951964 139.938231
60.029806 -0.643408 106.851436
34.121362 -45.550092 114.975716
61.567218 -15.251288 105.784069
54.392089 -26.488424 140.421844
55.603662 -5.235019 119.183498
47.720467 -38.030711 112.498974
61.893153 -13.787852 100.034047
54.792259 -13.867583 94.210005
61.919625 -13.639426 116.166217
59.161835 0.662111 121.303880
44.073729 -32.009585 119.420980
53.348332 -18.616696 101.380335
60.828067 -4.669204 140.421844
57.583531 2.834089 134.396331
45.389406 -30.787381 109.926610
49.685203 -25.615111 130.408981
44.441835 -40.515429 107.692123
55.509834 5.119519 114.489009
53.372622 -32.279758 123.915454
37.479997 -44.285408 105.547591
55.603698 -5.249603 114.914233
55.578175 -4.512365 102.942497
57.460846 -26.222109 132.093439
49.378093 -35.691111 91.555038
55.015883 -12.711241 119.673757
38.890782 -35.804510 101.541629
58.242823 -19.762750 91.555038
43.755159 -40.946808 134.043253
46.410602 -39.069780 111.404075
36.709179 -39.160676 91.555038
62.355769 -10.545982 138.468795
59.009753 0.571164 102.960084
55.283847 -29.717075 129.922009
54.161457 3.572458 109.247124
57.394898 -8.549984 91.555038
60.458350 -19.314368 99.156244
49.272659 -26.220173 138.848186
44.124852 -31.965209 124.175740
54.237807 -31.199432 106.343376
54.493468 -15.013459 135.773905
59.013122 0.996879 135.802300
53.381949 7.503424 96.592169
54.732108 1.426879 132.531691
62.547584 -6.389178 112.392955
62.431514 -9.380956 95.340677
53.554471 5.342815 124.125902
56.800938 3.599638 120.552583
50.857892 -23.775800 122.450956
61.368650 -16.142855 105.919788
60.727069 -18.440149 122.684113
57.998122 -25.176388 99.092478
58.281229 -24.599715 134.311413
53.485306 7.447171 101.349397
54.140171 3.652489 126.392153
62.479800 -8.590249 119.279956
52.636118 -33.165626 117.279864
54.664301 1.681823 108.643053
52.115771 8.755997 135.721621
48.506570 -27.270033 105.863053
52.858325 -19.824256 104.423890
54.441006 -15.214653 105.960021
56.302619 -28.174455 138.858827
47.270478 -38.424631 94.047197
38.022592 -36.328702 122.395382
58.059983 -25.050380 102.798702
62.520607 -7.922027 94.280617
32.807885 -38.686649 105.066817
62.532545 -5.557704 100.859107
41.362801 -34.178934 128.361754
54.377053 2.761842 104.922087
58.599942 -23.950515 137.123975
35.954799 -44.935013 121.324562
58.398740 -24.360352 128.899955
39.527736 -43.357910 112.542286
58.900004 -1.716090 91.555038
57.131006 -26.778098 107.730368
43.050224 -41.389656 105.171937
59.463393 0.059058 106.521714
52.633309 7.632340 99.893153
61.629403 -14.972080 124.160152
58.616439 -12.513743 91.555038
54.245635 6.767615 126.268964
61.777469 -2.889988 109.917154
59.800865 -0.257324 113.388693
55.605821 -6.121389 123.461825
44.295785 -40.607179 96.574668
46.908827 -29.220727 129.696965
41.969360 -42.068668 120.612441
55.347791 -10.768786 123.974243
60.132768 -20.295382 133.604272
56.846072 -27.258392 101.905045
53.069781 6.684691 113.422428
58.962689 -23.211621 92.485831
55.442001 -9.742208 92.256288
37.438834 -43.029740 140.421844
60.479919 -19.244199 120.883888
59.484464 -17.381102 140.421844
33.207235 -38.531058 124.049719
53.921111 -31.620034 96.668993
59.402861 -22.137305 136.468799
54.058807 -31.453095 122.673856
53.161073 6.434806 123.697024
62.376730 -10.278075 101.469935
60.580881 -1.114090 138.888995
47.575605 -28.411301 127.951010
45.754504 -33.406587 91.555038
57.721558 2.131509 99.776080
62.193896 -11.694101 132.335906
41.762750 -33.887920 91.683630
61.249304 -2.183573 107.469439
58.779570 -1.334340 140.421844
61.584132 -14.744344 140.421844
56.223433 -28.307933 99.547816
33.607115 -45.722611 102.026523
54.725977 -17.867901 91.555038
51.614548 -22.431244 139.703288
48.600345 -27.155075 133.946923
46.457224 -39.035069 138.140057
60.048873 -20.507090 109.760764
55.579549 -4.527894 91.688523
62.237638 -3.572941 104.948628
36.646509 -37.034647 121.091132
59.259510 0.593052 125.950556
41.977837 -33.731417 94.230912
62.302618 -10.922968 132.523278
59.745607 -21.272383 94.161379
54.373840 6.661945 132.447599
54.705434 -14.200560 117.582351
38.039403 -44.047075 112.791818
55.498755 -3.614992 106.959877
32.597049 -42.096133 137.062854
52.391993 -20.849862 118.386114
52.088636 -33.824139 110.269989
39.029121 -43.618656 130.398519
52.253608 8.914292 119.707357
51.861677 9.328931 102.145560
61.198651 -16.905964 129.301905
37.679065 -44.200596 119.947948
62.255596 -3.599593 140.102324
56.877591 -27.205262 139.950187
36.809898 -36.954233 102.456984
56.712060 -27.484288 92.399285
32.751828 -44.352404 116.698946
58.516826 -24.119819 131.208662
39.157333 -35.643572 106.596147
45.627559 -30.541824 130.971897
55.608650 -7.282912 107.817175
52.436213 -20.752608 116.175461
49.840797 -25.386906 132.480623
51.019393 -23.488817 105.497248
55.291337 -1.559901 122.233722
53.270079 6.132227 132.864969
43.226104 -32.745344 101.795587
35.275693 -37.709308 125.472061
54.901706 -13.379445 93.773108
51.792481 -22.115063 117.346307
40.341585 -34.921999 94.794238
55.386702 -10.403732 127.904599
50.432564 -35.544590 94.091745
61.569889 -2.581911 131.949432
54.278202 3.133509 140.369379
61.325997 -16.334365 128.842562
46.536628 -29.604496 122.270522
54.694474 1.568380 126.858004
58.529795 1.586264 130.097377
55.328237 -10.883228 107.037210
35.870543 -44.963279 102.734901
48.142343 -27.716538 133.877283
52.732196 -33.050064 113.560179
62.215056 -3.539425 114.187625
61.329810 -2.270838 109.882079
59.240834 -18.335007 140.421844
48.245649 -37.570968 132.747783
55.608786 -7.338700 125.518694
55.522792 -29.378463 93.501493
58.320954 -24.518798 126.839958
57.767534 -25.646082 106.865143
54.881698 0.769043 128.592503
61.309010 -16.410635 92.836244
49.016014 -31.359251 91.555038
61.860852 -13.932882 111.667231
58.440477 -24.275337 116.570799
53.421618 -18.410120 97.664770
46.123044 -30.030937 117.805709
60.260093 -0.637997 137.796296
55.271249 -1.445693 139.059031
61.507309 -15.520280 93.040625
33.897382 -45.625233 134.071051
41.597793 -42.275393 131.581980
59.217272 -14.211847 91.555038
61.707589 -2.786277 112.440724
53.705925 4.922412 107.629286
62.507334 -4.163815 138.372856
33.019232 -38.604305 111.082988
44.172007 -40.684939 91.864253
53.958354 6.987424 110.132801
61.137149 -1.939666 124.127972
55.573166 4.695272 91.951358
57.446445 2.362440 92.415599
55.441196 -2.964631 122.043723
33.623776 -38.368769 131.153605
55.544715 -29.347396 101.379109
58.257345 1.802841 122.016883
58.668275 1.099477 109.605525
58.228852 -24.706405 98.552488
55.967876 -28.738709 109.348365
32.665015 -43.086907 135.034235
47.974909 -27.921796 119.292690
62.550621 -6.557078 120.069475
59.460853 -21.990960 133.830702
47.050710 -29.054770 115.971872
55.343134 -10.796041 138.540989
57.446202 -26.246793 116.736514
62.551992 -6.632905 106.379536
34.838711 -45.309437 123.959780
58.306427 -24.548389 122.444449
38.411657 -36.093794 131.079234
40.894497 -41.173173 140.421844
44.161631 -31.933284 99.692059
49.396336 -26.038781 137.845680
56.879386 3.118483 95.531853
53.578485 -17.967946 99.881693
59.807959 -0.244834 114.782917
43.322684 -32.661510 118.578667
32.560186 -41.558773 96.356981
56.565881 -27.730691 115.487014
48.889818 -26.781673 138.282797
38.373106 -36.349929 91.555038
54.751200 -14.025046 102.206209
52.496787 -20.619388 100.135652
39.563965 -35.398057 100.176617
52.209611 8.552255 122.271518
55.460168 -9.524887 93.106613
52.935489 -19.654548 99.960469
55.730054 -29.084749 121.654602
38.069228 -44.034368 139.524591
54.734669 6.189948 126.272550
60.107600 -20.358892 96.870833
54.907789 2.955123 91.555038
60.827367 -1.612720 109.128344
55.019130 -12.692238 123.722956
34.222972 -38.135316 95.246774
62.516793 -4.686788 136.920961
53.882664 4.431822 137.735898
38.781319 -35.870601 130.447613
32.427569 -39.625558 136.691183
33.393067 -38.458656 125.430738
52.375524 8.785312 127.904968
55.501418 -9.031420 95.625885
33.126884 -38.562363 99.315124
56.878860 -17.447061 91.555038
54.758732 -30.461223 99.435386
32.671686 -43.184143 102.327721
61.076495 -17.303373 99.181650
49.834371 -36.158215 133.260335
54.538299 2.155576 130.190882
56.159813 -0.746449 91.555038
40.422117 -34.863402 129.667957
32.700034 -43.597380 132.638357
52.198027 -23.155186 91.555038
40.227607 -42.991919 101.211902
55.608149 -7.076921 111.005079
49.617407 -34.458286 91.555038
58.007693 -16.170683 140.421844
50.663236 -24.121698 121.518621
53.433129 5.679636 115.451446
55.604380 -5.529793 111.156083
50.490288 -24.429021 98.082914
55.361474 -2.063846 97.288515
59.724429 -21.325827 126.808506
47.011104 -29.103323 131.297204
51.649283 -22.369521 93.759222
51.439957 -34.511211 108.653958
55.094141 -0.438775 104.156099
62.553331 -6.706908 128.970918
53.378426 -20.004678 91.555038
46.713623 -38.844177 113.242410
52.098911 9.077952 102.723496
40.401257 -34.878580 102.890362
55.384818 -10.426269 133.711938
52.358359 -20.923832 136.154083
53.221394 6.267368 107.257738
60.484075 -1.430981 92.476258
38.588104 -35.987260 104.923113
58.776418 1.089839 117.797128
39.029968 -35.720472 99.507989
39.486119 -35.445059 132.864078
55.276066 -1.473081 96.741228
32.606856 -38.764972 138.569064
46.171984 -39.247435 101.769497
51.754003 -22.183438 105.249659
49.184467 -27.170459 140.421844
44.361731 -40.565751 124.886221
40.419161 -34.865553 107.377674
40.945894 -34.482287 139.735880
32.691719 -43.476168 135.703981
57.758551 -25.664379 102.782216
42.232844 -41.903144 135.797095
52.099396 9.077439 133.746656
55.602740 -4.856570 104.932027
56.675834 3.941417 132.666450
55.605742 -6.088871 112.691674
37.524190 -36.602687 119.395432
32.469062 -40.230428 131.631336
51.875481 -21.967575 95.538758
37.669715 -36.531065 101.024989
55.606444 -6.377086 137.740025
33.836748 -38.285793 101.921049
52.239348 8.487692 134.729580
55.525945 -8.738007 104.029027
43.644741 -41.016173 131.184093
33.064534 -38.586656 112.149805
53.312940 -26.535318 91.555038
56.451584 3.739531 101.191636
55.006466 0.059692 96.713328
50.759287 -23.951017 113.433615
55.256884 -1.364026 111.405334
62.465479 -8.824773 111.648082
55.591334 -7.955770 134.951972
43.286204 -33.158241 140.421844
33.417175 -42.402422 140.421844
54.318766 -15.683446 103.982913
55.606737 -6.497230 96.942414
47.616592 -38.121643 129.640606
53.264720 -32.409543 104.137991
59.540089 -21.791010 94.824314
41.905458 -33.784082 121.116679
50.099398 -35.886350 128.578495
34.548480 -38.008495 101.535956
62.513596 -4.510032 124.029847
51.603942 -34.342996 120.693486
58.004006 2.132548 122.882609
59.871910 -0.555085 99.739719
53.877222 4.446927 129.049156
57.746874 -25.688166 95.174668
35.124601 -37.783669 94.951151
51.935335 -34.003054 136.161956
56.078257 -28.552646 120.205689
42.233905 -33.545095 134.681849
58.430288 -24.296092 107.564117
40.246983 -42.981787 140.135907
32.739153 -44.167631 103.688335
44.471659 -40.496694 122.395453
51.792947 -22.114235 119.249757
48.553639 -27.212332 118.858734
35.429073 -37.633820 137.187493
45.437374 -30.737922 103.117205
46.403638 -34.452548 91.555038
55.044672 -0.157523 94.044543
61.163265 -17.021083 138.382210
52.324064 -20.999258 108.722444
62.532413 -5.550385 92.343885
56.059791 -28.583774 101.194103
45.674698 -39.617671 130.722302
62.555548 -6.829516 116.293092
51.329029 -32.079341 91.555038
37.885523 -44.112635 117.180184
55.285462 -1.526499 100.367456
56.639225 -0.254156 91.555038
44.937937 -31.252885 129.568973
56.631026 -12.455867 91.555038
32.550244 -41.413842 102.663977
46.000616 -30.157171 122.504496
41.859797 -42.137497 111.981139
47.554136 -28.437620 124.354239
53.404718 5.944118 91.555038
54.836401 1.026573 109.833385
54.114075 -16.458238 103.245509
37.128732 -36.797316 115.559376
51.907600 -28.243835 91.555038
56.449642 3.606660 92.356703
55.359853 -10.698194 96.265823
49.434080 -36.530618 103.533810
50.455744 -25.008223 91.555038
39.344131 -43.453924 131.437345
59.841438 -21.030553 105.551934
52.734550 -20.096475 97.143785
61.416822 -3.461604 91.555038
54.521010 -17.193764 91.555038
53.055822 -19.389899 121.929866
54.332508 -31.065230 117.688603
46.136335 -30.017233 134.244541
53.115226 6.562067 105.359798
52.556389 7.799347 129.540429
52.853727 7.153779 119.811257
61.765742 -14.359923 113.850665
61.260981 -16.626284 108.777308
55.014404 -12.719898 105.574190
54.741287 1.392366 112.864749
56.340855 4.124179 117.277349
58.647589 -10.742292 91.555038
38.646854 -43.788273 100.883341
62.454801 -8.999625 135.949036
59.785953 -21.170570 119.800220
55.059229 -0.240286 106.419926
55.527724 -3.942318 93.011252
53.529636 5.411751 110.676595
41.577131 -42.286198 128.719007
54.761724 -13.984688 123.766320
38.753686 -39.071586 140.421844
54.249838 -31.182383 121.689046
55.607776 -6.923867 128.826365
44.998378 -40.121200 137.397093
47.804062 -37.957532 98.052683
54.074370 3.899685 124.542030
54.637261 -14.462008 108.730963
50.392679 -24.577480 137.128156
45.818339 -30.345114 101.903607
47.681268 -28.281769 114.801991
55.469689 -9.410979 120.727033
61.826441 -14.087388 99.105599
54.367648 -15.495984 128.325436
35.669249 -41.035415 140.421844
62.538860 -5.906814 138.942065
55.422948 -2.758444 108.154759
53.936322 -16.959282 93.371089
50.756892 -23.955273 95.371837
42.786233 -41.555498 128.302212
55.169964 -11.809500 128.391378
53.756130 -17.467206 96.478802
55.608667 -7.289664 130.281457
33.711388 -38.334635 94.639148
54.975821 -30.153582 118.980166
52.628570 7.642629 98.851771
61.944225 -3.172662 98.573410
60.900021 -1.928766 93.898511
60.806187 -18.182757 115.224413
51.920253 9.266961 101.283136
46.889659 -29.240491 126.376626
51.000675 -34.961825 139.686043
32.709856 -43.740566 117.613107
55.055625 -30.040492 120.366564
56.452022 -27.738557 91.555038
49.605535 -36.380526 114.378060
34.551049 -38.007494 110.307894
57.433052 -20.396471 91.555038
50.174145 -35.809675 131.093958
56.238176 -6.999178 140.421844
32.417384 -39.477096 104.979202
41.698114 -33.934951 113.104067
55.044910 -0.158878 123.285058
53.203755 -19.024228 133.454711
53.389376 -18.501004 107.127147
61.845576 -2.991067 134.104197
55.272669 -29.732916 97.448145
43.765065 -40.940584 112.482320
61.572122 -15.229272 116.407663
54.920392 0.549050 117.414586
38.352828 -36.129313 123.766984
51.260849 -25.227559 91.555038
62.425025 -3.851048 128.320186
62.557865 -6.957599 132.355265
52.519189 8.582711 96.696752
38.339230 -36.137524 139.725881
56.831558 3.589454 122.385155
60.797014 -18.212601 99.917402
60.411647 -0.943410 124.231909
56.219557 4.458741 129.361475
62.474802 -8.672101 127.635472
40.658958 -42.766348 139.055250
55.122038 5.828450 139.242920
62.176560 -3.482292 126.791966
56.933189 3.578489 129.958942
54.620275 1.847356 97.580244
54.380155 -15.448016 102.386660
62.180187 -11.791333 103.991036
51.909445 9.203962 127.140699
43.432414 -32.566262 130.408359
60.551197 -5.382632 91.555038
47.182062 -38.495417 112.733013
47.109790 -38.549225 114.969189
46.042222 -30.114272 134.927582
42.073088 -33.662110 97.773852
55.478655 -9.303725 138.014623
60.998812 -17.556096 130.510447
59.401273 -22.141311 103.940177
41.533636 -42.308944 93.781034
52.932041 -32.809690 99.195724
58.410999 1.314799 102.680757
52.901225 -32.846755 115.314747
39.957737 -36.836623 140.421844
55.605266 -5.893407 127.900077
62.243877 -11.339601 115.497921
62.392373 -3.819667 92.149742
55.150574 -11.922979 98.087157
49.718878 -25.565720 109.247281
53.937790 -16.955144 100.744888
35.306459 -45.152517 108.111062
53.415155 5.729528 96.379655
54.786176 1.223589 115.616899
41.240244 -34.268110 95.700911
37.080332 -36.821136 127.404048
42.593194 -33.283666 92.144767
62.104935 -6.656615 91.555038
49.182783 -36.750602 106.284390
55.127606 -12.057396 102.033154
37.867097 -44.120486 114.243873
55.389308 -2.378344 133.579581
55.311533 -1.674726 139.902581
42.473295 -33.370908 100.666292
32.779380 -44.754047 110.762043
36.642797 -38.361065 140.421844
40.521784 -34.790881 91.729712
51.515559 -22.607145 123.394774
56.555169 3.885663 119.183321
62.491812 -8.393556 115.823117
61.442222 -15.812519 125.755689
59.912682 -3.362199 91.555038
55.019216 -0.012796 99.858788
55.547407 -4.164720 94.193978
54.623416 1.835548 130.991490
59.593565 -14.399975 140.421844
57.063848 -26.891301 122.662015
59.001439 -23.132689 137.619423
50.981626 -23.555928 124.796659
36.775578 -36.971124 135.852282
36.231434 -37.238930 135.013676
32.472493 -40.280443 128.065144
53.755332 4.785268 127.412765
61.455934 -15.750949 97.529078
55.521763 -3.874966 124.489377
51.580179 -22.492317 92.678362
55.478694 -9.538359 140.421844
43.027531 -37.309447 140.421844
54.132337 3.681946 131.247562
39.496125 -35.439018 134.566513
60.486062 -19.224214 104.611762
49.590722 -25.753682 96.641892
51.959336 -33.828713 91.555038
55.159938 -0.812853 96.667745
48.213365 -34.524099 140.421844
60.250736 -19.989793 97.684692
52.193484 -21.286442 101.437071
54.394581 6.568032 123.079113
59.472681 -21.961113 121.143817
35.322027 -37.686504 92.274360
60.788140 -18.241471 136.688268
48.612932 -37.249449 133.405986
39.091432 -35.683362 128.797351
36.756001 -44.593864 109.463118
53.328629 -18.672235 98.466276
47.865960 -37.903347 117.103228
54.684816 6.030607 106.688583
60.176090 -20.186058 108.063880
55.576787 -8.129801 124.497407
61.724582 -14.544730 133.377544
62.536105 -5.754493 119.028287
56.451958 -27.922723 98.435038
62.553324 -7.386278 98.404940
61.326788 -16.330810 135.830667
45.589049 -30.581532 118.891140
41.421844 -34.135973 102.037938
61.811712 -14.153519 107.237463
54.862131 0.880286 99.852858
37.115003 -36.894230 91.555038
56.553340 -27.751830 101.196396
58.550806 0.510663 140.421844
54.134269 6.537853 94.905122
51.813708 -22.077344 135.982314
35.294082 -45.156669 99.056738
52.080538 8.832493 114.111442
62.506575 -4.121823 137.438241
35.951963 -44.935964 95.126219
57.869796 2.116101 110.861356
55.462742 -9.494086 129.047434
54.139295 3.655782 100.806839
33.453807 -38.434991 106.001287
42.532234 -33.328022 99.920518
55.182728 -11.734799 139.865961
55.464333 -3.226059 124.902384
62.552854 -6.680578 139.032879
62.460591 -8.904803 126.072046
58.794106 -23.555016 125.063324
55.152679 -0.771584 99.589019
34.355829 -38.083553 97.153999
54.477218 6.561849 137.870956
32.505741 -40.765101 114.422296
32.410071 -39.370486 96.021682
32.584586 -41.914460 124.036351
45.550464 -39.710164 96.333502
42.513575 -41.726786 112.724524
53.654119 -17.754751 105.155485
54.972097 -20.355439 91.555038
53.409032 -32.235963 105.036730
43.161006 -38.252053 140.421844
43.567604 -41.064632 138.954852
58.787806 -23.567849 138.370853
45.432233 -30.743223 95.830695
55.489464 4.897811 98.349885
32.760979 -44.485800 128.387342
32.693748 -43.505756 130.862126
54.378676 2.755741 98.648653
56.978650 -27.034915 125.271779
45.129891 -39.249394 91.555038
53.172480 -32.520490 95.806663
62.153479 -11.980769 94.433830
57.545470 -9.650274 91.555038
51.316656 -34.637693 111.249016
44.163589 -31.931584 123.335735
58.443669 1.782658 139.975332
55.605456 -5.971575 114.869353
48.029095 -37.760539 139.388143
61.720627 -14.562489 139.769856
45.509848 -39.740404 131.695556
41.937179 -33.761001 99.579894
38.298008 -36.162412 106.922387
39.819704 -43.205228 115.263874
50.645760 -24.152752 131.717134
62.322607 -10.781191 92.213176
47.561577 -38.169804 99.812423
49.464572 -36.503925 99.447840
38.745220 -43.746365 116.568721
44.399749 -40.541868 95.078191
49.368936 -36.587645 138.081017
41.980345 -33.729592 112.288101
48.719056 -27.009546 115.965897
55.589308 -4.638161 97.761581
40.918918 -34.501916 104.846421
38.788864 -35.866045 107.354828
39.947097 -35.166731 107.892613
45.740553 -30.425319 113.814950
58.716609 1.223582 121.652092
46.227366 -29.923372 139.608267
55.406805 -2.576050 136.095119
60.072013 -0.900394 93.512882
32.886858 -45.964243 118.558189
54.724483 -14.127510 115.951212
58.997822 0.495592 97.052059
54.756278 1.336003 139.922454
50.479049 -35.496907 114.772686
61.877066 -3.037803 139.918507
55.442333 -9.738239 98.879435
54.246359 -15.961132 125.253030
46.504050 -29.638087 103.432840
54.985503 -12.889037 94.302368
53.360694 -18.581851 95.141870
62.531403 -5.494524 114.738353
58.452533 -24.250779 109.671086
58.437435 1.746270 134.350879
49.273979 -36.670770 110.511535
