0.819629 -3.928931 31.221904
8.256807 10.181614 58.681790
9.289018 11.245918 8.500412
15.401165 16.150899 47.226245
5.984287 7.315048 35.543358
3.004456 -25.885747 6.405946
11.805498 13.569988 8.989601
9.929478 11.906291 38.100376
0.707139 -4.360339 22.951346
7.209830 8.914058 27.267909
0.023411 -8.509545 39.809861
6.290810 7.764612 39.552718
1.731206 -22.782753 22.572116
7.715054 9.533412 3.188187
5.710050 6.912837 50.766539
11.420689 13.235973 58.897782
2.261956 -24.256044 14.694659
-0.022693 -9.061105 60.689221
11.547034 13.345640 16.950813
1.410803 -21.893359 28.703125
13.508260 14.876127 6.024974
26.654851 19.658945 32.730913
2.626785 -25.065787 30.743397
0.538869 -18.567380 45.518861
0.486414 -18.269162 48.216648
13.098036 14.577633 36.017260
1.018761 -20.497192 22.808998
0.235416 -6.843886 38.143709
8.541276 10.474928 33.234969
1.560934 -1.367324 50.397131
0.681065 -19.227480 13.652655
12.964113 14.480186 37.087270
0.244212 -6.792410 24.105259
0.239108 -6.822278 0.818147
5.517431 6.630332 2.859873
26.093896 19.625518 61.491428
17.418588 17.321859 24.843641
5.457244 6.542057 30.401518
20.967792 18.921858 38.745769
4.206156 4.525746 30.270459
23.328905 19.460754 12.167302
0.596794 -4.783523 28.071200
2.741682 -25.315240 9.782241
0.565810 -4.910370 51.572321
8.717062 10.656179 39.043002
21.754071 19.228216 28.101888
0.451318 -18.069633 45.425392
0.088993 -7.724957 42.675903
18.661609 17.933609 4.178030
25.546056 19.592873 42.525977
-0.016367 -8.985427 21.302981
25.452561 19.587302 52.791137
26.877101 19.672189 31.138813
25.039619 19.562695 27.443887
-0.090764 -13.840386 40.313604
9.249298 11.204963 31.921013
9.150862 11.103467 60.633188
3.845822 3.885452 60.138382
1.855602 -23.128060 46.476024
0.505159 -18.375732 29.479424
25.221693 19.573544 45.312000
21.917808 19.292012 2.072739
3.266107 2.797776 31.826022
21.971725 19.313020 8.972584
2.792733 -25.426100 62.055719
8.348066 10.275711 37.546224
0.829914 -3.889488 53.221549
0.961677 -3.384165 18.754411
-0.139480 -11.886054 9.722602
1.992298 -0.151394 47.054145
18.359234 17.784796 35.418277
1.134043 -2.723125 40.337908
8.310053 10.236516 47.027660
-0.139977 -11.682222 11.016888
16.942526 17.081542 23.539035
15.099415 15.968708 19.981724
4.573094 5.177773 47.075401
24.080378 19.505534 19.218013
14.809727 15.793801 8.476390
15.959951 16.488283 63.315745
3.377427 3.042607 6.546740
6.109068 7.498059 55.560459
24.062033 19.504441 55.571229
0.313070 -17.283656 49.435696
2.100220 -23.807086 23.756165
-0.140478 -10.470234 33.465776
0.204147 -7.026879 24.799689
-0.075651 -9.694671 1.893215
14.318795 15.465902 57.604533
9.096906 11.047833 31.214158
23.920190 19.495989 59.327843
17.519393 17.371470 51.166198
20.193120 18.620023 46.403688
23.029213 19.442896 57.085659
5.297301 6.307476 18.369648
1.163934 -21.043033 0.085271
0.588845 -18.851508 45.095415
0.613428 -4.719729 10.999310
7.292197 9.015031 61.532716
0.237374 -16.853307 49.871693
28.018403 19.740199 16.442532
3.115159 2.465790 12.251776
1.509146 -22.166344 63.406628
0.221213 -16.761430 43.010922
0.220373 -6.931924 51.826412
24.535682 19.532665 11.259433
5.210391 6.180009 46.307724
3.188431 -26.285190 31.439265
0.777965 -4.088716 57.202159
1.444174 -1.696449 63.393180
1.349072 -21.722001 43.263406
1.269393 -21.439552 45.451030
4.771447 5.530235 60.127495
18.267842 17.739818 1.105608
1.148126 -2.669116 44.067785
1.766628 -22.881080 58.308653
22.146223 19.381009 15.545956
26.547478 19.652547 3.099547
0.028706 -15.190327 59.077917
0.077595 -7.861318 8.383983
-0.052878 -14.268474 14.459398
1.662816 -1.080138 37.086589
27.002440 19.679658 2.442556
0.249045 -6.764131 36.113233
13.431347 14.820162 28.147592
-0.137541 -12.682076 18.495161
2.366292 0.818773 25.674422
-0.129044 -10.333440 55.683670
17.753957 17.486910 35.520730
3.399607 -26.743662 7.175716
0.028959 -15.193183 18.230979
0.793034 -19.648473 6.746886
19.502683 18.347543 49.468156
9.188956 11.142745 32.542841
1.491343 -1.563487 28.309535
-0.140719 -11.377712 8.630834
0.204690 -7.023700 39.541215
3.044445 -25.972568 7.887151
16.490344 16.808524 17.029135
-0.137976 -12.503482 27.412419
-0.142476 -10.656497 44.347004
5.860383 7.133324 48.833398
20.453517 18.721482 22.066468
19.601672 18.389578 0.400663
3.274548 -26.472165 33.806981
-0.135990 -13.318741 13.429760
9.657500 11.625857 48.695811
7.026094 8.688815 0.444441
5.818904 7.072488 41.516124
5.888410 7.174429 62.883743
3.125528 -26.148607 -0.102901
7.419385 9.170951 21.173068
2.136872 -23.908828 46.815948
-0.077527 -9.717122 21.561028
8.378293 10.306877 0.429576
4.529024 5.099463 30.192816
2.434446 -24.648199 33.835051
25.975281 19.618450 6.971203
-0.136068 -13.286563 47.838780
0.007796 -8.696350 42.132986
3.012616 -25.903495 58.830415
0.807618 -3.974995 41.210689
6.407932 7.931009 16.570886
-0.140657 -11.403191 60.097612
19.330603 18.262854 20.894062
22.117233 19.369714 30.244999
6.730488 8.326431 18.500072
8.504480 10.436988 17.977291
4.573407 5.178329 42.847069
-0.083614 -13.921180 57.114493
14.974179 15.893093 59.056968
26.313023 19.638576 32.154492
20.023174 18.553807 54.625121
24.258612 19.516155 43.097816
23.997228 19.500579 63.587223
1.766323 -0.788375 11.812661
0.066206 -15.614050 21.275094
7.468320 9.230941 16.065326
25.245412 19.574958 6.375377
2.647819 -25.111453 39.925626
26.945922 19.676290 57.541581
3.761960 3.736435 2.659310
23.922117 19.496103 39.504972
0.030792 -15.213895 0.416821
-0.064010 -14.142692 30.287279
4.070410 4.284533 47.932846
1.664835 -22.598516 53.294705
15.970553 16.494685 38.589917
0.614827 -18.978429 14.424438
27.760466 19.724828 19.899916
7.820552 9.662744 23.325435
6.058188 7.423436 10.942461
21.459413 19.113408 60.119447
23.218655 19.454184 21.346257
2.966579 2.139011 39.656900
1.197561 -21.169467 41.049619
5.389700 6.442994 45.033024
15.398360 16.149205 33.250135
0.821866 -3.920351 1.929684
0.354813 -17.520977 8.574993
8.183498 10.106026 -0.744667
1.278892 -21.475267 35.628430
15.692192 16.326615 17.682274
1.122731 -2.766509 51.333264
25.796027 19.607769 6.413018
1.749969 -0.834474 49.943694
-0.137440 -12.723554 19.614334
15.007380 15.913140 21.487798
9.976356 11.954626 45.086739
0.751446 -4.190418 11.664705
6.247812 7.701549 33.412536
2.307469 0.689401 6.313997
21.845639 19.263893 3.090849
26.314593 19.638670 3.605721
0.688066 -4.433489 24.983729
0.477745 -5.425740 47.835996
3.003090 -25.882801 45.563741
12.627338 14.235136 64.209483
1.274355 -21.458209 27.067152
-0.055395 -9.452343 52.504388
11.094648 12.952968 62.350546
4.201116 4.516789 11.308209
22.275305 19.397971 31.336691
11.190899 13.036514 16.678088
2.409952 0.914798 5.643286
17.099408 17.164775 32.045623
15.974430 16.497025 42.569605
12.537127 14.169496 15.603477
22.685790 19.422431 31.612331
4.130996 4.392191 7.367823
-0.142349 -10.708812 62.874215
0.250211 -16.926290 5.479823
13.788873 15.080312 22.581349
0.410136 -5.821400 33.019886
6.586262 8.149625 61.681175
23.111856 19.447820 24.381864
10.598412 12.522233 57.379555
28.861364 19.790430 19.117150
11.348674 13.173464 44.914385
6.507214 8.052719 32.849766
25.713290 19.602838 10.036911
3.011894 -25.901897 15.616643
21.208004 19.015452 53.204995
7.961810 9.835911 15.882686
21.043391 18.951314 64.216380
16.301228 16.694339 25.906695
6.819925 8.436073 61.324492
20.480385 18.731950 30.627338
8.511970 10.444711 40.103527
7.907536 9.769377 35.006381
2.299574 -24.355379 29.348763
20.908993 18.898948 10.595622
20.164967 18.609054 13.830825
5.872583 7.151217 36.405681
22.558010 19.414817 21.228836
18.147921 17.680799 7.366972
-0.139954 -11.691834 25.010663
0.394778 -17.748187 47.185917
6.916580 8.554562 32.280249
0.795895 -4.019954 36.312109
15.398164 16.149087 63.125921
17.456821 17.340675 62.990005
-0.137064 -12.878108 55.901731
0.115729 -16.161725 19.302094
1.391799 -1.844083 37.862032
19.422177 18.307922 55.818955
-0.141050 -11.241992 37.155340
27.972254 19.737449 21.313258
2.288934 -24.330933 47.947937
25.897460 19.613813 14.118761
3.236847 -26.390305 27.668157
9.901303 11.877240 29.656839
14.630353 15.685498 36.696466
12.209206 13.920408 32.844658
0.024937 -8.491286 47.910048
8.164765 10.084715 22.061408
17.305504 17.266205 34.063086
-0.140362 -11.524076 14.555215
18.466360 17.837518 61.657490
8.925382 10.870976 19.191390
17.985858 17.601040 40.228735
2.465909 1.037866 10.018919
1.243950 -21.343888 31.219747
3.344926 2.971125 7.083085
0.020626 -15.099023 48.612776
14.569709 15.648476 30.655260
-0.141795 -10.936109 10.873105
0.001014 -8.777489 61.937539
0.420882 -5.758510 51.171000
1.188455 -2.514453 32.741894
0.088813 -15.869486 23.551601
0.235682 -6.842330 30.094485
5.467171 6.556617 30.964151
3.488461 3.250442 27.859968
5.579925 6.721988 47.741482
13.056128 14.547140 30.611633
12.075351 13.804222 28.521796
0.356779 -6.133654 57.775237
13.212551 14.660958 4.969537
2.423904 -24.625312 20.857747
9.720601 11.690920 33.624255
8.923830 10.869376 13.289348
23.687173 19.482103 7.959301
3.511175 3.290804 30.784088
1.037249 -20.566706 28.521066
0.641923 -4.610449 3.190213
2.018521 -23.580302 39.738253
2.534973 1.189762 22.666912
10.142210 12.125637 63.445752
3.187370 2.624605 58.789990
5.384654 6.435592 13.855014
26.572447 19.654035 61.963747
8.132440 10.045087 35.546608
17.175116 17.202034 47.516239
27.523839 19.710728 40.618044
0.044630 -8.255686 53.763544
6.775903 8.382106 42.769980
1.575077 -1.327457 57.793619
9.668282 11.636974 44.065827
18.201892 17.707360 15.950705
14.738388 15.750728 57.281343
6.378698 7.893513 44.118434
15.390133 16.144238 63.711296
17.464855 17.344629 19.878006
-0.142836 -10.508925 27.832722
16.954343 17.088677 27.298610
0.405403 -5.849095 62.729571
11.837088 13.597409 53.076096
28.888593 19.792053 28.214546
27.440975 19.705790 44.944813
17.273677 17.250541 31.437302
11.597849 13.389748 20.948289
13.234040 14.676595 16.956263
-0.136035 -13.300186 47.261038
-0.141465 -11.071594 25.980449
15.287785 16.082443 15.469038
8.059506 9.955678 7.240285
27.311815 19.698094 46.599535
25.150333 19.569292 49.861477
1.709264 -0.949212 26.065037
-0.120989 -10.237079 5.879600
9.344082 11.302694 41.917309
8.961942 10.908673 27.714268
0.535920 -18.550615 27.351378
-0.139827 -11.743623 36.484296
17.579969 17.401282 45.737814
18.939737 18.070490 49.583842
1.735738 -0.874585 27.286514
0.001400 -14.881786 31.254942
1.627506 -1.179671 21.231183
2.435711 -24.650946 -0.748609
0.370005 -6.056249 7.483613
4.426515 4.917311 61.385931
0.664497 -19.165185 8.884509
0.315782 -6.373573 33.248952
13.494757 14.866302 62.413642
27.314186 19.698235 21.582615
13.038974 14.534658 8.130120
7.922888 9.788197 51.472181
3.995532 4.151479 18.920248
-0.138426 -12.319070 45.784491
2.471626 -24.728920 21.517651
0.514572 -18.429245 34.826306
14.319478 15.466399 45.720115
-0.139458 -11.895376 23.660944
3.209417 2.673096 46.238218
3.803561 3.810358 24.393688
4.217606 4.546091 5.279013
15.596025 16.268551 2.754729
16.351421 16.724645 28.316844
20.829531 18.867987 7.964814
13.143634 14.610812 63.945142
8.066482 9.964229 45.347557
2.174846 -24.014240 17.768910
6.600609 8.167212 57.826507
-0.137379 -12.748441 47.427880
11.560043 13.356932 22.267423
9.054648 11.004261 47.173604
3.330955 2.940399 41.737370
14.260968 15.423825 10.623167
25.500545 19.590161 26.985974
0.980884 -3.310503 21.002620
-0.092614 -13.819485 26.587565
-0.023346 -9.068921 50.487723
-0.139333 -11.946604 34.611263
11.418018 13.233654 13.414018
-0.141050 -11.241688 61.953444
18.757660 17.980881 62.319182
1.183848 -21.117907 28.626242
5.518017 6.631191 33.398279
3.417860 -26.783293 6.629372
16.637584 16.897425 23.955805
15.337137 16.112240 12.770502
21.322778 19.060171 5.557390
2.383040 0.855609 54.996289
22.390720 19.404848 50.468615
2.505869 -24.803265 7.204683
5.536297 6.658001 12.838969
-0.043910 -14.369807 15.725213
0.302321 -17.222547 47.753395
1.786774 -22.937003 39.415629
1.041223 -3.079100 44.972517
1.213770 -2.417367 52.635081
2.238288 -24.190345 11.132528
3.833759 3.864017 3.756897
0.468852 -5.477782 22.564629
13.319462 14.738751 4.438697
8.835059 10.777844 48.413182
2.125575 -23.877469 6.330489
15.404351 16.152823 3.380052
0.925744 -3.521969 54.247013
0.921642 -20.132030 18.909880
27.562762 19.713047 42.955736
0.075804 -7.882735 38.728489
3.458417 -26.871356 15.372472
15.924136 16.466659 8.227145
9.283526 11.240255 23.617672
1.862721 -0.516648 31.721439
13.416597 14.809430 36.866166
0.971330 -20.318853 35.544988
-0.081044 -13.950217 61.462830
11.100031 12.957640 38.628535
6.049604 7.410847 4.665102
-0.060613 -9.514767 25.347498
0.346779 -6.192171 3.195336
24.828483 19.550113 43.436830
4.230179 4.568433 27.141684
14.115661 15.318094 3.813014
-0.102001 -13.713416 53.178730
-0.141933 -10.879197 14.967396
7.724466 9.544951 50.163952
1.274825 -2.183215 30.993742
1.184226 -21.119329 21.416009
1.565120 -1.355525 17.708014
8.845030 10.788126 36.557136
3.304017 2.881153 56.529538
1.068417 -20.683895 56.077382
14.107620 15.312243 6.632842
4.601840 5.228853 51.675864
5.968235 7.291505 58.801460
-0.138139 -12.436692 50.245708
2.165007 0.335438 17.654076
8.476851 10.408500 10.095694
1.142401 -2.691073 24.191513
27.820511 19.728406 54.022961
7.271019 8.989069 11.525635
23.239273 19.455413 23.761562
8.676296 10.614146 47.478903
0.717963 -4.318829 5.426656
12.735903 14.314132 1.474811
17.532713 17.378025 24.344172
5.521323 6.636040 61.484093
0.909733 -20.087255 30.912573
18.637117 17.921556 60.960479
0.241983 -6.805459 25.836291
1.735524 -0.875190 12.528134
17.847501 17.532948 41.364593
24.063863 19.504550 56.118503
24.469335 19.528712 19.821626
-0.140489 -10.470360 28.430565
-0.141791 -10.937508 43.286613
20.165795 18.609377 7.946662
1.196664 -21.166095 27.560890
4.454971 4.967876 59.094135
-0.142082 -10.818263 7.548438
1.846660 -23.103237 57.747184
9.364958 11.324219 33.568770
2.159984 -23.972985 22.807009
1.657033 -22.576858 12.872469
8.149314 10.065774 4.084479
-0.137227 -12.811055 57.017145
9.913715 11.890038 59.186792
0.019738 -15.088991 58.100592
0.455565 -18.093775 64.120751
24.580244 19.535321 38.246556
5.604367 6.757836 62.404092
0.012529 -15.007538 40.158346
15.917386 16.462583 22.131816
3.155632 2.554803 1.370782
3.273962 2.815051 18.918440
20.038134 18.559636 1.861027
6.381277 7.897297 42.528501
-0.137555 -12.676503 24.892401
-0.048228 -9.366601 7.719179
-0.137469 -12.711554 16.506665
0.909798 -3.583125 24.606666
1.115977 -20.862717 13.727861
3.407229 -26.760224 21.521601
23.362311 19.462745 39.841587
8.048220 9.941842 43.331879
1.661161 -22.588318 43.961087
4.059104 4.264442 48.584948
20.641416 18.794693 36.556548
3.346612 -26.628652 60.181280
0.228165 -6.886319 19.834815
2.803517 1.780382 23.355971
6.144613 7.550191 17.868269
2.419107 0.934931 26.764879
6.537161 8.089432 36.367728
12.987992 14.497561 15.542191
2.833039 1.845311 29.184960
5.216929 6.189598 37.591077
0.839976 -3.850900 30.357775
-0.140140 -11.615162 18.409245
-0.139179 -12.009871 29.552567
24.708015 19.542935 60.121560
0.998351 -3.243519 38.287940
3.442118 -26.835957 4.629062
11.993493 13.733168 14.901538
12.160599 13.878218 52.182502
2.466345 1.038826 3.706711
2.104745 0.165571 29.488181
17.331563 17.279030 11.475267
27.738063 19.723493 29.565383
5.071000 5.975570 50.066177
21.500281 19.129332 63.923812
1.168033 -21.058443 62.223352
27.807392 19.727625 50.564509
1.952531 -0.263490 32.482322
5.312150 6.329255 23.925957
1.365443 -21.767444 50.137677
24.931857 19.556273 59.354296
14.571440 15.649735 5.300295
1.034449 -3.105079 3.281453
17.024793 17.128054 61.072322
18.990621 18.095532 54.026527
-0.003216 -14.829628 -0.655815
0.726370 -19.397821 58.114194
27.364572 19.701237 56.530880
0.020464 -15.097189 10.217975
4.881114 5.697072 63.496823
18.192889 17.702930 9.996305
1.183993 -2.531563 7.788838
0.184908 -16.555026 16.130432
4.159559 4.442945 8.893432
18.181601 17.697374 44.588168
0.679274 -19.220745 61.102273
2.990613 2.191870 16.356961
0.879101 -19.972081 2.264933
0.425240 -17.921371 33.170505
-0.020775 -14.631216 28.607163
8.048798 9.942550 61.351814
18.435910 17.822532 34.809560
15.915416 16.461393 13.881812
0.923761 -20.139998 6.983816
6.705905 8.296296 53.642520
10.862952 12.751855 59.476807
9.282695 11.239398 21.579318
-0.064082 -9.556273 17.701111
3.090946 2.412537 38.603317
21.850332 19.265722 10.650143
3.426671 3.140646 21.938551
12.560090 14.186204 8.114415
14.113913 15.316823 5.045387
10.361540 12.316627 31.123053
1.871835 -0.490955 36.806628
0.037078 -8.346044 45.807378
3.256603 2.776874 57.124920
28.162999 19.748815 60.377059
23.669554 19.481053 4.971579
3.195406 2.642281 39.103532
17.831679 17.525161 0.717795
19.459649 18.326364 43.144810
0.285554 -6.550469 22.240879
0.070679 -7.944048 9.834594
9.805739 11.778704 31.992089
2.019430 -0.074914 10.980233
0.043815 -8.265436 -0.032242
0.510538 -5.233830 31.415640
2.397863 0.888209 51.524228
11.943756 13.689997 2.956044
0.287011 -17.135504 51.110057
24.525561 19.532062 13.775505
2.847623 1.877386 4.515557
1.261086 -21.408315 37.647907
19.846565 18.484995 39.441816
12.887205 14.424225 18.373095
0.111894 -16.130290 48.459671
9.662839 11.631361 62.274741
19.820390 18.474797 25.943851
19.381489 18.287897 47.297891
1.690407 -22.669500 10.164478
8.364469 10.292624 59.279993
22.392231 19.404938 62.159868
19.594992 18.386975 34.982922
-0.136536 -13.094624 29.584679
25.133048 19.568262 28.797062
1.104554 -20.819766 60.830062
7.176741 8.873494 64.161679
2.973607 2.154468 41.440958
8.568548 10.503048 38.064870
20.634515 18.792004 46.872743
16.717130 16.945453 29.860679
0.639663 -4.619115 62.188347
1.772350 -22.896963 61.146012
-0.141704 -10.973370 19.294032
1.103076 -20.814209 14.850055
16.540814 16.838996 11.569338
19.231250 18.213958 9.050574
14.992414 15.904103 5.712135
5.763861 6.991759 36.919277
2.208870 0.459080 50.974487
21.781857 19.239042 45.400177
-0.142243 -10.752346 15.520988
8.777047 10.718029 45.026953
-0.106610 -13.661341 21.832187
20.227155 18.633284 44.762683
7.552834 9.334547 45.914166
2.892095 -25.641820 53.311038
2.017477 -23.577404 15.448524
23.935160 19.496881 53.977101
28.329466 19.758735 49.932579
18.660606 17.933116 -0.111257
-0.108565 -10.088438 21.999114
8.841772 10.784767 1.086725
9.871011 11.846006 2.433352
2.763832 -25.363342 52.177593
-0.138804 -10.450209 4.890284
10.910880 12.793457 13.167527
20.357845 18.684205 39.277704
-0.139051 -12.062291 12.439418
1.772671 -0.770481 0.852327
-0.108759 -10.090763 46.941960
9.545401 11.510272 11.813561
0.110485 -16.114371 13.431829
4.050207 4.248634 14.375808
24.411330 19.525255 31.638781
15.963890 16.490662 29.133035
19.177019 18.187268 26.754552
18.961496 18.081199 60.479520
26.466745 19.647736 6.469259
0.889978 -20.012977 32.614749
22.606796 19.417724 51.944168
16.563030 16.852410 27.711872
-0.137714 -12.610930 62.268584
0.866796 -3.748041 27.376430
1.202670 -2.459937 60.580274
0.940843 -3.464067 46.994053
0.113189 -16.144929 1.502586
15.526605 16.226637 16.085078
22.157474 19.385393 49.857881
2.202314 -24.090486 38.167690
14.342023 15.482804 46.487208
0.326600 -17.360578 12.331607
0.859434 -19.898132 29.742901
22.852960 19.432393 58.650226
23.080620 19.445959 0.447648
10.258835 12.227479 20.891499
4.418732 4.903480 60.672435
1.597555 -1.264098 5.250052
0.324890 -6.320273 52.918898
0.881720 -3.690806 46.485577
1.758401 -22.858244 60.570931
-0.135093 -10.405804 1.379969
2.619273 1.375165 4.168942
2.850381 1.883452 47.482220
3.866058 3.921411 1.708234
15.426441 16.166160 61.267708
3.269380 -26.460967 57.681845
1.976541 -0.195812 34.322582
0.538506 -18.565317 32.047657
15.119953 15.981109 0.369115
3.752664 3.719917 25.781151
0.064929 -15.599613 36.591946
6.654828 8.233679 12.417169
6.255276 7.712497 64.007574
11.257327 13.094174 31.229277
1.309377 -21.589886 21.036491
5.898115 7.188663 33.441848
22.925973 19.436744 43.492806
1.091181 -2.887508 50.291795
2.902692 -25.664808 15.189555
0.002533 -8.759315 36.876268
18.904302 18.053050 61.794441
0.155837 -16.389747 18.089537
0.309805 -6.408551 57.313813
1.747460 -22.827872 54.288709
13.143115 14.610434 11.381014
14.008263 15.239948 9.541810
13.628365 14.963520 39.472335
2.885670 -25.627851 30.186919
24.877675 19.553045 40.088686
-0.136462 -13.125119 34.041049
1.380151 -1.876918 39.162146
1.158857 -2.627963 3.028008
-0.137315 -12.774775 39.777143
7.787208 9.621867 33.755434
4.864552 5.672782 48.834877
0.594897 -4.790797 44.910516
13.590830 14.936208 23.974334
2.042248 -0.010595 37.136939
12.705844 14.292260 53.758205
1.406537 -1.802540 6.372410
0.406177 -5.844568 15.812417
25.450391 19.587172 0.282658
17.943961 17.580420 24.559436
-0.047448 -14.329834 32.796304
6.663184 8.243923 17.317322
0.314775 -17.293349 26.546576
-0.112960 -13.589589 31.561171
6.175901 7.596080 32.749471
1.392643 -1.841703 17.884644
27.828080 19.728857 26.808707
-0.044324 -9.319893 22.075982
24.084171 19.505760 1.954958
27.519272 19.710456 12.766505
1.445415 -1.692951 57.237328
1.406535 -1.802546 47.927358
8.612332 10.548193 12.952583
0.915835 -3.559972 47.745602
18.864486 18.033455 59.988261
7.762453 9.591519 16.440996
4.586504 5.201603 33.499957
13.480319 14.855796 7.911515
2.914420 -25.690270 4.958680
2.675549 1.498937 15.492255
4.167139 4.456415 17.313878
7.672240 9.480927 20.755579
1.671842 -1.054698 48.678376
1.478220 -1.600479 42.599201
5.043733 5.935579 9.142558
20.522496 18.748358 15.329925
5.048760 5.942951 32.044936
24.689795 19.541849 14.360471
18.591493 17.899102 0.673461
0.161311 -7.277562 52.170085
8.391392 10.320384 24.166693
-0.088259 -13.868694 51.152469
5.651352 6.826746 51.567788
20.177623 18.613985 25.425549
1.126420 -20.901981 40.057569
6.598037 8.164059 58.426792
-0.137203 -12.820679 2.414717
-0.137692 -12.620101 62.782732
15.341316 16.114764 48.039013
0.035112 -8.369558 9.499123
-0.028784 -14.540720 4.570795
0.457126 -18.102653 2.729172
24.947168 19.557186 18.226411
1.821984 -0.631476 14.146255
0.238368 -6.826611 48.718860
3.121371 2.479453 40.337063
2.430392 -24.639398 16.061853
2.298378 -24.352783 55.445269
2.343246 -24.450196 18.697947
23.149347 19.450054 60.637540
0.085297 -15.829759 12.335341
0.644142 -19.088650 30.688370
6.097131 7.480552 29.436432
7.507570 9.279057 51.242966
16.894315 17.052434 11.250221
11.337088 13.163406 43.246258
9.968932 11.946971 57.470505
28.239491 19.753373 47.333504
3.469300 -26.894979 9.868604
3.068455 -26.024717 44.099935
20.072679 18.573096 20.448031
13.906668 15.166023 20.468629
-0.137207 -12.819430 60.832790
10.320411 12.280928 36.858730
0.865875 -19.922350 63.551110
14.242080 15.410081 37.031109
10.031829 12.011824 -0.461351
1.023579 -3.146766 58.080379
28.207526 19.751468 40.628403
1.691652 -22.672956 11.229395
20.703635 18.818935 37.145479
9.557578 11.522828 50.012638
0.834049 -19.802686 24.638084
6.300100 7.778237 5.097080
7.217531 8.923498 54.119473
6.121850 7.516806 25.992707
0.270311 -17.040561 23.694564
-0.138648 -12.227828 59.732609
19.073993 18.136563 44.001640
17.399322 17.312377 13.487476
-0.142244 -10.751723 21.202723
0.490645 -5.350244 10.792684
3.079877 -26.049508 35.529556
1.172007 -2.577533 57.493633
2.295302 -24.346103 54.096613
28.349527 19.759930 58.834869
6.497327 8.040599 25.957945
15.398833 16.149491 61.960623
20.685534 18.811882 17.573873
-0.137290 -12.785103 61.760602
26.702018 19.661756 25.834420
0.035963 -8.359376 5.515549
-0.142283 -10.735859 9.041827
3.824434 3.847447 47.187103
23.615094 19.477808 58.075472
19.499334 18.345895 10.055178
26.649847 19.658647 13.950910
4.714338 5.428756 29.891768
1.099281 -20.799942 58.700565
0.615602 -4.711393 33.600525
1.964831 -0.228818 30.530901
18.226443 17.719443 57.943753
14.582066 15.656344 56.449013
1.221357 -21.258938 -0.670843
13.300124 14.724680 18.527333
1.006929 -20.452706 3.947255
16.648905 16.904260 40.868675
0.498186 -5.306116 6.647356
24.314990 19.519514 59.644885
2.142011 0.270617 34.768806
3.203000 2.658982 19.410257
1.936012 -0.310053 5.967882
10.595995 12.520136 34.335045
0.472805 -18.191790 18.713494
10.414132 12.362278 45.898347
21.694086 19.204844 31.303619
1.207363 -2.441939 50.898737
1.041673 -3.077374 42.647435
7.487517 9.254474 53.554853
10.606773 12.529491 21.927109
8.136384 10.049922 39.589729
24.773183 19.546818 22.633319
12.054472 13.786098 61.596600
2.540067 1.200965 41.467240
12.663469 14.261427 41.323618
11.208038 13.051391 -0.126363
1.036492 -3.097245 22.574940
11.844559 13.603893 16.400454
2.143267 -23.926579 9.847506
-0.137258 -12.798116 47.955597
1.093331 -20.777569 27.046558
26.987290 19.678755 51.463800
25.237145 19.574465 51.781246
3.137061 -26.173645 11.245328
12.043219 13.776331 23.979523
22.750616 19.426294 30.039402
0.081262 -7.817447 0.341150
0.122171 -7.506614 54.017911
27.479951 19.708113 41.668229
6.561673 8.119480 60.236279
9.964482 11.942383 10.880335
0.055315 -15.490982 26.218186
0.427342 -17.933323 29.177909
16.539053 16.837933 23.091454
10.083224 12.064816 19.031059
21.826820 19.256561 32.045649
6.868542 8.495673 36.890866
1.288611 -21.511807 29.840095
0.684686 -4.446448 12.931397
2.334877 -24.432025 60.440742
13.424666 14.815301 34.327863
22.967494 19.439218 34.362231
21.242073 19.028726 57.734118
1.622156 -1.194752 38.109486
25.859564 19.611555 46.925936
9.875027 11.850147 31.167883
27.891409 19.732631 30.821940
17.751468 17.485685 36.928626
0.264293 -17.006346 60.659874
23.562885 19.474697 37.956026
0.134514 -7.434381 39.167831
26.742096 19.664144 20.485480
11.762782 13.532911 19.227502
0.763521 -4.144112 45.333910
1.953947 -23.401052 57.295611
14.311719 15.460753 49.358346
0.261599 -6.690660 12.088181
3.229249 2.716712 5.499231
11.322246 13.150524 19.238329
0.383956 -17.686663 43.240617
0.047401 -15.401565 -0.616121
1.140869 -2.696947 26.267786
2.028646 -23.608408 18.176050
1.364319 -21.764324 54.835017
1.959586 -23.416705 37.369052
25.572576 19.594453 58.037595
0.415718 -17.867238 19.548080
6.958447 8.605887 8.657211
7.626073 9.424331 40.185748
17.329796 17.278160 57.342489
4.042657 4.235216 36.506102
0.380602 -17.667596 58.865519
-0.089704 -9.862791 14.117629
10.077972 12.059402 48.767167
7.460540 9.221404 57.086278
16.788216 16.988373 1.273347
0.562710 -18.702922 25.109346
12.855427 14.401102 4.287998
25.689059 19.601394 32.951411
10.236031 12.207685 2.233316
0.328621 -6.298436 46.022655
11.791520 13.557855 32.788559
4.885916 5.704116 11.652465
13.506794 14.875061 48.416790
0.167375 -16.455343 11.883992
25.959915 19.617535 43.022118
0.592829 -4.798730 10.433269
0.582114 -18.813243 4.109367
18.794383 17.998954 19.566544
1.530575 -22.225828 42.991141
1.219982 -21.253770 63.304047
8.631247 10.567696 24.700512
10.762352 12.664534 19.630289
19.025566 18.112731 42.575023
5.633269 6.800225 22.629411
0.147707 -16.343525 60.151710
26.982959 19.678497 46.175379
0.296742 -6.484999 4.550203
0.876095 -3.712380 28.892032
2.991552 2.193934 59.647838
1.937838 -0.304907 15.136485
1.513867 -1.499997 64.118469
23.708927 19.483400 20.522129
7.237467 8.947938 13.169258
1.222432 -2.384148 37.823984
11.722734 13.498149 27.601080
5.399479 6.457335 24.417689
0.380865 -17.669088 56.941003
18.592541 17.899618 12.236250
1.427490 -1.743479 1.219035
0.012306 -15.005010 6.244130
8.175180 10.097449 3.426213
0.707054 -19.325196 35.713400
19.933105 18.518714 9.781930
3.291126 2.852802 62.078612
19.320511 18.257887 34.179617
-0.126848 -10.307174 29.230015
0.727514 -4.282199 29.026128
19.460777 18.326919 54.304362
2.590527 1.311944 9.627453
22.346795 19.402231 32.051173
1.852727 -0.544818 17.705850
4.025780 4.205227 58.895001
18.126799 17.670404 11.930540
1.770896 -0.775482 61.113211
-0.035486 -9.214160 38.914617
-0.010959 -8.920728 45.528759
4.466726 4.988763 18.127067
10.975574 12.849611 34.159961
1.431139 -1.733192 61.729430
2.486092 1.082255 46.267019
1.448311 -21.997476 53.426527
0.431744 -5.694946 31.862768
19.256472 18.226370 46.517844
1.690181 -1.003003 16.460692
1.495405 -1.552039 37.055551
14.222326 15.395708 61.765028
1.970320 -23.446503 14.800503
7.127860 8.813570 47.135171
17.459172 17.341832 46.892339
18.623917 17.915060 22.969019
2.572256 1.271760 -0.428060
13.983083 15.221625 54.972725
0.157563 -16.399560 9.681169
4.809502 5.592043 7.408384
28.189731 19.750408 62.508622
2.589467 1.309613 7.548893
3.380955 -26.703200 43.241259
0.311260 -17.273367 45.588303
4.031605 4.215578 4.156325
8.539605 10.473204 46.609082
24.439753 19.526949 12.556145
5.995902 7.332083 16.546358
26.195050 19.631546 19.616524
2.582563 1.294427 21.797499
0.672725 -19.196121 12.049406
23.986031 19.499912 50.437025
5.637139 6.805902 39.824870
2.057404 0.032127 25.929738
-0.129972 -13.397368 1.532727
0.700069 -4.387453 20.160625
1.857710 -0.530772 17.137124
11.394867 13.213559 26.660913
-0.015954 -8.980491 19.926693
4.990552 5.857581 20.234923
4.175531 4.471326 23.364674
10.502922 12.439348 24.051501
4.553222 5.142461 41.033113
1.785130 -0.735360 39.085491
2.257083 0.578586 38.520008
-0.050974 -14.289992 35.081714
12.813331 14.370472 43.132400
26.149597 19.628838 40.617973
-0.063759 -14.145532 -0.723424
11.843995 13.603403 40.941312
20.068200 18.571351 28.202540
-0.028913 -14.539265 21.904781
21.634659 19.181689 58.064807
0.443286 -18.023970 55.994789
1.153823 -21.005016 47.506166
0.631454 -19.040943 11.439638
7.137382 8.825244 22.101888
14.377272 15.508452 12.976261
25.887941 19.613246 8.144445
8.958117 10.904728 2.397754
1.841184 -0.577354 34.971004
2.772831 -25.382868 38.908963
-0.016025 -8.981339 1.013164
7.369633 9.109961 2.164831
2.762163 1.689431 6.612427
0.626984 -4.667740 45.427729
13.585446 14.932290 17.969603
18.028012 17.621786 18.244467
3.939346 4.051639 62.719211
15.376983 16.136298 58.134241
1.661285 -22.588661 45.168239
1.212462 -2.422384 13.282017
0.596097 -4.786195 47.678558
21.188981 19.008040 23.488637
0.909752 -20.087326 38.688226
-0.135997 -13.315988 16.518175
-0.141167 -11.193804 35.394896
0.452005 -5.576372 30.320984
9.000852 10.948792 15.302437
25.121978 19.567602 44.057054
0.785625 -19.620615 14.407869
0.830803 -3.886080 37.216894
3.915486 4.009241 53.826704
0.057008 -8.107607 35.360370
7.181185 8.878942 24.699158
5.221928 6.196930 33.500774
2.423762 0.945169 32.550455
7.920801 9.785638 9.206163
0.303552 -6.445146 11.528373
1.015329 -3.178405 61.441061
6.404849 7.927230 60.953492
2.618990 1.374543 34.288740
13.397132 14.795266 1.199634
21.656674 19.190267 48.081397
6.982218 8.635028 43.339674
26.929040 19.675284 15.187108
27.189182 19.690786 1.035248
0.580350 -18.803211 12.362986
16.190236 16.627325 6.637058
0.915061 -3.562940 17.710317
13.254235 14.691289 58.186400
2.831290 1.841465 54.798911
0.145052 -16.328436 35.336343
3.120149 -26.136929 9.457536
10.847786 12.738691 47.243683
22.553152 19.414528 37.746613
2.120376 0.209632 14.665555
-0.137412 -12.735181 50.838871
10.403939 12.353430 11.097182
0.228525 -6.884214 32.993133
1.847469 -23.105485 49.004958
0.531859 -18.527530 4.611631
0.270675 -17.042631 25.270908
16.719051 16.946613 52.185305
8.111926 10.019939 23.722620
3.992110 4.145397 15.629259
5.259385 6.251866 1.861159
11.663771 13.446969 42.230933
4.293897 4.681656 3.877463
8.428972 10.359133 30.847806
22.269838 19.397645 43.211006
16.824859 17.010498 38.548204
0.427563 -17.934581 29.865074
20.967734 18.921836 6.691395
22.360537 19.403050 53.274959
-0.126392 -10.301716 2.090383
-0.136387 -13.156007 27.439692
9.471677 11.434256 28.662941
27.931955 19.735047 43.725900
2.140101 -23.917790 10.540341
3.432629 -26.815359 7.940338
13.294280 14.720428 0.232054
1.118518 -20.872269 4.308280
6.901550 8.536136 31.255961
7.209787 8.914005 58.099834
13.678989 15.000356 55.387755
0.778247 -19.592876 27.433638
6.817554 8.433166 33.031605
0.015333 -15.039215 36.268589
-0.110574 -13.616550 5.113056
7.751694 9.578330 12.294339
7.460604 9.221482 46.876218
-0.006979 -14.787108 27.957704
15.589601 16.264673 43.453435
21.194018 19.010002 36.497346
4.597931 5.221907 34.642297
12.059215 13.790216 25.595123
14.842413 15.813535 3.140117
0.073241 -7.913397 8.926591
-0.141756 -10.485515 19.870334
0.145685 -7.369010 61.613344
10.296984 12.260593 58.835960
6.487074 8.028029 23.521255
2.203276 0.443312 22.989405
23.269080 19.457189 40.461920
21.155324 18.994926 14.133234
1.930375 -0.325942 28.623428
22.917367 19.436231 4.223849
-0.141006 -11.260047 0.442727
14.780145 15.775940 48.973371
4.901202 5.726535 33.790081
20.457816 18.723157 9.855382
18.877523 18.039871 11.517960
8.351420 10.279169 20.236641
5.527743 6.645455 63.838218
1.830535 -23.058477 29.759802
0.459720 -5.531222 58.377336
9.714403 11.684529 0.124139
5.334015 6.361322 8.196767
5.039646 5.929584 48.341175
17.529289 17.376340 21.103989
2.314395 0.704635 41.591211
2.574487 -24.952241 13.308468
15.088905 15.962362 19.058014
25.650232 19.599081 8.859788
-0.096563 -9.944852 30.886317
27.807336 19.727621 31.805689
26.469540 19.647903 55.460115
4.656567 5.326100 29.324246
-0.138776 -12.175340 22.500040
6.999652 8.656400 1.872904
17.572059 17.397389 22.319952
26.917136 19.674575 -0.047846
0.539859 -5.062237 22.020612
10.221399 12.194985 21.878279
27.430925 19.705191 -0.088261
0.058686 -15.529072 50.205495
2.560616 1.246159 2.851532
15.159354 16.004898 36.643408
17.747103 17.483537 34.449127
7.699629 9.514503 12.952050
-0.136819 -12.978592 48.470684
0.045977 -15.385469 13.506184
17.338091 17.282243 14.470410
0.564920 -18.715486 2.418308
0.747940 -4.203866 54.054910
1.996577 -0.139333 12.974154
7.482544 9.248379 13.576452
25.321244 19.579477 63.617079
6.461283 7.996413 29.190887
2.506239 1.126565 46.867817
21.557277 19.151539 8.618096
-0.136356 -13.168464 26.163629
10.523577 12.457276 33.844713
26.827035 19.669206 28.956175
-0.040194 -9.270489 27.830132
9.997727 11.976661 36.466413
1.413852 -1.781920 32.255892
2.182681 -24.035988 60.020518
-0.136656 -13.045253 23.512883
0.035206 -8.368432 23.407448
11.351845 13.176216 19.835775
19.150792 18.174360 57.782074
2.982495 -25.838081 41.879155
7.722210 9.542186 36.927083
15.850674 16.422304 40.299511
1.271877 -21.448889 55.307241
0.965753 -3.368533 55.385625
28.119363 19.746215 25.462803
18.172654 17.692971 8.114221
14.420086 15.539605 36.151251
16.904410 17.058529 20.579465
1.223440 -2.380282 33.988203
0.915391 -3.561675 3.717735
1.442485 -1.701209 45.282556
0.098900 -15.983469 40.261175
8.529283 10.462562 12.294813
2.787956 -25.415704 13.673075
7.343925 9.078445 9.868684
3.040137 2.300791 23.224342
8.356392 10.284295 28.768670
15.539394 16.234359 21.812260
23.650462 19.479916 28.375894
-0.091523 -13.831818 47.118663
9.088942 11.039622 41.468309
3.210053 -26.332118 8.352942
13.036909 14.533155 49.491438
11.028017 12.895132 6.930818
7.304041 9.029552 8.232080
-0.136603 -13.067103 36.236352
5.076181 5.983168 60.623304
3.466723 -26.889402 29.709622
-0.099681 -9.982152 38.321949
1.807343 -0.672747 58.833204
-0.063304 -14.150672 21.007718
25.810114 19.608608 56.759334
21.282273 19.044389 31.822419
21.572537 19.157485 33.825800
4.403732 4.876827 38.951996
-0.108523 -10.087933 15.778229
21.380272 19.082573 10.593116
2.286097 -24.323055 61.040135
-0.138162 -12.427423 13.843631
2.067353 0.060172 47.948352
0.154705 -16.383314 33.534937
0.052249 -8.164535 63.250059
7.631866 9.431432 0.765888
-0.114258 -13.574922 53.725109
5.195464 6.158116 35.251668
1.983539 -23.483197 17.127399
18.233226 17.722782 4.524745
26.089266 19.625243 38.638164
-0.138657 -12.223907 33.726738
12.800139 14.360873 46.217239
20.026169 18.554974 18.427809
-0.142353 -10.706880 41.074771
2.272267 0.611980 36.505495
5.741905 6.959558 21.161682
28.001087 19.739167 39.919849
24.851572 19.551489 48.074663
14.712828 15.735295 -0.251182
7.492721 9.260854 63.384814
3.008263 -25.894013 13.323606
-0.079022 -13.973065 41.223776
0.059588 -15.539266 1.914495
1.685203 -1.017036 1.372957
1.522627 -22.203765 40.384336
17.741688 17.480872 38.538009
0.447729 -18.049229 5.327647
11.439077 13.251934 57.077601
27.076503 19.684071 42.698704
0.471966 -5.459561 24.834359
17.810894 17.514932 43.160710
0.076919 -15.735097 64.118442
1.268933 -21.437820 14.341381
18.007984 17.611929 45.634022
13.279036 14.709335 37.621714
14.230701 15.401802 56.817222
1.171772 -21.072501 37.188270
0.033097 -15.239939 25.184560
-0.142280 -10.736884 37.513758
26.524341 19.651168 39.083030
26.470368 19.647952 24.195162
1.552945 -1.389843 18.794664
-0.138718 -12.199042 6.788409
-0.037992 -14.436680 51.644983
0.027231 -15.173657 23.754966
19.103644 18.151156 13.350879
16.235908 16.654900 21.225312
23.690708 19.482314 23.551389
26.552324 19.652836 50.171976
0.364112 -6.090736 63.548333
12.358073 14.039209 16.298598
5.553969 6.683920 41.878920
19.625164 18.398731 30.061382
25.742280 19.604566 34.109069
3.094605 2.420584 1.900419
8.579148 10.513977 20.779342
17.741759 17.480907 19.180919
3.138229 2.516528 21.252181
-0.029609 -9.143851 36.243396
27.541740 19.711795 58.149360
28.785010 19.785880 48.148191
1.338737 -21.693312 17.937317
11.148972 13.000121 9.364436
19.524857 18.358456 27.311684
25.874267 19.612431 17.398168
18.694330 17.949713 10.942607
11.558199 13.355332 44.431375
25.463571 19.587958 -0.374038
2.906615 2.007131 18.264950
0.611363 -4.727649 49.972881
13.016791 14.518516 25.882036
-0.000933 -14.855424 15.866089
4.310626 4.711383 24.415708
-0.084884 -13.906827 1.778739
0.469903 -18.175291 47.597354
1.572803 -22.343049 25.013081
3.622766 3.489095 57.667565
0.159572 -7.287738 34.692977
6.749034 8.349167 42.202123
0.617307 -4.704853 62.877230
10.968226 12.843233 28.787471
19.995203 18.542909 22.973875
0.199298 -7.055254 22.315495
-0.047891 -9.362564 14.298865
4.668120 5.346629 27.902300
1.544700 -1.413085 3.607018
2.475491 1.058939 2.273463
1.303906 -21.569317 19.899416
14.265071 15.426810 28.520287
24.223232 19.514047 52.969086
5.115454 6.040769 50.929733
13.371591 14.776682 9.583639
0.634964 -19.054142 0.754520
5.882039 7.165086 -0.114231
0.014480 -15.029575 1.918406
2.910304 -25.681353 49.558061
2.095259 0.138831 6.410851
2.406224 0.906598 4.994865
-0.086704 -13.886270 49.251877
7.554284 9.336325 54.049772
22.826902 19.430840 24.862930
0.786786 -4.054888 60.306835
22.939277 19.437537 54.748129
1.253046 -21.378088 25.221701
3.088434 2.407013 13.324103
21.013639 18.939722 45.319663
0.681098 -4.460209 20.802884
2.639425 1.419487 53.397370
14.340762 15.481886 54.010499
1.552223 -1.391880 53.036914
0.438409 -5.655941 33.700083
1.267633 -21.432931 18.433121
13.418529 14.810835 10.398188
8.588201 10.523312 1.524716
14.371939 15.504571 48.370281
3.196933 -26.303668 50.654757
2.919026 2.034425 57.874145
13.498587 14.869088 35.799124
11.880714 13.635276 1.080870
0.717705 -4.319820 39.017603
10.145469 12.128997 4.365284
14.954975 15.881498 28.620099
4.247231 4.598734 4.515413
11.346867 13.171895 28.457312
1.625947 -22.490568 49.454801
3.418213 3.125615 49.751756
10.790149 12.688662 32.626550
20.056168 18.566663 60.361184
7.392924 9.138513 49.807956
12.031367 13.766043 45.828497
25.650316 19.599086 12.194206
14.323286 15.469170 0.893473
21.505112 19.131214 41.007123
13.004183 14.509342 19.800802
0.585247 -18.831054 28.371645
1.040368 -3.082377 14.682176
0.432405 -17.962105 56.544856
22.099979 19.362992 5.197553
25.340559 19.580628 25.586247
14.319874 15.466687 19.643007
0.391715 -17.730776 9.774846
0.037777 -8.337680 25.894714
9.687686 11.656982 55.508587
18.244615 17.728387 59.761105
1.769889 -22.890132 52.482980
9.739561 11.710469 59.724601
3.402952 -26.750924 6.095489
-0.016762 -14.676568 61.408335
3.019357 2.255088 7.913131
-0.053157 -14.265329 43.572988
2.098623 0.148315 61.647206
0.366915 -17.589779 2.556339
15.261261 16.066428 6.640368
11.314713 13.143985 59.540698
0.054991 -8.131742 26.379738
3.638418 3.516907 5.923130
2.102173 -23.812510 52.220809
1.818685 -23.025583 23.038304
1.783563 -22.928090 18.606442
13.565867 14.918044 51.940201
2.132187 0.242925 11.555040
14.413999 15.535176 2.968059
17.741842 17.480948 64.204523
0.421035 -17.897464 6.372772
5.628985 6.793943 21.903556
0.858525 -19.894715 53.456519
28.337380 19.759206 46.728711
-0.130836 -13.387606 56.895032
23.671723 19.481183 56.536113
2.718845 -25.265657 5.642424
2.832580 1.844302 13.168670
2.052202 -23.673796 24.535711
2.253068 -24.231373 31.947385
23.424930 19.466476 5.535154
8.930399 10.876149 37.734987
22.044787 19.341487 40.450180
16.390932 16.748501 25.304677
11.764886 13.534737 17.444490
25.892324 19.613507 15.446964
9.804257 11.777176 39.698305
2.819561 1.815667 62.022342
2.173880 -24.011559 29.902778
19.088438 18.143673 3.529025
9.756309 11.727738 41.567871
0.777526 -4.090400 14.390779
7.541055 9.320107 35.935016
2.265469 -24.265797 44.537171
25.965061 19.617841 36.832317
10.630994 12.550515 42.802402
2.718454 -25.264813 44.336624
0.512525 -18.417610 20.819990
3.239258 -26.395548 35.056494
1.949526 -23.388780 38.945281
15.340693 16.114387 5.239814
0.055915 -8.120686 2.740631
8.928064 10.873741 12.610030
8.533461 10.466870 26.862275
6.132163 7.531932 36.190469
23.535391 19.473059 63.287871
16.612795 16.882457 46.203380
22.967410 19.439213 15.088907
28.397010 19.762760 44.715065
10.181468 12.160324 16.021839
0.420687 -5.759650 29.301954
0.038523 -8.328753 14.548781
-0.139822 -11.745975 32.211031
10.091000 12.072834 30.672748
2.120895 -23.864477 4.758304
1.139852 -20.952484 45.089149
5.179793 6.135131 15.620474
-0.003632 -14.824928 -0.011834
1.010729 -20.466991 17.123099
-0.115198 -13.564307 34.322665
1.826471 -0.618828 48.998978
1.323628 -2.036243 53.096177
0.109253 -7.582215 58.085348
1.203251 -21.190860 60.313224
0.075825 -15.722732 56.557535
2.196844 -24.075303 26.425385
3.441269 3.166585 17.510183
9.700950 11.670657 17.519485
0.505321 -18.376651 19.442659
0.124422 -16.211147 56.285057
26.126096 19.627437 11.819436
1.639947 -1.144604 24.868984
1.580233 -1.312924 25.453117
24.453276 19.527755 63.154586
3.616406 3.477793 20.781886
2.235450 0.531006 46.735447
2.115836 -23.850436 37.669059
21.495370 19.127418 22.939682
3.541716 3.345074 15.048767
20.313679 18.666997 50.288255
1.012499 -3.189260 37.691056
-0.027473 -9.118299 56.696066
7.789525 9.624708 46.444875
0.357895 -17.538497 63.894650
28.279162 19.755737 45.925562
2.100928 0.154813 53.996965
9.262564 11.218642 27.377646
-0.060561 -14.181669 6.590528
3.583442 3.419218 12.302255
1.220492 -2.391589 6.435809
0.148415 -16.347555 14.440992
1.147795 -2.670385 9.311891
4.365328 4.808586 63.060222
16.550613 16.844913 49.809147
21.513608 19.134524 30.459151
2.539815 1.200410 61.374091
13.509372 14.876936 31.108246
0.613694 -4.718709 11.551694
3.090092 -26.071671 20.006262
2.488148 1.086776 55.518832
2.435007 0.969902 27.440421
0.138573 -7.410629 26.181351
22.729863 19.425058 26.560153
0.388104 -5.950334 47.479532
-0.137623 -12.648292 43.514497
1.662756 -22.592745 17.294614
0.985714 -20.372938 60.512113
0.507728 -18.390337 59.523447
1.858945 -23.137341 2.165651
-0.138849 -12.145326 9.213979
6.041370 7.398770 26.527784
2.279535 0.627965 0.012755
3.015980 -25.910767 8.809745
0.239701 -16.866536 58.147758
0.026468 -8.472978 2.165692
14.325442 15.470739 18.914494
7.538364 9.316808 25.550827
2.758483 1.681336 59.857270
2.873649 -25.601752 30.772087
8.410296 10.339875 48.394781
11.080037 12.940286 17.216366
13.048839 14.541836 23.132748
2.041041 -23.642815 5.318757
9.081803 11.032261 52.519739
9.756328 11.727757 13.903040
3.413458 3.117167 60.999038
3.470250 -26.897040 8.611434
14.934412 15.869083 33.028982
11.586862 13.380211 29.292775
21.165272 18.998802 4.690122
23.260267 19.456664 13.276420
1.103367 -2.840773 42.015532
1.734824 -0.877164 34.532000
1.807719 -22.995142 13.352710
-0.138588 -12.252402 16.097971
28.117444 19.746100 35.213615
15.551646 16.241756 57.542796
15.843038 16.417693 31.603896
16.875482 17.041063 63.624649
19.395951 18.295015 22.510561
25.404863 19.584459 61.254396
3.820224 3.839966 6.287818
7.455902 9.215718 40.679170
5.759820 6.985833 27.351615
17.526379 17.374908 34.884231
10.419730 12.367136 44.449651
2.211355 0.466085 26.384626
1.143636 -20.966714 8.912428
-0.003084 -8.826521 31.683661
3.105186 2.443855 32.313482
-0.140000 -11.672955 24.424490
8.558374 10.492557 19.386026
0.051937 -15.452814 23.158056
2.304526 0.682929 48.624491
17.232955 17.230500 35.308304
12.721786 14.303860 16.760445
0.010279 -8.666647 4.050548
14.876167 15.833916 52.359833
1.852797 -0.544621 26.348005
-0.009249 -14.761458 63.213216
1.198954 -21.174705 42.978762
22.415684 19.406336 9.231139
10.345411 12.302627 52.362888
27.726378 19.722797 8.096720
9.577699 11.543575 11.107981
0.158544 -7.293756 4.039325
1.349572 -1.963114 57.766041
21.314228 19.056840 24.963497
12.287357 13.987753 35.891273
5.260433 6.253403 61.752966
-0.041521 -14.396806 61.992793
7.156015 8.848086 17.395123
28.870224 19.790958 20.810217
14.457712 15.566983 9.517329
-0.060490 -14.182462 47.537351
2.675811 -25.172227 15.255674
14.837446 15.810536 54.561314
0.558855 -18.681009 9.714415
12.414507 14.080273 10.922222
2.420174 0.937278 17.983254
28.717797 19.781875 36.957449
22.230408 19.395295 27.305011
27.971557 19.737407 57.899839
-0.006620 -8.868816 26.262273
25.904109 19.614209 31.523454
8.375818 10.304325 57.486917
1.839706 -23.083935 15.366285
12.571578 14.194563 57.840832
12.429581 14.091241 5.152013
0.125461 -16.217051 15.679789
5.630813 6.796623 60.439097
7.852983 9.702500 29.860149
1.811115 -23.004570 54.788762
9.872602 11.847647 25.817864
0.827148 -19.776739 19.713477
18.331237 17.771018 2.030950
-0.100227 -9.988683 56.183914
28.887220 19.791971 44.323045
6.073909 7.446492 24.435555
2.332904 0.745342 47.475673
3.162554 2.570027 31.295983
18.649750 17.927773 49.084150
-0.088770 -9.851625 60.970480
28.312886 19.757747 29.824255
9.628991 11.596461 19.181562
1.454256 -22.013978 32.654973
2.731412 -25.292942 31.868560
8.582805 10.517748 46.058477
0.411487 -17.843184 62.010149
0.257565 -16.968098 -0.203623
7.044877 8.711842 -0.190325
26.047704 19.622766 1.854898
12.731555 14.310968 42.008260
0.934175 -20.179154 56.170655
4.440694 4.942506 40.514601
12.441255 14.099735 38.557936
16.287502 16.686052 40.534043
21.365731 19.076907 51.640335
0.235101 -16.840383 29.067314
26.911067 19.674213 58.469474
3.082308 2.393539 12.834244
16.667344 16.915393 40.278017
1.947153 -23.382195 10.575684
0.148101 -16.345769 39.115556
22.567004 19.415353 2.591805
0.299202 -6.470603 6.512129
2.662611 1.470480 31.103248
1.296478 -21.541388 1.879693
20.768931 18.844376 51.720623
8.573054 10.507694 15.211782
13.778116 15.072484 41.272026
-0.015357 -14.692441 60.661513
1.608463 -22.442035 52.122192
-0.096279 -9.941462 39.610102
1.072825 -20.700470 37.822794
0.359830 -17.549498 25.450640
1.982936 -23.481521 52.674407
0.585746 -18.833891 3.566367
21.313216 19.056446 20.854986
1.434775 -1.722942 4.720946
8.483784 10.415648 36.718505
0.208979 -6.998600 45.825529
7.304343 9.029921 58.589907
2.624536 1.386740 17.599207
2.359997 0.804930 56.523059
12.988165 14.497687 22.208475
7.184837 8.883418 39.321558
0.026804 -8.468956 7.102787
23.447714 19.467834 53.685655
27.460344 19.706944 12.186339
0.994539 -3.258138 7.300062
1.010861 -20.467489 63.862333
-0.044656 -9.323867 14.961200
-0.041409 -14.398070 23.372832
0.228918 -6.881916 49.934257
3.749473 3.714245 16.183357
15.381313 16.138913 34.410004
2.028490 -0.049377 51.272792
0.831000 -19.791224 52.820392
1.295688 -2.115001 14.385393
3.707580 3.639804 52.396606
25.418713 19.585285 5.129385
6.062590 7.429892 2.130321
3.148867 2.539925 54.896483
3.106555 2.446867 33.478619
-0.142108 -10.807614 29.094261
9.631879 11.599439 22.544731
3.146646 2.535041 58.164094
0.098677 -15.980945 14.005213
-0.101830 -13.715356 21.310136
1.717135 -22.743695 46.091509
3.074201 2.375708 52.868359
7.893715 9.752433 19.101640
-0.136962 -12.919726 53.753360
26.863212 19.671362 23.802600
6.434506 7.963586 18.750258
22.103367 19.364312 56.422557
1.093560 -20.778432 42.614240
6.714303 8.306590 24.974264
16.359703 16.729645 50.267138
0.621704 -19.004286 7.640717
9.059967 11.009746 28.241371
0.472715 -5.455177 59.515125
0.771791 -4.112393 31.843805
2.984041 2.177415 37.518519
17.550272 17.386667 7.383054
-0.137128 -12.851644 17.066047
1.991450 -0.153785 46.498722
15.314863 16.098792 6.054330
10.244575 12.215101 5.793242
0.007708 -8.697406 57.343355
-0.106144 -10.059482 21.185598
7.143346 8.832555 33.344084
3.495422 3.262812 46.003433
10.559394 12.488366 42.269601
27.727637 19.722872 49.997316
3.650170 3.537791 9.155065
2.748568 -25.330189 17.937487
1.061530 -20.658002 33.647600
