-2.857455 5.396620 26.833335 3
2.694058 13.903777 18.636059 3
-1.801774 7.458360 16.321127 3
-5.594397 -2.064730 26.362706 3
-0.529967 9.602187 20.119512 3
16.750916 24.386000 31.262790 3
5.713790 17.093298 23.003634 3
6.501621 17.782964 1.407534 3
6.218756 17.535345 46.134673 3
19.776439 25.580550 17.200670 3
-2.622062 5.876091 54.307006 3
27.031838 27.607069 10.109756 3
20.826500 25.932806 4.050376 3
-6.803753 -11.951727 18.524688 3
-0.263378 10.000211 46.070849 3
25.966620 27.331202 41.103181 3
17.513384 24.710849 15.806822 3
19.813987 25.593146 49.900565 3
15.685467 23.916145 44.698905 3
15.703411 23.925529 34.882150 3
21.918918 26.282941 27.440433 3
-6.214931 -4.909139 51.004543 3
-6.808431 -11.693099 51.110017 3
-4.363011 1.878485 7.488977 3
-6.793245 -10.524452 40.856507 3
17.361371 24.646084 12.904227 3
-4.733547 0.838765 17.916945 3
-6.470433 -6.721350 14.637550 3
23.764397 26.760877 53.165913 3
-0.452723 9.731890 58.317741 3
17.762247 24.816877 34.828451 3
-6.226799 -4.993317 31.603586 3
-1.370035 8.186123 52.822101 3
16.896906 24.448199 55.851023 3
-6.029259 -4.017279 36.728072 3
-6.792257 -10.508260 28.847170 3
4.076576 15.439259 15.019622 3
10.169602 20.697246 61.287018 3
16.273552 24.182619 41.923425 3
7.935998 19.034344 23.691623 3
23.259855 26.630212 34.113541 3
-5.570892 -1.959191 0.294462 3
1.052865 11.865470 23.606614 3
-3.684178 3.591569 60.795726 3
3.754702 15.109080 30.874748 3
15.089537 23.604499 19.296707 3
-4.850447 0.458463 57.094279 3
4.254611 15.621888 0.616563 3
-4.640557 1.141281 25.568309 3
-2.532745 6.058019 20.118689 3
13.352919 22.696324 55.980451 3
0.750774 11.437375 48.724404 3
2.440789 13.599141 13.656798 3
1.997570 13.066032 26.582021 3
2.000862 13.069991 37.598496 3
-2.844551 5.422904 12.852408 3
-2.391105 6.346526 59.356446 3
-4.056571 2.651808 52.042503 3
5.643831 17.032057 37.771900 3
12.083617 21.928500 24.112034 3
-4.583724 1.321499 27.372611 3
6.493954 17.776252 37.880214 3
2.452922 13.613736 22.095284 3
-0.001191 10.371759 40.141216 3
-6.770668 -13.781060 43.712797 3
-6.794827 -12.445267 25.785438 3
16.753506 24.387103 13.118869 3
23.507564 26.694363 1.173848 3
24.191506 26.871488 20.247635 3
18.877339 25.278936 39.076083 3
22.695836 26.484144 7.399534 3
1.491668 12.457525 3.084453 3
1.435455 12.389912 27.354537 3
3.339439 14.680050 22.883037 3
24.601311 26.977618 28.219048 3
1.377505 12.320208 16.676366 3
27.040136 27.609218 26.527265 3
11.441612 21.525185 34.035605 3
27.716849 27.784471 23.377079 3
16.393986 24.233930 63.948723 3
25.165839 27.123818 58.877021 3
10.930237 21.203933 17.069297 3
-6.728514 -9.464466 61.809772 3
-2.767480 5.579890 18.923963 3
-4.163346 2.382353 29.336745 3
-4.893521 0.318336 8.673213 3
20.490948 25.820241 57.281926 3
10.101251 20.646359 4.903746 3
-6.795516 -12.406723 5.314228 3
15.588828 23.865607 12.732771 3
20.749715 25.907047 61.640042 3
2.714865 13.928804 39.187879 3
0.960748 11.734931 6.961709 3
10.336028 20.821149 7.628193 3
-4.096769 2.550366 25.019223 3
-6.357486 -5.920249 6.989230 3
5.503685 16.903190 39.278123 3
-4.232929 2.206756 33.972581 3
-4.400458 1.783985 42.946490 3
13.914207 22.989854 18.083661 3
-4.401671 1.780923 3.165763 3
6.186513 17.507119 14.133611 3
3.342555 14.683799 12.828677 3
-3.886989 3.079761 59.694866 3
1.888870 12.935285 2.167546 3
-2.917834 5.273635 44.613204 3
-6.179775 -4.693099 60.195815 3
22.637929 26.469148 31.844028 3
-6.785063 -12.985200 34.587836 3
-6.127932 -4.460321 18.661587 3
2.150088 13.249482 0.206598 3
19.605159 25.523092 7.623199 3
-5.201638 -0.684036 28.412030 3
28.232133 27.917917 51.222853 3
-6.789927 -10.470107 31.184923 3
11.278956 21.423003 2.889093 3
15.179543 23.651569 35.514272 3
5.864647 17.225359 9.664013 3
-5.657999 -2.350307 2.515583 3
-6.795968 -12.382289 39.303432 3
-6.581618 -7.509956 33.749885 3
4.639850 16.017067 26.538488 3
8.230887 19.253887 6.106681 3
21.718792 26.231112 40.121812 3
20.144957 25.704174 3.733908 3
-6.810206 -11.594760 3.955884 3
4.238446 15.605306 8.083527 3
7.837750 18.952609 27.559205 3
7.279155 18.463616 29.273380 3
-4.691652 0.975057 11.892952 3
15.702022 23.924802 59.110589 3
-2.020185 7.090197 2.883328 3
-4.166452 2.374516 4.295488 3
-6.815702 -10.892186 32.866231 3
-1.327488 8.257842 32.955661 3
10.373673 20.849175 23.931970 3
7.046771 18.260188 16.952082 3
-0.512168 9.632189 30.926323 3
22.164132 26.346445 26.532860 3
24.441917 26.936339 44.218505 3
-6.441901 -6.518978 59.975858 3
1.082201 11.907043 63.744528 3
27.059989 27.614359 50.264688 3
5.235156 16.627732 60.258070 3
-0.116070 10.208962 38.903529 3
16.877851 24.440080 25.997898 3
16.478211 24.269814 5.886317 3
-4.033151 2.710911 36.325147 3
22.506292 26.435057 30.222001 3
-1.254630 8.380656 39.196685 3
-2.283181 6.566354 36.195497 3
-0.972250 8.856650 31.475025 3
18.792658 25.250528 63.390975 3
21.010382 25.994491 56.574971 3
10.919013 21.196882 36.950169 3
-3.337198 4.419434 35.494351 3
27.011715 27.601857 4.347360 3
16.023038 24.075887 56.341206 3
15.315910 23.722882 3.181352 3
11.328784 21.454305 28.552586 3
-1.310856 8.285878 63.830766 3
8.295401 19.301917 60.350220 3
-6.789020 -12.765972 13.332207 3
-6.812892 -11.446409 29.456839 3
-3.030448 5.044251 35.589653 3
7.343521 18.519962 32.819325 3
9.923915 20.514333 39.575399 3
-6.781445 -13.185228 37.084201 3
24.411335 26.928419 62.340148 3
-1.154947 8.548686 14.994859 3
-5.811771 -3.040748 25.581473 3
-6.438593 -6.495515 50.491042 3
5.092871 16.481776 25.913196 3
-6.808544 -10.774959 34.277438 3
1.836174 12.871902 56.981900 3
-0.115781 10.209372 48.215440 3
-2.449039 6.228520 21.806749 3
25.307540 27.160515 23.667720 3
22.886750 26.533587 18.140127 3
17.122740 24.544415 28.689640 3
-1.099856 8.641551 40.828075 3
-6.787352 -12.858582 32.439927 3
26.042617 27.350883 37.360441 3
25.452394 27.198029 -0.468851 3
7.448379 18.611755 17.602134 3
-0.556418 9.557598 20.676806 3
-5.790725 -2.946249 62.481848 3
-4.585808 1.316241 1.447996 3
-6.648062 -8.147064 35.887013 3
11.278457 21.422689 4.227841 3
26.318023 27.422207 44.193930 3
5.465509 16.864029 7.405941 3
-3.747764 3.431105 56.567156 3
9.042548 19.858162 24.456898 3
-6.776803 -13.441649 31.717820 3
23.548863 26.705059 17.025585 3
21.538877 26.171782 6.425907 3
-0.959241 8.878580 56.611272 3
8.153578 19.196331 44.545831 3
13.276524 22.656373 42.612551 3
16.519699 24.287490 28.860344 3
11.952038 21.845841 39.584077 3
-1.447315 8.055855 35.264089 3
7.554971 18.705065 50.527523 3
-5.021095 -0.096689 19.906419 3
28.185237 27.905772 11.994503 3
20.314848 25.761166 -0.548623 3
-6.672532 -8.547772 25.841605 3
23.090479 26.586348 12.585751 3
-6.143408 -4.529810 20.307920 3
-1.711129 7.611157 61.696666 3
2.416976 13.570499 57.644619 3
7.526721 18.680334 2.879510 3
-6.819911 -11.058207 0.433238 3
16.768874 24.393651 42.054441 3
-6.661520 -8.367440 54.238138 3
11.418377 21.510589 12.431990 3
-3.752598 3.418908 31.159988 3
-5.923125 -3.540732 54.598292 3
-6.313465 -5.608016 15.621068 3
6.484739 17.768185 23.522669 3
7.211724 18.404587 47.293821 3
6.401362 17.695198 2.626411 3
1.737186 12.752838 32.148405 3
-4.248837 2.166611 49.217661 3
3.517203 14.865453 17.710660 3
0.573415 11.186037 35.381091 3
4.217814 15.584142 22.251503 3
4.950185 16.335409 62.254369 3
-0.982564 8.839264 42.711049 3
19.471857 25.478374 55.282862 3
18.585980 25.167828 17.671258 3
-6.791309 -10.492742 54.968742 3
17.467641 24.691360 1.182465 3
0.663361 11.313501 47.677278 3
-6.774530 -13.566935 15.572682 3
-6.035026 -4.043168 27.979970 3
-0.780247 9.180301 51.806507 3
-6.805643 -11.847279 60.032931 3
-6.802075 -12.044550 44.799342 3
-1.079785 8.675385 29.475151 3
-3.803323 3.290899 42.867470 3
21.468300 26.148106 20.943115 3
-6.157228 -4.591864 23.269481 3
2.554198 13.735551 9.837091 3
16.624171 24.332000 43.129407 3
25.309856 27.161115 11.873874 3
13.779499 22.919407 6.649872 3
23.521029 26.697850 18.010840 3
-5.652320 -2.324805 13.541913 3
24.526371 26.958211 15.631407 3
5.482644 16.881607 45.345696 3
26.894766 27.571570 11.489294 3
20.119577 25.695660 34.090398 3
3.294255 14.625703 15.296438 3
-5.680366 -2.450736 54.068222 3
8.015239 19.093338 56.288651 3
7.315859 18.495747 60.572226 3
6.363367 17.661937 24.604684 3
-3.143927 4.813107 53.918476 3
3.528225 14.876760 14.809216 3
-3.291202 4.513124 50.888105 3
-5.018959 -0.089743 61.978794 3
26.580684 27.490230 28.055995 3
13.001892 22.505372 40.667182 3
27.291979 27.674439 36.173682 3
4.349420 15.719144 16.920639 3
-6.765788 -10.074831 31.453696 3
-6.211965 -4.888102 56.266357 3
0.377999 10.909112 7.207971 3
-4.794456 0.640614 19.532272 3
2.858164 14.101166 35.749900 3
26.463068 27.459770 59.554358 3
-2.406824 6.314507 58.514670 3
-6.537801 -7.199176 24.169150 3
-5.834679 -3.143605 54.091206 3
15.046291 23.581884 60.232339 3
1.847721 12.885791 48.791893 3
-6.776789 -13.442619 40.467273 3
-2.270922 6.591325 4.824412 3
14.853505 23.481065 52.349145 3
23.075689 26.582518 56.285988 3
5.067700 16.455956 20.108632 3
-4.354343 1.900359 15.248746 3
-4.420067 1.734499 11.902491 3
27.181726 27.645886 14.021754 3
-6.374274 -6.039319 34.514470 3
-5.428881 -1.423306 39.270812 3
9.845321 20.455821 27.796602 3
1.502999 12.471155 45.037362 3
-4.429109 1.711681 34.902188 3
-3.726260 3.485373 37.159289 3
-6.722265 -9.362145 15.626365 3
13.926735 22.996405 44.576402 3
13.368030 22.704227 9.826484 3
-5.818816 -3.072378 60.502287 3
24.286978 26.896213 36.600967 3
21.311208 26.095407 31.383696 3
4.854815 16.237578 55.267815 3
14.383288 23.235162 15.951893 3
14.026627 23.048644 35.130786 3
8.578885 19.512969 54.776012 3
-4.252473 2.157436 16.182340 3
-6.772136 -13.700219 60.160952 3
5.844242 17.207496 54.554207 3
-5.691676 -2.501515 34.351923 3
16.235709 24.166496 3.338487 3
20.685102 25.885372 17.815838 3
16.194702 24.149025 58.206281 3
-4.972063 0.062820 26.902289 3
25.811668 27.291073 43.425683 3
-5.628366 -2.217252 22.597315 3
-3.193482 4.712169 50.404699 3
-3.898115 3.051683 55.386295 3
-6.807656 -11.735906 14.528597 3
16.983272 24.484995 51.473309 3
1.907981 12.958273 30.120155 3
11.610311 21.631164 55.992831 3
14.105377 23.089827 23.453957 3
0.810592 11.522144 52.575420 3
-3.988240 2.824248 2.647845 3
3.564866 14.914346 52.356501 3
9.370075 20.102003 12.269175 3
-6.768406 -13.905800 32.755663 3
-6.591321 -7.578778 8.814809 3
-6.154359 -4.578978 37.848124 3
-5.088799 -0.316947 21.827240 3
-5.691601 -2.501179 64.045864 3
25.257727 27.147615 56.126738 3
20.424183 25.797844 59.895259 3
24.953392 27.068799 15.308960 3
8.011079 19.090242 7.440806 3
11.496153 21.559448 22.498066 3
19.709207 25.557996 60.907987 3
-1.249705 8.388957 50.370284 3
21.981358 26.299111 19.362929 3
6.660841 17.922345 24.125318 3
-6.796764 -12.338254 54.419828 3
14.197321 23.137910 37.675700 3
22.409528 26.409997 61.395437 3
-5.173653 -0.592995 48.814689 3
25.532618 27.218805 55.045027 3
5.963627 17.312006 29.176685 3
21.587498 26.188092 45.852614 3
23.792443 26.768140 14.398778 3
-6.793184 -10.523439 60.308041 3
22.669699 26.477376 37.194361 3
-0.350532 9.876705 56.028284 3
19.574184 25.512701 53.608595 3
-5.056353 -0.211392 41.870291 3
-4.221808 2.234821 6.124318 3
16.344470 24.212833 48.520073 3
21.590696 26.189165 25.791281 3
27.788333 27.802983 -0.207374 3
-5.315344 -1.053945 43.273158 3
13.289697 22.663262 34.439089 3
-6.776054 -10.242936 45.415438 3
3.165609 14.470965 26.249703 3
27.049302 27.611591 43.357294 3
25.773690 27.281237 22.484678 3
-6.816799 -11.230349 60.174920 3
20.844441 25.938824 49.899961 3
-5.425771 -1.413188 49.866157 3
-2.094612 6.950450 62.522801 3
-5.868351 -3.294796 18.633943 3
0.582511 11.198928 36.443263 3
-1.115207 8.615675 25.837506 3
-4.276994 2.095555 31.546062 3
17.019312 24.500350 56.758024 3
-4.910382 0.263484 22.609813 3
-6.765419 -14.070646 20.735839 3
14.450821 23.270479 1.717181 3
3.303267 14.636543 40.073673 3
19.735258 25.566735 16.279391 3
20.672654 25.881196 12.610820 3
-3.577750 3.860149 1.355158 3
-6.718806 -9.305502 21.428476 3
-5.533542 -1.791490 18.780590 3
-2.267660 6.597969 2.962294 3
-4.946752 0.145163 52.298082 3
-6.585841 -7.539915 53.552452 3
-6.816480 -11.247957 47.056560 3
-6.669356 -8.495752 21.688501 3
-2.704194 5.708796 59.398870 3
-6.790925 -10.486450 10.814025 3
6.905310 18.136352 44.962036 3
-6.565934 -7.398713 43.777788 3
-6.781229 -10.327689 40.415044 3
-6.070623 -4.203003 22.387142 3
27.412160 27.705563 23.822946 3
11.025377 21.263701 13.071442 3
-4.502452 1.526595 -0.646950 3
6.042882 17.381385 48.776691 3
26.670515 27.513494 56.021084 3
-6.744407 -9.724719 8.234633 3
-6.570273 -7.429494 34.310002 3
26.687452 27.517881 49.254339 3
18.491520 25.127584 23.852851 3
10.829924 21.140915 11.674333 3
0.803485 11.512072 42.236125 3
-4.119670 2.492573 55.327723 3
-2.740469 5.634909 11.882627 3
15.513150 23.826030 53.683424 3
20.922654 25.965062 23.496427 3
-6.807080 -11.767771 43.619341 3
-5.769355 -2.850299 52.249431 3
8.684659 19.591716 34.299184 3
-4.061998 2.638112 19.204269 3
-0.091588 10.243657 33.906414 3
23.876328 26.789865 51.951683 3
24.969098 27.072867 13.217284 3
12.574912 22.237138 23.748861 3
-6.386851 -6.128527 36.925768 3
27.501343 27.728660 33.837168 3
1.996800 13.065105 40.725979 3
-2.002499 7.120008 48.257415 3
16.549848 24.300335 37.196937 3
0.170234 10.614686 39.304673 3
23.543732 26.703730 28.782345 3
8.264906 19.279213 -0.708582 3
21.489167 26.155106 2.772928 3
5.966388 17.314423 1.595629 3
-6.760517 -9.988531 4.825953 3
2.882073 14.129924 31.279587 3
19.791848 25.585719 50.475781 3
-6.703409 -9.053385 36.081371 3
26.612881 27.498568 37.576714 3
22.950066 26.549984 50.220796 3
-3.379908 4.332438 43.185208 3
-6.766313 -14.020840 2.577039 3
14.799040 23.452582 29.101215 3
-6.789061 -12.763912 22.288452 3
19.570689 25.511529 39.021617 3
21.109974 26.027901 53.513454 3
-0.959182 8.878678 60.644923 3
-2.032309 7.069759 23.958480 3
26.929706 27.580619 22.580890 3
25.838333 27.297978 33.452427 3
28.237296 27.919254 9.878223 3
-6.769754 -13.831622 46.316236 3
-6.761438 -10.003610 25.711502 3
17.597755 24.746795 54.752578 3
-6.807641 -11.736772 50.542918 3
-6.696577 -8.941509 7.180179 3
28.186803 27.906178 0.862271 3
4.131622 15.495725 13.299247 3
11.285861 21.427341 16.292983 3
12.690704 22.309879 62.171773 3
3.571145 14.920787 38.781595 3
5.259047 16.652241 44.256600 3
8.008868 19.088595 8.635035 3
1.531241 12.505124 31.365908 3
-6.806009 -10.733449 34.916612 3
27.049260 27.611580 20.484417 3
6.070709 17.405744 63.518853 3
-6.361058 -5.945583 14.883637 3
1.154070 12.008889 31.883258 3
2.586389 13.774271 35.393867 3
11.599852 21.624594 6.733352 3
5.519054 16.918956 22.531715 3
-4.896551 0.308477 49.119620 3
-6.232995 -5.037261 44.286369 3
-6.632706 -7.895607 25.738115 3
-4.669442 1.047310 62.781844 3
-5.566621 -1.940017 24.092177 3
-6.165237 -4.627822 7.605549 3
20.636076 25.868926 2.467881 3
-2.680218 5.757632 43.217357 3
10.269182 20.771382 11.565953 3
-6.721846 -9.355280 64.206142 3
20.318151 25.762274 31.667188 3
-5.361834 -1.205186 2.359215 3
-1.522204 7.929618 20.870049 3
10.597730 20.995048 55.271230 3
21.806771 26.253897 35.676671 3
17.565398 24.733009 9.237386 3
8.635237 19.554922 61.631443 3
4.319869 15.688829 60.771522 3
1.044061 11.852995 12.524066 3
-6.595430 -7.607923 20.312965 3
-4.548229 1.411074 24.803950 3
-6.650460 -8.186331 43.991988 3
-5.962100 -3.715732 23.838014 3
-6.779772 -10.303829 23.891313 3
-1.878506 7.329018 42.301520 3
28.225444 27.916185 47.126143 3
6.457230 17.744104 62.798839 3
14.564804 23.330087 -0.459918 3
-6.543156 -7.237158 7.603768 3
4.590191 15.966126 9.142906 3
-3.384849 4.322374 39.977889 3
-0.648589 9.402230 25.180052 3
4.833263 16.215470 24.228987 3
11.447236 21.528718 48.881170 3
-4.280416 2.086920 1.328002 3
-3.146721 4.807416 28.576979 3
-4.493376 1.549499 46.127586 3
1.357325 12.295936 -0.401377 3
26.810343 27.549706 59.912751 3
15.852707 24.003318 32.152127 3
10.874914 21.169178 4.020334 3
15.023218 23.569818 51.321461 3
-5.674621 -2.424939 31.932629 3
-1.971429 7.172382 35.282375 3
-6.739717 -9.647928 55.171131 3
15.408776 23.771448 24.347764 3
18.855121 25.271482 37.371685 3
-6.257951 -5.214273 23.308735 3
-6.788604 -12.788751 4.568908 3
-6.806736 -11.786575 6.109098 3
-5.050540 -0.192482 50.653083 3
-1.984226 7.150810 40.982486 3
19.264984 25.408976 56.341470 3
25.255178 27.146955 14.798633 3
19.110125 25.357026 25.784410 3
-0.148209 10.163418 16.507400 3
22.878372 26.531417 62.697062 3
4.964265 16.349852 5.898837 3
-5.389513 -1.295235 7.339277 3
-0.172680 10.128741 17.047071 3
21.185504 26.053238 41.738816 3
0.972836 11.752060 10.625490 3
0.115393 10.536971 47.852133 3
27.347859 27.688911 7.663830 3
-4.670328 1.044430 31.653505 3
-3.299258 4.496715 26.820655 3
0.866420 11.601257 2.884506 3
13.017049 22.514894 51.726171 3
15.704722 23.926214 35.484676 3
-2.417273 6.293224 37.403320 3
-2.372663 6.384089 1.206744 3
1.469086 12.430364 19.599208 3
-6.057980 -4.146236 11.411830 3
1.529243 12.502721 4.420670 3
28.191541 27.907405 14.321770 3
7.126602 18.330071 4.226104 3
-4.107619 2.522985 5.152922 3
-4.370749 1.858958 52.828737 3
-1.008811 8.795021 50.243187 3
0.249191 10.726578 4.467056 3
-1.924891 7.250828 49.293298 3
3.857772 15.214809 0.380924 3
23.252995 26.628436 22.820414 3
18.041792 24.935977 17.940344 3
26.448059 27.455883 39.454946 3
7.752784 18.878230 20.653428 3
13.793936 22.926957 22.966072 3
-6.671200 -8.525956 20.892841 3
24.412159 26.928632 44.811955 3
12.693843 22.311852 55.769215 3
18.967866 25.309304 10.000548 3
0.628236 11.263726 23.823176 3
18.516666 25.138297 2.087117 3
-6.818983 -11.109529 54.668864 3
21.048604 26.007314 13.513569 3
-1.565904 7.855956 19.755986 3
-3.706663 3.534827 57.613066 3
4.697995 16.076712 61.762626 3
-5.110166 -0.386456 48.271153 3
4.464012 15.836691 32.436499 3
3.913745 15.272227 4.962760 3
-5.313078 -1.046574 21.500454 3
17.641109 24.765266 13.370215 3
-3.693760 3.567389 44.343901 3
10.430155 20.889776 63.639376 3
-4.349574 1.912394 8.551362 3
11.851870 21.782914 52.923995 3
12.495215 22.187071 42.089994 3
-5.733845 -2.690856 62.960024 3
7.991921 19.075979 14.425755 3
8.317203 19.318148 10.977322 3
16.331456 24.207289 27.365890 3
17.043917 24.510833 9.028898 3
-6.793842 -10.534214 42.142483 3
13.542566 22.795501 39.840489 3
2.561983 13.744915 -0.471557 3
11.598706 21.623873 48.422620 3
-6.416508 -6.338878 5.649109 3
22.104607 26.331030 48.811022 3
-6.818202 -10.933122 59.798617 3
12.807011 22.382945 60.302348 3
0.233027 10.703672 34.022180 3
18.360508 25.071766 0.784571 3
-5.759886 -2.807782 28.325993 3
12.163629 21.978765 18.669487 3
-3.568461 3.883589 10.180286 3
-6.649166 -8.165144 59.690202 3
-3.829218 3.225551 9.269811 3
19.223634 25.395105 20.293851 3
5.826797 17.192225 34.366450 3
9.019332 19.840878 37.433707 3
-5.648287 -2.306697 0.647182 3
-6.641365 -8.037410 33.703814 3
13.688447 22.871791 64.117857 3
21.982777 26.299478 3.036344 3
11.372001 21.481454 41.397181 3
10.501758 20.934758 13.920181 3
-0.491608 9.666845 3.709506 3
-6.192081 -4.748354 4.082373 3
-3.790228 3.323944 2.833038 3
20.769492 25.913682 57.846623 3
-4.372395 1.854803 62.915228 3
-3.639472 3.704387 7.526791 3
8.475550 19.436036 21.672907 3
-5.072537 -0.264042 54.747422 3
-6.795352 -12.416351 63.037707 3
-2.680646 5.756760 7.221871 3
-2.120228 6.898273 43.152381 3
-6.775246 -10.229711 35.363629 3
23.242452 26.625705 47.454016 3
3.052416 14.334815 49.918322 3
-4.492797 1.550960 41.062180 3
-0.958433 8.879942 58.758987 3
7.757815 18.882634 22.599131 3
-6.351849 -5.880267 44.147686 3
9.399915 20.124219 59.213809 3
-6.128073 -4.460956 12.991964 3
13.148292 22.589314 3.511719 3
-6.805783 -11.839520 57.335801 3
19.424272 25.462411 58.894435 3
17.833645 24.847296 20.096737 3
27.538691 27.738332 31.094287 3
4.461543 15.834160 19.723795 3
-6.659675 -8.337234 7.922477 3
17.679306 24.781540 23.912968 3
2.671596 13.876760 40.811201 3
7.697118 18.829500 15.657631 3
0.259052 10.740551 36.127128 3
23.804502 26.771263 35.171440 3
21.026227 25.999807 57.146883 3
-6.519291 -7.067891 37.855776 3
-5.111213 -0.389865 58.085034 3
-4.097613 2.548236 46.169941 3
-2.381189 6.366723 35.724956 3
-6.727534 -9.448423 11.212707 3
27.655593 27.768607 37.566912 3
1.387809 12.332602 37.872004 3
-3.592581 3.822720 59.794395 3
-6.226125 -4.988537 10.150065 3
21.688294 26.221905 49.190666 3
1.871323 12.914180 51.427988 3
19.764768 25.576635 46.534408 3
-2.888672 5.333033 3.424174 3
15.777798 23.964430 4.049966 3
25.582683 27.231771 61.461165 3
12.161845 21.977644 33.516607 3
-5.768879 -2.848160 50.355277 3
-0.110089 10.217439 36.298188 3
-5.143210 -0.493957 20.305248 3
6.984294 18.205495 36.247463 3
-2.223910 6.687084 4.135207 3
3.854019 15.210960 57.840467 3
16.035206 24.081071 58.706827 3
-6.310589 -5.587622 16.372543 3
-3.657175 3.659713 29.463724 3
-6.677590 -8.630593 32.002109 3
5.064374 16.452544 17.044495 3
-1.242382 8.401302 23.685790 3
11.966525 21.854942 4.082610 3
-6.560955 -7.363398 35.613224 3
-2.125401 6.887735 12.137488 3
-6.592672 -7.588361 24.797872 3
-6.819690 -11.070445 35.435276 3
10.039532 20.600410 36.868588 3
14.371879 23.229196 44.328876 3
17.119106 24.542867 5.911090 3
-0.445987 9.741435 34.776367 3
4.713531 16.092649 31.986809 3
-4.702690 0.939149 6.973933 3
18.244412 25.022303 24.285042 3
-5.085468 -0.306108 -0.632550 3
26.483405 27.465037 46.909747 3
-4.486740 1.566247 16.070120 3
-6.819994 -11.053656 27.000282 3
3.132641 14.431310 8.242824 3
-0.139755 10.175399 11.787710 3
22.004504 26.305105 6.336334 3
10.975845 21.232585 13.887429 3
18.382871 25.081294 12.470574 3
-5.554956 -1.887639 52.671732 3
-6.768698 -13.890255 57.168263 3
-6.663690 -8.402986 49.602125 3
-5.142576 -0.491894 31.808437 3
-3.881303 3.094111 57.698500 3
6.310659 17.615796 50.345360 3
8.900996 19.752778 26.327613 3
-1.066658 8.697512 50.745823 3
-5.848084 -3.203796 9.507839 3
8.061768 19.127979 3.160842 3
16.414421 24.242636 62.455035 3
-5.984336 -3.815569 41.053782 3
0.383191 10.916470 30.599851 3
10.709935 21.065537 23.582330 3
4.060581 15.422852 12.713044 3
-3.334913 4.424089 20.026706 3
5.047737 16.435479 45.332936 3
5.447267 16.845317 59.163060 3
26.103362 27.366615 55.080054 3
-6.358316 -5.926134 4.977850 3
-1.378472 8.171902 30.241207 3
18.374267 25.077628 58.784836 3
-3.596138 3.813745 47.977022 3
13.496041 22.771171 24.887382 3
3.331183 14.670120 26.779637 3
-2.766477 5.581931 32.348179 3
10.170277 20.697748 12.295634 3
-6.631842 -7.881464 -0.634790 3
-4.447708 1.664747 10.197560 3
-2.072918 6.994637 36.718685 3
-2.193982 6.748044 58.735409 3
-6.173800 -4.666271 9.761434 3
-6.217166 -4.924989 19.913777 3
-0.088381 10.248201 31.118478 3
14.129237 23.102305 15.255635 3
-3.966360 2.879464 5.817023 3
2.850863 14.092384 2.660973 3
-5.639561 -2.267518 60.516568 3
28.241211 27.920268 53.467026 3
22.613981 26.462946 54.130724 3
-1.814493 7.436921 53.713157 3
15.351073 23.741272 9.200406 3
25.222891 27.138593 61.787313 3
20.584439 25.851603 56.322686 3
-6.767872 -10.108968 50.630223 3
0.822069 11.538408 16.925180 3
-2.603557 5.913783 14.351268 3
21.516541 26.164289 42.120131 3
-5.631580 -2.231683 29.721068 3
-1.771218 7.509868 27.365306 3
14.342359 23.213758 11.765980 3
10.820663 21.135098 5.561069 3
5.555240 16.954504 27.374324 3
21.597987 26.191611 37.063628 3
0.650707 11.295569 33.161961 3
28.223512 27.915685 3.864810 3
-6.274789 -5.333700 17.325569 3
23.328759 26.648057 45.719624 3
14.302365 23.192843 2.714884 3
2.370166 13.514195 52.730498 3
3.993524 15.354065 11.827615 3
0.886545 11.629777 31.027554 3
8.831834 19.701288 20.338983 3
9.173473 19.955635 53.114228 3
-4.004446 2.783351 11.126791 3
3.000456 14.272317 49.279415 3
21.028361 26.000523 63.113029 3
-5.509651 -1.686067 31.121207 3
19.373399 25.445345 22.618707 3
17.825125 24.843666 30.197367 3
0.634744 11.272947 25.074315 3
4.736615 16.116329 25.155836 3
17.467002 24.691088 8.615997 3
13.025309 22.520083 4.107497 3
0.619202 11.250923 62.493932 3
16.911504 24.454418 11.097088 3
-5.861897 -3.265817 13.536462 3
0.401447 10.942340 22.126140 3
25.983424 27.335554 42.930455 3
-6.796061 -12.377143 35.901899 3
-5.486782 -1.611671 28.696589 3
27.009303 27.601233 34.545025 3
1.599473 12.587195 58.629101 3
22.336958 26.391203 51.939272 3
14.661935 23.380882 5.837982 3
-6.015084 -3.953629 3.598038 3
-4.694568 0.965572 2.694557 3
-0.881442 9.009721 18.350536 3
-3.157184 4.786105 44.496415 3
8.971937 19.805593 12.965707 3
-2.310549 6.510609 34.786596 3
18.074748 24.950018 17.235577 3
26.425450 27.450028 63.093319 3
-5.304496 -1.018655 59.539347 3
9.710799 20.355670 23.729661 3
-2.995718 5.114992 0.002598 3
27.641344 27.764917 1.087644 3
3.148235 14.450068 44.159150 3
18.159446 24.986104 9.385215 3
24.901186 27.055279 12.265727 3
-4.902264 0.289892 45.590327 3
21.083907 26.019156 51.686928 3
-6.810202 -11.595120 64.139989 3
-1.504289 7.959818 30.700273 3
-5.707808 -2.573951 41.238805 3
9.071780 19.879926 34.582222 3
2.606213 13.798115 20.305407 3
24.228889 26.881170 45.448767 3
-4.674833 1.029773 46.322542 3
-3.906576 3.030332 16.915375 3
3.213316 14.528348 28.654804 3
-6.695487 -8.923648 9.899955 3
19.642832 25.535730 49.401209 3
-5.792087 -2.952367 56.254347 3
-5.685089 -2.471941 55.688203 3
18.563432 25.158222 54.962481 3
8.180268 19.216201 8.102134 3
-6.779423 -13.296256 5.500570 3
2.991880 14.262001 57.970578 3
17.178005 24.567961 -0.017297 3
-0.067915 10.277204 64.162871 3
0.004735 10.380157 56.255934 3
5.524645 16.924691 30.640035 3
-4.298731 2.040700 13.570802 3
-6.526807 -7.121198 31.344273 3
16.334158 24.208440 36.724142 3
-5.683623 -2.465359 37.267523 3
1.209549 12.087508 56.530865 3
24.118229 26.852511 61.116882 3
9.504384 20.201996 9.456781 3
-1.778413 7.497740 2.679275 3
-6.318088 -5.640807 31.107973 3
19.471916 25.478394 41.858333 3
-2.513426 6.097370 3.152358 3
-6.272351 -5.316406 12.896386 3
-0.268458 9.993013 42.738431 3
26.965452 27.589876 8.298492 3
0.651549 11.296763 50.225738 3
-2.477234 6.171090 16.181681 3
-0.488919 9.671378 36.530385 3
-2.991700 5.123177 31.816004 3
23.821413 26.775643 39.791343 3
14.672256 23.386280 25.921336 3
10.387236 20.859273 61.856151 3
-6.665092 -8.425930 56.976053 3
2.353420 13.494052 29.296339 3
-5.789349 -2.940072 8.944787 3
6.074809 17.409334 8.662145 3
-6.183169 -4.708337 38.329641 3
5.705162 17.085746 62.707961 3
-6.316932 -5.632607 24.930695 3
22.211025 26.358589 16.999480 3
-6.768875 -10.125393 4.125905 3
0.682626 11.340802 35.959480 3
5.544498 16.945057 -0.003503 3
-2.326411 6.478300 33.095925 3
7.101831 18.308386 31.591539 3
21.567447 26.181366 56.224888 3
-6.779466 -10.298808 58.143836 3
-5.722038 -2.637845 36.281070 3
11.404721 21.502009 42.129064 3
-6.071481 -4.206854 1.553536 3
23.124453 26.595146 48.526487 3
-4.991737 -0.001183 49.812848 3
-5.574973 -1.977517 49.848710 3
-2.215609 6.703992 25.014104 3
-4.719109 0.885736 40.484649 3
28.010013 27.860393 46.530580 3
13.459902 22.752272 52.986278 3
-2.490877 6.143301 51.312445 3
-2.263345 6.606758 14.417412 3
6.648899 17.911891 53.657013 3
0.470152 11.039704 27.270439 3
-4.531521 1.453238 11.331321 3
27.162593 27.640931 51.504158 3
13.726601 22.891743 19.087028 3
-3.062394 4.979181 29.068802 3
15.715050 23.931615 32.669121 3
10.384182 20.856999 45.059284 3
-3.377903 4.336523 38.804029 3
-5.561688 -1.917868 51.312125 3
5.982806 17.328795 2.819241 3
3.904107 15.262341 7.689007 3
-5.532022 -1.784667 37.236736 3
3.093166 14.383830 63.565931 3
15.666987 23.906481 5.444404 3
-2.735237 5.645566 22.391790 3
0.350428 10.870042 37.561043 3
-4.611255 1.236607 61.848498 3
6.975722 18.197991 41.437408 3
-6.171064 -4.653985 34.581779 3
-6.261208 -5.237374 55.789965 3
-5.600307 -2.091267 58.481238 3
-2.870645 5.369752 7.877534 3
6.852702 18.090300 51.411345 3
-4.687600 0.988242 60.698815 3
1.945118 13.002942 46.667688 3
-6.735810 -9.583948 62.282135 3
-6.654709 -8.255922 27.629005 3
-0.235778 10.039323 24.743711 3
-4.183572 2.331311 53.913737 3
24.684730 26.999222 23.718201 3
27.089717 27.622058 37.849636 3
-2.519389 6.085224 46.207039 3
-6.791354 -12.636954 12.472082 3
-4.115641 2.502742 57.652347 3
-0.850969 9.061089 27.658504 3
17.551466 24.727074 57.543271 3
9.466620 20.173881 51.831678 3
11.511286 21.568955 4.832292 3
-6.802458 -12.023365 34.060226 3
11.044489 21.275708 27.605156 3
14.202357 23.140543 54.742498 3
-2.782132 5.550045 36.272350 3
24.859292 27.044429 0.630360 3
11.496897 21.559916 54.594198 3
-4.905158 0.280477 27.419858 3
-3.053115 4.998082 58.957725 3
2.193743 13.301991 8.790832 3
-6.793859 -10.534505 45.834697 3
14.425883 23.257438 49.177105 3
9.326993 20.069930 10.643452 3
14.182197 23.130000 45.013786 3
14.227662 23.153776 54.147430 3
4.389332 15.760084 40.683429 3
5.484088 16.883088 43.047591 3
-6.781785 -13.166635 50.884861 3
-6.788916 -12.771809 18.006738 3
-5.594488 -2.065139 28.505141 3
11.283778 21.426032 15.373928 3
-6.789521 -10.463460 52.367605 3
26.213280 27.395081 5.281662 3
-6.154405 -4.579185 29.585987 3
10.588915 20.989511 59.187359 3
22.377267 26.401642 31.373057 3
0.752995 11.440522 26.125035 3
3.502503 14.850374 30.496239 3
19.187920 25.383124 60.129606 3
14.787915 23.446764 22.110958 3
-6.663182 -8.394663 39.998313 3
18.377997 25.079217 43.439216 3
6.186022 17.506690 6.122839 3
11.464465 21.539541 29.050597 3
13.993946 23.031553 49.670356 3
-6.574522 -7.459629 16.971816 3
4.197042 15.562834 61.497210 3
21.599914 26.192257 18.871214 3
-3.470008 4.132043 53.800695 3
14.441641 23.265678 47.399825 3
5.111198 16.500576 48.843987 3
0.267329 10.752281 15.219761 3
-6.775635 -13.505881 17.478009 3
5.449228 16.847328 43.748317 3
-6.668548 -8.482533 12.696727 3
-1.431877 8.081879 26.184282 3
23.628794 26.725759 21.242443 3
-6.704787 -9.075942 55.426997 3
-4.551816 1.402021 33.359299 3
2.382445 13.528964 14.753995 3
17.293582 24.617202 25.704172 3
22.026473 26.310795 39.028907 3
-6.057570 -4.144394 45.455052 3
-2.401864 6.324611 14.899137 3
1.406052 12.354545 52.666671 3
16.927935 24.461419 38.128690 3
8.634840 19.554627 16.417894 3
4.272766 15.640511 48.064936 3
3.043138 14.323656 57.457957 3
18.581415 25.165883 60.474485 3
-6.796857 -12.332922 19.376976 3
-6.787975 -12.824309 48.519949 3
9.691609 20.341383 0.053217 3
5.975785 17.322648 10.261099 3
-1.408012 8.122108 55.222100 3
27.405175 27.703754 47.802515 3
-3.710789 3.524415 54.157180 3
0.652234 11.297734 45.564034 3
7.513817 18.669038 12.106549 3
5.049908 16.437705 50.736746 3
13.494113 22.770163 4.704371 3
-5.929571 -3.569674 41.744884 3
-4.978351 0.042365 46.400218 3
20.496603 25.822138 5.679951 3
4.063776 15.426129 29.886420 3
-6.799854 -12.167013 7.421774 3
-6.774339 -13.578018 39.511809 3
-6.817777 -11.176237 3.231515 3
19.665120 25.543207 41.174868 3
1.864333 12.905772 64.027148 3
11.192245 21.368530 -0.763615 3
27.087603 27.621511 29.199311 3
-6.813939 -11.388483 39.220135 3
-0.244036 10.027621 37.567298 3
21.378663 26.118036 8.292550 3
15.635251 23.889884 28.533339 3
9.156951 19.943335 3.781970 3
16.720093 24.372867 33.248170 3
-5.737925 -2.709177 40.512912 3
10.738245 21.083321 35.240208 3
-6.634022 -7.917170 45.123547 3
1.143107 11.993353 5.919425 3
2.078334 13.163176 25.378739 3
3.398953 14.744152 44.520708 3
-2.221073 6.692861 35.388078 3
-6.675238 -8.592083 60.161740 3
13.602733 22.826966 35.361050 3
21.662867 26.213376 34.302794 3
12.197580 22.000094 12.357276 3
2.140496 13.237945 59.358989 3
-4.704266 0.934021 45.829708 3
20.823447 25.931782 0.027939 3
16.032270 24.079821 26.165064 3
7.143889 18.345204 13.505788 3
9.052747 19.865756 61.284370 3
2.942647 14.202783 17.626721 3
3.402076 14.747356 55.486926 3
-6.374827 -6.043242 61.228494 3
-1.209427 8.456853 5.636558 3
-6.637576 -7.975363 63.195363 3
18.961539 25.307181 56.982806 3
-6.814677 -10.875395 38.376721 3
-6.490152 -6.861212 15.651367 3
12.481900 22.178706 17.366214 3
12.376044 22.112207 19.114059 3
8.832894 19.702077 8.086293 3
-0.928058 8.931143 59.383874 3
-6.785128 -12.981718 61.683409 3
-6.796159 -12.371723 34.725248 3
6.367107 17.665211 10.442709 3
19.265558 25.409169 13.885359 3
15.799480 23.975769 61.547917 3
-6.639207 -8.002067 50.576425 3
10.907310 21.189530 35.755910 3
25.467888 27.202042 60.269981 3
0.587155 11.205509 7.898130 3
18.739462 25.232683 -0.732250 3
20.617973 25.862853 16.351079 3
22.215849 26.359839 62.660998 3
-6.636028 -7.950008 9.373503 3
-2.273903 6.585253 11.570439 3
-6.723270 -9.378602 17.926713 3
-6.492772 -6.879798 13.981664 3
8.051196 19.120108 59.809523 3
-4.770101 0.719847 35.999337 3
-5.968951 -3.746493 6.896490 3
6.748485 17.999068 50.163248 3
21.880582 26.273012 2.367590 3
1.320615 12.244902 30.894838 3
2.482257 13.649020 27.070206 3
5.454862 16.853108 35.722505 3
-6.164962 -4.626590 52.706522 3
25.422878 27.190385 1.940263 3
27.682054 27.775460 2.954042 3
14.178304 23.127965 20.065709 3
-1.528573 7.918882 58.123266 3
1.232627 12.120212 30.146303 3
0.002810 10.377428 28.188951 3
4.803281 16.184715 63.423462 3
7.769692 18.893030 21.285761 3
-1.246295 8.394706 27.447078 3
-3.396229 4.299195 63.057946 3
-3.061563 4.980874 8.993933 3
24.880808 27.050001 49.785739 3
23.148934 26.601486 63.342154 3
-6.495801 -6.901283 63.656401 3
12.776073 22.363510 7.949796 3
20.952794 25.975173 -0.715448 3
-4.852819 0.450749 7.070739 3
-6.704792 -9.076029 28.871768 3
-0.736936 9.253307 8.101596 3
15.422069 23.778399 1.020955 3
15.173314 23.648311 48.710145 3
-6.673255 -8.559604 60.676061 3
-1.995161 7.132378 60.159261 3
25.468857 27.202293 13.223036 3
-5.900475 -3.439030 24.258360 3
0.338222 10.852744 38.135881 3
5.019490 16.406503 50.225604 3
-6.795540 -12.405957 29.610320 3
-1.250928 8.386897 52.350058 3
8.373782 19.360271 28.481518 3
-6.216529 -4.920477 64.035617 3
-5.412383 -1.369635 15.195043 3
20.472194 25.813950 44.308216 3
-6.438440 -6.494432 13.051237 3
7.172457 18.370212 11.873286 3
-2.735672 5.644678 4.443404 3
8.542434 19.485831 59.280722 3
5.188763 16.580143 63.606587 3
5.843677 17.207002 53.420553 3
-0.871628 9.026264 43.531689 3
-5.902064 -3.446167 11.882398 3
-4.225747 2.224881 51.428629 3
-0.217860 10.064716 40.825679 3
17.316946 24.627156 49.363551 3
-5.865530 -3.282125 35.678603 3
21.402009 26.125867 43.896101 3
-6.657200 -8.296702 42.170725 3
-2.857955 5.395601 28.256388 3
-1.255254 8.379604 28.574666 3
-6.783670 -13.062366 54.524779 3
1.340353 12.272873 54.611178 3
-5.191796 -0.652019 3.703893 3
13.333581 22.686211 39.349851 3
26.530008 27.477106 41.142505 3
12.387237 22.119238 7.813727 3
0.072752 10.476544 30.361640 3
23.944302 26.807468 40.281612 3
12.199961 22.001589 46.274196 3
15.503966 23.821228 54.169088 3
7.557638 18.707399 19.934201 3
-6.770747 -13.776566 38.158082 3
9.278996 20.034196 14.756931 3
17.395529 24.660637 55.497024 3
-5.827380 -3.110833 27.576011 3
-1.303487 8.298301 26.847530 3
15.902595 24.024573 33.226124 3
0.284424 10.776506 6.397996 3
-6.226107 -4.988406 53.162652 3
26.812336 27.550223 7.178497 3
24.814973 27.032952 22.216802 3
2.876103 14.122744 3.249390 3
-2.888995 5.332376 55.451666 3
-6.775739 -10.237787 58.799945 3
20.562499 25.844244 27.352411 3
-6.810010 -11.605774 47.834325 3
-6.683388 -8.725529 17.769440 3
3.773005 15.127855 11.427692 3
9.092195 19.895124 18.158926 3
22.479307 26.428068 10.387766 3
-6.815390 -11.308220 17.212894 3
22.003335 26.304803 43.793533 3
-6.753219 -9.869025 27.464749 3
8.090548 19.149405 58.735653 3
-0.806991 9.135220 57.192665 3
28.076267 27.877552 17.520343 3
-6.786687 -12.895527 56.075763 3
-5.105118 -0.370034 59.282914 3
-3.088197 4.926623 41.874529 3
21.665919 26.214399 7.620163 3
2.672263 13.877562 22.464291 3
21.440836 26.138893 54.955200 3
-6.674926 -8.586962 48.193726 3
26.329705 27.425232 22.523354 3
-3.965835 2.880787 58.136986 3
-5.876370 -3.330799 56.895524 3
8.723643 19.620740 30.406439 3
-5.754674 -2.784379 33.003542 3
-6.239759 -5.085239 7.114591 3
19.498762 25.487400 0.867488 3
2.915667 14.170331 59.996964 3
16.351707 24.215917 31.001519 3
13.889943 22.977165 32.763525 3
9.864377 20.470008 38.686321 3
17.325857 24.630953 2.189258 3
-6.793877 -12.497934 48.015937 3
-6.765617 -14.059348 5.184389 3
-6.619409 -7.778000 18.448392 3
-4.776919 0.697668 28.518875 3
19.339611 25.434011 42.631928 3
-0.869747 9.029434 61.500881 3
-5.585996 -2.027009 16.743528 3
0.573017 11.185474 59.458092 3
-6.569671 -7.425224 20.764934 3
-0.439077 9.751227 16.867633 3
-6.639349 -8.004386 8.394411 3
3.213297 14.528325 32.315494 3
-3.426261 4.238023 11.161305 3
26.522016 27.475037 40.400052 3
22.415051 26.411427 21.390570 3
-6.684463 -8.743139 27.836042 3
11.794678 21.746986 42.371965 3
-6.811952 -11.498364 53.840506 3
2.514624 13.687951 28.332021 3
24.430803 26.933461 50.347633 3
6.567148 17.840326 8.366524 3
-2.303574 6.524816 23.667862 3
20.286843 25.751771 50.418221 3
15.617920 23.880820 13.237793 3
6.178556 17.500154 12.821991 3
-2.880813 5.349042 33.150525 3
-6.652305 -8.216546 33.205658 3
20.386914 25.785341 39.844358 3
-4.778762 0.691672 10.336948 3
9.603749 20.275972 36.580346 3
7.568949 18.717301 13.333917 3
-5.141120 -0.487157 31.158462 3
18.710872 25.221039 20.450007 3
17.015420 24.498691 39.833544 3
12.642935 22.279871 27.071686 3
21.917906 26.282678 20.442546 3
-4.395714 1.795956 2.322752 3
4.294615 15.662924 17.625221 3
12.115427 21.948484 29.629060 3
-4.751594 0.780054 53.220360 3
-5.401630 -1.334653 1.384944 3
10.826983 21.139068 40.642206 3
-6.734754 -9.566650 22.574237 3
-4.821584 0.552362 53.979824 3
-6.632155 -7.886591 38.525869 3
-4.943651 0.155250 28.162158 3
-4.692551 0.972133 46.893980 3
6.823541 18.064773 4.896735 3
-0.778060 9.183987 34.055817 3
7.766667 18.890383 6.150995 3
11.867636 21.792818 33.020963 3
-0.411421 9.790419 60.623820 3
4.939675 16.324628 16.507067 3
10.353149 20.833895 8.702126 3
18.200945 25.003784 40.127459 3
22.597432 26.458660 9.533591 3
-6.793076 -12.541459 -0.154138 3
-6.757165 -9.933629 64.065442 3
25.961873 27.329972 64.021701 3
17.790884 24.829078 12.305383 3
2.543512 13.722699 48.041186 3
4.955962 16.341335 22.099038 3
5.457149 16.855453 50.125298 3
-6.436121 -6.477982 34.938484 3
14.575843 23.335860 38.947349 3
22.166625 26.347091 37.934459 3
14.141155 23.108537 56.083114 3
14.392420 23.239938 46.882039 3
-3.477695 4.112643 29.243043 3
5.058880 16.446909 58.515487 3
2.907117 14.160048 5.874611 3
-0.673085 9.360938 56.482308 3
22.422763 26.413425 11.596066 3
21.883056 26.273653 3.850318 3
-3.689350 3.578518 32.912513 3
14.466639 23.278751 50.230723 3
-0.323512 9.914994 27.246318 3
2.007171 13.077579 31.458258 3
-6.284591 -5.403220 30.429119 3
-6.030103 -4.021066 48.396709 3
1.314639 12.236433 17.185951 3
2.518884 13.693076 32.294157 3
20.559742 25.843319 25.168885 3
19.690777 25.551813 21.436945 3
-4.165919 2.375862 52.536144 3
-6.797297 -12.308790 26.774684 3
-6.778513 -13.347573 63.450618 3
27.336667 27.686012 61.572020 3
1.558110 12.537443 61.972274 3
14.142341 23.109157 26.080501 3
-6.120974 -4.429079 12.039899 3
10.341133 20.824949 10.062441 3
-6.400807 -6.227509 25.042689 3
-6.654973 -8.260238 24.369343 3
21.222627 26.065692 46.654333 3
7.614652 18.757309 22.019669 3
12.525392 22.206029 21.645076 3
-4.965473 0.084259 53.282610 3
25.835434 27.297228 46.450733 3
5.166464 16.557268 27.866641 3
-6.804009 -10.700712 54.137656 3
24.166374 26.864980 35.462457 3
-6.216591 -4.920914 30.217610 3
-6.767041 -13.981839 56.474788 3
12.957803 22.477675 30.451727 3
26.703808 27.522116 61.469329 3
27.235666 27.659855 45.626350 3
-6.804105 -10.702274 46.353468 3
-1.517443 7.937644 -0.133638 3
19.532089 25.498579 9.782348 3
-4.723588 0.871162 7.542468 3
16.236829 24.166973 47.949598 3
11.518229 21.573317 39.138207 3
6.674225 17.934062 28.598513 3
-4.881864 0.356256 24.799384 3
4.107895 15.471386 29.229911 3
1.739802 12.755984 8.118828 3
10.166232 20.694737 59.612541 3
0.741873 11.424761 22.399377 3
-3.963229 2.887364 40.263107 3
25.194634 27.131275 32.349383 3
0.051323 10.446178 37.330771 3
4.937733 16.322636 31.231821 3
-5.793348 -2.958030 10.258649 3
4.820482 16.202359 29.011580 3
-6.367161 -5.988871 27.217897 3
25.371824 27.177163 45.189512 3
-6.295458 -5.480296 54.615620 3
0.287240 10.780497 31.606054 3
-4.589587 1.306703 18.114762 3
-0.293297 9.957813 40.350582 3
13.701435 22.878583 21.163166 3
-4.785995 0.668140 36.709380 3
26.336917 27.427100 60.057006 3
3.177770 14.485592 0.526370 3
16.213324 24.156959 19.535784 3
3.404810 14.750160 43.826476 3
-6.585392 -7.536728 36.229608 3
0.034099 10.421769 12.995346 3
6.394177 17.688908 37.124629 3
15.953039 24.046064 2.012186 3
-6.767507 -13.955555 34.351378 3
-4.233290 2.205847 36.462069 3
-6.781924 -10.339061 63.097867 3
-6.666542 -8.449675 26.461143 3
-1.693607 7.640693 5.678260 3
-1.142551 8.569583 53.020572 3
12.015128 21.885475 5.114089 3
17.378234 24.653269 42.190282 3
-6.798456 -12.244652 23.205811 3
13.331685 22.685220 16.732729 3
5.236238 16.628843 20.579993 3
-6.796908 -12.330332 61.659354 3
-1.083058 8.669867 44.520190 3
7.191501 18.386884 51.197855 3
12.162414 21.978002 27.313337 3
-6.765088 -14.089030 23.513398 3
16.137033 24.124455 36.180740 3
25.628729 27.243696 52.845416 3
24.557853 26.966364 53.323560 3
-6.794658 -12.454708 58.335372 3
11.962718 21.852550 49.413534 3
-6.719124 -9.310711 42.799374 3
11.509004 21.567521 21.000186 3
14.014687 23.042400 5.573398 3
18.247765 25.023732 11.957573 3
26.079300 27.360383 7.260219 3
6.250601 17.563222 18.198853 3
10.950691 21.216783 39.848580 3
6.243572 17.557069 55.811151 3
22.851402 26.524432 27.877502 3
-4.959355 0.104164 55.776530 3
6.770253 18.018124 46.093732 3
8.877779 19.735493 28.211886 3
17.205933 24.579859 16.566539 3
0.267544 10.752585 15.852397 3
-6.310930 -5.590039 6.463655 3
24.283832 26.895399 17.426114 3
17.547048 24.725192 60.590418 3
-6.680209 -8.673478 27.156457 3
22.010807 26.306738 33.100154 3
24.574890 26.970776 3.426830 3
-6.099221 -4.331407 2.487315 3
-6.809786 -11.617882 0.649253 3
-5.971955 -3.759978 34.948835 3
-6.340857 -5.802305 60.720277 3
-6.686843 -8.782111 13.610384 3
-6.725809 -9.420186 33.127990 3
-6.820576 -11.021476 63.937305 3
-4.692108 0.973574 38.750200 3
8.605778 19.532990 0.665371 3
-3.806676 3.282437 4.162477 3
14.861222 23.485101 45.354512 3
9.813881 20.432414 15.317576 3
-5.712167 -2.593523 17.503958 3
25.164445 27.123457 2.905979 3
-6.671866 -8.536863 41.696453 3
-6.793580 -12.514335 42.350349 3
20.957779 25.976845 24.775729 3
-1.659518 7.698155 18.999439 3
4.936915 16.321796 59.519777 3
-6.241920 -5.100569 32.202308 3
17.626606 24.759087 40.961159 3
17.710646 24.794893 23.314223 3
0.071913 10.475355 41.196584 3
21.615602 26.197520 26.968508 3
23.973213 26.814955 27.772518 3
-6.778510 -13.346605 -0.173227 3
-6.458550 -6.637068 42.371727 3
19.030758 25.330402 8.363800 3
-5.828231 -3.114653 36.351459 3
0.998490 11.788415 9.814429 3
-6.557770 -7.340808 38.851875 3
10.403229 20.871179 15.734642 3
7.055314 18.267666 30.262784 3
3.189856 14.500130 62.414563 3
13.791986 22.925937 16.638741 3
15.686793 23.916838 31.587690 3
6.841980 18.080914 29.208680 3
-0.765058 9.205904 63.717470 3
12.998559 22.503278 60.976841 3
26.008194 27.341969 17.482792 3
-5.137187 -0.474364 29.412543 3
-1.034858 8.751115 62.051232 3
1.579302 12.562933 58.126720 3
4.324043 15.693112 6.252975 3
-6.372380 -6.025887 40.412931 3
-6.478863 -6.781141 23.952776 3
-3.544235 3.944727 52.099777 3
15.297070 23.713030 63.228864 3
19.985310 25.650618 12.690319 3
-6.817882 -11.170414 32.394598 3
-6.278928 -5.363053 28.526683 3
-3.470593 4.130567 4.669995 3
-3.299655 4.495906 6.225174 3
15.841910 23.997958 39.424955 3
-4.123840 2.482051 14.516062 3
26.724903 27.527580 45.861278 3
25.541636 27.221141 4.485394 3
-1.090335 8.657601 2.534939 3
10.159932 20.690047 13.402229 3
25.029396 27.088482 61.178103 3
-5.947753 -3.651310 52.651464 3
-5.975007 -3.773682 61.670461 3
2.395100 13.544186 35.908505 3
-6.405278 -6.259222 31.777681 3
7.265069 18.451285 55.697781 3
-6.717323 -9.281220 13.152790 3
26.211342 27.394579 56.789910 3
6.361614 17.660403 17.711648 3
25.384078 27.180337 20.820187 3
-3.155010 4.790531 54.923948 3
-0.702734 9.310961 32.951012 3
-1.377348 8.173796 11.962988 3
11.240813 21.399041 6.068223 3
8.835186 19.703783 7.573101 3
-5.100845 -0.356134 9.451734 3
27.451772 27.715822 22.903374 3
1.103159 11.936743 33.406519 3
-6.408020 -6.278672 26.791608 3
-0.984960 8.835225 49.080749 3
12.395862 22.124656 44.119301 3
-4.069513 2.619149 35.722859 3
1.146774 11.998550 13.202434 3
10.007390 20.576480 18.921978 3
26.493582 27.467673 16.757916 3
-5.610108 -2.135273 40.255021 3
-5.915657 -3.507201 59.779883 3
28.198822 27.909290 16.444116 3
22.385837 26.403862 25.714808 3
22.195467 26.354560 63.273981 3
5.803492 17.171824 55.870523 3
21.344421 26.106549 58.512156 3
-6.409037 -6.285883 47.259117 3
-5.649377 -2.311591 1.177314 3
28.081769 27.878977 53.903808 3
-1.736979 7.567583 55.249522 3
-6.217271 -4.925738 18.476597 3
19.550013 25.504593 8.379156 3
11.070182 21.291848 58.350471 3
16.302045 24.194758 39.846201 3
-4.734015 0.837243 14.591893 3
23.892002 26.793924 37.634783 3
-2.119771 6.899204 32.441482 3
6.551062 17.826245 59.651421 3
-3.579611 3.855451 10.783486 3
10.802624 21.123765 63.412704 3
21.639973 26.205695 3.386548 3
21.548031 26.174853 61.530948 3
-4.348106 1.916098 14.139595 3
3.298019 14.630230 38.481661 3
19.166783 25.376033 17.941712 3
22.871514 26.529641 61.591861 3
-6.813690 -11.402251 23.634416 3
2.274278 13.398860 60.233948 3
4.133314 15.497461 50.045155 3
-6.396500 -6.196960 15.831094 3
-6.121287 -4.430486 63.594518 3
-6.804106 -11.932077 12.145685 3
13.034063 22.525582 41.297955 3
4.364485 15.734597 8.662068 3
-5.965950 -3.733017 64.117486 3
-6.462800 -6.667213 36.996480 3
-6.493053 -6.881793 16.211323 3
5.029205 16.416468 36.475239 3
-6.789374 -12.746683 26.262167 3
24.260711 26.889411 26.079142 3
17.735211 24.805358 25.982569 3
-2.716908 5.682899 51.395984 3
-6.623643 -7.808029 60.694577 3
24.829795 27.036790 45.282993 3
19.893423 25.619794 59.999491 3
7.519555 18.674062 46.896596 3
-4.811645 0.584694 8.050808 3
-3.406857 4.277547 0.785067 3
9.592393 20.267518 45.813426 3
-5.094987 -0.337078 44.301885 3
-3.978777 2.848127 15.713506 3
-2.398603 6.331252 49.168524 3
2.306524 13.437645 39.719519 3
5.634502 17.023890 8.601425 3
11.584951 21.615233 24.052483 3
21.646447 26.207867 15.661402 3
-2.458117 6.210029 0.513319 3
5.605515 16.998515 0.594040 3
-6.680275 -8.674565 2.329617 3
24.990565 27.078426 37.950561 3
12.281594 22.052872 15.851824 3
-6.785640 -12.953430 51.722720 3
11.853745 21.784092 8.607228 3
-5.108078 -0.379666 24.776976 3
2.205529 13.316167 42.339777 3
19.064201 25.341621 15.992363 3
-3.996503 2.803394 21.497502 3
13.699030 22.877325 20.214076 3
16.637073 24.337497 63.031023 3
3.910123 15.268512 17.777694 3
3.971811 15.331792 63.465864 3
5.554797 16.954116 31.277127 3
3.497700 14.845447 41.303616 3
9.809110 20.428862 25.067994 3
-6.125525 -4.449515 61.605493 3
12.577294 22.238634 27.620010 3
-6.735791 -9.583638 51.257247 3
13.671480 22.862918 2.431148 3
-6.659683 -8.337359 8.841653 3
2.299239 13.428884 11.119522 3
-4.905070 0.280763 21.534542 3
-6.426075 -6.406735 57.696031 3
-5.387979 -1.290243 41.234909 3
22.521002 26.438866 25.249516 3
-3.690665 3.575199 59.370712 3
-6.816366 -11.254258 6.536070 3
-6.754547 -9.890760 47.225917 3
5.328990 16.723988 3.743413 3
-4.900444 0.295811 42.505422 3
0.251446 10.729773 53.928355 3
-6.787390 -12.855891 5.032577 3
-0.875981 9.018927 35.489855 3
-6.814410 -10.871022 58.316202 3
24.990359 27.078373 34.886041 3
-2.391741 6.345230 41.432080 3
18.153625 24.983623 -0.669316 3
14.816944 23.461945 14.594222 3
15.551602 23.846139 43.202996 3
-5.331179 -1.105460 18.935283 3
27.940268 27.842331 7.994352 3
-0.480145 9.686168 31.425412 3
22.855949 26.525610 60.719003 3
14.701240 23.401437 17.284486 3
2.027006 13.101438 18.784985 3
13.133962 22.581819 62.382263 3
11.226130 21.389817 46.664097 3
11.696343 21.685210 -0.696208 3
22.854477 26.525229 60.105275 3
14.977237 23.545772 61.649934 3
-0.972296 8.856572 1.123138 3
-5.457200 -1.515435 55.835716 3
23.754097 26.758210 45.315854 3
14.427579 23.258324 16.431536 3
12.854066 22.412505 47.812236 3
27.212354 27.653818 21.179240 3
-4.198858 2.292738 18.433872 3
8.226874 19.250899 15.769940 3
16.032555 24.079942 7.878262 3
26.280913 27.412596 45.279552 3
19.545339 25.503025 48.463125 3
-5.464064 -1.537763 38.727427 3
27.406675 27.704143 53.603674 3
