0.323006 -0.233824 0.052419 
0.157142 -0.081602 0.225000 
0.379149 0.120471 0.077605 
-0.322672 0.128560 0.225000 
0.157134 0.366257 0.021541 
0.255079 -0.058176 0.225000 
-0.232342 -0.320780 0.127684 
-0.390397 -0.066416 -0.009613 
-0.292104 0.396228 0.225000 
0.056816 0.118567 0.061981 
-0.319972 -0.225919 -0.005000 
0.147322 -0.014809 0.231066 
-0.326642 -0.132026 -0.005000 
0.377462 -0.110386 0.159985 
-0.154241 0.045273 0.004062 
-0.246110 -0.203020 -0.005000 
-0.296910 -0.024724 -0.005000 
0.285237 -0.071699 0.225000 
-0.021751 -0.335441 0.225000 
0.265975 -0.261369 -0.005000 
-0.401384 0.368889 0.025033 
0.005508 -0.230940 -0.010000 
-0.265175 -0.153499 0.230000 
-0.071055 0.175615 0.000000 
-0.138450 0.374249 0.117086 
0.135184 -0.376095 0.162086 
-0.132232 0.074522 0.225000 
0.136911 0.056500 0.247947 
0.202229 0.337098 0.029427 
-0.263902 -0.295928 0.170832 
-0.401384 0.097558 0.185196 
0.036366 -0.393567 0.135072 
0.005861 -0.005965 0.030000 
0.343465 0.169243 -0.010000 
0.398489 0.001346 0.214571 
0.221527 -0.072949 -0.010000 
0.350051 -0.190793 0.033062 
-0.396384 0.250239 0.022868 
-0.208956 -0.115717 0.000000 
-0.050757 0.130197 0.101492 
0.075348 -0.387634 0.128245 
0.116381 0.155243 0.225000 
0.136446 -0.052651 0.127312 
0.111840 -0.384401 0.132164 
-0.021605 0.207761 0.230000 
0.017870 0.167711 0.234754 
0.297961 0.000882 0.225000 
-0.205624 -0.161237 -0.010000 
-0.401384 0.355815 0.121701 
-0.236384 0.347578 0.152283 
-0.322244 0.412877 0.225429 
0.112594 -0.062541 0.096782 
0.290593 -0.266468 0.124550 
-0.151912 0.369507 0.000222 
0.117404 -0.060546 0.038966 
-0.118634 0.199832 -0.010000 
-0.148417 0.185283 0.000000 
0.046655 0.224079 -0.010000 
0.162884 -0.041689 0.080728 
0.313782 0.236134 0.003242 
-0.202705 0.283523 0.225000 
0.378541 0.105052 0.161948 
0.067007 -0.134178 0.254050 
-0.328460 -0.230217 0.199762 
0.148490 -0.002206 0.265219 
-0.149467 0.240061 0.225000 
-0.227160 0.277748 -0.005000 
0.011932 -0.150211 0.239708 
-0.251996 0.306797 -0.010000 
0.330294 0.153559 -0.005000 
-0.396384 0.107886 0.035567 
-0.160972 -0.231627 0.225000 
-0.164616 0.035235 0.225000 
0.028217 -0.153971 -0.010000 
0.391210 0.072313 0.188857 
-0.177635 0.127384 0.000000 
-0.220240 -0.076773 0.230000 
0.035352 0.186396 -0.010000 
-0.021512 0.373098 0.225000 
0.110406 0.377914 0.036098 
-0.016134 -0.224518 0.031747 
0.007783 0.388550 0.225000 
-0.401384 0.022818 0.020300 
-0.158431 0.230796 0.230000 
-0.162106 0.365067 -0.009055 
-0.202499 -0.261436 -0.010000 
-0.083400 0.142131 0.225000 
0.134194 0.369450 0.000114 
-0.224719 -0.033661 0.000000 
-0.197262 -0.029657 -0.010000 
-0.396384 0.280115 0.152493 
-0.139284 -0.142838 0.225000 
-0.313557 0.030030 -0.005000 
-0.010181 0.216746 -0.010000 
-0.279441 -0.220648 0.230000 
-0.396384 0.292476 0.024238 
-0.106333 0.064373 0.083918 
-0.061853 0.302453 -0.010000 
-0.364721 0.161401 -0.005000 
-0.040258 0.139882 0.000000 
0.123347 -0.355360 0.225000 
-0.156951 -0.115411 0.048691 
-0.269991 -0.247448 0.230000 
-0.241384 0.352379 0.007951 
-0.123517 -0.086965 0.279937 
0.208379 -0.076075 -0.010000 
-0.294410 0.245053 -0.010000 
0.386994 0.067371 0.110372 
-0.236470 0.412877 0.047682 
0.369793 0.134088 0.189806 
-0.041860 -0.398161 0.084348 
-0.014574 -0.345290 0.230000 
-0.306609 -0.030443 0.230000 
0.211611 -0.018238 0.073562 
0.341852 -0.204994 0.073455 
0.191065 -0.345235 0.018806 
0.095040 -0.148521 0.007384 
-0.278590 0.073407 0.230000 
-0.013713 -0.395105 0.195771 
-0.309801 0.234044 -0.005000 
0.143936 -0.186093 0.000000 
0.061819 -0.288580 -0.005000 
-0.397378 -0.054671 0.158539 
0.372566 -0.126096 0.172211 
0.082731 -0.124289 -0.010000 
0.232556 0.322156 -0.010000 
0.100542 -0.289419 0.225000 
0.386998 0.067350 0.046977 
0.090644 0.050913 -0.010000 
-0.158489 0.361339 0.188963 
-0.050872 -0.336934 0.225000 
-0.367322 -0.148461 0.101564 
-0.012154 -0.364313 -0.005000 
0.205470 -0.025814 0.000000 
-0.401384 0.084653 0.144779 
-0.261652 -0.301355 0.225000 
-0.111763 -0.359626 -0.010000 
-0.393858 0.326622 0.230000 
0.050782 0.267872 0.230000 
0.045037 0.051786 0.001091 
-0.137412 0.369282 0.101944 
0.222330 0.065722 0.225000 
-0.268296 0.405795 0.225000 
0.231756 -0.215418 0.230000 
-0.109246 -0.007973 0.014384 
0.191365 0.215885 -0.005000 
-0.356434 -0.184533 0.092110 
0.165957 0.145023 0.070708 
-0.095208 0.262780 -0.010000 
-0.371923 -0.150035 0.214918 
-0.383612 -0.116447 0.215029 
-0.401384 0.163819 0.001866 
0.190927 0.349339 0.217437 
-0.210419 -0.086848 0.000000 
0.229763 0.033735 -0.005000 
0.312396 0.246455 0.170695 
-0.241176 0.412877 0.002452 
0.145494 0.030073 0.000000 
-0.158710 0.171621 0.058250 
0.396404 -0.038816 0.118634 
-0.169428 -0.012224 0.235961 
-0.061973 -0.106131 0.083185 
-0.350902 -0.090810 -0.005000 
-0.396384 0.083280 0.159803 
0.393558 0.058920 0.056205 
0.123341 0.378810 0.022189 
-0.064774 0.388590 0.188829 
-0.009447 0.315549 -0.005000 
0.219831 0.325668 0.052416 
-0.241384 0.341787 0.191969 
-0.318360 -0.243783 0.198637 
-0.060442 -0.084964 -0.006000 
-0.229414 -0.188000 -0.010000 
0.285849 0.269323 0.039439 
0.249701 -0.242112 -0.005000 
0.253277 0.300234 0.001839 
-0.054911 -0.318214 -0.010000 
-0.045257 0.147694 0.274064 
0.059079 -0.140616 0.225000 
-0.262314 -0.303184 0.003444 
0.038880 0.093707 -0.005000 
0.072000 0.392304 0.090223 
-0.235732 0.008237 0.070580 
0.287098 0.056660 0.230000 
0.225545 0.312079 -0.005000 
-0.044852 -0.144188 0.239642 
-0.018674 -0.133468 -0.006000 
0.389003 -0.057916 0.074020 
-0.248614 -0.314680 0.003538 
-0.010073 0.222717 0.000000 
0.243519 -0.072652 0.230000 
-0.110387 -0.379863 0.117863 
0.121218 -0.316598 -0.010000 
-0.366058 -0.163631 0.223607 
0.135103 -0.142107 0.000000 
0.048951 -0.350829 -0.010000 
-0.343874 0.036345 -0.010000 
-0.101807 0.380512 0.073137 
0.370756 0.144564 0.070379 
0.220378 -0.327515 0.077080 
-0.058263 -0.396244 0.185720 
0.000682 0.226248 -0.010000 
0.168073 0.003553 -0.010000 
-0.249013 -0.237635 0.225000 
0.322179 -0.230056 -0.010000 
-0.129552 -0.203998 -0.010000 
-0.061840 -0.205454 0.000000 
0.384722 -0.103491 0.077354 
-0.065682 -0.199108 -0.010000 
0.194287 -0.027821 -0.010000 
-0.135658 -0.063955 0.004772 
-0.113444 -0.100305 0.225302 
0.088880 -0.200877 -0.010000 
0.302628 0.250999 0.218950 
-0.235167 0.011719 0.036536 
-0.201284 -0.223648 -0.005000 
0.189160 0.171849 0.230000 
-0.120364 -0.382496 0.105873 
-0.035931 0.050763 -0.010000 
-0.125758 -0.379146 -0.010000 
-0.396384 0.111754 0.185184 
0.283351 0.252718 -0.005000 
-0.088854 0.295218 -0.005000 
-0.179206 0.351305 0.226645 
-0.152554 -0.347213 -0.005000 
0.159675 0.359401 0.136422 
-0.148150 0.370366 -0.010000 
0.378790 -0.123306 0.017130 
0.382557 -0.110722 0.220014 
-0.166483 -0.073601 -0.006000 
-0.365386 -0.165187 0.175845 
0.188001 -0.028028 0.013371 
0.280219 0.033539 -0.010000 
0.054633 -0.270164 -0.005000 
0.008402 0.126252 -0.010000 
0.198843 -0.101636 0.000000 
-0.256744 0.122936 0.230000 
0.254202 -0.036577 -0.010000 
-0.322761 0.313874 0.225000 
-0.277765 0.311451 -0.005000 
0.279472 -0.104452 0.230000 
0.080297 -0.125949 0.262572 
-0.124146 0.172545 0.000000 
0.255641 -0.306460 0.182842 
-0.188084 -0.348711 0.104563 
-0.322865 0.297462 -0.005000 
-0.215457 -0.172869 -0.010000 
-0.232040 0.098775 0.230000 
0.233815 0.322303 0.042856 
-0.190134 -0.160997 0.230000 
-0.381370 0.099379 0.225000 
0.112312 -0.124440 0.236573 
-0.214374 -0.253376 -0.010000 
0.086718 0.243172 0.225000 
0.396308 0.038989 0.086762 
-0.400647 -0.013511 0.190452 
-0.230554 -0.322181 0.188382 
0.289658 -0.102703 -0.005000 
0.397189 -0.025344 0.060027 
-0.300987 -0.257754 0.201882 
-0.401384 0.341081 0.116538 
0.255752 0.036185 -0.010000 
0.123289 -0.374980 0.215124 
0.377487 -0.110304 0.129137 
0.397753 0.014040 0.030115 
-0.043720 0.127285 0.031073 
0.287256 0.091631 -0.010000 
-0.379740 0.223595 0.230000 
0.263384 0.184156 -0.005000 
-0.051668 -0.276924 -0.010000 
-0.118329 0.158158 0.094874 
-0.252266 -0.305171 0.094164 
-0.042597 -0.160694 0.087731 
-0.070942 -0.304445 0.225000 
0.037131 0.166044 0.002403 
-0.033132 -0.175689 0.068837 
-0.151095 0.198719 -0.010000 
-0.056767 -0.391546 0.090173 
0.048949 0.311724 -0.005000 
0.230122 0.318985 0.083547 
-0.153731 0.368867 0.223157 
-0.176541 -0.326943 0.230000 
0.054427 -0.359183 -0.005000 
0.000196 0.189992 -0.010000 
-0.236048 0.008106 0.019624 
0.096370 0.381298 0.196162 
-0.396384 0.137862 0.183751 
0.388462 0.087985 0.214936 
0.063867 0.101563 0.010761 
-0.227217 -0.154367 0.230000 
0.263963 -0.150564 -0.005000 
0.158768 -0.363388 0.230000 
-0.121897 0.375130 0.185325 
-0.133375 0.364004 -0.010000 
-0.101040 -0.387617 -0.009016 
0.358246 -0.068880 0.225000 
0.283726 -0.273336 0.031072 
-0.080759 0.390329 -0.010000 
0.244616 -0.088361 -0.010000 
-0.149381 -0.097117 0.007955 
0.160753 -0.175713 0.020315 
-0.246926 0.052524 -0.005000 
-0.179693 -0.206096 0.230000 
-0.187595 -0.269947 0.230000 
-0.058366 0.394654 0.093270 
-0.217505 0.334943 0.152458 
-0.056950 0.389584 0.108726 
0.163624 -0.134657 -0.010000 
-0.009247 -0.237748 0.003897 
-0.011524 0.204199 -0.010000 
-0.084844 -0.391455 0.198938 
-0.370980 0.273797 0.225000 
-0.229126 -0.329015 0.137683 
0.187674 0.260389 -0.010000 
-0.121697 -0.016000 0.000000 
-0.241275 0.307148 0.225000 
-0.338402 -0.044365 -0.010000 
-0.339791 0.366903 0.225000 
-0.086153 0.384399 0.180203 
0.134061 0.242659 0.225000 
-0.190131 -0.052756 -0.010000 
-0.113626 0.062113 0.095109 
-0.244666 0.247323 0.230000 
-0.396384 0.143885 0.146143 
-0.396384 0.377328 0.040053 
-0.012127 0.398586 0.125737 
-0.113765 0.342958 0.230000 
-0.066528 -0.389758 0.071332 
0.144621 0.279101 -0.005000 
0.152703 -0.123739 -0.010000 
-0.392289 -0.055094 0.093953 
-0.401384 0.224885 0.113864 
0.053936 0.290545 0.225000 
-0.080093 0.287053 0.225000 
-0.171571 -0.297388 0.225000 
-0.060685 -0.156330 -0.006000 
-0.241384 0.407126 0.084110 
-0.221433 0.039179 0.230000 
-0.354317 0.172224 0.225000 
0.299291 0.214030 0.225000 
-0.005017 0.149814 -0.010000 
-0.064703 -0.249348 0.230000 
0.385012 -0.052860 -0.010000 
0.391963 -0.028169 0.171664 
-0.010352 0.365189 0.225000 
-0.337921 0.240315 0.225000 
-0.163096 0.304558 0.230000 
0.149599 0.148780 0.230000 
-0.354993 -0.182560 0.225000 
-0.045088 0.038154 -0.010000 
0.397077 0.025718 0.163551 
-0.339056 0.170267 0.225000 
0.171947 0.196275 0.225000 
0.016040 -0.394796 0.097845 
-0.396384 0.066460 0.011942 
-0.014938 0.148510 0.270027 
0.203648 0.330837 -0.010000 
-0.306641 0.006234 -0.010000 
-0.230768 0.326440 0.031380 
-0.055956 -0.126817 -0.010000 
-0.101003 -0.376319 -0.010000 
-0.328422 -0.230268 0.104010 
0.008427 0.109851 0.000000 
0.044244 -0.104881 -0.010000 
0.177530 0.279710 0.225000 
-0.129370 -0.087661 0.268926 
-0.240289 0.313617 0.124934 
-0.166244 0.040296 0.014708 
0.271745 0.128499 0.225000 
0.113662 -0.328192 -0.005000 
-0.134257 0.053559 0.058257 
-0.162974 0.145062 -0.010000 
-0.299274 0.222450 0.225000 
-0.401384 0.152836 0.201216 
0.097680 -0.162955 0.000000 
-0.340110 0.221940 0.230000 
0.273287 -0.291615 0.218805 
-0.108247 0.155516 0.225000 
-0.087746 -0.146240 0.235725 
-0.277738 -0.020429 0.225000 
-0.386566 0.338551 0.225000 
0.267447 -0.202872 -0.005000 
-0.055459 0.333165 0.225000 
0.043864 0.395931 0.095406 
-0.388748 -0.074418 0.052119 
-0.372826 0.305454 -0.005000 
-0.205898 0.173378 -0.010000 
0.019251 -0.229898 0.225000 
-0.113076 -0.148001 0.225000 
-0.392104 0.110204 0.230000 
-0.399731 -0.029235 0.118545 
0.146439 0.097855 0.062906 
-0.005936 -0.167618 0.237834 
-0.086255 -0.391121 0.073923 
-0.395377 0.193491 -0.010000 
0.005503 -0.237274 0.000000 
-0.140408 -0.166519 0.000000 
0.197240 -0.053752 0.230000 
0.375519 0.132665 0.023140 
-0.146029 0.358714 -0.010000 
-0.090362 0.388442 0.056470 
-0.092878 -0.152065 0.225000 
0.076845 0.156779 -0.005000 
0.104941 -0.152618 0.047447 
0.098257 -0.379260 -0.005000 
-0.169053 0.084480 -0.010000 
0.077983 0.332668 0.230000 
0.062342 -0.390017 0.162040 
0.161341 0.126022 0.068669 
0.032449 0.177336 0.028643 
-0.095539 0.382068 0.130945 
-0.396384 0.277392 0.136678 
0.215403 0.028636 0.225000 
-0.125075 0.046368 -0.010000 
0.061137 0.108148 0.054898 
0.276357 0.228050 0.230000 
0.295667 -0.235495 0.225000 
-0.219075 -0.010084 0.230000 
0.004829 0.163542 0.240064 
0.174330 0.357799 0.135604 
0.198420 0.274530 0.230000 
-0.236384 0.328426 0.008811 
-0.396384 0.351588 0.136185 
0.079407 0.353952 -0.010000 
0.294630 0.124125 0.230000 
0.150063 -0.268739 0.230000 
-0.032501 0.119396 0.027212 
-0.090105 0.116697 -0.005000 
0.345657 -0.198404 0.216120 
0.161492 0.364343 0.048548 
0.004012 -0.273370 0.225000 
-0.024109 0.119170 0.038474 
0.377540 0.089014 0.225000 
0.185166 -0.354015 0.028314 
0.036830 -0.244142 -0.005000 
0.034325 -0.395901 -0.010000 
-0.156984 -0.354840 -0.010000 
0.139476 -0.129484 -0.005000 
-0.240351 -0.248772 0.225000 
-0.121266 0.192930 0.000000 
-0.375320 -0.142160 0.063316 
-0.074169 -0.177277 0.225000 
-0.209552 -0.058607 0.000000 
0.091728 -0.118076 0.236469 
0.248575 -0.106940 0.230000 
0.193474 -0.253840 0.230000 
0.276311 0.180493 -0.010000 
-0.016655 -0.183925 0.000000 
-0.334166 0.179927 0.225000 
0.049654 -0.396927 0.170283 
-0.038044 -0.083966 0.000000 
-0.397081 -0.056352 0.033285 
-0.124654 -0.045208 0.056663 
0.028015 -0.293497 -0.005000 
-0.401384 0.400821 0.165450 
-0.348995 0.325597 -0.005000 
-0.401384 0.148247 0.086864 
0.016980 0.123680 0.000000 
0.353813 -0.063476 -0.010000 
-0.396384 0.287483 0.101843 
-0.240436 0.412877 0.060982 
-0.026099 0.247971 0.225000 
0.038807 -0.381097 -0.010000 
0.381002 0.114247 0.034290 
0.026184 -0.199233 0.000000 
0.165616 -0.358061 0.069013 
0.034864 0.179345 0.108998 
0.012139 -0.027352 0.007907 
-0.099496 -0.176560 0.000000 
0.378060 0.075147 0.225000 
0.288514 -0.263797 0.230000 
-0.396384 0.261584 0.135888 
0.104964 -0.063193 0.081819 
0.133244 0.191592 0.000000 
0.289368 -0.189826 0.225000 
-0.395932 -0.008335 0.087994 
-0.396384 0.256906 0.072449 
-0.277644 -0.068249 0.230000 
-0.396384 0.131873 0.151662 
-0.263148 0.219943 -0.010000 
-0.079055 0.304428 -0.005000 
0.168295 -0.122334 0.225000 
0.170332 0.359837 0.204080 
0.065686 -0.361488 0.230000 
0.384908 0.079130 0.019896 
0.092035 -0.206245 0.000000 
0.149836 0.005510 -0.010000 
0.396149 0.041730 0.156469 
0.356022 0.071182 -0.005000 
0.214949 0.025224 0.000000 
0.388264 -0.090658 0.107225 
-0.311635 -0.252817 0.049878 
0.394445 -0.055605 0.198887 
0.039314 -0.122215 0.067779 
-0.395622 -0.064625 0.059336 
-0.050131 -0.075239 0.000000 
0.359817 0.067053 0.230000 
0.033791 -0.042158 -0.010000 
0.240296 -0.049610 -0.010000 
-0.131843 0.054559 0.031530 
-0.194308 -0.009835 0.225000 
-0.396384 0.136959 0.028347 
-0.011065 0.375600 -0.005000 
0.352855 0.154090 -0.010000 
0.111144 -0.113264 0.000000 
-0.274176 0.138540 0.230000 
-0.162356 -0.128474 0.091817 
-0.363046 0.086107 0.230000 
0.183779 0.013387 0.230000 
-0.119458 0.060582 -0.010000 
0.394724 0.052274 0.027431 
0.071299 -0.135450 0.067739 
-0.396384 0.272305 0.046801 
-0.238293 -0.307444 0.230000 
0.324989 -0.223094 0.202990 
0.207511 -0.227170 0.230000 
-0.396384 0.197457 0.116135 
-0.127168 0.378223 0.108869 
0.034646 0.391876 0.175118 
0.371171 -0.145359 0.096927 
0.353350 -0.185079 0.114181 
-0.072628 0.255752 0.225000 
-0.155097 -0.369855 -0.007186 
0.240715 -0.312052 0.045840 
-0.030994 0.207192 0.000000 
0.186577 -0.248566 -0.010000 
-0.243352 -0.254952 -0.005000 
0.236002 0.185123 0.230000 
0.129805 -0.312778 0.230000 
-0.006227 -0.291471 -0.005000 
0.055822 -0.256783 0.230000 
0.273432 0.154479 -0.005000 
0.225495 -0.282685 -0.010000 
0.339996 -0.016610 -0.010000 
-0.174203 0.001146 0.232007 
-0.382602 0.019355 0.230000 
-0.398439 0.305213 -0.010000 
0.042791 0.167733 -0.010000 
-0.058616 0.394627 0.062314 
0.149933 -0.043811 0.090197 
-0.143515 0.046472 0.066181 
0.332436 0.140130 -0.005000 
0.096672 0.386268 0.116967 
0.302496 0.217586 -0.005000 
0.299959 -0.263345 0.093621 
-0.035261 0.385447 -0.010000 
-0.127274 -0.149039 0.225000 
-0.305295 0.318671 0.225000 
-0.400527 0.182154 0.225000 
0.008378 0.148510 0.272138 
0.111408 0.377558 0.016083 
-0.070446 -0.046066 -0.010000 
-0.317917 -0.236145 0.112281 
-0.292607 -0.133699 0.230000 
0.148826 -0.330954 -0.005000 
-0.139807 -0.357536 0.225000 
0.038208 0.163447 0.051974 
-0.210143 -0.040184 0.000000 
-0.303730 0.159003 -0.010000 
0.309904 0.249826 0.044605 
-0.396384 0.182999 0.167182 
-0.395574 -0.014238 0.115163 
-0.047699 0.236065 -0.010000 
-0.401384 0.211487 0.120341 
0.334284 -0.083359 -0.010000 
-0.169077 -0.320691 0.225000 
0.174238 0.163660 -0.001988 
0.201936 0.229970 0.230000 
0.069331 0.267049 0.225000 
-0.092290 0.247964 -0.010000 
-0.401384 0.310408 0.112066 
-0.042101 -0.393388 0.026592 
0.233587 -0.079752 -0.010000 
-0.015857 -0.400174 0.221441 
-0.340225 -0.212607 0.109134 
0.032935 -0.396383 0.228458 
0.024574 0.299817 -0.005000 
-0.020487 -0.192047 -0.010000 
-0.136627 -0.376577 0.200669 
0.187355 -0.082607 0.000000 
0.317671 -0.079929 -0.010000 
-0.162051 0.064442 0.231131 
-0.016444 0.158120 0.000000 
0.053192 -0.338909 0.230000 
0.200930 0.314913 -0.010000 
0.231645 -0.011184 0.073957 
-0.165223 0.036286 -0.010000 
-0.066135 0.326532 0.230000 
-0.096463 -0.099304 -0.006000 
-0.027631 0.115777 -0.010000 
-0.101974 -0.006990 0.000000 
0.272763 -0.156378 -0.010000 
0.054406 -0.391472 0.183838 
0.392021 0.067685 0.169749 
-0.132093 -0.259770 -0.010000 
0.160811 -0.172491 0.002845 
0.156924 -0.353582 -0.005000 
-0.396384 0.136597 0.043700 
0.038806 0.143584 0.271772 
-0.396384 0.137009 0.128675 
0.150168 -0.370641 0.085113 
-0.069497 0.009599 0.000780 
-0.003908 0.166655 -0.006000 
-0.221991 0.207817 -0.005000 
-0.179794 -0.047358 0.000000 
-0.093072 -0.243646 -0.010000 
0.101809 -0.203134 -0.010000 
-0.051220 -0.139898 0.129358 
-0.329240 -0.229169 0.029506 
0.040358 0.107206 -0.006000 
0.015865 -0.115758 0.035044 
-0.172857 0.359815 0.104554 
0.379869 -0.084054 0.230000 
-0.266071 -0.025646 0.230000 
0.132578 0.166322 -0.010000 
0.196218 0.346642 0.070650 
0.089974 0.184528 0.000000 
-0.401384 0.142800 0.193339 
-0.138342 -0.183274 -0.005000 
-0.108152 -0.385931 0.150231 
-0.193740 0.271615 0.230000 
-0.004161 0.079975 -0.006000 
0.037500 0.172988 0.014667 
0.387637 -0.065370 0.124430 
-0.215595 0.019834 0.021458 
-0.202102 0.339276 0.205075 
0.247942 -0.222028 0.230000 
-0.096600 0.063321 0.000000 
-0.049222 0.038300 0.002183 
-0.356893 0.365824 0.230000 
0.170141 -0.195934 0.225000 
-0.040060 -0.014018 0.005689 
0.121558 -0.151297 0.230000 
0.026606 -0.282032 -0.005000 
0.360205 -0.170781 0.109840 
-0.191487 -0.346654 0.123594 
0.038589 -0.121190 -0.010000 
-0.213363 0.081084 0.230000 
0.208527 -0.312386 0.230000 
0.070743 -0.394141 0.171939 
-0.207139 -0.343476 0.130198 
-0.248481 -0.314791 0.039604 
-0.021170 0.186609 0.000000 
0.110934 0.012052 0.005864 
-0.020466 0.325722 -0.005000 
0.122187 -0.156508 0.035294 
-0.003647 -0.400174 0.186438 
-0.168519 -0.352787 0.225000 
-0.076951 -0.388899 -0.010000 
0.290185 0.205155 0.230000 
0.028507 0.288693 -0.010000 
-0.166405 -0.214463 0.230000 
-0.147489 0.365484 0.054635 
-0.347834 -0.189884 0.058675 
0.175349 0.351658 0.049214 
-0.347541 -0.199936 0.099369 
-0.312545 -0.243001 0.079969 
0.309623 0.249056 -0.010000 
0.392504 -0.019237 0.095204 
0.299209 -0.256490 0.207380 
-0.280591 -0.286808 0.125935 
-0.396384 0.013225 0.047006 
-0.101211 0.340721 0.225000 
-0.300928 -0.257829 0.025188 
-0.121485 -0.097132 0.000000 
0.209042 -0.189524 0.230000 
0.130453 0.137386 0.225000 
-0.241384 0.405286 0.096011 
-0.175229 -0.161336 0.042055 
-0.016583 0.168332 0.000000 
-0.401384 0.362211 0.224202 
-0.390442 0.412877 0.229928 
-0.073187 0.353409 -0.005000 
0.318073 -0.240451 0.200069 
0.018642 -0.201617 0.230000 
-0.360983 0.392912 -0.010000 
-0.181082 -0.039128 -0.010000 
0.067004 0.058052 0.000000 
-0.343128 -0.168594 -0.010000 
-0.114836 0.377277 0.214258 
0.045131 0.154583 0.057097 
-0.236384 0.375684 0.164642 
0.264955 0.084727 0.230000 
0.168832 0.359913 -0.010000 
-0.331772 0.114820 0.230000 
0.054759 0.357561 -0.005000 
-0.331739 0.025943 -0.005000 
-0.159732 0.108462 -0.010000 
0.278426 -0.226098 0.230000 
-0.260632 0.241665 0.230000 
-0.351799 0.253591 -0.005000 
-0.166550 -0.031327 0.225000 
0.359777 0.132790 0.225000 
-0.401384 0.344535 0.079914 
-0.174362 -0.360832 0.174853 
-0.290136 0.185305 -0.005000 
0.392186 -0.024495 0.081147 
0.102837 -0.156806 0.230000 
-0.396384 0.216144 0.198012 
0.090266 0.137996 0.238060 
-0.280694 -0.262816 -0.005000 
-0.332256 -0.195342 0.230000 
-0.289445 0.257119 -0.005000 
-0.159251 -0.107833 -0.010000 
-0.320280 -0.174414 0.225000 
-0.396384 0.104194 -0.001103 
0.174325 -0.213493 0.230000 
-0.060182 -0.390921 0.051117 
-0.185243 0.353765 0.077117 
0.052450 0.301903 0.230000 
-0.119466 -0.122281 0.234992 
0.190573 -0.000510 0.000000 
-0.105333 -0.386355 0.225000 
-0.278572 -0.281258 0.170304 
0.073141 -0.388038 0.070322 
-0.269821 -0.277569 0.230000 
-0.244651 0.341659 0.230000 
0.041289 0.327199 -0.005000 
0.134415 -0.376374 0.026272 
-0.396384 0.210014 0.099807 
0.244567 -0.073426 -0.005000 
-0.134633 -0.121738 0.230000 
-0.069989 0.054071 -0.005000 
-0.159475 -0.129358 0.030546 
0.088028 -0.069374 0.000000 
-0.313378 -0.250476 0.168294 
0.053160 -0.023395 -0.010000 
-0.283868 0.042486 0.225000 
-0.121693 0.058768 0.050914 
0.303176 -0.119841 0.230000 
0.045329 0.025622 -0.010000 
-0.048693 -0.397363 0.144793 
-0.232800 -0.300575 0.225000 
-0.090164 -0.299743 0.230000 
0.111374 -0.163262 0.000000 
-0.056261 0.394880 0.198255 
-0.372896 0.146716 -0.010000 
-0.216776 -0.002419 0.000000 
-0.299597 0.036322 -0.010000 
0.002382 -0.395623 0.135904 
0.096041 0.275478 0.230000 
-0.083511 -0.391771 0.126536 
-0.281466 -0.077847 -0.010000 
-0.401384 0.281776 0.089661 
0.156240 -0.324197 0.230000 
0.164651 0.116711 -0.010000 
-0.072424 0.137994 0.129797 
-0.292429 -0.058527 0.230000 
-0.098402 -0.208114 0.230000 
-0.126387 -0.193851 0.000000 
-0.034150 0.324688 -0.005000 
-0.338314 0.375187 0.230000 
0.310241 -0.242408 0.052163 
-0.234031 -0.033653 -0.010000 
0.294332 -0.262715 0.026892 
-0.300573 0.365042 -0.010000 
-0.092699 0.118054 0.225000 
-0.130696 0.074540 0.275988 
0.079900 -0.226758 -0.001648 
-0.214078 -0.149749 0.225000 
0.398470 0.001665 0.065245 
-0.193308 -0.345553 0.075189 
-0.136939 0.369460 0.086470 
0.074455 -0.308617 0.225000 
-0.261257 -0.171749 0.230000 
-0.396384 0.347010 0.035316 
0.033110 -0.354750 -0.010000 
-0.401384 0.356839 0.067059 
-0.156213 -0.002809 0.259012 
0.376191 0.112852 0.021517 
0.263247 0.043748 0.230000 
-0.001683 -0.384301 0.230000 
0.088103 0.135075 0.225000 
-0.241384 0.392731 0.094477 
0.384379 0.024344 0.230000 
-0.192690 0.166853 -0.010000 
-0.271996 0.346198 -0.005000 
-0.382388 -0.120534 0.131282 
-0.160434 -0.361639 0.021982 
0.014917 -0.359799 0.225000 
-0.401384 0.316209 -0.009564 
0.177425 -0.352746 0.041204 
0.163316 -0.093254 0.225000 
0.388036 -0.063196 0.013645 
-0.377905 -0.135510 0.022425 
-0.211573 -0.065792 -0.010000 
-0.384353 -0.113969 0.004606 
-0.221297 0.326458 0.162548 
-0.236384 0.378078 0.065921 
0.015666 -0.291094 -0.010000 
0.266148 -0.122768 0.225000 
-0.317355 -0.068724 -0.005000 
-0.007194 0.398544 0.005289 
0.054528 -0.273804 0.225000 
-0.054904 0.214721 0.000000 
0.127123 0.025928 -0.010000 
0.285320 -0.177479 0.230000 
-0.026973 0.335637 0.225000 
0.390004 0.050403 0.066090 
-0.264079 -0.301703 0.101247 
-0.038650 -0.168824 0.116482 
0.113325 0.081640 0.000000 
-0.370635 0.057534 0.225000 
-0.251021 0.252937 -0.010000 
-0.129887 -0.057856 0.103179 
0.052846 0.241282 0.225000 
-0.290764 -0.169635 -0.010000 
-0.169193 0.039615 0.000000 
-0.150490 -0.010496 0.270175 
-0.131358 -0.373328 0.177254 
0.308305 0.132336 0.230000 
-0.295862 0.293773 -0.005000 
0.358391 -0.174988 0.127428 
-0.401384 0.323088 0.100835 
-0.122974 0.058237 0.074651 
0.359397 0.171059 0.017812 
0.327768 -0.073227 -0.005000 
0.366677 -0.074127 0.230000 
-0.294660 -0.216503 0.225000 
-0.299135 -0.100782 0.225000 
-0.045203 -0.131835 0.000000 
-0.401384 0.263119 0.212566 
0.212227 -0.332442 0.202166 
-0.068616 0.366469 -0.010000 
-0.052448 0.390155 0.038670 
0.080568 -0.386677 0.044309 
-0.186156 -0.071021 0.000000 
0.014889 0.352177 0.230000 
-0.301942 -0.256535 0.038809 
0.021518 -0.118097 0.004152 
-0.237384 -0.323583 0.215502 
-0.031652 0.028864 -0.010000 
0.116419 -0.377120 0.045174 
-0.165222 -0.033458 -0.010000 
0.084215 0.114035 0.000000 
-0.092054 0.151663 -0.006000 
0.341051 0.039407 -0.005000 
-0.172389 -0.356259 0.100244 
-0.011308 -0.304194 -0.005000 
0.270895 0.291849 0.078654 
-0.274950 0.071112 -0.010000 
-0.151093 0.002287 0.238187 
-0.377081 -0.017566 0.225000 
0.056510 -0.144228 0.250028 
-0.401384 0.005483 0.096136 
0.325044 -0.223003 0.002429 
-0.285976 -0.281100 0.002075 
0.363009 -0.164281 0.071972 
-0.142512 -0.159699 -0.010000 
0.177357 -0.052798 -0.010000 
0.074387 0.052453 -0.010000 
0.177276 0.209653 -0.005000 
-0.399392 -0.035050 0.143817 
0.333207 0.195128 -0.005000 
-0.314189 0.215066 0.230000 
-0.128042 -0.053396 0.115396 
0.166065 -0.313650 -0.010000 
-0.062476 0.221722 0.230000 
-0.178569 -0.028156 0.000000 
-0.331483 0.299464 0.225000 
0.090819 0.341564 0.225000 
0.253737 0.306385 0.086337 
-0.173623 -0.145860 0.230000 
0.262784 0.247159 -0.005000 
0.169501 0.234600 -0.010000 
-0.036367 -0.175720 0.094016 
0.131766 0.277816 -0.010000 
0.001880 0.379272 -0.010000 
0.312545 -0.153949 0.225000 
0.373196 0.002013 0.225000 
0.318148 -0.013120 -0.010000 
0.310104 0.208246 0.230000 
0.009740 0.187292 0.000000 
-0.396384 0.098754 0.227233 
-0.169462 0.356164 0.092219 
-0.092766 0.354741 -0.005000 
-0.048755 0.226013 0.230000 
-0.159997 -0.257408 -0.005000 
-0.224005 0.011182 0.000000 
-0.036208 0.339364 -0.005000 
0.086523 -0.145040 0.235821 
0.020475 -0.384348 -0.005000 
0.106143 0.309951 0.230000 
0.135775 0.347980 0.225000 
-0.390250 -0.094273 0.059757 
0.261481 -0.230258 -0.005000 
-0.351909 -0.192370 0.110586 
-0.240787 0.072101 0.225000 
-0.218945 -0.216143 -0.005000 
0.324904 0.229531 0.010866 
-0.111727 -0.331493 -0.005000 
-0.061428 -0.362719 0.230000 
-0.384062 0.149819 0.225000 
0.031023 0.392268 0.220483 
0.361356 0.166488 0.200604 
-0.353461 0.135195 0.225000 
-0.374359 -0.116093 -0.010000 
0.291280 0.034334 -0.005000 
0.248420 0.213110 0.230000 
-0.241384 0.315464 0.200000 
0.172479 -0.034463 0.040653 
0.064110 0.159248 0.000000 
0.031218 0.392247 0.155619 
0.226581 -0.328868 0.201266 
-0.067021 0.388305 0.038350 
-0.027687 0.397955 0.138816 
-0.396384 0.309162 0.098957 
-0.149101 0.189162 0.225000 
0.029706 -0.064956 0.000549 
-0.141329 -0.085505 0.120557 
0.332720 0.193037 0.225000 
0.138448 -0.370256 0.148766 
-0.101822 -0.084884 -0.010000 
-0.120291 0.178893 0.225000 
-0.248578 -0.314709 0.135206 
0.292097 -0.261464 -0.010000 
-0.255974 -0.040494 0.225000 
-0.333309 -0.108308 0.230000 
0.162093 0.320927 -0.005000 
-0.001238 -0.392800 0.225000 
0.389018 0.084812 0.105674 
-0.029397 -0.124133 0.000000 
0.359553 0.004419 0.230000 
-0.036955 -0.103932 0.000000 
-0.143375 0.109815 0.225000 
0.202323 0.143581 0.225000 
0.240012 0.133280 0.230000 
0.305420 0.115458 0.230000 
0.031219 0.392247 0.128918 
0.080628 0.384898 0.119297 
-0.068761 -0.089760 0.004937 
-0.399891 -0.026487 0.062953 
-0.225956 -0.311777 -0.010000 
-0.282847 -0.083461 0.225000 
-0.395658 0.285476 0.230000 
0.144668 -0.076752 0.225000 
0.394344 0.054442 -0.000622 
-0.165320 0.277436 0.230000 
0.372889 -0.125062 0.080891 
-0.196693 0.182090 -0.005000 
0.095296 -0.307398 -0.010000 
-0.102648 0.012914 -0.010000 
0.391259 0.039381 0.168492 
0.241563 -0.020722 0.225000 
-0.052376 -0.385757 0.230000 
-0.076159 0.090991 0.000000 
-0.088388 0.259328 0.230000 
0.334267 0.216565 0.075995 
0.016139 0.012323 0.030000 
-0.237954 0.314724 -0.010000 
0.277060 -0.198342 0.230000 
0.150804 0.368608 0.095876 
0.388921 -0.086931 0.187001 
-0.396384 0.092543 0.065668 
0.086370 -0.313770 0.230000 
-0.236384 0.363725 0.068681 
0.301955 -0.252984 0.076980 
-0.088407 -0.140281 0.000000 
0.158511 -0.044450 0.238636 
-0.157044 0.332011 0.225000 
-0.396384 0.215647 0.078030 
-0.337277 0.402015 0.225000 
-0.142859 -0.089202 0.038886 
0.085320 0.148973 0.225000 
0.368870 -0.137959 0.072654 
-0.147097 0.223381 0.230000 
0.152238 0.363030 0.009784 
-0.068594 0.388105 0.202896 
0.142011 0.040949 0.254712 
-0.308991 -0.247538 0.029886 
0.279434 0.276063 0.048484 
0.342451 0.192289 0.044581 
0.303694 -0.250764 0.028629 
-0.332794 0.129782 -0.005000 
0.392182 -0.024551 0.187639 
0.189709 -0.083215 0.225000 
-0.107699 -0.106181 0.000000 
0.270954 -0.057138 0.230000 
0.299937 -0.051814 0.230000 
0.146976 0.123056 0.225000 
-0.037890 -0.398625 0.112896 
0.037963 -0.367072 -0.005000 
0.329662 0.223094 0.160301 
-0.129063 -0.180574 0.230000 
0.033621 0.247516 0.225000 
0.123718 -0.380268 0.124898 
0.172873 -0.360189 0.026250 
0.186425 0.026868 0.230000 
-0.067067 0.096838 -0.010000 
0.276228 0.264043 -0.005000 
-0.236384 0.359787 0.145452 
0.235810 -0.008205 0.060439 
0.125864 0.078490 0.262529 
-0.327845 -0.231043 0.016978 
-0.197287 -0.308399 0.225000 
0.074056 0.391654 0.225000 
0.099072 0.320479 0.225000 
0.000822 -0.284411 0.230000 
0.204399 -0.007890 0.000000 
0.175571 0.328953 0.230000 
0.169984 -0.202711 -0.005000 
-0.198229 -0.336578 0.230000 
0.396401 -0.038878 0.188635 
0.175758 0.351456 0.186899 
0.181213 0.141332 -0.010000 
-0.304711 -0.160797 -0.010000 
-0.138593 0.368837 -0.000182 
0.187599 -0.042410 0.000000 
0.008060 0.238027 -0.010000 
0.330307 -0.098463 0.230000 
0.186453 -0.028561 0.000000 
-0.401384 0.343090 0.053439 
-0.031484 0.388689 0.225000 
0.241330 -0.057074 0.225000 
-0.396384 0.285110 0.129037 
0.213276 0.335970 0.224075 
-0.053393 -0.126823 0.107204 
0.204902 -0.095235 0.225000 
0.343491 -0.008312 0.230000 
-0.396384 0.040380 0.211957 
-0.093326 0.284879 0.225000 
-0.396384 0.151812 0.001607 
-0.133004 -0.113989 -0.010000 
-0.401384 0.106233 0.199095 
0.274190 0.082512 -0.010000 
-0.160428 0.365887 0.142331 
-0.140622 0.162859 -0.010000 
-0.071516 0.137194 0.265750 
0.324266 0.058404 0.225000 
0.134749 -0.178144 -0.006000 
-0.140256 0.368210 0.067829 
-0.126721 0.081022 0.236175 
0.211851 0.306081 -0.010000 
0.388251 -0.062022 0.087819 
-0.173853 0.226372 0.230000 
0.166204 -0.357796 0.155793 
0.050822 -0.180868 0.230000 
0.163243 0.357639 0.187987 
-0.180681 0.074630 0.230000 
0.149171 0.323633 -0.010000 
0.321637 0.135121 -0.010000 
-0.146293 -0.037330 0.258596 
0.159347 -0.013843 0.225000 
0.090926 0.215219 0.230000 
0.001446 0.328929 0.225000 
-0.269664 -0.088499 -0.005000 
-0.328170 0.381646 -0.010000 
-0.375869 -0.140885 0.002016 
0.140309 0.071588 0.225000 
0.139571 0.081257 0.063266 
-0.340820 -0.201486 0.191376 
0.356708 0.086586 -0.005000 
0.211010 -0.056898 0.230000 
0.303309 -0.107139 0.225000 
0.238081 0.200992 0.230000 
-0.264105 0.077998 -0.005000 
-0.248560 0.156438 0.225000 
0.050887 -0.237788 -0.010000 
-0.383330 0.190859 0.230000 
0.080855 0.390138 0.102979 
0.067364 0.392996 0.150680 
0.152547 0.076017 0.232348 
0.175364 0.100302 0.000000 
0.139152 -0.025911 -0.010000 
-0.302880 -0.255338 0.179057 
-0.401384 0.070812 0.027933 
-0.401384 0.197887 0.074988 
0.360606 0.168237 0.001740 
-0.141510 -0.170353 0.225000 
-0.328223 -0.230535 0.077728 
0.056945 0.069658 0.000000 
-0.136152 -0.025219 0.000000 
-0.396384 0.371446 0.125740 
0.392683 0.015074 0.055452 
-0.173439 -0.270004 0.230000 
0.085419 -0.178518 0.225000 
0.031453 -0.258548 0.225000 
-0.309713 -0.016433 0.225000 
-0.396384 0.406381 0.100630 
0.078122 0.191389 0.000000 
-0.067449 0.393636 0.073894 
0.315683 0.103386 -0.010000 
0.034872 -0.393657 0.211840 
-0.120275 0.302204 0.225000 
-0.272787 0.229833 0.230000 
-0.401384 0.124739 0.063765 
-0.401384 0.215289 0.185648 
0.137364 0.358361 -0.010000 
0.157366 -0.297318 0.230000 
-0.228093 -0.205722 -0.005000 
-0.233585 0.269195 0.230000 
0.113072 0.228544 0.225000 
-0.298348 -0.261122 0.214474 
0.395269 -0.050932 0.026252 
-0.029168 -0.157764 0.245636 
-0.150699 0.078568 0.235466 
0.191255 -0.159294 0.230000 
0.038787 0.229452 0.000000 
0.058253 -0.390767 0.069524 
-0.077198 -0.393268 -0.000162 
-0.011459 -0.200784 0.230000 
-0.028077 0.362345 0.225000 
-0.254621 0.404105 0.225000 
0.129275 0.040168 -0.010000 
-0.401384 0.223475 0.173264 
0.064727 0.104462 -0.010000 
-0.155985 -0.011900 -0.010000 
-0.150692 -0.176044 0.000000 
0.226792 0.303298 0.225000 
-0.282641 -0.277189 0.220014 
0.006667 -0.335545 0.230000 
0.091514 0.139681 -0.010000 
-0.206735 0.108800 0.225000 
0.214133 0.039788 0.000000 
-0.159455 0.089030 0.230000 
-0.352438 -0.191454 0.216011 
-0.186700 -0.290811 0.225000 
0.320862 -0.068012 0.225000 
-0.057991 0.051141 -0.010000 
0.146162 -0.123597 0.230000 
-0.377421 0.016609 -0.005000 
-0.132875 -0.057230 0.076916 
-0.129306 -0.319772 0.230000 
0.309737 0.241525 0.157020 
0.393363 -0.061741 0.060498 
-0.343276 0.319117 0.225000 
0.075678 0.079617 0.008998 
-0.028718 -0.192577 0.230000 
-0.372428 0.376377 -0.010000 
-0.161987 0.042061 0.043295 
0.232820 0.317220 0.056482 
0.195980 -0.038864 0.225000 
-0.070073 0.132292 0.236977 
-0.004677 0.237861 0.000000 
0.042743 -0.060989 0.000010 
-0.238199 0.157844 -0.010000 
-0.100971 0.067360 0.015287 
-0.113481 0.091891 -0.010000 
-0.003605 -0.068221 -0.010000 
-0.241384 0.319900 0.138258 
0.285636 0.001832 0.230000 
-0.125594 -0.084216 0.255486 
0.137274 0.067860 0.086240 
0.147713 0.137329 0.000000 
-0.125059 0.103144 0.243399 
-0.020040 0.111852 0.000000 
-0.045855 -0.152837 0.063883 
0.373533 0.138086 0.204769 
-0.335742 -0.220373 0.037777 
0.067054 -0.389154 0.209179 
0.207413 0.044493 0.230000 
-0.132205 -0.297782 0.230000 
0.111312 0.023241 -0.010000 
-0.113061 -0.346001 -0.010000 
0.032990 -0.171850 0.000000 
-0.115487 0.216267 0.225000 
0.212512 -0.095022 0.000000 
0.024704 0.050512 0.003249 
-0.138181 0.374344 0.189029 
-0.237612 -0.323433 0.062202 
0.003752 0.370672 -0.005000 
-0.195363 0.342763 0.074016 
-0.036868 -0.203057 0.230000 
0.267289 -0.289773 0.210253 
-0.001547 -0.122485 -0.010000 
0.139812 0.000543 0.000000 
0.087258 0.388571 0.203183 
-0.069175 -0.394969 0.200719 
0.391636 0.032940 0.032799 
-0.038891 -0.169634 0.002157 
-0.355913 0.225621 0.230000 
0.256661 0.113385 0.230000 
-0.077980 -0.028910 -0.010000 
-0.032823 -0.386526 -0.005000 
-0.241384 0.402837 0.044863 
-0.271367 0.137808 -0.005000 
-0.129605 -0.057172 0.028948 
0.320482 0.150960 -0.010000 
0.300711 0.260760 0.001181 
-0.016254 0.011137 0.030000 
-0.369952 0.306013 0.225000 
0.002075 0.039753 -0.005000 
0.039427 0.210555 0.000000 
-0.050348 -0.116098 0.000000 
-0.164535 -0.141585 0.037040 
-0.168645 0.242182 0.225000 
0.126664 -0.167675 0.225000 
-0.344127 0.158981 0.225000 
-0.352001 0.049619 -0.005000 
-0.187657 -0.179131 0.225000 
-0.241384 0.401292 0.061583 
0.171096 -0.035037 0.025585 
0.269971 0.292632 0.165592 
0.377124 -0.128871 0.000583 
-0.180608 0.034341 0.006870 
-0.044994 -0.083435 -0.010000 
0.243038 0.312977 -0.010000 
0.155724 0.057459 0.225000 
-0.084447 -0.391550 0.218012 
-0.401384 0.241221 0.092259 
-0.310225 -0.245962 0.104768 
0.118031 0.021358 0.012523 
0.127460 0.085468 0.249354 
0.180730 0.085878 -0.010000 
-0.331986 -0.164121 -0.010000 
-0.307328 -0.249660 0.209104 
0.278894 0.042924 0.225000 
0.065897 0.012349 0.001364 
-0.401384 0.398515 0.135028 
0.201046 0.176825 0.230000 
0.098037 0.046569 0.000000 
-0.254117 -0.303721 0.142320 
-0.305350 0.069276 0.225000 
-0.350847 -0.194209 0.178290 
0.268747 0.165740 0.225000 
-0.322914 0.171610 0.230000 
0.156363 -0.253732 0.225000 
0.359272 0.171348 0.073747 
-0.310097 -0.055703 0.225000 
0.322215 -0.234887 0.213983 
-0.210428 -0.032986 0.225000 
-0.397215 -0.055596 0.137155 
-0.241384 0.339322 0.176865 
-0.343877 0.111024 0.225000 
-0.385350 0.204510 0.225000 
-0.260255 -0.194327 -0.005000 
-0.364319 -0.041464 0.230000 
0.064541 0.231404 -0.010000 
0.317561 0.004789 0.230000 
-0.036171 0.064998 -0.010000 
0.156338 0.121777 0.090906 
0.074206 0.386366 0.163547 
-0.214531 0.283870 -0.010000 
0.089378 0.388052 0.155129 
0.036267 -0.393573 0.118538 
0.391306 -0.073406 -0.008719 
0.030000 0.136823 -0.010000 
0.117174 -0.057394 0.066436 
0.075869 0.068200 -0.010000 
-0.030161 -0.167587 0.235746 
0.143557 -0.047902 0.277291 
-0.401384 0.204132 0.003183 
-0.084961 0.389666 0.110205 
-0.139339 0.329704 0.230000 
-0.034102 -0.151785 0.273562 
0.073011 -0.279598 0.225000 
-0.393754 0.072210 0.230000 
-0.160772 0.195652 0.225000 
-0.123055 -0.125799 -0.010000 
-0.291940 -0.201080 -0.005000 
0.271781 -0.084422 0.225000 
-0.401384 0.222811 0.098968 
-0.330576 -0.227374 0.215074 
0.214185 0.321419 -0.010000 
0.102814 0.145509 0.230000 
-0.377473 -0.119235 0.086773 
0.024962 -0.338579 0.225000 
0.397080 0.025656 0.019063 
0.112365 0.215946 -0.010000 
-0.060978 -0.186865 0.225000 
-0.147131 -0.329427 -0.010000 
-0.111876 0.155488 0.008351 
0.013089 -0.171441 0.000000 
0.389246 0.083512 0.000847 
-0.024684 -0.394441 0.204443 
-0.328055 -0.055420 0.225000 
0.217924 -0.173349 0.230000 
0.142612 0.114540 -0.010000 
-0.258844 -0.306095 0.181471 
-0.361941 0.188009 0.225000 
-0.388496 -0.075794 -0.000399 
-0.102752 0.353679 0.230000 
0.079668 -0.324363 0.230000 
0.380090 0.117308 0.170488 
-0.044912 0.177047 0.230000 
-0.177348 -0.354027 0.014602 
-0.170833 -0.356959 0.161137 
0.129110 -0.378305 0.186868 
-0.373168 -0.133048 0.213478 
-0.284170 0.271839 0.230000 
0.241980 0.285642 0.225000 
0.100578 -0.110008 0.256935 
0.134793 -0.371395 0.039489 
-0.375384 0.327608 0.225000 
0.118263 -0.090258 0.243638 
0.155852 0.251954 0.225000 
0.068188 -0.137410 0.044672 
-0.227234 0.323026 -0.010000 
-0.249250 -0.298175 0.230000 
0.135505 -0.061024 0.255523 
-0.030403 -0.049357 -0.010000 
-0.070107 0.387913 0.008272 
0.199961 -0.339857 0.007785 
-0.396384 0.077179 0.174493 
-0.344296 -0.101511 0.230000 
0.038491 -0.159394 0.225000 
0.390858 0.074317 0.058579 
0.328515 -0.163668 -0.010000 
-0.196566 0.052732 0.230000 
0.061446 -0.390182 0.101810 
0.385668 -0.076116 0.091937 
-0.127372 -0.345024 -0.010000 
0.031206 -0.236663 0.230000 
-0.349196 0.052194 0.225000 
-0.253254 -0.001035 0.230000 
-0.272071 0.192449 -0.005000 
-0.190599 -0.243500 0.230000 
-0.126695 0.158373 0.049131 
-0.031860 0.013346 0.007109 
0.138079 0.077652 0.098519 
0.163843 -0.026515 0.225000 
0.241990 -0.302296 0.225000 
-0.190516 0.226146 0.225000 
-0.002085 -0.133262 0.000000 
0.255405 0.095710 0.230000 
-0.074014 0.392148 0.086022 
0.063411 0.110494 0.090547 
-0.137931 -0.069448 0.025387 
0.287223 0.171391 -0.010000 
0.360142 -0.108902 0.230000 
-0.241384 0.314110 0.177059 
-0.396384 0.163543 0.063976 
0.070830 -0.253263 0.230000 
0.103937 -0.108647 0.279151 
0.374420 0.136017 0.102420 
-0.044271 0.396170 -0.009876 
-0.016704 0.193510 0.225000 
-0.217759 -0.068888 0.000000 
-0.073356 0.387500 0.102445 
-0.064890 0.170392 0.225000 
-0.263093 0.008458 0.225000 
-0.152561 -0.365183 0.139925 
-0.241384 0.327658 0.094383 
0.085670 -0.061485 -0.010000 
0.377957 0.124476 0.200714 
-0.104309 -0.110269 0.225000 
0.377722 0.061759 0.225000 
-0.162179 0.173191 0.029378 
-0.280135 -0.279695 0.017371 
-0.132383 0.051088 0.112249 
0.122311 0.185737 0.225000 
-0.183698 0.354520 0.211766 
-0.342624 0.144219 -0.010000 
0.044795 -0.380668 0.225000 
-0.115185 -0.378367 0.209275 
0.301226 -0.215141 0.225000 
0.212138 -0.136964 0.230000 
-0.094395 0.382353 0.084437 
0.314034 -0.245875 0.039252 
0.262927 0.140118 0.230000 
-0.192079 -0.116098 0.230000 
0.134282 -0.107466 0.225000 
0.070031 0.094530 0.050091 
0.021578 -0.291303 0.230000 
0.039650 -0.159381 0.000000 
-0.343551 -0.198051 0.229908 
-0.132849 0.080899 0.262316 
0.260564 -0.246943 -0.005000 
0.102188 -0.148232 0.097863 
-0.122642 0.109771 0.000000 
0.051982 0.138652 0.240031 
0.071824 0.090206 0.002801 
-0.327483 -0.223549 0.117498 
0.109467 -0.360818 0.230000 
0.243422 0.069118 0.225000 
0.049239 0.390298 0.148199 
-0.111405 -0.189802 -0.010000 
-0.133967 -0.377545 0.000057 
-0.400134 -0.022324 0.152710 
0.041731 0.356383 -0.010000 
-0.266614 -0.299576 0.052534 
-0.140678 0.373464 0.011594 
0.397678 -0.016948 0.012173 
0.046626 0.191947 0.230000 
0.154035 -0.045358 0.070417 
-0.088905 0.383716 0.097577 
-0.270168 -0.103583 0.230000 
0.397231 0.023049 0.068979 
0.233503 -0.047225 0.000000 
-0.107592 0.153715 0.038257 
0.207368 0.305032 0.225000 
-0.000713 0.025009 0.008778 
-0.241384 0.396332 0.019625 
0.238052 0.118473 0.230000 
-0.128815 -0.055263 0.017009 
0.143227 -0.049839 0.064182 
0.172565 -0.302252 0.225000 
0.158928 0.120191 0.007188 
-0.007329 -0.301086 0.225000 
0.183706 0.166648 -0.010000 
0.397739 -0.015906 0.199922 
-0.174850 -0.257975 0.230000 
-0.401384 0.213661 0.031104 
-0.166427 -0.241359 0.230000 
-0.176353 0.058830 0.230000 
-0.114777 0.377292 0.030872 
-0.235771 -0.262899 0.230000 
-0.272103 0.370749 0.230000 
-0.291847 0.196724 0.230000 
0.031333 0.217297 0.230000 
0.392676 0.015192 0.170346 
0.048288 -0.397086 0.215141 
-0.013027 -0.155163 0.225000 
-0.047752 -0.158700 0.000000 
-0.236384 0.389006 0.057896 
0.268609 -0.282581 0.230000 
-0.212329 0.051467 0.230000 
-0.167730 -0.302556 -0.010000 
-0.285770 0.301156 -0.010000 
-0.144988 0.169190 0.000191 
0.124131 -0.157312 0.094516 
0.239223 0.165427 0.230000 
-0.258831 0.281773 0.225000 
-0.047555 0.154146 0.225000 
0.223423 0.250840 -0.010000 
-0.335238 -0.221113 0.179203 
0.301639 -0.253387 0.059484 
-0.098300 -0.353030 0.230000 
0.067355 0.201657 -0.005000 
0.385915 0.073454 0.200931 
-0.145755 0.096433 0.225000 
0.153165 -0.003442 0.000000 
0.302666 0.250948 0.139673 
0.226090 -0.015482 0.065699 
-0.222094 0.194835 -0.010000 
-0.366302 0.139788 0.225000 
-0.082485 0.271734 0.225000 
-0.077562 0.121779 -0.010000 
-0.045551 -0.184686 0.225000 
0.313483 0.118520 -0.010000 
-0.334708 0.093587 0.230000 
-0.118880 0.288016 0.230000 
0.254852 0.305440 0.200179 
-0.347120 0.335869 -0.010000 
-0.171976 0.100899 0.225000 
-0.307989 0.229766 0.230000 
-0.395532 -0.014940 0.015656 
0.084120 0.291252 0.230000 
0.340296 0.150805 0.230000 
-0.020230 -0.117927 -0.010000 
0.103662 -0.317056 0.225000 
-0.099402 0.148751 0.111782 
-0.396384 0.261901 0.229397 
-0.241384 0.375116 0.076675 
0.069401 -0.137912 0.118363 
-0.143864 0.081331 0.225000 
0.105932 -0.305896 0.230000 
0.357280 0.163190 0.026842 
0.014445 0.393637 0.043434 
0.065716 0.388307 0.105601 
-0.223818 0.013177 0.029112 
-0.387661 -0.080347 0.112265 
-0.193959 0.255970 0.225000 
0.241038 -0.311798 0.150726 
-0.125164 -0.184285 -0.010000 
-0.030362 0.068519 0.000000 
-0.280683 -0.021624 -0.010000 
0.126601 0.042069 0.111045 
0.360654 0.168127 0.115896 
0.114011 -0.260967 0.230000 
0.280372 0.275077 0.199245 
0.263604 -0.299779 0.058050 
-0.071451 0.135513 0.117743 
0.050041 -0.396881 0.111273 
-0.166966 -0.130710 0.230000 
-0.396384 0.395573 0.152173 
0.128762 -0.022126 0.000000 
-0.383169 0.346355 0.225000 
-0.148468 0.276817 0.225000 
-0.183312 -0.356337 0.031256 
0.137187 0.368385 0.091278 
-0.013209 0.122009 -0.010000 
-0.060542 -0.178629 -0.010000 
-0.336740 0.345085 -0.010000 
-0.338621 0.263606 -0.005000 
0.348501 0.026817 -0.010000 
0.114544 -0.137756 0.000000 
0.219293 -0.015053 0.056485 
-0.216747 0.278873 0.225000 
0.390577 0.047173 0.013720 
-0.318199 -0.244000 -0.009729 
0.061976 0.256532 0.230000 
-0.294126 0.291130 0.230000 
0.019965 0.032686 -0.010000 
-0.047726 -0.148325 0.102246 
0.136936 0.257728 0.230000 
-0.126083 -0.380415 0.122710 
0.131100 -0.051620 0.011677 
-0.297222 0.111168 0.225000 
0.204910 0.013002 0.000000 
0.280805 0.215245 0.230000 
-0.099042 -0.221957 0.230000 
-0.163697 0.126711 -0.006000 
0.193058 -0.350052 0.159105 
0.277130 0.085289 0.230000 
0.011021 0.229879 0.074930 
0.009161 -0.122646 0.000000 
-0.106033 -0.289373 0.225000 
-0.077627 0.391329 0.029662 
-0.093125 0.079496 0.000000 
-0.233786 0.022565 -0.010000 
0.137555 0.373530 0.128997 
0.267265 -0.293440 -0.010000 
-0.159115 -0.038778 0.000000 
0.161197 0.039124 0.000000 
-0.030633 -0.001463 0.007784 
-0.123063 -0.375913 0.135383 
-0.001506 0.359626 -0.005000 
-0.291577 -0.275163 0.173118 
0.154770 -0.368966 0.069147 
-0.395841 -0.006523 0.230000 
-0.146318 -0.172225 -0.010000 
0.211958 0.269152 0.225000 
-0.108740 0.060891 0.050264 
0.036460 -0.124281 0.048895 
0.236035 -0.322650 0.037830 
-0.234294 -0.173536 0.230000 
0.126843 0.042653 0.091256 
0.137119 0.221790 -0.010000 
0.150656 -0.093882 0.230000 
-0.010306 -0.360154 0.230000 
-0.073421 0.392282 0.224090 
0.071667 -0.233716 0.230000 
-0.098579 0.196882 0.230000 
0.302737 -0.251986 0.045829 
0.163171 -0.109214 -0.010000 
0.287333 -0.162036 0.225000 
-0.155522 -0.111958 0.072405 
0.111501 0.146054 -0.005000 
-0.276990 0.095759 0.230000 
-0.121293 0.380292 0.041372 
-0.281165 -0.286199 0.097687 
-0.194998 0.328777 0.225000 
0.358457 -0.162006 0.052930 
-0.086604 -0.037169 0.000000 
-0.330944 -0.035049 0.230000 
0.131221 0.009656 0.000000 
-0.246564 0.137267 0.230000 
0.195927 0.341190 0.138750 
0.155597 -0.368665 0.175394 
-0.279650 -0.254894 0.230000 
0.357036 0.040353 0.230000 
0.371954 -0.118216 -0.005000 
-0.292364 0.155466 0.225000 
0.247646 0.305591 0.230000 
-0.018387 -0.211253 0.028419 
-0.140440 -0.245556 0.225000 
0.072702 0.157596 0.225000 
0.134550 -0.161624 0.015453 
0.056823 -0.132707 0.051284 
0.230169 0.248668 0.230000 
0.397805 0.013138 0.208594 
0.014135 -0.394912 0.221527 
-0.046703 0.241454 0.230000 
-0.000717 -0.085160 -0.010000 
-0.393998 -0.040302 0.216392 
-0.052345 0.095007 -0.010000 
-0.008695 -0.109878 -0.010000 
0.377431 0.126243 0.125904 
-0.396384 0.128030 0.137787 
-0.241384 0.313852 0.038444 
-0.396384 0.227139 0.085435 
-0.073652 -0.388452 0.010111 
0.075358 0.168122 0.230000 
-0.027266 -0.213580 0.225000 
0.350565 0.056560 0.225000 
-0.401384 0.123234 0.004251 
0.129232 -0.055642 0.071234 
-0.030916 -0.218288 0.000000 
0.139317 -0.048213 0.078974 
0.059820 -0.283319 0.230000 
0.142993 -0.077812 0.000000 
-0.396384 0.091194 0.106984 
-0.057954 0.025216 -0.010000 
-0.057715 -0.233391 -0.001638 
0.250423 -0.263216 0.225000 
-0.222756 0.325472 0.080140 
0.034124 0.035758 -0.010000 
0.047128 0.149768 0.014854 
0.085362 0.389035 0.054426 
-0.397278 -0.055236 0.016917 
-0.334623 -0.006123 0.230000 
-0.322120 0.242345 0.230000 
0.059164 0.319034 0.225000 
-0.047939 0.148413 -0.006000 
-0.118986 -0.111343 0.243097 
0.110483 0.102194 -0.010000 
-0.028328 -0.153211 0.260520 
0.188610 -0.352286 0.172336 
-0.072977 0.129577 0.000000 
-0.084223 0.389833 0.134536 
-0.291658 -0.113719 0.225000 
0.363407 0.161705 0.044824 
-0.216827 -0.221120 0.225000 
-0.281458 0.029587 0.225000 
0.120055 -0.281350 0.225000 
-0.388797 0.353748 -0.005000 
-0.172127 -0.361954 0.001975 
0.011456 -0.301569 -0.005000 
-0.370427 -0.153501 0.005791 
-0.028008 -0.160448 0.225000 
-0.183672 -0.028266 0.230000 
0.062858 0.141462 0.248275 
-0.318707 -0.243317 0.020190 
0.000058 -0.104370 0.000000 
-0.138495 -0.349797 -0.010000 
-0.332919 -0.135106 0.225000 
0.224618 -0.048604 -0.010000 
0.330080 -0.214673 0.076970 
-0.389474 -0.070453 0.206773 
-0.315462 0.276499 0.225000 
-0.034107 0.123307 0.095915 
0.278038 -0.149894 0.230000 
-0.239462 0.381109 0.225000 
-0.119767 0.117637 0.236868 
-0.401384 0.265426 0.168350 
-0.038648 0.276576 0.225000 
0.157786 -0.170295 0.225000 
0.138241 -0.051907 0.117678 
0.162323 0.170275 0.225000 
-0.236384 0.349840 0.053548 
-0.231132 0.017323 0.225000 
-0.109454 0.151239 0.070994 
-0.110637 0.101661 0.243682 
0.111663 0.377467 0.000491 
-0.395282 -0.019067 0.006206 
0.171348 0.117421 0.000000 
-0.332977 -0.214460 0.080493 
0.212590 0.148805 0.230000 
-0.322969 0.283755 0.230000 
-0.061316 0.166237 -0.010000 
-0.172001 0.360233 0.173993 
0.168513 0.355035 0.172759 
-0.079037 -0.272226 0.230000 
0.020067 0.181293 -0.010000 
-0.139850 0.366403 0.230000 
-0.178811 0.351327 -0.001490 
-0.230227 0.320421 0.131221 
-0.113812 0.058788 0.008328 
-0.081596 0.143729 -0.010000 
-0.008045 0.148510 0.245713 
