9.938057 -21.803253 -52.902692
7.008750 -21.987300 -17.121027
6.924493 -21.992597 -11.655942
9.867792 -21.807669 -43.954699
11.565367 -21.701011 -37.980276
7.188450 -21.976010 -22.857899
11.379484 -21.712691 -18.524570
11.130992 -21.728303 -35.211234
7.458867 -21.959019 -6.370990
6.689013 -22.007393 -29.610948
6.969347 -21.989777 -25.645151
7.898906 -21.931374 -13.430835
6.471887 -22.021032 -24.894544
10.390183 -21.774846 -34.230530
8.761852 -21.877153 -42.130294
9.133128 -21.853826 -47.415851
6.195090 -22.038425 -16.824760
9.331626 -21.841354 -50.748917
6.040439 -22.048139 -16.274848
7.261213 -21.971440 -22.816173
7.009340 -21.987263 -20.515425
10.212319 -21.786022 -37.942645
7.431232 -21.960756 -22.087438
10.275289 -21.782066 -38.635867
9.921828 -21.804272 -44.250370
7.046105 -21.984954 -30.638038
10.399726 -21.774246 -42.716574
7.219826 -21.974039 -25.632230
7.092818 -21.982018 -26.736922
7.094583 -21.981907 -15.276435
9.203687 -21.849394 -40.726251
7.062703 -21.983910 -5.827060
8.896866 -21.868670 -11.625815
6.911598 -21.993404 -12.914017
8.013655 -21.924163 -7.909032
7.771106 -21.939402 -47.031617
10.441606 -21.771615 -21.007045
6.738405 -22.004286 -28.141376
8.461232 -21.896041 -10.804644
9.891977 -21.806149 -38.140226
10.424589 -21.772685 -34.895190
10.096130 -21.793321 -27.916055
7.825672 -21.935975 -17.410220
9.237477 -21.847273 -41.262838
7.336442 -21.966714 -7.940596
6.814777 -21.999488 -8.948659
6.540660 -22.016711 -27.926478
9.576933 -21.825944 -38.275174
7.572228 -21.951899 -5.837059
9.086436 -21.856759 -46.310728
9.425566 -21.835452 -48.075664
10.252564 -21.783493 -44.159575
9.075277 -21.857461 -44.919925
6.568424 -22.014966 -23.908296
10.162780 -21.789134 -48.490823
6.901576 -21.994034 -26.294684
10.012679 -21.798567 -30.030174
9.371681 -21.838839 -36.481074
9.125154 -21.854329 -35.071603
8.835278 -21.872541 -44.994068
9.317071 -21.842269 -46.194170
9.296244 -21.843578 -39.690108
8.743307 -21.878319 -6.959800
6.828946 -21.998599 -27.386431
10.573860 -21.763307 -40.177164
9.624853 -21.822932 -48.210008
6.706095 -22.006318 -10.657229
6.470749 -22.021104 -23.721320
8.844360 -21.871971 -41.777636
10.378424 -21.775586 -21.854373
9.843881 -21.809171 -26.803127
10.184200 -21.787788 -42.327305
7.248354 -21.972247 -11.524065
6.349573 -22.028718 -20.233964
6.071388 -22.046194 -14.825307
8.104947 -21.918427 -13.887089
6.522420 -22.017857 -27.676101
9.437882 -21.834678 -30.822005
6.757767 -22.003070 -16.815123
10.706976 -21.754942 -44.644861
9.094247 -21.856271 -33.990201
6.904186 -21.993871 -24.433549
7.894976 -21.931621 -44.909555
9.675871 -21.819727 -40.366468
10.432618 -21.772180 -42.900517
8.636868 -21.885006 -17.345994
7.220551 -21.973993 -23.242348
10.230579 -21.784875 -35.243742
5.902379 -22.056814 -23.115286
8.253548 -21.909091 -50.683633
7.360878 -21.965178 -12.534936
9.941558 -21.803033 -29.792080
6.907095 -21.993686 -27.741821
8.675575 -21.882574 -8.801056
8.903039 -21.868284 -16.149218
10.059828 -21.795602 -35.465573
7.426750 -21.961038 -8.672172
9.094341 -21.856263 -37.448347
8.332369 -21.904137 -6.556629
9.569624 -21.826402 -41.207591
10.847601 -21.746106 -38.657602
10.089514 -21.793738 -31.216889
9.051897 -21.858929 -42.478962
7.010754 -21.987176 -27.433370
10.615107 -21.760714 -39.629482
7.697207 -21.944045 -47.701933
7.506851 -21.956006 -10.954971
9.846973 -21.808977 -33.852769
6.174048 -22.039745 -24.934141
7.633451 -21.948052 -49.741137
8.911861 -21.867730 -43.772789
10.198909 -21.786865 -42.466334
9.613201 -21.823664 -52.262843
6.946019 -21.991243 -21.259556
6.813937 -21.999542 -50.687280
7.800222 -21.937574 -47.748915
5.799674 -22.063267 -13.653365
7.611504 -21.949431 -17.380793
7.449400 -21.959616 -20.314586
8.062338 -21.921105 -10.369260
9.641334 -21.821897 -41.827876
7.844669 -21.934781 -16.082512
8.628472 -21.885535 -42.944184
10.123310 -21.791615 -43.967050
8.687445 -21.881829 -37.746352
7.990289 -21.925631 -22.873005
6.226648 -22.036440 -21.792553
10.113285 -21.792243 -19.945488
6.622973 -22.011539 -32.249426
8.650632 -21.884142 -51.741879
6.286520 -22.032679 -22.115468
9.250877 -21.846430 -38.157302
6.338742 -22.029396 -21.172332
10.480339 -21.769183 -22.914135
9.792618 -21.812392 -44.915195
7.720794 -21.942562 -42.204670
10.770674 -21.750941 -33.948523
10.763676 -21.751380 -25.358096
9.403717 -21.836827 -37.443619
9.871469 -21.807438 -28.427953
8.271358 -21.907973 -19.987824
7.447662 -21.959726 -11.172741
8.913133 -21.867648 -14.268822
9.402962 -21.836873 -38.877657
7.188061 -21.976037 -9.077016
8.178972 -21.913776 -23.716441
7.654532 -21.946727 -9.766095
7.620931 -21.948837 -21.742114
6.147808 -22.041395 -30.298606
5.584595 -22.076780 -21.706792
9.692740 -21.818667 -34.900454
8.928346 -21.866692 -43.165713
7.087169 -21.982373 -26.351557
11.013723 -21.735670 -37.047404
7.556141 -21.952910 -23.764861
10.346926 -21.777565 -45.480103
8.908756 -21.867924 -38.789238
10.620130 -21.760398 -58.531095
9.116728 -21.854858 -34.073341
6.234015 -22.035977 -14.973637
7.026824 -21.986165 -16.633880
7.393710 -21.963114 -25.945191
8.690262 -21.881653 -49.933607
6.182902 -22.039189 -14.800451
8.574865 -21.888904 -9.384496
8.079457 -21.920030 -26.791175
8.028033 -21.923260 -24.644092
9.179600 -21.850908 -46.973150
9.643020 -21.821790 -36.883476
8.622091 -21.885935 -47.744131
5.775442 -22.064790 -16.613776
7.645582 -21.947287 -27.475103
5.957828 -22.053330 -25.531076
7.626228 -21.948504 -14.273831
8.149165 -21.915650 -15.774619
9.939029 -21.803193 -24.946376
8.104152 -21.918477 -6.854338
9.663701 -21.820490 -33.889792
9.993159 -21.799792 -30.923973
9.061976 -21.858297 -38.236235
10.963263 -21.738840 -35.850307
9.617055 -21.823421 -55.262260
7.432873 -21.960652 -19.158053
9.110500 -21.855250 -42.196864
6.479716 -22.020540 -17.524655
7.382096 -21.963844 -19.797427
7.837940 -21.935204 -21.331327
8.610784 -21.886646 -52.215108
8.794752 -21.875087 1.638528
8.207794 -21.911967 -40.301186
9.627672 -21.822754 -49.649892
6.425906 -22.023922 -32.832299
7.121630 -21.980209 -23.466463
8.452020 -21.896619 -47.716486
8.622052 -21.885936 -54.916177
10.693749 -21.755773 -32.043390
6.844288 -21.997634 -21.440555
10.816252 -21.748077 -43.735913
6.024350 -22.049150 -12.304957
6.261911 -22.034225 -28.151179
9.622672 -21.823068 -31.564313
9.770421 -21.813785 -33.679967
6.930334 -21.992228 -27.885931
6.040934 -22.048108 -13.510855
6.077224 -22.045829 -10.591428
8.497860 -21.893740 -18.344119
6.716543 -22.005660 -22.400656
10.244181 -21.784019 -48.140439
7.793384 -21.938003 -19.776849
6.526953 -22.017572 -16.630015
11.060078 -21.732756 -25.948720
9.698150 -21.818327 -39.206180
7.371548 -21.964506 -26.450115
8.174844 -21.914036 -12.705566
8.710775 -21.880364 -14.637705
7.952681 -21.927992 -7.997978
9.547422 -21.827796 -33.044989
10.998577 -21.736620 -39.088703
9.714385 -21.817307 -32.307587
10.261491 -21.782931 -30.100215
5.710728 -22.068855 -21.704703
10.096731 -21.793286 -38.544846
10.384024 -21.775232 -45.082022
6.160035 -22.040626 -10.281677
9.512353 -21.830000 -40.233182
6.159543 -22.040657 -24.980267
7.870304 -21.933170 -4.357418
9.609306 -21.823909 -41.647748
10.041067 -21.796782 -26.372886
9.762189 -21.814302 -34.858375
9.084636 -21.856873 -44.577536
10.405806 -21.773865 -32.341920
6.878991 -21.995454 -20.050630
9.413129 -21.836233 -49.013162
8.332746 -21.904116 -20.955572
7.085912 -21.982452 -12.251397
7.934931 -21.929109 -21.646819
8.995105 -21.862499 -44.163687
7.560683 -21.952622 -24.964522
9.024066 -21.860679 -44.711928
8.827830 -21.873008 -47.133324
8.344884 -21.903352 -45.020893
7.059041 -21.984141 -26.827571
6.491794 -22.019780 -12.694050
6.127793 -22.042650 -13.310296
8.456563 -21.896334 -6.826273
5.652013 -22.072544 -36.683262
7.394122 -21.963089 -16.997190
7.976106 -21.926523 -5.960764
9.766467 -21.814034 -41.775571
6.835510 -21.998186 -18.727316
9.010578 -21.861526 -36.031432
8.287196 -21.906976 -21.020252
9.818752 -21.810751 1.539241
5.214915 -22.100006 -27.100866
6.416312 -22.024523 -16.449974
10.087020 -21.793894 -28.821453
9.651007 -21.821288 -48.622123
6.820113 -21.999154 -29.142828
10.479777 -21.769218 -41.779484
9.226097 -21.847986 -6.200713
6.137858 -22.042017 -29.371366
7.022609 -21.986432 -17.946504
9.143244 -21.853192 -48.963722
7.565205 -21.952338 -9.315642
9.482948 -21.831847 -29.743158
10.521768 -21.766579 -27.355718
5.906194 -22.056574 -26.495204
11.124864 -21.728688 -29.052408
9.309665 -21.842734 -5.420803
9.874982 -21.807216 -33.671358
5.312864 -22.093853 -25.843940
8.056470 -21.921473 -43.337032
8.178900 -21.913781 -44.125347
9.800336 -21.811906 -34.662823
9.297090 -21.843524 -40.583801
9.085778 -21.856801 -45.850548
8.184777 -21.913410 -10.949491
8.283383 -21.907216 -5.574049
7.621690 -21.948789 -14.817231
10.024643 -21.797813 -44.151204
9.291486 -21.843879 -36.774525
6.568851 -22.014940 -32.643527
8.369738 -21.901790 -38.445217
5.653299 -22.072464 -37.643779
6.517502 -22.018166 -11.715229
10.670516 -21.757233 -29.551315
8.212169 -21.911689 -44.903021
7.547953 -21.953423 -24.550806
7.855096 -21.934126 -15.525717
8.755959 -21.877524 -42.291483
11.614202 -21.697941 -45.502366
7.133839 -21.979442 -25.904292
9.874080 -21.807273 -31.388270
7.610790 -21.949475 -45.640255
6.972363 -21.989588 -26.829357
9.913495 -21.804798 -37.164237
8.451097 -21.896680 -46.928208
6.962809 -21.990188 -18.451574
7.071662 -21.983349 -22.103671
9.473808 -21.832422 -31.133817
5.910676 -22.056292 -23.746350
8.225769 -21.910836 -47.067755
8.315842 -21.905177 -6.872268
6.344442 -22.029039 -14.841813
9.525518 -21.829172 -37.606210
7.859238 -21.933866 -5.440453
9.706280 -21.817816 -40.191809
6.223700 -22.036626 -10.209942
6.345305 -22.028985 -25.892859
7.382018 -21.963848 -6.145712
10.003142 -21.799165 -37.260116
6.240450 -22.035574 -10.537447
9.002217 -21.862052 -45.825235
9.041153 -21.859606 -48.078090
9.560586 -21.826971 -41.124657
7.113025 -21.980748 -24.918344
8.833152 -21.872674 -44.606020
9.695958 -21.818464 -43.385210
10.423264 -21.772769 -43.210297
10.422908 -21.772789 -37.778133
6.202795 -22.037940 -5.823435
10.967713 -21.738560 -13.231611
9.979718 -21.800635 -31.775597
7.859829 -21.933828 -10.779266
8.538714 -21.891173 -50.644807
8.649092 -21.884238 -48.062228
6.708755 -22.006149 -16.060256
10.891978 -21.743319 -25.078391
10.622069 -21.760276 -40.161638
6.658598 -22.009300 -27.008383
6.918206 -21.992990 -15.667834
7.981131 -21.926207 -19.406613
6.383134 -22.026610 -21.878231
6.858836 -21.996721 -28.715132
7.267028 -21.971073 -5.992911
6.091735 -22.044916 -26.317093
7.463133 -21.958751 -18.436350
7.565931 -21.952293 -2.296285
9.137161 -21.853573 -34.412906
7.143156 -21.978856 -29.962480
8.816651 -21.873710 -44.288734
10.785093 -21.750034 -36.474504
9.214844 -21.848693 -37.956575
9.311220 -21.842636 -36.618036
10.424677 -21.772679 -45.227957
10.109915 -21.792454 -41.024294
6.744219 -22.003921 -16.475490
10.626471 -21.759999 -30.364320
8.549557 -21.890492 -21.030279
8.904085 -21.868216 -10.640184
9.568461 -21.826475 -31.161304
9.168032 -21.851635 -36.308636
7.238669 -21.972855 -12.869116
6.326523 -22.030166 -29.023678
6.823000 -21.998972 -7.812945
10.177897 -21.788184 -42.495469
7.896075 -21.931549 -14.145482
10.060267 -21.795576 -31.209061
6.407586 -22.025072 -7.319663
10.254710 -21.783360 -26.354947
7.174385 -21.976894 -25.785043
8.470421 -21.895465 -48.296747
5.543240 -22.079379 -23.051165
9.897370 -21.805810 -39.256912
9.283019 -21.844408 -49.875202
9.549453 -21.827669 -40.965933
10.951362 -21.739589 -44.704647
11.018995 -21.735339 -36.679519
6.414340 -22.024647 -17.579738
7.640017 -21.947641 -16.403782
7.070393 -21.983429 -25.117556
10.717919 -21.754254 -40.908836
9.785958 -21.812810 -38.502317
6.746019 -22.003809 -23.979341
7.335211 -21.966790 -23.390373
6.828953 -21.998597 -17.207032
8.041107 -21.922438 -23.265681
9.054504 -21.858766 -44.950056
9.648564 -21.821440 -33.502905
9.840605 -21.809374 -41.151249
8.977012 -21.863635 -9.411149
8.520464 -21.892319 -12.057411
10.049255 -21.796266 -32.804150
8.127536 -21.917007 -20.854972
6.339754 -22.029333 -17.135825
6.787559 -22.001199 -14.595900
10.746312 -21.752473 -35.093573
8.961779 -21.864591 -37.842457
9.559070 -21.827066 -37.981769
7.524749 -21.954880 -27.374589
9.150124 -21.852760 -43.127340
10.519068 -21.766749 -33.247105
7.515505 -21.955460 -21.120387
7.603181 -21.949953 -24.839852
7.630965 -21.948207 -11.958878
6.793067 -22.000853 -18.913027
8.715495 -21.880066 -36.150320
8.916712 -21.867425 -4.077847
7.387469 -21.963506 -16.427515
8.222915 -21.911017 -4.714659
10.297362 -21.780679 -49.850369
7.140904 -21.978997 -25.929847
6.604760 -22.012683 -14.726793
9.220414 -21.848344 -45.208468
8.663860 -21.883311 -40.842181
6.393954 -22.025927 -19.942905
11.152121 -21.726973 -42.580004
7.438912 -21.960273 -19.411727
9.429903 -21.835181 -40.390318
6.760485 -22.002899 -27.809025
9.957856 -21.802009 -46.008808
9.203734 -21.849391 -43.597661
7.723943 -21.942365 -11.551454
9.826277 -21.810274 -41.102456
7.623319 -21.948688 -6.666047
6.430471 -22.023635 -23.676149
11.309381 -21.717095 -34.151288
7.557175 -21.952844 -23.185735
8.897867 -21.868608 -46.393605
7.880816 -21.932508 -14.419745
11.110545 -21.729587 -16.977091
9.311073 -21.842647 -37.480336
10.803565 -21.748874 -42.718971
10.888655 -21.743528 -37.482298
9.711413 -21.817493 -34.056875
7.492737 -21.956891 -19.796684
9.920492 -21.804356 -37.300415
7.923181 -21.929849 -9.299774
10.794185 -21.749462 -44.873920
7.288578 -21.969719 -13.178198
6.808353 -21.999891 -21.016006
10.470577 -21.769794 -37.349202
6.274685 -22.033421 -10.462794
10.635127 -21.759456 -44.386077
6.866978 -21.996209 -28.862643
7.102807 -21.981390 -17.612428
9.369474 -21.838977 -42.344007
6.863644 -21.996419 -33.625814
6.445107 -22.022714 -31.416063
8.981553 -21.863350 -34.742361
6.518713 -22.018091 -27.252851
7.639862 -21.947648 -47.880266
6.805942 -22.000044 -13.705616
9.800693 -21.811885 -40.047535
7.959993 -21.927535 -50.980798
7.250322 -21.972123 -4.731946
9.093558 -21.856314 -45.040050
10.174058 -21.788425 -43.184905
8.033478 -21.922919 -19.821945
7.360534 -21.965198 -21.036061
9.324993 -21.841774 -33.850251
7.232754 -21.973225 -22.669056
10.276065 -21.782015 -29.818154
10.907622 -21.742335 -37.345390
7.172835 -21.976992 -19.973489
9.448014 -21.834044 -50.042940
9.045756 -21.859316 -31.860752
9.741602 -21.815597 -30.071569
7.273506 -21.970666 -26.257285
5.898196 -22.057078 -23.781379
8.685315 -21.881963 -43.252431
7.749832 -21.940737 -21.323374
9.210840 -21.848944 -11.193375
8.423186 -21.898433 -9.140882
9.690824 -21.818788 -45.660909
10.753724 -21.752005 -15.134093
9.531870 -21.828773 -37.991525
6.740982 -22.004123 -18.114398
6.333024 -22.029756 -32.577909
8.415963 -21.898887 -48.197619
8.266099 -21.908301 -46.155037
8.978864 -21.863516 -1.585620
10.822421 -21.747689 -43.396052
8.914697 -21.867551 -36.268542
5.755383 -22.066050 -29.859644
7.187638 -21.976062 -22.992207
9.447468 -21.834077 -49.542494
9.236711 -21.847319 -41.444446
9.344807 -21.840525 -33.211977
10.367174 -21.776292 -35.022297
6.602542 -22.012824 -15.851522
6.659706 -22.009231 -23.485149
7.240543 -21.972738 -18.513900
9.321116 -21.842017 -46.829917
8.048125 -21.921997 -5.958088
6.622951 -22.011540 -31.404820
5.417653 -22.087268 -22.799512
8.069238 -21.920671 -13.167545
7.559801 -21.952679 -13.050137
9.396661 -21.837270 -36.241533
7.273623 -21.970659 -17.452175
7.041576 -21.985240 -25.674340
10.472608 -21.769668 -29.670065
8.448482 -21.896844 -38.585012
10.984446 -21.737508 -38.261420
6.099039 -22.044456 -14.236115
6.736253 -22.004422 -4.043033
6.250877 -22.034916 -13.750466
9.498053 -21.830900 -38.048361
9.365328 -21.839238 -43.963457
7.678542 -21.945216 -50.551832
8.839095 -21.872302 -34.170084
8.703674 -21.880810 -40.237367
8.019846 -21.923773 -14.633153
8.176209 -21.913950 -24.674435
9.267180 -21.845404 -41.550590
7.439023 -21.960267 -16.078068
9.026037 -21.860557 -44.126001
6.967285 -21.989905 -20.143486
8.524662 -21.892057 -52.313732
8.474415 -21.895215 -12.922614
6.155000 -22.040944 -18.639915
8.270578 -21.908021 -8.052936
9.582725 -21.825580 -47.596611
8.907823 -21.867983 -44.301131
9.242765 -21.846939 -38.304634
6.264062 -22.034091 -5.112565
10.154158 -21.789677 -38.881186
6.956816 -21.990564 -34.230589
8.245631 -21.909589 -43.567617
7.651038 -21.946947 -12.720220
5.812432 -22.062466 -22.285306
7.502143 -21.956302 -23.622450
6.624671 -22.011433 -15.160149
9.410465 -21.836401 -34.659469
10.643480 -21.758931 -25.014583
10.270740 -21.782351 -47.453850
5.685012 -22.070471 -19.020207
6.726696 -22.005023 -11.761303
8.772408 -21.876491 -39.950936
10.607606 -21.761185 -33.622907
6.983892 -21.988861 -17.047031
10.220411 -21.785513 -35.156869
6.871249 -21.995939 -26.008204
7.508382 -21.955910 -22.564157
9.966648 -21.801456 -40.936922
9.822491 -21.810514 -43.449289
10.012712 -21.798563 -34.136933
7.966611 -21.927118 -4.754628
7.655721 -21.946651 -13.500195
6.639707 -22.010489 -12.775123
5.976689 -22.052144 -10.067541
9.896630 -21.805854 -32.604661
7.287517 -21.969787 -32.369638
8.183247 -21.913508 -14.339471
7.360930 -21.965173 -23.085596
6.853685 -21.997044 -28.783731
8.425068 -21.898316 -4.964751
8.430122 -21.897998 -13.863414
6.582460 -22.014086 -15.006638
8.243304 -21.909733 -16.564462
9.463553 -21.833066 -43.771621
6.302268 -22.031689 -15.276330
10.363704 -21.776512 -35.410125
9.632103 -21.822476 -31.119024
7.851253 -21.934369 -38.955756
6.934498 -21.991966 -31.800805
8.212207 -21.911687 -39.631261
8.495630 -21.893880 -16.276531
10.543404 -21.765219 -37.787895
8.012302 -21.924249 -10.231293
6.245423 -22.035260 -32.516695
9.394221 -21.837421 -46.830288
9.355309 -21.839868 -28.290201
6.483592 -22.020296 -14.976508
6.931466 -21.992158 -25.893476
6.373870 -22.027191 -16.778556
5.821308 -22.061908 -15.796744
9.091999 -21.856410 -43.586693
7.303993 -21.968751 -17.888396
7.638787 -21.947715 -20.365005
9.956683 -21.802082 -49.035314
9.795138 -21.812234 -35.093270
8.144494 -21.915941 -5.857295
7.671901 -21.945636 -21.257433
8.227641 -21.910720 -51.209879
10.033842 -21.797235 -50.193315
8.159986 -21.914968 -7.845978
6.626164 -22.011338 -17.859811
9.304323 -21.843070 -46.163443
7.080967 -21.982763 -22.159975
7.493649 -21.956833 -11.106781
9.313907 -21.842469 -15.630610
9.387753 -21.837830 -35.382384
9.660577 -21.820689 -36.580122
8.401711 -21.899782 -45.735894
7.833671 -21.935470 -13.470590
9.626101 -21.822853 -35.491583
7.548360 -21.953397 -22.999468
8.605057 -21.887007 -50.995454
6.791171 -22.000971 -25.001366
7.714066 -21.942986 -7.324722
8.155990 -21.915218 -49.986631
10.321611 -21.779155 -37.879616
8.849221 -21.871666 -38.668335
9.434698 -21.834880 -46.268060
6.593509 -22.013391 -17.037140
8.695883 -21.881300 -45.591340
6.873126 -21.995822 -29.620495
10.617224 -21.760583 -36.412128
10.118410 -21.791923 -42.513395
6.657675 -22.009358 -15.306470
7.246641 -21.972354 -10.225282
6.299026 -22.031893 -26.507658
8.657419 -21.883717 -14.671234
8.880540 -21.869698 -5.745532
6.189420 -22.038778 -29.642571
9.917863 -21.804523 -42.024797
6.861129 -21.996577 -16.689247
8.644300 -21.884541 -38.592891
6.771801 -22.002188 -17.433353
7.028152 -21.986081 -18.387687
10.052656 -21.796051 -4.701518
8.937315 -21.866130 -41.222171
8.374231 -21.901509 -19.795226
8.855683 -21.871259 -44.712069
6.783089 -22.001480 -22.765280
8.870541 -21.870324 -39.848961
7.703587 -21.943643 -6.712685
9.983604 -21.800392 -41.612709
8.184319 -21.913440 -16.701116
9.233810 -21.847501 -33.842528
6.630456 -22.011068 -22.997951
5.964756 -22.052895 -32.105588
8.332722 -21.904116 -11.690604
6.982405 -21.988958 -21.397487
9.616607 -21.823451 -27.081148
9.283208 -21.844397 -5.443995
10.650758 -21.758474 -52.785460
6.020668 -22.049381 -32.729743
8.105682 -21.918382 -8.211774
8.966257 -21.864310 -38.179391
6.927318 -21.992418 -26.588197
9.087079 -21.856720 -38.338486
7.901978 -21.931179 -11.736515
10.312782 -21.779709 -35.677030
10.161117 -21.789239 -41.741572
9.900026 -21.805642 -35.314380
9.273096 -21.845033 -36.986628
10.754687 -21.751944 -23.009946
5.996257 -22.050917 -27.854731
7.793149 -21.938016 -49.776997
7.760065 -21.940095 -15.892075
9.632256 -21.822467 -35.062436
8.907638 -21.867995 -42.454660
8.695982 -21.881293 -44.722404
11.117388 -21.729156 -39.716179
9.808360 -21.811403 -36.385160
9.855693 -21.808428 -45.589624
9.885506 -21.806556 -42.560828
8.747125 -21.878078 -17.316516
9.971419 -21.801157 -35.718939
9.405134 -21.836737 -34.883004
11.149972 -21.727111 -39.220386
7.403900 -21.962474 -15.496411
9.037760 -21.859819 -40.504004
6.638883 -22.010541 -5.709064
7.008070 -21.987346 -48.928104
7.286805 -21.969830 -21.826169
9.811825 -21.811187 -44.041890
6.552873 -22.015943 -25.724846
10.684682 -21.756343 -46.411335
6.378878 -22.026875 -19.668843
10.100550 -21.793045 -51.317356
8.503050 -21.893416 -44.558691
6.950034 -21.990988 -27.264833
8.350548 -21.902996 -44.476830
11.023382 -21.735064 -38.249570
8.424882 -21.898324 -11.106495
6.659274 -22.009259 -24.521495
7.615323 -21.949191 -17.739991
6.019189 -22.049475 -44.377312
10.391129 -21.774787 -28.018196
9.493733 -21.831171 -37.197829
9.398970 -21.837126 -11.986213
7.273789 -21.970648 -16.152718
9.934863 -21.803454 -35.886396
7.063946 -21.983833 -24.209937
6.397037 -22.025734 -21.718936
8.984566 -21.863160 -42.408084
8.484151 -21.894602 -40.956211
8.124303 -21.917212 -46.350794
8.890698 -21.869059 -45.474809
10.176140 -21.788293 -26.107115
9.822336 -21.810526 -49.867542
7.230198 -21.973388 -19.429456
7.814207 -21.936696 -12.808210
10.327428 -21.778789 -50.944312
9.831454 -21.809951 -44.830818
9.180731 -21.850835 -38.788786
6.536048 -22.017000 -15.648951
9.352624 -21.840037 -43.718061
10.047433 -21.796380 -41.672412
5.760029 -22.065756 -6.870461
8.737049 -21.878713 -45.470591
6.269066 -22.033775 -20.446748
7.492325 -21.956916 -30.897279
10.267605 -21.782547 -37.671231
9.249649 -21.846506 -43.163820
7.655684 -21.946655 -10.600014
7.599577 -21.950180 -16.739475
7.616395 -21.949123 -14.656525
6.883934 -21.995143 -25.954047
9.646940 -21.821546 -49.430387
6.890833 -21.994710 -14.908775
6.823656 -21.998930 -18.345835
6.330090 -22.029940 -15.577582
6.545978 -22.016377 -14.601235
10.845068 -21.746265 -38.014615
7.199104 -21.975342 -14.499156
5.385937 -22.089262 -26.106021
6.773013 -22.002112 -28.011236
8.892584 -21.868940 -35.535755
6.163378 -22.040415 -19.574335
10.486147 -21.768816 -34.341016
6.049568 -22.047566 -22.582795
7.819046 -21.936390 -46.671030
9.433902 -21.834931 -35.071243
7.904260 -21.931036 -11.059789
10.961089 -21.738976 -35.265227
8.949027 -21.865394 -43.870944
7.081450 -21.982733 -18.049885
6.488079 -22.020013 -21.150194
6.403021 -22.025358 -26.651215
9.320567 -21.842049 -34.346217
6.928708 -21.992329 -15.431370
8.026419 -21.923361 -16.643575
9.459646 -21.833313 -41.414866
7.341080 -21.966420 -30.762926
9.459760 -21.833305 -32.600185
6.536155 -22.016993 -19.301133
7.907029 -21.930863 -47.494209
11.450942 -21.708199 -34.776396
7.948688 -21.928246 -42.551657
5.891114 -22.057522 -17.325836
10.054411 -21.795942 -39.687497
6.827769 -21.998671 -24.624771
10.116204 -21.792060 -36.139467
7.122305 -21.980166 -23.009394
10.953532 -21.739451 -43.858247
10.260333 -21.783006 -23.113689
10.755753 -21.751879 -29.952245
8.680071 -21.882292 -37.916476
7.221155 -21.973956 -11.686211
8.048382 -21.921981 -11.097803
10.378043 -21.775607 -42.773431
9.508655 -21.830234 -47.621545
9.248669 -21.846568 -41.295446
8.551212 -21.890387 -41.348558
9.143939 -21.853146 -33.702692
9.786163 -21.812797 -36.796519
7.157472 -21.977955 -26.413069
7.646805 -21.947212 -13.904345
7.585863 -21.951041 -13.471415
8.566514 -21.889427 -14.545369
9.625803 -21.822873 -34.096450
8.121862 -21.917365 -12.303702
10.035129 -21.797154 -28.857139
9.921506 -21.804293 -42.656091
9.078704 -21.857247 -48.340612
7.748361 -21.940831 -15.677033
9.063567 -21.858197 -51.742873
6.325851 -22.030207 -28.848405
6.927845 -21.992384 -21.472639
8.581541 -21.888483 -48.597132
8.824869 -21.873196 -8.042174
9.273488 -21.845008 -43.728525
6.420333 -22.024270 -23.352737
9.808261 -21.811407 -51.849692
6.038739 -22.048245 -19.820530
9.887465 -21.806432 -30.308708
8.460600 -21.896082 -14.665600
8.679772 -21.882310 -49.846094
8.670013 -21.882923 -46.104683
10.122869 -21.791641 -52.611112
9.326529 -21.841676 -42.044651
9.801469 -21.811834 -45.745750
9.066412 -21.858019 -37.064898
6.238690 -22.035683 -25.456481
8.062527 -21.921092 -16.792683
10.878400 -21.744171 -47.086468
7.818658 -21.936416 -2.894737
10.477068 -21.769387 -31.074774
9.997444 -21.799521 -34.776366
10.414237 -21.773335 -44.134663
6.687831 -22.007465 -17.456423
10.646615 -21.758736 -16.587253
9.063914 -21.858175 -49.039810
9.930088 -21.803754 -43.369346
9.155895 -21.852395 -45.065411
7.139498 -21.979087 -14.960921
7.293261 -21.969425 -20.418606
9.748311 -21.815176 -44.290217
9.632964 -21.822423 -36.897145
7.525177 -21.954854 -13.784369
10.534459 -21.765782 -42.465867
10.157990 -21.789436 -29.268525
7.322870 -21.967564 -10.147758
9.940054 -21.803128 -34.289490
10.340485 -21.777969 -33.355997
6.631899 -22.010978 -27.141968
9.324294 -21.841817 -30.322117
7.993844 -21.925409 -45.623055
9.816244 -21.810907 -45.751294
7.785152 -21.938521 -12.867721
7.080664 -21.982782 -19.299256
9.804558 -21.811640 -33.136602
8.780637 -21.875974 -39.957027
11.230519 -21.722049 -34.395837
9.571961 -21.826254 -38.585403
7.614350 -21.949251 -44.884286
10.198319 -21.786901 -39.072010
8.409400 -21.899300 -47.808486
9.521161 -21.829448 -29.228342
10.397905 -21.774362 -29.394958
8.551674 -21.890359 -11.715325
10.580668 -21.762881 -29.791366
9.496360 -21.831005 -47.434698
9.421670 -21.835699 -34.147528
5.775617 -22.064779 -12.411696
8.796201 -21.874996 -37.644088
10.297488 -21.780670 -44.164697
7.836997 -21.935262 -17.293319
9.784606 -21.812895 -32.570810
8.937894 -21.866093 -34.339446
7.999589 -21.925047 -43.076052
6.877685 -21.995536 -21.170730
7.327015 -21.967305 -7.621264
7.452156 -21.959442 -11.324387
11.041313 -21.733935 -18.174429
8.582816 -21.888402 -37.105476
8.293939 -21.906555 -11.988507
6.190227 -22.038729 -26.975524
6.267118 -22.033898 -21.077874
7.501854 -21.956318 -12.645530
6.219554 -22.036887 -19.334095
8.767039 -21.876826 -45.506706
10.204991 -21.786480 -27.732973
7.591112 -21.950711 -8.989771
10.452798 -21.770913 -28.861851
11.060307 -21.732742 -44.880294
9.523449 -21.829304 -39.726983
8.164463 -21.914688 -19.578473
10.989638 -21.737183 -22.506130
8.728697 -21.879237 -53.960413
10.091464 -21.793614 -41.498551
6.119124 -22.043197 -37.186158
7.664415 -21.946105 -3.654172
6.621937 -22.011604 -33.317691
7.422813 -21.961285 -19.732926
7.119946 -21.980316 -17.045764
10.424495 -21.772691 -29.805144
9.032735 -21.860135 -9.015458
10.769608 -21.751007 -34.739135
8.813777 -21.873892 -50.394231
8.019023 -21.923827 -14.046404
9.697314 -21.818381 -52.692433
10.100164 -21.793068 -40.040242
10.399313 -21.774273 -31.911868
10.210340 -21.786146 -29.571979
6.465946 -22.021406 -25.439387
8.595135 -21.887628 -2.818123
6.880629 -21.995351 -14.415584
10.316252 -21.779491 -33.898063
7.002596 -21.987688 -11.859473
8.772237 -21.876502 -50.555760
9.304840 -21.843038 -51.159731
7.997632 -21.925169 -45.957029
7.264849 -21.971210 -21.252755
9.933548 -21.803537 -31.864793
6.847119 -21.997457 -13.242496
9.302983 -21.843154 -36.883563
9.876527 -21.807119 -52.492088
5.534445 -22.079931 -25.780944
6.743365 -22.003976 -19.975397
6.522030 -22.017882 -35.078956
7.316285 -21.967977 -5.932262
9.804177 -21.811664 -35.334106
9.841757 -21.809304 -52.866620
8.023031 -21.923574 -25.400104
8.637130 -21.884991 -39.203732
5.706073 -22.069148 -36.070797
8.329461 -21.904322 -52.830638
9.843445 -21.809200 -46.853988
7.715998 -21.942865 -48.059197
10.379922 -21.775490 -41.304041
10.446723 -21.771294 -27.860938
7.223244 -21.973824 -13.944411
7.117841 -21.980447 -16.710145
6.610256 -22.012337 -24.523489
7.731771 -21.941873 -27.465961
10.381549 -21.775388 -27.243595
9.538563 -21.828355 -36.913370
7.526411 -21.954777 -11.397403
10.078677 -21.794418 -33.513562
10.338137 -21.778117 -35.315969
6.931527 -21.992152 -23.647654
6.472278 -22.021007 -10.113691
7.072366 -21.983305 -31.593375
9.920479 -21.804358 -30.937895
6.852435 -21.997122 -20.459592
9.510079 -21.830143 -32.553825
6.581141 -22.014168 -29.974656
7.164540 -21.977513 -17.726355
8.787903 -21.875519 -49.881153
8.618351 -21.886170 -50.778362
9.507145 -21.830327 -47.811522
9.597572 -21.824646 -28.805688
9.010189 -21.861551 -31.762388
6.839196 -21.997955 -10.338411
7.966718 -21.927112 -8.171439
9.461302 -21.833207 -50.682397
8.929331 -21.866632 -10.111295
8.748071 -21.878019 -45.981800
6.747304 -22.003729 -17.604603
7.621426 -21.948807 -21.999747
8.536279 -21.891327 -9.657909
7.113185 -21.980739 -13.583965
7.739066 -21.941415 -20.903310
7.463569 -21.958726 -18.815902
10.184478 -21.787769 -27.633985
7.042692 -21.985169 -14.389613
6.641908 -22.010350 -20.261355
9.980554 -21.800584 -41.440668
8.182798 -21.913537 -43.230536
8.914012 -21.867595 -45.103838
7.031908 -21.985847 -7.741843
6.915948 -21.993132 -11.863647
9.671036 -21.820030 -36.172499
10.374699 -21.775820 -29.105992
9.794562 -21.812268 -33.509589
10.267960 -21.782526 -35.197042
10.619715 -21.760425 -46.686868
10.927189 -21.741108 -47.159213
10.270416 -21.782372 -50.399125
10.037278 -21.797019 -33.813832
9.009825 -21.861574 -45.998370
7.312331 -21.968228 -28.558237
7.539923 -21.953927 -15.837313
6.767514 -22.002457 -27.934790
9.640571 -21.821944 -39.694726
7.404557 -21.962434 -16.445487
10.194377 -21.787150 -32.412534
8.092076 -21.919236 -23.402258
8.341679 -21.903553 -23.065719
6.583843 -22.013998 -12.197587
8.896253 -21.868710 -39.134763
7.852847 -21.934267 -17.055314
6.856629 -21.996859 -28.871042
6.321044 -22.030509 -20.776273
8.998452 -21.862290 -32.865033
9.771803 -21.813699 -52.647579
9.023844 -21.860692 -13.387988
6.475857 -22.020782 -24.371411
9.342567 -21.840667 -34.404560
7.083799 -21.982585 -5.692183
7.045141 -21.985014 -37.377715
10.235188 -21.784585 -35.891891
8.586660 -21.888163 -14.409116
8.327391 -21.904451 -48.628334
9.218040 -21.848491 -41.542656
9.386600 -21.837902 1.405981
6.263769 -22.034108 -29.575018
7.333723 -21.966884 -5.878207
10.166100 -21.788925 -3.600884
10.970635 -21.738377 -19.111390
7.410778 -21.962041 -22.326169
10.705190 -21.755054 -27.581414
10.126891 -21.791388 -30.577977
6.889214 -21.994811 -20.628934
6.709707 -22.006090 -28.194748
9.185603 -21.850530 -44.666430
10.184397 -21.787777 -30.334128
9.866806 -21.807730 -8.094710
7.239206 -21.972821 -4.597685
10.348853 -21.777444 -35.389716
10.257880 -21.783159 -39.322987
9.272985 -21.845039 -34.999543
6.099419 -22.044434 -21.253012
5.531583 -22.080112 -38.480830
7.687401 -21.944662 -22.261873
6.643015 -22.010281 -28.550345
10.834944 -21.746903 -33.223389
8.212035 -21.911698 -21.506733
10.770835 -21.750928 -34.624493
11.181319 -21.725138 -22.356783
10.349478 -21.777404 -42.470366
8.977429 -21.863609 -33.378882
7.529840 -21.954561 -18.322099
8.488458 -21.894331 -39.526899
9.271218 -21.845151 -12.034009
9.217128 -21.848551 -45.449887
7.597526 -21.950311 -47.242369
7.838244 -21.935184 -20.393508
6.917705 -21.993021 -19.625623
8.403603 -21.899664 -21.400660
10.652391 -21.758373 -46.206030
9.272974 -21.845040 -32.998652
7.325146 -21.967421 -9.263623
7.483919 -21.957448 -11.536473
6.439623 -22.023059 -32.564430
10.852281 -21.745814 -37.050798
7.324363 -21.967470 -14.533349
8.948980 -21.865396 -12.060999
8.856815 -21.871188 -36.275749
10.782086 -21.750223 -35.779664
7.179484 -21.976573 -31.105515
6.326520 -22.030165 -21.115808
9.662611 -21.820560 -36.616957
9.547601 -21.827786 -28.894261
6.542796 -22.016575 -24.471401
10.543300 -21.765225 -42.188942
9.089050 -21.856596 -40.500738
7.045607 -21.984983 -13.354318
8.425864 -21.898264 -36.562065
7.689265 -21.944546 -17.977138
6.908620 -21.993593 -33.887876
10.694503 -21.755726 -33.420445
8.997119 -21.862372 -46.994608
8.002412 -21.924870 -6.952009
8.710551 -21.880378 -42.404263
5.226319 -22.099291 -7.259195
7.015332 -21.986887 -13.968875
9.649996 -21.821352 -27.886304
7.531493 -21.954458 -16.081309
8.455977 -21.896372 -9.262908
6.271634 -22.033614 -20.759647
9.171448 -21.851418 -37.408187
10.683893 -21.756393 -38.083276
7.931993 -21.929293 -12.443353
9.392584 -21.837525 -43.770540
10.958369 -21.739146 -30.863797
9.207436 -21.849157 -35.993311
10.762008 -21.751485 -38.015558
9.765813 -21.814073 -32.158485
7.309985 -21.968375 -13.867434
7.984150 -21.926016 -17.144844
8.667838 -21.883061 -5.229549
9.894117 -21.806015 -33.239168
8.614277 -21.886427 -49.372666
8.485997 -21.894486 -8.297568
9.973106 -21.801051 -39.878941
7.267246 -21.971060 -12.363909
6.738246 -22.004298 -20.263843
10.835272 -21.746881 -17.025296
7.372457 -21.964449 -8.698242
9.278023 -21.844724 -36.669392
7.040301 -21.985319 -15.449626
7.220437 -21.974002 -23.798601
6.041653 -22.048063 -37.608887
9.549169 -21.827688 -42.116250
9.159035 -21.852199 -43.484876
10.295588 -21.780790 -39.492857
6.458502 -22.021873 -19.998734
7.140914 -21.978998 -25.379496
9.138641 -21.853479 -35.439544
8.427739 -21.898147 -42.606473
7.569997 -21.952039 -19.083180
9.786394 -21.812782 -41.351465
6.071366 -22.046196 -26.881205
9.803995 -21.811676 -42.310178
7.839959 -21.935076 -12.949161
7.146877 -21.978622 -18.956113
5.143591 -22.104490 -12.880200
8.296601 -21.906386 -40.891248
10.611209 -21.760959 -35.984811
7.448597 -21.959665 -4.302854
8.655763 -21.883820 -35.240036
9.929058 -21.803818 -29.841147
7.266160 -21.971129 -8.958595
7.708739 -21.943321 -18.054340
8.809494 -21.874161 -46.647178
7.989720 -21.925666 -20.014797
5.407999 -22.087875 -11.820773
5.991441 -22.051219 -23.941797
7.556039 -21.952915 -10.074500
10.287594 -21.781294 -31.216403
7.175292 -21.976838 -18.248171
7.629709 -21.948285 -18.772944
10.326589 -21.778842 -26.808623
6.483312 -22.020314 -18.231895
6.758576 -22.003020 -20.836964
8.566783 -21.889410 -44.483034
8.919574 -21.867244 -43.825439
9.177300 -21.851052 -48.773118
9.469398 -21.832700 -42.761635
7.377957 -21.964103 -18.459017
7.641290 -21.947558 -48.917441
9.518679 -21.829603 -52.353362
10.026660 -21.797688 -48.676342
7.267190 -21.971064 -23.350377
6.209710 -22.037504 -34.460141
10.822741 -21.747668 -27.581204
6.738727 -22.004265 -18.325646
8.940306 -21.865941 -47.640177
8.498878 -21.893677 -50.903260
6.999609 -21.987877 -14.619616
8.716837 -21.879982 -4.879945
7.319738 -21.967761 -14.412494
9.178524 -21.850975 -40.062816
7.236630 -21.972984 -26.262366
10.634971 -21.759466 -34.661694
10.323189 -21.779055 -35.303163
6.800675 -22.000374 -22.615184
8.960364 -21.864682 -34.483092
10.963128 -21.738848 -46.965745
5.648137 -22.072787 -10.046819
8.842172 -21.872106 -6.630998
10.340737 -21.777955 -48.189640
8.509438 -21.893013 -47.064007
8.724775 -21.879483 -13.902766
6.675426 -22.008245 -12.764320
8.640982 -21.884748 -41.130724
8.345161 -21.903335 -50.734199
9.850162 -21.808777 -41.712096
8.345076 -21.903340 -13.276125
9.356727 -21.839779 -42.215630
9.637352 -21.822147 -41.258086
8.212902 -21.911644 -12.953211
9.989657 -21.800012 -34.445115
9.388711 -21.837769 -50.087489
6.596929 -22.013176 -21.678054
6.612771 -22.012181 -33.868349
5.958422 -22.053292 -27.501066
10.457312 -21.770628 -39.042107
10.517215 -21.766866 -33.796921
7.379297 -21.964019 -27.190242
6.482146 -22.020386 -26.955599
10.023704 -21.797874 -42.815918
6.504438 -22.018986 -28.445495
8.882915 -21.869548 -39.218749
8.783588 -21.875787 -41.867987
10.446690 -21.771297 -27.950348
5.824183 -22.061726 -21.022381
6.992158 -21.988343 -16.510762
8.770848 -21.876588 -8.978869
5.621616 -22.074454 -26.472758
7.087611 -21.982348 -21.156036
9.343819 -21.840589 -47.029459
5.993743 -22.051074 -32.806732
9.213393 -21.848785 -51.790339
6.902119 -21.994000 -25.994209
6.774030 -22.002048 -14.823593
7.535701 -21.954191 -12.115783
10.281679 -21.781664 -29.212221
9.440106 -21.834540 -37.264105
7.743051 -21.941167 -9.905519
10.411532 -21.773506 -54.628395
10.775856 -21.750615 -36.036527
9.780376 -21.813160 -38.672292
10.964342 -21.738772 -20.049624
10.140458 -21.790538 -32.349078
7.318967 -21.967809 -9.458103
7.847110 -21.934628 -15.313785
9.801107 -21.811858 -30.572207
11.179270 -21.725270 -40.283723
10.472133 -21.769696 -40.863504
7.896254 -21.931540 -23.079162
7.952475 -21.928005 -10.893490
7.216711 -21.974234 -14.612267
10.772795 -21.750808 -42.794855
6.297110 -22.032015 -16.377943
9.044988 -21.859365 -46.377593
8.528725 -21.891800 -46.879063
6.431062 -22.023596 -16.354358
8.037805 -21.922647 -9.889955
8.198117 -21.912572 -11.635597
10.015305 -21.798401 -31.073724
8.856799 -21.871188 -46.486738
9.888712 -21.806354 -42.204969
10.243493 -21.784063 -41.455718
9.318563 -21.842176 -43.162368
6.136308 -22.042117 -14.025694
6.157324 -22.040795 -19.473650
9.931281 -21.803679 -25.859471
8.249989 -21.909314 -43.973483
7.315908 -21.968002 -15.096793
9.875000 -21.807215 -51.455169
6.756778 -22.003133 -19.028103
7.717850 -21.942748 -18.065763
8.888731 -21.869181 -34.587628
11.081745 -21.731396 -45.610414
8.396958 -21.900080 -12.170383
6.584433 -22.013959 -20.659597
6.633643 -22.010869 -3.707970
9.395825 -21.837322 -38.067397
9.521135 -21.829448 -42.524849
9.327149 -21.841637 -39.159894
9.849571 -21.808812 -32.350276
10.089057 -21.793767 -30.256293
5.772706 -22.064960 -34.423150
6.198683 -22.038198 -17.276192
6.366450 -22.027656 -16.572201
10.069761 -21.794980 -44.675323
6.497512 -22.019422 -22.541770
7.908841 -21.930748 -43.823542
9.142550 -21.853234 -30.157453
8.209520 -21.911856 -11.239400
7.023913 -21.986347 -20.745545
10.910654 -21.742146 -32.739503
10.636838 -21.759350 -43.158838
6.964546 -21.990079 -10.755988
9.294996 -21.843658 -42.630265
6.771151 -22.002228 -18.068216
8.743705 -21.878295 -51.870400
9.380381 -21.838292 -26.644283
7.032923 -21.985781 -17.825712
7.011438 -21.987131 -19.366680
6.258265 -22.034454 -29.445613
5.990225 -22.051294 -22.759647
10.742351 -21.752719 -34.978026
7.511894 -21.955689 -24.147813
7.799563 -21.937614 -26.890724
11.068603 -21.732221 -30.001398
10.969396 -21.738455 -33.735475
6.232097 -22.036099 -26.886100
6.850444 -21.997248 -31.153804
6.740095 -22.004180 -21.392597
10.725901 -21.753754 -32.635086
10.006190 -21.798972 -37.788203
6.074160 -22.046022 -30.534799
6.864597 -21.996359 -29.288208
10.364305 -21.776473 -15.003976
10.497895 -21.768080 -52.710343
5.997865 -22.050815 -20.960632
7.592070 -21.950651 -46.442164
10.110625 -21.792412 -37.559052
8.064401 -21.920974 -22.133682
10.210372 -21.786144 -41.807755
9.335596 -21.841105 -7.408247
10.686258 -21.756244 -36.174689
10.377896 -21.775618 -37.163674
6.951094 -21.990925 -9.716178
7.897295 -21.931475 -21.249382
9.706810 -21.817782 -43.289865
5.767526 -22.065288 -34.933170
10.554240 -21.764538 -41.540232
7.367712 -21.964747 -27.148745
9.147250 -21.852939 -36.652958
10.219531 -21.785568 -40.968488
9.740508 -21.815666 -37.471504
6.961506 -21.990269 -9.922436
10.455878 -21.770719 -30.084572
6.716861 -22.005640 -15.124674
7.290470 -21.969600 -19.263752
6.891798 -21.994648 -18.427079
9.461556 -21.833191 -40.735892
9.187694 -21.850398 -46.733953
6.473445 -22.020935 -24.907017
9.156126 -21.852381 -46.180331
9.793174 -21.812356 -39.261205
6.653961 -22.009592 -10.928423
6.922139 -21.992742 -20.254440
7.859314 -21.933861 -12.225126
9.993942 -21.799743 -44.161118
9.997467 -21.799521 -41.099618
6.183110 -22.039176 -16.328639
7.798586 -21.937676 -21.023930
10.431778 -21.772232 -22.659015
6.142128 -22.041750 -16.623956
8.263821 -21.908445 -15.402347
6.972407 -21.989584 -15.678016
9.376450 -21.838539 -27.259767
9.539345 -21.828306 -34.361368
9.022479 -21.860780 -38.332928
8.949485 -21.865365 -6.311514
7.839304 -21.935117 -9.075262
7.401030 -21.962653 -13.018370
9.796662 -21.812138 -39.101994
6.200247 -22.038099 -9.058697
8.769147 -21.876696 -43.587487
9.392523 -21.837528 -31.181212
7.243226 -21.972570 -18.342797
8.395656 -21.900162 -40.735791
10.305841 -21.780146 -30.114461
7.008550 -21.987313 -10.601293
9.120745 -21.854605 -44.669250
7.440076 -21.960202 -12.510491
7.914009 -21.930424 -54.035724
9.011039 -21.861496 -41.296632
7.107186 -21.981116 -17.563022
7.936195 -21.929031 -6.827537
8.305648 -21.905818 -6.905310
8.946020 -21.865582 -50.292494
8.898230 -21.868585 -43.695016
7.430926 -21.960776 -13.709320
9.303060 -21.843149 -49.802514
6.853592 -21.997050 -12.529320
6.370329 -22.027412 -13.211259
8.192960 -21.912896 -9.125400
9.750101 -21.815064 -55.678513
6.177156 -22.039548 -15.459348
7.295861 -21.969263 -18.623188
9.469304 -21.832705 -41.116666
6.368876 -22.027504 -15.674672
7.840759 -21.935026 -10.658804
10.546845 -21.765004 -24.823523
8.547081 -21.890648 -47.474444
10.392063 -21.774730 -36.098301
9.342555 -21.840669 -35.192740
7.285541 -21.969909 -13.005579
7.814992 -21.936645 -17.547767
7.332917 -21.966934 -9.867879
9.733220 -21.816123 -38.040217
9.860479 -21.808127 -46.197515
9.754885 -21.814761 -36.836452
6.583124 -22.014043 -26.135291
9.248115 -21.846601 -37.006747
10.558286 -21.764286 -42.034189
7.251127 -21.972070 -15.920939
7.706060 -21.943489 -10.160836
10.360569 -21.776706 -46.912512
7.321493 -21.967650 -11.037094
10.746348 -21.752469 -33.512336
9.736018 -21.815948 -33.358551
8.465337 -21.895784 -33.419247
9.984761 -21.800319 -38.226722
7.432358 -21.960685 -8.756852
8.607262 -21.886867 -5.266538
10.378258 -21.775596 -40.616100
7.004182 -21.987588 -28.702417
5.652597 -22.072508 -22.181616
9.390698 -21.837643 -34.094313
7.063643 -21.983852 -49.148791
8.970875 -21.864021 -1.823821
10.158999 -21.789371 -46.194664
7.661454 -21.946292 -49.996409
9.227014 -21.847929 -45.638250
6.423218 -22.024089 -11.184562
10.950420 -21.739648 -22.721993
8.232860 -21.910389 -19.550692
6.979419 -21.989144 -25.236529
10.746457 -21.752462 -30.349949
9.838579 -21.809504 -38.809374
6.605196 -22.012658 -11.095217
8.691703 -21.881563 -17.670704
7.974866 -21.926600 -14.188108
10.154465 -21.789658 -42.197798
7.967329 -21.927073 -18.147349
7.326921 -21.967311 -15.073039
10.401625 -21.774128 -44.185346
6.413614 -22.024692 -25.132682
10.971156 -21.738342 -29.967587
5.631675 -22.073824 -28.657359
7.947179 -21.928339 -9.530858
6.819323 -21.999202 -11.484103
8.156845 -21.915165 -45.755964
9.169045 -21.851571 -37.392121
6.628871 -22.011168 -31.721835
6.264372 -22.034068 -33.158891
8.759734 -21.877286 -34.298682
9.881619 -21.806798 -45.027366
6.924326 -21.992605 -4.647075
9.477566 -21.832187 -39.559282
9.454579 -21.833630 -45.681958
10.419736 -21.772988 -38.402124
9.319825 -21.842097 -34.404060
5.521025 -22.080775 -34.458646
10.204481 -21.786512 -47.781406
5.772840 -22.064953 -21.256553
6.462319 -22.021634 -13.778195
10.587476 -21.762451 -33.291822
5.815706 -22.062259 -21.705982
8.845041 -21.871926 -37.590047
8.211098 -21.911757 -48.284255
6.351992 -22.028566 -17.330039
6.984299 -21.988837 -20.444945
6.884676 -21.995096 -13.767192
8.482785 -21.894688 -48.804767
10.221031 -21.785474 -28.068126
8.157951 -21.915096 -17.180449
9.269240 -21.845274 -13.512523
8.203137 -21.912259 -41.233871
9.810114 -21.811292 -48.706579
9.630085 -21.822605 -28.394942
6.999226 -21.987899 -29.541668
9.412250 -21.836290 -42.985331
8.494184 -21.893972 -45.188131
9.787888 -21.812689 -27.454676
6.325584 -22.030224 -28.368324
8.105423 -21.918397 -14.476384
10.964260 -21.738776 -36.104303
9.488532 -21.831497 -34.056668
10.270568 -21.782362 -37.126112
10.166256 -21.788916 -39.669216
7.843444 -21.934856 -53.925380
7.030269 -21.985948 -14.448857
9.603897 -21.824247 -45.547187
8.567695 -21.889354 -45.724591
9.535883 -21.828523 -39.350068
7.897092 -21.931487 -11.440184
9.037872 -21.859813 -49.659889
9.617492 -21.823394 -39.518011
6.205092 -22.037794 -41.502255
9.505791 -21.830413 -40.206769
6.879626 -21.995414 -26.788861
10.492035 -21.768446 -21.771048
7.528183 -21.954666 -44.691120
8.280670 -21.907387 -41.621042
9.810257 -21.811282 -27.607944
5.715388 -22.068563 -22.333441
10.205821 -21.786430 -34.206064
7.012932 -21.987038 -14.079949
7.811680 -21.936854 -20.776171
7.107270 -21.981111 -12.084008
9.100988 -21.855846 -31.990736
5.857204 -22.059652 -26.139578
10.176294 -21.788286 -30.751349
6.630316 -22.011077 -20.197433
9.831215 -21.809966 -43.305984
6.263651 -22.034116 -34.236970
10.955752 -21.739313 -23.408422
10.319640 -21.779278 -32.202792
7.427329 -21.961000 -30.148160
8.904556 -21.868189 -9.568431
10.264413 -21.782748 -28.074026
9.640961 -21.821921 -39.523110
6.324797 -22.030273 -26.201825
7.464327 -21.958677 -15.226849
7.559955 -21.952668 -15.176172
7.451489 -21.959484 -13.505319
7.847287 -21.934614 -56.505125
7.376724 -21.964183 -20.039085
7.595873 -21.950412 -19.036259
9.521055 -21.829454 -37.157606
7.815200 -21.936633 -49.561623
6.403619 -22.025322 -11.012521
8.805767 -21.874393 -27.837838
10.391009 -21.774796 -43.044751
10.271474 -21.782305 -44.003948
5.931627 -22.054976 -16.803874
10.099681 -21.793100 -34.559203
5.794903 -22.063567 -8.447634
8.133649 -21.916624 -10.780144
10.802422 -21.748946 -33.161762
6.989215 -21.988528 -17.212758
7.690866 -21.944444 -10.356232
6.199343 -22.038154 -20.375673
7.143293 -21.978848 -5.136991
7.355446 -21.965518 -26.505014
7.193538 -21.975691 -13.879778
9.965485 -21.801529 -51.031416
5.621272 -22.074476 -20.139720
6.432327 -22.023517 -13.457651
8.711060 -21.880347 -43.249498
7.618918 -21.948964 -8.631477
7.141226 -21.978978 -20.745048
10.931944 -21.740808 -43.055216
9.097125 -21.856088 -28.399014
9.266051 -21.845476 -30.060040
10.892288 -21.743300 -24.713190
6.893089 -21.994569 -11.125957
7.922515 -21.929890 -24.777294
8.799152 -21.874810 -52.003188
6.921547 -21.992780 -13.579715
8.930701 -21.866545 -39.856411
8.396031 -21.900138 -9.934027
7.295938 -21.969258 -48.002805
6.170577 -22.039963 -18.565637
6.600601 -22.012944 -15.851892
9.103283 -21.855703 -39.867097
7.153561 -21.978203 -25.776161
10.007216 -21.798907 -32.915021
10.821823 -21.747726 -45.294090
10.572615 -21.763385 -47.368931
8.392321 -21.900371 -40.134090
7.714569 -21.942957 -7.443441
9.266947 -21.845420 -31.456916
10.278918 -21.781836 -40.989742
10.260834 -21.782974 -35.750244
5.842970 -22.060548 -15.892997
10.429425 -21.772380 -27.913987
6.603476 -22.012766 -26.965499
9.901993 -21.805519 -39.561427
7.409823 -21.962102 -12.838005
10.609640 -21.761058 -22.268111
9.047177 -21.859226 -42.995934
7.216766 -21.974232 -27.637371
8.963728 -21.864470 -28.656501
10.749100 -21.752296 -45.808337
10.461071 -21.770391 -22.890744
10.220848 -21.785487 -31.216666
8.970624 -21.864036 -44.951978
10.836151 -21.746826 -32.334573
7.746948 -21.940921 -8.729990
5.418657 -22.087207 -41.584421
9.230665 -21.847697 -36.470910
6.154969 -22.040944 -11.259823
8.270133 -21.908049 -12.228876
8.040847 -21.922455 -12.745727
8.552980 -21.890278 -45.870359
7.075761 -21.983092 -28.261093
8.155756 -21.915235 -39.272660
10.790235 -21.749711 -48.222530
9.290718 -21.843928 -7.873255
6.284622 -22.032800 -25.743872
10.793587 -21.749499 -36.366951
8.805301 -21.874424 -6.513171
9.627860 -21.822742 -35.185666
10.817075 -21.748024 -21.679015
5.857872 -22.059610 -31.146366
7.472982 -21.958135 -12.769749
10.012495 -21.798576 -36.034696
8.702960 -21.880855 -36.498448
9.012525 -21.861406 -46.904991
7.639016 -21.947700 -50.544906
5.950005 -22.053821 -20.806576
6.120195 -22.043129 -20.898599
9.726143 -21.816567 -38.048698
8.718744 -21.879862 -48.671861
8.907829 -21.867984 -33.768667
7.712536 -21.943081 -18.258644
5.879278 -22.058264 -19.494461
7.724593 -21.942326 -18.938210
7.224920 -21.973719 -12.107764
6.598435 -22.013080 -30.376240
8.784777 -21.875713 -38.501437
10.003793 -21.799124 -45.840118
7.805990 -21.937210 -9.959440
6.633656 -22.010868 -28.590698
7.280617 -21.970220 -12.314643
6.294134 -22.032200 -31.238186
6.309103 -22.031262 -12.086203
10.262645 -21.782859 -46.776378
7.158492 -21.977891 -15.334487
8.572559 -21.889047 -42.323412
10.150483 -21.789906 -54.939312
9.327600 -21.841609 -10.498671
8.982444 -21.863294 -32.491562
6.415690 -22.024563 -19.824722
10.077191 -21.794511 -44.409711
10.152712 -21.789766 -39.020834
8.291738 -21.906690 -38.541290
7.004210 -21.987586 -16.359835
10.409642 -21.773623 -38.141393
7.164353 -21.977526 -16.272932
7.086504 -21.982416 -12.115299
8.479905 -21.894869 -4.971224
6.378572 -22.026895 -31.298711
9.389420 -21.837724 -33.382539
10.759808 -21.751624 -23.082384
8.305288 -21.905839 -44.495819
