34.737035 6.969902 -37.799912
34.675192 7.954301 -46.783918
34.697972 7.591715 -50.283391
34.788379 6.152693 -46.400823
34.780136 6.283882 -25.721079
34.621361 8.811075 -14.622555
34.729944 7.082823 -45.994399
34.836848 5.381191 -38.610505
34.570540 9.620063 -19.434517
34.562284 9.751430 -22.252288
34.695422 7.632291 -5.187678
34.758975 6.620687 -31.151246
34.635197 8.590891 -20.027851
34.711225 7.380746 -9.611566
34.600870 9.137260 -18.169550
34.695281 7.634528 -48.293199
34.552674 9.904419 -23.676785
34.579752 9.473394 -5.255740
34.569162 9.641966 -30.524195
34.811016 5.792377 -41.995227
34.807612 5.846527 -49.862270
34.799840 5.970232 -41.894671
34.798168 5.996885 -48.474853
34.706847 7.450450 -37.478911
34.617174 8.877740 -31.819413
34.782224 6.250689 -43.040718
34.590088 9.308881 -14.631900
34.592252 9.274437 -26.316085
34.585969 9.374411 -18.040356
34.557448 9.828398 -28.128207
34.582705 9.426386 -31.989991
34.576054 9.532245 -31.604382
34.605215 9.068114 -12.741270
34.614369 8.922432 -23.347353
34.756506 6.660045 -24.639533
34.698420 7.584570 -52.915634
34.615580 8.903118 -9.720105
34.607323 9.034565 -25.039962
34.839085 5.345639 -41.666390
34.611744 8.964208 -28.082387
34.609677 8.997086 -16.457884
34.596251 9.210779 -14.363659
34.584249 9.401786 -48.868260
34.811416 5.785998 -41.719485
34.732698 7.038965 -42.610830
34.761388 6.582329 -41.922802
34.711793 7.371686 -37.418399
34.653219 8.304077 -14.526939
34.604774 9.075174 -11.739256
34.813047 5.760021 -22.848945
34.541677 10.079423 -8.525263
34.772086 6.412004 -33.566933
34.631183 8.654749 -53.020093
34.556469 9.844001 -39.840648
34.742665 6.880333 -30.985301
34.643617 8.456808 -16.396075
34.597523 9.190513 -27.783751
34.615429 8.905507 -21.630972
34.597710 9.187554 -17.872279
34.569651 9.634184 -21.059340
34.517015 10.471987 -20.358329
34.690369 7.712702 -40.960070
34.622967 8.785548 -56.586086
34.573974 9.565388 -15.448475
34.522090 10.391193 -22.361171
34.600952 9.135974 -29.480110
34.693935 7.655975 -41.734929
34.705488 7.472110 -5.926718
34.705201 7.476648 -43.636177
34.716073 7.303611 -42.270491
34.784295 6.217692 -42.819217
34.602513 9.111064 -17.744468
34.534463 10.194295 -36.443683
34.799075 5.982439 -43.428038
34.526027 10.328549 -26.538873
34.787513 6.166457 -39.694230
34.767807 6.480102 -45.570425
34.678870 7.895728 -14.106545
34.767311 6.488014 -32.577318
34.771273 6.424950 -35.516115
34.677698 7.914379 -42.819494
34.805412 5.881588 -45.158633
34.749933 6.764642 -48.701970
34.683431 7.823142 -6.553443
34.766964 6.493534 -35.495097
34.759388 6.614149 -36.303951
34.738701 6.943431 -49.553660
34.668691 8.057758 -10.678346
34.563665 9.729459 -25.410545
34.635926 8.579238 -5.727818
34.734058 7.017340 -35.431928
34.650373 8.349325 -13.936203
34.564735 9.712463 -19.228513
34.555789 9.854802 -26.618574
34.540113 10.104352 -22.296323
34.841524 5.306805 -29.521962
34.604004 9.087388 -22.510878
34.719590 7.247603 -47.995189
34.616508 8.888341 -15.695551
34.636804 8.565304 -12.355428
34.748158 6.792889 -34.299954
34.703621 7.501804 -39.468281
34.632867 8.628007 -14.087492
34.569755 9.632503 -15.548436
34.657748 8.231898 -44.120994
34.560305 9.782944 -27.953640
34.543747 10.046444 -16.141884
34.687949 7.751250 -49.283916
34.665092 8.115060 -14.836755
34.662896 8.149975 -49.080434
34.596323 9.209604 -12.473689
34.675236 7.953575 -18.361398
34.683616 7.820199 -42.875634
34.772764 6.401216 -20.726150
34.540950 10.090986 -24.246838
34.804430 5.897212 -42.985129
34.640273 8.510045 -6.230940
34.629007 8.689394 -18.442814
34.703943 7.496646 -43.223884
34.818543 5.672570 -41.227595
34.685831 7.784917 -17.578328
34.748345 6.789890 -43.860122
34.706189 7.460885 -52.155922
34.585574 9.380736 -18.537415
34.842867 5.285391 -24.527986
34.833857 5.428814 -33.227200
34.592946 9.263390 -27.314102
34.592454 9.271205 -11.351091
34.754082 6.698571 -54.006250
34.797676 6.004750 -34.635512
34.595328 9.225483 -24.840829
34.802178 5.933022 -42.652946
34.671953 8.005859 -10.396864
34.699815 7.562381 -9.540051
34.862415 4.974255 -15.404320
34.643335 8.461323 -18.695667
34.565876 9.694252 -16.703943
34.782332 6.248957 -31.615751
34.774610 6.371825 -31.358099
34.803873 5.906107 -39.878878
34.781485 6.262452 -46.807115
34.561510 9.763747 -30.238489
34.576181 9.530230 -15.967674
34.615381 8.906301 -17.639028
34.819667 5.654668 -32.001152
34.562183 9.753053 -29.460432
34.614170 8.925560 -22.768622
34.811339 5.787195 -31.166502
34.728654 7.103305 -51.407355
34.514625 10.510003 -28.094836
34.577205 9.513907 -12.855976
34.805889 5.874012 -26.363508
34.708092 7.430623 -45.626346
34.737612 6.960727 -35.892803
34.737200 6.967363 -47.797020
34.798986 5.983910 -32.549331
34.675448 7.950201 -49.090404
34.695608 7.629327 -44.953715
34.803617 5.910142 -32.458585
34.646962 8.403659 -7.813988
34.733356 7.028486 -45.027127
34.676165 7.938801 -21.220559
34.787907 6.160186 -44.489409
34.731811 7.053065 -9.748975
34.664901 8.118091 -8.202080
34.784814 6.209451 -36.216046
34.842617 5.289349 -42.771426
34.770535 6.436715 -45.792957
34.753923 6.701118 -31.529224
34.612441 8.953094 -6.931827
34.656429 8.252928 -13.062670
34.785066 6.205402 -34.972682
34.513108 10.534150 -26.445257
34.602018 9.118997 -21.120856
34.613100 8.942573 -12.231358
34.685127 7.796171 -40.733131
34.584627 9.395787 -15.763219
34.670399 8.030552 -49.874013
34.756576 6.658917 -24.123784
34.762668 6.561884 -45.829978
34.607103 9.038037 -6.783574
34.667838 8.071355 -46.066605
34.798625 5.989618 -51.440174
34.561761 9.759776 -21.475201
34.674594 7.963824 -43.051191
34.620765 8.820622 -12.488080
34.580290 9.464837 -11.798652
34.753854 6.702255 -36.383496
34.647583 8.393761 -20.725040
34.569845 9.631053 -13.212792
34.602139 9.117034 -15.163710
34.857444 5.053387 -34.860772
34.645443 8.427801 -25.243801
34.635908 8.579546 -47.944554
34.771056 6.428420 -46.996452
34.746977 6.811666 -38.371846
34.726799 7.132866 -36.272134
34.536031 10.169329 -21.917089
34.596770 9.202512 -18.182093
34.642350 8.477014 -47.870125
34.803860 5.906289 -44.246120
34.619772 8.836423 -23.998218
34.560490 9.779990 -12.008243
34.540594 10.096681 -27.547412
34.807361 5.850503 -39.026917
34.811162 5.790070 -43.086595
34.699863 7.561594 -40.560980
34.633939 8.610903 -12.741291
34.542925 10.059568 -23.469690
34.589036 9.325604 -13.460346
34.572671 9.586106 -19.585807
34.764424 6.534014 -38.803939
34.581479 9.445921 -34.617907
34.644573 8.441639 -16.963354
34.581541 9.444933 -9.010110
34.564309 9.719199 -30.242041
34.532872 10.219582 -16.763490
34.668193 8.065650 -15.089616
34.661285 8.175640 -18.405369
34.856022 5.076003 -27.062728
34.740212 6.919346 -50.266284
34.662630 8.154207 -11.624515
34.668851 8.055211 -12.912940
34.550543 9.938311 -25.166266
34.568516 9.652244 -21.779042
34.576485 9.525404 -17.352979
34.713007 7.352376 -45.823242
34.490333 10.896690 -25.895817
34.658457 8.220679 -10.363715
34.625395 8.746888 -11.506749
34.693971 7.655384 -40.401558
34.785599 6.196911 -52.769315
34.586624 9.364001 -25.950747
34.493265 10.849986 -49.672859
34.601380 9.129141 -17.561006
34.563285 9.735472 -11.800238
34.687324 7.761209 -54.243163
34.552129 9.913068 -13.910474
34.577049 9.516416 -3.074036
34.567438 9.669396 -13.149497
34.794855 6.049596 -41.185432
34.647965 8.387657 -10.612686
34.634980 8.594320 -56.126774
34.803990 5.904193 -35.412991
34.748104 6.793750 -31.919667
34.540080 10.104874 -37.759318
34.528338 10.291761 -7.289707
34.737275 6.966114 -35.200056
34.852529 5.131628 -41.333180
34.639273 8.526001 -16.954094
34.567588 9.667009 -21.265040
34.610842 8.978549 -15.085044
34.507138 10.629142 -38.748909
34.674574 7.964162 -51.753026
34.603173 9.100578 -25.542655
34.725430 7.154626 -44.822510
34.752161 6.729175 -39.976897
34.667236 8.080924 -42.618765
34.516004 10.488092 -19.820371
34.636383 8.571979 -27.723548
34.661198 8.177028 -19.957513
34.593165 9.259866 -14.476587
34.698088 7.589853 -48.211207
34.710434 7.393341 -41.734899
34.579897 9.471107 -13.492078
34.807537 5.847731 -31.874196
34.616489 8.888650 -10.601544
34.717368 7.282982 -12.189407
34.637069 8.561090 -14.973121
34.778450 6.310729 -25.318923
34.680215 7.874325 -46.089916
34.784564 6.213419 -33.743653
34.568615 9.650647 -12.120105
34.802995 5.920053 -45.637621
34.766504 6.500839 -37.099874
34.605395 9.065215 -22.359143
34.644665 8.440193 -21.276428
34.637394 8.555938 -6.547388
34.782687 6.243316 -45.894341
34.818635 5.671127 -44.890373
34.672316 8.000075 -51.293251
34.613655 8.933784 -21.576681
34.735233 6.998615 -45.268818
34.790377 6.120909 -41.378720
34.560742 9.775965 -28.798120
34.561932 9.757021 -22.541522
34.705217 7.476346 -20.222134
34.550614 9.937206 -31.258670
34.643067 8.465633 -8.452354
34.727193 7.126571 -40.965540
34.785755 6.194464 -31.530249
34.786933 6.175708 -36.833742
34.626220 8.733775 -11.968752
34.596537 9.206241 -26.258302
34.674752 7.961311 -7.220774
34.626284 8.732736 -24.134146
34.601298 9.130437 -27.987328
34.678898 7.895296 -10.514522
34.770216 6.441839 -38.726441
34.770103 6.443594 -27.984091
34.613452 8.936990 -7.673147
34.569703 9.633311 -17.664938
34.688410 7.743907 -36.234407
34.583664 9.411139 -10.968450
34.768876 6.463144 -47.977454
34.579726 9.473836 -14.166406
34.602759 9.107185 -14.872893
34.679644 7.883442 -53.461742
34.724615 7.167640 -40.101163
34.550880 9.932954 -9.040721
34.742844 6.877475 -31.540402
34.782022 6.253874 -38.342399
34.713134 7.350351 -37.968323
34.755398 6.677611 -37.729428
34.618016 8.864354 -20.313932
34.515473 10.496555 -25.944588
34.619589 8.839316 -17.734627
34.805176 5.885342 -48.726055
34.773798 6.384771 -37.574272
34.555820 9.854321 -7.141895
34.636271 8.573766 -23.222167
34.602641 9.109038 -12.417401
34.841012 5.314944 -39.072654
34.791903 6.096644 -32.984338
34.689311 7.729563 -53.860237
34.590139 9.308111 -27.177796
34.618173 8.861830 -28.750323
34.555925 9.852651 -35.194166
34.757558 6.643270 -27.792557
34.673130 7.987097 -39.403000
34.668795 8.056111 -14.902043
34.601589 9.125804 -20.728496
34.821412 5.626889 -25.548052
34.734447 7.011120 -51.543488
34.746064 6.826232 -38.883435
34.546200 10.007458 -14.869588
34.707331 7.442736 -30.724298
34.823304 5.596771 -47.309810
34.541891 10.076039 -24.278369
34.784206 6.219079 -40.478424
34.618283 8.860097 -15.406553
34.648439 8.380086 -15.594910
34.760967 6.588971 -36.746586
34.785475 6.198926 -32.738618
34.642088 8.481199 -12.382992
34.612157 8.957615 -16.682349
34.574068 9.563882 -12.183667
34.762955 6.557379 -40.535746
34.622131 8.798862 -6.362787
34.673136 7.986995 -47.962663
34.658918 8.213333 -18.749198
34.772112 6.411644 -41.500854
34.774939 6.366614 -38.857609
34.547152 9.992339 -18.157590
34.730023 7.081571 -39.142297
34.589046 9.325461 -34.900556
34.774172 6.378848 -34.590010
34.772478 6.405816 -37.941439
34.794164 6.060580 -41.679717
34.777425 6.327060 -30.772709
34.772136 6.411235 -44.368649
34.583901 9.407380 -15.675621
34.548506 9.970762 -25.923886
34.640810 8.501525 -14.726815
34.639739 8.518611 -12.040244
34.776857 6.336102 -44.768519
34.765063 6.523835 -9.104982
34.816503 5.705028 -30.599424
34.686535 7.773726 -37.725737
34.518086 10.454898 -20.070769
34.751854 6.734058 -36.087290
34.725154 7.159046 -39.582147
34.650726 8.343722 -17.323747
34.593402 9.256124 -20.353880
34.688877 7.736477 -5.505219
34.546866 9.996824 -10.845041
34.596331 9.209518 -24.932057
34.716379 7.298695 -3.104093
34.728316 7.108722 -47.539197
34.599604 9.157431 -20.999435
34.582438 9.430667 -22.540268
34.714271 7.332255 -5.679977
34.795908 6.032836 -48.077987
34.567882 9.662319 -37.846204
34.578874 9.487352 -31.799809
34.573600 9.571370 -24.980077
34.713699 7.341377 -55.157681
34.546572 10.001512 -14.472259
34.729990 7.082084 -38.706302
34.582931 9.422814 -15.206691
34.735082 7.000999 -38.874273
34.776072 6.348602 -25.002170
34.628186 8.702481 -19.361591
34.780432 6.279158 -46.527511
34.710288 7.395655 -51.799302
34.538265 10.133753 -14.577299
34.647532 8.394602 -14.383592
34.725854 7.147893 -36.317857
34.630287 8.669027 -28.761117
34.783653 6.227931 -29.035845
34.606647 9.045331 -21.542593
34.781773 6.257835 -43.421012
34.843048 5.282562 -33.914210
34.675206 7.954046 -40.790882
34.725906 7.147053 -43.266552
34.664320 8.127296 -14.011481
34.734817 7.005276 -47.772399
34.555211 9.864023 -22.010907
34.635682 8.583172 -23.369929
34.699338 7.569967 -45.527464
34.587830 9.344837 -19.585975
34.663695 8.137280 -4.781783
34.701592 7.534054 -18.056074
34.703631 7.501607 -42.570026
34.714601 7.327062 -43.683478
34.798499 5.991628 -42.664362
34.539438 10.115124 -24.771442
34.671806 8.008158 -15.474278
34.604584 9.078155 -16.930014
34.747373 6.805375 -27.350522
34.568094 9.658984 -23.532752
34.703073 7.510489 -44.595088
34.709286 7.411617 -47.017182
34.840305 5.326202 -33.869910
34.800732 5.956037 -31.549148
34.771003 6.429279 -28.261546
34.651006 8.339221 -21.168367
34.769562 6.452242 -35.437292
34.632403 8.635350 -50.454162
34.553897 9.884949 -29.228985
34.696135 7.620908 -54.104024
34.793594 6.069687 -38.744027
34.743257 6.870897 -46.782347
34.537692 10.142862 -14.318008
34.755666 6.673360 -29.953793
34.647321 8.397895 -48.724219
34.751203 6.744451 -41.370489
34.729405 7.091368 -40.980892
34.590077 9.309028 -20.396282
34.749113 6.777707 -46.401797
34.725369 7.155639 -3.400913
34.708396 7.425749 -14.450102
34.632488 8.633967 -53.011688
34.595828 9.217542 -11.901236
34.522191 10.389580 -19.681987
34.611415 8.969411 -13.962804
34.588395 9.335846 -27.992715
34.794728 6.051623 -33.284876
34.609268 9.003584 -12.908304
34.821774 5.621139 -32.944723
34.727966 7.114278 -42.115469
34.739934 6.923812 -49.115765
34.844476 5.259846 -31.612472
34.618348 8.859053 -28.039011
34.565795 9.695543 -5.087872
34.670113 8.035109 -47.342916
34.561895 9.757630 -23.345445
34.696485 7.615358 -45.914389
34.707474 7.440407 -52.666722
34.616685 8.885533 -13.112468
34.567613 9.666619 -29.244715
34.621873 8.802933 -22.268393
34.696521 7.614825 -42.317205
34.795496 6.039400 -27.205556
34.726544 7.136951 0.142488
34.713188 7.349507 -16.340610
34.810968 5.793142 -25.222693
34.577820 9.504145 -11.939623
34.601966 9.119789 -20.851708
34.673358 7.983448 -7.371520
34.588228 9.338475 -21.988436
34.760544 6.595757 -26.507568
34.867342 4.895873 -17.958458
34.583297 9.416976 -14.918449
34.754617 6.690062 -47.480490
34.627347 8.715861 -24.153849
34.612601 8.950558 -12.819292
34.694757 7.642860 -7.415440
34.559909 9.789228 -21.248386
34.717594 7.279356 -9.844191
34.790494 6.119048 -31.407280
34.748661 6.784862 -42.586896
34.654354 8.285975 -13.309409
34.807341 5.850904 -47.889864
34.720161 7.238550 -49.256210
34.853979 5.108529 -24.069634
34.724219 7.173909 -34.703306
34.788045 6.158013 -27.082530
34.605931 9.056709 -16.806646
34.511177 10.564891 -28.658955
34.621986 8.801125 -15.505354
34.733083 7.032842 -50.606916
34.809330 5.819227 -27.193389
34.638881 8.532243 -26.029885
34.644440 8.443760 -40.789425
34.824855 5.572113 -34.525685
34.794233 6.059538 -22.942018
34.776117 6.347847 -34.962526
34.582441 9.430602 -21.919146
34.553760 9.887078 -16.914902
34.804679 5.893212 -41.926024
34.759887 6.606172 -43.048798
34.732177 7.047267 -36.663797
34.623757 8.772952 -12.505257
34.667809 8.071784 -44.191499
34.645207 8.431580 -25.616520
34.775656 6.355187 -34.349503
34.830402 5.483778 -52.887996
34.787013 6.174483 -33.584975
34.725827 7.148308 -49.872114
34.772024 6.412992 -39.982777
34.611643 8.965801 -8.319088
34.558829 9.806417 -25.061418
34.697651 7.596844 -46.610256
34.805125 5.886134 -28.389217
34.829064 5.505129 -27.937736
34.629419 8.682826 -17.607352
34.719606 7.247365 -34.421081
34.812075 5.775554 -41.218542
34.799627 5.973670 -21.500443
34.765211 6.521441 -47.562593
34.776182 6.346880 -47.432739
34.555439 9.860376 -13.317080
34.559566 9.794703 -16.800050
34.519606 10.430758 -18.406471
34.762302 6.567772 -6.336462
34.759322 6.615177 -35.578338
34.614435 8.921390 -21.227705
34.618249 8.860667 -19.425934
34.646008 8.418776 -21.651953
34.825272 5.565474 -41.510697
34.738299 6.949792 -45.242643
34.578732 9.489647 -12.878799
34.643179 8.463817 -27.330633
34.517149 10.469874 -33.631823
34.834049 5.425792 -31.663998
34.785399 6.200163 -34.160324
34.583001 9.421656 -18.911239
34.560736 9.776081 -35.191210
34.740397 6.916415 -41.324445
34.728654 7.103317 -45.776189
34.607749 9.027783 -22.795497
34.709075 7.414961 -41.752920
34.788827 6.145547 -34.819789
34.793668 6.068509 -47.280140
34.658329 8.222715 -43.775236
34.778721 6.306436 -45.043639
34.586356 9.368278 -23.185609
34.749392 6.773245 -42.155063
34.588935 9.327201 -14.765128
34.528147 10.294772 -29.430069
34.581570 9.444449 -18.909600
34.767946 6.477962 -41.163138
34.596856 9.201128 -25.516000
34.841797 5.302410 -31.032675
34.775302 6.360844 -36.396912
34.729633 7.087788 -45.149875
34.700288 7.554822 -38.464125
34.667686 8.073724 -17.983859
34.728960 7.098476 -10.006821
34.645680 8.424035 -15.695886
34.510700 10.572482 -36.244505
34.556715 9.840069 -21.661319
34.753102 6.714181 -34.214093
34.602133 9.117155 -25.984178
34.591082 9.293061 -13.243811
34.808232 5.836725 -33.870498
34.667177 8.081853 -10.942740
34.557580 9.826325 -14.056816
34.764534 6.532250 -40.110659
34.745621 6.833235 -40.379718
34.697635 7.597060 -38.528826
34.591954 9.279165 -16.040991
34.572182 9.593853 -10.386204
34.668374 8.062792 -19.078996
34.726503 7.137570 -42.218415
34.751965 6.732323 -12.891507
34.738491 6.946757 -29.595901
34.601448 9.128034 -15.849059
34.593328 9.257293 -20.116366
34.679865 7.879884 -37.817530
34.556767 9.839209 -29.547236
34.798052 5.998713 -31.771547
34.626783 8.724802 -3.093452
34.645018 8.434540 -13.925059
34.682772 7.833631 -18.130931
34.666804 8.087806 -17.362409
34.703240 7.507864 -17.350530
34.639895 8.516120 -22.735589
34.660196 8.193014 -12.853485
34.705324 7.474671 -39.233879
34.769678 6.450342 -27.643968
34.771456 6.422016 -33.554746
34.833167 5.439839 -30.201154
34.735715 6.990918 -47.946991
34.716886 7.290678 -46.683517
34.786256 6.186478 -34.716790
34.512972 10.536362 -26.183464
34.742834 6.877615 -40.314593
34.705325 7.474662 -37.646751
34.615264 8.908135 -23.433485
34.801896 5.937512 -40.111140
34.608883 9.009693 -12.443082
34.580116 9.467633 -28.631199
34.552229 9.911459 -9.633321
34.729036 7.097238 -12.455784
34.845411 5.244910 -29.459358
34.556150 9.849093 -12.354175
34.820830 5.636166 -28.817565
34.543406 10.051922 -23.266378
34.609223 9.004310 -8.708066
34.761432 6.581606 -34.082891
34.684328 7.808871 -3.578854
34.609684 8.996994 -18.531328
34.636385 8.571964 -15.476039
34.613659 8.933683 -18.823468
34.671526 8.012631 -10.445756
34.650332 8.349922 -39.848385
34.534695 10.190584 -18.461434
34.820522 5.641067 -30.883301
34.593560 9.253602 -24.575552
34.605687 9.060604 -7.682557
34.829250 5.502156 -21.707605
34.541657 10.079747 -10.213186
34.737014 6.970299 -44.980940
34.853145 5.121774 -38.678352
34.596477 9.207169 -15.662387
34.639574 8.521208 -14.628080
34.624813 8.756133 -14.785977
34.623184 8.782107 -19.846143
34.713721 7.340978 -38.194993
34.700416 7.552794 -45.301850
34.547635 9.984617 -21.950382
34.697551 7.598445 -11.391829
34.538383 10.131875 -27.149051
34.624116 8.767270 -25.512156
34.684769 7.801816 -7.198691
34.589538 9.317628 -14.239061
34.709834 7.402879 -14.923989
34.761043 6.587787 -45.159952
34.729790 7.085253 -42.393162
34.542887 10.060158 -28.449185
34.482421 11.022613 -38.483658
34.630147 8.671212 -14.491528
34.801911 5.937316 -50.131438
34.842822 5.286117 -16.752691
34.770564 6.436229 -43.462516
34.648658 8.376624 -11.259683
34.554966 9.867928 -24.633352
34.619337 8.843341 -13.811220
34.569028 9.644062 -19.018075
34.622183 8.798049 -17.520039
34.564133 9.721964 -29.935019
34.746547 6.818571 -38.935909
34.716082 7.303447 -5.095742
34.826170 5.551176 -42.182458
34.652559 8.314527 -25.233879
34.654671 8.280907 -28.118235
34.730111 7.080107 -48.819850
34.521721 10.397070 -25.506432
34.776171 6.347025 -40.480711
34.812872 5.762853 -39.829772
34.774050 6.380750 -40.947245
34.780136 6.283916 -30.707152
34.765229 6.521164 -43.924205
34.594206 9.243362 -19.682860
34.536425 10.163021 -16.066008
34.624051 8.768252 -23.960438
34.708545 7.423404 -14.468652
34.663181 8.145457 -45.523177
34.712664 7.357811 -40.803778
34.770648 6.434955 -39.115301
34.686391 7.776037 -52.199880
34.574403 9.558572 -28.698736
34.854230 5.104554 -44.410001
34.482199 11.026182 -20.469014
34.740970 6.907323 -35.920289
34.670367 8.031101 -9.838573
34.641067 8.497459 -10.892385
34.647243 8.399146 -7.222508
34.787796 6.161979 -40.931638
34.574218 9.561506 -27.862993
34.773281 6.393038 -27.278684
34.543283 10.053880 -15.630511
34.711351 7.378713 -13.161575
34.748696 6.784365 -49.846024
34.698330 7.585996 -11.923666
34.694062 7.653914 -47.704979
34.829150 5.503733 -40.151662
34.557767 9.823294 -14.234554
34.803274 5.915645 -56.756219
34.850060 5.170927 -19.103971
34.690865 7.704816 -40.495434
34.551957 9.915807 -25.312482
34.717449 7.281658 -50.484099
34.795248 6.043348 -41.695028
34.766646 6.498616 -33.152837
34.582239 9.433818 -25.893180
34.557627 9.825583 -22.946969
34.675669 7.946649 -13.310535
34.577387 9.511053 -24.203107
34.747412 6.804732 -43.294272
34.764375 6.534741 -48.741452
34.803045 5.919247 -25.868663
34.586316 9.368912 -21.583959
34.817629 5.687088 -34.204679
34.665041 8.115870 -17.762601
34.793270 6.074850 -47.270375
34.578333 9.495984 -14.012467
34.529202 10.277981 -25.409520
34.657266 8.239578 -39.112186
34.558840 9.806259 -37.200524
34.675314 7.952325 -10.947531
34.772684 6.402500 -4.416979
34.551185 9.928120 -25.611030
34.646788 8.406392 -16.002490
34.608705 9.012550 -28.441047
34.766388 6.502726 -41.245853
34.807734 5.844607 -21.135215
34.628954 8.690287 -14.531315
34.621023 8.816467 -13.248210
34.560553 9.778974 -21.183775
34.674643 7.963002 -4.798619
34.613595 8.934698 -5.776535
34.679825 7.880573 -42.865316
34.739447 6.931589 -50.863238
34.765608 6.515157 -43.220561
34.611178 8.973180 -28.719053
34.601138 9.132989 -16.593044
34.778062 6.316887 -36.057646
34.699524 7.566979 -38.804488
34.675503 7.949358 -18.714006
34.773212 6.394101 -38.475551
34.492262 10.865982 -34.518984
34.665532 8.108055 -51.527317
34.716186 7.301801 -45.050954
34.611208 8.972737 -17.644574
34.832183 5.455509 -32.763829
34.529782 10.268782 -28.126463
34.593805 9.249725 -26.044584
34.734082 7.016939 -36.034733
34.527052 10.312243 -29.566491
34.691261 7.698479 -10.659019
34.830712 5.478899 -47.370316
34.546335 10.005302 -36.394634
34.729146 7.095500 -41.435572
34.571251 9.608702 -11.313881
34.532371 10.227595 -29.910072
34.834927 5.411779 -42.535930
34.736354 6.980767 -7.947895
34.670569 8.027860 -43.568747
34.788647 6.148423 -31.682327
34.552208 9.911806 -24.326852
34.700199 7.556259 -11.518687
34.581684 9.442624 -13.069549
34.795505 6.039257 -30.419609
34.798792 5.986943 -27.368387
34.724088 7.176022 -32.820655
34.686727 7.770680 -14.896571
34.538652 10.127584 -21.523123
34.815367 5.723122 -36.063748
34.778433 6.311024 -40.532017
34.791030 6.110519 -53.998825
34.596480 9.207130 -12.164401
34.601433 9.128294 -13.562552
34.783464 6.230892 -42.905769
34.809209 5.821148 -40.177850
34.755336 6.678651 -48.460762
34.515713 10.492741 -35.704795
34.674736 7.961536 -16.275449
34.620517 8.824534 -17.614163
34.536775 10.157457 -17.977433
34.608803 9.011012 -11.653432
34.637136 8.560057 -10.501704
34.527612 10.303324 -42.338918
34.587243 9.354150 -20.305401
34.610660 8.981470 -14.860383
34.715938 7.305751 -33.159789
34.598866 9.169151 -13.103135
34.772370 6.407503 -30.988382
34.783698 6.227198 -39.870059
34.667335 8.079360 -4.361200
34.610008 8.991807 -15.597688
34.730144 7.079581 -41.896093
34.808026 5.839979 -26.596552
34.600376 9.145136 -23.301284
34.651546 8.330675 -22.525871
34.485504 10.973522 -20.105837
34.665172 8.113794 -18.551167
34.694621 7.645047 -52.377995
34.749004 6.779453 -52.042684
34.756950 6.652958 -48.941609
34.512726 10.540255 -26.978572
34.794997 6.047364 -29.959498
34.633832 8.612574 -47.448850
34.674134 7.971131 -13.506961
34.570415 9.621993 -23.320440
34.738406 6.948096 -43.332483
34.757104 6.650476 -42.981240
34.664194 8.129361 -19.582250
34.630168 8.670914 -26.484374
34.852248 5.136105 -22.448686
34.757353 6.646535 -25.801614
34.737967 6.955105 -34.638023
34.651064 8.338319 -16.477836
34.781375 6.264170 -42.038781
34.621470 8.809339 -22.614336
34.683875 7.816052 -15.667402
34.759052 6.619490 -35.533354
34.566730 9.680661 -22.281951
34.623998 8.769139 -50.970022
34.787119 6.172746 -34.445274
34.667344 8.079182 -15.493777
34.612417 8.953491 -29.373268
34.684908 7.799623 -38.209212
34.667406 8.078186 -11.747384
34.756963 6.652766 -42.043422
34.625985 8.737527 -8.508371
34.582519 9.429322 -21.658057
34.726513 7.137396 -35.888245
34.587984 9.342404 -16.124042
34.641892 8.484337 -45.861261
34.751548 6.738893 -43.377357
34.762949 6.557474 -40.744280
34.597980 9.183243 -13.377081
34.678520 7.901304 -45.697744
34.654808 8.278724 -12.319448
34.697738 7.595448 -49.286376
34.814661 5.734403 -28.305333
34.575752 9.537071 -51.408618
34.697735 7.595484 -40.997598
34.600701 9.139950 -13.046346
34.779541 6.293347 -37.710785
34.791682 6.100104 -32.239525
34.748115 6.793553 -49.553391
34.753347 6.710329 -30.708189
34.723897 7.179033 -40.618687
34.562603 9.746373 -27.023360
34.643914 8.452113 -17.856912
34.710302 7.395424 -40.747382
34.583884 9.407650 -18.684813
34.631051 8.656873 -15.673715
34.727100 7.128087 -43.505578
34.551738 9.919343 -14.367089
34.562274 9.751644 -17.391352
34.606063 9.054603 -22.300712
34.550115 9.945076 -17.739701
34.749076 6.778306 -37.880534
34.743295 6.870298 -2.447026
34.622128 8.798905 -14.239086
34.723816 7.180349 -41.463079
34.760811 6.591491 -52.320938
34.777912 6.319322 -37.306277
34.699702 7.564193 -6.270101
34.500203 10.739551 -28.735465
34.663203 8.145125 -8.712833
34.535775 10.173365 -28.405961
34.729463 7.090496 -48.266103
34.767225 6.489385 -40.675019
34.770172 6.442507 -54.938405
34.567610 9.666665 -16.733672
34.740982 6.907115 -33.340997
34.810196 5.805433 -29.022383
34.565006 9.708153 -18.854220
34.678805 7.896774 -36.988925
34.615045 8.911626 -27.229245
34.815476 5.721416 -45.054676
34.637707 8.550922 -4.046122
34.740099 6.921158 -43.309128
34.794903 6.048877 -33.201942
34.655134 8.273511 -17.372388
34.552181 9.912249 -12.031299
34.713794 7.339861 -34.874825
34.631750 8.645741 -26.771816
34.786344 6.185062 -2.608858
34.741687 6.895896 -38.513097
34.730894 7.067676 -49.196159
34.748137 6.793227 -45.174004
34.798277 5.995153 -32.453717
34.673379 7.983150 -49.184819
34.844458 5.260120 -43.160340
34.871729 4.826021 -19.272372
34.752504 6.723723 -42.534593
34.522355 10.386972 -9.302157
34.833075 5.441301 -36.379495
34.773235 6.393738 -23.307602
34.631991 8.641929 -21.023001
34.776735 6.338042 -31.375630
34.698855 7.577638 -53.901725
34.845128 5.249434 -25.376082
34.551047 9.930280 -18.442754
34.557563 9.826598 -5.375495
34.687151 7.763951 -18.555891
34.587860 9.344336 -3.257132
34.605312 9.066561 -19.685793
34.580163 9.466844 -13.008072
34.615218 8.908901 -14.626216
34.725911 7.146997 -40.371973
34.809119 5.822597 -32.108292
34.587195 9.354933 -6.665002
34.764318 6.535688 -42.442689
34.840760 5.318944 -37.437573
34.771114 6.427527 -40.492791
34.771499 6.421383 -35.499492
34.700539 7.550844 -12.354374
34.653776 8.295160 -27.037957
34.598300 9.178152 -18.739367
34.613288 8.939659 -17.748644
34.582827 9.424453 -19.781229
34.606570 9.046502 -13.906075
34.755546 6.675295 -26.707951
34.612027 8.959696 -21.581175
34.664087 8.131050 -17.697434
34.753139 6.713607 -41.871520
34.583210 9.418329 -32.747499
34.712069 7.367327 -37.800217
34.543972 10.042906 -24.333142
34.760591 6.594971 -40.256635
34.754308 6.695010 -43.202238
34.758117 6.634384 -44.725582
34.625692 8.742164 -12.661343
34.797581 6.006214 -22.441462
34.863086 4.963567 -42.181277
34.551793 9.918461 -12.425409
34.818402 5.674853 -35.255609
34.858537 5.035952 -18.602903
34.620616 8.822975 -3.772347
34.510300 10.578867 -12.363629
34.594274 9.242248 -9.659474
34.562898 9.741667 -29.658223
34.701919 7.528895 -19.054716
34.802523 5.927562 -36.781431
34.724796 7.164738 -38.334166
34.740291 6.918123 -40.774986
34.679284 7.889149 -45.224088
34.670821 8.023869 -4.870903
34.550808 9.934109 -32.758060
34.715287 7.316135 -41.277564
34.606653 9.045222 -32.598981
34.536966 10.154435 -25.507511
34.716228 7.301110 -45.475558
34.549725 9.951319 -27.633557
34.574081 9.563687 -13.869751
34.829147 5.503821 -36.694373
34.663476 8.140760 -9.919845
34.518342 10.450875 -30.583085
34.737007 6.970381 -11.398040
34.599076 9.165795 -22.267239
34.792834 6.081805 -44.723769
34.554440 9.876284 -34.472543
34.841685 5.304259 -43.634135
34.777419 6.327129 -40.497582
34.679094 7.892174 -11.196043
34.558922 9.804996 -16.128647
34.648376 8.381143 -47.598674
34.826637 5.543736 -21.429181
34.789723 6.131327 -47.839018
34.750109 6.761832 -40.840218
34.616058 8.895547 -18.053280
34.675546 7.948636 -14.309422
34.546747 9.998734 -21.175332
34.804537 5.895533 -43.426218
34.713593 7.343057 -46.481257
34.582182 9.434717 -14.886056
34.718659 7.262405 -48.457570
34.574155 9.562486 -20.565641
34.561999 9.755965 -19.329499
34.568850 9.646926 -15.902828
34.580924 9.454734 -53.274636
34.762015 6.572325 -39.711680
34.655681 8.264796 -5.546034
34.757511 6.644026 -26.196806
34.770365 6.439451 -29.755676
34.642147 8.480271 -10.655997
34.792246 6.091141 -32.452511
34.782932 6.239392 -32.761333
34.566878 9.678335 -28.269987
34.619582 8.839410 -22.891083
34.617805 8.867706 -16.458285
34.708532 7.423583 -45.345940
34.780682 6.275179 -43.235920
34.742321 6.885781 -40.094982
34.586420 9.367260 -13.684662
34.840442 5.323976 -39.098529
34.569106 9.642879 -28.031182
34.521515 10.400318 -29.605292
34.624449 8.761975 -12.641808
34.839909 5.332496 -31.853298
34.552957 9.899904 -29.537631
34.531315 10.244336 -28.060647
34.579912 9.470872 -20.405092
34.664113 8.130600 -46.674413
34.830693 5.479199 -17.298636
34.552599 9.905607 -30.929757
34.552057 9.914235 -4.858810
34.532866 10.219700 -28.533391
34.554013 9.883071 -25.713298
34.559293 9.799058 -21.581272
34.541708 10.078936 -55.611900
34.717578 7.279644 -36.936036
34.891545 4.510621 -26.944939
34.569151 9.642132 -25.840315
34.600229 9.147497 -24.235436
34.771549 6.420574 -32.094080
34.650741 8.343454 -14.018945
34.616293 8.891771 -7.491367
34.663909 8.133880 -20.217047
34.803112 5.918162 -36.402189
34.714357 7.330876 -45.857970
34.610808 8.979078 -28.620400
34.755459 6.676672 -34.682710
34.628115 8.703585 -16.290446
34.655814 8.262692 -12.097041
34.821831 5.620242 -37.551207
34.817556 5.688280 -47.721323
34.537310 10.148969 -22.800912
34.686246 7.778362 -47.881075
34.753687 6.704897 -36.401527
34.789437 6.135833 -43.688345
34.611691 8.964982 -15.650105
34.652326 8.318289 -5.520258
34.591115 9.292565 -7.924853
34.654272 8.287247 -15.203741
34.757395 6.645893 -54.468377
34.784644 6.212147 -46.819203
34.793921 6.064427 -25.566370
34.719656 7.246543 -31.228355
34.607599 9.030189 -20.873264
34.593484 9.254830 -15.324858
34.560248 9.783846 -14.988264
34.730739 7.070152 -39.040327
34.588519 9.333855 -16.884256
34.634749 8.598015 -8.123711
34.640813 8.501465 -12.574677
34.590334 9.304970 -17.558751
34.750640 6.753373 -50.670159
34.847041 5.218967 -36.855937
34.773727 6.385947 -40.311991
34.572383 9.590676 -10.250622
34.591186 9.291424 -22.828028
34.559380 9.797684 -33.223367
34.749823 6.766381 -35.697769
34.657498 8.235903 -22.547608
34.611759 8.963941 -26.557780
34.751210 6.744330 -38.533241
34.595139 9.228467 -15.101634
34.851006 5.155876 -30.879209
34.614166 8.925650 -19.842299
34.748938 6.780499 -29.490892
34.633719 8.614404 -30.725938
34.664754 8.120428 -6.341037
34.722749 7.197341 -45.904935
34.838813 5.349902 -38.769756
34.727707 7.118404 -42.061971
34.743088 6.873591 -33.631298
34.761260 6.584367 -44.783753
34.713975 7.336994 -48.600774
34.759101 6.618712 -40.027467
34.795251 6.043299 -42.482013
34.769599 6.451591 -40.611248
34.766692 6.497852 -53.151306
34.537951 10.138759 -25.778485
34.581821 9.440427 -26.384178
34.690079 7.717296 -51.657714
34.601852 9.121631 -11.445431
34.532621 10.223613 -32.208544
34.619321 8.843581 -48.898338
34.553339 9.893800 -21.729437
34.670981 8.021273 -48.571517
34.684612 7.804321 -49.931507
34.751903 6.733286 -26.571827
34.662387 8.158097 -9.196838
34.727028 7.129204 -39.789096
34.770720 6.433782 -46.588980
34.775545 6.356953 -46.055865
34.651101 8.337733 -14.391284
34.623126 8.783023 -14.880258
34.582938 9.422729 -17.414026
34.601743 9.123350 -15.217290
34.748099 6.793818 -55.200201
34.800523 5.959402 -38.007422
34.760585 6.595112 -46.361047
34.583130 9.419632 -27.026801
34.563361 9.734297 -26.596308
34.665849 8.103049 -47.937952
34.826513 5.545713 -47.547462
34.538564 10.128999 -19.658024
34.772647 6.403080 -53.958809
34.659046 8.211280 -37.529224
34.617628 8.870524 -21.868069
34.759563 6.611367 -41.007564
34.607025 9.039311 -10.141984
34.633453 8.618631 -12.178329
34.619736 8.836989 -17.238885
34.793441 6.072125 -49.188590
34.565261 9.704059 -9.570260
34.822340 5.612136 -36.579588
34.574023 9.564580 -26.881546
34.571649 9.602398 -23.919533
34.793943 6.064126 -33.312246
34.684620 7.804226 -40.431405
34.650244 8.351404 -25.603524
34.717956 7.273628 -51.624347
34.752553 6.722948 -37.146545
34.556925 9.836733 -22.122948
34.759447 6.613213 -41.837533
34.812743 5.764921 -32.910355
34.534923 10.186954 -31.044006
34.796079 6.030075 -32.358265
34.642515 8.474426 -50.190531
34.568011 9.660281 -26.993833
34.564201 9.720938 -24.876058
34.738971 6.939128 -11.932049
34.747689 6.800355 -41.563804
34.637151 8.559773 -49.752967
34.793925 6.064441 -47.980054
34.821079 5.632197 -40.179833
34.644150 8.448414 -14.700641
34.677822 7.912427 -15.803975
34.738683 6.943680 -46.695656
34.621298 8.812087 -16.058209
34.679556 7.884860 -38.718070
34.556814 9.838508 -31.678602
34.596216 9.211341 -16.522997
34.624473 8.761542 -10.954281
34.569794 9.631901 -12.687089
34.521011 10.408373 -25.859131
34.541976 10.074681 -20.097558
34.640523 8.506136 -50.761849
34.574322 9.559796 -8.723381
34.583528 9.413300 -14.071614
34.569087 9.643176 -29.300656
34.568688 9.649496 -20.952072
34.709190 7.413136 -49.346273
34.592140 9.276184 -16.291930
34.812639 5.766563 -33.761534
34.783860 6.224584 -39.576473
34.614581 8.919051 -20.838516
34.586295 9.369252 -27.892086
34.779359 6.296276 -37.366677
34.577329 9.511928 -24.334425
34.562751 9.743993 -24.143079
34.718281 7.268475 -33.657077
34.702183 7.524620 -41.948792
34.684231 7.810460 -10.821955
34.579728 9.473769 -17.907558
34.581865 9.439745 -13.683386
34.793507 6.071080 -36.472624
34.649114 8.369380 -47.533623
34.569064 9.643523 -20.180944
34.677687 7.914570 -20.934099
34.709703 7.404970 -48.514032
34.793630 6.069096 -30.136765
34.624408 8.762579 -11.514431
34.842971 5.283723 -32.788332
34.576086 9.531741 -17.358607
34.539919 10.107437 -18.134420
34.652830 8.310204 -16.445811
34.756088 6.666695 -51.574779
34.801187 5.948820 -35.427718
34.570125 9.626646 -32.388366
34.821962 5.618193 -30.378329
34.599370 9.161165 -15.689600
34.622062 8.799959 -31.567274
34.711699 7.373164 -48.059918
34.561229 9.768229 -19.737899
34.583851 9.408170 -23.312899
34.548768 9.966557 -23.176111
34.565373 9.702296 -39.848260
34.818745 5.669359 -46.870700
34.811812 5.779695 -34.919666
34.801655 5.941373 -34.479707
34.540489 10.098310 -6.895134
34.557107 9.833855 -14.815631
34.815793 5.716343 -43.419201
34.706684 7.453031 -41.086788
34.709325 7.411010 -38.068993
34.764266 6.536529 -37.840264
34.610081 8.990665 -16.902535
34.724669 7.166768 -54.899804
34.542997 10.058433 -15.856789
34.618735 8.852889 -50.814828
34.599792 9.154388 -5.145375
34.689246 7.730586 -50.919384
34.684342 7.808680 -44.673742
34.611370 8.970165 -12.293903
34.705428 7.473006 -31.865213
34.590354 9.304677 -13.580191
34.541214 10.086795 -17.224314
34.745919 6.828523 -29.946538
34.683295 7.825352 -53.094435
34.609505 8.999880 -21.929027
34.550095 9.945430 -24.309391
34.604332 9.082175 -15.590096
34.783025 6.237914 -38.510087
34.726973 7.130080 -34.193399
34.767155 6.490513 -42.047431
34.783493 6.230465 -40.242186
34.777937 6.318890 -23.576037
34.736046 6.985652 -42.857168
34.768367 6.471254 -36.020749
34.714610 7.326834 -10.278625
34.816494 5.705202 -35.733539
34.573838 9.567529 -18.139861
34.755595 6.674488 -36.100964
34.683588 7.820678 -15.256261
34.717274 7.284468 -44.063431
34.769594 6.451746 -33.352162
34.602569 9.110215 -10.032950
34.831491 5.466452 -42.243152
34.777950 6.318722 -6.932685
34.747747 6.799456 -37.803417
34.720336 7.235780 -52.485377
34.742483 6.883204 -44.703371
34.596445 9.207681 -22.107997
34.665822 8.103412 -18.554201
34.713111 7.350752 -14.826248
34.851672 5.145257 -28.769951
34.661366 8.174313 -46.136926
34.790700 6.115734 -33.953507
34.596505 9.206767 -16.756484
34.797362 6.009705 -42.419460
34.616797 8.883728 -40.850003
34.552345 9.909654 -19.323792
34.701692 7.532492 -47.303520
34.620674 8.822082 -21.760131
34.717930 7.274006 -48.594984
34.838789 5.350369 -29.144996
34.768785 6.464534 -41.205572
34.697599 7.597622 -1.286060
34.620798 8.820114 -7.493081
34.780663 6.275519 -45.542018
34.574609 9.555269 -23.397144
34.688531 7.741964 -15.239274
34.828685 5.511148 -18.387461
34.526644 10.318723 -19.978578
34.789890 6.128622 -36.143671
34.759430 6.613479 -39.106039
34.817596 5.687674 -34.815693
34.619472 8.841188 -23.191517
34.716511 7.296630 -38.811698
34.582210 9.434280 -10.284381
34.509950 10.584449 -23.776976
34.613217 8.940735 -19.866341
34.699689 7.564384 -1.628580
34.612369 8.954228 -26.644818
34.752869 6.717927 -35.045072
34.770451 6.438069 -28.663629
34.620768 8.820544 -26.904945
34.589038 9.325593 -12.917897
34.772206 6.410118 -31.023984
34.734727 7.006680 -36.887415
34.615692 8.901330 -9.055299
34.663903 8.133988 -47.272133
34.597433 9.191986 -14.683420
34.776296 6.345035 -32.010145
34.672621 7.995241 -13.946528
34.517676 10.461462 -19.974146
34.643301 8.461873 -45.552699
34.633840 8.612522 -18.075786
34.574689 9.554006 -21.370279
34.662920 8.149604 -5.050034
34.621847 8.803398 -25.629704
34.699384 7.569215 -37.715132
34.708641 7.421892 -38.875678
34.610189 8.988923 -26.099161
34.629141 8.687272 -13.915412
34.631564 8.648683 -18.738991
34.652601 8.313864 -24.023969
34.602482 9.111629 -30.291803
34.629840 8.676180 -26.328516
34.826522 5.545564 -21.288777
34.722819 7.196200 -13.976151
34.714182 7.333670 -50.503368
34.519927 10.425653 -28.209747
34.619242 8.844863 -9.303749
34.667027 8.084236 -45.219770
34.804947 5.888978 -28.959417
34.610395 8.985680 -25.507662
34.790327 6.121721 -33.569640
34.805713 5.876811 -33.151978
34.732365 7.044238 -45.757181
34.702553 7.518788 -33.288406
34.772824 6.400276 -5.449961
34.566712 9.680908 -26.424793
34.849690 5.176770 -35.770371
34.820057 5.648493 -34.419610
34.694703 7.643722 -13.767838
34.716456 7.297470 -2.824319
34.641670 8.487799 -18.134943
34.802566 5.926867 -49.871790
34.797009 6.015295 -26.087477
34.768987 6.461356 -31.339550
34.737082 6.969172 -44.832713
34.600511 9.143000 -21.993939
34.719537 7.248464 -48.048081
34.503904 10.680676 -20.248932
34.832856 5.444728 -32.050845
34.511800 10.555038 -14.568626
34.709267 7.411937 -52.691618
34.733823 7.021089 -32.491665
34.549276 9.958475 -24.300174
34.555410 9.860854 -11.912351
34.735079 7.001074 -40.509075
34.742488 6.883125 -29.920413
34.822427 5.610755 -31.318733
34.579451 9.478182 -20.413112
34.614936 8.913361 -15.812342
34.753642 6.705598 -53.091831
34.613745 8.932337 -20.445499
34.802942 5.920873 -32.406571
34.660918 8.181470 -16.457262
34.706480 7.456307 -46.149061
34.674921 7.958558 -18.590152
34.726643 7.135305 -39.447933
34.699176 7.572540 -43.659510
34.698051 7.590432 -40.783924
34.822268 5.613266 -34.225804
34.693752 7.658862 -49.522850
34.722930 7.194468 -46.502260
34.711861 7.370600 -52.188928
34.771935 6.414399 -53.215213
34.765479 6.517181 -27.692087
34.563136 9.737862 -26.671171
34.585630 9.379844 -22.653450
34.603164 9.100760 -21.926000
34.812486 5.769013 -41.067495
34.799240 5.979814 -35.954081
34.858257 5.040437 -27.199756
34.818127 5.679173 -32.790850
34.703441 7.504630 -7.560374
34.742487 6.883147 -50.060554
34.625498 8.745258 -8.304432
34.699471 7.567859 -34.181629
34.604801 9.074709 -24.035958
34.840338 5.325691 -30.991395
34.572904 9.582385 -14.645111
34.631532 8.649222 -16.862423
34.710083 7.398937 -46.342631
34.675180 7.954504 -12.034355
34.630688 8.662656 -12.970929
34.778097 6.316371 -40.636745
34.680917 7.863158 -7.628264
34.659311 8.207091 -16.091777
34.594929 9.231821 -9.427536
34.581860 9.439857 -32.098192
34.752092 6.730256 -41.150358
34.771780 6.416904 -33.622075
34.629602 8.679947 -54.574321
34.853308 5.119219 -45.980274
34.675719 7.945873 -9.997403
34.642555 8.473794 -8.233226
34.626230 8.733581 -9.446332
34.527513 10.304864 -31.831567
34.803658 5.909546 -38.785364
34.529204 10.277975 -22.378375
34.769344 6.455671 -41.595274
34.765234 6.521121 -30.264998
34.741884 6.892718 -35.342857
34.571042 9.612065 -17.870157
34.618345 8.859120 -19.898349
34.601734 9.123498 -15.876857
34.636061 8.577159 -4.689838
34.769769 6.448885 -47.825902
34.562092 9.754494 -29.137749
34.779120 6.300070 -33.561580
34.582283 9.433136 -25.614877
34.627157 8.718822 -13.606090
34.738409 6.948069 -41.684412
34.749533 6.770984 -31.313207
34.624050 8.768319 -6.717541
34.781097 6.268593 -30.808464
34.533073 10.216378 -31.340139
34.739123 6.936716 -5.550931
34.579775 9.473037 -25.627562
34.667423 8.077996 -0.907638
34.709300 7.411405 -47.531747
34.581738 9.441801 -13.575106
34.823276 5.597277 -33.898960
34.817356 5.691479 -17.047740
34.740503 6.914735 -38.724425
34.558569 9.810568 -25.458668
34.643544 8.458000 -8.842745
34.796156 6.028907 -31.956422
34.522218 10.389192 -26.717513
34.781600 6.260554 -52.277353
34.597721 9.187382 -49.659734
34.815562 5.720016 -42.158824
34.670812 8.023985 -41.182646
34.594029 9.246182 -20.824254
34.847642 5.209401 -23.084532
34.718984 7.257258 -34.681925
34.795751 6.035359 -37.792717
34.536758 10.157719 -17.162375
34.532799 10.220726 -30.188228
34.742148 6.888526 -41.228411
34.718564 7.263925 -47.217355
34.616346 8.890917 -16.595911
34.795909 6.032813 -49.200903
34.739035 6.938105 -39.780817
34.742828 6.877719 -30.618537
34.556463 9.844068 -18.215980
34.749761 6.767388 -6.481927
34.578873 9.487376 -22.932381
34.738917 6.940001 -31.216231
34.588772 9.329857 -23.232139
34.583257 9.417625 -7.530542
34.716137 7.302577 -36.647637
34.619309 8.843793 -18.845680
34.568158 9.657904 -7.461817
34.570508 9.620544 -29.841845
34.746553 6.818473 -36.902330
34.850869 5.158039 -29.450092
34.759940 6.605344 -48.813237
34.743048 6.874219 -38.243662
34.678504 7.901608 -39.813637
34.808169 5.837712 -41.759685
34.641204 8.495248 -14.987788
34.809748 5.812596 -51.453107
34.582348 9.432076 -16.260530
34.560672 9.777100 -27.449600
34.646424 8.412206 -15.467391
34.846253 5.231525 -42.611031
34.683828 7.816827 -45.411925
34.834263 5.422387 -33.330115
34.762387 6.566386 -49.122613
34.559489 9.795922 -17.001559
34.628413 8.698853 -21.386924
34.763324 6.551482 -46.489504
34.495166 10.819796 -22.402509
34.775695 6.354624 -30.569136
34.575562 9.540114 -9.762847
34.585887 9.375737 -16.462324
34.536117 10.167955 -43.340510
34.728541 7.105163 -35.576784
34.586998 9.358078 -27.921331
34.622400 8.794593 -22.995088
34.635843 8.580574 -21.867971
34.657764 8.231724 -10.466630
34.576803 9.520336 -18.004094
34.633089 8.624415 -15.430857
34.785795 6.193794 -51.788121
34.581338 9.448145 -14.952034
34.789036 6.142240 -53.350714
34.636228 8.574470 -15.822401
34.561507 9.763850 -6.765871
34.709573 7.407026 -50.241657
34.818882 5.667184 -37.630769
34.515534 10.495517 -25.150614
34.547971 9.979261 -31.681565
34.599357 9.161367 -5.149186
34.574998 9.549037 -21.842671
34.743899 6.860699 -34.697899
34.745828 6.829994 -33.174225
34.792165 6.092418 -48.790640
34.583911 9.407224 -24.190174
34.818323 5.676095 -37.633768
34.700382 7.553319 -18.375014
34.635469 8.586552 -23.138056
34.549547 9.954145 -24.653036
34.717681 7.278007 -51.219308
34.579060 9.484439 -26.007433
34.783177 6.235481 -44.041453
34.639023 8.529957 -4.580758
34.604042 9.086771 -9.004857
34.786530 6.182172 -49.434415
34.686033 7.781724 -45.179941
34.762625 6.562609 -25.839338
34.563771 9.727755 -26.108822
34.762835 6.559266 -35.642683
34.778830 6.304699 -35.236007
34.787924 6.159941 -39.920499
34.806099 5.870667 -31.968817
34.647126 8.400982 -15.952564
34.581597 9.444012 -17.451346
34.594996 9.230734 -31.709286
34.517592 10.462764 -12.854771
34.643346 8.461189 -12.192527
34.646998 8.403078 -7.117094
34.579714 9.474012 -30.639866
34.845953 5.236299 -28.898134
34.760046 6.603695 -43.868058
34.794304 6.058370 -38.003144
34.554387 9.877142 -15.522238
34.811215 5.789226 -35.056448
34.616690 8.885469 -14.298710
34.642672 8.471895 -7.236650
34.581848 9.439997 -20.143898
34.562361 9.750192 -22.550375
34.793785 6.066678 -29.659077
34.745250 6.839226 -47.336153
34.706528 7.455532 -54.056966
34.603736 9.091635 -15.887844
34.702664 7.517033 -30.206455
34.557201 9.832340 -24.817318
34.694881 7.640901 -42.399194
34.724416 7.170781 -33.990309
34.555922 9.852703 -32.643268
34.569449 9.637425 -27.358623
34.695408 7.632526 -50.812448
34.763975 6.541130 -32.829810
34.758696 6.625181 -11.818387
34.752175 6.728941 -30.386753
34.736699 6.975265 -38.432969
34.591396 9.288046 -22.496510
34.583894 9.407419 -17.719142
34.686389 7.776068 -43.193486
34.751088 6.746225 -28.165851
34.637389 8.555996 -10.065311
34.703337 7.506301 -42.819585
34.556599 9.841927 -7.497975
34.519228 10.436756 -33.831493
34.623872 8.771131 -14.147692
34.623635 8.774928 -23.628027
34.600349 9.145571 -25.830939
34.525552 10.336127 -13.297361
34.826141 5.551663 -40.998955
34.692058 7.685824 -11.665263
34.627111 8.719559 -21.421515
34.708271 7.427759 -5.252479
34.568025 9.660091 -27.631031
34.500524 10.734502 -16.307355
34.577188 9.514229 -17.283518
34.580799 9.456752 -31.032232
34.650947 8.340149 -15.761282
34.807883 5.842219 -40.598708
34.660256 8.192044 -52.285047
34.770205 6.441952 -42.373670
34.695159 7.636434 -42.359125
34.712779 7.356008 -29.830369
34.537105 10.152195 -28.853945
34.795812 6.034358 -50.115767
34.733983 7.018540 -35.353299
34.760623 6.594501 -44.607746
34.709524 7.407815 -1.890253
34.687757 7.754259 -42.418974
34.586770 9.361680 -13.200311
34.657125 8.241863 -50.974078
34.645421 8.428153 -49.625188
34.536750 10.157852 -14.453229
34.830868 5.476398 -51.230840
34.781302 6.265337 -49.552651
34.657977 8.228312 -24.095917
34.740752 6.910749 -30.971436
34.633847 8.612403 -12.344544
34.602959 9.104010 -12.180795
34.624262 8.764936 -5.271147
34.604066 9.086366 -14.551287
34.757458 6.644881 -48.391522
34.569283 9.640032 -29.780744
34.737547 6.961781 -43.420169
34.777655 6.323395 -44.897028
34.537728 10.142237 -11.247037
34.673180 7.986295 -7.899419
34.605278 9.067082 -18.437937
34.689036 7.733944 -17.709740
34.790602 6.117312 -29.131798
34.708940 7.417148 -44.297825
34.542491 10.066463 -14.022178
34.600456 9.143867 -19.274218
34.755365 6.678199 -47.424669
34.795902 6.032949 -42.346951
34.763575 6.547484 -38.444768
34.712895 7.354123 -35.329328
34.646911 8.404477 -10.243076
34.800497 5.959837 -45.473480
34.622128 8.798926 -24.712186
34.790773 6.114602 -32.976915
34.645200 8.431642 -19.605123
34.570402 9.622271 -17.627818
34.674903 7.958878 -14.745715
34.617459 8.873172 -27.194818
34.828676 5.511293 -38.587059
34.794377 6.057222 -34.426421
34.577556 9.508361 -7.011586
34.744163 6.856448 -31.688857
34.750125 6.761574 -32.365568
34.544833 10.029190 -22.488173
34.584249 9.401843 -9.398986
34.741393 6.900544 -36.022874
34.794332 6.057946 -27.437125
34.690076 7.717404 -16.412219
34.569710 9.633187 -26.919741
34.510924 10.568918 -15.681838
34.751680 6.736828 -46.028640
34.784997 6.206554 -39.127931
34.506613 10.637587 -21.163045
34.718822 7.259833 -39.762873
34.595189 9.227666 -15.408403
34.686848 7.768790 -13.912763
34.599177 9.164214 -23.497796
34.662457 8.156972 -13.142293
34.677571 7.916422 -42.291470
34.565589 9.698786 -26.801993
34.757292 6.647525 -41.548980
34.783071 6.237175 -43.950796
34.686752 7.770269 -39.829823
34.856456 5.069136 -31.653880
34.528958 10.281843 -16.061845
34.525508 10.336794 -34.930958
