12.183128 -22.263831 -20.802706
41.655048 -50.412893 -46.176384
24.124033 -43.449864 -29.506304
21.485267 -41.121895 -41.441874
18.395285 -37.649368 -36.492599
33.997665 -48.807782 -28.546364
41.606987 -50.408872 -45.767828
36.835687 -49.629659 -19.099036
14.676293 -31.514026 -39.565774
23.387410 -42.848969 -31.507979
58.513908 -47.438972 -44.648843
52.648168 -49.533573 -40.275089
18.231347 -37.424061 -42.776361
43.926678 -50.541917 -37.088301
32.923775 -48.426800 -39.764558
12.412616 -23.458210 -16.837410
49.821856 -50.119814 -35.344693
22.006448 -41.627370 -19.584596
26.469004 -45.141532 -14.522121
53.237038 -49.376964 -17.782447
36.313208 -49.493425 -46.695442
26.190557 -44.951680 -15.543304
15.106883 -32.388934 -43.775759
34.155102 -48.863634 -5.363795
25.634289 -44.572408 -36.446033
16.606258 -35.059955 -36.265483
23.096644 -42.611780 -48.488576
31.608221 -47.900920 -28.472511
21.811442 -41.438242 -15.140733
21.958119 -41.580495 -21.420462
22.959452 -42.499865 -32.562651
23.285772 -42.766058 -32.970104
12.969010 -26.353982 -36.174528
28.217936 -46.207557 -43.794770
57.556393 -47.879989 -39.091881
56.313412 -48.377807 -22.066833
58.433099 -47.476186 -52.041532
35.372664 -49.248178 -35.137167
28.060328 -46.118863 -49.709306
24.077017 -43.411508 -22.475882
55.785905 -48.567853 -6.909527
16.492043 -34.870790 -47.192232
53.619334 -49.275291 -16.921918
55.166088 -48.791153 -23.577955
31.514638 -47.858373 -21.560045
58.311778 -47.532068 -9.891251
39.979687 -50.236319 -27.770715
18.216949 -37.404274 -44.559896
12.652645 -24.707447 -50.673099
50.498238 -50.000847 -12.120294
34.116194 -48.849830 -11.675821
14.534981 -31.226897 -16.646467
24.295342 -43.589608 -17.283827
47.201033 -50.434916 -36.022939
58.317887 -47.529254 -41.140976
19.812812 -39.358038 -35.176135
43.941037 -50.541884 -33.018159
12.942594 -26.216499 -27.268578
16.732598 -35.269201 -37.564622
52.153488 -49.665129 -37.850468
21.211561 -40.856439 -36.887608
18.464373 -37.744317 -28.647215
58.589298 -47.404250 -21.969179
57.362265 -47.969401 -35.184842
25.806842 -44.690056 -43.631368
46.672204 -50.481719 -34.936411
16.212571 -34.407926 -20.367842
58.951703 -47.237329 -18.482590
28.108072 -46.145731 -42.386066
52.908127 -49.464439 -11.626236
15.241224 -32.661898 -39.523724
12.311582 -22.932376 -8.867600
17.949987 -37.037378 -16.335521
21.727148 -41.356487 -13.977030
51.160930 -49.884282 -27.991217
15.159919 -32.496696 -50.764680
21.238389 -40.882459 -42.368957
44.613924 -50.540244 -42.264433
20.154373 -39.751527 -40.520616
13.853810 -29.574012 -42.206485
33.545902 -48.647510 -7.905838
16.012438 -34.076464 -7.207942
32.948736 -48.435657 -41.835859
23.633725 -43.049898 -31.658115
53.916889 -49.196157 -27.723980
30.765693 -47.517841 -36.327137
36.576521 -49.562084 -8.125398
58.355640 -47.511863 -11.948404
42.087079 -50.449000 -16.598265
13.045527 -26.752218 -42.025219
50.955758 -49.920372 -24.053977
28.686433 -46.471201 -11.171145
49.895050 -50.106943 -42.017757
32.763460 -48.369928 -28.226224
56.466892 -48.322516 -30.970461
59.225873 -47.111053 -12.522523
20.108571 -39.698763 -39.362086
52.927884 -49.459178 -5.425020
52.754329 -49.505341 -40.848644
13.169897 -27.399508 -57.551627
55.170479 -48.789569 -40.241646
43.854168 -50.542095 -24.129177
30.574851 -47.431067 -39.907972
14.071726 -30.133319 -41.995054
28.779224 -46.523417 -19.242470
59.032071 -47.200310 -31.995152
53.236810 -49.377022 -12.839625
16.138039 -34.284486 -2.134860
47.286891 -50.427314 -35.229328
36.464390 -49.532847 -15.632128
28.754258 -46.509370 -43.222136
17.495232 -36.412389 -32.833291
17.625447 -36.591349 -10.731112
25.590147 -44.542311 -30.048564
15.267787 -32.715871 -32.655491
13.769051 -29.356467 -13.401468
18.039006 -37.159719 -49.842332
33.146312 -48.505748 -37.023285
12.576557 -24.311444 -15.705678
13.496535 -28.657022 -17.791810
12.928528 -26.143291 -36.442345
14.143788 -30.318274 -43.698640
58.935632 -47.244735 -27.971011
34.113737 -48.848958 -16.675470
43.729545 -50.542400 -33.529604
50.937510 -49.923583 -14.365710
34.006768 -48.811009 -28.042616
47.254460 -50.430186 -47.881463
49.669038 -50.146692 -40.896047
13.525854 -28.732275 -32.358565
18.131066 -37.286241 -38.813739
12.711639 -25.014485 -44.050959
28.606389 -46.426156 -13.124998
15.012113 -32.196373 -44.619938
23.376142 -42.839776 -52.387005
35.455133 -49.269682 -32.799228
58.876271 -47.272072 -17.667510
38.812539 -50.036865 -45.325204
12.560411 -24.227411 -12.214378
50.791612 -49.949242 -20.975099
29.986633 -47.163617 -30.827596
43.845817 -50.542116 -32.532273
18.540080 -37.848364 -39.167475
57.661593 -47.831532 -41.479008
36.237894 -49.473782 -14.683147
39.357601 -50.130012 -13.349120
17.283110 -36.120864 -30.463082
33.044118 -48.469494 -49.411621
43.841127 -50.542129 -27.624502
14.084714 -30.166652 -31.582670
15.161971 -32.500866 -45.784656
21.073801 -40.722830 -41.217852
31.408080 -47.809923 -21.743115
12.346484 -23.114021 -16.575972
13.972084 -29.877575 -35.061908
45.002673 -50.539293 -13.013691
27.565389 -45.840339 -32.567747
12.490777 -23.865001 -13.783104
12.363435 -23.202246 -22.896799
24.378108 -43.657123 -21.620315
55.575656 -48.643599 -43.107907
33.047682 -48.470757 -52.022856
12.583137 -24.345692 -13.520605
51.892936 -49.734423 -44.141065
47.145884 -50.439794 -47.734956
30.411385 -47.356747 -37.233957
49.596929 -50.159379 -51.553379
12.858170 -25.777109 -44.491553
14.079806 -30.154057 -33.511210
13.804980 -29.448683 -16.994279
22.341311 -41.952140 -27.903478
30.346029 -47.327026 -37.231340
12.287757 -22.808377 -32.704300
12.274692 -22.740382 -22.907496
19.465189 -38.957565 -20.688509
39.538703 -50.160957 -18.850058
12.448632 -23.645657 -15.364842
42.322466 -50.468671 -14.149636
42.137992 -50.453256 -14.665002
27.931854 -46.046565 -33.331276
19.164188 -38.610801 -12.770255
18.164220 -37.331806 -51.701873
35.301299 -49.229568 -30.268969
12.790829 -25.426634 -38.362266
28.337835 -46.275031 -39.623164
25.699666 -44.616982 -48.552676
16.545249 -34.958911 -45.021196
13.682046 -29.133158 -11.798008
25.881984 -44.741289 -45.488613
12.982776 -26.425627 -46.541702
43.725297 -50.542405 -29.535328
23.434191 -42.887128 -39.158982
49.616101 -50.156006 -41.898016
49.793296 -50.124844 -42.119231
50.384073 -50.020925 -14.689805
57.709359 -47.809539 -42.870737
19.291555 -38.757532 -7.362905
17.614755 -36.576654 -17.628599
55.792277 -48.565557 -50.264070
44.622864 -50.540218 -18.011405
14.182661 -30.418045 -28.789688
25.818089 -44.697726 -50.015731
12.550206 -24.174305 -25.770832
57.936893 -47.704738 -47.870898
40.005546 -50.240736 -25.863251
19.555846 -39.062006 -17.641953
39.370841 -50.132276 -23.871408
16.869045 -35.495186 -20.043613
22.959594 -42.499981 -43.383558
13.022292 -26.631293 -33.129022
20.040540 -39.620388 -48.141200
19.483740 -38.978935 -19.341387
39.903483 -50.223296 -29.795919
13.124709 -27.164321 -40.234850
16.644903 -35.123960 -41.155965
38.987418 -50.066749 -42.474473
35.717837 -49.338181 -46.559923
13.922888 -29.751307 -5.015912
38.208670 -49.933671 -45.677429
26.614940 -45.241035 -11.370721
13.058848 -26.821544 -41.093289
13.976231 -29.888220 -38.249749
55.001953 -48.850284 -44.361820
57.429514 -47.938429 -14.381841
44.392067 -50.540785 -43.454627
12.583215 -24.346100 -13.459420
13.009361 -26.563988 -37.844144
41.682156 -50.415158 -43.136253
36.426557 -49.522979 -11.903713
13.944905 -29.807816 -49.551055
22.137793 -41.754756 -9.937911
48.062395 -50.358682 -26.643255
35.721255 -49.339070 -40.658153
53.144867 -49.401474 -51.061041
12.714226 -25.027949 -44.959749
15.944077 -33.963244 -29.008498
50.857892 -49.937586 -24.894567
55.499084 -48.671182 -46.581100
41.961276 -50.438488 -4.179384
15.399265 -32.983020 -39.157543
55.722228 -48.590793 -39.701063
58.683324 -47.360939 -11.416150
36.349006 -49.502756 -18.901032
12.467480 -23.743754 -19.978284
12.466693 -23.739650 -17.133997
35.591779 -49.305308 -33.896580
49.735015 -50.135090 -35.381038
12.593813 -24.401257 -21.074748
38.689647 -50.015864 -42.796601
47.920578 -50.371231 -20.791366
33.320932 -48.567700 -43.232246
44.468595 -50.540595 -37.784459
30.726409 -47.499981 -52.450123
12.964946 -26.332826 -49.781027
14.091303 -30.183563 -38.808704
24.439612 -43.707296 -33.485835
27.468208 -45.785650 -29.629366
13.599557 -28.921441 -30.520108
46.777289 -50.472417 -34.457551
45.381043 -50.538371 -33.560242
36.968947 -49.664409 -5.748765
20.116890 -39.708346 -35.051532
19.298962 -38.766067 -23.452722
13.990249 -29.924198 -41.594809
16.597336 -35.045178 -41.019493
57.754529 -47.788730 -40.418785
35.959993 -49.401326 -44.999668
16.440822 -34.785959 -9.250987
29.000574 -46.647981 -23.438322
13.006842 -26.550880 -37.754144
15.304548 -32.790566 -40.627551
46.549654 -50.492562 -32.145050
58.818107 -47.298866 -24.080646
12.599856 -24.432705 -8.910897
39.164082 -50.096943 -10.435903
45.202820 -50.538810 -10.194433
33.392176 -48.592975 -47.342435
15.952772 -33.977645 -11.586525
42.114348 -50.451276 -6.339502
30.334589 -47.321826 -43.730925
30.008567 -47.173591 -42.268198
30.030932 -47.183761 -45.875606
21.585534 -41.219142 -12.319703
14.105456 -30.219891 -37.414108
13.138855 -27.237947 -30.107379
14.952390 -32.075022 -10.443076
51.112361 -49.892829 -11.550886
39.859043 -50.215702 -19.853546
33.897198 -48.772138 -21.254752
26.712411 -45.307492 -15.987564
31.732831 -47.957582 -4.905084
48.126011 -50.353052 -27.046742
26.683562 -45.287821 -18.693117
21.868401 -41.493483 -22.635890
17.252174 -36.078347 -14.434066
44.496641 -50.540528 -47.594627
26.837534 -45.392802 -11.791814
15.900540 -33.891137 -31.300788
55.355595 -48.722882 -32.764183
39.223173 -50.107040 -19.889225
35.977281 -49.405830 -42.100133
45.062278 -50.539149 -19.896292
28.779003 -46.523293 -28.953836
56.054585 -48.471052 -13.417057
51.297417 -49.860276 -21.388766
20.012915 -39.588563 -30.504049
41.943124 -50.436965 -51.520120
38.197439 -49.931753 -41.962970
33.910933 -48.777008 -24.857463
58.264207 -47.553981 -10.361719
57.761833 -47.785366 -34.078517
12.521761 -24.026258 -8.943399
39.301495 -50.120423 -19.231698
52.831719 -49.484758 -32.829850
23.239914 -42.728651 -36.983532
49.387758 -50.196168 -17.139484
35.464216 -49.272050 -34.025887
53.342159 -49.349002 -23.587099
47.220367 -50.433201 -1.456329
45.108011 -50.539041 -24.123912
36.483124 -49.537727 -17.412353
14.744277 -31.652161 -8.239088
28.656105 -46.454134 -8.067465
23.913713 -43.278295 -46.932233
27.889058 -46.022481 -44.146233
15.360649 -32.904556 -29.010657
12.583702 -24.348632 -24.198384
52.461742 -49.583150 -53.444869
30.507959 -47.400655 -39.456394
34.195470 -48.877955 -9.031685
47.835815 -50.378733 -20.638532
46.926310 -50.459227 -38.489471
13.719412 -29.229061 -14.037156
23.562724 -42.991979 -34.762932
13.747707 -29.301685 -9.741531
23.270910 -42.753934 -31.933585
43.801837 -50.542221 -29.314100
15.346211 -32.875221 -45.462567
14.071858 -30.133658 -33.184891
50.944878 -49.922284 -18.863891
53.582383 -49.285122 -21.710168
14.612990 -31.385401 -18.586276
30.433357 -47.366735 -52.874636
20.022954 -39.600128 -39.182656
23.141935 -42.648725 -36.294477
16.632859 -35.104012 -46.735411
30.841685 -47.552395 -40.270637
59.252802 -47.098644 -10.137174
31.112558 -47.675554 -50.034281
53.235250 -49.377438 -6.155877
41.319443 -50.384843 -46.846759
58.012329 -47.669994 -39.262974
24.153648 -43.474021 -27.960312
13.942868 -29.802589 -32.620118
26.235783 -44.982518 -15.914795
12.542769 -24.135597 -11.920644
31.527878 -47.864393 -21.806022
28.194160 -46.194177 -14.884487
14.884025 -31.936113 -8.680544
30.438271 -47.368968 -35.685786
13.016343 -26.600326 -38.064701
35.444763 -49.266974 -25.081057
12.647665 -24.681527 -23.171096
19.234402 -38.691690 -5.796788
49.602876 -50.158332 -38.894764
52.540980 -49.562072 -26.954215
12.667779 -24.786216 -7.697621
44.304828 -50.540998 -6.184685
14.738660 -31.640748 -20.268610
38.003538 -49.898617 -41.058738
28.843362 -46.559512 -26.538205
50.917714 -49.927067 -18.337780
21.170011 -40.816141 -40.323217
23.641917 -43.056581 -17.278203
16.483965 -34.857412 -36.643611
14.788892 -31.742813 -23.729140
26.556249 -45.201017 -20.435315
20.080377 -39.666283 -40.509931
42.157990 -50.454924 -22.112414
49.619703 -50.155368 -44.307447
27.855450 -46.003569 -32.476729
33.250201 -48.542606 -42.621932
13.049670 -26.773781 -27.717409
12.943581 -26.221635 -33.081021
30.161608 -47.243177 -45.573493
25.821356 -44.699954 -39.161699
14.564407 -31.286686 -18.044478
17.559250 -36.500372 -19.651934
44.710858 -50.540007 -19.235806
14.661764 -31.484504 -23.054227
33.016751 -48.459785 -42.655650
56.356840 -48.362159 -30.817263
20.189506 -39.792003 -31.085905
22.377892 -41.987619 -31.526035
54.891720 -48.889999 -27.141077
39.443936 -50.144763 -27.916019
58.280980 -47.546255 -12.007867
12.470099 -23.757381 -27.087829
12.659767 -24.744512 -10.030427
44.028489 -50.541668 -42.614873
25.312797 -44.353208 -42.462096
44.298911 -50.541008 -32.994815
12.333991 -23.049006 -33.561547
21.377456 -41.017334 -37.557857
21.386193 -41.025809 -39.476655
53.756098 -49.238921 -30.741431
13.948070 -29.815940 -48.413690
24.298444 -43.592139 -12.091876
38.730463 -50.022838 -44.297465
28.542808 -46.390377 -44.694388
12.306858 -22.907785 -38.808514
18.213755 -37.399883 -28.151794
35.575165 -49.300976 -28.835352
51.817572 -49.754467 -32.068410
50.088582 -50.072900 -34.530600
14.714184 -31.591017 -27.085026
57.909721 -47.717250 -33.545900
38.079803 -49.911651 -33.597007
41.078208 -50.364677 -23.929136
28.691124 -46.473840 -29.492159
57.645793 -47.838809 -42.514787
13.580119 -28.871552 -13.775883
14.918196 -32.005545 -7.311406
14.050032 -30.077639 -27.407280
53.230730 -49.378641 -46.594138
27.697983 -45.914955 -33.600965
48.111267 -50.354352 -29.391051
38.630343 -50.005732 -34.057014
55.149175 -48.797246 -42.275858
29.908160 -47.127939 -27.921926
19.898714 -39.456998 -42.252482
39.386772 -50.134993 -12.576810
14.823840 -31.813825 -11.074921
18.440321 -37.711261 -31.183080
31.103697 -47.671527 -8.837701
38.411525 -49.968337 -29.604792
21.966460 -41.588587 -23.809410
17.328054 -36.182631 -18.779883
21.382792 -41.022509 -10.522173
55.914603 -48.521487 -41.015425
33.424956 -48.604605 -39.479613
33.884323 -48.767572 -13.808990
56.145970 -48.438136 -26.026179
43.986631 -50.541773 -33.111280
28.829633 -46.551785 -26.573796
12.379383 -23.285248 -24.531050
33.213979 -48.529756 -43.391562
14.002661 -29.956054 -44.643153
32.860706 -48.404426 -29.373809
47.172712 -50.437422 -53.965359
27.743431 -45.940532 -41.755535
23.843336 -43.220885 -12.807584
21.189343 -40.834893 -32.979046
49.971032 -50.093573 -48.556500
13.745875 -29.296983 -18.526232
16.592165 -35.036614 -44.063027
28.817741 -46.545093 -11.068522
22.102894 -41.720907 -16.201909
44.976889 -50.539359 -43.390350
15.126511 -32.428815 -31.681186
39.225982 -50.107516 -13.778019
12.942397 -26.215469 -36.908345
57.862807 -47.738861 -24.702702
19.991219 -39.563569 -38.882651
12.381083 -23.294094 -18.544677
26.353490 -45.062771 -15.635960
12.311735 -22.933168 -20.889790
12.730042 -25.110265 -45.261189
12.554430 -24.196290 -21.751050
17.638964 -36.609927 -20.904015
14.615063 -31.389614 -7.657567
42.191324 -50.457712 -19.280345
12.326958 -23.012398 -33.239794
19.175407 -38.623727 -28.950287
52.302504 -49.625500 -36.584778
20.184163 -39.785848 -34.246170
21.836508 -41.462551 -20.636250
13.117777 -27.128246 -46.269537
56.199012 -48.419022 -17.974322
13.019707 -26.617836 -32.121181
58.565432 -47.415236 -3.445088
25.939004 -44.780167 -35.926018
49.520897 -50.172754 -45.755493
24.201772 -43.513278 -8.821975
36.214240 -49.467619 -10.021624
47.890935 -50.373857 -23.907641
26.506817 -45.167311 -25.489707
12.943678 -26.222144 -23.359561
14.681776 -31.525166 -3.316681
12.201666 -22.360310 -37.501449
47.977595 -50.366185 -16.435070
21.872350 -41.497312 -19.566763
12.464064 -23.725976 -23.103619
12.294803 -22.845051 -24.206491
54.912568 -48.882485 -44.575228
15.293177 -32.767462 -23.866523
32.892442 -48.415687 -25.922235
44.510127 -50.540498 -14.328023
50.671929 -49.970296 -11.858402
33.631372 -48.677831 -27.630948
28.757411 -46.511143 -24.906680
12.719283 -25.054271 -52.509055
16.742037 -35.284835 -31.821850
13.084980 -26.957551 -24.296750
41.501851 -50.400090 -42.515845
42.353193 -50.471238 -21.397657
24.165663 -43.483823 -22.320024
27.546824 -45.829893 -25.193689
58.941728 -47.241926 -7.115961
35.194861 -49.201813 -26.078970
54.996800 -48.852136 -32.573934
35.817171 -49.364079 -47.338675
14.986104 -32.143526 -8.626886
52.313737 -49.622513 -40.975914
14.137790 -30.302878 -42.662512
25.884729 -44.743162 -8.045468
16.053178 -34.143939 -20.419911
58.445693 -47.470390 -15.017300
35.315697 -49.233323 -53.226232
57.770953 -47.781163 -35.622974
12.979153 -26.406772 -47.510543
16.065154 -34.163774 -17.522594
26.143659 -44.919705 -12.186520
42.621413 -50.493657 -8.107493
36.690031 -49.591680 -14.044102
44.571231 -50.540348 -40.976309
13.601850 -28.927325 -23.268404
53.596182 -49.281449 -29.155923
52.145508 -49.667251 -40.404240
44.085563 -50.541529 -37.570431
30.113175 -47.221153 -33.599167
39.878532 -50.219032 -37.219996
50.018412 -50.085246 -34.196281
30.394091 -47.348880 -8.919874
28.440574 -46.332847 -48.699159
58.233904 -47.567940 -21.155102
28.802215 -46.536358 -14.040373
58.999255 -47.215429 -19.677785
58.027441 -47.663031 -45.661128
17.588666 -36.540800 -16.968104
44.224411 -50.541192 -40.988061
26.610322 -45.237886 -27.303168
27.944067 -46.053439 -39.068094
56.285538 -48.387853 -19.157427
37.053214 -49.686379 -17.097821
25.517982 -44.493106 -31.963123
12.772122 -25.329267 -39.483753
18.200034 -37.381027 -33.530392
15.229728 -32.638542 -32.708186
14.678309 -31.518122 -20.540119
33.717691 -48.708456 -47.405891
12.460964 -23.709841 -14.118952
16.363606 -34.658072 -42.022783
12.790955 -25.427290 -51.518613
13.099766 -27.034504 -35.343806
21.231720 -40.875990 -40.468064
12.477475 -23.795771 -23.959735
27.891934 -46.024103 -43.105744
12.673905 -24.818096 -47.665289
51.954835 -49.717963 -23.436797
42.403926 -50.475477 -15.244869
35.466866 -49.272739 -26.592588
19.773359 -39.312586 -33.764186
52.557748 -49.557617 -32.704959
12.759192 -25.261978 -9.212316
47.726988 -50.388361 -28.903962
36.834469 -49.629345 -19.350503
26.654847 -45.268242 -18.565731
36.908380 -49.648612 -17.520663
23.313555 -42.788722 -47.892019
47.070941 -50.446431 -44.519541
58.713944 -47.346839 -26.873944
13.668129 -29.097438 -13.106138
21.683415 -41.314071 -48.562709
16.507295 -34.896052 -9.366871
58.064858 -47.645800 -51.667438
42.049070 -50.445824 -2.755017
57.943215 -47.701818 -27.889517
17.717500 -36.717861 -3.038607
46.822508 -50.468414 -40.069584
42.605399 -50.492317 -12.464228
12.726686 -25.092797 -15.424543
31.481901 -47.843487 -25.480666
58.343025 -47.517674 -43.100355
32.879374 -48.411052 -40.979431
17.941110 -37.025178 -54.256487
13.440522 -28.513258 -31.291032
41.833587 -50.427813 -49.353630
17.595188 -36.549763 -23.943643
13.645613 -29.039648 -21.788309
12.318492 -22.968336 -9.203653
47.879894 -50.374834 -19.918389
22.052119 -41.671664 -20.440743
25.006259 -44.144205 -52.610324
44.478300 -50.540571 -40.924341
44.174524 -50.541313 -45.702587
55.861848 -48.540495 -8.719498
14.968934 -32.108638 -6.057749
39.565409 -50.165524 -17.846396
14.663721 -31.488480 -7.409316
12.640111 -24.642218 -15.408579
16.116163 -34.248255 -48.261367
38.816670 -50.037571 -32.931021
23.395057 -42.855207 -35.488141
19.599013 -39.111734 -49.530823
39.233714 -50.108838 -41.868573
46.521578 -50.495045 -20.890552
14.552559 -31.262613 -28.168869
12.623494 -24.555727 -13.098966
19.749233 -39.284793 -42.022542
14.774080 -31.712717 -12.629816
35.748190 -49.346095 -38.189294
44.743268 -50.539929 -46.946540
12.277788 -22.756490 -25.015627
12.654880 -24.719082 -43.032424
15.305500 -32.792500 -28.539081
13.937743 -29.789435 -2.609474
58.281288 -47.546109 -3.057899
20.024272 -39.601647 -51.659851
13.471794 -28.593521 -21.385459
38.989898 -50.067175 -12.777754
18.049147 -37.173656 -51.661027
38.931455 -50.057185 -42.345177
26.436425 -45.119320 -20.510126
56.471423 -48.320884 -25.761270
16.552754 -34.971342 -39.890984
53.151950 -49.399595 -47.311097
26.340295 -45.053775 -18.719178
26.122088 -44.904998 -16.367109
33.392312 -48.593022 -41.615907
45.439576 -50.538234 -26.253881
26.258900 -44.998281 -7.601553
12.413807 -23.464405 -17.525991
28.394506 -46.306918 -43.352799
39.690326 -50.186867 -23.533926
56.101849 -48.454029 -17.216361
49.303448 -50.211000 -40.098598
42.217968 -50.459938 -21.011823
13.012230 -26.578922 -42.424065
44.069595 -50.541568 -29.699904
13.748772 -29.304420 -20.095892
26.693787 -45.294796 -11.663091
44.477534 -50.540573 -39.305007
49.291678 -50.213068 -49.461329
12.608627 -24.478357 -5.382967
16.860239 -35.480601 -36.965421
19.174111 -38.622232 -27.616181
21.804113 -41.431133 -22.344984
12.344051 -23.101360 -10.336051
48.578482 -50.313005 -27.814197
24.158530 -43.478005 -21.639780
17.529330 -36.459251 -20.966320
42.583719 -50.490504 -15.924129
49.342454 -50.204138 -38.953984
23.569006 -42.997105 -43.781167
53.478404 -49.312771 -8.190028
12.845975 -25.713640 -34.439879
58.610303 -47.394575 -8.609739
25.408863 -44.418709 -32.712591
15.067579 -32.309073 -48.593308
29.934123 -47.139744 -34.703772
44.239308 -50.541160 -38.886540
31.004469 -47.626407 -18.553453
39.556737 -50.164042 -13.947411
36.567344 -49.559690 -12.384504
48.124655 -50.353173 -22.801909
55.058527 -48.829902 -33.276678
36.628664 -49.575679 -11.099365
51.240261 -49.870329 -9.269312
55.797721 -48.563595 -42.964566
55.513730 -48.665913 -36.662858
36.336405 -49.499473 -46.461110
39.704592 -50.189307 -2.196615
17.491588 -36.407382 -27.817689
20.219592 -39.826663 -23.063623
45.158122 -50.538918 -28.758951
57.932419 -47.706793 -46.991275
56.350770 -48.364351 -9.954964
52.854467 -49.478711 -45.793906
58.845092 -47.286438 -31.715062
31.105742 -47.672454 -3.546524
33.184903 -48.519439 -47.647165
21.769804 -41.397858 -27.299393
12.985162 -26.438046 -50.099778
19.602877 -39.116186 -9.468474
50.102022 -50.070533 -32.242694
42.553080 -50.487940 -13.992518
19.725328 -39.257255 -39.939002
47.140815 -50.440245 -49.093751
46.792736 -50.471044 -46.740745
50.470556 -50.005717 -9.419066
13.082409 -26.944168 -44.500683
19.832138 -39.380302 -43.492435
56.430835 -48.335508 -30.718139
58.425749 -47.479578 -8.406435
12.390329 -23.342216 -9.394375
38.142950 -49.922440 -22.111678
28.893931 -46.587969 -18.557358
48.167432 -50.349384 -18.613880
50.967224 -49.918357 -28.765603
16.183477 -34.359741 -42.614874
12.321214 -22.982507 -24.850139
31.577053 -47.886750 -23.833625
50.194074 -50.054347 -48.944000
24.036962 -43.378835 -7.984129
15.058065 -32.289742 -3.354583
12.551386 -24.180445 -27.110928
21.866590 -41.491726 -15.230232
12.683582 -24.868458 -17.435715
53.082285 -49.418122 -14.657476
33.096158 -48.487956 -52.268814
30.813954 -47.539786 -33.659192
33.365937 -48.583667 -37.898010
19.581315 -39.091346 -21.636928
26.434310 -45.117876 -17.789991
28.683639 -46.469628 -18.078661
26.390606 -45.088077 -17.287254
18.997896 -38.419228 -18.605207
12.848614 -25.727379 -40.432477
44.777959 -50.539845 -49.407318
59.163052 -47.139981 -26.062640
12.844506 -25.705998 -7.579821
55.330999 -48.731739 -34.694500
34.362514 -48.937215 -10.404330
26.663073 -45.273850 -20.542107
13.026716 -26.654312 -34.949277
25.809678 -44.691990 -16.866909
17.877424 -36.937652 -52.305693
20.177416 -39.778074 -29.401804
52.418478 -49.594658 -31.717240
19.792598 -39.334751 -43.997229
31.319496 -47.769648 -17.751646
26.658834 -45.270961 -15.733267
15.990383 -34.039936 -28.935654
27.573038 -45.844644 -27.724111
26.548300 -45.195598 -53.567261
43.852818 -50.542098 -41.795375
44.728876 -50.539962 -12.054276
58.435640 -47.475023 -47.567999
19.435982 -38.923917 -19.606240
17.386720 -36.263258 -17.238057
14.619115 -31.397846 -20.030631
29.304326 -46.818916 -37.216405
21.726200 -41.355568 -8.587980
12.781349 -25.377294 -44.107971
47.045573 -50.448671 -6.900666
39.463629 -50.148129 -19.172841
58.893171 -47.264291 -27.976530
13.612670 -28.955097 -11.804264
24.264086 -43.564111 -21.042713
38.028679 -49.902912 -40.857747
17.751787 -36.764983 -19.029283
13.666207 -29.092505 -12.595235
30.409026 -47.355672 -28.535501
15.059529 -32.292717 -7.864714
18.385962 -37.636554 -35.571522
20.214002 -39.820223 -43.132825
45.167171 -50.538894 -16.402206
15.993445 -34.045008 -21.500692
19.693566 -39.220662 -16.772341
55.693282 -48.601224 -16.602561
36.429811 -49.523826 -14.831337
53.132095 -49.404870 -19.592298
21.153262 -40.799898 -36.797008
12.869092 -25.833952 -40.057117
36.352448 -49.503655 -7.233289
45.063496 -50.539146 -9.500718
21.254019 -40.897618 -31.379769
17.891403 -36.956862 -8.818684
45.007502 -50.539283 -8.635861
53.599290 -49.280625 -13.993630
45.493607 -50.538100 -18.319503
53.293936 -49.361834 -12.039660
33.217586 -48.531034 -37.537275
17.574930 -36.521922 -18.044980
15.265275 -32.710767 -28.471462
28.813978 -46.542975 -14.260275
36.949030 -49.659217 -11.121751
22.933677 -42.478838 -28.791009
31.634564 -47.912900 -13.434487
41.623713 -50.410270 -35.551515
50.050600 -50.079581 -11.398847
28.284749 -46.245155 -12.363340
38.001059 -49.898195 -22.525860
36.106601 -49.439552 -43.979258
13.066944 -26.863683 -32.517362
57.561211 -47.877775 -47.256632
31.110442 -47.674592 -18.256118
36.682858 -49.589809 -13.253743
21.813502 -41.440238 -23.962792
50.485127 -50.003154 -11.816654
53.844987 -49.215276 -9.973220
49.751217 -50.132244 -41.913717
16.387892 -34.698295 -11.213400
42.897251 -50.516708 -21.380506
18.231461 -37.424218 -40.147324
36.530464 -49.550073 -15.137872
42.790211 -50.507764 -9.937827
52.415506 -49.595445 -40.139558
16.607945 -35.062749 -35.205057
50.898905 -49.930370 -18.209277
28.787174 -46.527891 -13.333668
18.073653 -37.207335 -44.131313
12.448616 -23.645570 -9.747373
50.029313 -50.083326 -37.137782
31.608464 -47.901036 -17.519645
15.177406 -32.532229 -46.658371
38.524719 -49.987682 -42.907479
12.857275 -25.772455 -45.827614
26.058957 -44.861954 -41.985105
13.797129 -29.428532 -8.811423
57.856477 -47.741771 -52.136991
47.801593 -50.381759 -44.432122
56.279712 -48.389948 -23.652121
55.381015 -48.713716 -47.870702
55.165511 -48.791357 -39.074290
17.368119 -36.237693 -20.945418
46.929803 -50.458919 -43.026066
39.419512 -50.140589 -22.902909
30.820323 -47.542680 -43.382938
36.893877 -49.644833 -22.970097
25.354703 -44.381782 -50.099766
31.458790 -47.832979 -27.448753
28.952102 -46.620707 -16.728556
14.717569 -31.597893 -29.467453
35.389158 -49.252477 -23.569083
12.869365 -25.835378 -38.522213
24.083967 -43.417178 -27.151811
31.559161 -47.878617 -33.845975
13.113254 -27.104703 -47.890244
13.875464 -29.629589 -16.097449
25.655631 -44.586960 -48.346317
12.722164 -25.069260 -54.344476
43.951466 -50.541858 -25.101026
38.359573 -49.959458 -23.707599
21.652332 -41.283926 -15.295744
12.912452 -26.059623 -31.942265
17.250573 -36.076145 -28.327346
47.001349 -50.452584 -28.559423
29.941154 -47.142941 -37.908343
17.646092 -36.619722 -17.786591
14.020597 -30.002091 -30.669229
33.565423 -48.654436 -52.048972
55.110920 -48.811028 -40.264717
19.675580 -39.199941 -53.495848
58.701317 -47.352649 -22.593461
23.919875 -43.283322 -8.335471
26.271846 -45.007105 -23.663551
35.349845 -49.242228 -37.525772
52.788143 -49.496345 -46.957984
33.172664 -48.515097 -42.360374
14.771566 -31.707609 -18.839928
41.337512 -50.386352 -47.076358
12.456978 -23.689093 -18.665966
36.734750 -49.603341 -20.567251
13.642396 -29.031391 -6.696782
58.049353 -47.652933 -50.359445
13.748033 -29.302522 -12.379206
28.146075 -46.167117 -38.755155
38.331865 -49.954724 -43.361687
45.005592 -50.539292 -20.983581
19.200833 -38.653018 -27.331472
17.366542 -36.235526 -25.328080
20.030657 -39.609003 -36.227563
13.981293 -29.901212 -35.049966
39.589642 -50.169665 -16.561567
30.185999 -47.254267 -46.048827
16.262775 -34.491076 -53.796152
58.842165 -47.287781 -15.041427
15.191239 -32.560334 -35.531907
28.694462 -46.475718 -18.115188
15.230495 -32.640100 -28.147678
19.252280 -38.712286 -29.709763
27.892078 -46.024181 -44.289030
20.903345 -40.557513 -49.810788
18.056015 -37.183096 -35.634085
17.302745 -36.147848 -9.315154
49.234898 -50.223056 -32.953188
16.219618 -34.419598 -14.547192
25.400288 -44.412861 -35.334288
12.646429 -24.675097 -44.077706
50.835987 -49.941433 -21.587347
28.024891 -46.098922 -43.789363
41.158993 -50.371432 -35.423874
20.125740 -39.718541 -27.345017
13.883355 -29.649842 -40.149709
21.829709 -41.455957 -10.306362
47.956502 -50.368053 -11.325963
12.416638 -23.479144 -24.315905
26.460164 -45.135504 -17.885734
38.913866 -50.054179 -41.555596
38.148670 -49.923421 -34.351853
21.136993 -40.784119 -27.459464
44.491818 -50.540543 -7.708058
33.802166 -48.738426 -17.215916
14.009813 -29.974412 -40.686883
12.377163 -23.273693 -16.665614
18.165755 -37.333916 -38.229912
27.824610 -45.986212 -34.564883
30.500523 -47.397276 -49.891567
29.322413 -46.829096 -18.071422
55.404792 -48.705156 -43.819015
58.437198 -47.474306 -37.681295
17.690184 -36.680319 -12.721023
21.976802 -41.598616 -24.796774
35.703866 -49.334536 -28.129688
12.875751 -25.868613 -41.882868
56.587423 -48.279092 -34.445206
42.192594 -50.457815 -12.203756
56.211173 -48.414645 -17.669899
13.987365 -29.916796 -48.993800
32.885301 -48.413152 -31.026619
16.023489 -34.094767 -26.876970
42.102177 -50.450259 -11.240718
35.524148 -49.287677 -47.761564
34.353042 -48.933855 -34.191478
13.911858 -29.722998 -45.135377
36.288777 -49.487051 -45.776083
14.968817 -32.108401 -42.782813
19.858884 -39.411113 -46.252418
18.309543 -37.531529 -43.035858
44.567216 -50.540355 -35.756089
30.852545 -47.557332 -47.764645
58.426454 -47.479249 -37.823797
40.748238 -50.337103 -32.913894
32.774368 -48.373798 -29.552238
40.915089 -50.351046 -36.254156
56.089898 -48.458334 -47.655586
19.699584 -39.227596 -12.998546
22.002993 -41.624019 -18.266632
31.012437 -47.630033 -14.561182
19.985304 -39.556754 -36.892019
17.357136 -36.222600 -14.744214
12.524318 -24.039565 -7.596911
15.353013 -32.889042 -44.841968
56.335997 -48.369670 -24.819689
57.810616 -47.762895 -42.680538
12.957074 -26.291860 -42.077307
47.494247 -50.408960 -8.562877
37.037722 -49.682340 -12.069293
13.012640 -26.581053 -34.828180
17.369862 -36.240088 -19.507943
41.081458 -50.364954 -30.681375
58.041434 -47.656581 -35.180744
21.964975 -41.587147 -18.763513
53.614085 -49.276691 -12.794266
16.044845 -34.130136 -24.470095
17.746234 -36.757351 -12.616136
18.421706 -37.685679 -37.671391
25.688657 -44.609478 -43.354750
34.242283 -48.894563 -18.956878
57.847555 -47.745886 -35.822115
53.721322 -49.248167 -32.163835
31.492238 -47.848188 -26.297595
13.673562 -29.111384 -13.694782
27.967043 -46.066368 -32.375979
44.959279 -50.539399 -19.365648
15.931495 -33.942406 -17.803831
45.567236 -50.537920 -16.719999
30.611164 -47.447579 -35.465856
52.700521 -49.519644 -34.093582
17.436853 -36.332158 -18.883125
45.538350 -50.537989 -20.121321
21.939759 -41.562692 -53.829899
16.703595 -35.221166 -28.900169
15.210383 -32.599234 -46.093746
46.659684 -50.482825 -36.943316
12.823996 -25.599252 -8.175077
58.269546 -47.551522 -47.130234
42.384067 -50.473821 -4.845053
31.393700 -47.803386 -14.694563
12.981175 -26.417297 -26.204493
18.322281 -37.549035 -31.819417
32.870098 -48.407759 -30.693022
44.192295 -50.541270 -40.658579
12.351185 -23.138489 -34.180386
12.365548 -23.213239 -23.690659
37.033381 -49.681205 -22.155688
47.334407 -50.423112 -11.796035
48.573168 -50.313476 -16.010024
19.997658 -39.570986 -44.330695
17.814826 -36.851621 -19.914038
12.959828 -26.306190 -44.669405
47.034813 -50.449626 -44.096367
12.233030 -22.523548 -23.975416
21.419656 -41.058263 -42.713702
16.610162 -35.066420 -53.438336
12.659225 -24.741692 -5.314693
13.077251 -26.917324 -20.746440
33.607182 -48.669247 -18.111477
18.276646 -37.486317 -30.536275
51.009240 -49.910965 -24.229381
38.225357 -49.936525 -37.995519
56.268135 -48.394119 -21.443593
26.105942 -44.893989 -13.200390
19.995903 -39.568965 -31.535602
42.471050 -50.481092 -20.755154
55.859420 -48.541371 -20.835705
44.929571 -50.539475 -47.994089
56.581037 -48.281389 -16.920146
21.605511 -41.238516 -43.914046
13.538404 -28.764485 -35.628832
35.389144 -49.252477 -27.249634
58.796271 -47.308915 -11.456762
23.523749 -42.960188 -51.757864
13.928285 -29.765159 -39.871286
16.407652 -34.731022 -45.943506
28.189742 -46.191692 -53.549536
21.102905 -40.751057 -34.874114
27.851299 -46.001234 -30.310126
58.896882 -47.262579 -16.721324
12.864511 -25.810112 -44.718479
57.770209 -47.781508 -35.196014
35.871157 -49.378159 -40.334218
17.383623 -36.259002 -14.050956
12.776463 -25.351867 -38.586768
12.332183 -23.039588 -32.599755
59.216471 -47.115384 -19.919299
42.556626 -50.488243 -25.216324
16.647434 -35.128151 -31.569945
53.590331 -49.283006 -15.592839
40.750087 -50.337262 -18.315434
20.039407 -39.619084 -51.578713
42.460335 -50.480192 -23.475196
16.230070 -34.436909 -12.909157
16.200202 -34.387440 -10.919724
12.959926 -26.306705 -42.000805
23.686319 -43.092802 -41.636832
53.827260 -49.219995 -27.017276
17.512943 -36.436731 -24.350455
59.000173 -47.215004 -11.957259
19.836663 -39.385516 -53.860863
15.077287 -32.328798 -42.601572
39.756478 -50.198172 -19.813043
18.893355 -38.298794 -18.024885
28.844119 -46.559938 -9.262126
30.382537 -47.343629 -43.192037
22.006072 -41.627004 -22.453949
12.997117 -26.500266 -47.725276
13.694136 -29.164189 -16.928902
16.245685 -34.462770 -47.712646
22.083630 -41.702225 -20.031943
44.858656 -50.539648 -17.491305
27.978765 -46.072963 -40.830425
17.928261 -37.007518 -19.402704
42.008057 -50.442393 -18.777564
16.341216 -34.620991 -17.307437
23.874797 -43.246550 -15.151897
14.040514 -30.053210 -31.520752
28.755046 -46.509812 -22.321266
18.282317 -37.494111 -42.085566
13.749927 -29.307383 -19.531811
23.974092 -43.327549 -4.178106
47.849672 -50.377513 -45.928484
17.891795 -36.957402 -42.062584
12.372232 -23.248027 -28.015242
13.473010 -28.596642 -13.811852
26.485056 -45.152476 -10.237660
22.121061 -41.738527 -14.093215
35.443104 -49.266543 -42.260877
41.172131 -50.372530 -29.686973
18.219522 -37.407809 -41.658734
22.134046 -41.751121 -31.092230
21.245202 -40.889066 -51.399228
59.046936 -47.193468 -22.572462
39.153393 -50.095114 -14.054365
12.497223 -23.898552 -16.245148
58.612242 -47.393681 -19.702772
16.517969 -34.913730 -42.812983
15.008796 -32.189632 -42.559801
16.506049 -34.893989 -4.196184
38.973953 -50.064449 -39.592610
19.585107 -39.095714 -53.465954
38.570786 -49.995557 -48.528301
21.459278 -41.096692 -33.276769
15.950233 -33.973439 -14.438553
15.263145 -32.706441 -31.311434
36.648226 -49.580778 -20.134389
13.949284 -29.819057 -42.274738
34.317314 -48.921181 -27.809191
35.461230 -49.271268 -30.586613
16.178488 -34.351477 -12.426688
13.839385 -29.536987 -10.218780
28.953252 -46.621352 -6.906055
16.607940 -35.062741 -50.189026
46.343490 -50.510810 -30.322892
44.816020 -50.539748 -14.243453
21.043766 -40.693701 -28.734649
13.021621 -26.627796 -25.070301
27.931735 -46.046499 -43.441703
52.497887 -49.573539 -51.482741
15.296136 -32.773475 -32.051394
55.808425 -48.559740 -9.205959
56.334053 -48.370371 -21.513774
32.836697 -48.395910 -31.540985
23.607486 -43.028493 -47.538473
50.190330 -50.055008 -38.793683
14.074946 -30.141583 -33.534646
12.928167 -26.141408 -46.953934
39.257868 -50.112967 -6.788937
14.144106 -30.319091 -38.180306
26.257146 -44.997082 -22.676392
21.362455 -41.002786 -37.451536
33.074600 -48.480308 -46.085151
13.795624 -29.424669 -55.294444
59.189538 -47.127786 -25.949850
49.854886 -50.114004 -41.016824
21.865768 -41.490928 -15.442743
31.534646 -47.867471 -17.520486
45.113402 -50.539026 -16.050235
53.216761 -49.382356 -11.288732
23.920737 -43.284026 -15.921574
39.449492 -50.145714 -17.082549
52.954441 -49.452119 -40.447564
30.403037 -47.352950 -34.313528
17.771194 -36.791656 -10.662217
44.178169 -50.541302 -28.073972
56.535348 -48.297855 -8.751508
25.668531 -44.595755 -39.345308
26.527669 -45.181532 -28.906445
16.053272 -34.144095 -16.672690
55.828017 -48.552685 -47.841765
28.904077 -46.593679 -17.336994
17.496668 -36.414363 -28.010769
45.026331 -50.539240 -8.344032
17.758499 -36.774208 -15.004337
24.201672 -43.513196 -15.057695
37.967326 -49.892427 -26.221017
16.464785 -34.825646 -6.521398
55.132085 -48.803399 -36.967650
15.957608 -33.985654 -5.027945
42.030913 -50.444302 -49.615235
12.448945 -23.647285 -24.718141
38.723738 -50.021691 -43.081561
19.261738 -38.723182 -21.820553
56.317015 -48.376512 -49.354582
28.182349 -46.187531 -7.267869
28.364477 -46.290022 -13.574320
13.966242 -29.862580 -42.517534
23.844024 -43.221449 -15.892993
36.494292 -49.540644 -18.381982
12.546041 -24.152626 -11.138292
15.904103 -33.897038 -24.814656
19.893465 -39.450954 -45.568896
40.844460 -50.345148 -31.891120
46.964095 -50.455886 -46.777513
12.575188 -24.304321 -20.814906
12.326614 -23.010608 -24.343862
19.985593 -39.557086 -1.679083
44.877975 -50.539601 -24.899199
16.579655 -35.015895 -28.509292
52.141765 -49.668245 -40.902326
32.774140 -48.373716 -35.383124
55.327054 -48.733162 -38.094362
29.253377 -46.790246 -22.348760
25.907662 -44.758797 -46.439768
59.200787 -47.122611 -29.948365
33.999959 -48.808592 -49.238728
52.827739 -49.485812 -40.496552
12.422383 -23.509041 -12.510630
47.949543 -50.368670 -11.128914
15.997881 -34.052354 -22.019851
28.814673 -46.543369 -16.293282
35.221585 -49.208780 -26.746655
21.704203 -41.334234 -18.512647
19.282768 -38.747409 -18.190061
55.226396 -48.769420 -43.495010
16.167373 -34.333068 -24.964667
44.181994 -50.541295 -36.000118
33.981605 -48.802082 -22.437566
58.407561 -47.487950 -18.073452
30.731684 -47.502378 -35.275958
16.048075 -34.135486 -7.908398
15.914876 -33.914881 -19.382894
57.655015 -47.834566 -36.950359
23.679276 -43.087055 -7.355068
44.263591 -50.541096 -46.648342
20.241714 -39.852146 -23.520451
28.622394 -46.435164 -14.527210
48.146617 -50.351225 -15.590507
46.957630 -50.456457 -35.669514
41.307953 -50.383881 -39.727323
41.543659 -50.403583 -35.044428
32.825775 -48.392035 -38.751667
47.096914 -50.444126 -52.557943
20.979137 -40.631021 -41.831315
53.725033 -49.247180 -29.167639
53.460781 -49.317452 -15.903868
38.655913 -50.010102 -35.087591
57.940827 -47.702924 -50.281239
27.654769 -45.890637 -32.228723
58.866825 -47.276427 -11.725561
46.696169 -50.479597 -24.773935
17.710346 -36.708030 -9.053868
17.763217 -36.780691 -19.482859
54.906598 -48.884638 -36.692579
38.170285 -49.927115 -32.982565
14.722136 -31.607174 -23.353399
14.541047 -31.239221 -34.212004
17.452188 -36.353232 -31.397982
41.346936 -50.387142 -39.017422
50.493188 -50.001736 -7.620843
46.324717 -50.512469 -30.318687
41.611520 -50.409252 -45.267596
25.696796 -44.615025 -40.157504
47.507264 -50.407813 -44.083524
15.470446 -33.127651 -47.375075
12.447397 -23.639226 -15.710581
12.603885 -24.453677 -13.854932
28.954479 -46.622044 -6.511188
16.377744 -34.681489 -38.703080
16.273680 -34.509136 -14.936519
12.387694 -23.328502 -22.277550
20.919809 -40.573481 -33.290701
43.979135 -50.541788 -35.674284
42.236427 -50.461476 -29.771388
53.400501 -49.333489 -13.593519
16.729707 -35.264412 -41.356322
18.428805 -37.695435 -43.655171
44.936245 -50.539456 -7.313355
53.735584 -49.244374 -23.365032
16.872213 -35.500433 -30.067881
16.827110 -35.425733 -39.638002
16.055576 -34.147910 -9.790482
56.311287 -48.378577 -20.068527
13.614055 -28.958651 -12.521665
49.683853 -50.144091 -32.642615
15.168939 -32.515024 -41.237878
58.287338 -47.543328 -42.660750
50.410841 -50.016220 -6.092708
19.915298 -39.476106 -43.892178
16.628405 -35.096635 -6.790855
41.521424 -50.401721 -11.149423
50.703098 -49.964811 -9.328291
33.391807 -48.592844 -14.262512
31.211418 -47.720504 -18.487386
33.143684 -48.504816 -52.808922
12.746017 -25.193405 -29.022301
25.380705 -44.399508 -25.053671
53.728899 -49.246150 -29.247272
12.495360 -23.888857 -22.428162
52.539130 -49.562571 -32.013535
26.644236 -45.261007 -24.249483
12.483520 -23.827234 -13.566033
23.417019 -42.873123 -41.979876
42.474291 -50.481360 -21.610382
20.953327 -40.605990 -26.720359
12.642302 -24.653621 -49.739323
30.125475 -47.226747 -32.749545
12.758510 -25.258426 -7.122008
36.027832 -49.419012 -41.821764
50.701427 -49.965105 -12.641408
41.615350 -50.409576 -44.114808
44.399353 -50.540763 -46.361321
55.329731 -48.732193 -38.279103
52.720039 -49.514456 -32.567309
13.943925 -29.805301 -39.383895
46.941082 -50.457923 -39.988462
57.489700 -47.910707 -31.290733
25.889196 -44.746208 -36.334602
12.670296 -24.799313 -0.662397
31.434406 -47.821893 -13.950695
12.974686 -26.383522 -36.480288
13.037414 -26.709991 -23.809316
33.854906 -48.757134 -17.399905
12.490126 -23.861616 -18.989316
44.070842 -50.541564 -42.853206
41.295819 -50.382868 -43.714721
23.474606 -42.920098 -39.432593
23.940731 -43.300337 -22.230607
35.623263 -49.313522 -31.446306
14.716400 -31.595518 -16.287228
23.990800 -43.341178 -7.139625
12.551417 -24.180605 -14.972067
45.311625 -50.538542 -15.271547
22.153557 -41.770045 -21.390519
52.281127 -49.631188 -38.931841
53.821802 -49.221445 -17.349076
32.796825 -48.381763 -45.881614
53.442799 -49.322239 -12.175332
33.258849 -48.545674 -40.106868
28.500778 -46.366724 -25.198516
39.465079 -50.148377 -25.622948
28.594166 -46.419280 -8.828146
38.719257 -50.020928 -41.261032
46.627751 -50.485650 -31.533676
56.240451 -48.404095 -19.008367
30.803816 -47.535174 -34.578892
28.544730 -46.391457 -22.360964
12.285449 -22.796364 -14.370348
26.239077 -44.984763 -5.310398
28.682843 -46.469183 -22.467762
27.964144 -46.064736 -30.877640
44.346253 -50.540894 -49.773017
26.212405 -44.966579 -19.691542
21.326181 -40.967604 -45.041354
15.880777 -33.858405 -19.651523
12.387595 -23.327983 -31.827138
16.392239 -34.705495 -53.229747
13.662642 -29.083356 -14.885903
39.048003 -50.077105 -19.785124
14.691904 -31.545746 -28.011765
19.325737 -38.796911 -12.201178
35.290375 -49.226719 -27.295866
19.184690 -38.634422 -20.788998
56.117661 -48.448330 -5.897666
49.799296 -50.123787 -48.710563
22.152586 -41.769104 -28.445047
33.427988 -48.605677 -12.022639
50.585116 -49.985566 -12.568379
42.573311 -50.489635 -14.666203
19.604355 -39.117888 -54.267956
22.007642 -41.628528 -4.233538
13.818928 -29.484482 -19.053588
39.415567 -50.139915 -11.523325
25.523519 -44.496883 -38.474096
42.203081 -50.458692 -22.163099
19.974560 -39.544377 -49.115789
53.593594 -49.282135 -15.164578
25.892801 -44.748668 -6.099087
56.102185 -48.453911 -19.857295
13.814503 -29.473125 -37.962587
58.493470 -47.448383 -7.346751
25.978025 -44.806774 -9.345772
43.966451 -50.541820 -46.945683
21.114755 -40.762551 -45.207672
23.253276 -42.739550 -47.462533
17.793720 -36.822614 -11.559801
38.753840 -50.026835 -33.286625
28.305862 -46.257035 -10.015203
25.988067 -44.813621 -51.500413
32.408590 -48.244031 -46.055429
12.573323 -24.294611 -10.579086
49.774009 -50.128233 -45.481356
42.192452 -50.457805 -24.563202
45.021964 -50.539250 -5.315900
36.189010 -49.461040 -37.966357
14.140147 -30.308929 -35.178029
53.248030 -49.374042 -7.241326
56.372606 -48.356486 -16.963185
53.127219 -49.406168 -20.346974
52.904208 -49.465474 -38.876386
56.282253 -48.389035 -27.956895
17.504428 -36.425029 -16.676222
15.232219 -32.643603 -28.841551
13.649663 -29.050043 -23.717791
36.864012 -49.637047 -16.778296
44.799641 -50.539787 -15.065853
21.643709 -41.275563 -3.958931
55.538716 -48.656902 -45.489405
36.249401 -49.476784 -49.218523
36.273742 -49.483133 -52.619955
49.750564 -50.132356 -45.112145
50.379538 -50.021721 -9.950317
19.969072 -39.538055 -44.624179
17.949278 -37.036401 -42.645141
30.710195 -47.492607 -42.320447
21.223140 -40.867670 -50.034802
16.325043 -34.594205 -15.846013
52.921371 -49.460914 -8.250893
55.520013 -48.663643 -40.169702
26.455514 -45.132333 -16.684418
40.245421 -50.281726 -29.626806
31.169287 -47.701347 -22.647897
51.055467 -49.902832 -27.431232
38.793263 -50.033574 -37.193962
19.717424 -39.248149 -35.807262
28.260870 -46.231717 -49.513150
26.324535 -45.043028 -19.954639
19.663521 -39.186049 -12.114091
12.313280 -22.941208 -35.550025
39.334871 -50.126124 -16.304082
58.570242 -47.413030 -18.310301
13.034859 -26.696696 -43.933481
13.734978 -29.269014 -28.494061
12.370167 -23.237284 -23.194925
14.705360 -31.573086 -17.188678
21.252780 -40.896416 -33.786485
42.008419 -50.442425 -45.998219
59.021792 -47.205044 -14.544808
21.395928 -41.035250 -42.528005
47.173229 -50.437374 -39.735348
38.177553 -49.928351 -21.790983
55.226708 -48.769314 -46.831268
47.029694 -50.450075 -42.745092
16.161715 -34.323698 -5.327980
33.299907 -48.560242 -32.031184
15.246477 -32.672573 -49.497109
12.967459 -26.345907 -49.210796
12.889376 -25.939521 -33.893271
13.959275 -29.844698 -48.308487
27.508220 -45.808167 -25.034219
32.931848 -48.429666 -47.506477
15.153404 -32.483459 -35.956540
52.385473 -49.603436 -29.165175
31.265511 -47.745098 -18.011301
43.925462 -50.541916 -51.698575
14.105174 -30.219167 -34.536020
12.844196 -25.704380 -49.231562
25.526817 -44.499131 -43.738625
24.525951 -43.777723 -18.139031
13.697612 -29.173109 -12.258535
39.929890 -50.227810 -15.222942
25.432680 -44.434946 -37.764744
28.739320 -46.500962 -17.524351
47.517612 -50.406894 -14.869280
13.771604 -29.363019 -13.959958
18.333936 -37.565053 -32.564800
19.360685 -38.837172 -23.489813
14.984989 -32.141259 -12.781183
13.045900 -26.754158 -35.069448
44.080521 -50.541542 -43.554902
26.504421 -45.165678 -33.014628
13.113292 -27.104902 -32.308823
21.822736 -41.449193 -15.422788
57.553751 -47.881202 -34.239547
16.322070 -34.589280 -15.149429
45.683420 -50.537637 -26.017677
18.619508 -37.957526 -40.927732
38.398176 -49.966056 -40.827405
34.238330 -48.893158 -24.180349
39.760008 -50.198776 -27.543784
43.636342 -50.542627 -36.251805
12.929380 -26.147722 -36.255713
23.627800 -43.045064 -45.365028
22.187943 -41.803394 -24.483473
47.022377 -50.450728 -43.132400
21.562132 -41.196444 -35.426194
42.850455 -50.512798 -23.625954
59.109561 -47.164620 -29.398529
27.982645 -46.075147 -52.951936
21.183242 -40.828973 -40.638748
55.570239 -48.645546 -36.736888
15.075760 -32.325696 -35.053053
49.798234 -50.123971 -42.847677
49.578696 -50.162584 -28.260942
57.587902 -47.865479 -28.279017
14.003569 -29.958386 -53.213004
35.676610 -49.327430 -31.725742
27.691856 -45.911506 -45.966126
13.060815 -26.831780 -37.231532
26.196609 -44.955808 -6.145913
28.233121 -46.216104 -46.382398
28.562057 -46.401210 -23.896613
42.426809 -50.477393 -19.822548
52.546705 -49.560557 -40.895372
12.183495 -22.265744 -26.925905
20.132700 -39.726560 -38.099955
26.098282 -44.888767 -12.360812
41.754457 -50.421199 -49.242689
13.062550 -26.840815 -36.396429
38.212624 -49.934348 -34.082982
34.641206 -49.036087 -26.509058
54.047104 -49.161527 -18.616997
12.544771 -24.146017 -18.566655
27.860217 -46.006252 -24.931572
15.141371 -32.459011 -42.058958
42.509781 -50.484323 -16.459180
12.774643 -25.342393 -39.748743
36.345499 -49.501844 -19.641426
17.917909 -36.993291 -47.214450
31.274911 -47.749375 -12.928894
25.810556 -44.692588 -50.416148
16.056040 -34.148679 -29.070728
19.942121 -39.507007 -51.235963
21.330919 -40.972200 -34.717971
21.714648 -41.344364 -16.765602
22.034082 -41.654169 -14.680079
28.283241 -46.244307 -3.091987
14.117745 -30.251432 -30.513976
28.843787 -46.559750 -16.669426
31.298197 -47.759961 -6.518730
12.429882 -23.548072 -17.241273
35.580044 -49.302250 -43.065053
14.770874 -31.706204 -34.884358
15.402116 -32.988813 -37.545985
26.206825 -44.962775 -23.656598
53.096184 -49.414422 -10.813711
42.098036 -50.449913 -43.855533
30.583439 -47.434972 -31.294336
18.485913 -37.773922 -25.958852
19.270070 -38.732781 -19.972246
37.420779 -49.782223 -27.459221
42.137170 -50.453184 -13.516721
33.514002 -48.636193 -7.996490
17.612342 -36.573340 -19.470674
12.487733 -23.849161 -13.657075
31.177595 -47.705127 -53.240721
26.516517 -45.173927 -26.722294
52.885931 -49.470338 -49.660209
33.533594 -48.643142 -50.647062
59.019138 -47.206269 -13.915973
25.982134 -44.809575 -15.203501
12.438274 -23.591744 -18.618085
52.487764 -49.576228 -42.937038
19.486902 -38.982579 -14.784226
45.121697 -50.539004 -19.671549
55.310879 -48.738987 -6.654858
21.160210 -40.806637 -29.581367
12.725220 -25.085165 -13.021116
16.682171 -35.185683 -48.336347
26.687974 -45.290829 -27.521493
36.659221 -49.583646 -32.495130
19.198168 -38.649949 -23.333330
