4.081473 34.011538 -9.477418
6.498008 34.179414 -25.595351
4.398770 34.033582 -31.182957
5.906497 34.138321 -11.829668
3.490584 33.970490 -43.247199
6.067851 34.149530 -16.297737
7.118909 34.222549 -26.041732
5.021577 34.076847 -2.456839
5.295908 34.095905 -22.462182
4.654892 34.051373 -8.344719
4.967367 34.073082 -23.168519
2.348586 33.891155 -32.874023
3.511743 33.971959 -45.191992
5.974803 34.143065 -17.577501
3.691031 33.984414 -42.961398
5.476742 34.108469 -8.806649
3.870855 33.996907 -30.765653
3.532905 33.973431 -30.623062
5.071209 34.080295 -5.915728
4.768003 34.059229 -19.490596
4.562709 34.044970 -51.667688
1.928951 33.862005 -39.584127
6.073173 34.149900 -12.401121
7.077077 34.219641 -36.184484
6.218291 34.159980 -25.026187
2.780222 33.921140 -32.160753
4.671163 34.052506 -48.913348
2.614415 33.909624 -43.250075
5.940185 34.140661 -15.430427
6.581608 34.185220 -21.449060
5.200070 34.089246 -14.489614
3.673021 33.983163 -44.490451
5.658317 34.121079 -26.999722
2.425896 33.896527 -30.645890
2.550751 33.905201 -33.168850
4.788812 34.060677 -48.106345
5.332798 34.098468 -16.400182
7.362022 34.239436 -26.238348
5.861822 34.135218 -10.887423
6.712815 34.194334 -8.207898
4.941490 34.071281 -51.272382
4.819728 34.062825 -8.396326
5.907267 34.138375 -32.604269
4.439089 34.036383 -45.787788
3.765887 33.989614 -41.122800
7.062288 34.218615 -13.583554
1.605100 33.839506 -39.946380
6.187435 34.157837 -21.193836
7.295019 34.234780 -40.259475
2.458060 33.898761 -39.884010
5.429767 34.105202 -12.549544
2.572357 33.906700 -49.170090
4.457290 34.037646 -36.392169
6.418671 34.173900 -8.810682
4.820375 34.062867 -14.349460
5.153479 34.086011 -10.511699
4.069302 34.010692 -39.226400
6.425941 34.174405 -22.458525
6.558370 34.183607 -20.215553
6.226151 34.160525 -7.344886
7.549353 34.252447 -25.505369
5.966461 34.142485 -15.784567
5.675295 34.122259 -23.051965
2.250074 33.884312 -22.394669
5.761439 34.128246 -10.678776
1.306869 33.818789 -41.426899
6.233549 34.161043 -25.759292
5.350818 34.099719 -23.894358
2.926802 33.931322 -50.862673
5.965392 34.142412 -23.062344
2.590454 33.907957 -35.619472
5.591205 34.116419 -9.048858
3.029139 33.938434 -38.207926
3.159440 33.947486 -43.329772
2.728939 33.917578 -34.955790
6.150578 34.155277 -25.358463
4.470721 34.038578 -40.752292
3.745393 33.988189 -38.633251
4.057603 34.009880 -35.556471
6.255266 34.162548 -24.209374
7.010171 34.214992 -27.637021
7.386549 34.241139 -9.935030
4.391759 34.033093 -8.896402
3.288140 33.956427 -30.766132
4.320260 34.028127 -9.216779
4.375759 34.031983 -35.773684
2.506166 33.902103 -47.637961
5.478160 34.108565 -49.794164
5.311429 34.096981 -18.446367
5.847043 34.134192 -8.071063
2.694835 33.915211 -49.567776
3.051120 33.939958 -41.416177
4.957781 34.072414 -6.893091
2.619578 33.909982 -31.826784
3.460559 33.968407 -43.826884
5.210461 34.089968 -16.871357
4.361853 34.031015 -52.754498
2.937238 33.932050 -30.044727
4.047870 34.009206 -39.461471
5.806183 34.131353 0.307737
4.218321 34.021046 -46.197149
2.314465 33.888786 -36.246435
7.239622 34.230933 -12.930157
2.496793 33.901454 -35.286783
5.949633 34.141319 -10.032317
7.539769 34.251783 -21.347305
7.603178 34.256188 -35.772503
5.047621 34.078654 -8.241546
7.145905 34.224420 -19.291391
5.510235 34.110794 -17.495160
3.125484 33.945126 -44.175341
5.877421 34.136299 -19.267307
5.229655 34.091302 -6.559295
3.786959 33.991076 -4.114484
4.112452 34.013691 -38.517556
7.307498 34.235648 -19.532435
3.198076 33.950169 -24.632413
2.701890 33.915701 -44.060871
3.333307 33.959562 -38.234618
4.927303 34.070298 -46.897301
3.805724 33.992381 -39.945947
7.595788 34.255677 -19.748020
3.681095 33.983726 -45.778230
4.030033 34.007965 -32.294225
2.830330 33.924621 -43.366055
3.847014 33.995250 -33.935036
6.519610 34.180912 -18.775900
3.478913 33.969677 -5.181226
2.527550 33.903589 -18.847741
3.859416 33.996113 -42.351387
4.853167 34.065150 -5.359057
2.430403 33.896842 -36.761319
4.673861 34.052692 -16.400631
6.206083 34.159134 -26.645347
2.456409 33.898646 -46.054458
2.676850 33.913960 -42.178350
4.588903 34.046791 -8.847120
6.819715 34.201762 -27.227315
2.969121 33.934265 -23.523674
6.456790 34.176550 -10.923280
6.722287 34.194995 -19.015498
3.225668 33.952086 -37.925995
3.359175 33.961359 -43.152297
5.238686 34.091929 -13.761646
6.822439 34.201950 -14.643174
7.300682 34.235172 -16.618660
7.030301 34.216393 -25.907306
2.912784 33.930350 -42.613542
5.741920 34.126887 -24.669362
2.817126 33.923706 -33.372878
2.039635 33.869693 -31.538278
6.324390 34.167353 -17.942903
3.519360 33.972489 -37.543886
6.556020 34.183442 -17.243071
6.586287 34.185546 -26.588683
6.033608 34.147152 -19.568237
2.000551 33.866979 -23.615918
4.116454 34.013967 -43.818405
4.546820 34.043865 -51.258874
2.117373 33.875095 -35.493660
5.927022 34.139745 -26.740444
5.092183 34.081752 -53.205788
4.883214 34.067236 -44.453953
5.237181 34.091825 -43.294310
2.779872 33.921121 -22.928319
6.515901 34.180657 -19.156846
1.838689 33.855734 -23.834466
2.076833 33.872279 -45.837482
2.954797 33.933270 -46.223967
5.743051 34.126968 -27.334686
6.938964 34.210046 -10.439260
4.555570 34.044473 -44.333083
3.901596 33.999041 -39.920900
4.610335 34.048277 -47.986670
4.630532 34.049683 -36.739612
4.435380 34.036124 -42.989576
5.983553 34.143674 -8.841431
3.138840 33.946055 -42.546251
3.136232 33.945875 -46.842315
4.184205 34.018675 -42.727206
4.248253 34.023124 -41.944738
5.963658 34.142291 -14.266117
5.944172 34.140940 -11.583409
3.930224 34.001031 -44.746006
5.549615 34.113531 -17.404770
6.472423 34.177635 -24.547670
6.923057 34.208941 -15.283765
2.848095 33.925856 -49.903132
6.077410 34.150196 -18.362372
3.023842 33.938064 -32.796671
2.256338 33.884747 -50.003803
7.064363 34.218759 -21.950162
6.250922 34.162249 -22.983275
4.105830 34.013233 -52.912873
6.177296 34.157135 -22.100915
6.910917 34.208098 -8.934923
3.712704 33.985918 -39.908652
6.725387 34.195210 -13.457618
5.910495 34.138600 -25.059529
2.867940 33.927234 -29.427824
5.033670 34.077688 -8.423622
6.554913 34.183367 -9.726460
5.735072 34.126413 -9.364643
5.199770 34.089226 -13.509164
1.961389 33.864258 -25.471490
2.889130 33.928708 -39.074222
3.390905 33.963566 -41.937439
4.073115 34.010958 -42.817121
5.886098 34.136903 -12.159233
6.973450 34.212441 -18.075494
2.057694 33.870947 -49.905787
1.880313 33.858625 -28.276325
6.868918 34.205182 -19.929142
5.295399 34.095870 -56.646147
7.362899 34.239496 -18.450017
2.969892 33.934318 -29.553226
7.090316 34.220559 -12.199305
5.445582 34.106302 -16.745535
6.245646 34.161881 -4.740821
3.686155 33.984073 -44.383914
3.753533 33.988758 -38.489742
2.610395 33.909341 -45.167734
4.122118 34.014361 -11.664202
6.540533 34.182367 -13.923759
4.005855 34.006285 -9.027638
7.309736 34.235805 -29.134235
3.661634 33.982372 -39.469197
5.742183 34.126904 -3.991683
5.417940 34.104383 -19.020163
5.459584 34.107275 -54.848610
5.430229 34.105236 -23.514144
4.540401 34.043420 -44.147806
4.723683 34.056150 -18.002363
5.170387 34.087183 -44.208926
2.225634 33.882615 -30.909250
5.181405 34.087949 -23.446462
2.309752 33.888461 -49.179566
6.172656 34.156812 -11.401435
4.664702 34.052054 -9.508462
3.651461 33.981667 -38.999603
5.306051 34.096609 -52.012048
6.788065 34.199562 -18.327122
5.690233 34.123297 -8.787094
3.351004 33.960791 -48.193957
6.125787 34.153557 -14.724995
4.626158 34.049378 -2.001670
6.297016 34.165449 -24.173781
2.904751 33.929793 -42.819827
2.569223 33.906483 -36.123368
2.265492 33.885381 -30.580053
3.535405 33.973603 -48.986424
6.720876 34.194894 -19.430116
2.686201 33.914610 -34.317025
6.020400 34.146234 -15.888754
4.300783 34.026773 -6.672226
3.998080 34.005745 -40.030465
6.648143 34.189842 -32.008704
6.427155 34.174490 -22.445228
7.153794 34.224972 -25.127265
4.410600 34.034403 -8.932384
3.048543 33.939781 -37.202577
5.385903 34.102158 -46.502854
4.426436 34.035504 -51.961854
2.838516 33.925190 -36.412588
3.155092 33.947184 -41.914681
5.095202 34.081962 -15.734805
6.154612 34.155556 -22.827769
2.482244 33.900441 -36.038635
3.140519 33.946171 -39.024301
3.230089 33.952392 -46.696312
5.819962 34.132310 -19.042806
3.222063 33.951835 -29.977702
5.153354 34.086003 -19.572245
4.793208 34.060981 -44.437693
4.104647 34.013146 -32.888108
4.354826 34.030527 -10.326999
5.442126 34.106062 -14.208921
6.530783 34.181690 -23.808833
3.456147 33.968099 -26.988468
6.890380 34.206670 -31.197100
7.336829 34.237684 -23.208775
2.688868 33.914796 -42.575686
6.167743 34.156467 -9.978139
5.493470 34.109631 -22.396287
3.234537 33.952702 -48.002279
4.674035 34.052704 -47.682946
4.238719 34.022462 -32.585974
5.007242 34.075852 -12.118621
5.735949 34.126475 -11.580024
6.835135 34.202831 -30.641474
7.182935 34.226996 -36.251215
3.619210 33.979426 -36.165739
5.416067 34.104252 -51.753805
5.762559 34.128323 -16.888779
1.872844 33.858107 -34.301888
4.702098 34.054653 -52.403711
4.444959 34.036789 -45.461586
4.823267 34.063070 -48.725797
4.495358 34.040291 -43.654989
3.621349 33.979574 -4.147814
6.879571 34.205921 -33.317482
3.986094 34.004913 -41.318368
2.611151 33.909396 -44.399465
6.335302 34.168111 -33.813299
7.055838 34.218167 -36.004039
4.885912 34.067421 -52.529430
6.469511 34.177435 -14.063813
6.255845 34.162588 -20.389818
6.174526 34.156941 -7.641602
6.260644 34.162923 -26.656964
3.499353 33.971101 -53.415231
4.553261 34.044315 -51.836360
5.646883 34.120286 -12.542787
3.934091 34.001299 -50.331176
2.967244 33.934132 -39.580365
2.355153 33.891614 -31.541263
6.877509 34.205778 -29.466119
2.214410 33.881835 -44.723176
6.592620 34.185984 -9.833212
4.497127 34.040413 -11.594404
4.950592 34.071914 -11.665860
6.847667 34.203701 -12.723514
6.642572 34.189456 -12.691035
3.974135 34.004084 -41.613472
4.977446 34.073781 -16.547773
2.900287 33.929482 -27.457116
3.056527 33.940336 -48.826173
7.070245 34.219166 -33.046161
6.217873 34.159952 -28.342092
3.360050 33.961423 -53.566333
4.295138 34.026382 -46.753468
3.147035 33.946624 -37.107984
3.724439 33.986736 -42.368509
3.447264 33.967480 -43.660835
4.735069 34.056943 -13.775809
4.798339 34.061340 -47.448554
6.875091 34.205609 -20.161873
3.485958 33.970168 -32.719363
2.789529 33.921789 -49.914303
6.482406 34.178328 -11.436650
4.666243 34.052163 -10.278154
3.968838 34.003716 -37.230327
3.125678 33.945141 -36.882911
2.857052 33.926478 -53.549493
3.649780 33.981549 -40.839071
6.564323 34.184021 -13.441797
2.839831 33.925282 -38.887089
6.304194 34.165946 -20.298718
4.135173 34.015269 -42.976649
3.078244 33.941846 -29.457151
2.614900 33.909658 -38.886698
7.527475 34.250929 -20.139813
2.778610 33.921031 -35.366855
4.840073 34.064236 -23.083971
4.307526 34.027242 -48.856898
7.026033 34.216095 -32.744713
5.800357 34.130948 -21.718645
5.854160 34.134686 -11.739973
2.657582 33.912621 -44.334184
6.898335 34.207225 -28.689686
1.742819 33.849075 -35.014858
6.124330 34.153456 -6.711377
5.689291 34.123232 -14.910937
2.144431 33.876976 -47.824719
5.610639 34.117770 -54.454216
3.928997 34.000946 -47.087369
4.677678 34.052956 -37.141801
6.270976 34.163641 -11.124235
4.370130 34.031592 -33.535337
7.824434 34.271558 -13.152414
3.798935 33.991911 -39.995937
3.521254 33.972619 -35.004833
6.032192 34.147055 -17.483157
5.635634 34.119503 -16.928468
6.240308 34.161514 -23.542782
6.444174 34.175674 -20.386139
6.946304 34.210553 -29.184787
3.403175 33.964415 -35.428407
4.599070 34.047494 -37.224726
1.942383 33.862938 -30.696242
3.317484 33.958464 -41.575163
4.534183 34.042987 -15.981947
6.429647 34.174664 -18.583351
4.121186 34.014297 -50.221222
6.485580 34.178550 -31.537279
3.179466 33.948878 -39.983673
6.464821 34.177105 -14.496896
7.173127 34.226314 -6.453036
5.929625 34.139929 -23.814809
2.808208 33.923087 -48.696030
4.922109 34.069935 -21.149619
5.022618 34.076919 -37.705579
3.700689 33.985087 -46.005520
7.369703 34.239969 -17.149576
6.776287 34.198744 -29.772050
2.103834 33.874154 -48.341072
3.343229 33.960253 -34.705346
3.819419 33.993335 -35.799332
2.319386 33.889126 -15.114784
3.399968 33.964196 -36.518656
2.487380 33.900800 -32.782052
5.787993 34.130087 -22.547655
5.669240 34.121840 -16.182814
2.509040 33.902303 -40.579663
2.437666 33.897344 -22.086732
6.464207 34.177066 -23.716454
6.696642 34.193212 -23.830725
3.044984 33.939533 -31.567601
6.178507 34.157218 -29.299881
3.273641 33.955418 -44.342864
7.111601 34.222040 -20.546717
7.181607 34.226900 -22.968305
3.304880 33.957590 -38.110460
2.560103 33.905851 -33.642762
6.005291 34.145183 -10.720659
7.095725 34.220936 -16.874111
5.455719 34.107006 -17.434814
3.638291 33.980752 -32.027728
5.438361 34.105802 -11.028615
6.043336 34.147827 -16.617675
6.834803 34.202811 -14.692444
7.580756 34.254632 -25.214991
1.754920 33.849916 -34.496483
5.478191 34.108567 -16.981825
5.078252 34.080785 -15.434541
4.740452 34.057316 -7.472839
2.824971 33.924250 -38.339083
5.536045 34.112584 -9.353836
7.149372 34.224663 -27.439604
6.412422 34.173468 -14.464472
6.793641 34.199950 -24.966815
4.027026 34.007757 -51.427361
6.758745 34.197527 -20.573514
2.586246 33.907667 -38.764560
6.102556 34.151941 -26.627192
4.400850 34.033724 -45.484996
3.090463 33.942694 -35.115450
6.850129 34.203876 -21.109855
6.127168 34.153651 -12.300279
5.086436 34.081354 -41.893566
6.338885 34.168358 -19.732614
3.566851 33.975788 -38.809202
6.419409 34.173955 -16.265590
4.308590 34.027316 -48.684534
5.327346 34.098087 -12.547425
4.589566 34.046836 -52.194820
3.487119 33.970249 -47.184908
6.256921 34.162665 -10.482219
3.702548 33.985215 -45.384377
7.491776 34.248450 -10.769453
4.887287 34.067517 -15.591927
4.305970 34.027132 -45.601752
6.189365 34.157971 -31.757855
3.152124 33.946976 -37.752169
4.108440 34.013410 -37.006673
3.758438 33.989099 -47.209271
5.970720 34.142781 -4.152003
4.157377 34.016812 -40.526217
4.661250 34.051814 -37.743469
5.486722 34.109161 -12.012804
7.391547 34.241486 -14.791479
5.242450 34.092191 -15.024487
6.700362 34.193468 -29.478599
5.110974 34.083058 -11.323373
6.579234 34.185054 -20.674883
2.901789 33.929586 -47.196281
3.418085 33.965451 -42.078398
4.022347 34.007430 -44.859397
4.603438 34.047798 -4.818009
6.364757 34.170154 -21.416702
5.289684 34.095471 -25.670822
3.762318 33.989368 -7.535186
5.325667 34.097971 -13.358926
5.310104 34.096889 -17.746635
3.865665 33.996547 -36.338176
6.718189 34.194710 -2.808157
4.696887 34.054291 -10.459086
4.139075 34.015538 -35.715296
6.756252 34.197354 -17.010303
5.265210 34.093773 -48.965498
2.711922 33.916396 -5.756394
4.008346 34.006459 -52.518822
2.232178 33.883070 -34.157256
7.483853 34.247898 -19.789962
5.798615 34.130826 -15.362475
3.986028 34.004909 -40.750353
5.542899 34.113062 -5.829661
3.296371 33.956998 -40.571050
6.441879 34.175514 -21.128492
6.537138 34.182132 -25.505415
4.398968 34.033594 -44.479187
7.293236 34.234657 -24.251117
2.722648 33.917142 -27.929308
6.295782 34.165363 -33.173052
6.659514 34.190629 -31.232073
6.508727 34.180157 -15.916489
6.152163 34.155389 -17.095485
7.673972 34.261106 -24.649411
3.443144 33.967194 -50.482881
3.838938 33.994691 -38.585083
1.581382 33.837861 -33.165051
7.257515 34.232179 -25.144099
4.028018 34.007825 -46.552978
4.959756 34.072551 -19.123438
6.340440 34.168469 -32.987368
5.320662 34.097625 -52.565453
3.696878 33.984820 -43.798263
6.640761 34.189331 -19.769271
4.862162 34.065773 -24.402384
2.185053 33.879796 -23.828205
2.468911 33.899516 -52.455792
5.682427 34.122753 -15.030405
6.183787 34.157584 -33.521781
4.425403 34.035431 -10.254076
3.317211 33.958446 -29.816097
4.993704 34.074910 -23.227345
5.815623 34.132008 -18.502169
5.180571 34.087892 -42.537611
5.770456 34.128870 -17.471982
4.697877 34.054359 -9.905833
4.997198 34.075155 -51.311932
3.773855 33.990170 -42.756331
6.209630 34.159381 -15.557848
6.354149 34.169422 -9.427888
2.761020 33.919808 -42.318393
2.064775 33.871440 -47.972197
4.612790 34.048448 -43.564012
6.471109 34.177544 -15.908378
3.585444 33.977077 -37.958094
5.032927 34.077634 -10.078390
5.887264 34.136985 -14.774011
5.563874 34.114520 -30.810894
3.320024 33.958640 -40.001699
5.061830 34.079642 -8.628749
5.500454 34.110115 -27.831005
4.313601 34.027666 -38.388416
6.956057 34.211235 -30.518403
3.341832 33.960156 -33.518825
4.804777 34.061786 -46.570300
3.230989 33.952457 -43.597485
2.221436 33.882321 -28.342433
4.610695 34.048302 -42.916792
5.150146 34.085778 -18.737267
5.823764 34.132575 -14.763432
2.250578 33.884347 -40.122920
2.768749 33.920346 -44.364184
3.584480 33.977016 -36.347643
2.230417 33.882949 -27.239945
5.780016 34.129533 -19.826901
7.428744 34.244072 -12.391244
5.793520 34.130474 -20.218498
3.463487 33.968608 -37.505536
5.690412 34.123311 -16.412062
2.669629 33.913459 -50.676531
3.785058 33.990947 -45.964011
5.024106 34.077023 -15.036020
4.427608 34.035587 -40.618903
4.987978 34.074514 -38.169333
6.345664 34.168830 -25.744568
2.718581 33.916861 -38.209804
3.354420 33.961028 -29.155917
2.809016 33.923143 -23.728378
6.394335 34.172210 -17.991729
5.784314 34.129833 -14.665513
4.343413 34.029737 -12.784534
3.023779 33.938061 -50.166685
3.533833 33.973493 -32.491448
2.347635 33.891087 -39.883111
6.018641 34.146112 -13.713375
6.568230 34.184291 -23.681310
3.299453 33.957214 -40.995496
6.602861 34.186697 -11.297065
2.922212 33.931004 -51.728651
5.336207 34.098705 -17.246889
2.364924 33.892292 -28.293600
3.587237 33.977203 -47.619390
6.596567 34.186259 -7.062702
1.934095 33.862361 -37.558712
1.716063 33.847213 -25.244816
3.743617 33.988068 -39.422982
6.689607 34.192722 -32.316742
3.479012 33.969684 -38.060890
6.708359 34.194025 -15.041747
1.132695 33.806688 -14.725589
3.091768 33.942784 -48.064950
6.862428 34.204729 -17.413345
3.297895 33.957105 -44.341017
5.740578 34.126797 -7.752200
2.733750 33.917914 -32.528556
3.027258 33.938304 -39.439934
4.166576 34.017448 -38.938431
3.584559 33.977017 -47.815521
3.801251 33.992073 -39.416444
5.928744 34.139868 -12.485114
5.006152 34.075776 -13.421339
6.122033 34.153295 -22.694332
2.839783 33.925280 -24.411357
3.794307 33.991587 -34.504067
6.923110 34.208946 -34.219787
4.697571 34.054340 -5.595484
3.732511 33.987298 -4.741175
7.274008 34.233321 -16.091828
4.659207 34.051671 -14.942681
3.167726 33.948064 -25.445130
2.905499 33.929845 -35.976965
3.920905 34.000382 -37.001784
3.409839 33.964881 -28.141446
4.880814 34.067069 -8.519720
3.146178 33.946565 -33.904281
2.434260 33.897107 -32.391649
2.354352 33.891556 -31.439996
6.405519 34.172988 -16.242873
3.125315 33.945116 -31.946006
3.556105 33.975040 -39.420823
5.196182 34.088975 -12.389386
6.795722 34.200094 -25.847628
2.979461 33.934982 -44.005720
5.323768 34.097838 -51.840438
5.822128 34.132460 -50.032802
7.804811 34.270196 -28.446148
4.715558 34.055587 -34.806957
4.287330 34.025840 -42.134664
6.169027 34.156557 -12.025380
4.692295 34.053970 -10.444203
2.719141 33.916898 -32.735338
4.384457 34.032587 -54.613837
3.643002 33.981077 -35.909000
3.754767 33.988843 -49.570275
5.383114 34.101963 -7.568592
6.733639 34.195783 -14.965944
3.578738 33.976614 -44.217880
4.379882 34.032270 -43.059524
5.869842 34.135776 -13.004309
6.694071 34.193033 -21.199033
3.135677 33.945835 -36.963622
2.662177 33.912941 -31.803140
4.803826 34.061718 -40.917093
2.124026 33.875557 -25.395373
5.292222 34.095647 -16.396993
6.552034 34.183167 -27.916598
5.174450 34.087468 -48.414586
6.642613 34.189461 -17.040067
2.669713 33.913464 -27.637174
3.869614 33.996821 -32.679154
5.056732 34.079288 -20.730625
6.194403 34.158321 -21.273099
6.722719 34.195024 -14.383793
6.864850 34.204899 -11.141614
6.888494 34.206539 -18.795159
3.023695 33.938056 -34.717195
4.707975 34.055061 -20.519425
6.539737 34.182314 -22.391340
4.902213 34.068554 -44.638725
3.569914 33.976003 -33.024765
5.483844 34.108961 -23.094696
2.924033 33.931133 -34.604691
3.563988 33.975589 -33.682283
5.631348 34.119205 -19.550919
3.140796 33.946191 -25.427715
4.909442 34.069058 -2.897443
4.239018 34.022484 -37.599397
5.914867 34.138903 -17.698695
5.342604 34.099146 -15.780183
3.575842 33.976414 -38.137010
3.612028 33.978928 -42.325410
7.521233 34.250496 -16.808893
6.013702 34.145769 -9.159955
6.912011 34.208173 -20.861003
4.896860 34.068184 -19.059190
5.467490 34.107824 -20.079089
3.970073 34.003799 -14.971546
3.703010 33.985247 -49.890846
6.830095 34.202484 -27.048094
5.791470 34.130328 -15.988192
5.041499 34.078231 -14.460319
2.885375 33.928445 -30.418162
6.516190 34.180675 -14.022379
6.906032 34.207757 -16.780481
3.699728 33.985020 -41.276065
3.407962 33.964750 -39.193938
4.323274 34.028336 -47.356048
3.532551 33.973405 -34.904367
6.532429 34.181804 -13.513875
8.073638 34.288868 -35.873967
6.164882 34.156270 -6.966978
5.553697 34.113815 -20.876565
4.556523 34.044537 -34.261522
4.005523 34.006263 -43.928701
5.026784 34.077208 -16.081642
6.540352 34.182353 -10.132163
2.949666 33.932915 -38.691839
4.052967 34.009560 -33.056107
6.120849 34.153212 -23.688532
2.888541 33.928665 -39.034196
3.717507 33.986254 -46.021147
2.120752 33.875327 -32.370460
3.057325 33.940392 -45.583676
2.540767 33.904505 -45.498970
5.164388 34.086767 -19.495821
6.950228 34.210830 -17.554291
2.302338 33.887945 -24.457302
5.880152 34.136493 -23.536361
5.088666 34.081506 -11.019616
3.517556 33.972363 -48.315522
4.379187 34.032221 -39.720227
6.751177 34.197001 -27.089076
7.153416 34.224944 -8.575008
3.984739 34.004820 -46.712384
5.842711 34.133890 -13.685912
3.063245 33.940805 -41.952140
6.542671 34.182515 -24.070377
2.493175 33.901200 -28.666800
5.542672 34.113046 -10.630336
6.191202 34.158100 -27.409696
3.737969 33.987675 -38.783907
5.669050 34.121825 -15.523543
5.575857 34.115351 -23.331934
5.700336 34.124000 -8.213434
4.130221 34.014923 -44.316025
3.567450 33.975832 -42.175453
5.304871 34.096528 -39.886915
6.253994 34.162460 -20.471529
5.828721 34.132919 -12.053791
7.053246 34.217986 -23.995532
6.761943 34.197750 -25.513053
6.038942 34.147524 -13.400135
4.359823 34.030875 -10.897034
5.912772 34.138757 -20.664976
4.221429 34.021259 -37.192283
7.730026 34.265000 -34.237171
6.785765 34.199401 -19.417374
4.921851 34.069918 -15.516300
3.578938 33.976629 -39.146528
5.165876 34.086873 -19.777823
5.787136 34.130030 -21.522152
6.665505 34.191051 -25.266917
2.886258 33.928508 -41.159472
3.800476 33.992018 -36.194397
3.030262 33.938512 -36.562138
6.659656 34.190644 -20.777170
2.278390 33.886280 -20.732239
7.277038 34.233530 -26.473876
5.158191 34.086337 -46.143298
2.913984 33.930435 -30.373665
3.230170 33.952399 -51.014280
3.372070 33.962258 -47.884766
5.488103 34.109254 -9.577635
3.433417 33.966518 -45.278399
4.892119 34.067854 -44.769276
3.648445 33.981455 -42.962917
3.758454 33.989096 -28.082005
5.641339 34.119900 -14.889458
4.420351 34.035079 -37.171094
4.146918 34.016085 -34.761307
6.287011 34.164757 -21.339701
3.982387 34.004654 -39.194916
6.746268 34.196660 -13.869048
7.610394 34.256690 -21.424438
2.788451 33.921713 -23.299691
4.057767 34.009890 -45.263119
6.384017 34.171494 -16.735444
3.794188 33.991582 -36.352064
4.566070 34.045204 -2.842910
2.790016 33.921821 -48.019237
2.883259 33.928299 -45.625509
5.878268 34.136361 -19.267248
2.517062 33.902857 -38.785700
3.557119 33.975112 -42.327027
3.269920 33.955159 -48.583186
1.861715 33.857336 -26.543212
4.157208 34.016801 -43.201907
4.278180 34.025202 -48.844248
7.405928 34.242486 -35.454423
3.829000 33.993998 -40.294160
5.926819 34.139733 -11.233831
2.156950 33.877843 -37.565273
7.542833 34.251995 -30.440507
5.680216 34.122602 -19.298640
3.268688 33.955077 -43.505377
4.675358 34.052793 -19.090821
5.827939 34.132863 -17.941290
5.796148 34.130654 -10.674868
6.582581 34.185292 -10.346141
2.410503 33.895457 -31.056096
4.165599 34.017380 -18.319676
4.481291 34.039314 -46.798621
6.057563 34.148814 -27.364762
2.450230 33.898216 -36.946333
2.422561 33.896293 -51.058983
7.829212 34.271891 -14.403946
4.749526 34.057948 -47.690630
6.601227 34.186584 -15.986319
7.046478 34.217515 -20.013179
3.610257 33.978801 -44.098080
5.622126 34.118569 -29.805737
6.555281 34.183391 -21.873580
3.324237 33.958934 -36.849799
2.852176 33.926138 -41.831411
4.383622 34.032527 -42.820443
6.463205 34.176995 -18.146990
3.245891 33.953490 -46.757096
3.470848 33.969120 -35.913647
5.077147 34.080707 -16.095569
4.894731 34.068035 -45.050490
2.415819 33.895827 -32.441740
6.689156 34.192694 -20.231678
3.593666 33.977652 -45.225230
2.178945 33.879372 -43.389104
6.436470 34.175138 -16.074333
3.493338 33.970680 -41.025237
5.294998 34.095840 -7.541315
5.206580 34.089700 -45.168122
7.258277 34.232229 -31.926034
3.460625 33.968408 -39.785208
5.214649 34.090258 -15.072551
4.434069 34.036033 -48.990135
5.837971 34.133563 -14.111073
2.580407 33.907261 -31.221992
3.548657 33.974525 -39.035692
6.175589 34.157015 -21.166786
5.744824 34.127092 -20.199853
5.404153 34.103424 -14.922682
4.819463 34.062805 -52.070246
5.386281 34.102182 -22.947000
4.824912 34.063184 -49.946551
3.694175 33.984635 -11.427095
4.517343 34.041819 -40.245954
6.444567 34.175700 -32.296007
4.740008 34.057286 -45.352319
1.936999 33.862563 -32.734210
7.221306 34.229661 -27.208529
5.102378 34.082459 -21.072514
2.608784 33.909231 -27.663944
3.593891 33.977665 -29.544696
5.097879 34.082145 -46.912552
3.749071 33.988446 -37.905963
3.592045 33.977541 -48.390949
2.496781 33.901449 -36.633551
3.431237 33.966367 -41.873947
5.448888 34.106532 -8.642259
2.913325 33.930387 -37.442651
3.733280 33.987351 -29.421719
4.980009 34.073960 -20.855481
3.736166 33.987549 -46.697777
7.447478 34.245371 -18.550675
6.532874 34.181835 -14.716092
4.092074 34.012275 -36.187638
6.344083 34.168723 -8.373141
7.260575 34.232389 -7.683097
7.886754 34.275889 -40.483189
3.489044 33.970383 -36.916859
4.358731 34.030801 -38.166212
2.756277 33.919477 -44.688258
4.039351 34.008614 -37.767909
5.792376 34.130393 -28.311510
2.900897 33.929524 -22.647944
4.614038 34.048538 -6.840567
3.565461 33.975690 -38.817741
3.017916 33.937654 -37.329926
2.518687 33.902972 -28.877339
5.086350 34.081343 -15.588031
5.185342 34.088224 -46.348695
4.908327 34.068980 -3.001644
6.562165 34.183870 -14.620411
4.781180 34.060147 -44.941735
2.991418 33.935814 -39.278490
6.299529 34.165626 -15.462230
4.908019 34.068959 -43.663373
3.510274 33.971855 -41.807674
4.479568 34.039195 -39.708043
5.727036 34.125855 -7.535680
5.981866 34.143555 -21.289580
2.656803 33.912567 -34.458087
6.788671 34.199605 -28.909448
3.238792 33.952998 -32.759975
3.004478 33.936721 -33.065838
5.304773 34.096520 -8.515077
5.226330 34.091072 -9.951546
5.077048 34.080700 -45.871013
5.667156 34.121696 -25.062270
2.641644 33.911515 -26.215004
3.814500 33.992993 -34.042804
6.015928 34.145925 -26.008460
5.984945 34.143773 -49.459443
4.421537 34.035162 -51.531972
3.338428 33.959921 -42.169994
6.571762 34.184537 -17.358951
6.518201 34.180818 -22.898908
3.775843 33.990306 -34.058949
6.413827 34.173565 -18.387115
3.118480 33.944641 -40.613288
2.341814 33.890688 -47.394504
2.899781 33.929449 -35.677022
6.026273 34.146644 -12.791114
4.725475 34.056277 -9.040617
3.090235 33.942679 -34.846566
2.569574 33.906507 -43.873475
4.206581 34.020230 -38.387997
5.488327 34.109272 -22.826259
3.140665 33.946180 -43.102556
5.101539 34.082401 -50.938022
5.109020 34.082920 -10.330241
6.391615 34.172021 -22.846578
2.810359 33.923233 -28.017322
6.847603 34.203702 -32.031403
3.421713 33.965704 -45.290334
5.182405 34.088021 -13.824689
5.146371 34.085519 -47.948507
3.545208 33.974285 -49.423061
1.723183 33.847711 -24.799506
3.691582 33.984453 -30.641844
4.465296 34.038203 -37.549521
3.526208 33.972963 -36.243043
5.275481 34.094486 -21.600636
3.680794 33.983704 -41.232285
5.738798 34.126672 -23.710294
5.432931 34.105424 -45.127907
6.339259 34.168384 -18.433809
2.329768 33.889849 -35.137675
7.029473 34.216337 -26.048812
2.498603 33.901578 -42.129802
2.667307 33.913298 -36.877400
5.833332 34.133240 -19.270520
6.773955 34.198583 -26.224098
6.004284 34.145111 -20.699460
6.537754 34.182173 -32.240767
6.569953 34.184410 -21.802220
6.016633 34.145971 -14.887058
6.207534 34.159238 -22.630394
3.852922 33.995661 -6.012037
2.981239 33.935107 -27.848779
4.989380 34.074609 -15.549038
3.457036 33.968160 -33.465975
6.094401 34.151373 -20.331056
7.161392 34.225500 -29.285275
2.379104 33.893275 -31.017601
6.400405 34.172632 -8.980688
2.403097 33.894944 -41.161845
2.839659 33.925269 -36.199732
6.253491 34.162425 -11.689135
4.174142 34.017975 -29.937030
5.582484 34.115812 -17.339442
2.413109 33.895635 -43.755717
5.252631 34.092898 -24.595922
3.263203 33.954694 -40.659075
2.756250 33.919476 -43.649191
4.815508 34.062532 -48.234131
2.980810 33.935077 -32.444061
5.457815 34.107153 -53.792681
4.416134 34.034788 -11.702647
3.268420 33.955058 -28.934022
3.170090 33.948224 -43.369920
2.260229 33.885019 -35.810856
1.889974 33.859299 -39.250417
6.124209 34.153445 -24.734148
2.758391 33.919626 -35.261784
6.658900 34.190589 -15.918040
3.835340 33.994440 -39.251665
7.291381 34.234528 -27.618105
5.083830 34.081171 -17.902644
3.006714 33.936877 -42.779782
4.300563 34.026760 -13.464193
6.325402 34.167422 -16.930442
6.698814 34.193365 -32.240557
2.702325 33.915729 -29.082293
2.752739 33.919232 -17.345959
6.041621 34.147709 -43.910308
3.207598 33.950830 -46.919836
6.384675 34.171540 -19.300548
5.781246 34.129621 -9.531773
5.150623 34.085811 -22.727416
5.698344 34.123864 -52.817793
4.856609 34.065387 -17.348489
5.561616 34.114362 -19.190303
1.685466 33.845090 -28.819728
4.320480 34.028142 -4.080547
6.911501 34.208140 -16.788177
6.723659 34.195090 -9.754159
7.889475 34.276078 -35.732485
4.961520 34.072675 -10.777383
2.613506 33.909558 -31.028330
6.376699 34.170985 -10.295010
2.839748 33.925276 -48.250122
2.573355 33.906772 -51.911017
4.510064 34.041311 -40.675502
3.646033 33.981288 -11.214144
6.916670 34.208498 -24.337383
5.034971 34.077778 -16.858761
6.307478 34.166176 -22.976617
6.879284 34.205901 -30.692290
3.471047 33.969133 -40.841978
6.232316 34.160956 -21.281959
6.970501 34.212235 -27.536669
2.598798 33.908538 -41.139113
5.507522 34.110605 -17.147742
2.735220 33.918019 -37.250271
2.971712 33.934446 -34.038198
3.352464 33.960895 -34.857619
5.472010 34.108139 -15.142242
2.762072 33.919879 -34.163923
2.557402 33.905661 -34.298728
6.609776 34.187177 -15.516182
7.116522 34.222381 -17.691980
6.659133 34.190605 -31.948757
5.299152 34.096130 -5.029966
2.826465 33.924357 -50.798115
4.936249 34.070920 -54.696277
4.605573 34.047948 -43.165728
2.266056 33.885422 -27.759450
5.395953 34.102852 -8.516148
4.924764 34.070121 -44.273288
2.673269 33.913710 -45.576839
4.550371 34.044110 -46.519139
2.549030 33.905082 -31.915016
3.589523 33.977363 -40.448365
2.974358 33.934627 -39.866439
6.289258 34.164910 -27.071387
6.663050 34.190879 -20.124349
3.859804 33.996141 -5.126808
6.308114 34.166223 -11.526035
2.850721 33.926039 -38.089413
4.462368 34.037998 -41.301629
2.807089 33.923007 -37.544657
5.617355 34.118237 -20.096167
6.526371 34.181383 -17.892003
4.009156 34.006516 -32.586523
2.778899 33.921052 -39.273325
5.259610 34.093384 -16.466012
3.139379 33.946091 -41.986345
5.316290 34.097321 -40.413190
6.831027 34.202547 -9.179963
2.372273 33.892801 -35.625038
2.608278 33.909198 -19.874822
3.733417 33.987358 -40.602649
3.766587 33.989662 -39.751653
6.442437 34.175553 -21.472766
4.497981 34.040472 -6.563532
3.165728 33.947922 -46.963891
2.843684 33.925553 -24.924206
2.783574 33.921373 -44.014441
2.834702 33.924927 -28.549732
6.095756 34.151471 -13.652166
6.099906 34.151757 -27.066871
6.826884 34.202263 -14.316739
2.769969 33.920430 -37.123280
5.220787 34.090688 -15.062092
6.747220 34.196727 -26.902604
6.248052 34.162050 -19.648423
2.930437 33.931576 -39.533115
2.329602 33.889838 -36.478996
3.430755 33.966334 -37.383447
4.265560 34.024326 -45.218322
3.510931 33.971905 -38.650927
6.601030 34.186571 -28.829533
3.790548 33.991329 -38.459073
6.078233 34.150253 -16.683699
6.833678 34.202731 -27.009204
2.860529 33.926721 -30.076928
4.822984 34.063050 -6.582471
3.256155 33.954205 -50.132084
5.635865 34.119520 -9.132547
4.348234 34.030067 -32.872299
2.363167 33.892168 -19.396754
6.458274 34.176652 -19.183476
3.044105 33.939473 -26.062018
4.594269 34.047162 -53.085476
7.188587 34.227387 -19.763825
3.480908 33.969819 -34.282378
6.717893 34.194689 -28.645639
2.816536 33.923664 -19.990519
3.739067 33.987753 -54.206551
2.491883 33.901111 -22.841060
5.386956 34.102228 -10.961095
7.882262 34.275578 -33.113023
3.634977 33.980520 -40.260109
5.555364 34.113927 -25.788609
7.135171 34.223677 -15.242095
4.580076 34.046176 -48.719912
3.595913 33.977806 -46.764167
6.109201 34.152402 -14.139602
2.996612 33.936174 -31.421852
4.792420 34.060927 -43.135285
4.645496 34.050722 -49.282831
5.861108 34.135167 -7.428337
5.569015 34.114877 -14.322124
3.213686 33.951254 -31.828837
6.589257 34.185751 -25.722413
7.165750 34.225802 -29.411782
3.845053 33.995114 -47.523600
3.595280 33.977763 -47.910129
3.518273 33.972414 -42.846897
7.229072 34.230200 -33.383287
5.708232 34.124548 -12.849907
4.282977 34.025537 -44.587692
4.084147 34.011723 -28.857168
4.914967 34.069440 -11.430690
5.704394 34.124280 -22.057203
5.543635 34.113116 -9.693406
4.072643 34.010924 -41.894826
5.000333 34.075370 -8.027324
5.343701 34.099224 -47.688792
2.728689 33.917561 -41.101206
2.551377 33.905244 -45.908539
2.117049 33.875073 -26.726061
5.032601 34.077612 -18.066145
7.533274 34.251333 -26.355965
4.564362 34.045083 -45.305455
5.638098 34.119678 -14.395957
4.503573 34.040862 -42.374623
4.307199 34.027220 -11.922204
6.073892 34.149950 -18.142595
3.076283 33.941710 -30.599864
5.863748 34.135350 -10.571368
3.180197 33.948927 -44.287351
2.399334 33.894682 -32.012334
7.418921 34.243390 -15.400724
7.577846 34.254431 -31.175748
2.843623 33.925547 -38.599893
2.434612 33.897132 -35.621218
3.698581 33.984938 -50.151349
3.377146 33.962608 -34.415626
3.676783 33.983425 -35.767176
4.218722 34.021071 -13.471663
3.784976 33.990942 -43.177944
6.032016 34.147040 -18.567594
6.658026 34.190532 -23.796673
3.031868 33.938623 -32.442263
6.642618 34.189461 -14.437456
2.865484 33.927064 -27.360084
3.072399 33.941438 -30.699774
6.057667 34.148820 -15.156318
4.551813 34.044213 -4.916909
3.974025 34.004075 -39.106068
4.443879 34.036714 -41.602887
6.542682 34.182514 -13.293052
5.449417 34.106569 -28.845596
5.701998 34.124117 -12.399122
3.913992 33.999902 -1.489057
2.370620 33.892686 -45.251163
6.107819 34.152305 -14.191785
6.475277 34.177833 -7.077032
3.043739 33.939446 -23.514533
5.997147 34.144618 -11.380992
7.059890 34.218447 -19.688375
3.260530 33.954507 -42.447716
3.790183 33.991303 -39.631416
6.362531 34.170003 -16.479490
5.435709 34.105614 -9.707928
5.506141 34.110508 -15.358806
3.199582 33.950275 -46.646905
3.887256 33.998046 -9.629213
7.053202 34.217984 -18.574002
4.988557 34.074554 -12.119112
5.167150 34.086959 -6.950931
3.049560 33.939852 -48.263409
5.003385 34.075582 -15.535602
3.011909 33.937236 -28.482227
5.482459 34.108867 -18.363792
6.000743 34.144868 -33.088828
3.470987 33.969129 -46.722405
6.871733 34.205375 -11.142861
5.465701 34.107700 -7.269161
6.166151 34.156361 -17.327296
3.675715 33.983353 -39.665417
6.833328 34.202709 -8.015845
4.290268 34.026045 -47.257902
4.485989 34.039639 -10.176342
4.608840 34.048175 -7.994223
4.594628 34.047189 -42.185406
3.259812 33.954459 -43.545604
1.912556 33.860865 -52.117463
5.216184 34.090363 -14.040554
5.032653 34.077615 -7.153976
6.630815 34.188638 -19.802561
4.717987 34.055755 -45.920797
3.370061 33.962115 -41.097303
6.502137 34.179699 -15.237397
6.452509 34.176253 -22.465773
3.798003 33.991846 -6.543290
7.433364 34.244391 -27.205749
5.237481 34.091843 -22.526823
6.769529 34.198275 -18.470262
3.426966 33.966070 -35.802217
5.877647 34.136317 -14.647703
6.538081 34.182198 -32.638673
5.189315 34.088497 -49.539091
6.749173 34.196860 -29.904009
6.719483 34.194797 -11.045236
4.507397 34.041127 -48.768537
6.656242 34.190404 -13.171831
2.819820 33.923889 -34.237518
4.210075 34.020472 -55.401454
2.613739 33.909576 -43.169235
2.572056 33.906681 -27.104563
3.505223 33.971510 -34.135376
3.043797 33.939452 -30.391199
3.508331 33.971722 -27.933483
4.551209 34.044171 -35.952945
7.484232 34.247925 -22.953000
5.674955 34.122233 -46.435064
5.731550 34.126169 -11.545167
5.253462 34.092953 -11.956607
4.970652 34.073310 -12.177524
3.823989 33.993653 -47.974336
2.294745 33.887417 -43.938149
5.357052 34.100151 -20.461802
2.903130 33.929678 -37.199837
6.272650 34.163758 -25.972594
3.158112 33.947394 -46.247127
3.467495 33.968887 -36.850667
3.237058 33.952879 -30.985542
3.933571 34.001265 -48.799791
3.490671 33.970496 -30.024188
5.157239 34.086269 -44.001769
2.903285 33.929690 -35.304557
2.327686 33.889704 -27.779000
6.046346 34.148035 -22.388469
3.572882 33.976206 -48.289402
4.093717 34.012389 -45.092093
6.914050 34.208316 -30.429093
2.168154 33.878623 -33.500139
5.267196 34.093910 -17.162507
3.366376 33.961861 -32.248841
5.995156 34.144481 -15.973851
5.637679 34.119647 -20.085660
5.030778 34.077487 -51.426141
4.754105 34.058267 -9.702162
4.989707 34.074634 -19.153669
6.794157 34.199986 -20.525957
7.589828 34.255263 -12.706093
5.422923 34.104728 -11.559341
2.341966 33.890693 -37.336708
3.350626 33.960767 -31.330864
5.726470 34.125815 -8.889091
5.788587 34.130131 -15.872056
4.985829 34.074364 -16.298917
4.078374 34.011324 -2.428373
6.132503 34.154022 -8.146859
7.010630 34.215024 -30.853887
6.041371 34.147693 -30.106735
5.608160 34.117597 -51.870617
3.157119 33.947324 -45.928524
3.308003 33.957806 -32.583080
5.997502 34.144642 -19.792288
4.524301 34.042299 -37.833630
3.897281 33.998744 -48.119223
2.616451 33.909765 -23.732568
5.832495 34.133180 -52.570436
5.432000 34.105359 -47.217986
4.448859 34.037059 -43.129442
7.373501 34.240234 -4.991700
6.880326 34.205971 -25.122156
5.678211 34.122463 -27.213641
2.813067 33.923425 -33.073875
6.455858 34.176487 -34.068430
2.902336 33.929624 -27.755455
5.010003 34.076043 -14.262481
6.758472 34.197506 -10.018682
7.163357 34.225636 -30.174419
7.090468 34.220572 -18.957064
2.711233 33.916350 -42.375383
5.502460 34.110251 -45.365696
6.649849 34.189961 -23.202857
5.475225 34.108360 -19.833288
3.466131 33.968790 -38.558889
6.926743 34.209196 -27.328233
4.132409 34.015077 -42.560367
5.585394 34.116015 -18.621166
3.171767 33.948342 -24.791981
6.410975 34.173369 -23.209143
4.727134 34.056392 -47.703450
2.915317 33.930524 -38.556270
4.128848 34.014828 -41.137195
3.052841 33.940081 -40.300053
5.889488 34.137139 -20.832931
6.336816 34.168216 -14.925215
1.986523 33.866003 -32.276520
6.478949 34.178090 -13.608908
3.717189 33.986232 -41.651053
4.447768 34.036985 -33.653512
3.808858 33.992603 -47.682488
4.167419 34.017509 -6.026475
5.368397 34.100941 -15.838135
6.500514 34.179588 -29.642385
2.533928 33.904032 -31.263088
4.099466 34.012789 -36.575491
4.896749 34.068174 -43.909685
3.377879 33.962660 -40.356955
2.401917 33.894861 -41.936142
2.921126 33.930931 -39.666614
2.346527 33.891013 -34.799045
4.763630 34.058926 -47.097366
4.606149 34.047987 -38.325882
4.364308 34.031187 -10.850667
6.903134 34.207555 -20.629870
5.666521 34.121650 -20.240771
4.789463 34.060722 -10.354779
2.224553 33.882542 -29.855429
2.989036 33.935648 -43.667662
5.361971 34.100492 -11.220806
3.441495 33.967080 -34.992619
6.491053 34.178932 -9.113350
4.101546 34.012933 -34.049177
4.756180 34.058410 -47.861245
5.743736 34.127016 -14.933781
6.830041 34.202480 -31.172397
5.752412 34.127615 -24.876631
4.891292 34.067798 -46.576664
7.113190 34.222147 -10.277786
5.786050 34.129952 -17.601022
7.300780 34.235179 -22.219573
2.562475 33.906015 -19.049815
5.711945 34.124805 -21.801369
5.476488 34.108448 -50.380243
2.571119 33.906614 -40.288081
2.685151 33.914537 -43.728337
4.629435 34.049605 -38.356302
2.248352 33.884194 -46.958175
6.291974 34.165101 -29.824814
3.633720 33.980431 -41.192272
6.338712 34.168348 -28.258964
4.805519 34.061839 -48.945704
4.121430 34.014312 -47.125798
5.653392 34.120738 -23.717157
6.918927 34.208655 -27.544996
4.742299 34.057446 -15.081110
3.593668 33.977650 -38.879308
7.285219 34.234100 -19.682277
4.027439 34.007786 -39.978329
5.581925 34.115774 -16.464022
4.192340 34.019240 -4.851354
2.712053 33.916407 -24.118651
6.005935 34.145229 -22.716264
7.616928 34.257143 -21.623155
5.739059 34.126689 -15.398595
5.377206 34.101552 -51.773164
4.091474 34.012234 -6.664255
3.293383 33.956792 -24.819044
1.773455 33.851203 -15.380253
6.336885 34.168219 -22.666150
2.791275 33.921910 -43.687788
4.239721 34.022531 -41.239137
5.035077 34.077781 -44.795655
5.272745 34.094295 -10.460975
6.145567 34.154928 -21.652614
3.517721 33.972374 -46.351327
6.261885 34.163011 -6.042241
6.830540 34.202512 -19.252805
7.624017 34.257635 -43.572995
4.692568 34.053990 -48.332593
3.045600 33.939577 -40.685431
7.191062 34.227559 -15.200252
3.180388 33.948941 -37.240071
3.355427 33.961101 -31.478997
1.656714 33.843094 -19.758113
6.219762 34.160085 -18.456802
3.107012 33.943842 -43.956020
5.712154 34.124819 -53.404139
6.946532 34.210573 -16.046434
5.375590 34.101438 -27.473309
1.288660 33.817522 -26.871101
5.740140 34.126764 -16.511049
6.529235 34.181583 -9.217099
6.473904 34.177740 -10.349318
5.422446 34.104694 -21.668502
6.308676 34.166261 -27.914996
5.279771 34.094782 -16.109539
4.443021 34.036656 -40.297630
4.793571 34.061006 -13.300750
5.660726 34.121247 -13.854548
7.058282 34.218336 -16.749645
2.201262 33.880921 -30.204666
4.796551 34.061213 -10.642158
4.989716 34.074632 -13.315680
5.386517 34.102197 -43.817159
4.380956 34.032341 -8.140728
5.341477 34.099072 -8.390407
6.994672 34.213915 -24.800505
6.566918 34.184202 -29.117746
5.107202 34.082795 -9.769698
4.066810 34.010521 -45.464623
3.452314 33.967832 -47.717092
5.658649 34.121104 -12.355837
2.372430 33.892813 -34.946321
3.166990 33.948011 -33.742254
6.482514 34.178337 -27.514769
6.605078 34.186850 -24.220354
5.745445 34.127134 -15.631164
2.742412 33.918512 -34.936343
4.184020 34.018663 -42.853252
4.882911 34.067214 -15.033070
4.506458 34.041062 -13.654964
4.498652 34.040519 -37.448569
3.732329 33.987284 -29.692256
7.301394 34.235222 -19.561192
6.928563 34.209323 -18.725491
5.247781 34.092563 -47.699481
5.095014 34.081949 -11.426683
3.073324 33.941505 -28.317758
3.014530 33.937421 -25.804420
2.158812 33.877976 -25.618246
3.935306 34.001382 -26.899471
4.745123 34.057642 -15.113898
7.312502 34.235995 -24.738638
1.611712 33.839967 -21.265875
6.196789 34.158485 -17.004643
6.156805 34.155713 -16.097327
6.365557 34.170213 -19.853217
4.805550 34.061840 -48.167158
5.211676 34.090052 -16.648027
2.334582 33.890185 -34.405836
4.299471 34.026682 -51.696548
7.070841 34.219209 -24.993567
5.459642 34.107280 -25.835955
3.051204 33.939965 -33.168749
5.034274 34.077730 -46.784169
4.341212 34.029581 -42.496443
3.766189 33.989638 -43.803985
3.426524 33.966041 -37.029117
2.741206 33.918431 -39.930685
6.078665 34.150281 -10.426677
6.864768 34.204894 -17.211249
3.491003 33.970518 -9.682126
2.909604 33.930129 -31.175312
4.416380 34.034807 -15.131917
2.829698 33.924578 -27.383733
4.314195 34.027706 -49.854792
3.470407 33.969091 -48.716958
5.728893 34.125984 -12.535470
2.952936 33.933142 -36.325160
6.364127 34.170115 -16.507385
4.355422 34.030569 -43.655132
4.838268 34.064113 -6.776423
5.691810 34.123408 -46.067437
3.798274 33.991865 -43.211695
5.317256 34.097387 -16.630894
5.988214 34.143999 -24.863836
5.790940 34.130295 -23.783299
6.692765 34.192945 -22.019479
6.730155 34.195541 -24.310733
5.939823 34.140634 -18.184159
6.389531 34.171875 -15.400463
7.051025 34.217833 -13.266857
5.497341 34.109897 -49.955508
2.189890 33.880133 -24.950771
6.919872 34.208718 -28.077764
4.957139 34.072369 -48.790880
3.172282 33.948378 -34.818129
2.246119 33.884038 -34.586875
5.512454 34.110948 -14.537466
4.576494 34.045929 -50.870004
3.271720 33.955286 -53.445036
1.903198 33.860214 -33.924505
3.512355 33.972004 -45.372537
5.348425 34.099554 -12.898401
6.355182 34.169492 -30.864390
5.206449 34.089688 -53.873110
7.041114 34.217143 -26.191751
2.705328 33.915939 -30.148961
6.614492 34.187506 -18.840227
4.909800 34.069082 -49.072007
4.986955 34.074441 -49.002977
4.571825 34.045601 -57.449269
4.448027 34.037003 -10.285049
3.416294 33.965329 -33.504725
3.879143 33.997483 -42.413564
5.625344 34.118792 -24.326416
6.168693 34.156537 -14.850339
4.670164 34.052434 -37.907930
5.165374 34.086839 -20.163810
5.355537 34.100046 -26.030478
5.158913 34.086387 -21.060209
3.760673 33.989253 -50.881118
4.258758 34.023855 -33.963109
2.408484 33.895319 -26.923554
3.637279 33.980679 -40.272886
3.212581 33.951178 -39.259657
7.303418 34.235364 -21.693474
3.568034 33.975871 -47.106395
2.916439 33.930606 -48.303405
2.504226 33.901968 -32.230930
4.153194 34.016521 -43.928493
3.300653 33.957294 -37.923566
2.649842 33.912085 -33.742282
2.556381 33.905591 -34.264466
3.662846 33.982456 -47.014143
6.715084 34.194493 -17.586642
6.051369 34.148384 -29.139392
5.402157 34.103286 -21.308322
6.521434 34.181040 -29.091130
5.165661 34.086856 -15.063821
3.892381 33.998400 -38.378207
6.418657 34.173902 -13.640962
7.279336 34.233692 -13.230115
3.672164 33.983103 -47.832285
3.158805 33.947441 -31.321947
6.663959 34.190941 -13.321611
5.205769 34.089641 -10.989370
4.764614 34.058996 -50.147906
3.049212 33.939828 -44.059158
3.101571 33.943464 -38.773398
3.372386 33.962279 -45.854682
2.161208 33.878139 -35.038406
2.461279 33.898986 -44.032727
5.648887 34.120426 -22.220782
3.177623 33.948746 -5.029536
4.431732 34.035870 -15.159789
5.013023 34.076253 -46.048705
7.048076 34.217626 -30.830575
2.717989 33.916818 -26.824868
5.169336 34.087110 -7.255502
3.900541 33.998968 -32.753374
2.090009 33.873195 -36.091995
6.348592 34.169036 -21.874407
3.557575 33.975146 -35.740390
6.659579 34.190637 -12.675195
5.472923 34.108201 -14.594284
3.810866 33.992740 -35.235522
2.821993 33.924043 -34.627693
3.223246 33.951918 -36.661080
6.446945 34.175866 -16.399693
6.043869 34.147865 -27.327396
4.609829 34.048244 -6.635237
5.882604 34.136663 -15.200424
5.289939 34.095489 -9.317310
4.261145 34.024020 -46.430386
3.428707 33.966188 -39.699542
2.884860 33.928409 -37.396880
5.668307 34.121774 -26.827596
3.673748 33.983217 -40.831860
2.261214 33.885088 -29.107558
5.859191 34.135036 -13.692862
3.423337 33.965818 -28.629579
5.027595 34.077266 -45.453464
4.173476 34.017928 -36.442592
7.651210 34.259522 -30.341863
4.077927 34.011291 -39.603978
2.314262 33.888773 -42.757750
3.965532 34.003484 -42.374976
7.047878 34.217611 -23.180822
6.801660 34.200507 -28.914717
1.954034 33.863746 -38.586938
7.308860 34.235744 -28.426574
4.994502 34.074965 -41.655438
3.110182 33.944066 -49.806024
6.872790 34.205450 -25.399943
4.239472 34.022515 -37.569888
3.505474 33.971524 -32.644282
5.678344 34.122471 -21.130592
2.431600 33.896925 -34.958952
6.022468 34.146378 -26.442651
4.022163 34.007420 -41.420634
6.845608 34.203560 -16.469722
2.662938 33.912993 -34.449826
4.017961 34.007128 -35.981989
4.410976 34.034431 -42.758679
6.482899 34.178365 -22.564515
2.659333 33.912741 -32.493761
5.082419 34.081073 -17.312233
6.182647 34.157507 -21.685489
6.201463 34.158812 -27.832373
1.675315 33.844383 -39.897506
6.871578 34.205364 -18.335239
7.174173 34.226387 -26.008969
6.791540 34.199806 -9.279764
6.924484 34.209040 -8.249923
5.937699 34.140488 -13.642504
7.011890 34.215112 -34.675320
2.841540 33.925400 -37.120818
3.627266 33.979986 -8.376047
2.743114 33.918564 -46.690127
4.387488 34.032797 -43.511894
7.138289 34.223893 -34.080839
3.643627 33.981121 -33.169588
5.457494 34.107126 -54.153038
1.543539 33.835230 -36.419771
3.910086 33.999631 -44.429352
3.519648 33.972507 -41.149819
2.495269 33.901347 -26.684311
7.514958 34.250060 -34.923267
5.656481 34.120953 -52.576633
7.596942 34.255756 -11.554392
7.484614 34.247951 -5.543592
3.884248 33.997837 -43.963575
5.302781 34.096380 -45.797997
4.189137 34.019018 -9.353160
3.288998 33.956486 -37.407658
4.124819 34.014550 -11.095315
6.795562 34.200084 -8.330516
5.089333 34.081556 -47.451222
3.255615 33.954166 -48.195313
3.585525 33.977087 -44.970475
4.009695 34.006550 -46.271706
5.233526 34.091573 -15.801352
5.233301 34.091556 -23.934933
3.352013 33.960865 -45.737062
5.473552 34.108244 -10.482132
2.448102 33.898070 -37.277476
5.846231 34.134136 -12.328348
4.707712 34.055043 -9.731777
5.581648 34.115755 -48.651006
6.577801 34.184955 -8.858268
2.403473 33.894970 -24.678991
4.660532 34.051763 -39.953990
