-55.446104 -35.734710 -57.816553
-53.030894 -39.115499 -52.488570
-56.197692 -34.619276 -11.304145
-47.830182 -45.266898 -42.293054
-48.191554 -44.884606 -0.719401
-54.137195 -37.653248 -4.902574
-46.442395 -46.735143 -2.104517
-56.264813 -34.519654 -25.332410
-53.115590 -39.003551 -45.005759
-56.406452 -34.309432 -27.271863
-55.713040 -35.338572 -8.051631
-51.882402 -40.633516 -5.419112
-56.441290 -34.257726 -12.098000
-47.784879 -45.314828 -25.635208
-51.717347 -40.838770 -37.726224
-50.854502 -41.858052 -45.149278
-56.425290 -34.281468 -51.543795
-53.473285 -38.548624 -30.244374
-49.328153 -43.661107 -55.743690
-54.868957 -36.591285 -12.173946
-54.616411 -36.966095 -3.408358
-50.187857 -42.648101 -17.361195
-46.958597 -46.188984 -43.248314
-46.630555 -46.536028 -59.345601
-56.570356 -34.066165 -37.718070
-46.373077 -46.808428 -55.438603
-48.410202 -44.653273 -31.883293
-55.904820 -35.053932 -23.257153
-47.618835 -45.490509 -11.863778
-51.830005 -40.702772 -58.985093
-51.841694 -40.687321 -39.665937
-53.007622 -39.171749 -9.704173
-47.480482 -45.636878 -13.835900
-49.824026 -43.075339 -51.857979
-54.331235 -37.389329 -14.974316
-46.595407 -46.573222 -45.285579
-55.702448 -35.354288 -10.233169
-48.851251 -44.186672 -7.253724
-53.432639 -38.584493 -51.450608
-51.968680 -40.519478 -26.565530
-52.506318 -39.808857 -32.076228
-50.914973 -41.786621 -40.877539
-47.189163 -45.945072 -24.490924
-55.339284 -35.893247 -52.125109
-53.041634 -39.126070 -11.022571
-53.764078 -38.146416 -23.610498
-49.941283 -42.936838 -31.465567
-55.095018 -36.255773 -42.144717
-53.913100 -37.949446 -17.878949
-46.536453 -46.635639 3.505213
-51.846048 -40.681566 -10.764215
-50.122478 -42.722798 -24.998693
-49.532172 -43.420116 -34.086999
-55.066312 -36.298385 -7.039169
-56.507022 -34.160166 -42.513916
-47.276175 -45.853027 -14.765698
-52.228659 -40.175851 -41.442278
-55.815839 -35.186014 -2.095073
-53.279345 -38.796423 -8.915151
-48.785254 -44.256492 -22.765669
-46.439485 -46.738179 -47.743896
-51.958040 -40.533542 -48.720000
-50.399770 -42.395230 -32.764648
-52.204251 -40.208113 -36.415782
-47.017041 -46.127183 -10.420943
-50.965649 -41.726745 -61.102766
-55.937575 -35.005309 -32.279829
-50.905623 -41.797650 -10.054742
-50.139005 -42.718919 -12.091220
-49.740698 -43.173777 -48.061495
-48.768985 -44.273704 -12.887392
-51.099297 -41.568875 -49.495578
-51.728540 -40.825549 -53.562309
-50.113422 -42.733478 -52.677693
-55.701286 -35.356016 -7.200921
-48.521939 -44.535070 -3.636205
-48.576103 -44.477760 -60.986191
-54.369432 -37.332640 -21.935157
-48.139106 -44.940076 -43.969854
-54.268785 -37.479318 -51.900361
-53.307201 -38.750290 -37.412930
-50.243368 -42.579982 -39.589815
-46.452649 -46.724298 1.630321
-54.485514 -37.160361 -38.969950
-52.429115 -39.922048 0.092293
-53.170013 -38.931618 -44.205944
-51.404273 -41.208601 -28.295234
-53.560789 -38.415114 -3.236705
-46.834181 -46.320629 -23.810700
-48.958622 -44.073080 -54.919562
-53.721810 -38.202284 -19.848416
-47.641904 -45.466084 -50.111561
-54.378732 -37.318838 -28.668215
-47.777388 -45.322773 -4.715109
-50.391450 -42.405062 -26.462982
-47.643720 -45.464174 -19.699848
-50.616846 -42.138779 2.279741
-46.414762 -46.764363 -17.875129
-53.834351 -38.063382 -43.901973
-49.779909 -43.127480 -11.362081
-52.055170 -40.405160 -6.222852
-47.510936 -45.604642 -32.389926
-50.286275 -42.529285 -58.430185
-55.555135 -35.572897 -42.340089
-53.172088 -38.928876 -53.428922
-46.832383 -46.322512 -44.276149
-56.184754 -34.638479 -21.241768
-52.843828 -39.362752 -47.616347
-54.809539 -36.679470 -10.958621
-54.159925 -37.623204 -60.814376
-50.662724 -42.093500 -24.764757
-53.657294 -38.287558 -7.653425
-53.810890 -38.084542 -22.776083
-48.569989 -44.484229 -26.123536
-46.373196 -46.808346 -8.173219
-49.055918 -43.970147 -11.273366
-51.410523 -41.201221 -57.642184
-49.448818 -43.518594 -12.378318
-51.511238 -41.082244 -0.832813
-51.199659 -41.450309 -24.830029
-51.254580 -41.385432 -2.851794
-46.514007 -46.659350 -34.023157
-55.743065 -35.294017 -3.103930
-55.023357 -36.362133 -14.071039
-55.491293 -35.667654 -18.357773
-53.928624 -37.928927 -37.486769
-46.442933 -46.734547 -30.985133
-51.474281 -41.125902 -36.412557
-53.629704 -38.324025 -4.273445
-55.950925 -34.985486 -60.843260
-53.801796 -38.096560 -60.033241
-53.566404 -38.407692 -11.856533
-51.268598 -41.368873 -9.236571
-53.547657 -38.432471 -13.450097
-56.365257 -34.370570 -46.394671
-48.162526 -44.915319 1.330844
-52.861787 -39.351234 -13.143456
-56.506102 -34.161532 -13.233495
-52.555860 -39.771563 0.922734
-51.577109 -41.004432 -19.409740
-49.617302 -43.319560 -22.707817
-54.977485 -36.430214 -13.084830
-55.886854 -35.080581 -36.412438
-46.465111 -46.711109 -3.956436
-47.266757 -45.862976 -28.992841
-55.178160 -36.132381 -30.896239
-51.387053 -41.228942 -21.589554
-50.688891 -42.053674 -3.654578
-52.084340 -40.366605 -20.136569
-49.624198 -43.311403 -38.593796
-55.617431 -35.480438 -56.668844
-52.361893 -39.999750 -39.789013
-50.555074 -42.211761 -49.582661
-56.535905 -34.117298 -10.749942
-51.971229 -40.516110 -15.767368
-55.880191 -35.090492 -16.167499
-50.846194 -41.867861 -52.795351
-50.878358 -41.836767 -34.735134
-54.846289 -36.624930 -4.538473
-51.899818 -40.610497 -32.358445
-56.403818 -34.313339 -48.275499
-47.181646 -45.953047 -0.531199
-51.387443 -41.228483 -31.908914
-53.177849 -38.934545 -6.951074
-51.148641 -41.510576 -14.609816
-48.635869 -44.414532 -38.373476
-54.455438 -37.204997 1.509176
-48.525515 -44.531280 -20.233493
-48.281173 -44.789779 -21.918849
-48.964073 -44.067313 -43.450198
-54.113846 -37.684109 -16.204603
-55.649529 -35.432840 2.001648
-55.109947 -36.233635 3.451324
-50.749967 -41.991449 -30.005065
-49.323905 -43.666134 -42.701980
-56.290054 -34.482191 -6.613396
-55.197467 -36.103728 -21.984371
-46.376401 -46.804933 -32.822957
-54.854118 -36.613310 -2.645072
-55.346442 -35.882638 -8.914826
-51.110674 -41.555426 0.770942
-52.113522 -40.328033 -50.092904
-53.847766 -38.035801 -21.756514
-50.418364 -42.373261 -40.505653
-51.181790 -41.475299 -39.760772
-46.389986 -46.790580 -12.602647
-55.354509 -35.870662 -11.988599
-51.977585 -40.507708 -45.297823
-49.347660 -43.638068 -48.737678
-48.607326 -44.444729 -60.003671
-51.179018 -41.474692 -16.164349
-52.570592 -39.723903 -22.032404
-47.720930 -45.382504 -3.400973
-50.975600 -41.714987 -0.251250
-50.005994 -42.870169 2.257679
-52.834822 -39.374657 -24.009563
-53.141909 -38.968764 -57.844366
-54.538226 -37.082130 -27.665828
-54.345938 -37.367507 -46.860127
-47.740639 -45.361629 -56.451035
-49.137306 -43.884044 -21.288442
-47.119637 -46.018627 -25.287342
-55.368876 -35.849353 -1.627559
-49.941038 -42.937124 -37.256160
-53.527765 -38.458760 -58.610665
-51.740392 -40.811547 -47.818782
-50.024131 -42.838958 -49.652706
-48.973111 -44.057752 -9.579157
-46.362619 -46.819521 -25.607862
-49.481419 -43.480087 -5.837472
-56.376547 -34.353818 -31.557207
-48.139837 -44.939302 -39.035295
-52.003615 -40.473303 -25.355458
-55.974412 -34.950628 -57.243072
-52.719181 -39.558551 2.120280
-51.649128 -40.919851 -56.743698
-49.187761 -43.826953 -51.625917
-48.127475 -44.952391 -9.424102
-53.395155 -38.634038 -48.194808
-50.589780 -42.170766 -44.277859
-51.587793 -40.991811 -6.594771
-55.400395 -35.802551 -41.526971
-49.018824 -44.009390 1.591036
-51.161833 -41.494993 -23.592305
-56.301962 -34.464517 -19.152259
-51.707973 -40.849844 -17.720418
-54.854270 -36.613073 -51.595172
-52.320897 -40.053936 -47.803709
-50.184976 -42.656176 -1.699984
-54.557313 -37.053800 -45.337662
-51.761048 -40.787147 -20.891827
-46.582210 -46.587183 -46.670353
-55.312527 -35.932961 -38.095080
-56.137375 -34.708799 1.795007
-48.426494 -44.636050 0.345712
-48.758349 -44.284956 -13.906661
-46.821812 -46.333711 -27.994926
-50.980845 -41.716593 -36.844387
-50.241933 -42.581690 -20.348909
-49.436887 -43.532691 -8.705673
-50.092921 -42.757701 -43.663263
-53.030387 -39.116169 -32.505142
-55.970043 -34.957138 -20.330941
-49.494694 -43.464378 -49.665265
-49.081375 -43.943215 -30.373855
-54.744995 -36.775257 -31.900932
-50.656793 -42.099716 -23.348442
-54.301553 -37.433380 -55.834547
-48.283159 -44.787687 -5.049841
-55.894216 -35.069687 -9.264209
-53.588809 -38.378076 -39.483882
-46.359176 -46.823131 -60.266085
-56.275053 -34.504454 -36.869719
-50.105751 -42.742563 -16.558694
-46.899551 -46.251472 -21.812423
-55.940344 -35.001233 0.980530
-46.719106 -46.442381 -16.173325
-53.156895 -38.948957 -39.813085
-55.711227 -35.341230 -58.739258
-50.651443 -42.097919 -51.100016
-47.058826 -46.082944 -51.667063
-51.621463 -40.952036 -49.651980
-50.488654 -42.293847 -9.517055
-47.627512 -45.481310 -37.295874
-53.130908 -39.005616 -13.879541
-53.813263 -38.081405 2.845876
-48.705337 -44.341039 -48.674011
-53.693085 -38.240252 1.530830
-52.245095 -40.154127 -53.358323
-55.388145 -35.820739 -15.040392
-53.066396 -39.068575 -27.608315
-46.708182 -46.453939 -15.248312
-54.548874 -37.066328 -15.759276
-55.634974 -35.454405 -37.452611
-51.499133 -41.096544 -12.647289
-48.602563 -44.449778 2.393180
-53.098206 -39.026530 -56.378758
-56.401739 -34.316428 -9.826473
-52.114351 -40.326938 -14.201543
-46.461082 -46.715324 -53.730068
-52.766703 -39.471168 -11.784852
-47.519457 -45.595633 -26.562593
-51.050146 -41.626927 -18.851598
-55.338683 -35.894140 -44.303516
-47.623286 -45.485800 -10.954887
-56.231112 -34.569674 2.792682
-47.349563 -45.775378 -21.244039
-55.041318 -36.335475 -29.171080
-53.687166 -38.248072 -56.158739
-52.094478 -40.353204 -47.065042
-46.362293 -46.819856 -36.275483
-53.949444 -37.901408 0.789993
-52.563576 -39.733176 -44.692972
-56.341059 -34.406489 -16.747709
-47.751346 -45.350332 3.735849
-56.535466 -34.117949 -20.290584
-54.546457 -37.069914 -29.900056
-46.534475 -46.637692 -37.968890
-55.067808 -36.296170 0.027338
-48.273257 -44.798153 -21.110227
-54.389926 -37.302224 -47.745176
-50.478052 -42.302757 -31.761210
-52.823735 -39.389311 -21.278388
-53.815887 -38.081964 -36.410132
-54.406386 -37.277795 -17.917004
-56.072636 -34.804884 -13.664764
-54.314460 -37.414225 -8.323823
-54.762614 -36.749114 -1.470552
-50.364358 -42.437054 -45.388077
-49.222996 -43.785337 -35.400773
-55.892010 -35.072938 -28.405523
-47.343195 -45.782132 -4.168949
-55.764827 -35.261684 -47.323468
-52.950972 -39.234081 -15.728995
-54.107674 -37.692267 -6.036647
-48.929562 -44.103823 -25.395568
-48.849265 -44.188772 -27.269237
-54.312262 -37.417486 -12.144499
-54.609168 -36.976842 -37.846333
-48.060879 -45.022835 -58.679503
-55.000145 -36.396580 -26.636961
-55.407974 -35.791300 -55.291087
-47.912174 -45.180156 -40.319272
-46.955772 -46.191969 -57.817060
-50.803888 -41.917842 -43.362385
-52.853071 -39.350536 -48.657613
-54.155681 -37.628813 -45.794667
-48.785301 -44.256442 -42.431786
-47.722790 -45.380520 -20.489603
-52.335285 -40.034919 -11.055941
-54.041106 -37.780253 -29.499330
-47.018901 -46.125228 2.494830
-51.985102 -40.497772 -28.137411
-54.328963 -37.392700 -25.298941
-49.986658 -42.883218 -59.891487
-53.685597 -38.250146 -61.118041
-51.112800 -41.553985 -32.664641
-50.860293 -41.851199 3.876460
-53.592594 -38.373073 -41.632997
-51.109842 -41.556420 -46.189304
-49.571049 -43.374207 -6.648739
-48.852890 -44.184937 -37.028766
-54.747026 -36.772238 -55.455101
-53.748403 -38.167135 -12.664913
-48.559633 -44.495185 -23.698666
-48.937677 -44.095238 -24.360905
-50.012987 -42.852115 -61.085530
-52.474555 -39.850839 -60.911763
-46.945254 -46.203097 -54.864226
-55.374913 -35.840371 -39.573538
-50.453829 -42.334777 -7.709923
-55.372272 -35.844287 -53.406787
-47.478156 -45.639319 -60.065788
-50.064210 -42.791617 -44.615013
-54.273751 -37.472754 -33.493511
-55.867469 -35.109374 -15.268092
-48.985503 -44.044641 -53.431143
-53.746142 -38.170123 3.862007
-51.083085 -41.588016 -6.119855
-49.301581 -43.692521 -15.605879
-56.381024 -34.347162 -53.171596
-47.596689 -45.513919 -54.132617
-49.364915 -43.617718 2.311332
-51.445233 -41.160216 -45.186611
-52.761391 -39.471715 -19.957465
-47.004643 -46.140267 -53.853836
-51.719226 -40.836551 -4.128082
-51.242311 -41.399925 -4.709175
-48.298445 -44.771506 -34.596455
-50.607135 -42.153245 -13.684527
-54.738780 -36.784487 -7.695322
-50.727275 -42.008336 -57.631340
-50.003102 -42.863822 -15.405793
-52.035241 -40.431501 -31.491111
-46.454418 -46.722399 -27.017113
-56.494615 -34.178575 -59.859448
-48.774629 -44.267733 -39.253570
-55.663312 -35.412347 -43.362137
-50.818468 -41.902462 -21.127392
-53.593830 -38.371440 -49.636197
-54.869454 -36.590546 -18.420016
-54.898000 -36.548178 -25.257040
-54.239381 -37.518184 -11.279569
-55.066853 -36.297570 -56.778656
-49.763831 -43.162304 3.796980
-46.429251 -46.749041 -9.435448
-56.285925 -34.488319 -14.707272
-55.493610 -35.664210 -29.849360
-49.729809 -43.186641 -45.977863
-47.418953 -45.701953 -53.291803
-51.421845 -41.187844 -15.398751
-46.698909 -46.463757 -7.167219
-54.774549 -36.731391 -50.250793
-50.550355 -42.217324 0.239392
-48.004604 -45.082377 -15.924662
-47.940760 -45.149914 -59.511323
-47.135816 -46.001494 -46.701244
-52.607486 -39.689133 -4.687086
-55.803606 -35.204130 -46.203528
-52.518822 -39.792329 -49.506232
-48.833889 -44.205039 -33.195907
-50.992474 -41.700251 -33.528085
-53.442937 -38.570882 -40.595632
-47.785635 -45.314050 -2.566311
-48.997633 -44.031809 0.478795
-52.735142 -39.506409 -58.759225
-55.285985 -35.972353 -34.598297
-49.274424 -43.724587 -40.460703
-51.248820 -41.392235 -20.365793
-51.685757 -40.876087 -61.015082
-48.939747 -44.093048 -2.156176
-51.226294 -41.422663 -41.586728
-49.873920 -43.016400 -50.648435
-54.468321 -37.185873 -58.580285
-50.742895 -41.989886 -55.609598
-49.741199 -43.173193 -35.019570
-49.551704 -43.397058 -10.318912
-53.189905 -38.905327 -29.451102
-54.200689 -37.569325 -20.187367
-51.426042 -41.182887 -59.676446
-51.882698 -40.633125 -42.775582
-56.285372 -34.489141 -1.632307
-48.412970 -44.650345 -51.807885
-48.239655 -44.833702 -37.290869
-48.411864 -44.651515 -54.016178
-49.114468 -43.908205 -4.367843
-54.988960 -36.413180 -30.133219
-50.145297 -42.695822 -55.958366
-53.282564 -38.796624 -25.871250
-49.067703 -43.957679 -36.229256
-55.842075 -35.147035 -49.888924
-50.617427 -42.140139 -12.738281
-51.477567 -41.122019 3.452650
-54.793706 -36.702967 -16.537027
-54.326256 -37.396717 -43.571804
-48.219879 -44.854623 -46.870266
-52.048266 -40.414285 -55.462545
-50.582287 -42.179604 -6.812336
-51.506148 -41.088257 1.302006
-46.362085 -46.820091 -19.913272
-50.069259 -42.788102 -14.226569
-54.191459 -37.581524 -39.728004
-51.615173 -40.959467 -8.226879
-53.124491 -38.991788 -41.195220
-54.670243 -36.886202 -20.636630
-55.190288 -36.114384 -19.138947
-55.708252 -35.345672 -12.576234
-48.414486 -44.648741 -19.440509
-53.777066 -38.129249 -10.661839
-46.383150 -46.797802 -23.141207
-54.243540 -37.512687 -48.853290
-51.045852 -41.632003 -58.752915
-50.985259 -41.705961 -29.091800
-50.971948 -41.721027 -27.552594
-47.086213 -46.053971 -48.528957
-54.469518 -37.184101 0.415069
-50.991052 -41.696741 -53.611785
-53.349350 -38.694581 -33.332435
-51.651604 -40.916432 -11.523502
-54.984542 -36.419749 2.584545
-52.036390 -40.429983 -16.659731
-46.373453 -46.808077 -6.290909
-55.646752 -35.436933 -21.222661
-49.994540 -42.873929 -27.256316
-48.744269 -44.299851 -50.987483
-46.431965 -46.746127 -56.227677
-46.430688 -46.747503 -29.858656
-50.270243 -42.558784 -10.263383
-53.767216 -38.142269 -8.559478
-46.387231 -46.793465 -42.775263
-54.327742 -37.394512 -23.461995
-54.215641 -37.549562 -35.558714
-52.029889 -40.438575 -54.463360
-50.272971 -42.545014 -36.500486
-50.722863 -42.013543 -4.602694
-54.299995 -37.435693 -42.710324
-48.431652 -44.630581 -16.803003
-55.251610 -36.023366 -50.871147
-47.365560 -45.758440 -38.849318
-46.417824 -46.761102 -40.851858
-50.666779 -42.082047 -15.167621
-51.369889 -41.250292 -43.753580
-46.345414 -46.837701 -48.814148
-56.553092 -34.091789 -54.035413
-49.326164 -43.663476 -26.652305
-53.170333 -38.931196 -46.924575
-47.363749 -45.760355 -40.315708
-52.018983 -40.452990 -29.723029
-53.756165 -38.163210 -35.225531
-47.382892 -45.740116 -23.316001
-54.008080 -37.829744 -50.297442
-47.536985 -45.577082 -45.793285
-46.418762 -46.760094 -57.090579
-52.198589 -40.215596 -7.346887
-55.721070 -35.326628 -33.150886
-53.398404 -38.644573 -22.306212
-55.687507 -35.376469 -4.043258
-55.368253 -35.850253 -45.920163
-55.675530 -35.394223 -22.184829
-56.569976 -34.066729 -35.952489
-53.910095 -37.953416 -57.842456
-56.568818 -34.068449 -58.391550
-56.372801 -34.359378 -7.706288
-53.313825 -38.741535 -50.384366
-55.064219 -36.301482 -45.080861
-53.657063 -38.298895 -38.358008
-50.843370 -41.871189 -17.040837
-55.579355 -35.536986 3.060769
-55.632564 -35.457982 -35.711004
-52.416925 -39.927011 -43.625069
-47.569794 -45.542387 -17.007594
-54.122864 -37.675442 -54.592573
-56.405311 -34.311126 -41.638132
-48.219518 -44.855015 -8.254444
-56.501126 -34.168916 -29.347668
-49.284057 -43.713213 -31.357331
-49.440051 -43.528942 -25.743620
-49.556813 -43.391011 -28.571517
-46.537262 -46.634730 -52.791620
-55.224146 -36.064131 -32.372894
-53.397807 -38.640040 -16.468824
-48.096381 -44.985277 -57.816611
-52.963089 -39.205120 -60.310862
-47.128763 -46.008957 -41.095870
-54.847900 -36.622534 -22.772097
-48.764716 -44.278224 -1.063516
-50.188600 -42.644673 -48.859311
-52.888934 -39.303134 -42.679922
-50.224663 -42.602082 -34.510809
-51.687402 -40.874144 -24.309267
-51.773709 -40.772191 -38.546457
-52.112560 -40.329306 -9.952641
-48.647922 -44.401780 -40.128730
-51.814954 -40.722666 -1.687690
-54.909953 -36.530437 -34.130748
-56.062354 -34.820110 -56.452353
-47.915579 -45.176579 2.217325
-49.539052 -43.411995 -21.844326
-53.688853 -38.245844 -9.643508
-53.621568 -38.334779 -15.594762
-52.181224 -40.238549 -8.169687
-47.682941 -45.422690 -8.757310
-55.017839 -36.370318 -38.886390
-46.550528 -46.620731 -13.484419
-49.603336 -43.336035 -57.778608
-47.087779 -46.052322 -34.561629
-55.315966 -35.927861 -16.410029
-51.679799 -40.883126 -51.028681
-51.408267 -41.206083 -47.059209
-52.695732 -39.571549 -7.713865
-53.260503 -38.812017 3.225737
-50.569871 -42.200069 -16.189653
-53.057183 -39.093779 -19.028908
-55.238475 -36.042874 -7.798129
-55.409349 -35.789259 -54.251432
-49.800531 -43.119958 0.737074
-50.592249 -42.167839 -60.039128
-50.583092 -42.185503 -18.301517
-47.484227 -45.632922 -7.967407
-52.807467 -39.410813 -51.550987
-52.544979 -39.757756 -6.701134
-46.459981 -46.716526 -14.419165
-52.558281 -39.740175 -18.890933
-50.916805 -41.784449 -51.998819
-53.334692 -38.713954 -43.333627
-49.865875 -43.025902 -53.832195
-46.407531 -46.771989 -43.695821
-55.333448 -35.901914 -22.917100
-54.515632 -37.115661 -41.305294
-53.466563 -38.539654 -46.246483
-52.103194 -40.341685 -19.275805
-52.290123 -40.094611 -27.283751
-47.494810 -45.621727 -6.494142
-54.440016 -37.227885 -13.896101
-54.452902 -37.208758 -50.927365
-50.461041 -42.328398 -11.159564
-53.290236 -38.772714 -36.156401
-46.776870 -46.381249 -36.980102
-55.216943 -36.074833 -3.910155
-54.771911 -36.735308 -36.968560
-50.121725 -42.723685 -28.349974
-53.777722 -38.128382 -6.740951
-50.577469 -42.185295 1.382168
-49.255865 -43.746516 -17.700040
-52.739628 -39.500479 -57.235507
-56.567288 -34.070718 -55.028529
-50.157392 -42.681543 -41.932134
-55.022669 -36.363154 -17.421946
-53.669380 -38.271580 -53.020044
-53.989029 -37.849086 -2.681657
-50.207805 -42.621993 -38.479098
-52.776813 -39.451330 -25.739711
-55.611797 -35.488822 -11.173364
-48.609660 -44.442260 -15.430973
-46.417787 -46.761181 2.565677
-52.555718 -39.763605 -1.365351
-55.916518 -35.036552 -55.515300
-52.771701 -39.458087 -26.701819
-48.851191 -44.186741 3.314739
-47.152987 -45.983369 1.435197
-51.242290 -41.399959 -48.407150
-50.339067 -42.466939 -30.766382
-54.801431 -36.691500 -24.405602
-53.335884 -38.712382 2.266023
-55.636506 -35.452148 -14.284918
-55.033292 -36.347383 -43.726025
-54.924609 -36.508690 -9.899569
-54.186280 -37.590091 -56.856268
-47.061975 -46.079615 -42.282133
-46.354356 -46.828276 -10.474889
-54.958970 -36.457684 -52.728316
-49.985756 -42.899442 -9.055363
-50.644756 -42.105810 -5.463815
-48.027757 -45.057876 -48.574787
-52.695379 -39.558965 -55.047874
-53.695059 -38.246283 -33.950786
-51.758131 -40.790592 -41.795264
-55.596119 -35.512096 -5.930131
-53.922980 -37.936387 -14.190715
-54.613874 -36.969854 -53.945157
-56.375636 -34.355170 -30.326791
-48.184180 -44.892411 3.053619
-56.405715 -34.310527 -24.083718
-48.360796 -44.705542 -40.918403
-46.477522 -46.697959 -24.513144
-50.542565 -42.237225 -22.197424
-50.010183 -42.855844 -13.128156
-46.573985 -46.595876 -61.082609
-51.122498 -41.541459 -1.639784
-52.001285 -40.476383 -34.326049
-55.793199 -35.219579 -31.112378
-55.874894 -35.098330 -40.383779
-52.363661 -39.997413 -20.852369
-51.856211 -40.668134 -52.279548
-56.169682 -34.660836 -35.332643
-46.408132 -46.771393 -1.039839
-55.096301 -36.253868 -47.979950
-55.368544 -35.849827 -19.909137
-53.444869 -38.575982 -17.365456
-51.926405 -40.575356 -46.137911
-50.141356 -42.705634 3.215537
-52.887104 -39.305553 -30.226636
-50.783971 -41.941371 -42.087071
-48.466173 -44.594060 -30.647835
-48.871544 -44.165203 -34.470424
-48.109071 -44.971851 -38.164727
-55.757037 -35.273247 -34.837863
-53.843106 -38.041960 -47.765920
-54.000987 -37.833281 -28.041036
-47.679827 -45.425973 -22.021465
-46.937000 -46.211871 -1.742372
-52.440843 -39.895397 -34.833836
-49.322307 -43.668038 -16.827806
-52.465667 -39.862587 -56.227506
-56.357983 -34.381371 -39.812791
-54.720402 -36.811750 -57.491812
-46.346382 -46.836686 -39.069201
-53.503527 -38.505400 -28.576459
-56.381663 -34.346225 -2.855971
-51.405542 -41.207102 -16.954840
-49.521236 -43.433038 -27.722253
-52.821064 -39.392841 -45.859598
-47.528873 -45.585664 -43.245854
-51.570430 -41.012322 -27.495218
-52.554847 -39.744713 -29.491132
-55.808553 -35.196787 -51.777697
-53.826967 -38.063290 -55.323051
-50.479200 -42.301400 -33.673341
-54.475247 -37.175599 2.467613
-54.134989 -37.656163 -0.398133
-56.186829 -34.635399 -4.068930
-53.161315 -38.951250 -0.314923
-49.826669 -43.072225 -40.179146
-46.867732 -46.285118 -39.800915
-52.532317 -39.774493 -52.631863
-54.870126 -36.589551 -9.050558
-50.362321 -42.453163 -19.416701
-54.258527 -37.492878 -36.692829
-47.937156 -45.153727 -35.751945
-47.083361 -46.056996 -35.381019
-49.684390 -43.240303 -32.527610
-52.581340 -39.709697 -10.331878
-47.240629 -45.890644 -2.867000
-49.180606 -43.835404 -47.905355
-49.883936 -43.004586 -23.987144
-55.646017 -35.438013 -45.080237
-55.021444 -36.364966 -46.533632
-48.412925 -44.650395 -10.209387
-53.515124 -38.480417 -18.771151
-49.664816 -43.263409 -56.414272
-54.285748 -37.456836 -32.335542
-48.805286 -44.235299 -29.270744
-47.559942 -45.552795 -58.070931
-52.923054 -39.282539 -3.384662
-51.919930 -40.583913 -0.310674
-49.383891 -43.595302 3.183024
-49.137176 -43.884180 -56.544629
-54.284618 -37.458391 -1.627267
-49.606169 -43.332709 -24.765491
-56.505971 -34.161723 -57.352555
-47.205743 -45.927539 -15.686017
-56.417577 -34.292921 -26.307287
-56.214123 -34.594867 -48.996149
-52.057901 -40.401551 1.155840
-47.491570 -45.625128 -51.100980
-56.467839 -34.218316 -56.016775
-56.014261 -34.891487 -58.072762
-47.694115 -45.410867 -9.978288
-54.622944 -36.956400 -6.342469
-55.923488 -35.026226 -24.213119
-46.830575 -46.324461 -4.822685
-50.404958 -42.389080 -0.557356
-52.627260 -39.649001 -24.912776
-55.473126 -35.694637 -0.586025
-48.972576 -44.058317 -5.291879
-48.677433 -44.370560 -8.827212
-47.841801 -45.254613 -18.756106
-49.828560 -43.069986 -46.981308
-50.581191 -42.180906 -54.112271
-51.218227 -41.428374 -13.445095
-55.896818 -35.065792 -39.440990
-55.922724 -35.027340 -59.452149
-56.519985 -34.140926 -4.706071
-55.036115 -36.343190 -58.950436
-52.474407 -39.851034 -33.891500
-52.377862 -39.978643 -30.342656
-55.808808 -35.196409 -48.448136
-54.858298 -36.607103 -19.725653
-56.512147 -34.152560 -43.592759
-49.002915 -44.026220 -28.354712
-52.043345 -40.420791 -23.653096
-53.552156 -38.426521 -42.629795
-48.030335 -45.055149 -50.863700
-54.635405 -36.937902 -42.147435
-54.248451 -37.506195 -13.090459
-50.741001 -41.992135 -35.959863
-51.305099 -41.325760 -55.041052
-54.564826 -37.042653 -30.826056
-56.486006 -34.191358 -8.533003
-54.784615 -36.716456 -33.017240
-52.330206 -40.041632 -3.228838
-53.606397 -38.354828 -45.242946
-56.044201 -34.847056 -42.697919
-48.986290 -44.043808 -18.656532
-48.451674 -44.609399 -50.270945
-52.696457 -39.557540 -31.308474
-54.301280 -37.433785 -34.562761
-54.508555 -37.126166 3.538184
-47.917794 -45.174220 -14.800186
-47.639222 -45.468925 -28.333574
-47.952095 -45.137922 -52.698156
-47.909256 -45.183243 -27.570706
-48.833800 -44.205134 -6.254309
-54.288011 -37.453478 -6.932287
-54.855743 -36.610894 -21.430605
-52.782788 -39.463108 -8.573081
-52.656355 -39.610545 -50.428027
-48.663433 -44.385371 -17.701649
-52.258289 -40.138952 2.936266
-54.616707 -36.965657 -0.361100
-48.049326 -45.035061 -17.681343
-49.404836 -43.570523 -54.363230
-46.344379 -46.838822 -21.571731
-52.153798 -40.274799 -12.123507
-49.163707 -43.855363 -50.450420
-46.474558 -46.701085 -34.938254
-52.230809 -40.173009 -57.999071
-50.976888 -41.714044 -26.081860
-50.565604 -42.200070 -8.616849
-53.197733 -38.894979 -55.501956
-46.412954 -46.766265 -28.763365
-54.773179 -36.733426 -47.327136
-49.221108 -43.787567 -23.561233
-46.878850 -46.273375 -20.566230
-48.698214 -44.348575 -44.203085
-56.344169 -34.401869 -44.437929
-51.104861 -41.567043 -37.718320
-56.406092 -34.309968 -45.560144
-49.488611 -43.471576 -29.629065
-55.002842 -36.392580 -15.690459
-56.374638 -34.356646 -47.308206
-48.463255 -44.597147 -27.966835
-56.334958 -34.415542 -40.805984
-53.123160 -39.007842 -4.664765
-49.736225 -43.179079 -18.339747
-47.862244 -45.232980 -23.867506
-52.553894 -39.745973 -28.105094
-49.921380 -42.973212 -7.870299
-51.762673 -40.785228 -3.239646
-47.846047 -45.250114 -41.312821
-51.191634 -41.462750 -38.835543
-47.086319 -46.053903 3.443349
-46.938646 -46.210120 -12.931527
-53.140269 -38.981166 -1.297446
-51.571514 -41.011041 -40.545745
-47.930218 -45.161084 -5.805685
-55.232166 -36.052227 -40.538510
-48.240936 -44.832356 -6.884065
-53.133590 -38.995628 -20.620199
-52.430429 -39.909163 -38.787694
-50.125002 -42.729839 -3.244748
-49.654849 -43.278864 -2.909539
-55.193221 -36.110028 -33.369326
-54.438527 -37.230095 -44.446818
-53.020376 -39.129401 -28.630061
-50.965814 -41.726547 -11.835441
-55.146693 -36.179082 -35.906337
-46.355698 -46.826849 -18.684496
-52.632862 -39.641596 -53.988631
-50.177299 -42.658040 -21.310394
-56.012075 -34.894761 -18.470984
-48.184244 -44.892323 -28.721672
-49.554910 -43.393276 -1.176425
-48.167886 -44.909629 -26.665780
-51.788347 -40.754899 -29.022173
-55.304291 -35.945182 -48.869325
-48.675444 -44.372664 -58.369282
-48.354405 -44.712306 -11.267841
-53.234504 -38.846378 -35.150965
-47.756906 -45.344447 0.765688
-50.988144 -41.700180 -47.644356
-52.774411 -39.483430 -5.707524
-50.572229 -42.191503 -37.515664
-53.749744 -38.165362 -20.767573
-55.457665 -35.717559 -24.499646
-49.427913 -43.543285 -19.448099
-50.442913 -42.344268 -29.248622
-48.615629 -44.435944 -57.291469
-51.191693 -41.459720 -10.773622
-53.968723 -37.875926 -24.597121
-49.294653 -43.700703 -0.225958
-53.578444 -38.391779 0.291528
-54.678645 -36.873723 -59.668692
-50.254994 -42.566246 -42.785469
-46.952187 -46.195775 -33.451147
-46.826441 -46.328810 -31.676269
-50.574865 -42.188383 -47.120419
-49.436687 -43.532924 -13.666476
-47.486720 -45.630259 -55.442370
-53.690448 -38.243735 -52.197940
-49.168870 -43.849265 -46.950947
-53.685658 -38.256974 -31.478215
-53.151899 -38.962641 1.418422
-48.711277 -44.334755 -55.805123
-52.725378 -39.519315 -40.512489
-52.818467 -39.420224 3.700279
-47.841815 -45.254604 -13.056858
-53.287026 -38.791271 -14.840951
-52.183507 -40.235532 -18.228900
-54.419137 -37.258872 -19.180481
-51.622945 -40.950286 -22.469783
-50.905878 -41.803288 -30.883129
-56.563698 -34.076048 0.044736
-54.995081 -36.404106 1.523767
-49.045573 -43.981091 -45.874196
-47.038124 -46.104880 -9.429573
-53.315499 -38.740601 -2.398062
-54.996497 -36.401988 -60.671392
-54.135884 -37.654980 -59.183981
-55.686622 -35.377788 0.198951
-53.480068 -38.534139 -24.648951
-47.057000 -46.084893 -27.047761
-47.095543 -46.044101 -56.824975
-55.416680 -35.778379 -60.363988
-52.193855 -40.221854 -40.543055
-49.139970 -43.881225 -20.460354
-55.446218 -35.734545 -36.674688
-56.111229 -34.747587 -34.033003
-55.327838 -35.910256 -2.628994
-50.276282 -42.541096 -46.378694
-53.054784 -39.083923 -49.562753
-52.745617 -39.492564 -14.692887
-49.303041 -43.690774 -52.533762
-54.639010 -36.932555 -5.311502
-52.364397 -39.996440 -22.905204
-53.415920 -38.606591 -54.364200
-55.101874 -36.245594 -55.970704
-47.324968 -45.801382 -61.066622
-54.025353 -37.801075 -27.131218
-54.891138 -36.558359 -39.840756
-53.538068 -38.461284 -32.392107
-52.128755 -40.307900 2.093664
-53.983860 -37.855919 -16.967331
-46.377625 -46.803621 -51.187662
-46.828373 -46.326785 -11.893459
-52.493239 -39.826144 -9.362829
-51.799033 -40.742276 -33.386020
-52.361259 -40.000588 -42.436647
-47.345793 -45.779382 -5.423861
-53.276804 -38.797389 -6.150029
-52.620019 -39.658573 -37.227607
-49.303532 -43.690216 -14.622938
-54.218033 -37.546400 -52.768707
-56.275172 -34.504279 -32.973149
-56.114505 -34.742721 -38.306130
-48.494987 -44.563576 -45.223291
-55.454463 -35.722310 -28.786330
-51.553904 -41.031844 -31.051999
-49.496681 -43.462024 -59.484926
-50.489930 -42.288715 -48.129141
-50.025741 -42.837062 -41.065306
-49.661618 -43.267211 -20.398723
-48.345578 -44.721653 -2.774298
-48.484576 -44.574590 -52.983461
-52.460039 -39.870026 -35.725031
-56.151790 -34.687377 -50.830182
-56.343702 -34.402567 -28.296455
-52.059289 -40.399716 -21.764718
-56.255886 -34.532904 -22.214410
-52.940856 -39.234507 -38.174667
-48.452869 -44.608135 -47.913788
-51.097900 -41.570516 -22.545966
-55.838426 -35.152489 -4.876407
-56.334571 -34.416106 -49.867102
-51.302138 -41.329252 -7.343690
-52.446404 -39.888048 -15.948123
-51.860072 -40.663031 -9.056011
-47.022188 -46.121731 -17.262873
-55.693723 -35.367229 -17.001225
-54.782576 -36.719479 -48.642446
-51.478909 -41.120434 -34.835383
-53.939549 -37.914486 -26.330397
-52.694564 -39.560043 -41.766212
-48.251195 -44.821493 -33.154311
-49.448045 -43.519488 -44.082805
-46.496805 -46.677565 -16.972855
-47.914045 -45.178176 -44.860978
-52.382895 -39.971990 -59.421101
-46.873656 -46.278843 -50.760436
-49.705039 -43.215907 -36.107055
-55.577054 -35.540366 -38.734244
-53.177658 -38.935728 -7.953697
-53.151885 -38.955579 -34.295082
-46.850636 -46.303196 -49.800774
-48.038724 -45.046273 -23.026508
-49.448973 -43.518414 -7.509796
-53.457052 -38.567919 -26.882476
-50.350157 -42.453825 -51.907081
-52.358413 -40.004349 -33.024093
-51.701350 -40.857667 2.728266
-55.021696 -36.364596 -27.498252
-56.482614 -34.196393 -17.603705
-55.749771 -35.284035 -27.572704
-49.654743 -43.275343 -3.968523
-48.067742 -45.015582 -13.976584
-55.289253 -35.967500 -49.804810
-48.066167 -45.017241 -54.930747
-50.080016 -42.772959 -23.123004
-47.824157 -45.273273 -51.903406
-50.821501 -41.897029 -56.707433
-50.181595 -42.661987 -4.218073
-46.772057 -46.386376 0.583908
-47.691514 -45.413600 -47.663084
-54.855555 -36.611171 -28.311537
-51.154981 -41.503087 -18.036954
-55.908231 -35.048896 3.789399
-49.326048 -43.663604 -39.470440
-53.178654 -38.932123 -23.139240
-56.109636 -34.749938 -54.136323
-54.701329 -36.840062 -36.020081
-52.748407 -39.488877 -17.591200
-54.283548 -37.459806 -9.698745
-55.888187 -35.078644 -0.982038
-53.383424 -38.649542 -59.583133
-56.567303 -34.070697 0.972209
-46.498142 -46.676113 -58.361605
-51.248174 -41.392999 2.235289
-52.128058 -40.308822 -2.475835
-47.639676 -45.468442 -34.632900
-49.166340 -43.852252 -60.901899
-50.204752 -42.625589 -55.104229
-56.058927 -34.825214 -29.423117
-47.835647 -45.261117 -29.602057
-49.089709 -43.934398 -3.507587
-51.998361 -40.480248 -44.278161
-48.081934 -45.000560 -24.752618
-56.548657 -34.098372 -15.874686
-51.346304 -41.277087 -50.328298
-52.212916 -40.196660 -56.986613
-56.342436 -34.404445 -5.725267
-55.492534 -35.665808 -26.258218
-47.662790 -45.443989 -33.262273
-49.201370 -43.810880 -44.982203
-51.285558 -41.351657 -42.677769
-55.268387 -35.998492 0.910334
-52.124788 -40.313143 -13.266296
-47.829162 -45.267977 -31.250707
-52.325015 -40.048494 -51.834947
-53.791690 -38.109920 -1.389246
-49.004857 -44.024166 -32.165807
-49.357453 -43.626504 -41.434794
-52.841644 -39.365640 -16.663550
-47.759941 -45.341234 -1.379057
-53.616525 -38.341444 -5.497649
-49.720989 -43.199432 -4.972585
-47.183757 -45.950786 -29.940981
-49.942857 -42.934979 -30.081784
-47.245141 -45.885855 -18.810484
-52.690984 -39.596002 -2.449370
-50.249950 -42.572196 -56.896687
