62.817605 49.726406 -58.847690
59.948839 58.522720 -32.618785
63.289788 45.815823 -6.173958
63.202320 46.804129 -29.609500
62.498047 51.383523 -47.326002
49.969343 17.470746 -55.438765
62.776410 49.960614 -5.755322
34.628352 11.515703 0.919092
55.383014 22.494015 -50.338568
52.836090 19.828301 -8.995859
62.999970 48.689617 -2.414413
62.948137 48.984304 -17.629112
47.428426 15.768475 1.191029
61.845571 53.829078 -1.314291
62.391066 36.161506 -35.275253
34.786380 11.546067 -53.213180
63.056520 48.368115 -23.626205
34.633951 11.516779 -27.056281
57.998946 25.989690 -1.536280
61.003213 56.167350 -36.627460
44.787133 14.330152 -57.669348
63.049028 48.410713 -38.939231
63.071135 48.285026 -30.680437
61.453038 33.019260 -10.748900
63.306396 42.376053 -40.265274
42.700258 13.400317 -3.146758
52.692884 19.703998 -45.406964
49.330123 17.005626 -19.842544
44.106245 13.995055 -8.830442
62.811224 49.762684 -32.714390
49.653971 17.241269 -43.937260
60.449869 30.504031 -28.300592
54.754593 21.773383 3.270165
61.319573 32.643036 -50.657247
63.282114 42.085589 -43.010557
53.456528 20.434939 -46.816466
63.169650 47.173280 -18.259708
63.261417 46.136396 -31.154748
42.382594 13.276548 -46.901248
59.320092 28.214661 -53.097309
35.116681 11.609531 -18.646722
48.906365 16.697284 -35.160078
56.157113 23.442969 0.879075
60.970947 56.256916 -6.350993
59.946794 58.527160 -21.118883
60.300476 30.175472 -26.660720
62.040861 34.818498 -26.830336
52.911318 19.893599 -26.286811
38.765203 12.310562 -6.714805
62.285179 35.755437 -4.217742
37.264426 12.022201 -35.102017
61.731071 33.803008 -54.159272
59.190260 27.983958 -34.481596
62.835617 49.624007 -53.779936
62.742213 50.155030 1.537728
56.890232 24.363557 -35.531449
58.959081 27.573165 -58.225117
63.280557 42.066975 -26.110433
54.685930 21.702584 -36.208542
51.908103 19.022805 3.827273
35.081228 11.602719 -46.364919
63.301369 42.315917 -36.469740
62.000941 53.252527 -15.390572
38.867056 12.330132 -11.652063
62.203754 35.443180 -55.935471
59.783100 58.882564 -44.194248
62.862739 49.469811 -21.498470
61.520851 54.730457 -35.682083
51.414461 18.594322 -43.212516
58.201921 26.287391 -28.172560
61.824105 53.888665 -45.878145
52.494535 19.531830 -13.609114
60.537667 57.244286 -24.630274
57.841271 25.758431 -55.652275
59.583524 28.682765 -1.714159
62.353137 51.928352 -35.814042
57.245563 24.884715 -27.332494
62.728091 50.235317 -34.491970
59.431535 28.412689 -18.186381
63.256626 41.780703 -24.146405
59.799884 58.846123 -34.469042
46.587618 15.260812 -10.306282
61.052137 56.031545 -50.401289
61.854457 34.150820 -9.673247
58.846607 27.373305 -2.810299
45.674470 14.766854 -26.209112
60.569268 30.766623 -6.732400
62.812983 38.178564 -50.038659
47.016083 15.519511 3.732781
42.722318 13.408912 -48.449360
57.108180 24.683217 -2.273910
59.303951 28.185980 -51.045414
62.435031 51.620450 -43.138674
45.964163 14.909426 -16.292808
49.618459 17.215430 3.716994
63.110959 40.038249 -19.261223
59.850140 58.737009 1.081608
58.460515 26.687243 -49.860094
54.704793 21.722034 -2.875556
46.425461 15.162905 -2.887981
57.473306 25.218743 -23.527457
62.775622 49.965091 -48.082090
63.323434 44.445641 -39.463743
57.308791 24.977451 -16.037218
59.929104 58.565566 -45.987368
55.494812 22.631067 -20.902864
54.765594 21.784726 -37.856447
61.760744 54.064546 -17.519491
36.990590 11.969586 -14.658638
48.253140 16.266421 -46.401077
54.481525 21.491821 -43.519492
54.386578 21.393920 -51.736590
62.742226 37.764457 -59.944236
63.146922 47.430077 -52.431624
47.108565 15.575349 -20.743411
62.169905 52.617263 -23.715185
42.473499 13.311967 -27.139174
54.007832 21.003392 -13.701174
44.942021 14.406380 -44.349626
60.970743 56.257482 -34.810887
52.119088 19.205941 -39.418652
59.830124 29.141034 -49.553569
42.096813 13.165200 -22.181599
50.872318 18.127783 -16.512102
61.969486 34.544778 -24.841141
63.326188 43.314978 2.005657
62.532443 36.703675 -48.786569
63.254961 46.209334 -27.982666
54.997412 22.023755 -47.818309
62.930063 49.087054 -12.105494
62.874250 49.404369 -0.373522
50.766713 18.050941 -57.739237
61.044006 31.866242 -14.013196
63.246630 46.303473 -42.207250
62.140576 35.200895 -19.341935
49.358848 17.026528 -32.675978
58.528040 26.807231 -4.852407
63.087541 39.785424 -57.392685
63.012182 39.344385 -12.981801
38.201245 12.202202 -8.456756
46.164764 15.008151 -51.330124
63.032642 48.503871 -60.641132
56.254976 23.562938 3.696453
41.981198 13.120154 -12.359923
51.806266 18.934410 -56.288884
63.019450 48.578869 -6.664808
57.505541 25.266020 -52.128458
61.290280 32.560463 -15.689177
44.696484 14.285540 -17.320852
35.159776 11.617811 -11.029397
54.341033 21.346958 -61.063982
41.712160 13.015330 -37.186666
61.241171 32.422031 -37.620999
37.765555 12.118488 -20.922389
56.466163 23.821828 -56.650541
57.099973 24.671181 -4.414802
49.448297 17.091614 -30.321574
63.073795 39.704977 -59.419712
60.563826 57.187489 -10.617905
62.450694 36.390174 -27.562187
44.156036 14.019559 -26.770758
41.912522 13.093396 -60.494091
62.463638 36.439815 -33.759913
59.497903 28.530622 1.724618
60.373821 30.336780 2.039055
59.948111 58.524300 -19.009893
39.863546 12.521598 -53.811665
63.324228 44.119699 0.042784
56.206550 23.503573 -16.766759
62.078142 52.962269 -21.028577
48.094648 16.170727 -54.443171
63.086150 39.777283 -45.001608
57.985806 25.970418 -38.109837
56.132944 23.413341 -29.945197
45.481654 14.671960 -11.972643
34.697930 11.529072 -41.810728
43.883014 13.885192 -15.469140
59.864563 29.216775 -9.675244
53.718749 20.705317 -24.499818
61.846143 53.827491 -50.995534
47.931915 16.072472 -1.918767
59.741747 28.963919 -27.957513
42.047998 13.146181 -52.112526
47.620303 15.884326 -58.779102
63.103824 47.917055 -42.494671
44.581998 14.229195 -24.959950
41.889202 13.084310 -31.935708
60.330545 30.241603 -8.228989
62.789100 38.038789 -16.350044
58.573349 26.887742 -52.262367
39.176386 12.389567 -23.802147
46.562097 15.245403 -54.334870
40.258871 12.597557 -40.435610
63.325993 43.395228 -16.643269
57.009645 24.538698 -21.417922
48.751059 16.584278 -28.828498
63.321935 45.060736 -59.343812
41.850822 13.069356 0.128595
36.226608 11.822793 -12.667320
60.692943 56.907157 -31.447552
55.472149 22.603285 -9.551588
51.982836 19.087673 -37.535966
62.177778 35.343563 -31.693616
63.174053 47.123528 -20.129540
44.706374 14.290407 -20.495975
37.145221 11.999297 -57.114132
56.468885 23.825164 -5.790608
45.085567 14.477026 -35.340122
36.183270 11.814466 -36.209354
52.555681 19.584905 -22.821658
63.323939 44.238338 -32.360041
59.887147 58.656663 -53.774578
51.210628 18.417394 -28.741118
43.288132 13.629368 -34.535773
63.240236 46.375713 -34.108719
53.897706 20.889840 -7.108256
35.653186 11.712616 -59.928995
49.500060 17.129278 -49.673645
62.897084 49.274549 -44.563188
56.008679 23.261007 -7.396748
40.415646 12.627680 -5.586981
62.530335 51.262128 -59.695362
40.174730 12.581390 -26.024986
38.803342 12.317890 -55.301973
62.655667 37.257871 -10.727294
63.322393 44.872894 -7.807471
39.835778 12.516263 -38.485370
36.387585 11.853724 -28.357177
45.369358 14.616694 -47.959268
61.140383 55.786586 -17.981150
59.115321 27.850796 -10.903734
39.916892 12.531848 -14.175621
61.196766 55.630074 -10.669010
62.282647 52.193378 -31.883122
52.912673 19.894776 -55.268523
43.714190 13.802105 -11.716951
61.207662 32.327572 -3.166276
55.796846 23.001324 -41.359281
60.238824 30.039882 -20.071982
51.145986 18.361284 -21.492445
61.506168 33.169028 -29.529954
63.323289 44.504810 -53.148361
63.316526 42.497229 -32.002825
40.402363 12.625127 -22.217488
53.387313 20.363571 3.851712
61.451076 33.013730 -57.668361
57.599734 25.404172 -20.173787
60.620297 57.064883 -44.552444
53.676360 20.661609 -53.357517
61.377395 55.128671 -25.267632
58.969628 27.591908 -27.463090
63.321391 45.284031 -1.385792
41.119428 12.784387 -29.431002
56.831131 24.276875 -31.237150
63.250636 41.709055 -0.163387
56.329665 23.654498 -48.197926
59.071879 27.773602 -29.377297
56.647019 24.043536 -43.011473
51.959238 19.067191 -19.484597
55.074483 22.115794 -6.280078
63.321940 45.058844 -45.963815
53.058102 20.024119 -35.488986
60.622339 30.883341 -17.047202
63.109461 47.853356 -50.846323
61.596219 54.521246 -33.687270
63.132523 47.592773 -55.565883
43.706497 13.798319 -21.665373
55.263477 22.347477 -26.596751
48.462218 16.392658 -17.072413
62.816085 49.735049 -42.317643
37.976977 12.159111 -36.974769
60.387828 30.367584 -38.605009
62.464818 36.444338 -51.803470
60.379157 57.588435 -28.655358
59.810499 58.823076 -24.153728
62.319737 35.887964 -39.448472
60.531362 57.257974 1.394375
36.855811 11.943689 -55.013678
36.213857 11.820343 1.867430
63.312082 42.444075 -57.784048
34.576131 11.505669 -15.291209
62.524350 36.672641 -37.054096
63.325945 43.414608 -48.948502
58.172713 26.244552 -47.734865
63.325632 43.543383 -13.441396
62.269201 52.243932 -33.810885
53.151564 20.120488 -20.205182
63.321307 45.318666 -49.832763
61.816535 34.043920 -33.067162
53.632986 20.616886 -40.005541
56.702922 24.112066 -39.707354
55.862789 23.082163 -22.576645
44.042326 13.963597 -47.005333
44.221201 14.051630 -2.433274
63.238722 41.566536 -3.346464
63.325639 43.540242 -9.336593
39.292595 12.411895 -1.300527
59.141781 27.897813 -45.266988
51.733613 18.871347 -17.609033
49.960922 17.464618 -4.849603
61.162213 55.725987 -39.475473
55.743179 22.935536 -32.198780
61.946195 34.455462 -40.186653
61.279493 55.400435 -44.840511
62.644013 50.713320 -11.049782
62.735343 37.724174 -39.895490
60.262149 57.842476 -22.663777
38.184097 12.198907 -13.369768
62.905265 38.718647 -38.385552
36.446094 11.864966 -50.418872
53.310398 20.284263 -12.053274
62.065673 53.009149 -49.446881
49.608989 17.208539 -8.088006
42.597717 13.360365 -14.378835
50.820770 18.090275 -38.503510
40.733171 12.688689 3.814243
58.619864 26.970397 -9.089333
43.368971 13.660864 0.556260
62.395342 36.177904 -53.499847
57.742420 25.613447 -17.692627
49.651812 17.239699 -17.891461
63.083261 48.149395 -40.542311
63.238821 41.567729 1.719138
60.397865 57.547817 -40.001599
62.039195 34.812110 -49.999748
62.502266 36.587951 -29.470494
59.925556 29.350916 -11.607298
58.011756 26.008478 -3.395521
45.171392 14.519265 -59.526907
54.453697 21.463127 -32.803131
54.319674 21.324935 -31.045868
63.298671 42.283648 -12.062234
62.438664 51.606791 -14.215794
61.378003 55.126983 -13.263390
60.615578 57.075128 -33.373145
57.944529 25.909879 -45.781933
52.851430 19.841617 -30.087657
61.016855 31.789708 -56.707191
48.835556 16.645761 -60.652002
61.602289 33.439983 -5.709690
62.716613 37.614557 -2.810280
61.572239 54.587810 -37.927800
59.006842 27.658034 -48.462434
49.327026 17.003372 -51.545333
61.010626 56.146774 -29.870000
59.812178 29.101565 -61.043153
49.763287 17.320812 -24.257626
61.672484 33.637856 -55.932087
62.676730 37.381139 -18.487048
60.849077 31.382003 -49.233789
53.810372 20.799790 -45.005361
63.153329 47.357690 -26.474479
63.145515 47.445978 -32.334952
62.187114 52.552559 -18.554570
62.024931 53.162332 -58.655047
61.159863 55.732511 -23.262682
38.163590 12.194967 -50.574496
60.163501 29.874226 -24.422664
63.196104 41.056752 -41.493014
63.325708 43.511983 -24.381351
53.382509 20.358618 -58.317163
58.949618 27.556351 -16.203280
62.255868 52.294061 -3.851614
60.074383 29.678230 3.699639
50.207653 17.644149 -36.056941
45.680830 14.769984 -33.707763
59.518334 28.566927 -56.834290
63.219660 41.338525 -30.929647
34.670767 11.523852 -49.235735
45.934612 14.894882 -55.950803
63.320936 45.463875 -44.074137
62.918913 38.798524 -47.695910
39.988562 12.545619 -60.974893
62.481713 51.444936 -0.722504
63.134432 47.571208 -3.999646
45.273115 14.569328 -41.924281
61.515845 54.744353 -21.901034
63.316085 42.491950 -19.748510
50.328325 17.731954 -31.470729
60.777014 31.223516 -52.769040
59.932806 58.557529 -13.712595
63.074073 48.253211 3.471399
36.473516 11.870235 -1.959948
63.023744 39.412051 -14.918712
63.105238 47.901077 -46.632874
60.759861 56.761869 -14.758703
60.689862 31.031844 -50.786619
47.036821 15.532032 -47.640632
48.336743 16.316899 3.208281
62.900655 38.691668 -11.574734
56.677877 24.081364 -12.508350
58.125771 26.175703 -44.121782
42.325370 13.254252 -25.088021
38.100268 12.182800 -53.881933
44.603478 14.239767 1.938579
59.542606 28.610057 -54.705849
56.948177 24.448544 -25.434979
49.412048 17.065237 -47.856116
60.924837 31.548621 -10.208378
60.386125 30.363839 -14.945920
62.005742 53.234478 -7.264584
60.392536 30.377939 -54.532650
63.004121 39.297208 -25.651737
62.211309 52.461593 -60.813099
38.426762 12.245533 -60.595125
63.219694 46.607825 -2.589266
62.515727 51.317049 -7.339774
63.326351 43.248264 -45.903399
56.823274 24.265351 -44.935793
62.513229 36.629992 -61.108539
58.649370 27.022828 1.997867
62.625037 50.821205 -18.910232
44.720796 14.297505 -6.946832
56.113240 23.389186 -1.555426
61.731317 33.803700 -60.852822
62.055389 53.047817 -40.083421
63.155336 40.569076 -35.483786
60.441443 57.453202 -26.856875
46.954109 15.482092 -15.168964
62.995036 39.244039 3.721967
63.016698 39.370814 -23.683983
63.174273 40.795601 -27.317912
63.093981 48.028269 -10.785562
52.042616 19.139563 0.470013
60.484736 30.580714 -40.319562
59.957413 58.504104 -2.989201
61.073696 31.949937 -1.008168
59.227400 28.049954 -0.200206
61.319238 32.642092 -36.019579
63.032082 39.460852 -17.582140
54.244361 21.247279 -26.163374
60.164982 58.053441 -6.694404
60.141620 29.826104 -34.749573
55.614205 22.777428 -60.671354
63.297217 42.266261 -47.484764
62.788760 38.036803 -32.280074
63.122620 40.177731 -42.796072
61.722954 33.780126 -42.021256
61.749051 33.853692 -4.211763
54.385575 21.392886 -20.574993
53.755448 20.743157 -34.014244
63.325790 43.478259 -41.737556
60.674148 56.947964 -47.145186
62.632183 50.780577 -4.322895
55.025408 22.055634 -15.322300
63.224345 46.555268 -56.804640
61.950288 34.471155 -2.666953
38.110578 12.184781 -25.898814
36.187942 11.815364 -40.841165
54.514680 21.526007 -41.849678
62.587208 36.913696 -57.180788
63.246933 46.300051 -22.501875
40.717701 12.685717 -48.150941
49.357622 17.025636 -41.932293
36.482201 11.871903 -9.647650
62.623021 50.832670 -57.531745
48.994568 16.761464 -13.504730
60.119116 29.776609 -52.753629
56.939557 24.435901 -8.555848
56.424095 23.770258 -52.570693
62.918379 49.153481 -4.225204
63.059479 48.351297 -34.105113
49.833747 17.372081 -45.950316
37.784578 12.122143 -17.098439
59.727375 59.003552 -11.267887
55.372438 22.481051 -24.301254
58.692645 27.099724 -6.583069
53.178810 20.148581 -5.417327
63.186304 40.939514 -61.044045
51.902138 19.017627 -5.521589
62.486638 36.528018 -12.467047
36.715530 11.916736 -7.699557
63.325949 43.413038 -18.512421
62.543882 51.211194 -20.745122
63.267137 46.071765 -10.686089
51.320106 18.512422 -23.709179
62.021701 34.745020 -52.469318
57.306076 24.973469 -14.374688
47.789023 15.986196 -23.707878
59.502271 28.538383 -3.766309
62.254489 52.299245 -45.588456
39.180619 12.390380 -9.846296
48.334219 16.315375 -0.283021
59.815371 58.812499 -41.293784
61.994345 53.277329 -36.666493
60.969815 31.657107 -58.508299
63.272611 41.971914 -56.040162
50.120452 17.580698 -9.832990
41.222857 12.824685 -42.647548
62.370350 36.082061 -59.177295
45.492244 14.677172 -5.518373
40.953401 12.731004 -27.493428
44.575131 14.225816 -37.695175
45.095763 14.482044 -31.614735
56.657115 24.055912 -50.843575
37.177316 12.005464 -30.801146
45.941714 14.898378 0.980283
46.369465 15.129095 -0.890784
59.951284 58.517410 -56.022831
60.698141 56.895873 -19.483625
62.004463 34.678914 -23.171404
46.295962 15.084716 -29.401279
34.730414 11.535313 3.479419
57.069790 24.626913 -37.202941
45.114378 14.491205 -27.885745
49.381542 17.043040 -27.410230
62.728057 50.235513 -1.869190
61.538876 33.261231 -7.401705
60.120752 29.780207 -0.313249
37.006180 11.972581 -46.178288
43.709168 13.799634 -5.362399
52.140498 19.224525 -48.809566
43.386003 13.667501 -32.947974
36.999561 11.971310 -18.514698
34.966552 11.580685 -37.946789
59.501718 28.537401 -23.527806
62.680040 37.400515 -14.038654
62.513892 51.323950 -39.548222
60.310085 57.738399 -4.675646
58.426654 26.627074 -23.807111
52.576134 19.602658 -7.204809
62.971432 39.105892 -36.721843
43.799110 13.843898 -40.375996
42.443318 13.300207 -56.551177
61.386787 55.102599 -8.669641
62.621385 37.057234 -45.149414
61.668859 33.627638 -21.925930
62.221708 35.512031 -14.147441
42.216360 13.211779 -44.204914
39.789999 12.507467 -58.573021
46.955583 15.482982 -25.313799
60.674855 30.998839 -21.495044
55.223375 22.298317 -19.263879
61.220778 55.563420 1.698427
61.522719 54.725273 -58.465155
61.799843 53.956011 -11.007587
59.234260 28.062144 -12.898416
57.068683 24.625289 -46.772856
62.034454 53.126528 -38.387209
62.931672 38.873200 -7.244660
38.735423 12.304840 -47.189728
63.089275 39.795575 -40.249740
59.778238 29.028762 -47.731035
61.251544 32.451272 -33.428247
63.323753 44.314332 -29.215902
61.523541 54.722989 -56.648748
61.135230 32.123394 -47.258071
62.440067 36.349421 -8.941065
34.664637 11.522675 -1.513704
61.183617 55.666572 -48.610106
55.270814 22.356472 -57.956423
63.104828 39.964902 -3.111486
52.343023 19.400317 -33.411895
54.453758 21.463190 -59.365842
58.155181 26.218838 -13.577111
41.906967 13.091231 1.919455
63.323730 44.323956 -11.682635
48.514628 16.424302 -38.007758
55.823405 23.033883 -3.060652
54.525278 21.536935 -17.194242
57.275484 24.928600 -11.233414
53.225741 20.196973 -49.966802
58.294006 26.422451 -30.377330
58.547105 26.841107 -20.401335
63.079202 48.195251 -48.264044
35.850921 11.750609 -43.262220
63.322590 44.791894 -20.778513
63.306389 42.375968 -51.320428
51.920016 19.033145 -2.334442
36.601881 11.894899 -3.946153
62.816372 38.198400 -55.982409
58.282115 26.405010 0.118079
62.587396 36.914415 -0.362290
50.446450 17.817906 -13.607723
63.110540 40.033230 -28.877798
44.480559 14.179273 -52.469990
61.703670 33.725767 -14.044316
54.671541 21.687747 -54.478383
37.417545 12.051621 -22.549276
60.031191 29.583238 -30.931360
48.384398 16.345672 -4.144274
62.646629 50.698452 -24.275320
57.699279 25.550174 -42.656494
39.082234 12.371476 3.444033
63.159922 40.623944 -51.413847
62.691334 37.466614 -24.078994
63.211299 41.238503 -17.899167
55.755676 22.950855 -39.343372
56.538769 23.910834 -10.016669
43.935354 13.910951 -23.285938
60.482973 30.576835 -59.791739
61.924658 34.372870 -36.751756
49.048224 16.800506 1.872129
63.302502 42.329470 -1.769615
63.115808 40.096244 -5.992923
61.167116 55.712376 -41.343425
38.975667 12.351000 -19.030524
63.220309 41.346289 -45.139923
58.417412 26.610652 -60.701982
62.176809 35.339849 3.253094
47.061699 15.547052 -52.618125
63.153244 47.358646 -44.721767
37.762472 12.117896 -58.645355
61.480108 33.095570 -52.293879
47.904876 16.056146 -51.346664
63.322727 44.735503 -55.125197
62.765224 50.024206 -30.080973
63.052091 39.577956 -53.364340
61.888479 34.246724 0.970106
49.689478 17.267106 -22.053853
63.175401 47.108298 -16.459545
53.020315 19.988209 -18.259667
43.374096 13.662861 -18.596957
60.994925 31.727890 3.483877
43.521456 13.720277 -54.474522
61.909320 34.314050 -28.480603
45.856002 14.856195 -22.368665
58.001975 25.994133 -53.994611
62.906279 49.222274 -49.696519
57.192994 24.807613 0.024525
38.054480 12.174003 -48.801373
62.860380 38.455956 -51.720135
47.707798 15.937154 -18.945264
61.241917 55.504739 -4.250789
49.841022 17.377375 -53.752233
58.815273 27.317627 -56.167151
60.845201 31.373479 0.785387
37.943861 12.152748 -2.697659
63.130833 47.611870 -37.311331
38.029818 12.169264 0.170844
59.320296 28.215024 -36.069592
53.801906 20.791061 -28.445531
63.101117 47.947641 -13.432547
63.154620 40.560522 -37.592892
63.290194 42.182243 -54.342328
59.562081 28.644663 -26.069296
60.301640 30.178032 -42.913506
62.511009 51.334788 -9.336473
50.962777 18.202258 -51.258015
62.830487 38.281011 -58.057175
53.176370 20.146066 -51.900346
63.263426 41.862048 -9.989510
62.397982 51.759745 -16.113841
57.001113 24.526184 -60.658134
61.647607 54.378600 3.029220
47.564339 15.850537 -33.637411
63.323034 44.609701 -47.949513
62.820937 38.225118 -54.357797
63.034277 39.473695 -33.247497
62.355974 36.026930 -25.359092
45.717961 14.788258 -46.081008
53.960721 20.954816 -48.408848
50.649270 17.965485 -26.894237
63.325430 43.626130 -2.685206
61.570435 33.350190 -31.222550
53.296994 20.270442 -37.609851
50.704457 18.005641 -0.619393
53.541292 20.522339 0.500269
49.914136 17.430575 -3.283173
62.031993 53.135781 -9.630165
55.041212 22.075007 -4.515840
60.314624 57.728545 -17.565868
39.181441 12.390538 -32.154702
62.717137 37.617622 2.658964
63.252143 41.727079 -21.554387
63.290018 45.813223 -4.461872
60.043862 58.316410 -37.421241
61.215061 32.348429 -20.735668
60.603028 30.840870 -45.024516
62.038800 34.810594 -43.982058
56.654478 24.052679 -33.174781
51.049312 18.277371 1.429938
62.934355 49.062654 -28.736041
57.245155 24.884116 -6.841605
60.741762 31.145987 -36.143390
35.974199 11.774295 -32.723442
58.868492 27.412195 -37.381504
62.848593 49.550235 -37.529257
39.141518 12.382867 -34.771773
38.951149 12.346290 1.631872
59.574190 28.666179 -14.825023
42.075057 13.156723 -39.351198
53.936143 20.929473 -15.785291
62.818896 38.213174 -34.527101
61.330074 55.260028 -52.267223
62.115745 52.820893 -25.417323
56.402042 23.743224 -19.672226
63.326650 43.125424 -22.714443
53.720011 20.706618 -1.360415
60.378650 57.589535 -48.800917
40.657802 12.674208 -8.865413
63.234538 46.440094 -53.779056
34.902556 11.568389 -3.124366
62.190022 35.390517 -0.548402
62.216856 52.440737 -2.159984
34.760130 11.541023 -57.611579
63.218848 46.617381 3.770903
60.889897 56.479541 -12.360734
63.322056 45.011200 -37.077902
41.373381 12.883333 -7.104278
62.972517 39.112247 -9.729604
62.715023 37.605249 -26.109595
46.850255 15.419387 -41.660985
39.868974 12.522642 -36.642678
49.602234 17.203624 -59.216766
63.227265 46.522276 -47.438512
47.073485 15.554168 -31.589420
62.461639 51.520408 -37.532093
62.790180 49.882328 3.604539
62.136173 35.184012 -15.857026
52.864273 19.852764 -60.384341
59.717347 59.025323 -9.256593
47.120333 15.582454 -12.006415
58.949187 27.555585 -41.915230
46.162118 15.006849 -19.254816
38.032381 12.169757 -27.775773
59.854188 29.193957 -44.147937
40.837819 12.708796 -3.027225
61.086943 31.987278 -41.666322
61.293469 32.569453 -24.763356
61.006285 56.158821 -43.168080
62.795203 49.853769 -40.227181
47.579831 15.859891 -5.612731
37.972309 12.158214 -39.866080
59.711258 59.038544 -39.378946
44.983760 14.426922 -29.967581
61.104821 32.037674 -39.777654
43.119838 13.563796 -58.654588
63.001059 39.279289 1.342709
40.829323 12.707164 -46.235622
54.860430 21.882513 -0.671053
59.748245 28.975465 -32.901061
62.937121 49.046927 -56.886587
51.534224 18.698277 -12.239822
40.606632 12.664376 -20.178216
63.169431 40.737688 -16.185260
61.992055 53.285938 -43.459671
52.482555 19.521431 -10.927838
36.378037 11.851889 -25.786496
55.112297 22.162150 -52.971337
48.759387 16.590338 -25.373914
61.510909 54.758055 -28.768021
60.451090 57.432256 -0.370963
61.332853 55.252313 -46.474745
63.282094 45.902764 -14.229203
62.574278 51.096912 -25.906202
60.516668 57.289877 -41.613007
62.863020 38.471409 -20.038364
48.275037 16.279642 -21.544271
63.000756 39.277516 -30.218701
63.321395 45.282272 -41.036632
50.798803 18.074291 -18.957453
63.325029 43.790837 -4.397749
63.303132 42.337005 -15.169032
50.861363 18.119812 -47.773811
62.889674 49.316681 -19.567401
55.739363 22.930858 -13.431983
62.724994 50.252925 -45.968069
59.680300 28.854730 -39.055590
60.584237 57.143175 -2.144273
40.231278 12.592255 -56.755444
63.325752 43.493990 -44.116486
38.745641 12.306803 -44.453657
37.438165 12.055583 3.870682
63.197528 46.858282 -8.921436
62.149404 35.234751 -11.029242
62.028525 53.148818 -52.954906
47.925342 16.068503 -42.873651
62.974617 39.124534 -27.414770
61.368435 32.780774 -12.564071
61.696022 54.244205 -23.511446
62.031719 34.783440 -38.314218
51.288647 18.485115 -34.764642
61.056505 31.901477 -5.303862
61.642622 54.392436 -2.957074
45.037203 14.453224 -3.936836
59.799545 58.846859 -59.969197
49.293179 16.978745 -57.100009
63.323223 44.531962 -15.101007
52.871206 19.858782 -31.775379
57.764742 25.646187 -59.257931
55.108937 22.158030 -34.105743
59.810204 58.823716 -31.015388
62.884940 38.599698 -46.059362
38.704535 12.298905 -15.807357
63.199751 41.100369 -13.262555
62.352163 51.932015 3.606064
40.062566 12.559839 -17.005426
63.327591 42.738952 -38.432523
63.308205 45.607724 -19.455911
52.022183 19.121827 -58.937133
59.286753 28.155421 -59.941190
63.211762 46.697450 -12.302195
42.417657 13.290209 -8.452370
62.894115 38.653395 -41.438436
62.769476 50.000034 -15.389012
62.051725 53.061591 -13.047529
34.820273 11.552579 -40.066089
62.512071 51.330796 -50.262625
61.240370 55.509034 -32.256439
61.991471 34.629092 -57.640763
51.413053 18.593100 -45.955625
62.279995 52.203350 -30.085536
53.207445 20.178108 -41.749641
34.865613 11.561291 -31.239292
61.690249 54.260230 0.669760
62.656351 37.261874 -21.468252
34.516407 11.494194 -7.942902
47.255923 15.664321 -27.860577
47.714145 15.940986 -57.060580
55.998879 23.248993 -54.380379
62.858513 49.493836 -8.446570
61.199182 32.303667 -60.574163
61.140552 32.138397 -54.621904
52.140181 19.224250 -15.631588
63.222445 46.576743 -38.987841
47.312502 15.698482 -60.891534
36.316071 11.839983 -39.257769
63.082233 48.161008 1.694428
48.292837 16.290389 -44.765146
57.974633 25.954032 -26.005110
59.743266 58.969050 -29.380941
59.937405 58.547543 -51.918942
61.338898 32.697512 -17.806156
46.434144 15.168147 -57.878024
61.485270 54.829223 -60.454594
49.320660 16.998740 -1.505738
48.537262 16.437968 -10.934796
54.555960 21.568571 1.152553
60.922705 31.543933 -30.962219
60.617691 30.873120 -12.553890
61.606380 54.493040 -5.566059
41.470319 12.921102 -54.667046
62.401541 51.746364 -27.656716
63.157202 40.591408 -1.294532
63.153775 47.352652 -5.630057
63.324522 43.998746 -5.920294
41.430809 12.905709 -57.896042
56.188676 23.481662 -58.902977
61.157303 32.185615 -28.143925
61.126784 55.824334 -27.503770
48.203190 16.236262 -8.677868
58.539574 26.827726 -35.449380
43.647829 13.769515 -31.057193
58.546270 26.839624 -32.214786
59.050906 27.736334 -43.491729
62.749792 50.111943 -13.575263
61.491810 54.811070 -20.027987
60.236447 30.034655 -57.748783
61.745844 54.105905 -26.567186
52.507744 19.543296 -28.149598
60.325894 57.704077 3.193048
62.281065 52.199327 0.831622
63.310425 42.424250 3.849560
46.552519 15.239620 -13.557564
48.544681 16.442448 -15.218258
51.176591 18.387850 -3.756136
60.993735 56.193659 -57.803028
41.940446 13.104276 -10.780410
42.946563 13.496284 -1.502705
61.668070 54.321795 -54.801812
41.204553 12.817554 -18.486516
61.845982 34.126929 -34.895643
45.636412 14.748124 3.287882
42.123233 13.175494 -5.066209
62.205571 35.450148 -47.787473
61.647380 33.567090 3.748872
63.322649 44.767532 3.545026
63.300951 42.310925 -34.268073
62.031433 53.137885 -47.535937
45.865470 14.860854 -24.144336
59.331842 28.235540 -20.582547
51.704325 18.845925 -30.942744
50.871256 18.127010 -6.645928
57.220559 24.848042 2.679312
62.109096 35.080175 -21.053757
63.325280 43.687862 -56.814495
63.324465 44.022136 -34.775584
63.152838 47.363241 -0.814567
51.785919 18.916749 -53.833843
57.311495 24.981417 -49.196120
46.986774 15.501814 -49.383174
59.901063 58.626447 -58.113752
59.434892 28.418654 -7.569329
46.904778 15.452307 -35.428751
40.388295 12.622424 -33.789045
52.599926 19.623310 -43.682506
57.356330 25.047176 -29.266472
63.323015 44.617419 -51.312294
61.806167 53.938457 -30.238675
54.358280 21.364742 -10.786618
63.223508 41.384551 -52.922737
37.514228 12.070198 -5.393448
60.734842 31.130769 -23.223273
61.640743 33.548383 -46.253994
59.772651 58.905251 -16.582522
62.526424 51.276830 -52.696327
55.829425 23.041263 -11.417245
52.755703 19.758525 1.897459
39.523928 12.456344 -42.559825
62.977559 48.817028 -36.089353
46.607270 15.272677 -43.950554
63.321840 45.099794 1.425972
61.355963 55.188165 -15.145321
59.905799 29.307465 -16.429378
61.295364 32.574796 -8.872641
48.679023 16.531862 -6.554082
58.698704 27.110491 -40.351824
57.519411 25.286363 -57.398703
60.586859 57.137482 -60.641087
50.012172 17.501910 -11.511454
42.880149 13.470407 -41.680124
62.231166 35.548302 -17.760294
63.327067 42.954049 -59.514432
60.641117 57.019680 -53.222937
60.440766 30.484011 -47.826364
34.717573 11.532846 -34.265741
55.927928 23.162016 -36.230674
35.624868 11.707174 -16.987880
40.251809 12.596200 0.224115
60.091325 29.715490 -5.481525
43.703265 13.796729 -36.200645
45.335506 14.600033 -39.919476
61.835224 53.857800 -31.833575
43.993064 13.939353 -42.933898
42.464964 13.308641 -50.127284
62.703046 37.535158 -6.432278
61.103494 55.888983 3.664970
51.095223 18.317222 -40.634115
56.230198 23.532562 -27.772394
60.888432 56.482721 -20.965167
42.651821 13.381445 -20.248754
54.272562 21.276357 -9.071731
61.135859 32.125168 -26.506565
63.123819 40.192079 -46.968498
44.188604 14.035587 -13.782952
54.925623 21.949733 -56.080020
59.872845 58.687713 -50.034030
50.699324 18.001907 -59.947878
63.120470 40.152014 -21.712381
57.710290 25.566323 -34.025190
61.129601 55.816515 -0.557954
53.791235 20.780057 -3.693363
40.705780 12.683426 -51.178198
48.683947 16.535445 -39.960961
61.120483 55.841825 -55.347147
35.041256 11.595039 -22.604876
44.627907 14.251790 -0.302586
55.887389 23.112320 -46.588777
58.863595 27.403493 -22.269030
43.262711 13.619463 3.054525
51.538509 18.701996 -8.678801
39.769526 12.503533 -30.173847
62.864445 38.479747 -4.666408
63.189705 40.980207 -49.590401
58.123315 26.172101 3.536389
36.514929 11.878192 -23.927659
36.081296 11.794873 -20.306236
63.323711 44.331935 -60.909661
41.310797 12.858949 -35.509322
34.772780 11.543454 -29.569607
63.158854 40.611163 -54.826789
47.616051 15.881759 -29.841843
37.813359 12.127673 -33.343215
44.346899 14.113492 -49.180327
62.102552 52.870493 -41.792648
35.144892 11.614951 -51.435010
62.434203 36.326932 1.219882
63.327488 42.781218 -30.273372
57.102953 24.675552 -54.397233
63.321907 45.072391 -17.495056
47.177333 15.616870 -39.615070
43.603880 13.752391 -28.409699
44.991577 14.430769 -10.304136
63.139775 40.382938 -8.629264
62.624200 37.073705 -47.153009
55.396248 22.510240 -44.453593
62.926285 38.841671 -1.274713
55.198864 22.268269 -28.836916
61.271627 32.507883 -44.676742
62.026282 53.157252 -28.741828
63.303459 45.661354 -24.802340
37.049806 11.980964 -51.956083
63.304683 42.355563 -28.118396
41.724655 13.020198 -16.480395
46.684451 15.319277 -38.042436
63.300172 42.301597 -8.107248
62.478393 36.496398 -41.397468
50.633737 17.954183 -33.104590
62.819721 49.714379 -51.862707
57.933876 25.894253 -39.710993
62.464284 51.510464 -54.565958
35.630362 11.708230 -6.228204
46.522499 15.221494 -8.377862
62.135063 35.179755 -6.211485
60.512951 30.642765 -1.941288
62.788928 38.037785 -43.197905
63.323965 44.227571 -26.203515
62.916082 49.166543 -26.567976
63.266944 41.904137 -5.306083
