-34.640734 68.572051 -11.831259
-37.565867 66.543523 -28.850574
-42.276858 62.787411 -39.482244
-40.664735 64.152091 -25.020025
-43.946765 61.307564 -23.069085
-34.228956 68.849505 -26.119194
-42.341391 62.732786 -38.746359
-40.692185 64.128852 -17.984886
-41.161653 63.731442 -12.458337
-37.991421 66.221556 -4.183927
-38.982961 65.471375 -31.431388
-35.221856 68.180492 -33.826204
-38.013047 66.205193 -18.494943
-37.933950 66.265027 -14.180314
-34.394440 68.738012 -30.323963
-35.391168 68.066397 -54.683833
-42.678916 62.447070 -40.074915
-35.270922 68.147427 -10.649411
-34.455185 68.697077 -20.106895
-35.454780 68.023538 -34.594472
-41.146823 63.744008 -20.235618
-35.218615 68.182665 -49.440436
-42.118802 62.921210 -31.907914
-37.665563 66.468087 -18.652670
-42.065232 62.966556 -35.882705
-42.037536 62.990006 -40.011336
-45.207681 60.115698 -7.870108
-35.892911 67.728315 -35.244135
-35.597413 67.927424 -34.701793
-43.652019 61.586173 -35.983075
-42.148519 62.896057 -36.886820
-38.949055 65.497021 -31.030919
-41.324958 63.593215 -45.833015
-38.126051 66.119691 -14.922792
-37.856758 66.323440 -7.210834
-42.121571 62.918866 -43.263125
-42.226637 62.829929 -33.195627
-41.681492 63.291398 -46.047099
-35.438926 68.034223 -44.484475
-39.483156 65.092935 -33.695347
-36.350365 67.420079 -23.239343
-42.503529 62.595529 -22.943788
-38.392078 65.918431 -15.519818
-38.794920 65.613642 -47.672243
-37.866702 66.315920 -27.961236
-43.708601 61.532690 -34.781100
-38.907114 65.528756 -35.662304
-37.786763 66.376392 -20.830568
-37.284466 66.756425 -24.340530
-42.160104 62.886250 -39.231505
-44.690230 60.604803 -11.018599
-41.732983 63.247815 -2.339469
-35.893043 67.728235 -27.270505
-45.139232 60.180390 -44.188132
-39.072651 65.403520 -38.589060
-34.847473 68.432746 -42.474467
-35.391784 68.065986 -45.028782
-38.867721 65.558569 -44.136016
-41.724977 63.254584 -46.260108
-44.198096 61.069995 -19.263876
-38.144743 66.105561 -24.395497
-38.892523 65.539798 -40.335388
-42.112386 62.926643 -8.355393
-41.391420 63.536947 -14.937063
-35.086975 68.271366 -5.068456
-40.978348 63.886613 -10.988963
-39.510017 65.072614 -29.442339
-34.622317 68.584455 -11.013003
-44.594847 60.694968 -40.688891
-41.501907 63.443422 -45.949090
-37.820027 66.351222 -13.184378
-39.165403 65.333342 -32.697355
-44.713166 60.583124 -16.894130
-45.441902 59.894289 -39.035996
-34.322609 68.786403 -17.693040
-45.093459 60.223655 -52.860596
-42.001903 63.020167 -37.829830
-35.716702 67.847051 -49.795564
-34.541288 68.639056 -8.577560
-41.062306 63.815541 -25.473696
-41.899327 63.106998 -52.540669
-44.554112 60.733479 -13.706827
-39.398318 65.157126 -32.286786
-41.089202 63.792777 -25.656757
-42.114568 62.924792 -46.567517
-34.420719 68.720301 -26.193084
-38.378162 65.928955 -17.181553
-44.134098 61.130486 -13.269632
-35.993271 67.660691 -37.981049
-41.668396 63.302485 -5.748713
-42.143453 62.900337 -51.284605
-37.903774 66.287872 -12.991038
-34.625431 68.582364 -4.773434
-44.373581 60.904119 -20.005012
-45.466126 59.871392 -49.301437
-34.630721 68.578796 -18.447006
-42.190523 62.860497 -29.761632
-44.750776 60.547586 -14.974556
-41.568053 63.387422 -7.531591
-39.223718 65.289225 -41.898675
-44.012694 61.245254 -24.638067
-35.796768 67.793105 -37.734310
-45.356340 59.975167 -41.800287
-42.465927 62.627358 -41.427636
-39.354273 65.190448 -21.298615
-43.753830 61.489933 -38.538049
-35.173881 68.212802 -17.223246
-35.625802 67.908298 -34.356403
-42.264887 62.797550 -37.427147
-42.252209 62.808274 -34.034410
-41.619645 63.343755 -43.579337
-42.240139 62.818501 -49.379030
-38.746890 65.649981 -43.547845
-45.587613 59.756558 -50.744242
-44.928693 60.379401 -13.360829
-36.291833 67.459521 -37.065440
-35.075555 68.279066 -13.244452
-34.362666 68.759406 -31.800274
-41.684638 63.288726 -10.262238
-41.903962 63.103070 -45.164022
-34.495323 68.670031 -11.129417
-42.084129 62.950564 -31.093582
-45.502260 59.837231 -25.321863
-35.117609 68.250721 -42.408669
-43.585791 61.648776 -36.009447
-38.780716 65.624387 -10.065321
-42.002770 63.019423 -13.233882
-45.417556 59.917307 -28.558631
-38.026174 66.195262 -32.241421
-37.552046 66.553973 -15.312915
-34.600265 68.599315 -21.999871
-36.166627 67.543883 -47.095604
-42.402839 62.680769 -28.247962
-45.315730 60.013562 -34.790803
-39.256611 65.264333 -36.990783
-45.068641 60.247116 -31.833179
-45.477672 59.860475 -40.213641
-45.150398 60.169839 -42.000257
-41.828039 63.167338 -43.295758
-35.340981 68.100212 -40.479688
-41.448132 63.488934 -16.018699
-45.525048 59.815697 -26.129384
-38.288470 65.996811 -14.728572
-45.276034 60.051080 -47.406925
-39.260036 65.261745 -36.077459
-37.489163 66.601547 -18.063544
-41.198191 63.700515 -24.086677
-44.174414 61.092384 -14.323389
-42.221933 62.833908 -34.147119
-33.934133 69.048160 -28.720778
-40.587713 64.217289 -22.810654
-38.703412 65.682873 -41.466927
-34.360883 68.760608 -24.659574
-35.249304 68.161990 -11.796718
-34.704482 68.529101 -23.157838
-45.035313 60.278617 -52.655851
-40.587053 64.217852 -10.654518
-44.756852 60.541827 -47.142661
-34.706556 68.527697 -8.200548
-45.118371 60.200115 -26.542672
-44.127727 61.136506 -5.046852
-44.615214 60.675716 -13.969003
-45.673892 59.675002 -40.556144
-43.851121 61.397972 -33.706039
-38.919496 65.519393 -30.994767
-45.343712 59.987109 -42.207993
-41.752366 63.231404 -15.175906
-46.032466 59.336063 -21.590039
-44.691592 60.603521 -42.693464
-34.573302 68.617483 -18.508637
-44.556212 60.731485 -14.852991
-35.869004 67.744435 -34.077687
-39.040985 65.427472 -43.488698
-38.119472 66.124671 -17.881132
-35.630962 67.904821 -45.352307
-44.742639 60.555277 -46.538335
-45.024018 60.289290 -38.420298
-44.474724 60.808514 -13.400037
-40.819991 64.020667 -14.221666
-41.698695 63.276829 -46.585162
-38.673606 65.705422 -5.504681
-38.556271 65.794197 -41.031178
-38.732245 65.661058 -41.878054
-45.523228 59.817415 -24.618846
-44.049456 61.210494 -32.297452
-37.753671 66.401428 -57.482723
-38.591237 65.767743 -17.946850
-42.386542 62.694564 -37.425274
-36.262895 67.479025 -31.988200
-35.323315 68.112118 -7.428210
-42.545191 62.560263 -43.625120
-34.625685 68.582195 -14.353603
-35.093462 68.266997 -21.979895
-40.790546 64.045594 -21.843924
-39.404040 65.152797 -36.355967
-41.194196 63.703891 -29.274915
-34.203184 68.866878 -14.736655
-41.638511 63.327783 -11.703767
-38.855861 65.567543 -36.491059
-39.571160 65.026353 -46.870127
-37.712239 66.432775 -15.053203
-45.494266 59.844786 -43.956228
-34.706583 68.527682 -8.638246
-44.734712 60.562760 -13.147089
-41.574828 63.381693 -12.581687
-39.091807 65.389026 -43.775722
-44.575417 60.713334 -6.730836
-44.465102 60.817607 -24.902157
-44.466659 60.816139 -45.253249
-42.017414 63.007045 -48.964667
-42.161087 62.885418 -37.101177
-39.332991 65.206547 -38.123734
-38.145414 66.105045 -8.628021
-34.168342 68.890351 -20.649084
-35.693597 67.862617 -39.163364
-37.648093 66.481308 -27.097094
-35.559233 67.953153 -38.240263
-37.854404 66.325219 -18.612819
-35.835736 67.766845 -44.802274
-44.420548 60.859722 -8.137821
-42.230877 62.826341 -32.271874
-39.038270 65.429523 -38.723704
-35.939768 67.696747 -37.248614
-41.046761 63.828706 -31.561667
-41.067856 63.810848 -22.047265
-44.556631 60.731097 -46.867975
-44.131419 61.133021 -25.721101
-41.129052 63.759045 -15.667840
-42.812371 62.334097 -22.241900
-36.266186 67.476802 -40.829719
-41.319899 63.597491 -16.614427
-42.338043 62.735620 -35.116738
-38.719039 65.671053 -42.202294
-39.282832 65.244495 -32.560647
-41.677488 63.294789 -40.977468
-44.233164 61.036848 -18.191430
-44.753241 60.545250 -12.383474
-34.430866 68.713464 -25.172829
-36.003107 67.654066 -30.168395
-37.690832 66.448980 -14.934638
-40.891550 63.960092 -14.470851
-44.748786 60.549458 -13.969311
-39.333965 65.205815 -25.031457
-45.049495 60.265209 -35.136442
-44.777238 60.522563 -17.646361
-38.071058 66.161309 -12.836484
-39.086845 65.392775 -41.657775
-41.183001 63.713380 -13.471083
-41.754870 63.229281 -12.699543
-35.185736 68.204818 -16.102509
-33.745154 69.175496 -30.476933
-37.713954 66.431478 -30.670942
-40.994381 63.873053 -3.854356
-37.917641 66.277372 -15.826857
-34.584344 68.610041 -7.678751
-45.131872 60.187347 -50.746275
-37.881690 66.304577 -31.188863
-41.196948 63.701573 -13.742201
-45.057538 60.257606 -52.871562
-44.168269 61.098192 -9.481881
-45.258213 60.067920 -39.007987
-42.873624 62.282242 -30.363376
-37.669794 66.464890 -14.656934
-44.162365 61.103770 -15.682109
-41.647581 63.320107 -23.085851
-44.434045 60.846968 -32.251328
-41.012148 63.858009 -20.945850
-40.612716 64.196131 -7.749540
-42.429346 62.658330 -25.446105
-35.432403 68.038618 -38.321960
-45.040333 60.273877 -43.156300
-39.190229 65.314556 -52.271816
-39.387642 65.165206 -38.524706
-44.919187 60.388375 -18.372144
-41.662680 63.307330 -48.555233
-44.167717 61.098713 -32.046718
-45.554232 59.788112 -28.623156
-35.976353 67.672103 -28.908920
-38.254231 66.022720 -22.260515
-34.443607 68.704878 -22.251274
-34.841120 68.437026 -22.179918
-42.185433 62.864802 -57.061221
-35.911446 67.715831 -38.855692
-42.124276 62.916576 -40.462487
-35.051882 68.295014 -8.905643
-41.616120 63.346730 -16.641706
-45.143479 60.176377 -46.279672
-37.782555 66.379584 -16.799211
-43.784438 61.460998 -6.623279
-41.594736 63.364833 -11.879268
-38.353093 65.947915 -11.749633
-36.139924 67.561886 -35.039336
-42.245236 62.814179 -47.836924
-45.345075 59.985818 -42.256306
-39.139198 65.353171 -38.751909
-42.460167 62.632246 -37.255084
-44.608203 60.682339 -5.262533
-34.922721 68.382048 -17.475903
-40.950013 63.910609 -13.716408
-34.404606 68.731157 -11.645168
-35.174348 68.212495 -50.730200
-43.820149 61.427246 -17.995933
-34.441923 68.706011 -14.017031
-37.380525 66.683746 -35.018785
-42.245462 62.813992 -46.799181
-40.883236 63.967131 -15.205130
-34.853174 68.428914 -7.057535
-39.072724 65.403459 -43.977579
-44.240152 61.030240 -10.018574
-42.520364 62.581282 -39.155692
-35.075760 68.278929 -17.487006
-43.784554 61.460893 -37.489752
-35.408752 68.054549 -41.843083
-41.015476 63.855188 -27.478853
-34.231705 68.847656 -11.815230
-42.004758 63.017750 -15.811441
-39.193430 65.312138 -31.321501
-34.928740 68.377990 -3.798553
-43.877536 61.373004 -12.216615
-35.205081 68.191787 -8.768644
-44.180601 61.086526 -19.621786
-34.624904 68.582715 -25.426187
-35.918770 67.710896 -43.048359
-39.480237 65.095145 -18.382582
-35.961510 67.682095 -38.970764
-39.666479 64.954242 -32.002089
-35.809774 67.784339 -38.401856
-45.079107 60.237220 -38.629648
-44.986945 60.324343 -35.356956
-38.164671 66.090477 -19.210883
-36.024459 67.639683 -35.898665
-34.279854 68.815210 -9.717839
-40.912883 63.942032 -16.510638
-42.157310 62.888609 -40.429925
-35.743918 67.828712 -46.878265
-44.084725 61.177156 -28.959233
-44.749475 60.548806 -21.543147
-45.284338 60.043224 -45.278083
-39.478051 65.096797 -35.597907
-45.204042 60.119130 -46.673593
-36.030420 67.635661 -29.887749
-34.013673 68.994571 -37.838784
-37.927025 66.270275 -3.639850
-41.419779 63.512937 -12.323044
-40.840605 64.003221 -29.417350
-38.227444 66.042985 -9.782855
-44.319402 60.955335 -22.049613
-36.176298 67.537372 -16.382955
-38.592020 65.767149 -46.488626
-44.383365 60.894877 -25.732007
-45.713156 59.637894 -35.062825
-39.364137 65.182985 -35.968084
-35.531922 67.971562 -11.014313
-41.183380 63.713059 -15.349351
-44.405811 60.873643 -5.538785
-43.770071 61.474582 -10.745377
-39.478591 65.096394 -45.681052
-41.348492 63.573288 -5.612239
-38.042184 66.183145 -25.291770
-39.241487 65.275776 -28.338285
-35.504182 67.990252 -50.738848
-39.365804 65.181725 -33.590597
-34.580902 68.612359 -22.778645
-38.918038 65.520497 -33.353751
-42.474936 62.619741 -44.479615
-37.514256 66.582566 -24.474643
-42.309559 62.759732 -41.697994
-34.741448 68.504187 -27.499363
-35.025365 68.312887 -6.501960
-42.200042 62.852442 -44.733223
-38.226694 66.043557 -16.696108
-34.124804 68.919694 -12.119914
-44.030346 61.228553 -34.596470
-45.043453 60.270918 -34.678360
-35.195101 68.198510 -56.710517
-45.388874 59.944420 -42.082797
-41.477231 63.464309 -21.169691
-39.645426 64.970166 -18.113969
-44.790581 60.509956 -44.885742
-45.243130 60.082173 -51.314835
-35.618002 67.913553 -40.690662
-38.586278 65.771500 -45.847063
-41.189790 63.707636 -10.975580
-43.929354 61.324021 -14.521649
-41.783365 63.205163 -46.537785
-34.915764 68.386726 -12.771894
-35.482336 68.004974 -52.648809
-38.953906 65.493353 -30.922399
-45.569256 59.773913 -34.520045
-37.503707 66.590551 -11.480143
-38.991072 65.465235 -35.883932
-41.622122 63.341651 -4.145142
-41.620917 63.342674 -3.145669
-42.779700 62.361749 -39.349177
-34.715440 68.521715 -17.493726
-37.997909 66.216650 -8.482758
-34.958618 68.357852 -18.904486
-35.996293 67.658666 -37.569305
-43.720007 61.521907 -20.695242
-42.714143 62.417244 -22.986053
-42.781649 62.360104 -38.832753
-45.265538 60.060996 -35.930979
-37.317187 66.731672 -36.399229
-41.927148 63.083449 -48.161391
-34.052050 68.968712 -20.591378
-41.419613 63.513076 -38.814479
-42.195016 62.856694 -42.519993
-41.164150 63.729334 -23.490106
-41.416559 63.515670 -13.689530
-39.199422 65.307603 1.243450
-42.012674 63.011042 -42.776191
-40.989303 63.877353 -9.353183
-41.670975 63.300299 -13.998283
-45.196064 60.126673 -36.666366
-38.622649 65.743974 -6.046575
-42.004935 63.017598 -32.447328
-37.829070 66.344380 -19.665742
-43.802421 61.444003 -25.650355
-42.675960 62.449567 -33.062234
-44.742633 60.555276 -13.235642
-34.313984 68.792223 -20.598073
-39.098356 65.384069 -46.743974
-42.326994 62.744964 -34.768449
-42.043274 62.985148 -44.570101
-39.188703 65.315709 -25.582799
-44.626874 60.664688 -51.103290
-43.811563 61.435366 -18.121675
-44.089590 61.172563 -17.548889
-41.297754 63.616234 -19.698493
-37.386842 66.678966 -13.551615
-37.487254 66.603003 -2.086262
-41.029587 63.843249 -15.275642
-41.180119 63.715813 -23.212940
-36.128237 67.569748 -23.725004
-38.581761 65.774919 -9.051893
-45.486529 59.852106 -34.519234
-38.737797 65.656864 -41.491282
-38.816760 65.597119 -43.727125
-41.892320 63.112933 -46.183192
-45.636466 59.710381 -24.162006
-37.441710 66.637455 -15.796955
-42.185642 62.864626 -41.656324
-41.179734 63.716145 -21.823706
-35.841725 67.762815 -35.208908
-45.119365 60.199174 -46.701093
-43.821864 61.425624 -22.439556
-37.679357 66.457651 -17.613968
-38.083631 66.151793 -15.447859
-44.224564 61.044977 -21.784338
-35.534484 67.969832 -34.815461
-38.854375 65.568654 -28.939168
-41.022257 63.849449 -10.265412
-41.808532 63.183859 -37.582802
-41.955847 63.059159 -48.310420
-44.666746 60.626998 -37.466473
-45.182629 60.139366 -40.036994
-35.097881 68.264023 -14.665228
-43.659721 61.578891 -10.412381
-43.630085 61.606899 -24.209783
-38.315121 65.976646 -35.784728
-44.833420 60.469458 -40.941769
-45.158946 60.161751 -36.024897
-36.138762 67.562657 -30.122967
-42.145308 62.898769 -44.543336
-37.780694 66.380982 -10.310567
-35.925847 67.706125 -44.065239
-41.291739 63.621325 -20.208380
-38.502634 65.834777 -44.534603
-44.067904 61.193056 -25.564200
-37.656972 66.474597 -18.015570
-34.566170 68.622289 -15.769804
-45.640145 59.706900 -43.138218
-33.847957 69.106230 -15.736359
-44.370389 60.907133 -16.087952
-42.468470 62.625211 -25.950593
-42.582887 62.528362 -35.652727
-44.990227 60.321237 -43.555144
-34.696570 68.534428 -9.433080
-42.347985 62.727204 -37.806230
-38.049464 66.177641 -12.026324
-43.981439 61.274791 -22.005868
-37.679886 66.457254 -1.584943
-44.769338 60.530036 -50.699030
-44.909494 60.397552 -43.160500
-42.840039 62.310676 -31.759339
-39.191006 65.313974 -31.883996
-34.445887 68.703342 -30.707787
-34.184042 68.879773 -25.368970
-37.766577 66.391667 -26.502670
-42.473365 62.621069 -51.611184
-34.775086 68.481522 -21.078814
-44.613476 60.677359 -17.291054
-33.944918 69.040896 -18.682444
-37.306041 66.740104 -11.610114
-42.147479 62.896931 -44.117945
-34.378320 68.748864 -17.259744
-35.394334 68.064273 -34.344821
-44.436907 60.844254 -13.224254
-35.903749 67.721015 -40.880541
-42.384036 62.696683 -37.862853
-38.745122 65.651319 -51.204337
-44.714701 60.581681 -6.804860
-38.234761 66.037451 -12.689218
-41.203102 63.696362 -47.755744
-37.652995 66.477600 -12.517316
-35.659017 67.885917 -42.305372
-38.500540 65.836368 -38.760913
-44.889227 60.416715 -40.512307
-35.657176 67.887160 -39.012415
-35.940638 67.696161 -31.920722
-45.635012 59.711760 -38.733334
-42.743751 62.392182 -35.447662
-37.926646 66.270568 -14.240442
-40.779809 64.054688 -22.186256
-40.484479 64.304685 -20.942479
-34.455996 68.696528 -34.719425
-38.518656 65.822658 -12.173022
-35.826131 67.773314 -40.933462
-44.834717 60.468235 -43.253729
-44.124814 61.139270 -10.213968
-38.462806 65.864913 -19.975159
-38.257259 66.020427 -1.721726
-38.697672 65.687217 -40.292036
-45.626039 59.720234 -46.855738
-44.355317 60.921379 -2.189848
-44.219824 61.049451 -21.829946
-34.419939 68.720826 -16.453285
-45.235709 60.089192 -32.800594
-41.995431 63.025642 -30.492186
-37.699753 66.442227 -10.468960
-42.096243 62.940306 -29.376449
-42.448929 62.641756 -39.198281
-45.357236 59.974328 -41.280607
-35.290591 68.134172 -4.553372
-35.062918 68.287576 -7.302673
-38.580200 65.776100 -41.553774
-44.526367 60.759698 -12.423325
-34.493092 68.671532 -18.816260
-44.613233 60.677584 -40.177566
-44.414022 60.865886 -15.506855
-41.541171 63.410179 -11.439599
-39.059658 65.413347 -38.523414
-36.240869 67.493867 -34.196166
-44.939093 60.369569 -46.484843
-41.607982 63.353628 -20.940608
-39.203827 65.304275 -43.392902
-44.816690 60.485270 -16.857101
-34.575509 68.616001 -10.412047
-34.611419 68.591808 -10.822578
-41.202236 63.697099 -12.001250
-36.569921 67.272138 -6.764593
-44.871310 60.433639 -45.014406
-37.647821 66.481515 -17.855302
-45.675705 59.673288 -37.404144
-35.212920 68.186508 -46.985447
-42.188561 62.862155 -38.840778
-41.387636 63.540147 -49.957667
-39.125839 65.363278 -47.112832
-38.038086 66.186252 -8.539236
-34.511993 68.658796 -19.413397
-34.110379 68.929407 -18.353990
-35.668699 67.879395 -51.017581
-42.054037 62.976034 -48.399415
-41.502492 63.442920 -21.106323
-41.433264 63.501526 -51.282976
-35.167916 68.216827 -42.740692
-44.186609 61.080852 -27.383957
-34.609254 68.593258 -24.279840
-39.260906 65.261086 -31.781949
-41.358666 63.564674 -14.841573
-38.790326 65.617116 -42.209198
-39.320566 65.215946 -29.101038
-33.877113 69.086585 -26.990125
-42.430065 62.657723 -46.130939
-34.949138 68.364243 -9.519209
-36.244668 67.491301 -36.144811
-34.110942 68.929027 -26.956847
-42.150056 62.894753 -42.288273
-42.755666 62.382097 -39.977042
-35.819844 67.777548 -37.016013
-37.478160 66.609874 -36.631250
-41.529223 63.420294 -17.978764
-45.018123 60.294862 -40.094271
-35.169224 68.215952 -4.667549
-37.610055 66.510088 -17.001427
-39.357773 65.187803 -18.533252
-44.875256 60.429908 -17.205643
-44.621100 60.670151 -17.494808
-35.966905 67.678459 -34.703693
-41.460310 63.478634 -14.247598
-43.991233 61.265532 -15.954807
-44.538225 60.748487 -51.092576
-38.811914 65.600788 -40.959641
-35.748873 67.825377 -33.883149
-37.953803 66.250013 -13.277064
-42.100695 62.936540 -39.815397
-44.620066 60.671132 -19.303535
-35.178652 68.209591 -3.317931
-42.244729 62.814610 -47.563637
-38.898711 65.535121 -47.753252
-44.697422 60.598009 -13.421891
-37.398768 66.669943 -36.906918
-41.390314 63.537888 -10.287073
-39.381097 65.170151 -24.498442
-34.537420 68.641663 -15.918875
-38.230560 66.040626 -10.525846
-40.819005 64.021496 -22.461981
-40.941935 63.917442 -9.963703
-33.934962 69.047601 -18.720507
-45.150566 60.169677 -44.960266
-35.828788 67.771529 -37.474294
-41.426782 63.507011 -8.295819
-41.167597 63.726416 -23.256598
-43.952703 61.301962 -12.668181
-34.524425 68.650418 -8.271438
-41.048029 63.827631 -26.212297
-45.587078 59.757062 -38.177613
-37.828446 66.344857 -31.897294
-35.847707 67.758773 -44.279763
-39.674898 64.947870 -19.628772
-39.563828 65.031898 -37.688109
-35.756242 67.820409 -35.085694
-41.800042 63.191045 -10.256456
-34.030186 68.983443 -35.556220
-35.958336 67.684236 -26.478711
-44.030119 61.228781 -28.548348
-39.027174 65.437924 -43.299795
-34.975230 68.346665 -3.101795
-44.129086 61.135230 -9.939810
-36.262725 67.479136 -43.764051
-35.113122 68.253747 -13.467399
-44.705009 60.590839 -6.560229
-42.873871 62.282033 -31.411039
-38.949901 65.496389 -33.405860
-34.336553 68.777015 -18.773525
-34.195412 68.872111 -23.129546
-37.674091 66.461643 -15.344487
-37.779090 66.382197 -23.019591
-44.847070 60.456550 -45.757340
-39.036721 65.430701 -44.337779
-42.297018 62.770350 -32.847430
-41.820160 63.174012 -13.395955
-37.804111 66.363265 -12.148993
-38.899108 65.534815 -51.665312
-44.998147 60.313752 -45.345606
-36.022955 67.640701 -36.388278
-42.021233 63.003798 -45.474549
-44.953682 60.355779 -13.878863
-38.589858 65.768784 -41.088831
-34.959481 68.357281 -19.265084
-39.517257 65.067139 -35.272073
-35.347521 68.095805 -48.630897
-40.649248 64.165205 -18.737775
-46.003010 59.363908 -24.310486
-44.140386 61.124549 -17.755364
-38.827702 65.588840 -34.989121
-44.094335 61.168081 -15.488874
-44.529188 60.757038 -10.900575
-35.869417 67.744151 -34.467989
-42.464372 62.628678 -36.241935
-35.362366 68.085804 -7.612453
-34.868991 68.418242 -10.173057
-34.530046 68.646629 -17.816954
-44.433813 60.847194 -3.292273
-41.032620 63.840670 -36.187096
-35.256092 68.157421 -18.731992
-43.968925 61.286622 -20.089307
-37.530069 66.570601 -26.520223
-34.586178 68.608807 -16.778612
-41.530214 63.419455 -20.673833
-45.765935 59.587998 -37.703294
-37.394330 66.673301 -18.266259
-37.881379 66.304816 -26.702427
-45.619491 59.726424 -31.958979
-35.898601 67.724486 -39.359531
-37.912064 66.281589 -17.583992
-35.924591 67.706971 -34.782789
-38.538198 65.807869 -10.162272
-45.233245 60.091521 -31.332386
-34.361369 68.760294 -11.833203
-37.613110 66.507771 -18.427643
-43.873342 61.376975 -32.071169
-35.367186 68.082562 -45.938284
-41.695623 63.279443 -44.028651
-39.028266 65.437103 -37.268719
-44.020529 61.237833 -16.516769
-34.857204 68.426190 -17.674585
-36.114942 67.578716 -39.998425
-41.602844 63.357976 -43.634700
-37.473400 66.613481 -25.619339
-42.631537 62.487173 -44.335425
-43.804874 61.441688 -39.083869
-38.989588 65.466358 -42.760000
-35.693940 67.862389 -29.177790
-37.737391 66.413752 -26.449687
-45.270042 60.056736 -34.434534
-36.243891 67.491829 -28.194603
-45.817193 59.539546 -39.066378
-39.426497 65.135801 -33.161657
-41.468861 63.471387 -19.429909
-36.321722 67.439388 -42.929181
-42.681006 62.445293 -26.778963
-36.318318 67.441681 -18.450854
-33.960531 69.030386 -33.959903
-39.227177 65.286614 -33.719928
-34.542931 68.637947 -11.860453
-35.222405 68.180115 -12.615037
-39.423717 65.137910 -25.004936
-38.044789 66.181177 -19.435689
-42.076800 62.956770 -41.183971
-42.463394 62.629514 -35.105061
-41.347174 63.574403 -7.947704
-37.530419 66.570339 -34.177007
-45.104454 60.213266 -26.868781
-44.440009 60.841331 -14.302977
-34.797631 68.466334 -16.010677
-38.744125 65.652076 -47.826270
-44.015861 61.242250 -15.821408
-34.697224 68.533986 -15.537541
-41.878451 63.124674 -15.669891
-45.304026 60.024618 -46.485633
-34.610670 68.592309 -24.774100
-42.188672 62.862064 -35.201435
-45.531429 59.809666 -27.336636
-43.806131 61.440496 -21.709502
-33.884153 69.081842 -28.144762
-44.262204 61.009398 -14.331767
-38.337701 65.959563 -12.342007
-45.626561 59.719748 -43.315219
-35.911210 67.715994 -26.492619
-40.909614 63.944798 -13.828279
-41.963046 63.053064 -39.019885
-39.255057 65.265517 -36.385901
-41.542035 63.409450 -14.957775
-35.919973 67.710085 -39.428077
-41.068719 63.810116 -12.001663
-38.782629 65.622944 -8.221592
-44.160889 61.105169 -23.465213
-44.049260 61.210682 -12.618191
-45.762133 59.591590 -41.402258
-35.024829 68.313237 -14.236409
-45.140972 60.178749 -38.027190
-34.591226 68.605414 -20.412596
-36.019573 67.642966 -34.164869
-44.968467 60.341802 -42.885489
-39.484297 65.092082 -45.537261
-42.612556 62.503241 -41.899316
-41.074629 63.805116 -37.554515
-44.281443 60.991209 -17.101690
-42.616080 62.500264 -47.250167
-41.978103 63.040313 -45.102275
-37.359688 66.699514 -21.816711
-39.677747 64.945711 -40.030400
-38.610949 65.752826 -46.822477
-45.479299 59.858943 -36.387963
-44.212404 61.056468 -15.446251
-38.680085 65.700527 -32.488805
-39.094955 65.386635 -28.599298
-36.175388 67.537988 -37.065755
-36.336241 67.429597 -23.778422
-43.980064 61.276085 -13.369325
-42.069258 62.963153 -43.404081
-41.854451 63.144987 -5.920022
-35.225838 68.177794 -16.753359
-39.082450 65.396111 -33.963949
-41.000168 63.868147 -12.346255
-34.475114 68.683648 -9.637356
-34.146347 68.905166 -16.338825
-45.476519 59.861577 -3.256809
-36.095446 67.591847 -38.722255
-35.185809 68.204778 -19.638028
-42.016687 63.007651 -31.072891
-38.714252 65.674669 -13.098779
-44.168160 61.098296 -16.255680
-41.937877 63.074361 -46.336138
-42.647372 62.473766 -31.496134
-39.837665 64.824719 -28.961147
-40.526007 64.269529 -29.774506
-41.956069 63.058964 -53.613220
-38.840151 65.579423 -36.635398
-34.458966 68.694528 -4.002254
-37.348856 66.707707 -18.075174
-34.565574 68.622691 -26.425459
-44.359007 60.917898 -24.033713
-45.372439 59.959952 -38.000157
-38.903730 65.531315 -36.896129
-45.235841 60.089071 -34.057138
-39.465129 65.106571 -35.611246
-41.052058 63.824221 -24.674391
-37.921010 66.274828 -29.171095
-44.506783 60.778211 -47.300928
-45.652171 59.695533 -16.045114
-37.694507 66.446191 -19.246573
-38.236134 66.036403 -11.905731
-41.270660 63.639172 -13.695055
-34.929652 68.377375 -39.088373
-44.085807 61.176136 -19.952527
-34.801666 68.463618 -18.094419
-34.101657 68.935289 -26.132298
-35.879553 67.737326 -34.157794
-34.524534 68.650349 -15.154223
-45.495049 59.844058 -48.147422
-45.525099 59.815652 -34.180987
-44.059775 61.200740 -26.900760
-39.506041 65.075619 -31.483042
-35.963530 67.680739 -30.755979
-46.002312 59.364571 -37.694752
-35.138123 68.236901 -12.875574
-41.477830 63.463803 -16.086435
-43.849311 61.399684 -21.987169
-42.185641 62.864626 -48.023840
-37.197185 66.822466 -34.755107
-35.339463 68.101237 -49.894417
-44.982344 60.328684 -44.430407
-44.135667 61.129001 -21.738757
-35.251131 68.160755 -43.918227
-41.107242 63.777511 -17.863846
-35.032038 68.308388 -45.501062
-45.255381 60.070601 -6.109354
-38.422544 65.895376 -17.671755
-44.464556 60.818129 -15.231965
-38.084998 66.150758 -22.927301
-34.060834 68.962796 -31.411705
-37.512692 66.583750 -13.391707
-37.519026 66.578961 -31.005411
-42.102506 62.935006 -46.924142
-37.761902 66.395201 -18.450183
-38.273916 66.007828 -46.423163
-38.796980 65.612090 -44.372804
-35.176180 68.211260 -46.822426
-44.441967 60.839479 -10.070112
-41.380125 63.546511 -24.459158
-36.141820 67.560600 -48.679902
-34.083410 68.947581 -17.154194
-37.130939 66.872584 -25.930873
-44.797448 60.503463 -4.991164
-40.669994 64.147638 -39.170835
-45.964428 59.400380 -42.685675
-42.612427 62.503352 -45.049915
-35.843881 67.761351 -42.197568
-41.438448 63.497140 -13.487933
-44.915205 60.392151 -45.197978
-42.520540 62.581138 -22.612370
-41.964207 63.052079 -44.356532
-35.955791 67.685946 -31.401188
-34.825310 68.447675 -2.211693
-41.251733 63.655197 -14.615178
-41.837940 63.158963 -42.496501
-34.156743 68.898170 -17.521492
-40.672223 64.145755 -12.995236
-42.129268 62.912350 -36.693508
-34.601258 68.598646 -30.668378
-45.408775 59.925608 -32.443852
-36.173005 67.539586 -40.877503
-36.203350 67.519142 -23.345555
-42.433629 62.654701 -28.242938
-45.469436 59.868260 -41.084307
-42.507855 62.591870 -43.658089
-37.787712 66.375673 -11.300679
-41.366334 63.558186 -11.632783
-37.992280 66.220902 -13.128107
-45.479427 59.858822 -46.280539
-44.582007 60.707104 -25.493846
-39.739922 64.898669 -14.815034
-44.312115 60.962219 -22.235849
-44.294102 60.979249 -13.862024
-34.882203 68.409342 -15.710480
-45.558635 59.783951 -36.205417
-45.663792 59.684549 -46.830580
-35.807675 67.785764 -39.153185
-34.399858 68.734355 -17.916975
-35.743921 67.828708 -35.267424
-34.049606 68.970358 -7.194030
-38.584810 65.772610 -55.077516
-37.765830 66.392232 -30.955130
-38.808952 65.603026 -46.430419
-39.187677 65.316490 -35.558915
-35.805005 67.787550 -51.207536
-41.479303 63.462558 -10.696383
-41.578021 63.378989 -16.439965
-35.828636 67.771632 -1.109489
-42.461549 62.631069 -59.465647
-38.117023 66.126526 -19.749494
-41.401779 63.528177 -11.275022
-38.756933 65.642379 -36.869972
-42.468498 62.625182 -32.910219
-43.780668 61.464569 -17.247770
-34.455407 68.696928 -16.743766
-37.780712 66.380972 -10.463704
-36.021424 67.641727 -45.829270
-39.324499 65.212973 -38.986773
-34.821918 68.449963 -23.441518
-35.863505 67.748139 -42.086230
-45.413767 59.920888 -29.843576
-34.750430 68.498139 -27.255181
-45.483153 59.855299 -24.422332
-37.397134 66.671176 -23.521275
-41.322300 63.595454 -24.271992
-42.358541 62.718268 -34.247169
-44.158340 61.107574 -21.931770
-44.281081 60.991555 -20.767179
-34.609506 68.593094 -13.029733
-34.380102 68.747663 -10.708077
-35.577672 67.940735 -31.723631
-35.755463 67.820934 -34.764615
-45.854735 59.504067 -38.605684
-34.682847 68.543678 -7.883636
-39.194665 65.311203 -43.633301
-44.464058 60.818596 -25.446787
-34.630627 68.578865 -15.538572
-35.220988 68.181067 -7.071547
-41.059673 63.817778 -18.207776
-41.374812 63.551010 -9.976094
-44.052529 61.207589 -17.942873
-39.351769 65.192341 -49.259936
-35.218034 68.183060 -12.828058
-42.488543 62.608214 -24.216654
-34.782748 68.476356 -10.964724
-34.422590 68.719041 -30.068728
-34.977613 68.345058 -8.680272
-44.563480 60.724611 -11.296335
-42.769851 62.370089 -38.472864
-45.137389 60.182132 -43.898187
-43.693188 61.547259 -24.820524
-42.049676 62.979726 -42.047739
-45.589685 59.754596 -41.369187
-36.195966 67.524121 -41.350556
-34.645416 68.568900 -20.416895
-40.900024 63.952919 -21.776549
-35.355775 68.090252 -38.527576
-35.975355 67.672769 -42.220033
-37.956743 66.247791 -25.926538
-41.431081 63.503368 -15.435969
-36.054597 67.619377 -39.744026
-43.808908 61.437869 -15.611721
-37.574935 66.536664 -31.037319
-35.706181 67.854135 -36.331576
-37.423567 66.651183 -20.888729
-45.104190 60.213518 -34.814201
-36.139327 67.562281 -34.480391
-38.007266 66.209569 -13.217553
-38.939034 65.504607 -32.920334
-36.412104 67.378475 -29.412076
-36.275606 67.470456 -21.648150
-40.925825 63.931074 -29.089596
-45.449838 59.886790 -39.446759
-41.747219 63.235756 -51.362076
-41.907369 63.100189 -44.966250
-34.225199 68.852048 -18.079509
-41.858022 63.141963 -40.425884
-37.461961 66.622129 -43.669450
-42.768727 62.371046 -23.755906
-34.380100 68.747669 -27.481442
-42.824464 62.323862 -32.248011
-44.881613 60.423899 -39.908850
-38.489959 65.844369 -48.276115
-41.128461 63.759542 -13.705004
-35.886271 67.732794 -41.179209
-34.802168 68.463278 -24.729365
-36.068792 67.609808 -33.550321
-44.165821 61.100504 -18.102085
-36.176000 67.537572 -36.168592
-41.281022 63.630407 -14.316549
-39.027626 65.437583 -27.511969
-45.334311 59.995992 -39.444752
-34.998716 68.330833 -9.871056
-39.207823 65.301254 -41.884255
-43.683759 61.556171 -27.263990
-40.730915 64.096076 -13.580761
-36.462397 67.344590 -17.698270
-44.707407 60.588571 -9.461036
-45.192742 60.129810 -40.321412
-45.075405 60.240725 -40.348625
-41.520563 63.427628 -21.446216
-35.623035 67.910172 -36.025546
-40.775307 64.058493 -29.818646
-36.168505 67.542626 -49.835297
-44.313639 60.960779 -20.529333
-44.153905 61.111770 -24.991103
-38.501694 65.835490 -46.466926
-36.126541 67.570891 -45.048179
-41.558633 63.395393 -5.982521
-45.470913 59.866868 -25.938838
-38.933166 65.509048 -34.081099
-42.872251 62.283401 -37.632247
-35.012031 68.321860 -23.017850
-44.117028 61.146622 -14.680180
-44.249137 61.021755 -13.512159
-41.061100 63.816567 -17.496832
-42.753060 62.384301 -48.980891
-44.680837 60.613689 -44.520411
-38.167563 66.088288 -10.183085
-37.909696 66.283383 -16.978888
-41.292510 63.620674 -23.795147
-44.061622 61.198997 -23.799081
-35.857951 67.751876 -45.566105
-34.920737 68.383384 -14.369365
-44.697645 60.597796 -40.015892
-44.534188 60.752298 -43.193429
-45.564135 59.778750 -26.021175
-39.173231 65.327420 -49.896786
-39.540892 65.049250 -20.423318
-39.270192 65.254061 -39.193494
-41.336361 63.583556 -14.427763
-45.129574 60.189519 -52.233865
-45.934028 59.429115 -28.910570
-36.435143 67.362961 -30.618612
-35.305125 68.124377 -36.536266
-35.987211 67.664777 -39.139138
-34.657307 68.560878 -4.665190
-34.979424 68.343833 -10.488750
-34.311401 68.793953 -20.271136
-45.512126 59.827919 -31.114966
-42.455668 62.636052 -31.783994
-39.020097 65.443273 -50.498492
-45.426063 59.909258 -39.743686
-34.515350 68.656535 -20.251881
-34.118322 68.924053 -20.268626
-45.727269 59.624556 -22.570307
-34.589431 68.606621 -16.210933
-41.458848 63.479861 -46.267125
-41.091112 63.791162 -21.912819
-44.184024 61.083291 -16.594542
-34.914920 68.387298 -12.807855
-41.341269 63.579402 -2.475074
-37.542047 66.561535 -13.841060
-42.390735 62.691012 -42.042212
-41.212425 63.688468 -26.049849
-40.891013 63.960551 -32.777485
-41.555292 63.398225 -16.810341
-45.166136 60.154963 -37.321437
-41.048055 63.827611 -30.205015
-44.860428 60.443921 -37.849833
-38.386735 65.922466 -17.043070
-45.697556 59.652636 -31.140132
-44.277003 60.995409 -19.300959
-44.054136 61.206076 -17.043740
-44.584424 60.704819 -47.863541
-34.381263 68.746877 -10.921972
-43.767340 61.477168 -16.271901
-36.013293 67.647203 -37.880383
-38.880602 65.548821 -36.539044
-45.370064 59.962200 -33.763578
-41.087717 63.794042 -26.791741
-36.639619 67.225182 -32.160996
-38.739865 65.655293 -11.627806
-43.726935 61.515361 -26.636633
-37.919882 66.275680 -19.240014
-40.965057 63.897866 -21.852870
-42.454475 62.637062 -34.138892
-34.751730 68.497260 -11.037836
-38.346630 65.952802 -13.845103
-45.363183 59.968701 -43.275499
-42.445508 62.644652 -23.510645
-38.106450 66.134526 -9.251235
-35.837268 67.765813 -42.638118
-42.334621 62.738519 -32.625277
-41.268726 63.640816 -17.369735
-44.342424 60.933564 -14.913756
-34.188748 68.876602 -4.058068
-41.449705 63.487613 -22.348692
-38.762579 65.638110 -29.599830
-34.911177 68.389821 -9.388148
-42.890049 62.268348 -28.920315
-40.938032 63.920747 -11.528106
-34.235621 68.845019 -15.132057
-41.047334 63.828221 -28.322007
-36.141826 67.560596 -27.548234
-39.271871 65.252788 -41.170959
-45.275262 60.051814 -46.581412
-43.903770 61.348203 -18.193643
-45.041101 60.273147 -51.996886
-44.346121 60.930071 -24.301578
-44.857558 60.446638 -49.614717
-38.464953 65.863285 -8.892468
-37.576513 66.535461 -12.237944
-34.419918 68.720830 -17.596962
-39.687512 64.938321 -30.190599
-45.410507 59.923969 -39.910474
-34.861061 68.423594 -45.841987
-38.815210 65.598289 -35.121343
-38.778275 65.626235 -48.309017
-44.408883 60.870753 -15.973689
-38.513410 65.826626 -6.377856
-34.790157 68.471364 -47.081683
-42.420513 62.665811 -30.052607
-34.249405 68.835738 -18.805666
-37.652053 66.478315 -27.519680
-39.076102 65.400906 -41.836074
-45.140937 60.178772 -52.303609
-44.270866 61.001203 -17.131729
-44.086721 61.175266 -11.210746
-34.244593 68.838970 -20.450604
-34.360198 68.761080 -28.261248
-41.808776 63.183658 -36.968985
-41.097963 63.785368 -23.568806
-44.082594 61.179167 -23.045491
-38.711445 65.676797 -37.205455
-34.056425 68.965763 -10.930361
-41.269635 63.640042 -10.568097
-34.166118 68.891852 -21.992634
-45.445521 59.890868 -36.003522
-44.900605 60.405945 -42.345446
-38.822456 65.592804 -37.083189
-41.864603 63.136393 -30.759248
-41.398729 63.530766 -1.097969
-42.596099 62.517168 -42.500450
-37.549781 66.555688 -12.287734
-44.497607 60.786888 -44.213633
-44.665092 60.628572 -14.669922
-38.247400 66.027890 -11.466143
-45.757982 59.595517 -43.799932
-39.112318 65.373510 -31.359587
-38.910159 65.526454 -48.064103
-42.319801 62.751068 -39.642818
-34.262688 68.826779 -16.764597
-38.488768 65.845274 -14.390155
-45.168068 60.153133 -33.979641
-38.718823 65.671209 -40.621139
-36.224282 67.505038 -47.885299
-41.689038 63.285006 -51.285653
-39.483582 65.092619 -31.707257
-39.602899 65.002338 -42.301943
-37.434051 66.643253 -20.352830
-42.564005 62.544343 -42.272189
-34.714008 68.522677 -16.640907
-41.885882 63.118375 -52.532687
-35.145904 68.231656 -10.946583
-35.981347 67.668731 -43.424805
-34.267803 68.823339 -18.963883
-41.566282 63.388920 -5.812339
-37.940392 66.260159 -21.627549
-45.447689 59.888822 -30.840701
-37.514900 66.582077 -24.772988
-39.499836 65.080316 -32.559654
-45.138379 60.181192 -49.230962
-37.858202 66.322352 -18.708729
-37.804276 66.363146 -10.642224
-40.665843 64.151153 -7.128814
-45.271811 60.055074 -10.657261
-38.406268 65.907690 -37.669712
-44.501732 60.782978 -16.960933
-43.934531 61.319129 -9.031680
-41.265005 63.643958 -29.166675
-34.907547 68.392265 -39.668814
-34.155299 68.899140 -13.336601
-37.802773 66.364277 -17.408176
-35.876804 67.739176 -29.443480
-43.990801 61.265945 -20.405295
-39.488067 65.089224 -44.370001
-38.778477 65.626079 -50.059571
-39.119725 65.367907 -23.791557
-44.275715 60.996622 -10.466333
-37.971866 66.236346 -21.969719
-42.489356 62.607531 -39.428461
-42.412811 62.672328 -27.654980
-34.875881 68.413605 -42.909414
-45.583305 59.760631 -28.352122
-36.467970 67.340843 -24.380562
-38.845043 65.575723 -39.053467
-39.276434 65.249343 -52.230712
-41.917643 63.091492 -31.710473
-35.628481 67.906496 -43.786857
-37.936098 66.263407 -26.634921
-36.222099 67.506504 -51.651842
-40.495637 64.295236 -19.350220
-39.106831 65.377658 -31.544308
-41.458818 63.479899 -22.190731
-35.607586 67.920571 -24.424767
-42.673688 62.451493 -22.856604
-42.296846 62.770487 -39.269345
-42.405964 62.678133 -40.503238
-44.240258 61.030142 -16.547242
-35.504590 67.989977 -51.468586
-34.534184 68.643845 -4.904400
-38.175954 66.081938 -16.750967
-41.008542 63.861059 -20.809453
-44.975194 60.335454 -45.193569
-45.088787 60.228070 -35.591877
-45.334550 59.995770 -36.967773
-38.192491 66.069429 -12.776241
-45.277066 60.050106 -42.670072
-45.584873 59.759152 -33.368417
-38.493076 65.842016 -55.375612
-41.935779 63.076144 -41.508320
-37.980662 66.229689 -17.579692
-38.579499 65.776623 -35.422161
-45.182729 60.139272 -32.217564
-39.033427 65.433190 -31.771769
-41.895332 63.110384 -53.494918
-42.370840 62.707857 -28.604107
-44.718281 60.578286 -7.180661
-35.285399 68.137672 -46.268771
-43.979591 61.276532 -27.482214
-41.343067 63.577879 -17.456998
-39.494421 65.084413 -44.911974
-38.592903 65.766487 -38.369773
-34.154963 68.899366 -10.145543
-38.324449 65.969589 -13.641404
-33.962802 69.028844 -23.389312
-38.281319 66.002226 -14.723147
-37.635350 66.490951 -20.755651
-43.872833 61.377442 -25.881348
-45.222557 60.101622 -37.752510
-44.703827 60.591963 -14.375948
-36.051736 67.621303 -44.830893
-35.450419 68.026476 -36.354839
-42.298217 62.769330 -38.343988
-38.312857 65.978360 -14.474621
-38.965858 65.484317 -44.515940
-37.830572 66.343243 -32.090142
-44.784671 60.515537 -11.858491
-45.091934 60.225098 -40.807863
-42.510429 62.589694 -46.619977
-39.382490 65.169098 -35.345793
-35.334756 68.104413 -13.209475
-35.750441 67.824319 -45.254688
-42.644408 62.476284 -28.369858
-41.252973 63.654152 -11.325287
-45.393562 59.939982 -37.435136
-37.595834 66.520851 -11.845811
-44.957813 60.351882 -43.351257
-39.198142 65.308573 -40.156901
-34.476482 68.682730 -24.224150
-42.045382 62.983352 -9.520007
-42.349373 62.726032 -39.400368
-44.357764 60.919073 -12.433001
-41.074388 63.805323 -7.448505
-42.378849 62.701074 -42.287403
-37.776969 66.383799 -22.016908
-41.870885 63.131074 -3.755601
-40.699290 64.122841 -16.905615
-37.597684 66.519443 -15.259744
-35.310403 68.120820 -19.800682
-42.662370 62.461070 -41.661130
-42.931481 62.233266 -32.581156
-45.416006 59.918773 -43.140414
-42.113855 62.925398 -34.688518
-44.406649 60.872859 -19.632303
-45.666160 59.682315 -36.401981
-41.159454 63.733312 -17.616871
-45.416306 59.918484 -30.810929
-45.376517 59.956097 -46.881095
-35.158748 68.223007 -40.788672
-34.529131 68.647242 -25.905631
-35.767250 67.812989 -41.499992
-42.594173 62.518801 -23.974505
-41.471133 63.469468 -12.012937
-34.594475 68.603220 -3.743430
-35.550381 67.959123 -43.210546
-34.777351 68.479999 -16.418654
-39.341592 65.200045 -24.222251
-38.281289 66.002252 -20.335781
-35.986074 67.665552 -45.693900
-41.104568 63.779771 -21.445164
-39.660636 64.958655 -47.744550
-34.444017 68.704605 -18.205120
-41.322560 63.595235 -17.510954
-44.905765 60.401071 -15.160285
-37.242149 66.788439 -25.282226
-34.499282 68.667358 -24.530255
-44.150380 61.115099 -23.301177
-44.547712 60.739524 -11.280229
-42.200786 62.851804 -49.995714
-44.499381 60.785210 -48.018925
-44.249740 61.021175 -24.575538
-39.124002 65.364669 -34.438867
-44.978277 60.332535 -56.225185
-45.206694 60.116615 -41.916755
-41.534735 63.415635 -15.562923
-41.270649 63.639183 -21.548402
-38.935976 65.506926 -33.582822
-38.834840 65.583443 -32.481930
-45.012522 60.300165 -44.809881
-41.963492 63.052676 -51.478813
-41.772583 63.214286 -5.294061
-44.033257 61.225812 -20.058069
-44.162825 61.103336 -30.310264
-42.114191 62.925113 -40.958357
-34.509629 68.660384 -19.385835
-35.183578 68.206273 -5.555604
-35.255844 68.157585 -47.968945
-34.342669 68.772883 -24.316646
-37.997353 66.217072 -17.507897
-39.286059 65.242059 -33.985214
-35.546239 67.961908 -35.407453
-36.046698 67.624697 -32.992484
-43.798101 61.448089 -23.603460
-36.074119 67.606221 -43.471230
-38.946717 65.498797 -30.963372
-42.866357 62.288395 -35.884121
-37.804437 66.363023 -16.076083
-34.633854 68.576684 -11.682763
-44.408036 60.871550 -6.679442
-34.983518 68.341080 -46.264475
-45.110043 60.207987 -36.622172
-44.070772 61.190345 -9.995399
-38.443844 65.879260 -12.875067
-34.083471 68.947536 -18.902092
-34.207368 68.864054 -27.190016
-38.661955 65.714244 -42.074826
-38.117528 66.126136 -15.395111
-38.039011 66.185549 -15.573952
-39.201323 65.306171 -46.585540
-39.340970 65.200511 -43.723826
-43.805624 61.440990 -11.611228
-38.596518 65.763746 -33.455933
-37.739271 66.412326 -19.718893
-41.895336 63.110381 -6.631417
-44.553213 60.734321 -17.153629
-41.236643 63.667974 -14.087957
-38.361269 65.941732 -45.123756
-38.951961 65.494833 -45.013193
-45.584143 59.759841 -29.224688
-41.811927 63.180986 -43.580149
-45.047800 60.266811 -38.375655
-43.880024 61.370655 -34.738076
-45.307690 60.021154 -32.149633
-41.459048 63.479701 -20.737854
-41.257644 63.650195 -51.415226
-45.536635 59.804751 -30.463978
-34.861357 68.423391 -30.097065
-38.005384 66.210990 -17.069533
-43.902861 61.349069 -25.435848
-35.513261 67.984124 -13.044155
-38.761777 65.638715 -44.458149
-38.024204 66.196753 -9.018082
-45.204841 60.118375 -48.843847
-44.901618 60.404998 -41.407157
-38.151190 66.100679 -18.471680
-42.317566 62.752954 -41.666370
-39.627395 64.983810 -33.496034
-45.109905 60.208113 -33.413027
-38.663604 65.712995 -38.692856
-41.181874 63.714328 -14.897402
-38.097794 66.141077 -14.489453
-35.491545 67.998763 -48.469679
-34.325484 68.784468 -4.683855
-34.807909 68.459406 -21.507046
-45.691672 59.658198 -46.736723
-38.144371 66.105835 -27.233946
-38.602295 65.759379 -42.533599
-41.908924 63.098874 -12.621406
-45.683418 59.666002 -31.005576
-42.627944 62.490215 -32.628232
-38.661517 65.714578 -44.011901
-45.867828 59.491689 -19.371030
-38.825417 65.590570 -13.067060
-38.406418 65.907571 -50.877019
-44.373566 60.904139 -13.818184
-36.306916 67.449366 -24.606847
-34.505952 68.662862 -19.158941
-36.026058 67.638602 -40.430539
-43.963651 61.291610 -25.260119
-40.866721 63.981113 -14.537088
-40.649795 64.164743 -16.122365
-41.141847 63.748216 -26.409328
-44.381626 60.896507 -21.752338
-38.278987 66.003988 -47.271492
-34.535283 68.643103 -14.713719
-41.047175 63.828356 -26.287698
-45.373583 59.958874 -31.755475
-44.046363 61.213417 -19.184890
-38.522987 65.819381 -21.713825
-41.024826 63.847279 -18.724873
-43.918387 61.334379 -29.073211
-38.739602 65.655496 -32.266429
-37.965474 66.241184 -11.597726
-35.526601 67.975143 -40.360505
-39.620350 64.989137 -28.230704
-44.552298 60.735179 -44.201805
-42.383642 62.697019 -51.172948
-40.786012 64.049437 -12.858436
-39.612356 64.995186 -30.547493
-42.509849 62.590182 -37.364141
-45.328472 60.001504 -46.016779
-42.091460 62.944364 -36.827293
-42.553145 62.553536 -30.202491
-34.515264 68.656593 -15.481881
-41.606675 63.354732 -11.706157
-37.200551 66.819909 -22.456144
-37.469041 66.616780 -24.174958
-36.549523 67.285889 -20.113451
-35.324644 68.111223 -10.110453
-34.658147 68.560318 -12.143349
-44.508397 60.776678 -11.783046
-39.114659 65.371729 -44.124016
-37.755665 66.399924 -35.115286
-35.781123 67.803645 -45.268965
-44.303710 60.970163 -51.565308
-36.048540 67.623460 -40.882805
-44.637158 60.654973 -11.221377
-34.411049 68.726814 -18.838295
-41.212136 63.688711 -18.922589
-44.189250 61.078358 -15.613658
-44.094374 61.168038 -16.335551
-35.059042 68.290183 -43.823381
-41.097037 63.786143 -16.791806
-35.594204 67.929592 -32.362232
-37.456742 66.626078 -18.073425
-39.589492 65.012481 -46.788308
-37.524448 66.574851 -21.714265
-40.921821 63.934470 -20.643112
-41.378104 63.548218 -51.590987
-35.276335 68.143776 -37.354588
-40.970876 63.892943 -21.297793
-39.187406 65.316690 -34.908633
-45.196316 60.126435 -35.826848
-38.087435 66.148912 -23.468024
-44.541930 60.744985 -10.725680
-35.119383 68.249532 -13.612145
-44.919482 60.388108 -43.201599
-34.688526 68.539843 -3.149989
-36.226008 67.503879 -30.846256
-44.495377 60.788995 -17.896693
-34.955888 68.359698 -6.113815
-39.218933 65.292843 -39.546329
-41.902035 63.104704 -46.971087
-38.447491 65.876499 -15.869749
-35.017465 68.318203 -11.697970
-35.778217 67.805599 -38.741940
-39.174009 65.326831 -38.533553
-39.365710 65.181794 -30.019629
-45.352161 59.979123 -37.632288
-39.228396 65.285677 -31.763370
-39.062775 65.410991 -45.032507
-41.749781 63.233590 -50.218626
-37.871435 66.312333 -15.551272
-44.149421 61.116012 -14.939777
-43.809967 61.436876 -11.872565
-36.348936 67.421040 -18.208297
-37.995884 66.218178 -20.136539
-40.481023 64.307607 -35.470187
-40.414833 64.363645 -30.941895
-38.221680 66.047342 -25.826114
-38.610211 65.753393 -8.453723
-38.565478 65.787234 -43.193465
-41.680683 63.292083 -43.297618
-38.714041 65.674837 -38.101179
-37.305211 66.740726 -32.860674
-44.683236 60.611421 -42.629025
-41.224728 63.678053 -11.456143
-41.371875 63.553485 -21.454439
-37.503670 66.590579 -34.946691
-36.009312 67.649885 -35.638377
-41.701440 63.274509 -40.410176
-45.541276 59.800353 -31.451655
-41.413583 63.518183 -9.578243
-45.014269 60.298510 -43.017120
-39.423053 65.138411 -31.706383
-41.756142 63.228206 -37.301436
-34.367841 68.755928 -14.160486
-39.371889 65.177116 -41.157124
-44.285126 60.987731 -4.226074
-45.210918 60.112635 -36.923168
-38.932107 65.509856 -34.309273
-34.498881 68.667629 -23.453978
-41.350054 63.571964 -25.549714
-38.685358 65.696535 -41.308869
-38.740863 65.654541 -44.036805
-45.042770 60.271576 -15.806576
-36.189196 67.528685 -30.194024
-34.928155 68.378380 -23.097097
-41.119045 63.767513 -27.451653
-35.100834 68.262030 -47.066845
-45.816378 59.540325 -25.663084
-43.000483 62.174855 -27.918943
-35.386517 68.069531 -49.848103
-42.283280 62.781977 -31.692276
-33.819581 69.125345 -38.649943
-45.602972 59.742043 -34.179017
-45.302945 60.025632 -44.632790
-40.808776 64.030166 -19.934008
-35.686764 67.867223 -31.975169
-42.263880 62.798403 -40.701328
-44.509185 60.775940 -23.377085
-41.179728 63.716146 -7.545167
-38.041357 66.183776 -12.240527
-45.453437 59.883386 -40.558500
-39.172882 65.327688 -31.079060
-41.613393 63.349041 -8.965565
-41.221184 63.681054 -11.037396
-41.141285 63.748685 -12.104764
-38.170771 66.085864 -13.880634
-44.068602 61.192397 -11.638988
-41.053986 63.822589 -21.298417
-38.357480 65.944606 -41.663837
-35.114161 68.253050 -44.781371
-39.293609 65.236347 -36.813934
-34.534735 68.643473 -5.292800
-37.494843 66.597262 -25.325451
-34.427829 68.715507 -9.255702
-43.775274 61.469660 -31.767722
-45.065492 60.250099 -40.896881
-34.531887 68.645388 -11.804693
-35.272201 68.146558 -6.705632
-35.954298 67.686965 -31.954295
-37.836541 66.338734 -19.381457
-34.407586 68.729150 -14.147029
-42.446070 62.644174 -24.681543
-36.208379 67.515758 -15.170634
-44.247005 61.023760 -25.248068
-37.798342 66.367629 -26.467881
