40.651589 -50.329026 -31.644235
37.916526 -49.883748 -52.230036
52.150954 -49.665804 -52.805190
30.152975 -47.239250 -27.946856
52.088309 -49.682464 -8.089025
21.672048 -41.303048 -55.443186
24.297478 -43.591350 -50.243945
32.866989 -48.406656 -4.989140
44.200945 -50.541249 -37.757032
19.239492 -38.697554 -32.106040
50.875814 -49.934433 -40.878350
55.783949 -48.568558 -48.347890
26.777065 -45.351573 -11.663471
15.727111 -33.603903 -12.803694
23.892142 -43.260700 -20.720728
28.981910 -46.637479 -60.976659
16.989494 -35.694674 -15.202767
22.208682 -41.823508 -3.312765
17.172081 -35.968272 -37.621439
24.320761 -43.610343 -28.052663
12.612477 -24.498391 -13.370303
22.034157 -41.654243 -45.036802
12.101389 -21.838420 -19.860008
59.486852 -46.990848 -14.475838
25.684449 -44.606607 -51.183216
25.031466 -44.161391 -34.655250
28.358348 -46.286572 -58.444864
47.708264 -50.390022 3.592535
44.324346 -50.540948 -18.301496
59.628907 -46.925419 -37.146915
13.156819 -27.331438 -37.328444
14.894835 -31.958077 -58.465670
51.613097 -49.804751 -10.179099
22.678072 -42.270332 -21.483409
18.412008 -37.672350 -37.640655
30.958050 -47.605303 -57.007159
34.403919 -48.951904 -44.431264
43.198543 -50.541890 -4.460429
43.975668 -50.541798 -55.192273
40.571771 -50.322355 -5.230954
16.575337 -35.008743 -40.024151
57.163478 -48.060959 -2.205848
44.296207 -50.541017 -29.448372
16.783636 -35.353731 -51.079348
57.286835 -48.004143 -26.167823
52.545759 -49.560806 -11.697140
45.947168 -50.536995 3.095803
54.793229 -48.925482 -21.054274
54.960201 -48.865327 -56.127799
36.946400 -49.658529 -8.657439
57.729074 -47.800455 -29.114014
40.162577 -50.267571 -8.381634
52.147970 -49.666598 -44.527538
19.387620 -38.868202 -45.652372
31.669467 -47.928771 -49.331243
23.653897 -43.066353 2.262748
15.446179 -33.078343 -52.544080
57.455582 -47.926421 -50.654630
14.988393 -32.148177 -22.205538
30.218954 -47.269250 -2.832590
32.321633 -48.213183 -44.055973
24.743287 -43.955015 -1.902671
35.266162 -49.220406 -37.187361
45.552843 -50.537955 1.445108
48.850775 -50.288907 -36.979489
15.778190 -33.688500 -60.039322
51.752280 -49.771831 3.072108
17.779821 -36.803512 -35.847578
29.325153 -46.830637 -47.709252
59.084678 -47.176083 -3.049859
13.321396 -28.187983 -44.894620
21.945107 -41.567877 -11.208000
14.255734 -30.605597 -6.981201
26.999332 -45.503119 -34.269318
12.657927 -24.734941 -8.172905
14.043917 -30.061943 -44.532199
55.362362 -48.720442 -3.347811
40.568878 -50.322114 -38.691972
13.598763 -28.919403 -39.602011
29.133783 -46.722945 -37.678974
12.597713 -24.421553 -23.955407
54.078986 -49.153047 -25.829258
22.108986 -41.726817 -5.217611
37.954534 -49.890243 -26.290677
52.734565 -49.510594 -50.182259
14.141010 -30.311144 -28.147252
38.565864 -49.994712 -9.070920
51.783117 -49.763630 1.010501
51.100836 -49.894854 -46.523773
33.684905 -48.696824 1.968481
19.613212 -39.128092 3.725046
12.105667 -21.860681 -47.596172
57.059599 -48.108805 -0.466983
47.865639 -50.376094 -57.542995
18.228060 -37.419544 -0.777683
34.235447 -48.892136 -31.007518
28.992112 -46.643220 -26.573783
12.085294 -21.754649 -52.694348
42.980413 -50.523660 -53.141452
12.175721 -22.225279 -57.291757
59.456535 -47.004811 -28.425220
12.892350 -25.954999 2.709898
15.485778 -33.158804 -29.254577
34.269612 -48.904257 -38.377814
18.411039 -37.671018 -44.526254
12.510401 -23.967137 3.248993
47.054598 -50.447873 -35.951162
12.108884 -21.877428 -27.609677
58.418433 -47.482946 -51.858767
20.761230 -40.419681 -2.668696
24.647699 -43.877040 -36.722975
12.418508 -23.488874 -27.443198
58.206338 -47.580634 -30.748294
58.061426 -47.647378 -12.256972
35.556626 -49.296144 -39.634391
57.628088 -47.846967 -41.463825
44.387283 -50.540795 -22.938782
24.879432 -44.057732 -53.751126
40.828863 -50.343842 -20.285871
50.107794 -50.069522 -51.844403
56.827351 -48.192654 -35.053975
17.527820 -36.457176 -19.375685
47.643226 -50.395778 -13.651137
43.526829 -50.542891 -26.131678
16.521334 -34.919303 2.568940
14.145724 -30.323243 -61.108997
13.475886 -28.604024 -26.222880
39.421717 -50.140967 -3.772946
56.486259 -48.315538 -24.111867
17.459419 -36.363171 -13.555351
59.517127 -46.976903 -58.352382
29.238470 -46.781857 -32.672886
25.505135 -44.484348 -12.569769
50.734086 -49.959362 -12.030255
55.473692 -48.680333 -27.142394
22.023787 -41.644186 -61.011091
12.930717 -26.154683 -55.500008
50.860670 -49.937097 -48.304681
56.479150 -48.318099 1.352395
27.790965 -45.967280 -0.251163
51.264847 -49.866005 -4.842284
27.623962 -45.873301 -59.939048
20.598460 -40.261817 -36.751059
14.293967 -30.703725 -59.565634
34.193637 -48.877304 -4.208351
54.317746 -49.089549 -49.136581
40.814876 -50.342673 -58.507651
55.621977 -48.626911 -13.346656
33.141402 -48.504008 -40.267010
27.836447 -45.992876 -55.431315
32.453928 -48.260117 -20.717074
21.266489 -40.909712 -53.935357
45.069736 -50.539132 -59.185473
28.609380 -46.427840 -21.225487
59.541159 -46.965834 1.352871
12.529757 -24.067873 -25.772619
19.066397 -38.498143 -18.939723
12.133059 -22.003247 -11.656386
44.565412 -50.540361 -60.915143
50.445429 -50.010134 -53.850394
19.583272 -39.093601 -33.991228
20.734562 -40.393817 -42.740161
44.779061 -50.539841 -12.656270
47.686095 -50.391984 -59.245704
22.311688 -41.923409 -26.955289
58.649470 -47.376533 -10.070309
28.951089 -46.620135 -1.613914
56.014773 -48.485399 -50.061765
13.593766 -28.906577 -7.545198
23.233400 -42.723336 -15.271980
37.090599 -49.696128 -40.564044
27.470899 -45.787165 1.810979
30.266928 -47.291063 -14.329014
53.686262 -49.257491 -53.736425
13.120810 -27.144027 1.136870
14.668924 -31.499053 -29.148144
16.885254 -35.522031 -20.703474
41.631155 -50.410894 -49.720522
16.040807 -34.123449 -26.429467
14.932962 -32.035548 -45.650942
14.966880 -32.104464 -24.635927
48.798196 -50.293560 -45.697905
14.617701 -31.394973 1.769285
22.105333 -41.723274 -40.750187
50.080235 -50.074369 -29.462450
12.859948 -25.786364 -49.410475
19.393885 -38.875420 -43.583824
13.332123 -28.235040 -4.069847
37.910228 -49.882672 1.839389
45.818556 -50.537308 -19.531593
46.394326 -50.506309 -17.500229
25.792217 -44.680085 -27.179807
51.283450 -49.862733 -31.730373
12.204914 -22.377218 -18.054302
30.885178 -47.572169 -60.335072
45.036149 -50.539214 -14.492630
51.999486 -49.706087 -13.564358
16.261080 -34.488268 -14.124330
12.336382 -23.061444 -59.821839
46.556012 -50.491999 -52.099369
28.808972 -46.540159 -14.633556
47.624497 -50.397435 -11.806586
19.186095 -38.636040 -25.422086
24.019501 -43.364592 -52.330278
40.907417 -50.350407 -47.649272
49.876039 -50.110285 -38.215596
18.632223 -37.975000 -11.394941
56.667417 -48.250273 -4.241708
48.371266 -50.331344 -47.712173
24.473387 -43.734846 -24.843377
53.384664 -49.337701 -45.685105
57.460107 -47.924336 2.840055
12.495150 -23.887762 -11.357078
12.661653 -24.754329 1.609631
50.177569 -50.057249 -44.688520
49.984196 -50.091261 -21.050271
19.755983 -39.292569 -2.974964
13.402537 -28.415766 -14.779374
12.232588 -22.521250 -50.656752
46.088607 -50.533366 -37.426052
55.491929 -48.673763 -46.352947
28.524759 -46.380220 -33.975310
28.491678 -46.361603 3.332882
42.016068 -50.443064 -43.694837
23.984100 -43.335714 0.665206
12.825297 -25.606023 -38.889878
39.695923 -50.187826 -37.205063
44.048843 -50.541620 0.768722
22.849143 -42.409881 -19.249006
47.283702 -50.427597 -30.311589
37.612715 -49.831830 -30.667012
13.258898 -27.862714 -23.275961
54.647570 -48.977958 -44.481189
56.773705 -48.211980 -32.047419
55.548064 -48.653539 -7.098702
17.229930 -36.047776 -0.477545
38.051931 -49.906887 -59.924181
43.564331 -50.542800 -6.736465
44.711573 -50.540005 -32.662332
36.299185 -49.489767 -43.054543
20.695539 -40.355970 -33.211024
12.345011 -23.106354 -44.120384
12.968737 -26.352560 -18.392788
51.577895 -49.810943 -57.143581
45.029950 -50.539229 -39.350458
53.704540 -49.252630 -13.375788
15.665966 -33.502633 -55.713299
12.991883 -26.473024 -60.380388
55.079241 -48.822441 -35.393993
32.103546 -48.126138 -18.952814
17.242128 -36.064539 -56.452699
35.275603 -49.222867 -5.450320
30.789802 -47.528804 -54.817293
15.309187 -32.799992 -44.305060
13.290887 -28.029200 -51.080383
18.386751 -37.637639 -56.244115
43.332245 -50.543365 -2.464544
17.046893 -35.789740 -30.632082
53.105052 -49.412063 -56.152324
59.464199 -47.001281 -53.349339
18.032745 -37.151115 -25.513032
13.480490 -28.615840 -42.866713
13.860811 -29.591979 -34.442321
47.103542 -50.443541 -0.583241
59.340699 -47.058164 3.311932
20.827588 -40.484039 -26.962029
46.977678 -50.454681 -55.747206
26.216229 -44.969185 -35.743172
12.945215 -26.230138 -24.053892
47.885675 -50.374320 -50.906787
18.057351 -37.184931 -8.862073
42.425408 -50.477275 -27.857951
33.938101 -48.786648 -17.419373
49.573566 -50.163488 -57.455770
33.948691 -48.790405 -35.406553
52.954529 -49.452095 -22.911206
32.528303 -48.286502 -11.834280
12.334584 -23.052088 -53.450493
42.903776 -50.517255 -13.700157
43.721980 -50.542416 -40.922222
59.039410 -47.196933 -38.759041
15.278006 -32.736635 -38.930383
42.029739 -50.444206 -46.194241
22.989800 -42.524622 -33.969679
12.761856 -25.275841 -34.624551
36.679683 -49.588982 -4.588462
35.512440 -49.284623 -10.860570
37.659238 -49.839781 -15.401016
13.212019 -27.618732 -41.449209
12.090120 -21.779769 -25.912408
17.108545 -35.880952 -58.829432
42.704648 -50.500612 -48.250541
36.370096 -49.508257 -13.003185
25.070393 -44.187932 -43.371836
29.755918 -47.058716 -6.111534
16.308197 -34.566303 -0.002722
19.821103 -39.367589 -56.701689
12.715767 -25.035968 -59.039642
48.844233 -50.289486 -9.196670
34.452202 -48.969033 -57.636527
16.604203 -35.056552 -28.047430
29.254130 -46.790670 -8.007265
41.998594 -50.441603 -36.987278
12.101944 -21.841307 -2.907829
14.157503 -30.353474 -21.441029
52.116935 -49.674851 -18.949081
26.582564 -45.218959 -21.853830
14.656249 -31.473299 -33.901811
40.276051 -50.286963 -60.336701
26.162774 -44.932738 0.966279
34.364520 -48.937927 -7.465139
42.591420 -50.491149 -38.839452
28.931214 -46.608950 -35.795259
39.340019 -50.127006 -27.946683
14.250322 -30.591705 -31.507493
45.082020 -50.539103 -26.310431
14.500367 -31.156566 3.795611
14.669292 -31.499801 -9.384101
12.269044 -22.710985 -35.796923
22.568661 -42.172637 -32.298845
15.385037 -32.954110 -3.446147
43.172625 -50.539724 -20.764059
13.152304 -27.307941 -8.071324
42.068155 -50.447417 -15.328118
23.813573 -43.196608 -54.958951
23.077584 -42.596231 -29.691085
42.869527 -50.514392 -35.329573
24.200882 -43.512552 -26.456899
14.364490 -30.880478 -23.474355
27.798565 -45.971557 -15.824607
13.750342 -29.308449 -24.437208
33.918483 -48.779688 -1.901400
16.212134 -34.407203 -45.645411
49.093410 -50.247943 -27.963628
21.234809 -40.878987 -6.154352
38.345804 -49.957107 -45.785502
13.112848 -27.102589 -5.665237
12.542067 -24.131943 -18.879643
39.855713 -50.215132 -54.608936
33.862112 -48.759690 -53.799227
32.420393 -48.248219 -17.334893
16.315957 -34.579156 -31.801386
34.221329 -48.887128 0.120981
52.435039 -49.590252 -24.475305
26.384224 -45.083727 -32.745070
36.193600 -49.462235 -7.067956
34.866008 -49.115837 -28.166791
23.472276 -42.918198 -6.679975
56.258369 -48.397639 -58.227823
50.600263 -49.982900 -18.322378
38.294413 -49.948324 -12.483198
15.334762 -32.851958 -16.375122
45.608233 -50.537821 -30.612919
17.836664 -36.881633 -39.209569
20.561192 -40.220197 -10.072723
58.280654 -47.546405 -36.229857
35.647826 -49.319925 -32.170819
29.675252 -47.022039 -59.244896
30.700162 -47.488046 -44.449573
55.823172 -48.554427 -42.527747
39.128854 -50.090920 -47.544383
17.591593 -36.544823 -6.776104
32.353147 -48.224363 -0.618759
12.802019 -25.484871 -20.522849
16.310487 -34.570096 -4.497182
13.638609 -29.021671 -37.493806
13.550677 -28.795983 -60.843242
23.034077 -42.560740 -25.465163
46.217055 -50.521998 -21.916901
14.550887 -31.259215 -3.796862
51.365329 -49.848332 -26.469613
56.746979 -48.221609 -6.018977
41.428785 -50.393981 -1.846722
39.143505 -50.093424 -19.742312
27.995824 -46.082564 -41.400924
58.985883 -47.221587 -60.189132
44.858003 -50.539648 -3.968227
12.293490 -22.838213 -24.392006
26.471344 -45.143127 -55.336977
40.226702 -50.278529 -33.819269
49.774004 -50.128232 -60.186746
24.418169 -43.689802 -22.721898
42.368292 -50.472501 2.790484
54.408256 -49.064175 -11.850989
55.276958 -48.751210 -18.942777
14.221124 -30.516767 -17.611977
57.732214 -47.799008 -33.839598
13.005277 -26.542732 -10.132270
56.254866 -48.398902 -39.932667
30.804936 -47.535685 -40.522325
12.100985 -21.836317 3.806198
22.031236 -41.651410 2.991116
18.863166 -38.264014 -50.131653
52.683610 -49.524145 -38.037924
40.978475 -50.356346 -23.746521
13.891201 -29.669980 -5.466280
48.728553 -50.299724 -52.595059
20.348921 -39.975653 -53.019029
13.229979 -27.712203 -54.834053
17.837829 -36.883234 -60.355167
40.760216 -50.338105 3.868488
38.795013 -50.033871 -58.395710
55.435619 -48.694050 -9.218978
16.562918 -34.988176 -61.116619
20.117821 -39.709419 -24.154593
18.115554 -37.264923 -31.053208
38.549268 -49.991876 -0.072348
52.195767 -49.653886 -16.805035
12.120001 -21.935284 0.929917
54.381415 -49.072617 -57.873981
24.300124 -43.593508 3.848595
46.531107 -50.494203 -49.587791
57.321439 -47.988205 -14.211319
57.254145 -48.019200 -18.694909
20.761136 -40.419590 -57.478551
13.962442 -29.852829 -29.880626
49.601280 -50.158613 2.963915
53.583998 -49.284689 -36.430406
38.777211 -50.030829 3.665975
15.990153 -34.039556 -43.401942
48.937309 -50.275400 -4.452398
44.114007 -50.541461 -16.192425
23.051017 -42.574559 -2.091194
24.954728 -44.109070 2.034817
56.815675 -48.196860 -56.457284
23.282568 -42.763445 -23.698297
45.833847 -50.537271 -47.987140
43.644821 -50.542604 -10.883377
16.352875 -34.640300 -41.854965
22.507322 -42.113147 -43.156719
44.524552 -50.540461 -8.253640
28.998849 -46.647012 -4.710519
48.002412 -50.363989 -25.323046
14.512910 -31.182051 -42.911033
25.046190 -44.171431 -60.528139
24.886662 -44.062661 -5.750095
32.182273 -48.161934 2.737974
58.320464 -47.528069 -16.208692
15.889990 -33.873665 -21.534438
33.656751 -48.686835 -19.628084
29.550966 -46.957712 -16.664785
17.684965 -36.673147 -27.831336
27.646640 -45.886062 -26.239724
49.325184 -50.207176 -1.031151
47.166956 -50.437929 -46.553302
12.079393 -21.723937 -40.815018
23.780752 -43.169834 -35.316603
58.596033 -47.401146 -47.922595
54.415659 -49.061508 -42.008140
41.494329 -50.399459 -6.855418
33.633597 -48.678621 -10.517923
33.822599 -48.745672 -50.184613
55.732088 -48.587241 -33.363060
54.909331 -48.883654 -5.080219
16.823072 -35.419046 -11.907987
50.102103 -50.070523 -2.734121
47.004567 -50.452301 -4.992685
53.089800 -49.416120 2.173267
14.238048 -30.560203 -1.684515
57.913301 -47.715602 -7.247462
12.868312 -25.829893 -11.691394
55.430207 -48.695999 -15.047316
17.233918 -36.053256 -52.906948
12.446316 -23.633600 -31.580640
25.075434 -44.191370 -10.237493
32.101813 -48.125350 -22.467615
28.323722 -46.267087 -6.725117
29.018834 -46.658258 -50.852321
42.310445 -50.467667 1.030114
22.556301 -42.160650 -52.433846
12.704063 -24.975057 -51.964333
40.117257 -50.259827 -15.295391
32.755328 -48.367042 -60.565139
25.855214 -44.723038 3.716867
18.802870 -38.194551 -60.435374
37.535865 -49.812232 -44.000162
37.084436 -49.694522 -23.519441
25.595021 -44.545634 -49.077169
30.808979 -47.537523 -32.286600
16.413106 -34.740054 -18.920540
47.799169 -50.381977 -39.629136
59.252613 -47.098735 -49.866148
45.899456 -50.537111 -2.454350
14.740645 -31.644781 -52.093841
59.289897 -47.081562 -5.114799
12.502211 -23.924509 -0.102689
52.911768 -49.463467 -20.936294
37.191913 -49.722546 -49.537761
12.488972 -23.855606 -37.568736
25.854711 -44.722695 -14.569005
57.193784 -48.047001 -48.740849
53.293883 -49.361844 -43.349990
42.542583 -50.487068 -30.063858
30.681555 -47.479586 2.032931
17.031586 -35.764389 -54.610249
59.149307 -47.146316 -23.541511
15.759937 -33.658269 -24.531983
39.353418 -50.129296 -23.321135
51.161646 -49.884158 -1.344227
34.547177 -49.002727 3.802399
21.371029 -41.011101 -51.692967
55.916941 -48.520645 -60.259764
15.659624 -33.492129 -37.159045
25.058855 -44.180066 -55.298075
12.082391 -21.739542 -55.051254
13.021796 -26.628709 -30.649742
19.918498 -39.479792 -13.888207
38.261798 -49.942751 -54.148966
24.301023 -43.594242 -41.464624
31.852981 -48.012211 -58.729714
44.252969 -50.541122 -48.885470
14.281819 -30.672548 -25.068320
44.442723 -50.540660 -57.182632
51.729604 -49.777861 -3.297351
13.227961 -27.701701 -12.000553
20.978965 -40.630854 -34.956989
13.031270 -26.678014 -25.633659
30.836307 -47.549948 -36.324435
18.455550 -37.732192 3.863972
30.407652 -47.355047 -23.540136
13.051998 -26.785896 -43.577103
15.033430 -32.239687 -30.873405
27.506308 -45.807091 -31.748854
28.752579 -46.508424 -49.175025
28.498160 -46.365251 -23.071647
14.918576 -32.006316 -55.841262
25.192941 -44.271488 -8.583068
26.468406 -45.141124 -53.377720
23.302904 -42.780033 -4.068682
41.882751 -50.431922 -11.645409
12.499532 -23.910566 -16.651524
26.819427 -45.380456 -49.832542
31.533668 -47.867025 -6.177506
39.112390 -50.088107 -44.127114
28.919762 -46.602506 -43.278377
51.386467 -49.844614 -36.323841
15.646419 -33.470260 -32.848904
30.089805 -47.210528 -11.553380
40.587987 -50.323711 -44.987063
28.415150 -46.318538 -11.526412
21.352749 -40.993372 -21.630447
38.600538 -50.000637 -32.379993
47.470428 -50.411071 -15.812690
17.783334 -36.808340 -3.080013
52.746091 -49.507528 -28.340617
12.912377 -26.059230 -40.728487
12.275676 -22.745498 -49.011934
44.141429 -50.541394 2.659688
45.246287 -50.538702 -0.621329
13.071344 -26.886579 -13.538794
31.629635 -47.910660 -38.344798
52.463795 -49.582605 -61.094200
45.710500 -50.537571 -45.002834
28.368873 -46.292496 -30.112385
55.624660 -48.625944 -0.308727
39.836116 -50.211783 -42.016464
18.889232 -38.294043 -40.395679
29.933294 -47.139365 3.638518
42.226683 -50.460666 -41.831157
47.001093 -50.452608 -23.657697
32.149900 -48.147215 -9.646864
16.808405 -35.394753 -43.551851
19.008577 -38.431533 -12.957059
32.915790 -48.423969 -24.068278
23.453480 -42.902865 -17.400667
48.249299 -50.342139 -31.604828
45.686478 -50.537630 -11.264919
58.821465 -47.297315 -26.148708
33.141119 -48.503907 -29.319971
22.812097 -42.379661 -49.839587
35.909485 -49.388153 -22.221685
20.999935 -40.651192 -40.018480
56.538856 -48.296589 -53.154236
30.517429 -47.404961 -34.694058
26.687072 -45.290214 -17.043802
25.209471 -44.282759 -38.226115
24.261258 -43.561803 -48.237054
27.588847 -45.853540 -38.926697
12.739081 -25.157308 -5.119813
30.527650 -47.409608 -25.677120
33.147807 -48.506280 -26.973225
38.119770 -49.918480 -56.108031
13.094901 -27.009184 -46.079176
58.074259 -47.641467 -39.879197
59.532344 -46.969895 -12.068148
23.904842 -43.271060 -31.516559
13.517987 -28.712080 -28.362850
18.166638 -37.335129 -14.593678
39.541643 -50.161461 -1.988881
20.396078 -40.029980 -8.270244
12.297951 -22.861430 -45.874038
35.373248 -49.248328 -49.191823
39.759970 -50.198770 -10.971452
17.202702 -36.010356 -10.083041
38.552350 -49.992403 -34.455257
52.372626 -49.606851 -34.846135
15.011705 -32.195543 -1.693348
29.431651 -46.890569 -52.399904
18.336382 -37.568414 -20.166183
28.503035 -46.367995 -24.899477
40.712747 -50.334138 -13.045766
13.537490 -28.762138 -53.259914
13.760025 -29.333300 -41.359132
36.054530 -49.425973 -52.674236
59.551575 -46.961037 -56.106527
53.941093 -49.189720 -60.331028
34.046762 -48.825198 -59.257974
18.159676 -37.325561 -52.372358
19.004142 -38.426423 -22.353650
45.097540 -50.539065 -24.489132
16.332894 -34.607207 -29.651332
21.349117 -40.989850 -0.905825
32.369938 -48.230320 -3.372077
54.778420 -48.930817 -51.622941
20.512104 -40.163646 -48.176382
58.988324 -47.220462 -21.982303
49.691942 -50.142667 -39.855063
47.315854 -50.424751 1.248502
27.412392 -45.754241 -10.184978
42.057377 -50.446516 -60.967880
16.786103 -35.357817 -24.257312
27.133708 -45.594739 -2.639739
31.522917 -47.862137 -42.137285
50.042381 -50.081027 0.427798
37.111772 -49.701649 -47.626482
43.312373 -50.543414 -50.480939
15.505692 -33.199267 -46.813505
39.584930 -50.168858 -49.038069
12.645387 -24.669673 -60.834185
27.639197 -45.881874 -56.972476
41.316975 -50.384637 -3.732390
32.848990 -48.400270 -15.503450
26.024187 -44.838247 -24.346193
28.847652 -46.561926 1.181756
16.330697 -34.603569 -38.283123
12.148227 -22.082188 -37.415229
53.714681 -49.249933 -18.080851
19.945275 -39.510640 -51.543405
50.680053 -49.968866 -43.027440
14.100615 -30.207466 -52.841425
20.947243 -40.600087 -12.364777
12.718824 -25.051882 -46.352495
12.772530 -25.331391 -42.766369
25.915851 -44.764381 -41.987703
47.892961 -50.373676 -44.218579
14.355961 -30.862840 -14.532492
44.993482 -50.539318 -50.503933
16.358744 -34.650020 -9.654812
22.515594 -42.121170 -0.276001
36.771725 -49.612982 -37.944377
52.376484 -49.605825 -39.780304
19.300826 -38.768213 -9.644318
40.810705 -50.342325 -35.555681
36.364958 -49.506917 -29.594629
15.300408 -32.782155 -18.194650
54.518227 -49.024556 1.651151
46.188711 -50.524506 -57.658757
47.170765 -50.437592 -33.787879
28.855839 -46.566533 -39.879858
14.478606 -31.112350 -16.048652
27.323593 -45.704269 -36.910864
15.958857 -33.987722 -34.575485
51.908548 -49.730272 -59.494872
57.111683 -48.084816 -46.639332
30.512828 -47.402869 0.111845
17.714989 -36.714410 -50.159681
12.733404 -25.127759 -32.601024
18.396006 -37.650358 -29.046209
49.725641 -50.136739 -10.522446
56.215021 -48.413256 -30.168076
52.931660 -49.458177 -31.556429
12.488423 -23.852748 -20.466627
12.371042 -23.241836 -9.035835
52.437923 -49.589485 -6.093123
13.517983 -28.712071 -1.279877
38.368544 -49.960992 -38.255719
16.286723 -34.530739 -53.362799
30.221120 -47.270235 -38.718107
20.975565 -40.627557 -38.272030
37.866081 -49.875128 -36.378121
17.295479 -36.137862 3.842699
24.927418 -44.090449 -57.292741
56.104517 -48.453067 -11.337497
42.096719 -50.449804 -8.318569
25.403429 -44.415003 -31.245219
23.810742 -43.194299 -46.468940
50.565071 -49.989090 -6.677378
52.137818 -49.669297 -42.294230
36.442691 -49.527186 -0.944556
31.623284 -47.907772 -13.488395
54.368712 -49.075995 -38.645481
30.671872 -47.475183 -4.615884
15.179901 -32.537298 -27.445121
12.956388 -26.288291 -36.007992
39.647019 -50.179469 -56.685281
53.722062 -49.247971 -7.909294
42.370737 -50.472706 -16.877606
25.178750 -44.261812 -18.465310
14.878962 -31.925826 -60.752479
56.553219 -48.291415 -36.949566
19.670627 -39.194236 -38.273067
19.607480 -39.121489 -58.280265
52.418414 -49.594674 -48.420365
21.522445 -41.157954 0.817318
40.591136 -50.323974 -0.237268
13.139779 -27.242755 -27.310715
44.374017 -50.540827 -27.784882
14.688259 -31.538338 -49.974355
20.696816 -40.357209 2.748204
46.994446 -50.453197 -26.915488
44.600201 -50.540276 -46.365502
35.104034 -49.178131 -47.368913
19.238176 -38.696038 -54.606614
19.925320 -39.487651 -60.002835
15.457542 -33.101431 -5.754754
54.738871 -48.945065 -1.731807
20.516117 -40.168269 -30.199090
13.385832 -28.372891 -20.031712
41.619805 -50.409946 -51.877535
18.419248 -37.682301 -5.794964
14.727559 -31.618193 -20.168570
36.292188 -49.487942 2.385726
13.109841 -27.086940 -34.093446
13.636318 -29.015792 -17.935595
12.752385 -25.226551 -44.343929
13.372817 -28.339485 -56.308215
13.941975 -29.800296 -3.716595
30.180197 -47.251628 -20.869301
20.091549 -39.679152 -20.515808
14.439837 -31.033574 -54.226731
29.944839 -47.144615 -29.726240
19.434325 -38.922008 -47.464715
53.329848 -49.352279 -0.994763
17.086981 -35.851315 -25.827715
26.693378 -45.294514 -30.380777
46.189052 -50.524476 -40.523735
13.326862 -28.216436 -10.053541
56.137343 -48.441241 -17.154833
36.875264 -49.639980 -27.805364
59.082618 -47.177032 -0.415203
13.759854 -29.332862 -55.066504
20.496620 -40.145808 -55.431910
26.454294 -45.131502 -57.953462
43.495727 -50.542967 -31.396161
41.799396 -50.424955 -56.291170
34.477228 -48.977912 -13.426533
36.363729 -49.506597 -60.676440
42.137245 -50.453191 -33.257925
27.620148 -45.871154 -28.259223
13.971911 -29.877130 -10.877745
15.597986 -33.386798 -57.664058
16.603101 -35.054727 -22.608499
31.069183 -47.655833 -15.856991
26.390585 -45.088064 -47.671032
14.351114 -30.850401 -12.438799
33.381600 -48.589222 -48.358662
20.465165 -40.109571 -4.860304
12.069390 -21.671880 -31.186747
23.121444 -42.632009 -8.462088
19.191496 -38.642261 -7.960097
43.278699 -50.543496 -24.147091
13.048321 -26.766759 -21.730440
27.453807 -45.777547 -7.999902
54.288342 -49.097369 -32.409915
13.890085 -29.667116 3.848587
45.934618 -50.537025 -28.377814
18.139303 -37.297561 -54.360361
49.125921 -50.242225 -41.632970
12.175653 -22.224925 -6.743330
18.264310 -37.469363 -58.214318
12.090938 -21.784025 -58.750998
12.372265 -23.248202 -42.260806
48.764662 -50.296528 -55.688187
13.093179 -27.000225 -52.634434
48.424388 -50.326643 -22.200459
40.004977 -50.240639 -29.387441
37.616236 -49.832432 -5.930940
14.300259 -30.719874 0.106416
39.757960 -50.198427 -25.390142
12.940134 -26.203694 -57.622615
47.477166 -50.410475 -53.656075
49.924481 -50.101765 -25.212046
27.313155 -45.698395 -23.950897
12.469925 -23.756474 -22.359281
20.338617 -39.963783 -17.641189
44.253951 -50.541120 -36.168851
13.859890 -29.589616 1.554292
16.915317 -35.571822 -34.429011
25.610789 -44.556384 -0.676420
27.373656 -45.732442 -13.974521
27.352269 -45.720407 -51.289487
19.877709 -39.432801 -11.494996
58.994536 -47.217601 -20.157697
16.609201 -35.064830 -1.689978
36.427555 -49.523240 -55.751521
48.448266 -50.324530 -7.623810
12.860163 -25.787485 -29.068200
28.284550 -46.245043 -44.920965
35.374811 -49.248736 -41.289216
46.871819 -50.464049 -7.176182
24.398418 -43.673690 -44.907961
46.174215 -50.525789 -60.602265
58.646403 -47.377946 -43.370832
21.562059 -41.196374 -49.685692
12.230972 -22.512835 -38.978812
15.083964 -32.342366 -40.732000
13.325313 -28.208373 -30.955749
51.520799 -49.820986 -30.115665
26.390677 -45.088127 -40.320162
15.337139 -32.856787 -50.833840
12.648563 -24.686204 -15.044490
21.540638 -41.175599 -18.177129
35.204995 -49.204456 -18.769783
24.255685 -43.557257 -13.690592
51.115695 -49.892240 -28.091533
12.586969 -24.365637 -35.988664
22.638669 -42.238189 -37.101248
24.425576 -43.695845 -16.405966
53.268831 -49.368507 3.832354
12.818321 -25.569713 -27.401568
25.924616 -44.770357 -45.783590
36.221198 -49.469432 -45.576092
12.432330 -23.560810 -47.674103
19.039022 -38.466607 0.648906
12.154900 -22.116915 -61.030889
14.226246 -30.529913 -40.210549
14.682575 -31.526790 -5.833655
41.210442 -50.375733 -53.827483
47.537283 -50.405154 -28.564822
15.247267 -32.674177 -54.215484
36.867764 -49.638024 -20.616016
37.320076 -49.755965 -19.014196
21.794591 -41.421897 -16.579512
12.531091 -24.074816 -39.999725
13.492423 -28.646468 0.312365
16.415016 -34.743218 -36.085873
13.268521 -27.912799 2.630929
47.525346 -50.406211 -20.074116
27.578836 -45.847906 -18.975533
59.525291 -46.973143 -34.010575
17.106739 -35.878469 -48.283622
12.872730 -25.852889 -2.580054
53.386059 -49.337330 -29.800125
24.003998 -43.351945 -39.817604
32.824861 -48.391710 -52.181728
26.787746 -45.358856 -4.315480
56.551146 -48.292161 -44.216966
22.804678 -42.373610 -39.475238
35.056692 -49.165786 -33.745935
15.763381 -33.663973 -1.842506
18.546306 -37.856921 -46.549902
59.293351 -47.079971 -8.448889
32.968599 -48.442703 -37.202104
31.445128 -47.826768 -46.888987
36.999012 -49.672247 -34.104518
51.339000 -49.852963 -21.785872
40.114171 -50.259299 1.537898
25.439654 -44.439701 -29.192288
53.146634 -49.401005 -14.991079
21.803525 -41.430562 -24.555360
54.568129 -49.006578 -16.612776
32.084434 -48.117448 -55.632972
49.158390 -50.236514 -18.924780
12.848014 -25.724252 -1.033565
14.098757 -30.202697 -46.681338
43.180589 -50.540390 -0.573578
33.629919 -48.677316 -42.429242
28.013104 -46.092288 -53.517697
17.925409 -37.003599 -21.762276
20.124864 -39.717532 -28.342060
15.665925 -33.502566 1.341961
17.129422 -35.909643 -32.479826
38.901750 -50.052111 -21.743557
20.762539 -40.420950 -46.397133
57.540260 -47.887419 -21.021818
42.258393 -50.463316 -10.042708
20.105163 -39.694836 -0.277850
39.941386 -50.229772 -52.637819
21.692843 -41.323216 -9.298739
13.721770 -29.235115 -13.347230
15.263808 -32.707787 -7.533166
24.029596 -43.372827 -33.131166
14.197079 -30.455051 -57.228671
13.703535 -29.188311 -32.481235
15.072121 -32.318303 -13.587706
35.362165 -49.245439 -54.286549
17.751202 -36.764179 -23.661924
32.126365 -48.136514 -28.130973
19.400256 -38.882759 -36.579257
13.699656 -29.178356 -58.395247
12.244681 -22.584187 -4.642643
39.876047 -50.218607 -6.787288
19.815587 -39.361235 -41.594280
23.059322 -42.581333 -12.021754
14.489640 -31.134768 -48.193351
18.926280 -38.336723 -4.080361
22.293083 -41.905365 -57.383944
17.933716 -37.015016 -42.855908
59.419018 -47.022091 -18.046010
21.822275 -41.448747 -33.587893
29.199722 -46.760052 -56.158290
51.755873 -49.770875 -55.005536
37.210371 -49.727359 -57.815238
22.496463 -42.102616 -58.985256
45.402882 -50.538321 -5.910489
13.202853 -27.571025 -16.380883
23.382482 -42.844949 -60.453037
42.711458 -50.501182 -22.655569
49.814402 -50.121127 -35.298915
21.877377 -41.502188 -30.786213
57.019415 -48.123459 -8.609465
48.427417 -50.326375 -2.341092
12.843704 -25.701824 -16.542498
45.848889 -50.537234 -9.579991
32.332559 -48.217059 -34.539221
35.721126 -49.339038 -25.860927
34.308583 -48.918082 -55.735916
13.084580 -26.955470 -32.256818
19.888451 -39.445177 1.479501
35.715450 -49.337558 -14.394631
43.438967 -50.543105 -59.601574
26.279327 -45.012207 -7.173398
48.039292 -50.360725 -17.362083
54.959254 -48.865669 -24.257304
15.425861 -33.037059 -10.355807
49.602897 -50.158329 -23.555690
12.702208 -24.965403 -30.598881
39.185181 -50.100546 -40.612795
12.208134 -22.393976 -14.187596
18.570198 -37.889757 -48.228541
17.333716 -36.190412 -41.520604
39.107599 -50.087288 -17.118427
55.501668 -48.670254 3.432715
12.401557 -23.400651 -30.035332
19.290374 -38.756172 -30.365322
29.338197 -46.837978 -18.913959
32.001411 -48.079699 0.955444
12.100650 -21.834573 -22.173003
26.705755 -45.302953 -43.861812
29.130429 -46.721057 -54.527269
48.915569 -50.279224 -14.637944
21.493197 -41.129587 -14.290541
47.209445 -50.434169 -41.731446
17.284749 -36.123115 -45.476421
44.806815 -50.539773 -53.437834
50.099500 -50.070980 -16.513027
35.220736 -49.208561 -16.503829
40.901982 -50.349953 -18.678909
34.722907 -49.065070 -51.521470
23.721658 -43.121629 -56.754543
16.694710 -35.206451 -6.405368
29.969394 -47.155780 -42.013921
33.948372 -48.790292 -22.016819
18.057407 -37.185009 1.366359
56.910301 -48.162769 -22.456035
41.665373 -50.413754 -26.159029
58.146503 -47.608193 -55.235683
16.233315 -34.442284 -7.922278
35.658218 -49.322635 -3.145983
37.919196 -49.884204 -3.485326
15.597639 -33.386093 3.770739
13.128912 -27.186198 -39.011369
32.545905 -48.292747 -7.962121
36.083474 -49.433520 0.841913
23.799300 -43.184965 -9.884041
15.842392 -33.794833 -48.447158
17.264416 -36.095171 -4.685186
12.515768 -23.995069 -3.714492
33.577453 -48.658703 -46.391037
12.800048 -25.474615 -6.727832
19.412911 -38.897339 -16.385123
25.439894 -44.439865 -20.736652
14.401013 -30.954690 -38.273516
50.757621 -49.955222 -50.221112
29.663236 -47.016575 -45.823244
42.832440 -50.511293 -18.702057
20.370147 -40.000106 -49.997214
57.492981 -47.909195 -61.057179
12.564366 -24.247995 -55.184545
30.209721 -47.265052 -49.168192
48.896727 -50.282538 -49.657004
20.444766 -40.086071 -16.072091
59.468788 -46.999167 -46.193966
19.989388 -39.561460 -6.411761
14.436458 -31.026710 -36.186179
13.261415 -27.875815 -48.245006
46.032386 -50.536787 -42.979993
43.701805 -50.542465 -43.435848
57.967929 -47.690441 -57.977674
53.969942 -49.182047 -47.348333
12.079280 -21.723348 -9.793197
53.237535 -49.376830 -9.915129
43.591212 -50.542735 -33.825135
50.762832 -49.954306 -33.773258
58.547964 -47.423286 -32.398086
30.944854 -47.599303 -52.865550
14.026277 -30.016668 -19.536941
16.953840 -35.635624 -17.358988
18.437151 -37.706905 -17.394642
12.093291 -21.796270 -33.463069
