7.791991 -32.375861 -32.575328
19.662153 -48.409422 -48.333238
39.299634 -56.851160 -41.164867
15.219746 -44.221284 -29.489218
16.505763 -45.568020 -22.910859
16.468719 -45.531909 -27.952245
23.500268 -51.157233 -15.443295
44.449227 -57.208579 -19.964964
6.896856 -29.898999 -10.642207
9.752601 -36.528124 -20.930513
26.638390 -52.921585 -20.965787
38.482493 -56.735952 -17.605490
9.825496 -36.667524 -24.709106
4.987150 -22.880619 -22.126523
5.853814 -26.227069 -9.195617
10.598826 -38.009340 -25.517254
7.280744 -31.043261 -13.855310
7.888853 -32.603209 -40.082563
27.716441 -53.450845 -33.237630
17.568849 -46.604365 -32.164303
6.815708 -29.657120 -33.002582
35.955323 -56.255738 -13.125244
41.626723 -57.095206 -47.388084
22.013158 -50.165029 -36.766329
13.081846 -41.652772 -17.522538
39.595678 -56.892898 -48.345591
35.656056 -56.189082 -20.095805
5.467143 -24.734017 -36.104315
35.542682 -56.163833 -18.995699
19.084532 -47.929197 -17.499333
5.300793 -24.091688 -29.154528
26.157466 -52.685481 -10.929957
9.713190 -36.452758 -14.290535
30.911930 -54.791407 -25.744163
5.525634 -24.959868 -37.792159
8.155369 -33.228759 -13.759655
44.704179 -57.203968 -24.022894
46.178118 -57.177335 -35.181960
6.939829 -30.027090 -38.318589
27.593526 -53.390501 -46.356898
22.379931 -50.423852 -24.617951
7.201411 -30.806790 -26.709995
9.731515 -36.487801 -11.677660
10.852450 -38.413060 -42.759954
17.189866 -46.234915 -10.763343
7.271713 -31.016340 -18.127227
25.226571 -52.181329 -41.021856
42.694949 -57.160429 -34.837316
23.629061 -51.233638 -15.775915
8.264480 -33.484861 -23.900206
6.144055 -27.347773 -30.689093
43.026294 -57.180665 -26.577344
21.228238 -49.611136 -14.092229
44.995579 -57.198700 -19.486646
32.147425 -55.215927 -8.243476
41.848813 -57.108769 -17.291589
24.593918 -51.806018 -7.003172
9.725207 -36.475739 -1.151783
30.236463 -54.523741 -41.518162
27.107873 -53.152071 -43.402910
8.069196 -33.026500 -44.629428
9.905945 -36.821365 -15.717582
9.866084 -36.745138 -34.076647
14.508100 -43.408347 -40.528146
16.955758 -46.006695 -13.769422
18.846032 -47.730911 -23.493974
27.296279 -53.244568 -35.682199
27.758739 -53.471606 -44.414079
26.321137 -52.765831 -12.066549
17.407509 -46.447085 -39.277890
24.470092 -51.732562 -46.638637
42.207523 -57.130671 -19.288433
7.363665 -31.290422 -27.813643
5.512304 -24.908397 -43.618396
16.738927 -45.795318 -22.515240
29.221975 -54.121731 -9.079167
6.063350 -27.036148 -16.295347
33.883140 -55.749467 -34.585691
8.919932 -34.935805 -31.365275
5.322237 -24.174490 -42.961467
16.511139 -45.573260 -17.033893
15.139658 -44.129796 -26.672279
33.294634 -55.568565 -41.136772
8.175776 -33.276660 -9.176540
7.153798 -30.664869 -26.917664
26.658995 -52.931700 -36.919118
29.291612 -54.149328 -22.308209
46.323473 -57.174706 -31.480215
9.572514 -36.183741 -10.381738
26.820532 -53.011006 -19.117078
33.670545 -55.684117 -23.772931
38.299156 -56.710100 -20.483163
17.759183 -46.789911 -26.483370
5.729984 -25.748924 -44.925168
14.584386 -43.495488 -40.978972
15.436899 -44.469347 -20.288909
39.371230 -56.861255 -41.807235
12.378932 -40.708628 -31.680451
33.432100 -55.610822 -37.779695
45.638871 -57.187082 -43.022408
16.297471 -45.364968 -29.484178
20.869620 -49.358068 -26.710943
13.088676 -41.661949 -14.551045
23.524606 -51.171671 -24.615288
36.346086 -56.342770 -44.595214
9.361917 -35.781017 -54.090723
24.980407 -52.035299 -25.459451
38.442166 -56.730263 -14.613644
6.929619 -29.996655 -37.112820
38.154957 -56.689771 -10.577661
21.220283 -49.605522 -25.771401
36.863283 -56.457964 -37.535396
7.705601 -32.173091 -21.825677
8.199389 -33.332082 -19.649744
5.007658 -22.959809 -36.144753
5.157897 -23.539924 -28.679368
46.102092 -57.178706 -40.772962
12.870877 -41.369404 -7.769775
38.207144 -56.697130 -15.266212
9.806199 -36.630619 -26.292871
9.624286 -36.282747 -0.709326
6.016700 -26.856020 -12.100819
45.602388 -57.187736 -46.319176
19.050954 -47.901282 -12.174340
9.703277 -36.433803 -27.618953
16.366990 -45.432736 -25.817118
41.557584 -57.090990 -19.866508
19.908296 -48.614061 -35.297515
21.995776 -50.152763 -38.937440
35.630990 -56.183500 -18.308829
46.168104 -57.177516 -38.965406
10.942636 -38.556618 -41.377662
29.502332 -54.232827 -52.801546
19.711060 -48.450083 -39.451801
9.565612 -36.170546 -12.334071
36.076372 -56.282696 -15.527158
12.141414 -40.389595 -32.599840
42.869069 -57.171064 -37.313625
9.617132 -36.269064 -11.776677
45.989070 -57.180752 -34.978368
26.703473 -52.953537 -25.364559
27.803925 -53.493793 -34.187534
35.202392 -56.088042 -28.570511
27.858117 -53.520395 -33.811165
24.752535 -51.900114 -44.005513
10.766156 -38.275696 -30.144584
45.920430 -57.181992 -47.186659
39.353927 -56.858813 -43.197845
9.139710 -35.356088 -32.366544
14.341196 -43.217685 -36.623604
46.131906 -57.178169 -37.599112
9.198077 -35.467703 -47.135182
32.287476 -55.258978 -26.436545
12.983199 -41.520274 -25.908650
41.208052 -57.069644 -32.222643
23.734051 -51.295919 -26.790554
12.577939 -40.975930 -45.546423
5.020918 -23.011011 -26.748975
10.001732 -37.004540 -15.797954
45.501980 -57.189557 -38.519072
13.270521 -41.906199 -26.811479
23.847355 -51.363138 -7.472730
38.633218 -56.757202 -6.039011
30.171435 -54.497971 -41.180947
39.733321 -56.912307 -37.249499
33.634944 -55.673176 -48.595156
27.790350 -53.487123 -32.629545
17.006731 -46.056387 -41.726596
24.561053 -51.786525 -35.989237
5.788573 -25.975153 -19.566073
9.495767 -36.036979 -44.605226
8.552347 -34.160527 -25.286391
9.397747 -35.849535 -44.124806
10.821010 -38.363016 -42.815648
32.301753 -55.263371 -12.942433
17.347146 -46.388240 -33.468833
6.056483 -27.009634 -29.354125
45.890472 -57.182533 -29.102461
25.222420 -52.178868 -32.836818
36.760572 -56.435084 -44.899726
14.169848 -43.021947 -33.335274
42.959654 -57.176597 -40.475549
8.483398 -33.998693 -34.249185
30.321628 -54.557489 -36.388587
27.504785 -53.346933 -42.538326
44.656192 -57.204838 -24.667611
17.084170 -46.131878 -40.979255
5.483119 -24.795702 -34.194220
9.125789 -35.329468 -40.417024
12.121290 -40.362564 -46.371685
10.702518 -38.174399 -27.392949
19.009620 -47.866914 -12.240675
6.754586 -29.474933 -26.044330
42.044936 -57.120746 -50.483117
41.062143 -57.060734 -19.466535
5.893414 -26.379975 -7.381588
38.353581 -56.717777 -16.143273
5.854069 -26.228052 -15.461497
30.079581 -54.461573 -38.086287
5.332648 -24.214692 -39.938081
29.701491 -54.311747 -21.381651
27.921846 -53.551682 -31.513694
24.719465 -51.880498 -33.368291
35.454902 -56.144285 -16.390596
5.154689 -23.527539 -39.212855
12.688893 -41.124964 -38.712461
38.877304 -56.791617 -40.663348
39.697805 -56.907298 -31.584344
7.970250 -32.794260 -39.865356
44.148832 -57.214007 -33.313208
46.145342 -57.177926 -23.153677
36.666304 -56.414088 -46.133628
7.865079 -32.547409 -32.375269
5.275066 -23.992350 -35.142882
30.622791 -54.676833 -35.756682
26.501624 -52.854442 -33.677428
45.855119 -57.183167 -42.219611
6.209886 -27.601969 -15.208816
32.738987 -55.397767 -21.118214
35.786223 -56.218072 -12.976405
8.316157 -33.606152 -13.339410
11.319706 -39.156839 -24.440272
10.632146 -38.062379 -36.424296
6.286933 -27.899470 -10.199674
17.424449 -46.463597 -31.950140
15.271853 -44.280810 -27.263046
5.712061 -25.679718 -52.018979
42.807977 -57.167332 -33.510126
16.239885 -45.308829 -27.822652
11.119870 -38.838739 -11.855307
13.087696 -41.660632 -16.160279
7.722724 -32.213281 -30.563280
7.118062 -30.558352 -25.027036
44.782700 -57.202548 -15.098103
30.717717 -54.714448 -41.833424
26.702627 -52.953121 -27.528074
8.328229 -33.634487 -23.647211
41.791211 -57.105253 -9.015131
16.039338 -45.113327 -33.227234
36.215105 -56.313596 -33.650467
7.776695 -32.339957 -35.572954
26.735522 -52.969268 -29.235456
6.301567 -27.955976 -20.312427
5.891270 -26.371697 -18.477797
5.639948 -25.401267 -13.226803
16.981578 -46.031867 -47.520295
6.036339 -26.931850 -22.538796
12.698361 -41.137681 -47.598523
23.722929 -51.289323 -20.088959
22.288804 -50.359548 -29.075342
31.771853 -55.100483 -23.809581
8.312862 -33.598420 -24.518936
11.133110 -38.859814 -11.524816
42.468168 -57.146589 -39.343485
13.261837 -41.894538 -13.106498
30.772719 -54.736241 -34.436030
6.098212 -27.170761 -38.818254
11.351647 -39.207683 -19.161842
43.271854 -57.195658 -45.331343
29.361618 -54.177069 -28.247392
23.938635 -51.417286 -29.081959
19.008560 -47.866035 -16.592641
30.093036 -54.466906 -39.258205
16.777647 -45.833064 -16.125982
24.002166 -51.454973 -18.646775
5.830276 -26.136181 -25.090779
6.854544 -29.772880 -42.559762
24.312379 -51.639002 -9.135093
45.641465 -57.187032 -37.331361
32.312281 -55.266604 -10.133225
43.174027 -57.189684 -32.673050
42.852932 -57.170077 -39.932928
22.218829 -50.310166 -24.981401
5.699733 -25.632116 -19.439684
27.901824 -53.541854 -30.226276
40.920976 -57.052121 -16.287274
17.579913 -46.615150 -42.033387
7.814491 -32.428670 -43.886103
18.325736 -47.298346 -12.870790
36.765311 -56.436140 -25.584239
36.107937 -56.289731 -51.462385
21.068725 -49.498572 -13.669124
6.804607 -29.624030 -39.007880
31.939941 -55.152154 -24.979004
5.851822 -26.219375 -21.997856
29.294828 -54.150603 -18.912554
42.447665 -57.145335 -38.655683
21.154879 -49.559368 -9.016399
35.513341 -56.157298 -25.217667
25.040545 -52.070973 -43.500958
10.592147 -37.998709 -37.492468
38.863354 -56.789651 -9.926803
15.023464 -43.997064 -29.290943
10.934209 -38.543202 -50.819275
24.565564 -51.789197 -39.828467
30.670490 -54.695735 -37.000087
41.046826 -57.059802 -24.752192
14.524887 -43.427521 -42.831599
5.264636 -23.952078 -39.960912
16.955572 -46.006516 -17.516469
45.232892 -57.194414 -7.072474
15.344642 -44.363959 -37.186979
13.260115 -41.892223 -10.569991
8.071163 -33.031118 -45.572338
19.821445 -48.541854 -31.315411
26.483863 -52.845722 -19.936061
19.060235 -47.908998 -14.378784
18.822088 -47.711008 -28.693250
35.844466 -56.231047 -17.418023
35.810224 -56.223424 -24.750590
13.305583 -41.953297 -24.203299
8.342827 -33.668753 -6.107288
18.675812 -47.589394 -16.373974
11.532096 -39.494921 -17.540468
17.065539 -46.113714 -46.153034
5.934559 -26.538847 -55.519652
25.092758 -52.101947 -45.151116
14.774172 -43.712288 -14.124022
41.218582 -57.070286 -26.655321
38.643522 -56.758656 -12.017804
15.347916 -44.367697 -12.045760
32.501625 -55.324809 -21.178978
5.466236 -24.730515 -39.319430
14.189273 -43.044135 -32.058427
19.024497 -47.879285 -47.530174
5.607132 -25.274554 -47.307321
39.521028 -56.882373 -30.408272
6.915582 -29.954817 -6.857874
42.626121 -57.156228 -47.655504
5.534415 -24.993775 -39.518522
46.397921 -57.173363 -48.293912
18.416042 -47.373425 -28.496723
14.335276 -43.210921 -42.590875
16.811712 -45.866273 -15.489434
36.092369 -56.286262 -52.569471
5.864068 -26.266663 -21.848839
21.936172 -50.110703 -43.309022
10.746327 -38.244131 -41.027228
11.553716 -39.529335 -30.818445
21.109351 -49.527240 -12.399486
9.860674 -36.734793 -21.896342
10.966719 -38.594952 -33.610895
8.243477 -33.435563 -49.424254
21.679899 -49.929861 -14.434285
24.511389 -51.757063 -46.966860
44.855867 -57.201233 -17.298307
6.118191 -27.247907 -22.439692
5.869819 -26.288867 -27.601883
44.128049 -57.214385 -37.516531
15.125109 -44.113176 -13.906373
14.121951 -42.967232 -39.474761
27.915232 -53.548436 -45.871252
13.146142 -41.739136 -20.902783
44.565877 -57.206474 -17.311113
45.219741 -57.194649 -11.001361
39.643050 -56.899580 -44.377176
38.944513 -56.801092 -45.969732
10.657861 -38.103312 -41.372427
9.402435 -35.858500 -4.801947
9.362633 -35.782386 -41.515632
12.958184 -41.486673 -13.135522
30.667989 -54.694743 -32.376605
42.560163 -57.152201 -41.578613
5.506287 -24.885162 -40.943478
42.123376 -57.125532 -12.203744
36.177582 -56.305241 -34.438127
41.734681 -57.101799 -3.203312
27.415121 -53.302911 -39.305948
42.850019 -57.169899 -57.647203
32.486707 -55.320221 -15.797745
6.907687 -29.931284 -35.673157
5.430372 -24.592031 -40.317642
44.629343 -57.205323 -3.699791
16.077837 -45.150858 -24.276570
9.648941 -36.329895 -17.897967
6.630294 -29.104452 -21.714459
19.542597 -48.310026 -46.317490
14.258065 -43.122718 -31.856510
5.248008 -23.887871 -29.750357
19.739053 -48.473357 -39.127106
23.948298 -51.423020 -46.594510
25.318279 -52.235732 -29.132072
38.291966 -56.709085 -22.041030
31.982936 -55.165366 -20.350567
32.342450 -55.275881 -22.503834
11.272692 -39.082000 -14.376570
6.021343 -26.873946 -14.012926
27.514575 -53.351738 -36.074179
45.299448 -57.193216 -11.456627
36.771395 -56.437498 -54.438036
24.888914 -51.981022 -36.196969
36.933895 -56.473690 -43.189149
10.993068 -38.636896 -6.054067
11.172264 -38.922140 -17.618167
23.971240 -51.436626 -47.002989
38.055539 -56.675751 -16.975609
20.988861 -49.442214 -22.654932
30.257368 -54.532026 -44.562870
45.094583 -57.196918 -7.705763
36.839909 -56.452752 -44.353612
14.046889 -42.881485 -31.490891
5.125064 -23.413147 -29.475484
9.402301 -35.858244 -42.150177
26.829181 -53.015252 -44.396019
10.983011 -38.620889 -33.960776
44.829870 -57.201703 -12.154386
35.121967 -56.070126 -17.110216
11.092804 -38.795657 -12.714271
32.553397 -55.340724 -23.432876
27.886167 -53.534167 -31.858886
40.107093 -56.965004 -33.410772
9.102414 -35.284767 -35.858573
38.629928 -56.756740 -12.708336
28.146072 -53.661767 -35.444908
10.455003 -37.780403 -46.797133
8.278419 -33.517576 -15.054784
44.699572 -57.204054 -11.907969
32.531898 -55.334109 -18.632469
16.610701 -45.670319 -15.921785
14.719170 -43.649457 -46.645942
24.055712 -51.486741 -17.915520
5.883849 -26.343042 -15.761530
18.522781 -47.462166 -20.030852
9.116043 -35.310830 -33.622031
26.837702 -53.019435 -13.123632
26.090181 -52.652447 -9.535682
24.573885 -51.794134 -45.867370
7.106715 -30.524531 -41.866756
7.797354 -32.388449 -42.071230
27.260477 -53.226991 -48.477573
7.965949 -32.784165 -46.199873
44.932345 -57.199850 -10.279246
5.568288 -25.124568 -15.584081
12.822155 -41.303959 -12.398814
36.897215 -56.465521 -35.342228
21.297134 -49.659756 -16.220547
5.669331 -25.514724 -15.966202
14.846515 -43.794930 -49.135321
15.188405 -44.185483 -19.254864
36.357313 -56.345270 -49.298462
7.219158 -30.859688 -22.149921
21.104345 -49.523709 -32.906848
19.649947 -48.399272 -39.219770
26.407609 -52.808285 -28.282222
21.849862 -50.049796 -3.665451
8.166667 -33.255279 -7.144319
19.881668 -48.591921 -33.883062
45.282377 -57.193522 -37.875532
31.908551 -55.142500 -24.254424
32.455712 -55.310695 -16.251437
14.062613 -42.899446 -22.521155
10.419035 -37.723151 -31.783582
38.170785 -56.692001 -23.307299
13.369373 -42.038977 -20.210751
12.749751 -41.206707 -16.247691
16.928096 -45.979731 -5.326195
14.013072 -42.842855 -35.229779
5.420663 -24.554543 -29.943204
22.040058 -50.184012 -42.055571
17.638124 -46.671898 -40.918421
5.273490 -23.986265 -44.155454
42.974095 -57.177476 -45.419978
10.903314 -38.494026 -49.990571
46.151593 -57.177812 -37.293851
33.359551 -55.588523 -40.931548
44.301978 -57.211241 -28.552547
27.180844 -53.187897 -12.553534
8.074027 -33.037840 -42.974893
5.579163 -25.166560 -13.228951
17.212699 -46.257175 -43.554761
8.341564 -33.665787 -21.397235
24.762576 -51.906072 -47.614390
6.766500 -29.510443 -34.894431
32.677147 -55.378761 -48.210381
16.463126 -45.526456 -30.334858
9.146694 -35.369444 -32.004103
8.904206 -34.905732 -34.446292
33.245310 -55.553404 -45.253857
5.449504 -24.665908 -10.821400
29.137286 -54.088171 -24.582490
30.199017 -54.508903 -8.397468
41.739722 -57.102106 -21.302623
14.717520 -43.647573 -16.780535
30.107418 -54.472605 -44.620173
46.298624 -57.175154 -30.466036
46.038348 -57.179859 -38.750454
7.150235 -30.654251 -20.562274
46.394225 -57.173430 -36.737399
13.154724 -41.750663 -51.315701
11.259707 -39.061332 -25.048354
9.020644 -35.128399 -25.971796
12.398038 -40.734289 -45.721793
32.798639 -55.416106 -46.527878
27.175106 -53.185080 -47.485626
14.112760 -42.956733 -31.358336
33.499692 -55.631600 -50.382708
8.448040 -33.915701 -15.642740
5.151030 -23.513411 -47.074848
24.948017 -52.016081 -42.246924
21.005866 -49.454213 -23.398450
9.712719 -36.451859 -22.963995
21.628575 -49.893641 -3.357004
10.512659 -37.872180 -30.399181
32.602899 -55.355935 -10.782376
21.083220 -49.508801 -24.727838
9.319110 -35.699156 -38.203598
23.840536 -51.359091 -15.656070
24.100844 -51.513513 -22.500165
36.492851 -56.375456 -48.691359
42.477814 -57.147170 -31.971858
11.138849 -38.868949 -48.626202
35.015129 -56.046335 -22.475875
9.139125 -35.354968 -37.633084
23.594636 -51.213218 -14.686043
38.195563 -56.695495 -7.032546
33.681839 -55.687591 -25.119246
26.926227 -53.062897 -16.814769
41.792433 -57.105325 -4.556208
21.993025 -50.150821 -43.556100
35.427624 -56.138209 -10.033089
39.564572 -56.888515 -41.172162
36.444777 -56.364750 -11.570353
5.218438 -23.773691 -36.729628
5.388271 -24.429468 -44.304399
8.972713 -35.036740 -35.238200
5.244643 -23.874877 -53.309259
45.192439 -57.195150 -11.566929
45.632111 -57.187199 -39.681755
5.059497 -23.159975 -31.979410
21.350328 -49.697292 -47.014306
5.906313 -26.429781 -49.405842
20.868971 -49.357610 -12.337338
9.964797 -36.933909 -27.947922
5.297505 -24.078994 -27.073836
18.648310 -47.566530 -32.502367
14.480206 -43.376479 -43.113284
15.302347 -44.315644 -26.696712
7.009688 -30.235318 -10.766666
38.846127 -56.787218 -13.177632
19.085339 -47.929869 -17.851305
36.224311 -56.315648 -43.673574
19.249452 -48.066309 -42.021261
39.285780 -56.849205 -32.349809
5.776847 -25.929874 -2.606584
21.431661 -49.754685 -20.688720
5.604250 -25.263427 -7.065948
5.155433 -23.530412 -44.241436
30.555651 -54.650223 -40.967742
17.640810 -46.674518 -33.710621
35.905174 -56.244568 -13.103511
24.408344 -51.695933 -43.930777
32.580126 -55.348934 -54.654932
10.409839 -37.708512 -34.929788
14.831331 -43.777584 -10.015863
26.637873 -52.921334 -22.063967
5.267359 -23.962591 -42.924016
6.262295 -27.804333 -26.192575
7.663855 -32.075106 -33.480644
23.782286 -51.324534 -31.099355
14.538901 -43.443528 -29.855439
7.082238 -30.451570 -12.195898
16.909761 -45.961856 -6.430067
39.813303 -56.923581 -26.640974
19.230469 -48.050525 -47.229641
17.266722 -46.309838 -47.217855
24.908796 -51.992814 -46.471854
24.357703 -51.665889 -12.282070
23.578160 -51.203439 -21.339988
27.509314 -53.349152 -42.429757
45.963930 -57.181203 -45.533090
5.318658 -24.160672 -36.823248
30.873033 -54.775995 -28.885470
14.068920 -42.906651 -27.091561
5.931795 -26.528175 -13.508720
5.209174 -23.737922 -37.333180
27.597439 -53.392420 -45.118785
14.660700 -43.582664 -44.483619
8.377851 -33.750958 -7.492912
12.401060 -40.738348 -47.406514
32.416046 -55.298498 -16.066616
36.676219 -56.416298 -31.918218
36.654847 -56.411535 -43.140445
38.697515 -56.766266 -9.764121
22.496075 -50.505809 -43.656967
14.607961 -43.522419 -48.104206
5.917683 -26.473684 -6.036013
14.463301 -43.357167 -36.330470
36.742651 -56.431095 -31.127193
14.450547 -43.342600 -47.523038
9.372523 -35.801298 -39.273799
19.273423 -48.086238 -39.627659
17.263336 -46.306538 -31.809096
5.741566 -25.793645 -55.996638
21.617812 -49.886047 -7.513821
6.078012 -27.092765 -17.310005
19.426407 -48.213427 -8.646420
46.426448 -57.172847 -18.979339
44.591862 -57.206001 -15.516525
6.764128 -29.503375 -46.146855
17.115460 -46.162381 -38.091478
10.809733 -38.345063 -40.283602
44.713238 -57.203807 -14.979694
32.187332 -55.228198 -41.334613
7.193736 -30.783913 -21.172479
21.459827 -49.774562 -7.997689
5.092815 -23.288623 -53.732503
42.876337 -57.171508 -52.185721
17.399904 -46.439670 -41.302435
21.375010 -49.714709 -17.025540
5.151172 -23.513959 -29.179776
24.975370 -52.032310 -42.090209
12.854354 -41.347210 -14.009245
13.902288 -42.716304 -30.713531
5.392569 -24.446062 -29.613141
17.068802 -46.116897 -42.443653
7.870638 -32.560457 -34.775535
19.557554 -48.322460 -49.491623
9.281920 -35.628036 -40.741210
42.163929 -57.128012 -16.774797
5.397252 -24.464146 -37.117711
42.381117 -57.141269 -7.435386
5.119717 -23.392502 -48.287952
9.086825 -35.254956 -49.433493
5.781343 -25.947236 -15.826291
6.204205 -27.580030 -25.120896
32.386709 -55.289480 -15.683843
33.406723 -55.603020 -39.850709
22.264935 -50.342702 -38.908855
5.095953 -23.300742 -25.101947
38.870902 -56.790711 -7.969447
44.180095 -57.213442 -16.493624
15.252301 -44.258474 -8.838006
39.134250 -56.827843 -19.724116
38.752357 -56.773998 -4.612974
35.413979 -56.135170 -31.804354
29.556937 -54.254468 -12.955697
25.065147 -52.085567 -39.063211
29.808032 -54.353967 -5.120852
5.924818 -26.501237 -22.511285
16.675249 -45.733242 -14.920148
15.093976 -44.077612 -15.861997
26.762467 -52.982500 -9.391474
10.582891 -37.983974 -41.456519
13.440027 -42.133880 -32.744411
5.973787 -26.690319 -22.641066
22.401418 -50.439012 -44.005252
33.567471 -55.652435 -32.486638
24.375027 -51.676166 -39.876441
22.046777 -50.188753 -28.845303
6.824900 -29.684519 -44.170808
27.810646 -53.497092 -37.528877
8.324632 -33.626046 -11.779321
6.120145 -27.255451 -20.947339
37.918059 -56.656368 -27.027361
39.491523 -56.878213 -36.795832
5.882386 -26.337394 -26.092674
18.324665 -47.297455 -23.262518
26.045702 -52.630612 -31.448425
5.457218 -24.695693 -41.423356
21.319839 -49.675775 -20.820214
9.715813 -36.457774 -16.631198
7.859466 -32.534235 -43.161455
5.015898 -22.991626 -19.069834
22.276042 -50.350542 -40.573230
39.555342 -56.887212 -35.539024
11.354262 -39.211845 -21.521978
22.416283 -50.449505 -46.436275
36.566031 -56.391759 -5.647956
41.362650 -57.079089 -10.572242
16.323459 -45.390301 -21.768343
12.626891 -41.041683 -49.263810
13.088763 -41.662064 -36.236118
14.376235 -43.257710 -40.372845
8.414345 -33.836616 -20.460698
10.858306 -38.422382 -35.307722
9.099593 -35.279370 -21.225273
16.381819 -45.447195 -8.398647
26.443359 -52.825838 -28.542184
5.878430 -26.322118 -16.480556
14.479977 -43.376218 -36.100470
21.230513 -49.612739 -12.354892
9.206101 -35.483048 -27.045089
12.693502 -41.131154 -45.276958
5.407324 -24.503038 -32.423209
36.088574 -56.285416 -7.352507
16.921182 -45.972989 -36.310511
7.772585 -32.330312 -22.129030
18.501918 -47.444821 -16.314660
41.424102 -57.082838 -27.728505
7.832875 -32.471820 -35.161066
7.746866 -32.269945 -37.697120
6.220339 -27.642328 -27.634104
41.374046 -57.079777 -27.399356
22.413785 -50.447740 -30.998861
27.216709 -53.205504 -40.063073
21.986856 -50.146470 -51.146238
29.232249 -54.125803 -29.902711
6.140741 -27.334976 -19.959755
7.932167 -32.704873 -37.484224
34.868327 -56.013639 -20.033922
10.545066 -37.923764 -40.210461
21.014596 -49.460374 -16.890025
8.312290 -33.597078 -16.476271
9.096888 -35.274200 -41.418110
11.188577 -38.948106 -6.427223
35.405361 -56.133250 -8.074477
19.552490 -48.318251 -39.430649
5.388113 -24.428857 -53.932958
9.393801 -35.841987 -42.656256
10.544422 -37.922742 -44.949590
5.423320 -24.564801 -35.390517
21.575944 -49.856503 -19.497812
16.471573 -45.534688 -18.672995
11.496235 -39.437836 -11.167668
33.832012 -55.733754 -32.932291
5.207960 -23.733234 -30.784927
9.822395 -36.661593 -18.431337
26.063270 -52.639235 -36.015046
11.255920 -39.055303 -13.241723
32.971452 -55.469223 -32.606800
6.827305 -29.691685 -32.523505
12.572173 -40.968185 -44.975146
29.027137 -54.044524 -19.717597
33.153201 -55.525095 -28.815446
26.706539 -52.955041 -14.750347
24.263907 -51.610244 -50.140511
18.830861 -47.718302 -18.339800
42.171555 -57.128473 -38.434593
18.928987 -47.799877 -10.370829
30.677353 -54.698451 -35.427122
10.905204 -38.497032 -49.239766
27.250846 -53.222265 -9.451012
22.044434 -50.187104 -54.162868
18.764921 -47.663477 -8.022610
8.927551 -34.950375 -19.736315
36.349318 -56.343489 -35.511024
14.878466 -43.831428 -45.679938
12.242029 -40.524739 -41.069729
14.202590 -43.059347 -35.359513
26.953347 -53.076209 -17.449873
35.959528 -56.256676 -4.301744
45.290283 -57.193377 -45.083541
37.861989 -56.648468 -43.633705
9.047402 -35.179568 -33.105074
9.264203 -35.594156 -1.335570
39.878892 -56.932832 -40.413206
24.200289 -51.572507 -19.163167
23.303548 -51.040534 -16.717421
16.848457 -45.902092 -33.305541
26.852789 -53.026844 -55.443457
38.653970 -56.760127 -13.012174
10.418707 -37.722627 -38.326287
42.831107 -57.168746 -34.488827
5.710576 -25.673984 -40.473184
29.903406 -54.391760 -44.197647
15.959721 -45.035715 -20.873379
5.967457 -26.665876 -32.501217
36.173252 -56.304275 -53.855768
9.222830 -35.515040 -43.377085
10.961215 -38.586191 -41.754153
7.730539 -32.231623 -27.245588
5.456553 -24.693124 -49.398529
9.586638 -36.210752 -14.536369
14.195678 -43.051454 -44.155846
38.566366 -56.747779 -18.259674
5.546367 -25.039922 -37.326449
5.124679 -23.411661 -42.982464
5.445242 -24.649449 -46.545329
11.133381 -38.860245 -20.163440
14.391104 -43.274695 -38.177402
39.116552 -56.825348 -46.694774
5.573134 -25.143277 -42.724744
39.851517 -56.928971 -44.914441
30.408897 -54.592070 -11.422114
8.169854 -33.262759 -44.603409
29.127593 -54.084333 -19.496446
11.286652 -39.104223 -3.564846
18.776213 -47.672865 -18.629686
36.482373 -56.373122 -47.110832
44.524218 -57.207221 -29.161572
33.097688 -55.508029 -47.763587
42.763569 -57.164622 -41.765883
5.605702 -25.269034 -2.102986
14.208917 -43.066575 -43.508512
12.614191 -41.024625 -53.775936
5.480684 -24.786301 -32.066774
18.968732 -47.832923 -13.362930
14.990445 -43.959345 -14.653271
29.753060 -54.332185 -50.037537
14.254651 -43.118819 -34.892229
41.334080 -57.077339 -17.334725
11.226767 -39.008898 -14.703363
41.119669 -57.064249 -27.950936
6.807295 -29.632042 -49.638317
16.293600 -45.361192 -24.059694
30.839325 -54.762633 -34.757665
30.760855 -54.731543 -32.384427
29.966723 -54.416855 -17.374367
12.700303 -41.140288 -34.640707
14.174918 -43.027737 -40.770756
17.225079 -46.269244 -36.742965
30.448846 -54.607900 -31.301395
44.906681 -57.200312 -9.684807
7.900035 -32.629455 -42.078863
5.163994 -23.563469 -34.569143
45.269121 -57.193760 -19.011887
39.027846 -56.812842 -43.985101
23.769462 -51.316929 -18.881718
39.941824 -56.941702 -36.630965
24.268121 -51.612748 -46.533831
39.076190 -56.819656 -39.170610
30.538025 -54.643242 -29.364905
7.759090 -32.298638 -28.786203
9.543704 -36.128650 -17.283383
5.133796 -23.446865 -28.077082
5.183199 -23.637623 -34.796779
13.272446 -41.908786 -30.032717
16.715230 -45.772217 -12.927500
27.356360 -53.274065 -47.641797
5.567324 -25.120844 -42.681323
18.817436 -47.707138 -7.458554
29.663211 -54.296581 -16.914720
42.681254 -57.159596 -33.766641
17.577087 -46.612395 -35.876765
12.380367 -40.710554 -32.229678
7.196499 -30.792150 -10.132671
12.156507 -40.409869 -27.148571
45.715264 -57.185697 -50.233393
16.483285 -45.546107 -11.271854
33.207098 -55.541662 -41.036329
27.602614 -53.394959 -41.629510
15.069722 -44.049908 -10.228717
5.947164 -26.587519 -21.148452
32.611078 -55.358452 -20.691538
26.662890 -52.933613 -16.289336
17.134918 -46.181348 -38.971756
46.385775 -57.173581 -34.727517
39.067291 -56.818403 -42.989756
44.684257 -57.204331 -19.392950
11.168252 -38.915754 -21.867234
5.753020 -25.837873 -18.627580
38.587472 -56.750751 -16.009040
39.626188 -56.897201 -51.687784
6.110666 -27.218850 -26.730165
5.124922 -23.412601 -31.198885
30.726748 -54.718024 -42.753486
12.609291 -41.018043 -31.698788
33.508873 -55.634425 -30.771336
5.243738 -23.871384 -34.911596
46.093230 -57.178861 -45.115936
13.304185 -41.951418 -33.065195
16.873003 -45.926021 -5.943471
14.480884 -43.377255 -49.422108
45.151765 -57.195885 -46.201724
39.352170 -56.858570 -39.852784
20.024429 -48.710612 -31.769306
42.861969 -57.170628 -54.862864
16.463918 -45.527227 -14.947049
15.459893 -44.495614 -13.587502
36.982738 -56.484565 -41.531315
23.874414 -51.379185 -13.739242
7.192988 -30.781685 -26.659916
26.597693 -52.901606 -28.982552
33.156209 -55.526018 -11.353024
38.794676 -56.779962 -14.024160
26.961444 -53.080186 -6.755071
37.082921 -56.506880 -30.720378
5.895191 -26.386838 -17.095210
28.075015 -53.626880 -36.458089
21.219001 -49.604617 -19.098637
21.300238 -49.661944 -3.809163
5.498323 -24.854412 -33.772465
5.880400 -26.329722 -52.611184
41.989504 -57.117358 -15.610144
32.740910 -55.398361 -37.635129
8.389914 -33.779272 -28.242030
19.101901 -47.943638 -12.735336
36.031810 -56.272776 -15.537372
16.362545 -45.428405 -21.577119
39.718065 -56.910153 -31.486917
10.491060 -37.837798 -21.140826
7.052934 -30.364223 -9.628142
21.030730 -49.471760 -25.306799
32.169064 -55.222581 -16.947274
6.176200 -27.471894 -22.882480
35.016278 -56.046591 -20.119029
45.361341 -57.192093 -39.361339
9.036832 -35.159355 -25.772232
43.038586 -57.181414 -28.880751
5.499595 -24.859323 -41.115777
11.169114 -38.917125 -18.632996
21.630240 -49.894816 -10.358787
16.682565 -45.740374 -6.009005
19.628909 -48.381782 -40.571481
16.881645 -45.934448 -10.050723
10.589246 -37.994090 -42.504525
30.404645 -54.590385 -45.490908
33.386727 -55.596878 -29.521894
24.498348 -51.749325 -43.742362
12.274513 -40.568371 -28.776727
30.409203 -54.592190 -38.075948
41.057971 -57.060482 -15.131344
10.809773 -38.345124 -27.324884
14.774346 -43.712488 -44.253456
6.227990 -27.671874 -15.180468
7.028909 -30.292611 -11.289738
5.212040 -23.748988 -33.633003
38.203208 -56.696573 -20.745014
12.511861 -40.887176 -40.463645
27.130703 -53.163282 -1.952091
19.925774 -48.628592 -30.323465
7.825798 -32.455211 -24.956944
19.084292 -47.928998 -26.032519
45.538740 -57.188890 -36.080128
5.092904 -23.288969 -36.173968
9.663724 -36.358164 -26.786033
16.265569 -45.333867 -10.622524
14.539281 -43.443964 -49.512290
26.433425 -52.820961 -20.558065
30.564638 -54.653784 -23.104308
21.977756 -50.140047 -17.486588
10.841305 -38.395319 -30.803704
5.348812 -24.277106 -27.633274
7.349412 -31.247939 -29.285794
5.676133 -25.540989 -15.440275
46.274300 -57.175593 -27.256073
10.768306 -38.279120 -47.695752
45.039772 -57.197907 -18.242772
5.996109 -26.776512 -24.174800
21.376305 -49.715622 -10.278989
45.096380 -57.196882 -12.058502
39.291561 -56.850021 -47.042932
30.309380 -54.552637 -38.072680
42.669895 -57.158905 -54.455659
30.535991 -54.642432 -38.343728
41.874423 -57.110336 -16.727986
15.266007 -44.274130 -8.527571
9.688408 -36.405368 -20.682260
9.872257 -36.756944 -19.408391
5.641466 -25.407131 -44.437216
13.264923 -41.898682 -16.372190
15.253778 -44.260160 -15.984144
8.300289 -33.568909 -14.934090
42.634211 -57.156726 -46.032629
17.439956 -46.478715 -43.627840
29.274616 -54.142591 -25.058249
9.843997 -36.702902 -15.655973
10.572269 -37.967067 -45.297707
18.985237 -47.846645 -22.329580
25.114522 -52.114859 -22.582095
30.035529 -54.444116 -39.327444
17.196981 -46.241853 -32.964341
21.808995 -50.020960 -48.982842
16.609376 -45.669027 -28.284787
14.272611 -43.139337 -24.684775
9.781955 -36.584259 -19.359881
19.183992 -48.011887 -3.397029
22.267210 -50.344306 -47.097640
7.898994 -32.627013 -36.696839
8.039056 -32.955759 -46.859655
17.229553 -46.273602 -41.688494
19.124720 -47.962610 -8.395466
5.921783 -26.489516 -24.543558
5.566656 -25.118267 -9.418699
27.626253 -53.406565 -39.674384
30.044667 -54.447738 -45.449978
6.893553 -29.889153 -42.100584
9.797173 -36.613360 -14.927128
40.037221 -56.955152 -45.045447
26.516405 -52.861698 -21.322442
41.832732 -57.107788 -20.431844
19.842926 -48.559715 -41.296274
29.461120 -54.216499 -22.947235
9.917851 -36.844132 -27.835959
17.858809 -46.887032 -26.910825
14.621118 -43.537448 -43.233883
29.794560 -54.348628 -13.979646
21.195268 -49.587869 -21.625453
6.883873 -29.860300 -49.937524
6.251968 -27.764459 -21.819811
5.557818 -25.084138 -51.794903
21.492363 -49.797519 -19.620753
29.592407 -54.268523 -5.427988
29.127666 -54.084358 -16.212456
23.478624 -51.144394 -16.769507
16.959532 -46.010375 -38.325548
26.548044 -52.877230 -15.342614
43.419452 -57.204665 -18.706082
6.102500 -27.187317 -15.782980
11.160231 -38.902986 -39.636903
19.977849 -48.671886 -30.080270
16.535197 -45.596713 -24.437527
9.102322 -35.284592 -36.423316
7.775548 -32.337265 -32.182566
6.930827 -30.000256 -14.690985
6.970519 -30.118566 -13.788257
7.318743 -31.156523 -16.716888
7.048495 -30.350992 -45.702406
27.318511 -53.255482 -33.020151
6.069397 -27.059497 -26.570609
42.536615 -57.150766 -36.298161
28.036512 -53.607977 -34.172267
44.869310 -57.200988 -26.233702
42.394395 -57.142080 -44.534614
5.209358 -23.738631 -23.371660
10.952024 -38.571561 -40.278223
9.425902 -35.903375 -19.045005
8.266642 -33.489935 -51.011653
29.147459 -54.092205 -15.182190
44.727431 -57.203549 -13.931953
45.899516 -57.182368 -32.802721
12.640887 -41.060481 -45.363184
12.212696 -40.485340 -48.502077
8.239180 -33.425478 -16.017829
41.468244 -57.085535 -10.976141
8.212609 -33.363110 -22.860185
45.220987 -57.194632 -17.462802
10.746028 -38.243658 -37.488952
24.356860 -51.665390 -39.449557
35.321244 -56.114516 -26.103752
10.765673 -38.274928 -38.287272
22.596890 -50.576953 -25.844108
18.640740 -47.560236 -22.735969
5.165053 -23.567558 -29.574082
27.464622 -53.327214 -40.764355
35.839951 -56.230043 -3.855982
27.598399 -53.392888 -40.849386
42.925793 -57.174527 -51.853519
5.212853 -23.752127 -43.265505
19.872276 -48.584115 -35.992040
33.256852 -55.556956 -8.501547
44.689279 -57.204245 -13.976412
33.252122 -55.555500 -47.010628
14.740461 -43.673778 -16.646374
9.206352 -35.483527 -31.268048
7.201078 -30.805798 -10.826466
39.973715 -56.946199 -27.212974
10.543492 -37.921259 -38.968845
7.270103 -31.011542 -35.529406
5.581955 -25.177341 -47.621257
7.668946 -32.087056 -19.636045
26.860830 -53.030791 -21.685072
46.178347 -57.177329 -36.545190
5.403130 -24.486845 -47.244783
6.885081 -29.863901 -42.729794
5.217488 -23.770022 -38.945006
36.189062 -56.307800 -6.828416
13.234576 -41.857919 -9.857920
5.909736 -26.442999 -44.272777
12.860270 -41.355156 -21.198445
21.228289 -49.611169 -25.166441
9.604347 -36.244616 -13.557729
21.931574 -50.107458 -33.414323
23.458207 -51.132279 -13.478735
17.555997 -46.591835 -25.908290
36.331725 -56.339570 -44.399384
19.107833 -47.948569 -15.622243
29.120589 -54.081558 -16.914445
39.649803 -56.900529 -52.816741
38.314503 -56.712267 -17.376240
19.236573 -48.055602 -2.871965
34.697313 -55.975547 -34.954793
20.977528 -49.434216 -20.644896
38.282244 -56.707719 -17.137787
12.598656 -41.003759 -44.351896
13.024690 -41.576004 -13.769199
41.322136 -57.076606 -18.926864
8.235021 -33.415715 -10.332105
12.455826 -40.811909 -45.524506
11.648223 -39.679772 -27.990599
9.184263 -35.441287 -46.051343
7.834866 -32.476494 -53.046661
39.935497 -56.940810 -32.418080
35.616027 -56.180166 -16.830580
5.518332 -24.931672 -39.784993
21.859000 -50.056248 -20.850208
13.512488 -42.231208 -13.154431
32.466297 -55.313946 -17.488986
24.933442 -52.007437 -37.888245
6.153573 -27.384526 -23.592914
41.570558 -57.091781 -20.792846
12.068575 -40.291760 -38.200373
45.881926 -57.182686 -43.795367
21.080001 -49.506529 -35.141937
21.724262 -49.961166 -47.099636
11.388066 -39.265653 -30.140012
39.066314 -56.818261 -47.053645
6.098806 -27.173056 -26.053200
19.085891 -47.930326 -9.196249
14.733128 -43.665401 -42.076912
5.967336 -26.665409 -20.924293
10.951406 -38.570578 -47.055487
21.104646 -49.523920 -9.095477
26.018595 -52.617305 -10.747515
36.012347 -56.268438 -43.367432
33.436943 -55.612312 -43.501913
29.571223 -54.260131 -10.311032
21.995518 -50.152582 -29.778993
10.736355 -38.228259 -36.895510
45.930332 -57.181814 -46.856416
5.821571 -26.102568 -20.751952
33.385778 -55.596584 -45.125294
42.277417 -57.134941 -46.150599
29.732099 -54.323879 -22.114287
45.705045 -57.185883 -47.868296
9.786981 -36.593870 -25.706418
32.252371 -55.248187 -13.905013
10.645628 -38.083839 -32.795069
30.796338 -54.745602 -38.585559
7.054830 -30.369875 -40.058045
24.094821 -51.509938 -14.244937
26.441578 -52.824961 -25.551240
9.701845 -36.431064 -26.291129
13.166881 -41.766992 -5.841057
36.455532 -56.367146 -30.097423
38.164003 -56.691045 -20.094220
22.153036 -50.263736 -35.529369
13.012566 -41.559720 -19.892744
17.390213 -46.430223 -40.567560
12.054055 -40.272253 -34.601993
14.180065 -43.033618 -33.735472
15.048551 -44.025721 -21.465678
32.403723 -55.294711 -15.416989
42.851600 -57.169994 -33.991186
16.045352 -45.119190 -18.227269
18.642084 -47.561353 -17.435256
21.050815 -49.485932 -20.352927
9.184428 -35.441602 -42.951346
30.926376 -54.797131 -34.249841
7.875512 -32.571895 -30.006184
5.638588 -25.396015 -49.887195
5.947047 -26.587068 -25.557584
27.477965 -53.333766 -45.105041
45.599106 -57.187792 -34.016805
19.976951 -48.671142 -41.324544
10.776971 -38.292910 -47.201860
13.286466 -41.927616 -16.965940
30.419859 -54.596414 -45.113633
27.969373 -53.575015 -22.554700
13.046195 -41.604889 -19.908344
11.362258 -39.224571 -25.523634
14.632317 -43.550242 -48.848113
11.023603 -38.685500 -46.101812
8.379282 -33.754318 -27.359781
9.635603 -36.304388 -18.316700
17.199833 -46.244632 -36.505036
15.038955 -44.014760 -16.743222
15.333979 -44.351776 -18.728819
13.182440 -41.787891 -7.502721
15.246833 -44.252228 -17.199506
29.653394 -54.292690 -18.512217
8.086358 -33.066781 -13.594288
15.182901 -44.179196 -20.702448
29.273161 -54.142018 -36.496935
11.479988 -39.411974 -32.292125
23.784112 -51.325619 -9.129113
10.573421 -37.968902 -31.178284
35.224084 -56.092871 -38.581972
11.317858 -39.153897 -16.168713
19.524669 -48.295121 -45.261939
12.290016 -40.589195 -25.730014
5.466863 -24.732933 -44.054238
17.342356 -46.383572 -40.399481
10.473195 -37.809361 -36.873800
30.374966 -54.578625 -37.183462
17.276967 -46.319827 -53.333442
9.537942 -36.117632 -21.213918
13.339849 -41.999322 -19.589978
45.755700 -57.184967 -36.420292
16.391401 -45.456532 -18.191181
35.407307 -56.133681 -8.031431
10.943067 -38.557302 -50.759124
44.430984 -57.208908 -23.605420
42.032936 -57.120012 -7.114360
17.133543 -46.180010 -34.340930
11.200275 -38.966727 -51.730914
26.746449 -52.974632 -21.343491
35.215586 -56.090983 -16.398634
23.754776 -51.308213 -33.234297
5.153845 -23.524281 -39.430518
32.907786 -55.449655 -48.115457
14.789768 -43.730102 -54.856815
41.212066 -57.069889 -39.664774
33.156255 -55.526030 -4.334969
5.615288 -25.306048 -49.478117
27.522851 -53.355801 -40.719564
16.833304 -45.887323 -16.441542
5.941193 -26.564465 -20.303481
18.897070 -47.773345 -52.876899
44.416342 -57.209170 -22.132469
5.525154 -24.958014 -43.346409
11.434537 -39.339625 -28.924256
12.369103 -40.695424 -34.261901
41.820254 -57.107025 -21.856477
11.147000 -38.881924 -10.889198
21.749393 -49.978899 -52.690580
5.612573 -25.295563 -35.329630
46.406214 -57.173209 -44.924165
31.841196 -55.121798 -29.600364
32.381880 -55.287997 -28.608361
20.004897 -48.694371 -41.136988
19.374967 -48.170662 -9.965322
10.704163 -38.177015 -36.374025
6.394350 -28.314239 -8.432842
7.789446 -32.369887 -36.144948
39.948972 -56.942708 -44.691912
45.238377 -57.194315 -18.918081
32.218705 -55.237840 -24.941018
8.248538 -33.447440 -52.184643
46.318469 -57.174799 -34.217429
38.965285 -56.804020 -42.131891
45.730959 -57.185412 -7.844085
5.119446 -23.391453 -41.030258
29.951056 -54.410643 -40.611461
9.059936 -35.203536 -30.626611
8.277422 -33.515235 -22.246945
39.725816 -56.911250 -31.626790
25.110448 -52.112443 -38.013534
22.051248 -50.191909 -43.365695
44.674894 -57.204502 -14.345848
29.568074 -54.258880 -22.581783
27.849465 -53.516148 -31.383494
17.012696 -46.062203 -41.572480
5.247381 -23.885449 -49.895955
15.104470 -44.089600 -17.601370
15.191458 -44.188969 0.779946
29.250110 -54.132881 -16.832521
5.869819 -26.288867 -14.196018
7.925005 -32.688064 -40.121213
40.072678 -56.960153 -31.184733
5.900062 -26.405645 -1.330140
18.531444 -47.469369 -26.925207
14.703333 -43.631368 -16.170257
44.456822 -57.208440 -16.652647
9.558621 -36.157176 -17.663894
39.087033 -56.821183 -13.649873
23.748269 -51.304355 -31.840145
44.247005 -57.212234 -24.134266
32.354558 -55.279597 -20.631900
34.760740 -55.989681 -40.396137
15.275738 -44.285246 -16.480465
7.995208 -32.852839 -47.043823
11.226813 -39.008970 -7.668086
19.561302 -48.325576 -52.436608
7.291304 -31.074737 -23.553698
38.582256 -56.750018 -18.744434
7.025621 -30.282810 -12.752865
33.551599 -55.647556 -45.728818
7.672871 -32.096270 -43.987940
35.193700 -56.086108 -19.418361
16.766113 -45.821822 -7.367413
44.203396 -57.213020 -9.590733
16.513439 -45.575502 -21.076447
33.763053 -55.712553 -32.227864
42.762996 -57.164582 -37.696452
45.879914 -57.182726 -43.518177
5.308765 -24.122472 -31.835846
15.099418 -44.083830 -28.800437
29.258789 -54.136321 -27.464583
5.187081 -23.652614 -43.663189
27.819692 -53.501533 -41.353569
9.630974 -36.295536 -18.097353
6.203901 -27.578856 -22.452626
20.899149 -49.378908 -19.592021
7.858569 -32.532129 -31.963119
17.249540 -46.293088 -38.231945
38.623446 -56.755821 -4.294527
22.125039 -50.243980 -42.619309
45.567999 -57.188359 -45.950953
26.198552 -52.705654 -18.128823
19.001189 -47.859907 -52.229455
20.961612 -49.422984 -32.711382
42.990474 -57.178477 -38.624905
11.177578 -38.930598 -18.985058
42.572122 -57.152935 -49.308829
6.642953 -29.142187 -33.650760
24.499969 -51.750286 -13.390913
27.918137 -53.549863 -33.849967
39.182641 -56.834664 -8.944476
33.745263 -55.707085 -36.797782
12.838300 -41.325647 -44.195544
14.507752 -43.407947 -41.158846
9.679643 -36.388606 -20.178599
11.260553 -39.062678 -26.426538
35.980649 -56.261376 -1.397570
41.365852 -57.079282 -25.018692
26.820851 -53.011164 -7.129865
42.033520 -57.120048 -46.813623
15.233077 -44.236511 -16.879067
27.163080 -53.179174 -42.337214
19.602755 -48.360040 -35.424709
35.289961 -56.107547 -25.731827
36.342629 -56.341999 -34.168644
41.491554 -57.086959 -22.726099
11.344880 -39.196910 -24.602844
31.101209 -54.866415 -15.174474
7.012820 -30.244654 -55.436920
13.397191 -42.076342 -23.972392
13.564206 -42.300677 -20.895553
7.993329 -32.848428 -55.716100
10.607939 -38.023846 -43.931262
38.213341 -56.698004 -34.489690
23.215878 -50.988525 -21.561401
16.593419 -45.653471 -13.965322
8.286166 -33.535759 -47.772514
14.451426 -43.343603 -41.103480
7.067447 -30.407481 -23.833357
36.043795 -56.275442 -42.268848
11.239058 -39.028462 -10.451217
39.489861 -56.877981 -40.962806
6.132697 -27.303919 -9.373432
7.258196 -30.976051 -20.173875
16.669814 -45.727944 -12.005957
42.856749 -57.170314 -4.231613
27.205533 -53.200017 -14.182458
36.978297 -56.483579 -35.517227
8.518039 -34.080001 -29.843798
35.578214 -56.171750 -17.626861
21.863312 -50.059287 -34.847676
36.461815 -56.368544 -39.608042
42.621426 -57.155938 -39.531874
18.792583 -47.686476 -29.375112
8.084348 -33.062065 -46.043628
44.691545 -57.204199 -13.026790
26.868432 -53.034522 -14.813727
41.693348 -57.099276 -7.082079
23.715022 -51.284632 -29.438779
12.770312 -41.234325 -36.335651
15.303353 -44.316791 -25.577088
33.443143 -55.614217 -31.576294
10.780185 -38.298028 -38.837056
10.991480 -38.634368 -46.385238
32.688105 -55.382127 -6.575853
6.845435 -29.745727 -48.054873
15.019006 -43.991971 -21.816066
35.238323 -56.096048 -23.958053
13.444102 -42.139353 -16.353806
27.339484 -53.265783 -45.111562
44.430993 -57.208912 -8.977986
14.845792 -43.794102 -13.506760
18.931625 -47.802074 -13.854674
18.802277 -47.694533 -22.043941
26.161616 -52.687516 -28.760253
33.591436 -55.659798 -41.843937
7.855064 -32.523902 -45.461376
5.666266 -25.502889 -13.589434
12.780562 -41.248092 -12.338230
38.049825 -56.674947 -31.708128
16.408709 -45.473405 -20.865615
11.378803 -39.250909 -24.143919
6.107336 -27.205992 -12.844911
42.083556 -57.123100 -3.886070
6.009702 -26.828998 -33.877845
7.610840 -31.950674 -36.796941
19.453127 -48.235641 -38.957673
39.261574 -56.845795 -44.320821
30.429797 -54.600356 -32.737956
17.316252 -46.358123 -36.858293
44.702500 -57.204000 -27.579536
6.018253 -26.862014 -21.076174
33.392040 -55.598511 -40.868434
6.910275 -29.938996 -34.750971
7.969739 -32.793059 -35.324734
9.583518 -36.204787 -14.243331
10.511724 -37.870692 -16.266794
5.298407 -24.082475 -44.529045
42.745675 -57.163531 -25.216140
27.648911 -53.417690 -49.254109
9.224313 -35.517875 -33.063426
18.726713 -47.631714 -27.304239
6.055811 -27.007038 -32.230926
21.784327 -50.003554 -43.939260
9.778228 -36.577132 -16.955751
38.094802 -56.681293 -11.516132
5.996020 -26.776169 -14.313827
35.207181 -56.089110 -10.341079
32.194208 -55.230307 -5.080890
27.424674 -53.307602 -47.620610
11.272065 -39.081003 -53.703618
5.157207 -23.537260 -47.111071
6.799188 -29.607877 -39.727280
8.603986 -34.281730 -24.652156
6.723082 -29.381028 -41.824429
7.948619 -32.743489 -36.822549
14.191832 -43.047059 -26.057992
10.570086 -37.963592 -37.854249
11.289745 -39.109144 -16.024551
27.635016 -53.410867 -36.629068
30.402000 -54.589337 -36.380567
42.732891 -57.162749 -37.604528
6.732597 -29.409390 -32.368301
9.595708 -36.228096 -7.174702
44.698529 -57.204070 -29.308288
19.373618 -48.169539 -50.073190
10.725932 -38.211667 -32.621206
8.969069 -35.029772 -28.179646
44.948529 -57.199557 -4.319730
14.112917 -42.956914 -26.113535
36.088138 -56.285316 -9.977780
19.740936 -48.474922 -45.271574
9.719553 -36.464927 -56.073290
21.637877 -49.900208 -13.864213
32.425192 -55.301310 -24.669182
35.088163 -56.062597 -15.684155
14.939196 -43.900800 -23.412130
12.519076 -40.896866 -42.852257
7.734677 -32.241338 -42.747036
25.037310 -52.069052 -35.808950
33.304984 -55.571752 -50.050068
24.170476 -51.554822 -13.421454
30.764965 -54.733171 -45.317579
12.644506 -41.065345 -8.144189
42.898852 -57.172882 -36.905025
36.540872 -56.386152 -45.478710
27.923129 -53.552312 -50.638750
42.512647 -57.149301 -45.427310
24.848913 -51.957290 -30.880414
38.353534 -56.717772 -22.187459
18.949446 -47.816888 -26.669102
35.513445 -56.157320 -14.662075
9.578563 -36.195311 -17.112557
29.924679 -54.400193 -45.507826
18.462949 -47.412423 -29.165404
45.163790 -57.195664 -21.508276
6.263799 -27.810143 -25.098828
29.436686 -54.206818 -21.796239
39.611570 -56.895141 -39.328261
5.423514 -24.565551 -42.029863
41.464450 -57.085301 -28.304720
42.728095 -57.162456 -33.452976
8.108766 -33.119377 -12.877040
29.471531 -54.220621 -28.743520
27.746445 -53.465570 -41.628230
23.821870 -51.348017 -19.349329
29.349531 -54.172279 -18.215350
17.475067 -46.512946 -32.439615
19.890497 -48.599266 -28.284559
6.845818 -29.746870 -43.063459
5.324270 -24.182341 -34.070427
13.207080 -41.820988 -5.436782
5.322098 -24.173955 -41.828432
45.654801 -57.186791 -28.537019
8.390595 -33.780870 -15.398308
17.314123 -46.356047 -38.431494
14.781933 -43.721153 -8.983269
25.187476 -52.158136 -32.160083
12.450708 -40.805035 -38.509393
13.290964 -41.933659 -20.143476
17.328314 -46.369883 -33.789145
18.913797 -47.787251 -17.521164
18.647030 -47.565466 -22.591498
38.943472 -56.800944 -13.334216
7.992430 -32.846319 -47.392293
22.337763 -50.394095 -26.315816
13.232607 -41.855275 -15.369003
32.134806 -55.212052 -6.353148
7.177376 -30.735150 -22.842601
23.916436 -51.404117 -30.595370
27.020009 -53.108938 -5.783003
16.548043 -45.609236 -12.429421
44.614528 -57.205591 -20.018384
27.704616 -53.445036 -37.248930
16.982004 -46.032281 -44.294468
33.503825 -55.632872 -30.216166
16.029750 -45.103979 -39.316958
16.700474 -45.757833 -11.390621
33.037502 -55.489527 -47.682289
33.872593 -55.746225 -35.696030
24.391982 -51.686223 -21.610285
6.810554 -29.641757 -39.779386
9.185066 -35.442825 -32.088010
9.608334 -36.252242 -19.115251
8.940755 -34.975626 -34.524492
36.634043 -56.406906 -17.179362
11.014040 -38.670278 -44.913123
6.862183 -29.795648 -44.177195
36.405668 -56.356037 -33.828072
38.103136 -56.682462 -26.272221
16.590878 -45.650992 -7.242684
18.642716 -47.561880 -25.823857
31.890693 -55.137013 -18.553420
18.917229 -47.790100 -12.637367
13.049474 -41.609292 -21.908308
35.290926 -56.107760 -10.431507
5.508235 -24.892684 -48.423685
18.568472 -47.500152 -24.196288
12.970467 -41.503169 -18.206980
35.200088 -56.087531 -24.071848
5.485146 -24.803532 -37.995115
17.440959 -46.479693 -24.761543
42.318346 -57.137439 -41.522999
14.425902 -43.314446 -34.615269
7.205171 -30.817999 -10.421663
12.977943 -41.513214 -12.779358
9.644857 -36.322085 -16.799820
24.679121 -51.856566 -35.379098
7.886174 -32.596920 -41.118633
41.611306 -57.094266 -24.762740
27.970657 -53.575647 -44.675591
21.288420 -49.653603 -10.122880
17.238413 -46.282242 -36.648831
32.012534 -55.174466 -8.653728
37.038952 -56.497092 -27.682816
35.636303 -56.184686 -20.829894
31.940558 -55.152342 -31.898902
18.819065 -47.708492 -16.716257
17.658415 -46.691679 -36.868428
39.097657 -56.822685 -54.688683
6.015965 -26.853182 -19.609175
31.186925 -54.900378 -22.537244
23.651453 -51.246920 -12.724845
5.934472 -26.538512 -11.324233
9.536589 -36.115045 -49.996553
7.960643 -32.771712 -8.217279
7.760120 -32.301055 -48.736337
