-50.501951 -42.281547 -24.682122
-53.988892 -37.849271 -16.651075
-47.561592 -45.551062 -22.503584
-53.323617 -38.744570 -18.925953
-49.212775 -43.797416 -3.842447
-48.367612 -44.698326 -44.125364
-49.973003 -42.899358 -41.833534
-50.148418 -42.692153 -31.735762
-48.201725 -44.873829 -39.357038
-53.425756 -38.604660 -19.899722
-50.601603 -42.162219 -27.710570
-55.742258 -35.295197 -14.612188
-47.150793 -45.985668 -23.233166
-48.260871 -44.811253 -36.958950
-52.657442 -39.609110 -25.222574
-54.784018 -36.717343 -42.379172
-53.889001 -37.981301 -19.516773
-52.814939 -39.400932 -33.515283
-48.220884 -44.853560 -53.390951
-47.547173 -45.566327 -5.845036
-50.022479 -42.840917 -38.600457
-51.522455 -41.068993 -11.246764
-52.784139 -39.441651 -45.596343
-56.222909 -34.581847 -7.581814
-46.955215 -46.192588 -14.869478
-49.964918 -42.908907 -39.052400
-49.965106 -42.917179 -10.050945
-47.134233 -46.003187 -22.690027
-53.824169 -38.066988 -6.935104
-54.550409 -37.064055 -16.489217
-50.320512 -42.488858 -36.163367
-51.150585 -41.508286 -20.570478
-53.829397 -38.060082 -5.422999
-46.935843 -46.213079 -21.126140
-47.513424 -45.602028 -12.922163
-50.284223 -42.542180 -10.725356
-56.272257 -34.508605 -23.161303
-52.684653 -39.573139 -43.227838
-50.089294 -42.767515 -14.044656
-54.896812 -36.549932 -33.241718
-53.624592 -38.342064 -32.462501
-52.441032 -39.895152 -22.939294
-52.782514 -39.443793 -27.735429
-52.986421 -39.174278 -29.144077
-52.571152 -39.723155 -24.302376
-47.623101 -45.485979 -42.660732
-46.972826 -46.173957 -18.825955
-48.106950 -44.974115 -1.906251
-50.682985 -42.066205 -20.717909
-49.629107 -43.305602 -50.179697
-54.915077 -36.522831 -30.467004
-55.228806 -36.057230 -2.493712
-51.335165 -41.290240 -19.399962
-53.885129 -37.986412 -3.563478
-50.033264 -42.828170 -47.053562
-55.294881 -35.959157 -36.974629
-55.679821 -35.387856 -17.734906
-53.491935 -38.517219 -24.043381
-52.848224 -39.356941 -52.817004
-47.007750 -46.136997 -32.121043
-55.247507 -36.029464 -31.486483
-51.315660 -41.313272 -14.000493
-51.215963 -41.431056 -3.904531
-47.812854 -45.285247 -13.222324
-55.048878 -36.324255 -33.049646
-55.436751 -35.748618 -8.400079
-55.286881 -35.971021 -47.017972
-47.212776 -45.920088 -26.059477
-47.821522 -45.276060 -40.834150
-49.990367 -42.878843 -45.125848
-48.178354 -44.898552 -27.460722
-47.444639 -45.674803 -11.512462
-50.368587 -42.441881 -13.423658
-47.236481 -45.895021 -9.802016
-55.143185 -36.184287 -48.404610
-49.706120 -43.214628 -41.654710
-46.962609 -46.184766 -13.228934
-49.180457 -43.835580 -41.924379
-48.459021 -44.601624 -17.419139
-55.344664 -35.885263 -30.237985
-56.046644 -34.843448 -25.173840
-51.113574 -41.552002 -21.107685
-55.189258 -36.115910 -31.813177
-53.928572 -37.928995 -14.880717
-52.602354 -39.681920 -33.511150
-55.371043 -35.846107 -47.005704
-48.537294 -44.518815 -26.525925
-50.436292 -42.352077 -47.773190
-52.629427 -39.646140 -25.334185
-56.324820 -34.430584 -28.706497
-55.089239 -36.264357 -33.029868
-50.641416 -42.109766 -44.216496
-46.960749 -46.186730 -17.156978
-53.379785 -38.665861 -17.535610
-48.439446 -44.622338 -32.316718
-52.865064 -39.334684 -26.815806
-53.070758 -39.076345 -19.308448
-53.398778 -38.639389 -17.222024
-55.593381 -35.516154 -13.132094
-56.031591 -34.865781 -31.547147
-55.316852 -35.926541 -44.816261
-47.964289 -45.125021 -43.419645
-47.597239 -45.513355 -9.653792
-47.816978 -45.280869 -42.025724
-55.385626 -35.824468 -47.595729
-52.659696 -39.606129 -44.748952
-55.838685 -35.152081 -24.589396
-49.182304 -43.833399 -37.754797
-52.981212 -39.194602 -16.536261
-53.157307 -38.948418 -44.635116
-47.949127 -45.141075 -8.885251
-55.099819 -36.248648 -41.595586
-46.550489 -46.620754 -37.161734
-54.480262 -37.168156 -17.243334
-56.310553 -34.451768 -28.026557
-50.211611 -42.617494 -38.266163
-51.395085 -41.219451 -23.095715
-55.183067 -36.125094 -35.478947
-49.239491 -43.765855 -13.823310
-55.007254 -36.386019 -41.115462
-56.331588 -34.420549 -18.041884
-52.770286 -39.459957 -41.099135
-55.832380 -35.161444 -22.820700
-48.131700 -44.947912 -42.267855
-49.203910 -43.807872 -13.137607
-46.817606 -46.338163 -30.175055
-47.864987 -45.230080 -44.192577
-50.242466 -42.591240 -8.533746
-56.255618 -34.533299 -20.359664
-47.363791 -45.760333 -13.929233
-50.413727 -42.378744 -42.286837
-52.974462 -39.190085 -36.143541
-47.965628 -45.123609 -35.310278
-48.380402 -44.684798 -24.301678
-48.438750 -44.623071 -40.088227
-51.016514 -41.671885 -34.616128
-49.193741 -43.819891 -31.704339
-55.974608 -34.950351 -25.886823
-55.816476 -35.185058 -16.820942
-55.509441 -35.640719 -36.147997
-46.836828 -46.317834 -18.026271
-55.384935 -35.825496 -30.296584
-49.891416 -42.995751 -27.356835
-55.620682 -35.475617 -48.788609
-53.013393 -39.138637 -39.901036
-55.959487 -34.972793 -25.383382
-53.182282 -38.915405 -49.304637
-48.059579 -45.024230 -11.293496
-53.951989 -37.898047 -17.348161
-53.135610 -38.977090 -39.067587
-51.410559 -41.201175 -22.284293
-51.559129 -41.025673 -31.213461
-55.392940 -35.813624 -41.276220
-51.261395 -41.377387 -16.772819
-53.228994 -38.865799 -8.872217
-53.708301 -38.220133 -8.018647
-55.091345 -36.261220 -41.639110
-54.387876 -37.305265 -24.690855
-54.439268 -37.228992 -24.565699
-54.545288 -37.071647 -2.887946
-53.081815 -39.048189 -51.540265
-55.110298 -36.233092 -42.624595
-55.258183 -36.013621 -40.831890
-51.081255 -41.590182 -6.842618
-49.602443 -43.337105 -36.966332
-55.037607 -36.340977 -46.330408
-51.326464 -41.300516 -23.855972
-53.829220 -38.060313 -11.095086
-49.785400 -43.120973 -37.166476
-54.542121 -37.076349 -15.652505
-52.843123 -39.363685 -42.561932
-49.218390 -43.790783 -14.388867
-47.512514 -45.602981 -22.442690
-52.424624 -39.916840 -52.089170
-47.584556 -45.526782 -0.884370
-50.001740 -42.865411 -41.695357
-51.373564 -41.244878 -17.106039
-54.592548 -37.001516 -15.758425
-50.859990 -41.851554 -4.481150
-50.336687 -42.469735 -50.179219
-47.031907 -46.111458 -9.974563
-53.164514 -38.938886 -48.220856
-54.150215 -37.636031 -13.884720
-48.150664 -44.927846 -33.337167
-52.388647 -39.964382 -33.762457
-52.888330 -39.303936 -41.435184
-50.488430 -42.297808 -14.918058
-51.292225 -41.340962 -15.315319
-55.088323 -36.265705 -31.975641
-50.045516 -42.813705 -31.591999
-50.313647 -42.503827 -6.721871
-47.694641 -45.410296 -43.777617
-55.020798 -36.365926 -28.560036
-56.440595 -34.258758 -35.416989
-49.241910 -43.762996 -16.872275
-55.362158 -35.859294 -40.159422
-54.466462 -37.188641 -16.800490
-51.490466 -41.106781 -25.862906
-48.373856 -44.691725 -40.119206
-53.052829 -39.086503 -36.904464
-53.703199 -38.234948 -33.831195
-46.944967 -46.203407 -35.449270
-54.755598 -36.759517 -47.057512
-51.331202 -41.294919 -19.388028
-54.087160 -37.719384 -22.505140
-50.051732 -42.806358 -42.364366
-55.138815 -36.190774 -31.517189
-55.041376 -36.335390 -33.975113
-48.073372 -45.009628 -6.335568
-55.121093 -36.217073 -33.245385
-55.682597 -35.383742 -15.254384
-47.433670 -45.686404 -16.933551
-49.201282 -43.810982 -15.981908
-50.366699 -42.434294 -35.139687
-50.960819 -41.732440 -9.993364
-56.312790 -34.448441 -1.652292
-55.997724 -34.916050 -26.323766
-49.984007 -42.886358 -48.214827
-48.308539 -44.760827 -34.991023
-52.032029 -40.435751 -7.820323
-55.406939 -35.792839 -43.335654
-50.037036 -42.823711 -44.570444
-52.701318 -39.551118 -39.360631
-53.922377 -37.937184 -9.847307
-52.774023 -39.455021 -39.116124
-48.544201 -44.511510 -39.956628
-55.403642 -35.797732 -49.225514
-47.830924 -45.266136 -9.338447
-47.639907 -45.468225 -3.801785
-48.574427 -44.479539 -31.905563
-48.669348 -44.379117 -30.839926
-48.438354 -44.623497 -40.781229
-55.305220 -35.943805 -34.941004
-53.312010 -38.743932 -48.464567
-56.307127 -34.456855 -18.280281
-53.270051 -38.799395 -37.098267
-54.757588 -36.756559 -42.216478
-54.400880 -37.285968 -30.142902
-55.220930 -36.068900 -34.138652
-55.047435 -36.326402 -32.822842
-47.723776 -45.379477 -19.503306
-55.666741 -35.407275 -17.366186
-55.065261 -36.299940 -35.071044
-46.849862 -46.304042 -23.201563
-52.943200 -39.231412 -38.163563
-52.880666 -39.321791 -14.996875
-50.369322 -42.431201 -33.621527
-48.476614 -44.583005 -28.839167
-55.688472 -35.375021 -18.629641
-46.865641 -46.287344 -24.018380
-53.619094 -38.345069 -27.478388
-53.242006 -38.836469 -43.079190
-53.230456 -38.851736 -47.051413
-56.334605 -34.416068 -20.442039
-47.383453 -45.739520 -25.070488
-54.981239 -36.424637 -28.149270
-50.097120 -42.752742 -37.592466
-51.147211 -41.512265 -13.259479
-50.173965 -42.661967 -39.205562
-48.583890 -44.469527 -42.998755
-47.687504 -45.417844 -52.707522
-55.272852 -35.991841 -29.914793
-54.457493 -37.201956 -26.224371
-50.813340 -41.906661 -10.116417
-53.867250 -38.010052 -11.069638
-49.948432 -42.928388 -39.854504
-51.081432 -41.589970 -16.720212
-47.452795 -45.666169 -18.236945
-55.155168 -36.166501 -47.437528
-55.536346 -35.600802 -8.747168
-49.752338 -43.160038 -37.097596
-53.722290 -38.201653 -10.518906
-50.574076 -42.197392 -19.728788
-48.947556 -44.084783 -26.157200
-55.390740 -35.816878 -40.624212
-51.261284 -41.377518 -20.105418
-50.206404 -42.623643 -46.169438
-48.511796 -44.545793 -31.299249
-54.470009 -37.183373 -24.916288
-50.161396 -42.676813 -50.235489
-54.970456 -36.440637 -28.244910
-49.863531 -43.028684 -42.757567
-50.235806 -42.588920 -37.279970
-55.929833 -35.016816 -26.974337
-47.376717 -45.746658 -17.209419
-51.410631 -41.201093 -26.978971
-50.209035 -42.620531 -42.636158
-47.435579 -45.684386 -14.389219
-50.362299 -42.448700 -20.457914
-50.920435 -41.780151 -11.522326
-50.516739 -42.257045 -45.186700
-56.049075 -34.839836 -32.360424
-52.352428 -40.012255 -29.389578
-50.175320 -42.660365 -50.115707
-49.729098 -43.187495 -29.214888
-47.066731 -46.074609 -12.646646
-53.525477 -38.469172 -22.064382
-51.212569 -41.435051 -8.270512
-51.243410 -41.398633 -11.071900
-46.973967 -46.172734 -32.824550
-55.282521 -35.977489 -44.759744
-47.450197 -45.668919 -11.495209
-56.116511 -34.739749 -31.848811
-56.298230 -34.470061 -3.279661
-50.134893 -42.708122 -40.630442
-46.916447 -46.233600 -18.873854
-52.537367 -39.767826 -49.855799
-50.761124 -41.975873 -26.964583
-54.478188 -37.171232 -23.025405
-50.546250 -42.230641 -19.079620
-46.976461 -46.170104 -16.411628
-51.177368 -41.476640 -22.267917
-52.357641 -40.005372 -45.403539
-54.587745 -37.008640 -6.583546
-46.968413 -46.178614 -28.372088
-47.898159 -45.194977 -37.868719
-48.497720 -44.560682 -43.145762
-54.448738 -37.214948 -29.686590
-47.528900 -45.585662 -7.813682
-47.194716 -45.939204 -16.531778
-55.074520 -36.286195 -41.237725
-48.798958 -44.241994 -30.611038
-48.302389 -44.767330 -37.935059
-50.171006 -42.665460 -40.613997
-54.794104 -36.702362 -47.606233
-54.036054 -37.786927 -20.021864
-49.223469 -43.784779 -7.701504
-55.035280 -36.344434 -25.705884
-53.264407 -38.806854 -49.025010
-55.442806 -35.739605 -32.197870
-55.149579 -36.174799 -34.397624
-55.681175 -35.385859 -6.193379
-55.391221 -35.816174 -51.613126
-53.992542 -37.844438 -4.070740
-52.391260 -39.960934 -36.771662
-53.430552 -38.595171 -16.767518
-49.192248 -43.821656 -35.781026
-54.936169 -36.491517 -49.611353
-49.650269 -43.290221 -1.407788
-55.261768 -36.008290 -40.810142
-48.277838 -44.793302 -28.267966
-54.377876 -37.320112 -12.843878
-51.284767 -41.349774 -27.257911
-47.631816 -45.476761 -50.462587
-48.455480 -44.605379 -42.306431
-55.447801 -35.732193 -32.601389
-51.969896 -40.517876 -18.922304
-50.829572 -41.891522 -24.801123
-55.761379 -35.266806 -49.519248
-51.300562 -41.331113 -14.233920
-52.465620 -39.862650 -43.849102
-51.301461 -41.330051 -20.573417
-52.405969 -39.941493 -47.370502
-53.889109 -37.981159 -15.735938
-47.735383 -45.367197 -47.375799
-56.365462 -34.370277 -10.156167
-47.901445 -45.191502 -38.365993
-55.208938 -36.086698 -46.131553
-53.132425 -38.981311 -44.171954
-47.762329 -45.338694 -15.436716
-55.106256 -36.239101 -21.624111
-48.482153 -44.577158 -37.253132
-51.925439 -40.576633 -13.161726
-48.315682 -44.753269 -41.805236
-48.439954 -44.621800 -53.426528
-47.048742 -46.093639 -19.558429
-47.405848 -45.715829 -20.019458
-56.409833 -34.304417 -30.687028
-55.124174 -36.212500 -36.792992
-48.424134 -44.638537 -36.921989
-47.286258 -45.842359 -11.985633
-50.090520 -42.760541 -34.022512
-50.288493 -42.526682 -37.338250
-56.282321 -34.493665 -23.207198
-55.542929 -35.591017 -16.779441
-54.511904 -37.121192 -15.896985
-46.924927 -46.224628 -24.776813
-51.465813 -41.135903 -22.405867
-48.282471 -44.788405 -29.643266
-53.047039 -39.094161 -41.736538
-50.311567 -42.499409 -42.920759
-55.946821 -34.991589 -25.306696
-54.990743 -36.410536 -26.432035
-56.263232 -34.521998 -19.578256
-52.451140 -39.881792 -50.409553
-48.539807 -44.516163 -41.056820
-47.438469 -45.681334 -6.114452
-47.044544 -46.098068 -29.428616
-56.291519 -34.480017 -10.417961
-51.201183 -41.448506 -24.943688
-48.305704 -44.763825 -38.610741
-55.013292 -36.377068 -43.382563
-52.651792 -39.616574 -30.739907
-49.831324 -43.066743 -23.548968
-55.935356 -35.008612 -25.912238
-56.403549 -34.313743 -19.611077
-55.442199 -35.740516 -33.139389
-54.081022 -37.727495 -32.444609
-48.548343 -44.507122 -33.470886
-53.964296 -37.881772 -33.304383
-52.963374 -39.204745 -37.834049
-47.837634 -45.259026 -19.026269
-54.053770 -37.763521 -21.842741
-50.130851 -42.712897 -39.754173
-52.764184 -39.468016 -38.696559
-55.435460 -35.750517 -32.296912
-55.686627 -35.377764 -15.671328
-50.525218 -42.247042 -39.465123
-47.407206 -45.714413 -4.700983
-54.472572 -37.179568 -6.429563
-49.922660 -42.958832 -39.247068
-53.187928 -38.920634 -6.931799
-55.433017 -35.754142 -29.852922
-50.301898 -42.510842 -36.129873
-50.001972 -42.865140 -41.309415
-55.083440 -36.272957 -38.200925
-50.180391 -42.654376 -35.443534
-51.098796 -41.569457 -17.667365
-53.902680 -37.963219 -15.989052
-52.804995 -39.414084 -37.812757
-54.936481 -36.491070 -41.035237
-55.280719 -35.980171 -25.043178
-56.172392 -34.656830 -8.238472
-50.739043 -42.000970 -24.585423
-54.180264 -37.596323 -29.918409
-49.650105 -43.280789 -39.383178
-47.653232 -45.454116 -17.382197
-50.025132 -42.837793 -27.161213
-51.976146 -40.509614 -18.411111
-54.555529 -37.056455 -14.440412
-53.273319 -38.795075 -53.109060
-46.872039 -46.280576 -24.051957
-46.824229 -46.331148 -35.310767
-46.900029 -46.250956 -29.852236
-47.101142 -46.038213 -10.044523
-53.049415 -39.091014 -38.713986
-51.543873 -41.043697 -13.624949
-47.602209 -45.508082 -40.934690
-54.937260 -36.489914 -36.814722
-47.355294 -45.769320 -16.971058
-48.812812 -44.227337 -32.261887
-47.619069 -45.490263 -13.216086
-51.405776 -41.206832 -24.948703
-53.461837 -38.557901 -23.158309
-55.794306 -35.217956 -17.450671
-56.317962 -34.440774 -17.590191
-52.713102 -39.535540 -37.860188
-55.173511 -36.139282 -44.222878
-50.158114 -42.680690 -43.823996
-50.557130 -42.209337 -46.978197
-49.627250 -43.307801 -37.666058
-55.360873 -35.861208 -38.785569
-50.318493 -42.501984 -12.641724
-50.633328 -42.127847 -22.937919
-52.934597 -39.242781 -36.641324
-55.167633 -36.148001 -47.698799
-50.414641 -42.377660 -39.584257
-51.192947 -41.458232 -20.927327
-51.531517 -41.058290 -32.842880
-46.678005 -46.485870 -12.893561
-53.274648 -38.801475 -27.201821
-50.626182 -42.132833 -17.566517
-51.985412 -40.497357 -12.401581
-56.421753 -34.286721 -27.871790
-52.525461 -39.783554 -38.533199
-50.973896 -41.716997 -6.594215
-54.956408 -36.461492 -36.801187
-52.867328 -39.331692 -43.415154
-53.787210 -38.115843 -14.633566
-53.548958 -38.430755 -52.978541
-55.045435 -36.329357 -50.875245
-55.795157 -35.216694 -19.898108
-53.728166 -38.193882 -10.306976
-51.344109 -41.279667 -27.314948
-54.716550 -36.817469 -43.143020
-53.522085 -38.466263 -54.715058
-48.472721 -44.587128 -24.198996
-46.974694 -46.171968 -31.653174
-51.935139 -40.563808 -21.267525
-53.798477 -38.100953 -17.412812
-52.282340 -40.104903 -40.741685
-55.178054 -36.132541 -31.095360
-50.386304 -42.411126 -42.032970
-47.402729 -45.719139 -8.368739
-52.016473 -40.456311 -14.346850
-52.484709 -39.837409 -31.668412
-54.517721 -37.112566 -13.369600
-54.009769 -37.821672 -28.559690
-48.174846 -44.902266 -40.365966
-48.277010 -44.794181 -44.940726
-50.539356 -42.239456 -19.773420
-55.776882 -35.243793 -44.413134
-55.323793 -35.916244 -39.518664
-49.653551 -43.276731 -33.767112
-56.409882 -34.304338 -30.477894
-48.524652 -44.532188 -36.039686
-54.450233 -37.212726 -18.379682
-53.088979 -39.054292 -19.308885
-52.805445 -39.413492 -42.654063
-50.089720 -42.761488 -39.381068
-52.752322 -39.501004 -8.286499
-52.737437 -39.503375 -39.713220
-54.960978 -36.454703 -23.518346
-47.537532 -45.576525 -12.212796
-48.396815 -44.667431 -38.334556
-46.904679 -46.246058 -12.534417
-50.980325 -41.709407 -18.099871
-48.325700 -44.742667 -21.147561
-50.404701 -42.395169 -9.045560
-46.847615 -46.306421 -25.634038
-53.940944 -37.912640 -16.603032
-50.420300 -42.370968 -44.793207
-55.814231 -35.188383 -16.556651
-53.802959 -38.095026 -10.986290
-48.873906 -44.162702 -36.506070
-51.048258 -41.629162 -10.735112
-47.343939 -45.781338 -9.595295
-53.815917 -38.077893 -6.684315
-55.241364 -36.038574 -48.154952
-52.430006 -39.909722 -27.914171
-50.500855 -42.275815 -44.849581
-52.707141 -39.543415 -24.214950
-47.568072 -45.544213 -12.531726
-48.010271 -45.076393 -5.171576
-49.831262 -43.066805 -27.802602
-53.479128 -38.529949 -18.673886
-48.306660 -44.762812 -37.313801
-50.837665 -41.877940 -49.510267
-56.272084 -34.508867 -17.442636
-51.608432 -40.967432 -11.611833
-51.308012 -41.322319 -15.310606
-56.297187 -34.471602 -9.528329
-54.931310 -36.498735 -37.721697
-46.886274 -46.265529 -10.422233
-51.287498 -41.346549 -10.425485
-47.819522 -45.278189 -14.178144
-48.492289 -44.566430 -35.970119
-52.772310 -39.457283 -53.007162
-50.059374 -42.797346 -26.876117
-47.702619 -45.401845 -51.482751
-51.539257 -41.049146 -14.876765
-55.278454 -35.983522 -52.680119
-48.128671 -44.951113 -35.420201
-49.996001 -42.872189 -44.449837
-53.273913 -38.794289 -37.976852
-54.953946 -36.465147 -38.050030
-52.668213 -39.594875 -34.213220
-56.249817 -34.541909 -17.257026
-48.110407 -44.970439 -35.503645
-53.435955 -38.580107 -52.767477
-51.968045 -40.520321 -18.422164
-55.595343 -35.513250 -13.441421
-47.707425 -45.396767 -51.145510
-47.890190 -45.203418 -47.374855
-55.213450 -36.080005 -53.693871
-55.594523 -35.514466 -9.727991
-49.769562 -43.139695 -23.515889
-54.059962 -37.755332 -16.407351
-47.443006 -45.676527 -8.811851
-47.098246 -46.041268 -14.583403
-48.271955 -44.799533 -47.354062
-51.391736 -41.223410 0.287396
-47.942826 -45.147722 -44.919300
-53.475667 -38.537126 -21.295002
-51.605715 -40.970647 -22.892182
-53.632486 -38.328391 -29.417121
-50.249520 -42.572711 -37.282995
-52.916010 -39.280432 -14.596593
-55.504941 -35.647386 -36.600005
-53.597650 -38.378787 -32.000537
-54.001915 -37.832051 -19.801298
-49.226825 -43.780815 -13.226398
-48.397875 -44.666320 -32.225709
-48.876475 -44.159989 -30.034802
-51.306237 -41.324411 -33.992633
-48.021398 -45.064606 -41.791151
-55.012985 -36.377518 -47.695113
-55.560195 -35.565409 -8.382163
-47.986883 -45.101125 -12.570562
-48.539961 -44.515995 -43.587073
-51.911377 -40.595222 -23.385199
-54.967335 -36.445268 -44.242905
-48.351748 -44.715117 -31.952282
-55.040665 -36.336443 -25.534001
-54.056422 -37.760014 -23.093755
-48.099999 -44.981452 -28.409313
-46.911995 -46.238304 -27.471547
-52.799610 -39.421202 -30.392422
-48.340118 -44.727418 -45.092934
-50.110750 -42.736646 -38.917917
-55.275830 -35.987428 -39.828015
-50.352841 -42.459404 -11.174359
-50.282793 -42.544966 -12.279229
-56.369584 -34.364160 -13.755234
-52.562658 -39.734385 -41.376810
-52.888013 -39.304356 -25.595977
-51.197418 -41.452956 -14.903705
-47.921850 -45.169924 -48.349513
-56.367097 -34.367847 -25.211142
-51.203216 -41.446106 -24.990160
-55.062892 -36.303453 -24.825719
-50.627196 -42.132166 -18.383758
-53.222868 -38.861760 -48.769765
-46.952997 -46.194933 -17.366839
-55.127458 -36.207637 -29.155939
-50.680633 -42.063440 -55.072436
-55.155844 -36.165510 -40.200126
-54.926670 -36.505630 -34.710868
-51.005702 -41.679426 -13.203584
-52.784708 -39.440894 -49.071668
-55.029415 -36.353138 -38.926405
-50.255459 -42.565706 -39.282330
-54.896673 -36.550147 -23.551935
-52.815380 -39.400357 -49.145919
-50.143686 -42.697727 -53.803769
-48.514704 -44.542725 -41.883566
-55.036474 -36.342657 -35.323761
-55.130337 -36.203358 -39.891674
-47.562363 -45.550241 -46.595361
-50.099504 -42.749928 -46.102194
-53.367887 -38.686196 -21.818236
-47.105210 -46.033903 -8.373554
-53.675638 -38.273283 -34.194779
-56.462927 -34.225610 -27.213661
-55.699150 -35.359190 -6.115563
-54.957236 -36.460262 -30.570698
-56.189763 -34.631043 -15.596555
-47.970143 -45.118826 -42.057519
-55.843915 -35.144321 -23.400611
-52.470205 -39.856589 -32.416160
-46.960076 -46.187426 -40.337039
-48.391385 -44.673189 -39.080529
-55.721809 -35.325528 -36.936586
-54.414489 -37.265767 -24.669052
-55.825779 -35.171253 -10.511582
-55.762063 -35.265805 -14.638663
-50.078566 -42.774652 -50.734177
-56.365190 -34.370668 -13.654112
-47.274241 -45.855072 -11.405854
-55.264361 -36.004449 -39.144778
-56.398300 -34.321529 -7.567425
-49.872817 -43.017704 -39.176195
-56.374849 -34.356339 -18.387695
-54.426742 -37.247582 -24.298386
-55.620355 -35.476101 -48.187217
-52.305586 -40.074174 -50.088464
-55.249109 -36.027082 -37.193794
-52.434655 -39.903572 -44.974053
-51.990093 -40.491174 -11.067652
-55.149624 -36.174723 -45.268547
-50.257150 -42.575332 -17.095906
-50.954182 -41.740293 -10.542448
-52.875908 -39.320348 -50.274751
-56.232607 -34.567457 -10.798060
-49.969317 -42.903720 -43.528983
-47.409504 -45.711979 -1.076359
-51.992495 -40.488002 -25.909018
-51.331676 -41.294359 -13.779584
-53.493380 -38.512213 -20.752123
-55.197277 -36.104008 -37.883073
-55.035178 -36.344582 -36.007875
-54.455817 -37.204435 -16.043529
-47.970603 -45.118348 -50.959948
-48.837566 -44.201154 -38.342164
-55.500528 -35.653936 -47.221737
-52.576938 -39.715517 -47.021219
-48.338149 -44.729498 -31.697047
-47.383783 -45.739169 -25.935625
-47.521752 -45.593212 -22.209316
-52.365327 -39.995216 -41.211371
-55.119649 -36.219214 -45.545143
-47.747077 -45.354823 -41.395593
-49.842495 -43.053530 -44.978161
-53.027199 -39.120382 -46.224817
-50.856186 -41.860998 -27.280482
-55.158432 -36.161665 -26.805522
-54.480641 -37.167602 -23.459690
-49.786498 -43.119679 -32.267404
-54.804840 -36.686443 -41.380617
-55.074577 -36.286111 -37.358911
-53.934739 -37.920847 -8.166878
-56.457745 -34.233302 -1.763423
-54.515231 -37.116263 -10.059976
-52.805860 -39.412936 -45.241239
-55.249876 -36.025940 -39.128342
-55.710841 -35.341831 -14.336312
-50.523192 -42.256067 -25.339285
-50.210154 -42.619212 -43.495205
-52.937840 -39.256871 -13.788983
-54.516098 -37.114967 -14.419726
-55.281885 -35.978435 -31.792650
-54.959519 -36.456877 -11.738402
-55.391112 -35.816325 -43.519220
-53.267007 -38.823995 -20.430734
-53.258113 -38.833600 -23.796929
-50.031088 -42.839580 -11.727675
-49.724220 -43.193238 -56.569877
-49.211629 -43.798766 -30.044979
-52.435443 -39.902540 -38.871347
-51.292544 -41.340591 -9.807429
-54.510962 -37.122590 -1.517417
-50.274654 -42.551548 -7.474766
-52.875647 -39.320690 -30.322368
-50.391833 -42.404608 -39.707269
-50.716452 -42.021130 -43.654995
-52.434993 -39.903133 -42.385878
-49.875306 -43.014767 -36.773345
-53.959650 -37.887915 -20.985075
-55.401525 -35.800874 -32.776719
-47.834409 -45.262429 -48.917535
-56.398256 -34.321598 -27.613448
-52.442960 -39.892605 -38.358610
-49.714533 -43.204696 -32.405617
-51.313189 -41.316200 -20.915584
-55.570796 -35.549667 -14.242738
-54.965571 -36.447888 -36.419893
-50.330349 -42.477238 -44.949244
-55.777564 -35.242791 -23.598668
-53.204495 -38.902323 -11.874740
-48.039547 -45.045403 -30.467948
-47.438490 -45.681301 -17.461326
-51.211953 -41.435785 -22.723902
-54.518985 -37.110683 -16.843222
-55.469756 -35.699610 -41.633119
-52.539634 -39.764823 -27.591520
-52.712484 -39.536354 -34.415918
-51.988395 -40.493420 -14.130960
-52.627327 -39.648910 -35.424478
-55.811091 -35.193040 -19.446375
-49.648622 -43.282558 -31.554475
-52.784278 -39.441463 -43.050019
-53.016460 -39.134576 -54.125267
-52.529915 -39.777664 -34.199118
-53.351503 -38.691731 -53.570143
-54.495014 -37.146262 -11.354715
-53.366043 -38.685243 -18.002267
-49.773206 -43.135368 -51.777589
-51.460729 -41.141905 -20.189832
-49.699526 -43.222422 -32.228026
-55.905664 -35.052678 -23.208368
-55.023882 -36.361351 -30.865382
-53.116164 -39.002790 -44.889225
-54.052699 -37.764929 -12.822963
-52.807633 -39.410601 -32.915712
-48.297465 -44.772536 -40.176932
-52.684840 -39.572892 -38.797418
-55.476374 -35.689790 -45.317285
-50.695444 -42.052397 -22.581239
-52.541046 -39.762955 -34.616049
-50.334255 -42.479496 -20.251317
-51.112611 -41.553144 -11.503841
-53.983342 -37.856603 -20.202995
-48.261366 -44.810739 -23.120927
-52.805536 -39.413369 -37.712501
-48.052748 -45.031434 -45.621354
-51.425382 -41.183665 -12.632053
-50.253744 -42.567724 -47.290339
-47.538556 -45.575445 -6.682452
-51.256190 -41.383524 -19.579748
-48.290498 -44.779916 -35.454707
-46.776980 -46.381140 -27.173716
-50.263153 -42.556621 -35.716803
-48.262351 -44.809706 -1.522597
-52.360367 -40.001760 -24.919464
-52.598262 -39.687324 -49.209415
-51.113710 -41.551838 -9.207340
-55.383997 -35.826892 -39.755682
-55.402792 -35.798988 -34.333771
-47.091144 -46.048778 -12.722642
-55.878214 -35.093413 -24.395724
-55.117986 -36.221693 -28.680832
-50.365405 -42.444969 -12.302578
-54.573792 -37.029353 -8.829323
-48.062848 -45.020750 -39.524309
-47.681050 -45.424688 -11.864724
-56.439248 -34.260767 -15.854767
-50.618100 -42.145742 -22.138774
-51.962646 -40.527456 -16.627287
-55.702544 -35.354132 -18.863081
-51.342248 -41.281870 -24.423526
-49.745094 -43.168590 -31.820592
-52.263176 -40.130223 -40.431621
-52.654077 -39.613557 -21.010890
-52.950027 -39.222385 -44.872760
-55.298739 -35.953424 -32.986481
-50.254526 -42.578309 -10.984728
-53.069220 -39.064840 -47.830096
-51.354723 -41.267139 -20.083868
-55.373556 -35.842393 -9.343773
-48.156606 -44.921568 -36.918938
-55.140808 -36.187817 -31.018461
-49.880564 -43.008567 -30.727297
-52.796984 -39.424669 -38.715025
-55.640916 -35.445584 -50.416603
-52.966633 -39.200433 -39.282175
-52.654274 -39.613295 -30.958805
-55.020690 -36.366084 -33.781391
-55.174102 -36.138401 -47.096481
-56.272853 -34.507726 -24.467896
-55.315744 -35.928187 -33.042118
-49.963841 -42.918377 -10.085789
-48.193248 -44.882795 -40.465805
-48.420845 -44.642011 -33.907524
-53.977385 -37.864477 -23.758314
-50.133503 -42.709765 -38.947158
-50.288018 -42.527238 -43.681776
-52.696424 -39.570837 -7.679102
-48.509094 -44.548654 -31.454999
-50.148303 -42.692287 -33.381058
-54.084324 -37.723130 -7.985097
-54.909692 -36.530830 -38.951604
-51.869559 -40.650486 -20.131654
-52.703924 -39.547677 -43.429016
-51.085900 -41.584697 -22.992998
-51.290579 -41.342906 -22.240120
-47.443011 -45.676494 -46.174706
-48.352035 -44.714813 -42.599815
-56.204732 -34.608827 -5.753218
-47.040867 -46.101969 -22.779646
-54.908181 -36.533071 -35.657061
-55.836598 -35.155185 -16.290582
-53.153557 -38.953372 -46.011942
-51.930499 -40.569941 -33.995795
-50.505377 -42.275951 -12.968195
-56.357151 -34.382613 -27.077622
-53.146250 -38.963034 -51.086719
-47.761038 -45.340063 -9.988915
-51.326970 -41.299920 -8.998623
-48.144341 -44.934541 -39.199232
-56.217653 -34.589648 -9.619765
-56.458921 -34.231551 -23.573965
-50.543638 -42.228563 -11.404218
-53.675905 -38.262957 -14.147653
-47.191340 -45.942778 -11.572751
-50.393433 -42.411227 -12.587041
-47.776859 -45.323315 -46.734433
-55.509662 -35.640386 -31.600303
-47.717531 -45.386084 -20.163835
-55.606496 -35.496682 -12.311961
-48.348847 -44.718192 -39.699611
-53.567015 -38.412369 -22.574037
-49.670619 -43.256572 -28.475216
-50.877775 -41.830555 -3.651831
-56.362845 -34.374145 -4.048947
-50.558645 -42.214609 -17.586446
-47.811949 -45.286204 -8.905087
-53.156169 -38.961068 -3.284336
-55.721816 -35.325536 -19.675234
-48.061982 -45.021670 -46.051256
-46.856581 -46.296935 -20.622973
-47.139918 -45.997175 -23.732569
-54.555768 -37.056096 -15.933921
-50.827969 -41.889385 -12.498589
-52.682716 -39.575696 -32.071206
-50.212890 -42.615990 -34.343433
-48.291855 -44.778471 -39.497757
-54.471935 -37.180514 -13.436817
-54.976320 -36.431932 -46.924231
-52.793788 -39.428891 -37.891136
-53.097998 -39.026810 -38.125280
-53.345648 -38.708990 -29.041973
-56.316024 -34.443641 -29.917325
-50.150673 -42.689480 -43.862047
-53.014190 -39.137580 -48.783125
-47.768018 -45.332662 -38.155891
-48.268898 -44.802764 -44.777620
-49.694753 -43.228059 -31.753030
-50.255426 -42.565748 -30.258716
-52.612420 -39.668615 -31.067858
-53.071323 -39.062063 -44.770337
-51.297931 -41.334221 -9.948727
-52.720949 -39.525166 -31.645320
-51.989472 -40.491991 -16.856801
-49.695410 -43.227268 -49.071116
-54.034651 -37.788782 -22.649191
-52.993543 -39.173329 -18.322051
-52.440649 -39.895661 -48.985970
-48.430908 -44.631364 -22.399898
-50.594949 -42.171545 -18.881042
-52.205771 -40.206104 -44.081207
-51.600599 -40.976684 -21.472582
-47.357468 -45.767024 -15.127034
-50.141817 -42.699947 -43.709651
-46.962051 -46.185356 -18.193884
-56.166921 -34.664941 -6.875922
-55.008454 -36.384246 -36.915907
-54.096436 -37.707122 -18.617904
-55.234209 -36.049187 -42.572893
-47.982658 -45.105587 -50.433472
-49.765822 -43.144117 -18.308862
-52.934009 -39.266852 -2.745365
-51.513331 -41.079772 -23.418772
-47.516269 -45.599021 -12.902605
-51.114756 -41.550600 -10.030606
-47.162769 -45.972990 -23.972069
-53.933773 -37.922115 -14.832672
-56.400383 -34.318434 -18.333267
-50.169325 -42.667452 -34.823041
-54.014842 -37.814971 -22.818253
-47.783094 -45.316731 -14.562803
-54.842186 -36.631012 -45.246566
-49.551729 -43.397021 -19.076473
-51.277671 -41.358145 -24.471554
-55.349342 -35.878325 -46.756141
-48.724956 -44.320288 -29.667073
-54.488519 -37.155905 -20.480788
-50.222757 -42.604328 -42.548694
-52.591770 -39.695915 -50.275386
-50.787357 -41.942359 -24.400266
-55.574932 -35.543513 -42.598328
-51.336532 -41.288623 -20.055640
-51.291604 -41.341696 -21.229005
-48.202543 -44.872966 -36.159542
-47.211741 -45.921185 -25.874727
-48.044029 -45.040653 -44.657494
-53.078832 -39.062564 -20.437185
-55.187596 -36.118383 -33.204511
-49.943533 -42.934172 -35.146416
-48.339967 -44.727578 -41.431469
-54.943044 -36.481328 -41.742448
-53.942966 -37.909971 -12.153100
-53.173042 -38.938252 -23.326620
-50.011383 -42.858895 -12.122555
-50.348999 -42.460834 -20.932329
-50.084565 -42.767574 -36.384844
-53.816056 -38.077707 -9.872613
-50.417092 -42.374765 -47.420531
-46.947623 -46.200608 -31.173133
-47.533342 -45.580962 -6.557182
-47.773168 -45.327214 -46.483468
-48.565998 -44.488450 -35.770772
-52.424259 -39.917312 -40.593306
-55.638190 -35.449658 -12.185450
-53.961097 -37.886002 -14.104090
-49.948749 -42.928021 -27.609926
-47.170408 -45.964914 -29.118749
-50.710206 -42.028499 -47.523764
-53.413384 -38.621535 -19.713574
-55.074037 -36.286904 -41.450568
-53.055139 -39.097851 -18.579461
-48.245874 -44.827118 -26.519726
-52.949753 -39.222747 -40.793003
-56.238781 -34.558288 -17.345300
-53.493129 -38.516880 -25.470479
-51.257691 -41.381751 -9.834447
-53.073460 -39.071961 -19.624449
-56.265525 -34.518600 -11.500407
-54.846198 -36.625051 -53.082913
-50.338765 -42.467293 -40.524696
-50.292093 -42.522422 -43.355662
-53.118928 -39.009444 -21.726955
-55.643599 -35.441608 -41.463709
-52.487517 -39.833709 -37.737002
-55.345651 -35.883799 -45.263617
-53.015461 -39.135902 -50.441445
-50.088446 -42.762991 -44.182680
-47.876970 -45.217403 -17.089567
-47.165152 -45.970491 -8.921532
-48.352701 -44.714103 -35.779796
-55.067125 -36.297171 -39.214841
-48.823542 -44.215983 -25.704012
-55.873950 -35.099762 -16.095010
-52.803913 -39.415510 -50.815400
-47.962917 -45.126478 -42.953275
-56.507485 -34.159478 -32.782433
-50.170433 -42.678343 -8.391341
-48.077012 -45.005772 -31.685700
-48.272518 -44.798935 -41.355693
-46.670535 -46.493757 -25.324433
-56.347655 -34.396698 -30.410058
-47.456184 -45.662571 -28.598692
-54.828540 -36.651254 -53.182084
-47.142188 -45.994769 -21.697722
-47.281477 -45.847404 -23.688976
-54.030992 -37.793617 -17.932329
-55.028701 -36.354197 -41.711519
-52.730596 -39.512410 -43.406021
-47.343284 -45.782030 -6.980159
-48.194716 -44.881247 -45.424324
-53.083479 -39.065208 -7.571175
-48.314326 -44.754702 -45.869784
-55.352928 -35.873007 -44.989072
-55.422602 -35.769592 -36.355452
-50.598556 -42.160393 -56.099843
-56.113598 -34.744089 -10.949593
-55.119532 -36.219397 -43.209035
-53.262086 -38.824102 -13.145938
-51.048009 -41.629450 -13.164948
-48.551522 -44.503757 -34.170043
-48.307723 -44.761693 -33.212904
-47.990140 -45.097678 -53.356518
-47.981540 -45.106768 -32.630717
-52.760333 -39.482463 -10.776513
-55.963334 -34.967084 -27.947930
-50.206278 -42.623790 -40.660942
-49.958432 -42.916571 -34.855022
-46.789859 -46.367520 -26.609033
-55.430419 -35.757992 -39.883583
-56.345382 -34.400075 -31.421356
-48.239680 -44.833673 -28.229196
-48.005291 -45.081651 -30.543951
-54.047453 -37.771868 -23.776624
-52.872556 -39.338051 -13.184306
-51.484917 -41.113342 -24.890747
-47.914589 -45.177604 -39.212753
-51.457417 -41.145815 -30.715388
-50.465012 -42.318150 -49.411053
-48.189671 -44.886588 -40.119775
-48.293598 -44.776632 -51.766522
-51.670162 -40.894513 -25.176118
-51.204147 -41.445001 -9.573096
-55.207695 -36.088542 -49.636179
-47.289601 -45.838810 -24.162797
-49.912739 -42.970554 -35.537997
-54.930007 -36.500679 -31.163652
-51.207964 -41.440496 -3.993441
-52.660272 -39.605361 -42.999434
-51.424550 -41.184645 -16.939107
-50.507032 -42.268525 -36.461101
-55.126556 -36.208960 -34.554994
-55.237825 -36.043820 -44.147427
-50.319297 -42.490277 -51.560254
-52.542922 -39.760474 -34.043416
-50.605140 -42.152617 -45.216490
-50.300470 -42.512524 -36.738504
-47.029947 -46.113513 -34.288753
-53.658510 -38.293375 -30.356787
-55.618474 -35.478911 -15.525343
-49.665557 -43.262549 -35.963495
-47.357408 -45.767088 -19.586097
-55.069220 -36.294066 -32.353346
-47.082152 -46.058276 -32.866377
-48.056058 -45.027944 -42.037318
-50.052512 -42.805437 -37.414523
-55.167595 -36.148060 -25.211384
-46.963077 -46.184259 -29.223739
-48.286036 -44.784631 -35.886223
-52.451113 -39.881827 -41.761798
-47.444645 -45.674784 -20.300370
-55.447968 -35.731947 -41.887897
-47.491664 -45.625047 -15.717964
-54.910992 -36.528890 -43.551974
-46.976803 -46.169739 -20.909383
-50.402763 -42.391687 -50.441981
-53.082020 -39.047918 -39.666602
-48.511676 -44.545922 -42.185589
-55.596954 -35.510854 -7.611511
-48.301813 -44.767939 -25.805972
-55.147825 -36.177398 -36.307261
-52.476239 -39.848606 -51.732830
-54.046432 -37.773216 -10.289066
-55.843884 -35.144393 -7.677877
-54.953061 -36.466457 -37.809442
-48.365012 -44.701079 -31.936559
-48.198725 -44.877001 -26.267413
-47.426755 -45.693710 -22.175158
-55.622280 -35.473264 -9.472170
-48.271745 -44.799749 -47.371607
-52.590179 -39.710822 -4.477818
-54.851913 -36.616575 -36.327369
-55.789106 -35.225655 -40.598630
-55.504583 -35.647924 -30.391084
-52.880901 -39.313751 -54.522869
-51.331666 -41.294371 -23.123250
-55.787057 -35.228704 -17.639271
-49.843350 -43.052534 -16.798628
-47.937176 -45.153705 -44.233459
-51.290804 -41.342640 -17.548556
-55.119559 -36.219344 -40.116721
-52.811506 -39.405474 -33.616895
-55.126809 -36.208590 -43.328881
-50.100665 -42.748551 -53.467637
-50.422225 -42.376796 -13.222324
-50.426996 -42.369201 -10.552887
-47.580411 -45.531168 -9.084064
-52.716355 -39.531248 -45.998920
-56.386897 -34.338459 -7.826172
-49.897035 -42.989097 -46.527865
-47.135449 -46.001895 -27.014055
-51.081145 -41.590316 -52.017733
-52.425856 -39.915206 -32.517428
-48.060821 -45.022893 -35.902775
-47.466667 -45.651481 -23.062941
-56.323740 -34.432194 -19.318906
-55.933922 -35.010746 -20.081694
-51.360685 -41.260095 -13.389897
-53.181457 -38.936838 -14.863875
-52.442276 -39.893499 -45.973373
-53.027583 -39.119874 -35.997428
-55.028771 -36.354094 -46.772041
-47.425752 -45.694776 -18.850364
-50.159029 -42.679608 -43.785272
-51.936140 -40.562487 -27.703717
-52.618432 -39.660669 -43.203958
-47.361654 -45.762579 -27.841497
-55.698534 -35.360098 -12.168175
-48.379854 -44.685385 -44.783246
-47.398729 -45.723374 -11.457261
-53.388014 -38.643483 -36.585527
-55.259471 -36.011702 -46.946809
-47.184263 -45.950265 -15.057773
-49.913647 -42.969490 -30.957739
-55.993312 -34.922582 -51.856213
-51.306636 -41.323939 -3.603037
-52.710872 -39.554441 -7.369047
-47.083170 -46.057225 -19.060587
-55.047743 -36.325940 -33.766691
-48.314167 -44.754867 -43.093000
-47.559343 -45.553453 -4.968076
-47.306576 -45.820857 -14.984673
-51.876730 -40.641013 -25.575296
-47.758907 -45.342295 -43.402463
-56.323769 -34.432154 -7.692645
-48.217876 -44.856737 -40.536323
-55.564239 -35.559412 -4.416451
-55.883831 -35.085058 -50.100568
-47.365858 -45.758143 -16.822399
-52.952406 -39.235662 -14.795378
-46.869198 -46.283581 -20.750967
-47.095173 -46.044508 -26.758128
-47.859859 -45.235501 -36.189559
-49.263077 -43.737995 -18.246922
-50.156097 -42.683073 -41.062537
-55.263464 -36.005782 -45.955838
-48.125181 -44.954807 -45.495153
-51.120620 -41.543682 -11.187629
-51.401586 -41.211775 -22.518946
-50.071614 -42.782871 -48.068084
-53.292117 -38.778295 -8.349991
-53.220509 -38.880740 -12.403242
-50.723982 -42.012220 -4.041504
-55.575201 -35.543138 -13.282190
-52.998915 -39.157764 -28.393196
-50.477014 -42.303978 -42.953350
-52.818346 -39.396436 -34.242658
-51.074359 -41.598322 -5.572593
-48.169037 -44.908411 -29.111220
-56.257390 -34.530672 -21.617667
-55.273994 -35.990145 -40.963920
-55.155242 -36.166387 -37.864481
-54.353301 -37.356575 -26.913267
-50.109095 -42.738596 -40.764194
-51.463900 -41.138162 -24.010244
-53.825722 -38.064936 -8.744118
-55.170767 -36.143341 -37.074373
-55.814595 -35.187840 -19.122481
-55.542614 -35.591499 -9.874278
-52.579857 -39.711660 -36.449401
-51.321414 -41.306478 -14.585087
-47.123891 -46.014134 -13.752970
-55.931167 -35.014837 -18.251681
-55.681039 -35.386053 -16.500609
-55.838740 -35.152000 -21.077931
-53.000009 -39.156318 -41.751686
-53.283178 -38.782040 -46.231569
-55.561121 -35.564010 -40.775863
-49.873734 -43.016635 -40.448406
-47.698612 -45.406092 -39.769664
-51.521554 -41.070051 -26.316659
-47.431702 -45.688492 -6.303464
-55.196273 -36.105502 -35.602737
-47.375277 -45.748168 -29.582976
-46.809363 -46.346878 -33.001420
-54.905558 -36.536954 -43.690400
-47.709519 -45.394550 -52.947372
-54.447848 -37.216263 -36.153211
-53.183220 -38.914161 -54.970285
-55.537581 -35.598941 -53.967463
-53.881441 -37.991295 -20.987760
-47.145416 -45.991366 -14.891867
-55.015803 -36.373346 -32.636101
-53.743529 -38.173572 -15.055417
-47.169076 -45.966309 -33.306146
-48.601269 -44.451137 -44.504085
-53.468902 -38.544635 -19.311080
-50.210851 -42.618403 -26.765371
-50.055959 -42.801364 -46.590489
-53.236612 -38.858108 -11.933214
-55.407700 -35.791719 -31.830075
-50.639563 -42.118432 -20.205037
-50.189218 -42.643953 -37.291119
-46.741224 -46.418980 -17.320245
-52.935976 -39.240962 -26.815895
-55.747443 -35.287505 -17.419656
-51.480856 -41.118140 -11.871235
-52.932629 -39.245377 -40.392966
-52.552930 -39.747247 -40.805502
-46.976847 -46.169689 -29.262265
-50.379717 -42.428031 -12.878007
-50.234914 -42.589961 -51.660376
-51.122860 -41.541031 -14.276037
-48.114632 -44.965966 -37.972661
-55.718429 -35.330567 -19.768449
-50.161262 -42.676975 -31.202763
-48.026791 -45.058899 -46.380562
-49.724649 -43.192742 -39.831180
-52.669986 -39.592531 -29.397481
-48.571638 -44.482482 -42.800322
-54.947892 -36.474123 -48.422247
-52.802100 -39.417917 -43.635325
-55.357239 -35.866597 -43.927393
-48.066862 -45.016507 -54.626026
-48.094456 -44.987315 -47.134800
-53.824035 -38.067161 -13.727810
-52.852333 -39.351508 -35.637125
-50.554816 -42.219521 -17.982435
-50.169117 -42.677980 -5.527542
-47.513242 -45.602215 -15.949721
-54.914190 -36.524148 -26.204898
-49.989363 -42.880034 -32.806078
-56.375436 -34.355467 -24.256896
-56.079719 -34.794355 -30.073227
-55.450531 -35.728149 -42.290190
-51.264629 -41.373561 -28.799523
-53.079542 -39.055272 -22.246629
-53.757336 -38.155322 -10.815576
-52.319390 -40.055925 -45.030769
-51.605471 -40.970925 -16.092471
-46.992424 -46.153222 -15.762233
-52.861797 -39.339006 -38.992884
-55.158001 -36.162310 -34.734267
-51.423831 -41.185497 -19.808719
-51.990792 -40.490252 -10.975053
-48.333907 -44.733992 -37.715777
-49.898684 -42.987151 -47.059200
-55.265705 -36.002454 -51.548104
-52.051909 -40.409469 -13.909162
-47.023343 -46.120500 -23.806454
-52.794617 -39.427799 -29.849508
-55.517444 -35.628843 -36.311373
-55.431993 -35.755653 -51.879812
-47.515787 -45.599525 -16.345134
-51.075204 -41.597332 -15.537599
-48.967213 -44.063988 -33.764321
-56.235343 -34.563394 -13.631573
-52.940581 -39.234873 -25.920907
-50.333419 -42.483377 -11.843959
-54.931518 -36.498421 -48.557481
-49.493587 -43.465691 -39.995000
-55.837227 -35.154259 -17.260685
-52.755773 -39.494498 -8.941705
-48.200592 -44.875026 -31.616201
-54.498330 -37.141333 -11.477610
-47.307107 -45.820308 -8.777949
-56.346432 -34.398513 -26.502257
-48.395376 -44.668953 -40.194968
-51.128337 -41.534557 -9.550614
-46.762706 -46.396257 -12.359746
-47.003234 -46.141779 -27.373359
-56.480357 -34.199740 -26.684278
-49.883314 -43.005308 -50.359873
-50.773030 -41.954285 -52.734435
-55.427226 -35.762744 -10.536813
-53.331799 -38.729837 -15.149977
-52.706475 -39.544300 -45.342710
-47.840705 -45.255780 -9.761191
-47.424318 -45.696297 -9.810538
-53.137775 -38.974233 -44.762784
-46.983102 -46.163071 -27.616474
-47.441390 -45.678232 -17.766795
-50.420689 -42.381425 -17.292401
-53.077104 -39.054426 -35.092449
-54.443072 -37.223357 -19.634239
-47.760333 -45.340791 -47.462763
-50.635001 -42.117339 -53.147778
-54.015014 -37.814731 -15.055423
-47.626252 -45.482654 -50.047670
-52.949171 -39.223517 -37.917952
-48.256707 -44.815659 -29.692251
-51.617988 -40.956139 -26.415027
-56.297507 -34.471130 -24.800918
-55.271919 -35.993230 -25.600088
-55.871026 -35.104092 -19.557732
-48.510946 -44.546690 -33.540729
-55.198011 -36.102922 -40.495075
-50.164684 -42.672923 -37.829814
-52.544727 -39.758084 -32.361208
-49.716090 -43.202850 -43.470364
-56.356692 -34.383283 -21.987762
-51.003773 -41.681706 -4.566755
-55.877805 -35.094038 -16.821582
-49.863561 -43.028650 -34.008280
-54.043803 -37.776684 -27.880124
-50.388514 -42.421636 -19.122675
-52.698173 -39.555271 -51.006525
-55.828685 -35.166925 -22.909600
-53.485595 -38.525357 -23.377919
-56.360509 -34.377622 -24.423611
-56.295631 -34.473911 -10.079471
-50.002824 -42.864124 -52.524254
-52.531731 -39.775267 -25.341592
-50.254192 -42.576186 -17.632209
-47.639356 -45.468792 -19.296831
-55.483518 -35.679198 -13.947127
-47.294059 -45.834095 -28.864065
-54.097264 -37.706030 -32.688241
-47.651018 -45.456438 -50.587270
-52.791018 -39.432548 -47.031397
-54.950528 -36.470213 -12.760167
-55.972445 -34.953570 -22.044797
-56.296171 -34.473118 -24.571981
-47.069607 -46.071562 -22.569620
-55.636256 -35.452529 -5.848683
-55.215082 -36.077584 -47.371016
-56.289014 -34.483732 -24.423255
-52.541021 -39.762987 -50.610266
-55.922982 -35.026980 -27.325755
-55.110750 -36.232428 -44.729437
-50.079525 -42.773525 -50.571503
-48.228602 -44.845394 -45.505005
-48.156586 -44.921580 -38.751597
-54.445373 -37.219923 -3.669049
-55.607342 -35.495412 -46.316158
-55.141044 -36.187471 -25.907191
-55.552207 -35.577251 -39.667204
-49.235419 -43.770665 -20.953852
-55.044199 -36.331192 -38.554089
-47.989628 -45.098231 -12.960330
-48.652586 -44.396849 -34.982794
-55.275555 -35.987819 -50.506712
-52.643994 -39.626886 -39.521256
-55.931892 -35.013753 -22.761646
-52.994807 -39.163198 -47.282155
-52.879530 -39.315563 -32.408254
-47.702997 -45.401462 -18.020918
-51.958240 -40.533275 -25.617847
-56.213071 -34.596443 -13.106299
-49.698557 -43.223562 -35.484786
-50.497197 -42.280134 -45.033371
-52.749671 -39.487211 -29.914843
-49.778456 -43.129172 -44.959387
-47.001025 -46.144126 -14.293540
-49.849703 -43.045028 -27.379446
-51.362306 -41.258180 -12.089794
-52.804419 -39.414842 -44.325402
-52.621887 -39.656106 -44.399661
-50.230125 -42.595627 -37.872837
-55.400546 -35.802334 -43.140080
-52.416917 -39.927026 -34.449549
-55.988042 -34.930416 -32.574379
-53.799285 -38.099874 -13.470847
-55.293478 -35.961229 -25.454808
-50.267402 -42.551589 -37.915414
-47.004748 -46.140181 -17.463215
-53.144457 -38.965394 -44.358812
-52.767576 -39.463536 -41.414044
-54.137970 -37.652227 -20.592263
-50.188479 -42.644822 -44.166501
-48.218748 -44.855824 -28.018625
-52.982714 -39.179190 -33.962401
-55.498579 -35.656834 -39.765393
-49.747038 -43.166290 -45.233972
-51.159512 -41.497733 -17.790411
-56.443009 -34.255174 -8.195298
-52.580257 -39.711134 -42.422668
-47.034607 -46.108584 -23.303979
-55.670693 -35.401393 -29.644224
-54.437700 -37.231321 -12.241803
-53.964632 -37.881336 -16.112505
-51.227746 -41.417130 -14.429342
-49.827418 -43.071348 -31.989776
-48.150157 -44.928396 -6.926927
-55.885007 -35.083331 -25.134772
-51.986771 -40.495569 -5.318441
-55.153556 -36.168896 -37.207657
-54.163302 -37.618747 -36.193860
-56.318351 -34.440189 -14.555371
-50.247029 -42.575649 -49.675732
-48.030210 -45.055284 -46.455235
-48.082366 -45.000101 -38.431059
-48.138187 -44.941048 -42.126153
-47.566001 -45.546382 -46.457963
-52.513653 -39.799159 -14.882882
-48.611872 -44.439915 -23.435456
-53.997435 -37.837979 -22.068045
-56.260426 -34.526169 -16.349506
-50.500818 -42.282326 -14.222410
-52.356652 -40.006680 -40.580405
-47.250422 -45.880266 -20.466688
-48.178275 -44.898639 -34.284233
-55.357899 -35.865637 -4.837457
-49.213875 -43.796113 -21.876968
-55.540032 -35.595338 -7.521146
-52.630527 -39.644676 -44.209103
-55.248168 -36.028481 -50.220685
-50.196880 -42.642852 -16.345666
-55.517613 -35.628596 -11.042583
-48.255492 -44.816956 -7.230600
-54.035274 -37.787960 -22.356384
-51.258848 -41.380393 -18.627361
-47.474529 -45.643176 -14.936513
-50.359566 -42.442718 -37.026619
-51.332338 -41.293583 -14.661956
-47.529752 -45.584727 -51.764136
-48.340465 -44.727046 -48.643879
-55.219933 -36.070387 -25.086950
-52.930067 -39.266152 -13.825204
-47.271087 -45.858409 -17.483824
-54.045730 -37.774142 -19.396598
-48.530011 -44.526521 -28.164729
-53.525646 -38.461559 -49.492808
-48.372752 -44.692897 -46.478520
-53.492275 -38.514557 -21.652459
-52.490821 -39.829343 -29.256721
-48.305872 -44.763656 -24.867724
-50.826051 -41.896302 -25.558849
-54.462229 -37.194923 -13.443039
-48.306812 -44.762657 -45.734116
-52.823060 -39.407229 -10.578995
-53.923030 -37.936325 -27.676661
-50.229316 -42.596590 -40.381874
-50.321224 -42.488009 -39.151417
-51.523755 -41.067459 -22.296342
-47.020918 -46.123071 -20.863587
-51.376712 -41.241157 -28.054874
-56.218837 -34.587892 -12.611887
-53.585218 -38.388449 -23.861711
-47.463298 -45.655052 -17.421659
-48.134176 -44.945291 -43.005528
-50.389087 -42.407847 -36.650623
-55.121800 -36.216016 -46.284867
-49.991537 -42.877479 -37.796190
-53.929494 -37.927780 -12.054949
-56.354410 -34.386678 -17.880723
-46.961090 -46.186373 -19.325152
-48.074629 -45.008290 -47.236438
-51.942715 -40.553798 -14.725848
-50.030793 -42.831085 -53.945470
-56.483996 -34.194338 -33.463303
-52.276386 -40.112767 -55.927821
-53.749687 -38.165440 -10.725511
-50.881745 -41.825869 -44.169405
-55.767116 -35.258306 -10.143492
-48.918665 -44.115358 -17.028855
-55.786046 -35.230221 -15.637016
-50.401918 -42.392689 -42.960615
-54.518190 -37.111865 -10.869098
-48.023376 -45.062511 -48.806544
-50.231375 -42.599119 -17.955557
-54.174351 -37.604139 -32.251801
-48.129547 -44.950188 -48.757129
-55.830630 -35.164035 -21.955958
-55.188805 -36.116585 -27.704770
-49.846024 -43.049361 -37.627072
-48.208966 -44.866171 -43.758628
-52.440859 -39.895383 -22.263432
-55.326534 -35.912174 -51.019632
-54.020752 -37.807150 -16.012215
-50.424795 -42.374439 -14.321003
-53.243179 -38.843780 -6.187328
-52.718749 -39.528070 -32.098216
-49.772627 -43.136080 -27.766115
-46.595459 -46.573181 -30.922249
-50.382186 -42.416005 -39.149887
-56.453883 -34.239034 -19.323699
-50.120638 -42.724970 -30.720333
-47.777792 -45.322343 0.405615
-55.276290 -35.986742 -35.012894
