-41.098256 -0.321695 -34.741508
-47.415834 -6.388669 -34.365419
-40.115659 0.409839 -21.373987
-29.833975 5.712284 -13.456016
-29.047206 5.976214 -23.028494
-54.737887 -19.716968 -50.191965
-56.203113 -26.080995 -46.930866
-30.231046 5.579080 -32.874999
-29.663192 5.769574 -49.627183
-23.243444 7.551044 -30.626918
-54.040988 -17.714766 -25.205094
-34.306925 3.886294 -35.195631
-37.917352 1.874487 -8.037122
-55.581170 -22.776971 -51.429390
-43.443183 -2.268096 -33.977290
-49.037764 -8.463085 -42.852038
-40.474920 0.142374 -15.142996
-56.612730 -32.166965 -10.715185
-23.598153 7.459182 -23.787011
-30.296634 5.557078 -40.201579
-38.031844 1.802560 -52.621581
-55.714777 -23.376875 -49.527806
-49.562883 -9.207237 -22.471525
-56.132493 -25.580113 -29.063580
-49.542746 -9.178699 -12.382744
-33.357286 4.324094 -22.109986
-24.922990 7.116079 -40.584438
-56.506470 -28.810520 -42.061514
-50.601036 -10.767683 -36.543225
-23.328003 7.529144 -11.723103
-56.615924 -31.990535 -23.265673
-53.582448 -16.557615 -36.130913
-55.676469 -23.204875 -44.590341
-29.594322 5.792676 -21.782073
-56.620613 -31.731287 -21.675778
-44.934159 -3.673299 -38.311197
-56.531846 -29.226023 -43.677210
-43.580122 -2.387971 -43.741861
-55.073292 -20.808110 -22.953792
-53.717425 -16.898239 -52.959369
-51.498353 -12.280244 -28.372245
-37.529327 2.118249 -24.449214
-50.705843 -10.944347 -34.508196
-47.203875 -6.133726 -46.856495
-54.844077 -20.062411 -36.881636
-55.526254 -22.530395 -26.339047
-50.152425 -10.042683 -11.199779
-43.286907 -2.131291 -9.035546
-34.585658 3.740529 -28.575119
-56.574632 -29.926616 -21.100250
-43.512264 -2.328568 -43.140462
-52.966861 -15.141620 -23.824553
-56.631110 -31.150490 -35.363741
-37.635274 2.051691 -16.546838
-51.263031 -11.883578 -17.685421
-48.966147 -8.361598 -47.257733
-24.701773 7.173368 -37.976344
-56.600718 -30.353838 -17.592273
-56.199675 -26.056633 -36.851474
-35.343962 3.343970 -11.613576
-37.531400 2.116947 -18.334897
-53.785982 -17.071252 -35.392147
-30.043611 5.641958 -51.052141
-38.547380 1.478696 -48.841728
-26.591853 6.683882 -44.089027
-52.840156 -14.883539 -22.375293
-50.614496 -10.790375 -34.217307
-24.692690 7.175722 -14.600128
-56.525648 -29.124608 -37.991471
-32.432401 4.718140 -9.260150
-49.412361 -8.993928 -42.912004
-55.761714 -23.587608 -18.205668
-45.244261 -3.991405 -7.488639
-40.346791 0.237763 -16.588134
-22.102997 7.846392 -30.458096
-56.612262 -32.193054 -8.408755
-40.930584 -0.196865 -38.917804
-34.607749 3.728977 -16.537925
-40.782614 -0.086701 -6.265294
-25.946797 6.850937 -53.933828
-47.027307 -5.921347 -46.627995
-47.997163 -7.087904 -28.919707
-37.365211 2.221350 -27.404603
-50.929184 -11.320825 -41.889516
-55.488607 -22.361384 -34.574428
-56.397927 -27.462753 -17.764658
-35.067866 3.488356 -11.213401
-56.596705 -33.052601 -43.742014
-53.403947 -16.107157 -42.762829
-52.592372 -14.378828 -9.036366
-33.029360 4.463807 -39.986232
-47.737925 -6.776089 -20.526947
-35.550996 3.235697 -46.170674
-40.095836 0.424599 -24.109519
-52.979425 -15.167216 -9.836315
-55.477060 -22.309537 -47.785098
-24.273267 7.284343 -16.492723
-25.047760 7.083766 -40.071660
-43.299223 -2.142073 -37.458778
-52.767695 -14.735939 -22.450872
-40.491508 0.130024 -11.262441
-32.908268 4.515398 -2.836646
-48.734696 -8.033606 -34.665143
-40.035064 0.469842 -20.991328
-56.462664 -28.093166 -36.971361
-34.792842 3.632182 -17.010928
-56.230344 -26.274170 -22.969837
-55.014375 -20.616432 -27.920424
-56.583693 -30.075045 -30.846956
-43.648327 -2.447676 -42.799086
-25.354903 7.004223 -8.819388
-55.523700 -22.518935 -38.374744
-51.220872 -11.812509 -8.044868
-35.926278 3.039442 -42.457971
-33.221175 4.382084 -24.408742
-42.822294 -1.724569 -24.823983
-53.866408 -17.274213 -8.334794
-52.179821 -13.538499 -43.002596
-56.626128 -31.426225 -27.558655
-52.942015 -15.091014 -21.229090
-35.102512 3.470238 -17.422292
-37.459041 2.162402 -21.839551
-53.600672 -16.603596 -49.421391
-55.817249 -23.836981 -32.239841
-56.578328 -29.987249 -17.395763
-50.921322 -11.307570 -43.652362
-55.835790 -23.920214 -12.468983
-38.904432 1.254391 -33.141598
-34.583542 3.741635 -31.067954
-41.432617 -0.570625 -38.782451
-56.591984 -33.313807 -34.311590
-38.598530 1.446563 -45.822450
-44.926990 -3.665948 -42.200857
-54.085080 -17.826044 -10.467622
-56.615248 -32.027839 -25.702016
-49.491541 -9.106137 -19.597223
-23.696488 7.433715 -10.139534
-35.451448 3.287758 -44.788247
-33.031399 4.462938 -35.555244
-37.453476 2.165899 -23.734601
-24.191941 7.305404 -18.222175
-47.137139 -6.053455 -47.855114
-56.609457 -32.347770 -49.246730
-56.460901 -28.064343 -30.332907
-40.180943 0.361233 -18.282975
-56.377966 -27.321211 -31.498443
-56.605338 -32.576000 -2.203019
-56.601109 -32.809380 -36.672835
-44.765404 -3.500189 -39.730239
-55.749829 -23.534267 -20.617766
-32.882325 4.526450 -40.489320
-29.260341 5.904715 -1.004514
-40.156259 0.379612 -16.792815
-55.900677 -24.211575 -21.551845
-22.520863 7.738174 -15.951340
-43.409443 -2.238558 -44.823910
-55.636141 -23.023806 -35.234036
-55.104402 -20.909314 -14.209775
-54.910888 -20.279780 -45.713048
-32.612696 4.641326 -45.858432
-37.587868 2.081472 -17.293377
-54.591915 -19.242092 -28.069748
-43.566846 -2.376350 -47.781324
-54.670270 -19.496984 -38.239443
-25.480890 6.971595 -46.384350
-48.240628 -7.380750 -21.115449
-43.551147 -2.362605 -43.141975
-25.231491 7.036185 -46.567873
-27.137331 6.542617 -33.039746
-24.999880 7.096166 -47.181036
-42.558461 -1.493610 -24.261514
-35.255857 3.390045 -0.289930
-56.559805 -29.683861 -11.987642
-43.826088 -2.603292 -20.946753
-23.310545 7.533665 -35.800200
-38.432791 1.550682 -41.219857
-55.637954 -23.031939 -35.512252
-32.598082 4.647553 -40.570971
-43.523483 -2.338388 -44.068309
-44.753048 -3.487520 -28.234725
-51.203130 -11.782604 -15.918346
-55.048006 -20.725845 -9.427064
-56.622606 -31.621125 -32.081258
-52.651706 -14.499689 -16.452431
-24.721331 7.168305 -5.488710
-54.759000 -19.785652 -49.322134
-50.618809 -10.797640 -29.507045
-55.633637 -23.012556 -11.518950
-54.646031 -19.418131 -50.112300
-56.535986 -29.293859 -46.565097
-25.408388 6.990372 -40.345448
-51.031872 -11.493923 -44.217791
-25.749304 6.902083 -46.131100
-23.450965 7.497300 -3.959745
-56.310396 -26.841952 -21.196885
-47.214246 -6.146198 -46.993781
-43.352775 -2.188952 -48.882244
-42.692158 -1.610648 -15.140956
-47.148132 -6.066679 -31.072905
-54.787095 -19.877040 -45.930909
-55.917350 -24.286439 -30.835709
-28.579001 6.133279 -11.300979
-56.340962 -27.058732 -29.788500
-55.904840 -24.230248 -19.862536
-52.973606 -15.155362 -29.796950
-34.781422 3.638152 -12.245227
-28.902185 6.024862 -11.790744
-43.458878 -2.281832 -36.536095
-56.197548 -26.041522 -38.025141
-56.301168 -26.776479 -17.411820
-33.212571 4.385749 -38.266674
-28.623459 6.118364 -10.930438
-49.229560 -8.734882 -40.910339
-28.858104 6.039650 -18.915624
-52.142354 -13.462186 -40.415666
-40.517983 0.110313 -14.655397
-39.910544 0.562549 -22.158876
-56.061818 -25.078848 -26.378889
-47.019572 -5.912044 -32.847463
-43.466080 -2.288138 -26.082773
-52.809753 -14.821613 -14.475808
-46.770254 -5.612162 -46.382096
-43.112313 -1.978452 -51.756706
-32.004313 4.900528 -12.967190
-24.976452 7.102234 -41.854576
-53.583864 -16.561182 -32.722937
-37.388301 2.206843 -22.774931
-54.205457 -18.129818 -13.364513
-52.615978 -14.426907 -7.767085
-56.597982 -32.981994 -35.513374
-47.905124 -6.977198 -14.548023
-40.294561 0.276650 -17.369034
-39.833533 0.619881 -15.569235
-56.548720 -29.502371 -22.705918
-41.063026 -0.295470 -44.730094
-37.358725 2.225423 -13.017538
-53.453746 -16.232827 -29.781496
-29.752445 5.739634 -8.870066
-53.002053 -15.213304 -17.595576
-52.282689 -13.748035 -31.362054
-46.956741 -5.836472 -39.894067
-42.528697 -1.467555 -27.975065
-39.030633 1.175111 -33.416454
-49.322740 -8.866931 -7.887548
-29.361720 5.870706 -18.265255
-30.331698 5.545315 -30.923698
-47.256569 -6.197108 -45.406268
-47.117688 -6.030059 -37.127635
-52.139194 -13.455753 -28.530534
-48.955671 -8.346754 -45.946588
-30.506516 5.486669 -29.323360
-25.060485 7.080472 -18.661571
-25.104400 7.069099 -36.316195
-53.607665 -16.621246 -26.466855
-50.857663 -11.200266 -35.352065
-40.970965 -0.226931 -38.433306
-47.617319 -6.631022 -16.200196
-43.378991 -2.211899 -12.739166
-36.013195 2.993991 -35.357096
-34.527065 3.771169 -28.340999
-53.486337 -16.315077 -34.793325
-49.092162 -8.540173 -43.418507
-56.607174 -32.473746 -46.165702
-50.862479 -11.208384 -43.100214
-51.497900 -12.279483 -22.258209
-54.182009 -18.070647 -25.774599
-49.484388 -9.096003 -19.213322
-49.825248 -9.579034 -4.998698
-54.694140 -19.574640 -28.434387
-56.579849 -30.012122 -3.927224
-40.698368 -0.023983 -50.189462
-43.520657 -2.335917 -40.130630
-52.559643 -14.312161 -37.377300
-55.699268 -23.307234 -12.744838
-49.765465 -9.494315 -29.870868
-56.576416 -29.955840 -14.751317
-48.977421 -8.377573 -36.923930
-45.936721 -4.701730 -32.425877
-54.628057 -19.359671 -46.202208
-25.478781 6.972142 -43.727028
-41.290817 -0.465056 -43.419174
-40.305074 0.268823 -19.640487
-56.603597 -32.671370 -54.038523
-36.356950 2.814219 -35.731022
-26.149036 6.798562 -41.981614
-38.657584 1.409463 -40.987011
-56.623204 -31.587787 -16.281278
-56.513227 -28.921147 -37.895266
-55.624224 -22.970301 -16.182403
-37.737082 1.987735 -9.812064
-56.126209 -25.535528 -36.523641
-52.389625 -13.965853 -36.775269
-29.180702 5.931430 -9.011495
-24.736234 7.164445 -40.579923
-52.782781 -14.766676 -18.170217
-33.376509 4.315904 -43.698180
-43.058968 -1.931755 -42.508633
-56.259552 -26.481339 -13.317038
-23.643262 7.447500 -16.285892
-35.733927 3.140035 -28.023801
-56.602051 -32.757171 -44.300822
-54.719039 -19.655649 -36.291394
-23.745835 7.420935 -9.263273
-30.462634 5.501390 -35.524294
-56.090422 -25.281744 -50.034723
-53.994078 -17.596392 -27.422609
-48.980977 -8.382611 -30.193299
-55.821941 -23.858030 -17.697567
-53.974623 -17.547297 -15.523179
-56.196844 -26.036546 -36.171639
-51.541984 -12.353794 -38.866761
-24.834925 7.138886 -50.191740
-29.411098 5.854142 -18.040782
-55.662678 -23.142947 -16.553420
-56.593808 -33.213105 -38.522432
-45.902479 -4.666607 -16.908275
-56.173443 -25.870577 -40.781514
-50.976415 -11.400437 -8.028972
-38.069955 1.778620 -9.142231
-40.542514 0.092049 -12.969915
-47.205171 -6.135286 -41.209615
-51.511128 -12.301780 -17.478328
-36.025646 2.987477 -53.178655
-49.489201 -9.102822 -13.654613
-23.445838 7.498628 -23.172589
-40.845369 -0.133424 -38.191444
-40.119958 0.406642 -13.311526
-45.427219 -4.179082 -17.129011
-49.617354 -9.284429 -24.681820
-55.514107 -22.475854 -40.079624
-32.379411 4.740717 -47.245634
-56.461706 -28.077512 -22.998589
-40.969114 -0.225552 -44.638238
-56.242119 -26.357671 -17.595071
-52.332551 -13.849607 -4.619178
-35.234647 3.401135 -5.752450
-52.873406 -14.951269 -16.279153
-47.027812 -5.921957 -31.511867
-49.713019 -9.419998 -16.321001
-23.746398 7.420789 -14.694853
-53.529329 -16.423565 -39.954832
-56.232292 -26.287966 -14.342774
-24.809117 7.145571 -35.949186
-52.645750 -14.487557 -13.349028
-56.173265 -25.869325 -37.186955
-34.602685 3.731624 -12.783232
-40.965056 -0.222531 -48.226847
-25.814282 6.885255 -47.786134
-46.820891 -5.673069 -50.412619
-49.076452 -8.517911 -50.550043
-54.808076 -19.945299 -34.366863
-37.867127 1.906038 -47.103696
-43.371104 -2.204998 -42.025123
-46.032475 -4.799956 -24.244775
-56.578719 -34.046465 -15.760126
-49.767125 -9.496668 -13.262346
-36.019373 2.990758 -24.607845
-49.877357 -9.652879 -29.442846
-23.285765 7.540082 -28.667413
-28.920873 6.018594 -7.556799
-42.622088 -1.549309 -26.392630
-32.924162 4.508627 -48.011490
-56.282104 -26.641260 -55.559026
-47.213444 -6.145237 -40.022364
-30.080617 5.629543 -42.877347
-56.302968 -26.789244 -15.322868
-55.091607 -20.867695 -22.018057
-49.888752 -9.669028 -25.694277
-56.276143 -26.598980 -7.771956
-56.609170 -32.364099 -7.164078
-49.609842 -9.273784 -17.093959
-51.117610 -11.638449 -39.481059
-47.705049 -6.736543 -27.078668
-49.987038 -9.808312 -27.120210
-55.586291 -22.799968 -36.915904
-37.291968 2.267360 -26.023944
-32.272275 4.786363 -12.867769
-56.100017 -25.349775 -35.547722
-38.734503 1.361141 -50.200117
-42.840381 -1.740403 -40.968425
-26.802330 6.629373 -30.120756
-28.928710 6.015964 -25.201511
-56.618137 -31.868234 -20.176679
-56.071933 -25.150572 -31.431222
-55.801433 -23.765952 -29.950093
-45.005335 -3.746311 -40.007502
-41.426854 -0.566337 -31.306869
-53.643185 -16.710896 -41.512847
-42.104803 -1.096481 -30.025623
-53.607277 -16.620270 -44.621811
-25.739892 6.904520 -41.610320
-52.893231 -14.991645 -22.945237
-47.553358 -6.554089 -39.198123
-54.011435 -17.640194 -17.866618
-49.760277 -9.486966 -14.451460
-50.752175 -11.022452 -36.087522
-56.148520 -25.693774 -36.072976
-51.019657 -11.473332 -46.034146
-32.978052 4.485667 -41.813835
-45.655446 -4.413199 -11.641196
-55.697323 -23.298506 -38.672315
-26.086776 6.814686 -40.886190
-56.587928 -30.144374 -18.125286
-35.607320 3.206245 -47.677184
-30.160147 5.602863 -44.871084
-45.476315 -4.229443 -21.674648
-28.881054 6.031951 -14.114702
-47.086721 -5.992809 -37.431035
-25.821368 6.883419 -52.012097
-53.958189 -17.505822 -49.225948
-52.423787 -14.035443 -53.236058
-43.334098 -2.172601 -34.818396
-56.544283 -29.429690 -16.210091
-56.601833 -32.769501 -37.296965
-27.449017 6.461896 -23.892348
-51.502742 -12.287643 -10.114016
-52.616141 -14.427240 -45.340898
-22.647589 7.705355 -32.980344
-56.609077 -32.369124 -10.796252
-56.202516 -26.076788 -8.133307
-53.817297 -17.150276 -21.319104
-30.424366 5.514228 -37.292552
-36.437861 2.771909 -24.824516
-56.594031 -33.200379 -53.287974
-24.443093 7.240361 -7.384429
-33.092221 4.437025 -51.814852
-40.543205 0.091536 -44.661810
-26.488559 6.710633 -34.012937
-47.532257 -6.528708 -51.040042
-46.986676 -5.872478 -28.292642
-40.061388 0.450244 -19.580358
-35.210374 3.413832 -21.393554
-55.600457 -22.863581 -40.995976
-46.896338 -5.763812 -39.996347
-54.702767 -19.602702 -25.708452
-56.207549 -26.112477 -38.077156
-54.617994 -19.326927 -35.489773
-56.617718 -31.891123 -11.464049
-26.006522 6.835469 -41.456032
-45.947905 -4.713204 -29.766843
-24.662761 7.183473 -17.308918
-34.989385 3.529398 -6.462945
-35.754199 3.129434 -47.985116
-52.854016 -14.911763 -14.888752
-56.278540 -26.615972 -14.580962
-56.233269 -26.294917 -15.419995
-47.055369 -5.955101 -36.945607
-55.794243 -23.733685 -12.102898
-52.812681 -14.827574 -17.552068
-29.304457 5.889916 -16.227086
-27.161549 6.536344 -23.736290
-46.956019 -5.835603 -38.693173
-45.040708 -3.782596 -36.835661
-55.060508 -20.766523 -19.622704
-37.974802 1.838396 -49.634468
-45.880303 -4.643859 -28.683174
-56.604381 -32.628321 -42.156835
-30.730732 5.411454 -38.457253
-52.602321 -14.399091 -49.691872
-43.732467 -2.521334 -37.889705
-53.020580 -15.251044 -33.263013
-37.721041 1.997810 -15.882317
-51.594618 -12.442513 -31.149325
-56.375228 -27.301792 -25.385717
-54.125982 -17.929255 -23.899935
-56.523809 -29.094447 -43.905426
-55.887828 -24.153873 -30.351738
-32.344675 4.755516 -15.259134
-56.213917 -26.157624 -8.219522
-56.601852 -32.768589 -26.554895
-55.822050 -23.858541 -23.024827
-54.659592 -19.462263 -51.367496
-29.694346 5.759121 -4.531791
-55.874798 -24.095380 -38.719684
-56.544878 -29.439460 -35.061271
-41.134501 -0.348680 -30.901200
-50.865099 -11.212797 -43.607354
-26.535363 6.698511 -38.636201
-47.802548 -6.853821 -8.127312
-34.964621 3.542348 -13.995369
-56.615154 -32.033196 -24.011149
-44.985418 -3.725884 -30.876754
-44.033972 -2.785269 -41.614317
-56.226984 -26.250331 -9.249689
-39.897078 0.572571 -19.103579
-40.158780 0.377736 -33.930187
-47.601087 -6.611499 -13.869877
-56.498358 -28.677708 -49.344708
-53.788373 -17.077288 -3.235424
-56.526103 -29.132026 -39.166220
-31.837839 4.971455 -15.625887
-54.969568 -20.470676 -10.267896
-35.731891 3.141099 -38.196076
-40.002149 0.494346 -14.646483
-51.553414 -12.373059 -11.381492
-40.222136 0.330569 -25.013338
-40.383977 0.210080 -12.342407
-56.226998 -26.250430 -8.515402
-54.031920 -17.691897 -24.830180
-56.526038 -29.130890 -47.997359
-51.243920 -11.851367 -11.261500
-42.646341 -1.570539 -24.338332
-56.166875 -25.823989 -31.029227
-56.621283 -31.694059 -23.491262
-52.343314 -13.871524 -40.664282
-56.594581 -33.170314 -28.861674
-52.723533 -14.645992 -22.901743
-50.602608 -10.770336 -44.661112
-28.644591 6.111276 -20.660261
-40.065854 0.446920 -17.315336
-54.606574 -19.289771 -38.970537
-55.547757 -22.626954 -45.122747
-50.913267 -11.293995 -32.900010
-52.201915 -13.583512 -36.577790
-37.662463 2.034610 -18.952614
-56.115921 -25.462587 -32.626132
-55.614481 -22.926537 -38.344814
-31.941503 4.927288 -18.106292
-56.588815 -33.488831 -35.455842
-52.408054 -14.003389 -43.170292
-56.192506 -26.005773 -14.047940
-56.083669 -25.233818 -38.030276
-37.596403 2.076109 -14.331609
-54.097947 -17.858518 -9.163232
-56.628655 -31.286436 -32.862596
-24.914879 7.118180 -46.832060
-43.398303 -2.228808 -36.446209
-24.166424 7.312012 -16.496729
-46.314947 -5.089714 -46.934471
-25.561851 6.950629 -40.674016
-43.815174 -2.593733 -19.731369
-56.600540 -32.841125 -29.440535
-53.888948 -17.331096 -8.498381
-35.712108 3.151444 -34.369517
-42.818579 -1.721316 -26.366395
-32.037616 4.886339 -12.201287
-35.789659 3.110889 -38.166912
-49.851615 -9.616405 -9.965281
-55.722622 -23.412098 -4.444677
-40.723315 -0.042553 -13.314507
-56.625334 -31.470052 -25.811090
-56.307069 -26.818355 -28.081403
-54.997684 -20.562140 -34.533121
-23.756852 7.418082 -20.115089
-52.252211 -13.685956 -33.024519
-51.589547 -12.433964 -19.486927
-56.210703 -26.134846 -7.788559
-55.596354 -22.845144 -34.455008
-42.742323 -1.654565 -9.859327
-56.612464 -32.182010 -22.887324
-56.140923 -25.639910 -37.340687
-35.634384 3.192091 -51.957186
-54.065288 -17.776100 -21.964832
-49.721216 -9.431608 -15.771948
-23.419048 7.505565 -13.612158
-52.290598 -13.764145 -32.171710
-47.844444 -6.904213 -10.657477
-56.053772 -25.021763 -25.070337
-50.819867 -11.136553 -31.699282
-44.984017 -3.724447 -25.933369
-41.070851 -0.301294 -44.879305
-56.166987 -25.824779 -30.733525
-24.611652 7.196709 -1.386255
-52.712248 -14.623003 -13.840946
-53.411568 -16.126391 -35.527302
-48.835062 -8.175836 -32.577475
-43.345527 -2.182608 -47.481732
-45.722465 -4.481947 -24.920814
-56.589117 -33.472105 -36.106246
-47.855436 -6.917433 -19.462424
-54.780625 -19.856004 -31.880262
-35.092491 3.475477 -10.681246
-29.940041 5.676701 -44.948163
-52.859623 -14.923190 -22.839064
-41.579158 -0.679725 -48.444938
-43.149836 -2.011297 -41.627276
-52.463172 -14.115665 -39.346247
-32.232288 4.803399 -29.573903
-43.577988 -2.386102 -34.811622
-31.950243 4.923564 -11.718038
-24.305895 7.275893 -45.960051
-35.394149 3.317725 -38.260613
-55.614082 -22.924763 -44.971303
-56.615981 -31.987150 -6.433544
-52.469106 -14.127750 -54.896966
-47.800075 -6.850843 -12.743858
-32.831515 4.548099 -38.447160
-31.888128 4.950028 -22.958270
-54.884021 -20.192371 -12.635443
-56.491809 -28.570454 -33.483628
-33.389780 4.310250 -29.916952
-52.501242 -14.193199 -34.815876
-24.403515 7.250612 -8.338728
-56.086574 -25.254441 -37.912385
-54.166426 -18.031322 -32.857044
-24.492044 7.227684 -14.651506
-35.591512 3.214512 -33.815788
-55.872291 -24.084110 -24.001539
-23.442105 7.499594 -21.478202
-47.122718 -6.036112 -29.251754
-56.146563 -25.679915 -41.222102
-55.562952 -22.695169 -37.802219
-29.452354 5.840302 -24.776403
-45.580850 -4.336681 -11.489486
-41.045757 -0.282612 -45.024448
-54.639875 -19.398113 -24.561674
-25.955472 6.848691 -38.466549
-22.628809 7.710219 -21.621398
-47.696457 -6.726213 -19.981253
-47.277208 -6.221933 -48.258845
-40.543739 0.091137 -14.661903
-29.346457 5.875826 -14.699818
-56.561593 -29.713168 -19.400691
-37.451826 2.166937 -34.167891
-51.119385 -11.641441 -3.229949
-53.895925 -17.348697 -46.891850
-23.673091 7.439775 -6.586479
-47.979381 -7.066515 -25.773910
-56.273647 -26.581299 -21.362653
-55.560914 -22.686025 -40.914188
-54.765285 -19.806089 -41.568611
-50.889674 -11.254225 -45.776872
-55.456620 -22.217741 -24.856382
-55.523556 -22.518266 -40.144902
-24.062400 7.338952 -20.094557
-35.700435 3.157549 -41.108027
-45.338815 -4.088401 -8.938277
-54.739516 -19.722256 -41.007816
-55.797640 -23.748938 -23.447295
-24.640713 7.189182 -18.611012
-56.624910 -31.493772 -17.743708
-45.452973 -4.205502 -18.112819
-37.789131 1.955037 -52.299965
-28.647122 6.110426 -21.350056
-56.608833 -32.382616 -13.716294
-56.593983 -33.203205 -43.710442
-26.858770 6.614758 -28.379563
-55.011134 -20.605888 -19.992146
-34.935394 3.557633 -10.357829
-50.651660 -10.853016 -43.205167
-31.565545 5.087465 -8.869779
-56.105805 -25.390842 -35.985596
-48.844609 -8.189365 -35.934920
-29.632393 5.779906 -37.897306
-23.598741 7.459028 -23.151509
-31.627575 5.061036 -27.255429
-40.823280 -0.116977 -42.381192
-53.948057 -17.480261 -19.739549
-31.537976 5.099211 -36.472663
-22.791394 7.668112 -27.131142
-37.316796 2.251762 -32.077368
-56.299991 -26.768140 -22.753644
-43.569085 -2.378307 -53.633484
-26.799519 6.630101 -34.361077
-45.735063 -4.494868 -13.412589
-38.505425 1.505052 -36.677732
-46.141717 -4.912015 -15.603143
-29.260573 5.904638 -9.125276
-35.949188 3.027462 -42.734501
-32.441163 4.714407 -42.137518
-23.087159 7.591518 -24.318381
-56.603792 -32.660726 -44.832612
-24.523783 7.219464 -18.504395
-41.164005 -0.370647 -51.675251
-56.596659 -33.055452 -33.909399
-24.721109 7.168361 -15.926159
-49.423573 -9.009820 -22.509115
-55.614386 -22.926116 -39.051933
-33.566462 4.234974 -40.239373
-44.711243 -3.444633 -34.419141
-24.067832 7.337544 -21.038000
-55.165228 -21.107199 -25.820512
-38.626410 1.429047 -28.334433
-38.087911 1.767338 -6.793507
-52.363670 -13.912987 -38.050887
-34.729295 3.665414 -12.234937
-51.499953 -12.282942 -23.816192
-49.556876 -9.198721 -10.427148
-42.860630 -1.758128 -12.154487
-32.860080 4.535929 -38.737944
-55.611748 -22.914275 -30.905385
-55.554223 -22.655966 -38.229906
-45.575490 -4.331180 -50.848863
-40.374792 0.216917 -25.208825
-23.533205 7.476002 -24.432026
-49.497548 -9.114648 -18.592827
-56.528145 -29.165442 -51.761400
-35.817909 3.096115 -41.311623
-28.556308 6.140892 -15.960115
-53.532829 -16.432392 -42.670379
-39.747120 0.684214 -21.960816
-45.730947 -4.490647 -30.972696
-54.950968 -20.410164 -14.542838
-37.953807 1.851584 -14.488038
-38.563790 1.468385 -46.510367
-45.747708 -4.507843 -21.841104
-54.940741 -20.376884 -17.003778
-54.668050 -19.489777 -37.725556
-55.722479 -23.411449 -15.321630
-56.620059 -31.761919 -27.729746
-50.985719 -11.416127 -46.529033
-49.822968 -9.575806 -20.104425
-49.341606 -8.893659 -46.237899
-36.184896 2.904198 -35.243806
-38.115123 1.750244 -8.713060
-50.088805 -9.952526 -33.076167
-49.618372 -9.285871 -8.481271
-56.511088 -28.886091 -40.547998
-56.553372 -29.578577 -13.529210
-38.309594 1.628075 -50.746813
-42.421361 -1.373591 -24.208808
-28.784463 6.064355 -11.767512
-52.613751 -14.422377 -10.361634
-55.441980 -22.151997 -32.252135
-29.879087 5.697149 -28.676389
-55.477723 -22.312491 -51.334821
-55.006365 -20.590383 -10.711192
-24.041406 7.344388 -21.497909
-48.955760 -8.346875 -41.745628
-53.795390 -17.094985 -8.932333
-47.956049 -7.038452 -25.401539
-56.050665 -24.999764 -21.299032
-40.355472 0.231302 -24.797985
-31.842834 4.969326 -27.818090
-55.661041 -23.135593 -48.507554
-56.625495 -31.461010 -23.772502
-56.248086 -26.399989 -13.413447
-52.369362 -13.924579 -34.885214
-47.306701 -6.257408 -36.677352
-43.520965 -2.336184 -31.789749
-25.519387 6.961625 -44.602440
-51.106325 -11.619424 -17.366452
-53.534141 -16.435718 -35.638512
-30.047196 5.640754 -40.364078
-55.920655 -24.301269 -21.552924
-30.181612 5.595663 -42.021996
-29.359108 5.871583 -21.461744
-40.988397 -0.239908 -40.677340
-49.251259 -8.765626 -11.562230
-51.416765 -12.142720 -14.562271
-56.115579 -25.460167 -41.071996
-56.593150 -33.249354 -36.220215
-30.033085 5.645489 -2.503271
-40.571284 0.070631 -11.436052
-30.243067 5.575047 -36.613501
-55.540751 -22.595491 -37.056886
-22.427802 7.762274 -15.843555
-52.588672 -14.371291 -18.683376
-48.000648 -7.092098 -28.326682
-26.563567 6.691207 -27.170994
-54.637179 -19.389338 -39.941478
-44.899899 -3.638156 -36.345411
-45.769053 -4.529739 -17.912715
-56.469349 -28.202726 -36.299485
-29.842659 5.709370 -55.801553
-29.225787 5.916307 -26.976956
-48.260787 -7.404993 -16.088744
-30.520797 5.481879 -36.361047
-55.741667 -23.497599 -13.284725
-42.691875 -1.610402 -19.288441
-53.562894 -16.508274 -35.147826
-43.584789 -2.392055 -22.187253
-23.003807 7.613103 -21.784791
-37.309549 2.256314 -21.833671
-40.385524 0.208927 -22.805861
-55.755731 -23.560756 -4.182785
-47.882149 -6.949565 -21.659895
-56.497487 -28.663395 -38.701649
-44.653910 -3.385820 -37.969053
-47.978813 -7.065833 -9.798237
-56.581191 -30.034113 -33.852678
-56.168139 -25.832954 -27.014251
-53.462525 -16.254979 -41.578602
-45.314255 -4.063206 -41.410246
-54.638630 -19.394052 -39.235747
-53.410827 -16.124521 -23.679049
-31.507662 5.112127 -22.550113
-56.263763 -26.511161 -16.045890
-39.940528 0.540225 -27.819465
-53.110546 -15.434293 -18.711650
-25.513555 6.963136 -44.387104
-23.849788 7.394014 -25.054291
-42.796084 -1.701625 -41.031957
-33.490480 4.267346 -28.929227
-52.434085 -14.056419 -36.752135
-56.487061 -28.492668 -30.932572
-47.916099 -6.990397 -26.743558
-42.950657 -1.836940 -21.374861
-51.021435 -11.476327 -6.076200
-56.602938 -32.708568 -9.174523
-54.326048 -18.434146 -26.982709
-38.830858 1.300610 -24.741817
-36.062743 2.968078 -38.483624
-45.219361 -3.965861 -36.688897
-27.006852 6.576407 -33.988924
-49.934382 -9.733694 -28.660761
-51.283234 -11.917637 -19.702129
-51.139584 -11.675486 -8.705659
-23.378740 7.516004 -11.206253
-43.035089 -1.910851 -19.048217
-43.522365 -2.337409 -37.883403
-45.653262 -4.410959 -13.783532
-41.252692 -0.436674 -47.041729
-29.863476 5.702386 -36.930772
-38.217717 1.685795 -45.595340
-37.023538 2.435992 -39.522695
-33.349052 4.327602 -46.046146
-42.373012 -1.331269 -34.366650
-31.653866 5.049836 -5.570750
-23.847945 7.394491 -52.898015
-37.764621 1.970434 -18.520560
-31.486255 5.121246 -24.595221
-52.473770 -14.137249 -39.452886
-34.822464 3.616690 -26.194930
-50.861420 -11.206594 -27.056649
-55.544238 -22.611148 -35.658943
-42.731077 -1.644716 -19.559764
-56.531977 -29.228189 -37.799686
-44.938376 -3.677626 -36.321817
-50.840862 -11.171944 -46.137355
-56.107425 -25.402329 -45.598756
-43.664348 -2.461702 -32.097720
-53.409439 -16.121010 -35.611359
-30.139442 5.609809 -33.122271
-55.158452 -21.085144 -11.303942
-42.885148 -1.779591 -23.690936
-44.870294 -3.607790 -36.683342
-54.621245 -19.337502 -35.134375
-56.575951 -29.948329 -29.109076
-39.046761 1.164977 -29.721587
-55.495907 -22.394143 -37.421069
-49.646659 -9.325958 -15.893088
-24.124414 7.322892 -16.866440
-53.478092 -16.294262 -28.454684
-34.684244 3.688972 -27.167382
-35.193683 3.422558 -10.165624
-22.578347 7.723287 -36.614358
-35.841696 3.083675 -46.421264
-32.019202 4.894184 -22.120067
-35.284976 3.374817 -15.812064
-54.107491 -17.882595 -25.279142
-45.375130 -4.125649 -21.088660
-49.089392 -8.536248 -40.881653
-27.560580 6.433004 -33.232329
-56.396518 -27.452789 -19.450759
-35.232062 3.402487 -4.269051
-53.700893 -16.856517 -44.135757
-51.342605 -12.017710 -13.864990
-38.308725 1.628620 -46.697763
-56.508592 -28.845280 -47.515876
-47.684443 -6.711759 -13.966107
-56.596055 -33.088493 -45.265986
-48.009453 -7.102687 -27.711830
-49.507189 -9.128308 -46.909877
-52.270104 -13.722411 -47.643517
-23.304715 7.535176 -15.418215
-56.552202 -29.559432 -3.462395
-51.364039 -12.053836 -22.769259
-56.593351 -33.238189 -41.568102
-23.823288 7.400877 -21.053914
-52.159453 -13.497021 -45.371564
-56.550457 -29.530819 -21.195184
-53.826919 -17.174552 -11.616040
-56.478539 -28.353226 -29.570894
-55.466299 -22.261201 -31.046197
-56.609795 -30.502477 -20.068411
-29.736098 5.745117 -46.710897
-26.305075 6.758151 -25.421355
-52.625702 -14.446712 -17.719459
-33.547519 4.243045 -43.610042
-52.637558 -14.470869 -18.498118
-25.141658 7.059449 -45.064739
-47.606876 -6.618462 -23.273643
-48.838356 -8.180504 -28.008595
-40.317927 0.259254 -18.355778
-56.575291 -29.937465 -15.146957
-23.414031 7.506865 -11.687881
-23.412607 7.507233 -12.683802
-29.609441 5.787605 -43.185561
-47.631767 -6.648400 -15.497711
-55.478592 -22.316414 -35.710504
-39.914597 0.559530 -13.409794
-45.618382 -4.375176 -17.624657
-43.839906 -2.615387 -43.501778
-24.981557 7.100912 -39.684960
-35.297312 3.368365 -45.253389
-56.263917 -26.512290 -16.191446
-43.291516 -2.135324 -41.701120
-24.481961 7.230295 -17.822004
-49.077311 -8.519127 -27.175730
-56.602954 -32.707576 -35.741781
-28.947439 6.009682 -7.281623
-49.168398 -8.648209 -38.036757
-35.742159 3.135731 -38.273781
-40.782626 -0.086711 -45.099164
-53.447861 -16.217973 -34.828651
-37.866496 1.906435 -19.080602
-39.965284 0.521793 -14.378052
-55.506835 -22.443196 -49.294436
-52.717143 -14.632973 -19.936354
-28.936490 6.013355 -18.294248
-48.906586 -8.277192 -38.642681
-52.251492 -13.684498 -36.146983
-43.312515 -2.153710 -35.712518
-37.866703 1.906305 -24.020507
-26.786061 6.633587 -45.851295
-56.548122 -29.492551 -12.512672
-28.755112 6.074200 -24.218835
-35.092433 3.475508 -22.602852
-42.557037 -1.492364 -17.229379
-52.705976 -14.610227 -19.774596
-56.594562 -33.171373 -32.733812
-49.388891 -8.960670 -11.175036
-38.582629 1.456551 -34.949218
-50.572678 -10.719883 -52.900684
-32.830377 4.548582 -38.341799
-43.592744 -2.399017 -39.115163
-55.674694 -23.196890 -48.026437
-44.834784 -3.571362 -34.669892
-56.597826 -32.990866 -37.134742
-45.579447 -4.335237 -20.027167
-33.631566 4.207237 -25.211847
-47.735610 -6.773303 -11.572990
-53.035989 -15.282431 -13.057637
-54.651920 -19.437293 -34.372134
-55.462273 -22.243134 -23.171891
-52.717889 -14.634492 -11.075173
-54.730791 -19.693884 -31.430153
-56.580251 -30.018661 -28.019554
-50.063159 -9.916184 -19.618096
-47.722729 -6.757815 -22.959710
-52.142312 -13.462098 -20.500834
-56.116081 -25.463738 -30.251299
-51.386740 -12.092107 -12.451408
-54.817241 -19.975125 -49.133719
-52.329632 -13.843659 -41.561006
-52.774837 -14.750484 -19.138563
-29.490546 5.827490 -7.624445
-44.996417 -3.737166 -34.124342
-56.299119 -26.761969 -23.475550
-22.555338 7.729246 -13.315311
-32.289096 4.779197 -12.842228
-38.790919 1.325701 -44.949749
-52.916327 -15.038689 -15.455772
-43.525224 -2.339913 -31.775881
-56.337092 -27.031308 -21.121854
-54.976212 -20.492286 -11.821286
-56.591049 -33.365186 -43.000865
-51.070716 -11.559399 -16.746984
-33.214627 4.384873 -28.128136
-56.590615 -33.389743 -31.074898
-23.519135 7.479646 -16.428563
-32.592152 4.650079 -44.324339
-47.453720 -6.434239 -47.845267
-54.622161 -19.340489 -53.127374
-32.375113 4.742549 -19.350681
-49.371325 -8.935777 -39.804858
-53.950156 -17.485547 -6.661429
-52.940674 -15.088279 -26.705501
-53.465091 -16.261456 -47.740840
-56.333417 -27.005232 -18.056403
-56.144866 -25.667901 -44.659247
-22.993901 7.615668 -28.333853
-55.102285 -20.902423 -19.775867
-30.560145 5.468679 -37.183855
-32.571477 4.658888 -41.541101
-51.362473 -12.051195 -21.403786
-29.424312 5.849708 -2.573677
-30.026013 5.647861 -45.913736
-34.896005 3.578231 -9.525155
-40.376549 0.215609 -16.847148
-55.137585 -21.017264 -21.054723
-56.543412 -29.415464 -17.481375
-53.933423 -17.443326 -15.429690
-55.631822 -23.004409 -13.265829
-53.969683 -17.534824 -20.182591
-42.412061 -1.365454 -33.591604
-44.963509 -3.703410 -36.307744
-56.289606 -26.694479 -3.634357
-31.937134 4.929149 -13.309043
-23.396757 7.511338 -12.492782
-54.730335 -19.692394 -34.975840
-52.916101 -15.038228 -23.817699
-54.646442 -19.419473 -36.502332
-54.231640 -18.195897 -24.522609
-53.510481 -16.376007 -36.369549
-52.359521 -13.904539 -5.961066
-24.792529 7.149865 -15.912426
-40.664222 0.001439 -11.885120
-56.600255 -30.346213 -23.714017
-55.773493 -23.640517 -15.633120
-56.617779 -31.887722 -24.021025
-54.128880 -17.936579 -21.220034
-29.391564 5.860694 -11.909766
-26.609334 6.679355 -30.545203
-52.124933 -13.426710 -34.245835
-42.058068 -1.055568 -16.887011
-55.571602 -22.734007 -41.006433
-56.619874 -31.772074 -17.495075
-41.393531 -0.541527 -40.853230
-45.561711 -4.317044 -19.014479
-22.509289 7.741172 -30.676455
-56.599884 -32.876992 -43.188936
-47.803438 -6.854888 -18.238059
-48.786963 -8.107670 -29.517629
-56.588138 -33.526768 -25.025564
-33.063382 4.449313 -24.587161
-30.548516 5.472581 -23.931056
-52.255329 -13.692300 -26.986939
-44.689840 -3.422678 -26.071363
-54.168701 -18.037065 -24.839167
-54.511683 -18.981072 -26.797489
-51.179075 -11.742057 -47.042465
-38.182709 1.707787 -47.574666
-50.822048 -11.140230 -42.444423
-56.284947 -26.661429 -21.816039
-42.970656 -1.854444 -14.340339
-44.598382 -3.328861 -20.937121
-42.442634 -1.392216 -27.122822
-56.612948 -32.154854 -23.457835
-52.135287 -13.447793 -34.077692
-56.584393 -30.086508 -13.781762
-49.650846 -9.331889 -5.374526
-54.721408 -19.663357 -48.379538
-50.112860 -9.986610 -38.926824
-30.429156 5.512621 -23.341232
-24.938152 7.112152 -4.564444
-49.017000 -8.433660 -39.471314
-54.110259 -17.889582 -34.522525
-53.704719 -16.866181 -46.615979
-56.590066 -30.179406 -19.822556
-56.155798 -25.745440 -41.406418
-29.388654 5.861670 -18.437474
-32.148648 4.839034 -18.350858
-55.651765 -23.093940 -52.147437
-49.174097 -8.656285 -7.502660
-48.076357 -7.183163 -22.789231
-37.460325 2.161595 -28.524984
-47.748737 -6.789095 -50.290997
-25.338372 7.008505 -42.407977
-53.973686 -17.544936 -44.424370
-42.632805 -1.558691 -24.219850
-32.142262 4.841754 -13.441358
-49.147902 -8.619165 -42.308764
-45.130895 -3.875111 -33.078049
-25.938271 6.853145 -32.644603
-28.961244 6.005050 -28.319191
-55.782937 -23.682909 -19.699605
-30.525839 5.480188 -46.521954
-55.518951 -22.497623 -38.281902
-37.449670 2.168289 -1.691772
-54.040378 -17.713238 -21.320812
-38.331632 1.614231 -39.615810
-51.060741 -11.542586 -48.897231
-22.467480 7.751999 -32.532339
-47.414269 -6.386788 -7.363900
-52.689957 -14.577600 -14.536152
-30.306183 5.553874 -37.139376
-31.988767 4.907149 -29.573089
-38.320848 1.621006 -48.702691
-47.075028 -5.978747 -40.232003
-51.292597 -11.933415 -22.478535
-26.589680 6.684445 -23.521623
-22.948707 7.627374 -30.670806
-40.594245 0.053535 -14.779294
-34.292088 3.894053 -38.249852
-43.617290 -2.420508 -31.652872
-42.554243 -1.489920 -12.940465
-26.423494 6.727483 -41.555082
-33.316973 4.341269 -41.152501
-50.920739 -11.306590 -48.606639
-22.515252 7.739627 -18.568787
-24.375162 7.257955 -9.427995
-49.128866 -8.592183 -39.926192
-47.124375 -6.038104 -25.824208
-23.550955 7.471404 -22.686640
-56.567642 -29.812209 -21.306164
-55.417336 -22.041358 -22.688981
-49.874069 -9.648219 -18.571396
-37.688351 2.018349 -15.485678
-41.029857 -0.270775 -44.454395
-56.559823 -29.684120 -21.966937
-47.507903 -6.499415 -6.221864
-53.522667 -16.406756 -31.870817
-48.969108 -8.365790 -46.191868
-35.829941 3.089823 -34.102607
-40.913035 -0.183802 -36.678273
-49.169758 -8.650132 -49.755621
-48.034375 -7.132665 -9.280841
-32.162881 4.832970 -11.074909
-41.277116 -0.454856 -31.999907
-42.710688 -1.626871 -21.473381
-55.589716 -22.815355 -55.134522
-40.344878 0.239189 -17.759583
-55.718247 -23.392465 -22.341358
-38.253413 1.663370 -49.637901
-47.963173 -7.047018 -34.704571
-55.510767 -22.460869 -45.385568
-37.458999 2.162429 -17.066639
-38.715286 1.373215 -40.882083
-45.317638 -4.066673 -14.583618
-51.417805 -12.144469 -11.963392
-23.274600 7.542974 -9.486057
-45.550719 -4.305770 -15.492255
-26.275798 6.765733 -47.619640
-24.568249 7.207949 -16.598230
-45.405072 -4.156365 -15.185367
-55.535489 -22.571872 -28.939155
-26.508534 6.705460 -48.767311
-37.230177 2.306177 -13.416247
-56.156325 -25.749164 -40.107432
-54.990027 -20.537219 -23.286542
-48.777059 -8.093641 -36.478328
-31.765323 5.002349 -25.439259
-52.012627 -13.197947 -40.635536
-33.154457 4.410509 -38.239110
-32.112254 4.854538 -4.143265
-44.784422 -3.519703 -45.342995
-49.076142 -8.517472 -45.510226
-47.967802 -7.052588 -18.332414
-56.178051 -25.903272 -49.727708
-54.866819 -20.136413 -14.952963
-55.824558 -23.869800 -10.923353
-55.799370 -23.756685 -12.611773
-56.593666 -33.220876 -34.777586
-32.161361 4.833618 -26.327983
-35.648472 3.184724 -40.435037
-53.588042 -16.571735 -35.019484
-29.452409 5.840283 -2.675742
-32.195896 4.818902 -17.777802
-55.019211 -20.632177 -22.759157
-56.307665 -26.822578 -10.157225
-51.378344 -12.077955 -30.570629
-52.315489 -13.814849 -48.017507
-49.300008 -8.834714 -45.907500
-46.063207 -4.831481 -20.561300
-50.469554 -10.546046 -33.181309
-53.791691 -17.085653 -47.089513
-41.042379 -0.280097 -30.881900
-56.140011 -25.633450 -33.895559
-53.428282 -16.168567 -42.187224
-54.145575 -17.978714 -25.461575
-53.955267 -17.498451 -12.530850
-49.354801 -8.912366 -12.160251
-56.087267 -25.259361 -34.393820
-50.903964 -11.278311 -35.675443
-44.804632 -3.540432 -50.110665
-50.608636 -10.780499 -26.251192
-33.063699 4.449177 -39.444663
-56.594217 -33.190376 -31.322495
-54.840058 -20.049343 -34.388495
-55.505844 -22.438758 -27.008634
-37.709595 2.005002 -10.184362
-53.997254 -17.604406 -25.205267
-56.224776 -26.234661 -44.979260
-29.743489 5.742637 -53.005086
-49.576494 -9.226528 -19.538051
-49.595160 -9.252973 -50.020849
-52.129679 -13.436368 -44.922703
-32.876208 4.529056 -47.619103
-48.787469 -8.108392 -33.748828
-53.690778 -16.831003 -15.827105
-50.610004 -10.782796 -36.989144
-25.201632 7.043918 -49.157912
-33.480980 4.271393 -30.233053
-37.439211 2.174859 -12.196679
-46.707126 -5.536228 -40.475315
-54.632461 -19.373995 -24.081484
-56.122772 -25.511182 -39.630347
-35.785558 3.113034 -45.879781
-28.934706 6.013953 -30.328543
-49.737441 -9.454603 -9.968942
-52.053151 -13.280493 -25.966668
-49.436728 -9.028457 -10.381988
-38.265644 1.655685 -50.749890
-50.719079 -10.966662 -27.879227
-26.255663 6.770949 -21.993684
-49.595777 -9.253851 -15.206426
-56.333174 -27.003506 -15.318296
-56.570611 -29.860815 -6.182383
-41.226901 -0.417469 -39.593926
-51.120988 -11.644140 -25.276200
-35.490019 3.267589 -44.898124
-56.609281 -32.357781 -13.400769
-41.150189 -0.360359 -31.777152
-55.770394 -23.626606 -22.263759
-56.242984 -26.363804 -14.245890
-42.945343 -1.832285 -18.130464
-33.179578 4.399806 -29.070994
-46.896308 -5.763780 -26.789857
-55.547095 -22.623975 -39.654933
-54.865553 -20.132290 -20.445956
-45.437793 -4.189930 -20.714496
-33.456210 4.281946 -46.341684
-23.609924 7.456133 -17.587392
-26.763495 6.639432 -43.080357
-56.321307 -26.919340 -30.264950
-38.988805 1.201387 -45.861741
-37.261425 2.286548 -35.935944
-40.813184 -0.109461 -7.515962
-49.518292 -9.144042 -13.990094
-56.598036 -32.979338 -37.099686
-56.614271 -32.081883 -21.703212
-56.620910 -31.714624 -7.593466
-49.446581 -9.042425 -44.041128
-52.376214 -13.938534 -46.863928
-35.503100 3.260748 -38.146167
-43.612443 -2.416263 -25.068301
-34.925194 3.562966 -47.050202
-31.538375 5.099042 -18.223234
-38.497536 1.510009 -32.671601
-56.621090 -31.704986 -15.182705
-56.588652 -30.156275 -27.538978
-55.735022 -23.467768 -17.503883
-37.376764 2.214090 -23.375066
-56.599400 -32.903369 -45.396717
-56.482042 -28.410516 -19.388266
-52.773792 -14.748361 -16.711319
-45.921642 -4.686262 -18.320251
-22.158149 7.832109 -4.890970
-45.945048 -4.710274 -20.259926
-52.482036 -14.154088 -52.155835
-56.623608 -31.565354 -9.612329
-29.727778 5.747908 -9.678891
-23.970432 7.362771 -16.268079
-47.665911 -6.689469 -52.682484
-35.752064 3.130549 -46.738629
-50.009066 -9.839527 -24.199934
-45.566069 -4.321515 -13.982945
-56.591206 -30.198031 -38.463271
-47.921175 -6.996505 -32.891615
-33.521095 4.254303 -30.572116
-56.566482 -29.793253 -12.915313
-56.550794 -29.536303 -15.717669
-35.284234 3.375204 -46.121594
-24.210178 7.300680 -49.609401
-51.261690 -11.881317 -14.816377
-36.046277 2.976689 -39.854810
-40.067472 0.445714 -4.811844
-32.332047 4.760895 -9.140725
-40.037611 0.467945 -25.683699
-35.765162 3.123699 -39.043295
-36.282368 2.853224 -38.483588
-42.546941 -1.483527 -21.955782
-54.218626 -18.163054 -18.813691
-56.511833 -28.898327 -33.160924
-46.946050 -5.823612 -36.297487
-44.834298 -3.570864 -32.560412
-47.615579 -6.628929 -4.899194
-26.710250 6.653220 -32.254621
-55.734480 -23.465344 -15.380326
-29.003399 5.990910 -20.834527
-45.835003 -4.597387 -29.204151
-52.628992 -14.453421 -9.996027
-56.281705 -26.638463 -18.131301
-55.704917 -23.332598 -44.423050
-24.628029 7.192467 -45.801231
-54.616328 -19.321500 -24.790780
-37.704833 2.007994 -10.323345
-30.523006 5.481138 -46.579717
-54.701294 -19.597915 -26.983940
-52.791384 -14.784197 -21.875004
-52.395700 -13.978233 -40.544897
-23.503734 7.483634 -20.072169
-43.392167 -2.223435 -48.989502
-47.613518 -6.626450 -48.557753
-23.056787 7.599382 -21.366855
-56.592126 -33.306106 -31.513021
-56.616062 -31.982892 -18.697168
-38.625187 1.429816 -46.679916
-55.449067 -22.183835 -32.170332
-37.945163 1.857017 -14.184761
-54.806806 -19.941174 -41.078611
-55.860792 -24.032489 -11.205777
-50.752948 -11.023755 -41.224622
-54.797192 -19.909894 -50.666784
-49.626605 -9.297536 -16.595948
-32.309818 4.770367 -44.728503
-47.058178 -5.958481 -41.423002
-49.585471 -9.239245 -16.155289
-50.790567 -11.087163 -30.597485
-54.230356 -18.192663 -41.294480
-25.271537 7.025814 -11.545933
-56.354386 -27.153942 -21.287644
-28.522587 6.152203 -16.503606
-52.650447 -14.497120 -18.218095
-56.601211 -30.361866 -25.165313
-47.842710 -6.902125 -32.053351
-36.426515 2.777840 -37.603914
-42.454958 -1.403004 -21.259426
-54.070043 -17.788093 -13.708448
-55.843065 -23.952879 -19.769017
-45.010195 -3.751297 -48.577776
-35.053207 3.496022 -26.479585
-48.779833 -8.097568 -54.247589
-43.597330 -2.403033 -24.210544
-50.896826 -11.266285 -47.684757
-56.585050 -33.697213 -28.812525
-26.716042 6.651721 -26.529219
-50.867115 -11.216198 -46.093035
-26.156267 6.796688 -27.866604
-36.184571 2.904368 -24.787542
-54.557152 -19.128988 -20.801133
-53.914823 -17.396387 -43.922725
-52.372562 -13.931099 -45.665959
-34.479852 3.795860 -21.176210
-56.596276 -33.076445 -46.197476
-38.402105 1.569957 -37.605606
-23.245689 7.550462 -14.095737
-42.686093 -1.605340 -15.443756
-43.618388 -2.421468 -2.842446
-54.559018 -19.135070 -33.584256
-56.133446 -25.586861 -26.853649
-30.348804 5.539576 -32.074619
-25.907152 6.861204 -29.851243
-54.685635 -19.546981 -32.150102
-40.721487 -0.041194 -34.144000
-47.422905 -6.397175 -15.699363
-35.186329 3.426405 -38.268193
-42.711188 -1.627309 -24.639838
-50.809718 -11.119444 -37.637483
-53.483089 -16.306870 -25.360571
-32.720091 4.595569 -44.688014
-47.083482 -5.988914 -52.386334
-54.034949 -17.699526 -15.489130
-53.851877 -17.237542 -47.274982
-52.419656 -14.027027 -41.399876
-51.403485 -12.120330 -15.063609
-38.870982 1.275404 -24.967956
-50.853628 -11.193466 -38.432471
-29.357708 5.872052 -46.432788
-32.891109 4.522709 -48.018650
-51.366064 -12.057250 -12.944752
-37.332338 2.241999 -31.409768
-56.605137 -32.586762 -8.776905
-53.965787 -17.524989 -50.016325
-52.736003 -14.671394 -14.567507
-26.517455 6.703150 -52.600617
-56.478870 -28.358531 -41.769233
-55.773746 -23.641646 -15.637721
-47.202521 -6.132101 -45.005972
-54.580172 -19.203882 -37.401221
-55.788195 -23.706524 -20.469456
-49.417120 -9.000678 -11.245369
-50.566406 -10.709306 -23.404217
-43.462643 -2.285132 -43.722718
-45.744930 -4.504994 -20.023828
-31.847986 4.967130 -7.131900
-38.586313 1.454237 -31.277317
-53.446191 -16.213753 -38.163009
-47.687972 -6.716006 -16.647662
-24.552120 7.212126 -42.006924
-52.974547 -15.157279 -22.260615
-22.414483 7.765725 -9.121457
-47.375864 -6.340598 -9.577767
-56.496385 -28.645354 -42.006043
-47.137076 -6.053376 -33.623847
-55.702875 -23.323445 -18.170988
-55.724385 -23.420017 -47.532473
-55.715282 -23.379131 -45.064174
-47.122914 -6.036343 -42.056124
-22.911911 7.636902 -28.634621
-26.235606 6.776141 -41.511138
-54.248228 -18.237763 -33.622881
-23.752616 7.419179 -16.407787
-26.813258 6.626544 -44.103514
-56.611862 -32.215011 -18.850763
-38.256615 1.661359 -50.217382
-41.105538 -0.327116 -36.210676
-49.452262 -9.050476 -14.641564
-53.997185 -17.604227 -19.009719
-53.661552 -16.757240 -37.446172
-40.753676 -0.065159 -42.324282
-54.887860 -20.204855 -17.290415
-40.942904 -0.206038 -41.388234
-52.179185 -13.537211 -32.006504
-29.525055 5.815913 -2.303645
-53.755467 -16.994246 -33.904991
-56.296504 -26.743400 -19.328019
-51.205489 -11.786576 -50.104797
-52.200140 -13.579895 -43.862890
-34.315397 3.881862 -22.767099
-28.920247 6.018803 -12.774170
-34.875495 3.588957 -18.138046
-25.726166 6.908075 -32.088648
-49.322415 -8.866468 -5.900916
-55.738209 -23.482084 -16.135513
-47.996429 -7.087021 -17.629500
-44.526257 -3.254874 -37.695150
-51.468667 -12.230212 -24.515967
-23.148875 7.575533 -16.087516
-53.728016 -16.924970 -31.873380
-40.357901 0.229491 -19.626871
-25.559898 6.951134 -39.647731
-56.345494 -27.090868 -29.126006
-45.120946 -3.864906 -35.965702
-38.341686 1.607914 -49.928346
-34.353023 3.862186 -17.381879
-55.221593 -21.290561 -19.195822
-26.466499 6.716346 -42.608605
-55.678880 -23.215685 -8.660022
-47.419370 -6.392927 -17.891391
-31.790191 4.991754 -33.842488
-29.991636 5.659394 -39.776351
-53.371903 -16.026290 -29.165558
-35.104939 3.468967 -19.219238
-47.323654 -6.277797 -45.416779
-33.106638 4.430883 -49.993099
-37.322712 2.248046 -20.994858
-56.563425 -29.743132 -20.896836
-52.428756 -14.045564 -45.734112
-45.932566 -4.697468 -24.099342
-55.540310 -22.593514 -37.083851
-34.520063 3.774833 -19.044776
-37.350510 2.230584 -22.767562
-55.797752 -23.749437 -13.520121
-56.127390 -25.543913 -37.057934
-25.448248 6.980050 -39.713898
-52.488198 -14.166641 -48.243488
-56.631627 -31.122181 -17.860708
-31.923725 4.934862 -14.656170
-52.557410 -14.307613 -6.869805
-55.564669 -22.702879 -36.769661
-35.141381 3.449909 -19.178571
-23.287806 7.539554 -22.836104
-49.365333 -8.927288 -10.873199
-32.518870 4.681301 -45.806294
-56.116680 -25.467926 -31.006137
-24.103466 7.328317 -11.779699
-55.721085 -23.405193 -16.725842
-53.898469 -17.355121 -2.949967
-49.513886 -9.137800 -11.327781
-55.595505 -22.841339 -41.868572
-49.043695 -8.471490 -52.264463
-32.943480 4.500396 -40.955187
-28.965979 6.003462 -27.690312
-52.405192 -13.997563 -47.842927
-44.745084 -3.479346 -31.489445
-56.308636 -26.829446 -23.996618
-23.721343 7.427278 -18.669908
-50.626531 -10.810656 -33.489574
-49.212583 -8.710821 -48.610221
-56.502391 -28.743718 -51.399558
-52.641849 -14.479610 -17.624819
-53.889401 -17.332230 -47.550626
-45.160977 -3.905968 -40.360670
-55.627985 -22.987176 -48.081974
-30.360601 5.535619 -39.967331
-45.569522 -4.325057 -17.019746
-30.511185 5.485104 -27.808023
-23.447170 7.498282 -29.516532
-32.378336 4.741176 -14.649572
-56.191914 -26.001560 -37.189956
-37.383945 2.209580 -20.313211
-53.778597 -17.052605 -43.134871
-35.336277 3.347987 -16.521335
-35.371826 3.329396 -41.501600
-47.949435 -7.030495 -28.543623
-52.242047 -13.665256 -34.068773
-55.113795 -20.939868 -23.145463
-37.849454 1.917141 -2.666198
-55.787424 -23.703064 -4.093449
-47.050793 -5.949598 -37.265117
-45.954868 -4.720344 -24.271496
-56.484933 -28.457858 -28.569509
-43.802908 -2.582997 -36.951509
-51.502996 -12.288073 -28.312320
-42.632701 -1.558600 -11.140685
-51.233595 -11.833952 -18.452827
-43.420856 -2.248548 -39.785692
-41.299699 -0.471668 -32.539752
-56.592128 -33.305677 -41.715427
-26.414388 6.729842 -26.646688
-55.864139 -24.047515 -16.894027
-52.160488 -13.499130 -21.807402
-32.060194 4.876719 -28.356117
-55.135000 -21.008858 -16.664665
-40.826694 -0.119518 -40.717435
-54.634489 -19.380583 -32.164119
-56.506469 -28.810451 -43.292060
-28.844785 6.044118 -26.363036
-45.936696 -4.701706 -10.930654
-37.210246 2.318700 -10.184189
-56.591760 -30.207090 -28.152785
-54.776722 -19.843304 -35.709682
-32.940438 4.501690 -42.300785
-31.997225 4.903547 -25.982413
-56.615126 -32.034684 -21.969411
-53.648493 -16.724287 -53.954972
-47.196631 -6.125011 -36.084119
-37.918703 1.873638 -22.871593
-54.963762 -20.451783 -7.055675
-54.722885 -19.668154 -43.780241
-26.640177 6.671367 -38.064122
-56.473106 -28.264149 -48.920602
-25.258877 7.029092 -44.160152
-22.790808 7.668265 -14.914621
-40.872087 -0.153316 -37.287441
-50.720370 -10.968837 -34.062572
