37.988625 5.002238 -10.204813
64.255118 23.442348 -37.248800
54.293936 12.388605 -38.962677
45.990686 7.559087 -51.965834
37.474099 4.868988 -12.057788
53.514386 11.808233 -10.186818
60.575539 18.331983 -35.840953
66.153235 26.963070 -20.402957
68.045638 31.708696 -38.138736
65.943715 26.536298 -37.965507
35.985330 4.483433 -28.969236
62.847953 21.282935 -13.657453
54.668697 12.667611 -40.845817
45.951639 7.542452 -39.448820
50.867831 10.058748 -15.447661
36.292466 4.562974 -12.215970
61.015089 18.860678 -15.991557
59.405897 16.999889 -13.940335
69.015640 35.259602 -12.526852
69.897187 41.331734 -44.467548
69.700514 39.175374 -15.648507
68.482564 33.130168 -23.833103
61.416662 19.343695 -35.514718
60.942668 18.773574 -12.473786
65.606690 25.849814 -28.902952
69.984074 44.341971 -34.320074
43.784939 6.679726 -28.551387
69.854051 40.625363 -26.486786
66.168978 26.995127 -20.475405
51.991932 10.764930 -46.395763
59.070232 16.655559 -29.720494
64.043046 23.084872 -29.818726
65.582167 25.799863 -48.300207
69.935935 41.966186 -24.806651
38.163797 5.047603 -5.190407
56.359596 14.067591 -12.539812
69.978015 42.655303 -30.940532
67.174822 29.313764 -43.712658
55.980828 13.736014 -12.879140
51.669510 10.562378 -46.985920
69.464254 37.499618 -38.007484
68.359063 32.728392 -12.790249
49.605315 9.319049 -46.667918
69.685152 39.066415 -18.587099
49.480830 9.253950 -25.380546
37.343645 4.835204 -22.640892
68.913515 34.801055 -39.837690
67.981994 31.501651 -33.455394
64.409726 23.702962 -39.139145
67.395530 29.870722 -6.008531
67.544146 30.245766 -23.340132
37.064594 4.762936 -20.627868
66.474440 27.617324 -7.900718
69.864702 40.799712 -27.418432
42.672439 6.306498 -39.212029
59.402092 16.995986 -21.094561
69.500693 37.758075 -36.389610
69.586056 38.363507 -39.238385
38.987325 5.260877 -50.958937
54.759887 12.735500 -35.418684
69.994667 43.756236 -33.508289
69.862806 40.768729 -42.012852
42.874377 6.374246 -37.696850
62.586919 20.913018 -41.362669
69.855083 40.642228 -31.822537
47.925392 8.440523 -13.939208
54.301314 12.394094 -31.801427
45.904111 7.522204 -45.783463
53.501778 11.798849 -22.023477
69.465579 37.509011 -30.380348
42.085038 6.109433 -13.830196
54.422298 12.484167 -36.378895
36.664524 4.659327 -23.561645
56.803196 14.455918 -52.703373
42.690601 6.312591 -22.543920
61.155857 19.030001 -18.021513
69.641003 38.753248 -17.488994
68.444371 33.005923 -31.409667
53.513582 11.807636 -24.824818
63.194583 21.774147 -8.436356
66.749232 28.239792 -13.343668
51.010228 10.148206 -13.031304
69.990731 43.974372 -39.712871
69.572598 38.268056 -11.176460
69.096183 35.621242 -13.894915
48.550443 8.767397 -22.610783
68.361166 32.735218 -15.406173
60.382565 18.099873 -43.435161
54.218592 12.332511 -51.299211
69.937779 41.996395 -17.138509
59.302494 16.893817 -16.414265
54.535348 12.568332 -33.326137
68.369311 32.761714 -18.102900
45.729859 7.447968 -14.698856
67.472679 30.065413 -8.061700
69.890647 41.224650 -44.251397
40.160577 5.564721 -42.430257
69.172811 35.965306 -27.118825
37.843360 4.964618 -5.541035
69.930882 41.883487 -12.077661
48.504142 8.743184 -3.079650
56.034187 13.782725 -21.899214
68.119057 31.947571 -33.887944
65.802537 26.248737 -54.708529
39.656486 5.434173 -34.999502
53.973442 12.149996 -37.713357
64.206000 23.359551 -41.941484
60.845226 18.656366 -9.050443
69.887955 41.180496 -40.248026
69.980901 44.517651 -43.531527
69.720900 39.319924 -15.410210
42.607569 6.284735 -24.450906
60.465679 18.199842 -40.754100
54.653789 12.656510 -41.137818
69.545581 38.076451 -45.607684
41.907979 6.050032 -39.836537
54.800437 12.765689 -35.471590
62.298399 20.504154 -32.697686
68.171671 32.118739 -39.826811
58.566166 16.138491 -36.399754
69.049787 35.412931 -15.830927
64.773556 24.316248 -23.889453
39.024136 5.270410 -29.986937
66.298672 27.259307 -21.161133
69.872986 40.935421 -32.258639
56.115148 13.853599 -23.824163
57.309648 14.899265 -27.364316
37.836249 4.962776 -49.682384
63.967435 22.957416 -39.949097
69.989785 44.026622 -31.220303
39.683772 5.441239 -34.401968
50.892707 10.074376 -26.243766
39.321855 5.347511 -35.694003
54.157724 12.287195 -40.528935
51.933141 10.727996 -33.061913
63.360934 22.009881 -25.104636
68.965938 35.036454 -41.997906
63.056884 21.579013 -27.598704
58.847160 16.426735 -45.973518
42.529909 6.258681 -18.083440
65.813672 26.271410 -42.639891
58.688118 16.263589 -45.844636
43.247487 6.499418 -50.703243
37.641675 4.912386 -19.255699
60.947056 18.778850 -3.972652
69.925134 41.789311 -12.516678
51.194125 10.263732 -13.157730
62.849699 21.285412 -10.547104
56.706484 14.371254 -7.818398
60.467706 18.202278 -40.473267
69.971688 45.027259 -17.384452
39.627316 5.426619 -47.563445
39.881629 5.492480 -36.259126
69.738193 39.442580 -28.896155
36.521452 4.622275 -12.498085
40.805392 5.731712 -29.460089
69.981433 44.488527 -46.413428
68.475259 33.106397 -29.739293
45.047596 7.157308 -10.560624
68.359691 32.730413 -27.254040
58.788160 16.366212 -23.117100
49.080542 9.044617 -32.777634
58.147034 15.708542 -42.563486
67.394925 29.869204 -15.742414
69.980333 44.549166 -15.302726
59.343246 16.935621 -16.160539
46.637699 7.834730 -39.118259
69.951602 42.222749 -16.289807
54.044584 12.202963 -40.778714
66.933892 28.705783 -42.819732
64.023766 23.052368 -26.989794
49.078061 9.043318 -50.954118
66.860697 28.521071 -32.836816
43.773591 6.675919 -30.977212
60.384808 18.102568 -24.163976
64.168832 23.296899 -34.642555
58.693699 16.269314 -18.286539
69.958991 45.729621 -21.130702
60.849227 18.661179 -54.846979
46.578085 7.809332 -33.040545
62.023626 20.114773 -19.898839
63.166770 21.734735 -12.050295
62.344368 20.569302 -50.045055
68.404245 32.875373 -18.430969
39.492664 5.391747 -38.180376
59.058309 16.643331 -22.381583
60.856547 18.669985 -15.876930
68.816034 34.363367 -37.192554
68.059962 31.755309 -33.592458
64.684858 24.166737 -12.329188
36.229634 4.546702 -14.209680
69.575633 38.289602 -48.460003
39.171169 5.308488 -22.254711
65.734222 26.109586 -25.247201
51.116602 10.215031 -51.853533
58.092476 15.652577 -35.819176
54.777070 12.748291 -30.904639
46.643804 7.837331 -36.414670
46.347027 7.710897 -45.701686
57.114162 14.728133 -33.209875
63.047568 21.565814 -8.570328
36.134278 4.522006 -14.878679
68.043123 31.700535 -29.712069
69.031697 35.331697 -40.529367
69.980483 44.540855 -51.156786
39.570045 5.411787 -42.041629
65.802129 26.247903 -45.844729
69.541495 38.047449 -38.091468
60.587011 18.345783 -26.373484
50.684676 9.943687 -23.596635
68.298331 32.530797 -5.156900
60.297172 17.997163 -45.272969
50.367814 9.744627 -23.989152
67.914080 31.280699 -25.690553
59.071584 16.656947 -16.957943
69.179033 35.993233 -25.724648
66.111005 26.877049 -6.643437
48.599014 8.792799 -11.634651
69.973258 44.940576 -46.238984
66.903574 28.629269 -32.766004
59.396595 16.990345 -13.044337
68.414892 32.910012 -16.090875
63.304408 21.929780 -13.423290
38.609582 5.163050 -43.930217
67.161694 29.280640 -9.803119
69.933791 41.931145 -49.536935
60.550263 18.301582 -42.735956
69.972734 44.969404 -15.818215
45.767913 7.464180 -16.667596
63.038226 21.552571 -18.798518
62.312008 20.523441 -38.942480
46.183648 7.641292 -13.563385
44.016417 6.757384 -30.840007
39.633702 5.428273 -43.592185
69.518620 37.885202 -33.781981
56.412867 14.114220 -46.350734
35.998794 4.486920 -22.293994
48.736157 8.864518 -13.473412
45.645150 7.411879 -20.256911
62.286248 20.486933 -22.555599
54.682604 12.677964 -48.289789
45.601185 7.393150 -15.842919
61.367932 19.285086 -15.260240
69.989009 44.069515 -26.970463
63.309014 21.936313 -18.465840
69.885100 41.133881 -43.654055
68.969052 35.050443 -10.424026
58.130080 15.691153 -44.074390
39.074537 5.283462 -38.490198
48.958360 8.980721 -35.331448
68.114834 31.933831 -31.248147
57.211395 14.813252 -48.036507
69.922960 41.753775 -7.718348
64.880167 24.495960 -15.836724
69.914721 41.618836 -16.985337
66.253701 27.167699 -28.192169
69.978125 44.671068 -4.160822
49.333831 9.177074 -44.727072
62.155431 20.301556 -24.768653
45.217039 7.229494 -13.575562
62.986264 21.478936 -16.135443
67.946780 31.387092 -32.730955
45.231698 7.235739 -10.518191
37.447817 4.862181 -22.695893
58.793165 16.371344 -12.822930
55.906857 13.671261 -22.258285
63.139837 21.696572 -4.928359
59.336134 16.928326 -22.993802
36.901076 4.720589 -49.240339
63.131844 21.685240 -27.971019
40.818636 5.735142 -41.146150
59.255297 16.845401 -35.416590
50.752223 9.986120 -30.840586
61.589002 19.550991 -26.688536
64.088600 23.161653 -42.038806
69.102699 35.650505 -18.716042
66.408370 27.482750 -24.727941
43.416620 6.556161 -47.385909
59.618514 17.217990 -29.749040
68.432017 32.965736 -18.928117
69.861752 40.751440 -30.156577
42.650683 6.299198 -9.069259
62.455247 20.726427 -35.337014
68.485190 33.138715 -11.424542
56.549955 14.234229 -41.657645
46.474894 7.765370 -43.827955
36.586786 4.639195 -7.644069
69.958859 45.736378 -10.314669
69.897723 41.340555 -46.808020
60.600086 18.361509 -39.228585
51.618140 10.530105 -9.324331
65.455673 25.542200 -28.139389
66.220611 27.100302 -17.489699
54.532683 12.566349 -40.531612
51.991903 10.764912 -39.285571
56.555381 14.238979 -37.827199
58.640097 16.214329 -55.409201
56.859436 14.505147 -30.651791
43.416030 6.555962 -40.811052
65.775383 26.193416 -55.960225
69.932659 41.912589 -3.249085
69.959842 42.357683 -31.241859
47.951228 8.454033 -19.365411
43.762687 6.672262 -34.318755
43.545202 6.599298 -38.093090
37.469125 4.867700 -14.185573
59.191249 16.779704 -10.017421
69.942694 42.076987 -24.191172
48.057189 8.509447 -30.072893
49.036317 9.021488 -46.049947
69.873335 40.941217 -45.173295
64.706426 24.203097 -23.570569
64.469127 23.803083 -35.600603
45.365058 7.292553 -17.289628
58.236144 15.799954 -20.560447
61.185934 19.066170 -13.633108
43.191454 6.480620 -40.448626
43.508289 6.586914 -35.687813
69.986790 44.191870 -36.129865
66.439943 27.547061 -24.812645
56.832548 14.481613 -38.588119
63.042245 21.558265 -26.898187
69.967440 42.482134 -16.097343
66.089011 26.832250 -24.917894
38.701163 5.186768 -48.887962
45.387304 7.302031 -12.372455
65.883458 26.413560 -51.044914
45.278578 7.255711 -17.541506
48.435997 8.707547 -7.768118
69.244709 36.288139 -22.063477
48.145359 8.555557 -23.867149
36.664629 4.659355 -20.469708
69.615944 38.575496 -7.392482
66.274847 27.210788 -17.409645
42.817119 6.355036 -11.991024
53.483531 11.785265 -22.313982
66.910657 28.647151 -42.507471
69.571415 38.259652 -51.205296
62.492457 20.779158 -36.034046
48.069877 8.516082 -20.954125
36.986432 4.742694 -27.685386
67.373130 29.814204 -13.268748
65.777765 26.198277 -36.833934
59.244215 16.834032 -27.359485
57.252645 14.849362 -24.266764
69.469615 37.537628 -46.526738
68.188915 32.174842 -51.089494
69.888817 41.194678 -40.226158
43.708191 6.653978 -40.908626
57.892508 15.447451 -16.506021
45.368383 7.293970 -31.914651
65.530103 25.693814 -32.700542
69.996546 43.652653 -29.796214
62.959764 21.441388 -14.282031
64.774009 24.317016 -23.664668
67.274394 29.565039 -45.727811
49.257827 9.137329 -43.858464
66.827946 28.438430 -27.494132
45.965466 7.548343 -9.959920
37.965265 4.996188 -11.932024
69.979760 44.580749 -43.907572
53.693755 11.941775 -10.009213
58.547713 16.119563 -38.588298
42.178232 6.140698 -22.878762
58.904152 16.485194 -48.764728
36.576633 4.636566 -23.539400
38.054881 5.019396 -48.253359
56.523541 14.211108 -8.765019
45.206306 7.224922 -26.184012
39.929490 5.504874 -31.606451
66.823620 28.427508 -34.134737
37.427184 4.856838 -11.731992
67.444715 29.994843 -10.761031
69.961957 45.565302 -30.108347
54.314067 12.403590 -46.597343
56.795055 14.448791 -49.835859
47.775344 8.362054 -6.563034
42.697605 6.314941 -9.571999
57.356161 14.939981 -35.956841
69.945246 42.118699 -15.490854
60.822595 18.629143 -10.887582
51.111183 10.211627 -23.587777
55.751549 13.535307 -16.119897
69.203605 36.103593 -18.067891
37.401205 4.850110 -42.676425
69.982004 44.456662 -51.722568
65.865386 26.376752 -46.539709
69.965144 45.389040 -25.534432
54.025790 12.188971 -6.585283
69.853943 40.623607 -40.025995
69.550841 38.113727 -40.419813
61.218902 19.105829 -27.861914
42.606389 6.284339 -7.007327
68.238314 32.335551 -13.632340
50.826733 10.032930 -8.386269
42.120037 6.121174 -22.328873
36.821799 4.700058 -22.147422
69.986713 44.196490 -39.593239
37.495680 4.874577 -17.657299
63.443141 22.126378 -32.519565
56.936565 14.572670 -50.198790
62.720169 21.101848 -44.775896
37.524683 4.882088 -13.983445
69.935337 41.956470 -25.577452
37.023718 4.752350 -20.340631
51.342577 10.356992 -44.923380
62.774899 21.179411 -8.499369
58.892233 16.472968 -10.202431
52.227935 10.913191 -37.750283
69.528675 37.956520 -37.666225
64.357905 23.615608 -39.301343
69.894318 41.284726 -42.570901
58.384287 15.951921 -39.925865
69.884433 41.122856 -39.294890
66.950638 28.748021 -35.681495
69.638902 38.738370 -4.730258
69.549034 38.100933 -39.522352
61.219079 19.106041 -22.977497
58.110016 15.670572 -40.345388
46.015890 7.569824 -15.205165
55.826679 13.601076 -33.035363
40.041124 5.533785 -30.868219
68.270011 32.438673 -15.883398
42.002884 6.081871 -23.879954
69.911749 41.570232 -43.352846
62.642693 20.992063 -48.965417
48.871479 8.935285 -35.945839
65.837455 26.319859 -40.586898
38.153276 5.044878 -51.615405
39.734862 5.454470 -42.028454
67.314471 29.666177 -26.134979
42.802349 6.350081 -16.729335
54.060719 12.214976 -40.123522
38.954920 5.252485 -8.697224
69.558084 38.165110 -39.372785
66.873581 28.553583 -32.306454
69.696181 39.144631 -6.240531
38.737651 5.196217 -12.151023
38.767884 5.204047 -35.179223
51.006937 10.146138 -10.704242
45.085823 7.173594 -25.313370
65.489105 25.610298 -24.104701
51.322392 10.344311 -11.447596
69.975081 42.607321 -20.853500
62.928624 21.397260 -25.981307
69.506000 37.795727 -53.496718
47.600724 8.270735 -9.819906
68.150988 32.051428 -5.190590
66.932617 28.702557 -29.201646
62.160480 20.308708 -23.926518
42.273719 6.172733 -12.306502
56.624697 14.299659 -49.206780
50.980666 10.129632 -15.061630
68.272860 32.447944 -15.261257
67.017477 28.916710 -40.321019
45.462561 7.334093 -9.576131
37.714431 4.931228 -6.924126
51.606655 10.522891 -36.708806
68.900357 34.741985 -46.243121
42.615358 6.287348 -12.094652
69.503391 37.777189 -38.702542
68.125003 31.966902 -39.498556
54.459553 12.511903 -46.111490
53.878982 12.079674 -13.664370
67.960972 31.433272 -35.907084
45.505528 7.352397 -6.739556
63.250260 21.853051 -16.992175
69.989758 44.028069 -39.037635
68.323550 32.612849 -46.019069
42.974822 6.407944 -44.329972
58.425311 15.994000 -0.694129
48.874727 8.936984 -50.890089
66.758084 28.262121 -26.621195
64.881664 24.498482 -5.481738
64.153398 23.270878 -32.195463
58.960880 16.543389 -23.081640
53.948855 12.131693 -9.504947
68.550211 33.350240 -33.311310
51.696844 10.579549 -9.480190
37.828197 4.960691 -14.968647
54.116996 12.256872 -5.664369
64.080666 23.148288 -50.340829
50.954737 10.113343 -17.603954
69.968598 42.501086 -27.935503
66.241233 27.142305 -25.366697
41.944654 6.062335 -31.103798
69.950194 42.199665 -25.360797
51.266354 10.309109 -21.061488
69.911879 41.572272 -44.081798
58.738648 16.315420 -45.726237
69.985774 44.248622 -43.317605
58.460243 16.029835 -44.025082
64.909131 24.544786 -23.055548
69.926048 41.804304 -22.925157
58.192842 15.755532 -34.941376
46.214623 7.654488 -45.531019
69.647702 38.800755 -9.965248
40.424557 5.633084 -38.339421
53.174056 11.554861 -26.698940
69.984184 44.336564 -33.101214
43.901472 6.718821 -25.491415
68.314766 32.584265 -20.952473
57.051462 14.673248 -29.200991
57.141310 14.751901 -25.974163
38.986579 5.260683 -34.728065
64.401341 23.688830 -13.196399
54.542748 12.573844 -34.010318
68.320868 32.604117 -9.224739
40.076933 5.543059 -27.217852
59.382704 16.976096 -14.079107
58.354266 15.921125 -32.446447
69.941979 42.065175 -20.297200
45.973985 7.551971 -50.427429
54.083217 12.231724 -13.180778
50.566196 9.869255 -19.035369
68.804320 34.310786 -38.009127
55.988123 13.742400 -14.813864
48.443997 8.711732 -15.749400
69.527184 37.945986 -31.829463
38.894308 5.236787 -35.328483
37.524283 4.881984 -16.317810
68.288988 32.500396 -3.609852
48.835883 8.916670 -17.862091
65.820842 26.286028 -32.590446
48.005405 8.482365 -34.029857
69.549026 38.100898 -48.043477
63.243093 21.842887 -23.204097
64.156483 23.276078 -38.022928
42.942180 6.396992 -16.283451
69.919393 41.695300 -15.435184
62.486601 20.770864 -45.486223
68.404232 32.875347 -5.239205
69.922142 41.740310 -7.896714
51.548368 10.486277 -18.723386
64.816339 24.388365 -26.613196
37.494009 4.874144 -11.945605
41.097486 5.807357 -35.825618
51.946937 10.736663 -35.173968
46.225522 7.659132 -6.129136
37.934963 4.988341 -48.734520
47.874679 8.414003 -16.953291
48.352693 8.663982 -12.450061
68.780909 34.205659 -42.448975
51.001049 10.142438 -18.331858
67.892016 31.208927 -26.123116
69.115602 35.708434 -19.461238
58.686254 16.261679 -19.739082
69.999127 43.509738 -17.870883
66.778748 28.314276 -25.206164
69.012508 35.245551 -47.354138
37.641278 4.912283 -3.390074
56.378299 14.083962 -50.262776
38.667588 5.178072 -9.544819
61.411067 19.336969 -31.127521
51.340135 10.355458 -17.139356
68.834771 34.447499 -32.818692
69.999219 43.504717 -21.521170
67.175993 29.316729 -47.011595
68.450733 33.026613 -26.861996
60.971489 18.808242 -21.705672
58.286476 15.851581 -27.435188
46.216903 7.655460 -44.807694
58.184655 15.747135 -28.049837
69.960080 45.669548 -23.560873
69.947058 42.148450 -24.222814
69.904211 41.446767 -51.670993
43.288974 6.513337 -40.371698
59.455674 17.050947 -6.190693
59.641356 17.241424 -24.226463
69.895126 41.298007 -15.616534
66.972826 28.804035 -47.047425
48.861595 8.930116 -31.389231
67.106746 29.141986 -37.493873
57.218947 14.819863 -26.675471
64.203274 23.354953 -35.222499
56.345108 14.054903 -10.293644
62.331098 20.550500 -41.972827
68.334830 32.649536 -23.752371
63.099773 21.639796 -26.028963
68.056737 31.744806 -35.824011
60.436292 18.164493 -41.954418
55.978294 13.733799 -16.985391
69.981155 44.503605 -50.416884
56.094403 13.835440 -21.847816
69.886818 41.161945 -39.552140
66.985522 28.836059 -37.941573
36.462270 4.606949 -24.037169
60.959837 18.794223 -2.071632
69.194455 36.062502 -15.515078
55.910100 13.674103 -12.517899
69.701650 39.183409 -8.156362
69.426100 37.228991 -30.064714
64.650843 24.109407 -27.161259
67.233767 29.462518 -7.931797
36.570514 4.634982 -14.782235
35.984394 4.483190 -11.002149
62.835137 21.264776 -25.612334
50.699254 9.952845 -15.904019
59.339771 16.932056 -21.629596
61.241572 19.133094 -13.680305
68.981270 35.105282 -49.725414
58.571920 16.144393 -38.074012
40.360555 5.616510 -23.922730
45.198541 7.221613 -10.279332
69.989805 44.025261 -31.902368
52.047914 10.800099 -44.234234
69.929035 41.853191 -14.665980
69.950060 42.197502 -20.488019
65.055681 24.791821 -18.852247
37.961584 4.995235 -15.630999
48.384252 8.680487 -19.503381
56.424796 14.124665 -47.963193
39.944038 5.508642 -45.741891
45.554085 7.373084 -10.095227
69.878494 41.025699 -30.331475
62.358810 20.589765 -39.167666
65.955058 26.559396 -41.900988
69.699733 39.169790 -20.589141
53.474637 11.778643 -34.172304
57.177095 14.783226 -42.796360
58.323148 15.889201 -41.571188
49.468712 9.247612 -39.624014
46.595292 7.816662 -48.277903
66.326052 27.315077 -25.695653
53.254558 11.614795 -23.489860
42.950268 6.399706 -41.516145
69.673820 38.986027 -28.605042
35.753322 4.423348 -29.093764
60.323406 18.028715 -31.815183
62.474405 20.753575 -40.842418
67.045184 28.986630 -39.781910
37.079909 4.766902 -26.900946
39.472118 5.386426 -46.241874
66.965877 28.786489 -40.074475
45.203516 7.223734 -24.188741
69.062659 35.470713 -17.411671
48.081443 8.522131 -19.000855
48.523305 8.753204 -51.405171
43.027859 6.425737 -48.460756
51.243747 10.294906 -11.842852
53.235836 11.600855 -28.312244
45.972976 7.551541 -49.004644
36.804269 4.695518 -15.598445
69.949016 42.180412 -21.220408
55.808564 13.585216 -22.830143
62.416524 20.671556 -37.363948
58.268014 15.832644 -40.339202
58.814854 16.393598 -21.105460
48.235810 8.602858 -12.381905
66.902249 28.625928 -30.865773
46.118922 7.613719 -45.000833
54.473940 12.522614 -45.115471
53.322397 11.665301 -6.746717
65.932023 26.512482 -49.629602
62.303604 20.511532 -29.501844
68.797944 34.282159 -26.326968
59.076964 16.662466 -11.797741
65.622446 25.881910 -37.957003
60.398811 18.119411 -40.481116
69.058464 35.451886 -4.508441
61.247021 19.139656 -8.714854
69.848471 40.534064 -41.134178
68.502192 33.194022 -21.679675
60.520177 18.265391 -42.170097
45.702653 7.436377 -23.095692
43.219703 6.490098 -42.445476
61.644077 19.617238 -35.805787
67.031289 28.951562 -40.480531
51.860918 10.682624 -29.614575
56.589763 14.269079 -43.171337
48.681949 8.836170 -15.263473
66.135282 26.926501 -6.304248
53.691264 11.939918 -14.030341
46.442788 7.751693 -41.489355
51.474553 10.439902 -40.780740
67.135127 29.213596 -42.859624
57.113049 14.727159 -39.252612
45.115328 7.186162 -12.847133
59.205560 16.794384 -11.847719
62.458022 20.730359 -31.921848
45.655883 7.416453 -19.756245
68.154958 32.064361 -38.517258
53.936372 12.122400 -45.471652
37.594932 4.900281 -45.122837
67.948043 31.391200 -49.915069
69.876630 40.995031 -47.327953
36.477536 4.610902 -25.679296
64.801917 24.364058 -22.944722
69.976338 44.770430 -40.066230
45.548693 7.370787 -11.914056
52.478791 11.070786 -28.842911
51.835321 10.666545 -45.199675
65.722703 26.086123 -39.307075
66.209263 27.077196 -13.691526
49.342562 9.181642 -31.194161
61.321966 19.229795 -17.462244
69.555076 38.143769 -38.023215
52.135471 10.855105 -34.310737
39.451039 5.380967 -23.848904
68.794691 34.267548 -32.688876
49.149346 9.080596 -44.155101
48.951361 8.977060 -49.973501
64.676087 24.151953 -12.952929
43.051313 6.433605 -52.515004
36.481729 4.611988 -24.594836
58.305950 15.871559 -48.395453
68.337797 32.659183 -10.404810
56.979754 14.610476 -48.300372
68.362229 32.738684 -21.970118
68.088567 31.848375 -41.101865
66.992200 28.852915 -28.811444
69.229344 36.219143 -21.487051
45.946788 7.540385 -48.918339
57.305424 14.895565 -54.628511
59.323691 16.915565 -27.277815
68.907718 34.775035 -39.325416
48.252850 8.611769 -19.691604
64.572021 23.976533 -13.879437
67.648901 30.510108 -34.348445
68.021065 31.628766 -51.277114
60.144974 17.814093 -42.134464
57.257723 14.853808 -41.705775
69.236646 36.251935 -34.353931
68.983369 35.114704 -43.363512
48.531727 8.757610 -17.988285
38.730253 5.194301 -5.999715
69.855716 40.652643 -46.786626
43.027581 6.425643 -40.522395
67.420068 29.932653 -17.636648
47.940131 8.448231 -16.281736
69.907970 41.508400 -49.571066
61.440356 19.372196 -20.688307
65.825535 26.295581 -34.907338
45.237512 7.238215 -13.906167
67.323337 29.688543 -14.016294
67.970666 31.464794 -28.732325
67.033416 28.956929 -36.767689
69.715868 39.284240 -35.314429
55.584212 13.388821 -32.889743
67.180883 29.329068 -21.462476
68.965863 35.036126 -45.568557
35.885298 4.457527 -28.207105
69.885384 41.138485 -35.516843
69.943437 42.089085 -15.597413
45.838108 7.494085 -12.244772
61.103339 18.966830 -9.399310
68.916403 34.814018 -33.218362
53.272503 11.628154 -30.400020
69.193598 36.058645 -48.869351
62.239224 20.420297 -21.088374
62.851328 21.287716 -17.356636
64.769696 24.309744 -19.540152
54.846938 12.800311 -41.741854
39.551390 5.406956 -40.991926
49.380824 9.201651 -44.308929
69.866802 40.834228 -27.999860
59.131962 16.718886 -19.155760
68.908362 34.777917 -47.547738
51.216903 10.278044 -22.731000
53.614976 11.883123 -14.693311
51.974446 10.753946 -28.860643
68.383324 32.807297 -20.273029
68.018269 31.619674 -36.918696
69.982769 44.414666 -53.751042
65.703281 26.046564 -46.303100
42.266047 6.170158 -20.657937
69.930949 41.884661 -4.605796
36.694195 4.667011 -29.657642
62.768697 21.170621 -11.815544
64.174834 23.307017 -30.546770
45.393153 7.304523 -16.009201
69.696403 39.146174 -16.982324
38.519364 5.139686 -39.079707
43.702706 6.652138 -46.137107
49.594690 9.313492 -41.154226
56.985282 14.615312 -41.429692
69.107233 35.670867 -16.355149
51.278600 10.316801 -55.592761
53.707359 11.951902 -11.081761
68.883713 34.667244 -39.643064
56.345520 14.055264 -16.375186
42.703843 6.317034 -17.091871
69.978243 44.664557 -5.950278
56.994720 14.623575 -48.396788
65.660498 25.959414 -46.117735
48.803398 8.899682 -17.055185
69.654865 38.851567 -15.793094
40.406090 5.628302 -29.014692
56.024083 13.773881 -25.694804
61.373232 19.291462 -22.613221
58.073477 15.633093 -22.902834
68.838730 34.465272 -25.504724
60.221166 17.905740 -30.677041
48.603693 8.795245 -11.466752
48.545682 8.764908 -15.524316
53.549462 11.834351 -12.562791
68.356365 32.719596 -18.640888
68.073417 31.799080 -45.154904
69.992057 43.900877 -25.787909
48.644193 8.816425 -8.376412
63.980500 22.979432 -39.220417
65.561068 25.756893 -26.589846
49.170581 9.091702 -30.106342
58.030530 15.589033 -24.287872
49.092481 9.050860 -34.891947
37.239910 4.808339 -57.149593
58.526399 16.097696 -50.433084
64.839990 24.428233 -4.843156
45.957429 7.544918 -55.345840
43.125169 6.458382 -43.204340
68.056745 31.744844 -44.792926
46.426515 7.744760 -45.851311
46.211380 7.653108 -40.919792
68.899803 34.739496 -33.260254
60.685233 18.463925 -33.751871
54.962549 12.886381 -31.888157
37.121362 4.777638 -21.817201
68.334682 32.649060 -7.278963
69.998081 43.567971 -50.986226
69.966772 45.299183 -12.834975
67.171767 29.306064 -43.010938
37.972654 4.998101 -10.887810
68.466204 33.076952 -20.618648
69.963854 45.460359 -23.967908
66.910657 28.647149 -27.141204
61.529158 19.479008 -18.981315
35.948216 4.473821 -12.288200
59.187050 16.775393 -24.764546
66.248510 27.157129 -24.569246
37.256241 4.812568 -9.527556
68.417939 32.919917 -16.574337
69.120300 35.729554 -19.375936
63.139330 21.695846 -26.309764
69.931721 41.897294 -17.532090
64.052274 23.100419 -31.944026
69.886177 41.151497 -33.570093
69.987464 44.154834 -40.585684
53.527919 11.818310 -25.456550
36.659539 4.658037 -13.961004
37.801445 4.953763 -6.427934
68.040333 31.691467 -40.682259
50.658025 9.926944 -20.640388
68.853255 34.530493 -37.635614
62.086759 20.204238 -23.394568
51.643361 10.545952 -46.327475
69.959030 45.727376 -28.388754
64.865600 24.471405 -24.065422
64.080820 23.148541 -31.746995
36.694480 4.667086 -5.879412
62.519560 20.817569 -33.605881
46.979047 7.980152 -28.115974
43.249593 6.500125 -43.703119
45.777061 7.468077 -18.304971
58.804663 16.383137 -14.139776
48.508835 8.745638 -10.658845
54.216674 12.331081 -37.909069
45.887106 7.514960 -15.916832
51.572214 10.501256 -50.631350
39.097395 5.289382 -45.737194
45.578620 7.383537 -8.318490
66.030249 26.712549 -25.123720
69.533684 37.992069 -31.158276
69.990754 43.972774 -39.916607
60.797669 18.599164 -3.337611
59.039133 16.623663 -19.944705
68.975535 35.079538 -10.265742
65.925008 26.498191 -46.913963
65.711443 26.063184 -37.147861
48.891970 8.946000 -1.395280
39.002322 5.264760 -37.823940
36.757278 4.683349 -28.699972
69.434512 37.288647 -45.847426
69.016664 35.264184 -12.254355
46.693903 7.858673 -22.180728
68.828006 34.417113 -25.259506
36.650085 4.655588 -24.133982
69.877643 41.011733 -39.388927
67.996268 31.548090 -36.365041
68.941402 34.926272 -44.640995
56.722600 14.385365 -36.248511
65.542449 25.718967 -28.356872
39.147831 5.302444 -32.512529
58.391815 15.959639 -29.622745
54.291648 12.386900 -40.661773
66.378522 27.421959 -13.433466
49.358254 9.189847 -40.463756
64.462992 23.792753 -6.244940
61.487347 19.428718 -33.017622
64.529173 23.904307 -12.846583
45.916620 7.527533 -17.146326
68.376958 32.786599 -13.927447
69.914598 41.616896 -21.067189
68.075256 31.805045 -47.268550
60.349674 18.060308 -37.862632
56.422641 14.122776 -42.542300
69.979493 44.595352 -4.635637
54.317200 12.405922 -47.799186
67.153655 29.260357 -2.905502
52.024128 10.785156 -6.783397
37.024870 4.752649 -22.040716
53.991442 12.163399 -45.502578
69.926858 41.817517 -47.866873
61.025468 18.873163 -42.969559
49.473676 9.250208 -28.972215
48.450406 8.715083 -5.294685
64.240972 23.418502 -33.671799
69.622369 38.621083 -15.070928
36.767445 4.685982 -30.802738
69.959122 42.345912 -30.928959
57.804033 15.356692 -28.751725
56.997961 14.626413 -36.180015
48.526474 8.754862 -47.930817
36.528097 4.623996 -29.839745
39.895271 5.496013 -31.518367
36.318845 4.569805 -20.389285
69.986174 44.226073 -34.462055
62.876921 21.323989 -50.596008
45.077888 7.170212 -31.926313
66.231034 27.121535 -34.969604
60.836895 18.646347 -7.999752
44.775508 7.041391 -14.318236
58.386583 15.954277 -39.541046
68.083435 31.831676 -34.321176
38.638258 5.170477 -39.431386
45.366978 7.293372 -3.802413
69.103149 35.652535 -44.309504
39.696643 5.444573 -36.794840
69.289142 36.487657 -29.840676
56.818115 14.468979 -35.653570
48.884704 8.942202 -46.908438
53.576655 11.854593 -13.037596
43.447544 6.566535 -35.934689
60.139080 17.807001 -34.481804
40.886300 5.752665 -37.785097
69.968988 45.176417 -12.758785
37.233780 4.806751 -21.557614
45.915138 7.526901 -41.952455
64.351901 23.605488 -47.392268
69.955712 42.290093 -18.455948
60.730918 18.518877 -45.551390
48.205963 8.587251 -16.682826
47.962492 8.459925 -22.382733
62.390393 20.634530 -49.274484
58.237499 15.801343 -31.916242
62.162210 20.311162 -37.385784
36.816557 4.698700 -9.106217
48.526319 8.754780 -15.475364
36.571482 4.635232 -14.446040
69.985477 44.264728 -50.163851
46.788871 7.899133 -27.693978
69.147893 35.853424 -11.589761
69.981530 44.483166 -38.514731
63.023025 21.531036 -22.495945
62.509384 20.803147 -50.846939
69.987865 44.132552 -40.311893
63.997645 23.008337 -28.580993
69.213938 36.149972 -23.431245
66.988148 28.842690 -36.385960
45.228855 7.234528 -18.353955
69.958848 45.737204 -21.583599
69.253703 36.328510 -14.052860
66.375857 27.416522 -16.098019
66.899625 28.619305 -39.995861
60.825533 18.632682 -51.237790
69.994936 43.741781 -48.837660
68.122059 31.957335 -46.669202
62.846145 21.280374 -16.913155
43.349149 6.533524 -44.494815
45.458798 7.332489 -8.805203
44.121503 6.792639 -31.697199
43.972089 6.742513 -52.319309
69.959657 42.354721 -19.215862
42.850721 6.366310 -12.919792
39.534211 5.402507 -32.501451
45.851450 7.499768 -46.518623
68.920457 34.832236 -35.230120
69.000615 35.192143 -34.229813
69.973934 44.902805 -15.852359
58.022394 15.580685 -40.657276
65.650726 25.939510 -48.482778
67.058573 29.020403 -36.278244
65.754664 26.151229 -42.235852
44.952455 7.116776 -27.705478
69.984034 44.344100 -13.828041
69.955532 45.920493 -24.265437
68.329685 32.632804 -9.678293
69.538879 38.028910 -41.071293
68.821326 34.387122 -38.445385
50.944530 10.106932 -24.412331
52.155761 10.867849 -37.058056
52.112848 10.840892 -39.205253
56.496269 14.187231 -18.232891
39.668103 5.437182 -35.584915
69.915227 41.627117 -14.946716
60.541541 18.291094 -43.635947
69.986018 44.234932 -27.711032
42.502188 6.249381 -17.280997
69.445791 37.368656 -21.346323
38.060056 5.020736 -18.413375
60.520853 18.266208 -37.552222
64.698610 24.189916 -14.112112
49.076331 9.042414 -40.544992
64.266939 23.462274 -35.727909
66.327204 27.317422 -24.836484
67.246609 29.494916 -4.972342
68.235051 32.324917 -50.937196
63.100734 21.641158 -16.045790
45.205302 7.224493 -16.239472
43.402706 6.551493 -44.752228
67.280229 29.579758 -8.697833
54.928528 12.861052 -44.264558
51.177601 10.253350 -10.114387
39.177838 5.310215 -36.379801
46.665448 7.846551 -43.909302
65.444834 25.520133 -37.551270
63.390275 22.051461 -15.383280
42.255044 6.166467 -3.033909
69.965886 45.348386 -32.793133
69.961598 45.585381 -27.224291
69.547604 38.090808 -37.895235
64.088131 23.160865 -34.850642
69.109124 35.679346 -10.807787
69.934734 41.946638 -13.330826
69.263686 36.373356 -30.199428
69.967744 45.245299 -27.597102
48.253720 8.612224 -10.777970
66.052669 26.758225 -17.659576
42.485435 6.243760 -11.289344
59.067812 16.653078 -13.105212
55.824737 13.599376 -24.730299
54.243683 12.351190 -4.834367
69.897788 41.341587 -9.120913
68.193986 32.191328 -35.424009
54.125970 12.263553 -42.790345
67.205951 29.392322 -41.809043
69.991051 43.956543 -42.164363
63.264841 21.873711 -19.708241
66.200378 27.059095 -6.116287
69.848908 40.541189 -28.877610
67.529614 30.209093 -14.805347
48.427840 8.703283 -17.642742
67.578923 30.333514 -20.869127
69.615436 38.571873 -15.285413
67.449117 30.005958 -17.678541
39.457024 5.382517 -11.676307
65.475970 25.583555 -32.392404
42.461086 6.235592 -15.241360
62.764534 21.164723 -44.218261
37.232964 4.806540 -25.119920
68.322163 32.608338 -12.185612
38.683297 5.182141 -43.999385
36.474295 4.610063 -31.289552
69.908493 41.516921 -14.725236
46.727021 7.872783 -28.737736
58.146163 15.707648 -40.840586
61.070014 18.926748 -15.119086
69.933725 41.929976 -21.787505
43.939106 6.731447 -41.675808
64.568856 23.971203 -23.977995
53.811650 12.029545 -9.430497
64.761327 24.295644 -18.218336
69.975320 44.826407 -45.225655
65.981006 26.612259 -14.728386
42.550758 6.265676 -20.253268
54.742864 12.722827 -29.152735
65.815139 26.274403 -53.471761
48.565271 8.775152 -16.424636
69.723933 39.341444 -27.817011
69.239021 36.262595 -16.332807
68.015221 31.609752 -38.530349
66.285133 27.231731 -5.226295
51.316211 10.340428 -12.457880
68.093181 31.863381 -31.529484
59.203603 16.792373 -15.728887
59.385360 16.978820 -22.909809
66.177686 27.012874 -8.196874
60.318208 18.022461 -36.966893
62.457771 20.730008 -38.352699
69.993142 43.840874 -27.927263
52.149666 10.864022 -30.392920
68.159313 32.078514 -10.278383
69.001100 35.194316 1.518135
62.219896 20.392909 -36.885256
63.198833 21.780169 -16.909238
69.883487 41.107414 -45.894343
42.408154 6.217833 -14.614123
69.990531 43.985072 -32.615193
69.050125 35.414448 -17.330179
69.050858 35.417736 -9.497761
59.563666 17.161728 -43.212534
69.132773 35.785539 -14.992111
63.208159 21.793387 -26.228253
61.117127 18.983412 -9.644648
66.110517 26.876058 -15.445255
43.613814 6.622316 -27.739614
69.018971 35.274552 -46.179780
64.706198 24.202716 -13.812832
69.242370 36.277630 -25.665331
53.528091 11.818436 -21.333599
55.495498 13.311157 -39.002675
69.924536 41.779607 -16.145704
69.934743 41.946624 -15.160066
38.729833 5.194192 -11.304479
36.066406 4.504430 -38.008634
56.961846 14.594797 -40.695028
66.330994 27.325132 -12.089647
69.968696 45.192982 -11.138785
62.433057 20.694988 -31.886430
42.938140 6.395637 -9.111163
66.218894 27.096809 -17.584469
39.499487 5.393514 -46.004842
66.320861 27.304500 -16.985929
54.446917 12.502496 -45.151915
69.970651 45.084789 -2.839644
67.573239 30.319172 -19.760772
65.645775 25.929426 -30.006466
68.328315 32.628354 -25.496899
53.643323 11.904227 -27.552371
69.988124 44.118312 -28.982663
68.919198 34.826579 -28.297751
69.720329 39.315886 -26.040588
68.275883 32.457769 -14.474094
45.895719 7.518628 -55.330326
67.119522 29.174214 -45.004896
56.537643 14.223450 -10.894263
39.399832 5.367706 -55.533105
69.876229 40.988488 -39.969348
58.785623 16.363609 -12.554732
43.132201 6.460742 -13.880504
56.336661 14.047511 -22.464148
42.461301 6.235664 -11.167124
69.588571 38.381396 -43.070577
66.941183 28.724178 -33.002346
69.069569 35.501753 -12.148478
69.089793 35.592572 -8.905685
67.372254 29.811980 -19.799972
69.588018 38.377448 -43.331699
57.056593 14.677738 -31.728847
68.074504 31.802623 -39.284802
56.044131 13.791431 -14.290785
36.025526 4.493842 -39.777791
53.928380 12.116450 -45.448198
44.935679 7.109628 -26.421463
42.567989 6.271456 -14.063125
67.390238 29.857371 -20.641302
53.523136 11.814751 -12.517339
67.153141 29.259054 -48.414795
69.937746 41.995920 -18.884190
36.390832 4.588448 -9.569590
65.491891 25.615977 -31.606180
65.378330 25.384666 -50.433406
43.558169 6.603648 -30.877478
56.384741 14.089601 -42.859315
69.937555 41.992760 -18.150737
62.742493 21.133489 -36.618695
66.961333 28.775031 -40.736433
67.140451 29.227031 -52.286734
45.577705 7.383147 -21.289808
36.189187 4.536227 -13.479655
37.204696 4.799219 -15.035587
62.534780 20.839136 -26.023844
51.716789 10.592079 -48.037173
43.513661 6.588716 -37.719392
60.393100 18.112542 -24.791051
36.571284 4.635181 -31.198901
39.571272 5.412104 -51.100593
60.577016 18.333759 -30.522263
66.979034 28.819702 -45.951875
66.827849 28.438178 -19.928627
51.629103 10.536995 -34.665077
57.120054 14.733294 -35.585218
66.847293 28.487251 -22.331819
50.801826 10.017283 -30.951035
42.741760 6.329754 -8.208344
66.477143 27.622832 -27.113663
37.612911 4.904937 -46.189893
69.636044 38.718041 -25.550767
69.984259 44.332232 -48.597802
37.649833 4.914499 -19.318649
39.049882 5.277077 -37.719952
51.298030 10.329007 -52.012761
63.145487 21.704573 -17.133978
69.723970 39.341721 -21.193518
42.093991 6.112436 -21.975881
39.775935 5.465108 -39.319479
59.321798 16.913619 -17.304980
65.619560 25.876022 -38.721271
63.976854 22.973285 -48.528318
69.974689 44.861199 -10.611247
69.621801 38.617032 -9.972069
66.225826 27.110930 -21.407568
60.219630 17.903892 -40.467811
42.745565 6.331030 -10.301182
64.601361 24.025999 -5.762764
69.949437 42.187367 -48.146991
69.983175 44.392046 -34.019964
54.305436 12.397165 -40.585312
62.565124 20.882138 -42.940732
69.613507 38.558222 -14.124773
62.287064 20.488092 -30.335600
58.647447 16.221869 -16.609967
69.939714 42.028114 -14.046508
66.124245 26.904009 -30.919846
57.339252 14.925179 -33.866709
38.063237 5.021560 -10.431435
39.062769 5.280415 -49.848890
52.098781 10.832056 -37.025352
45.136433 7.195155 -16.115884
45.256681 7.246382 -29.184985
69.457388 37.450899 -43.172464
46.228235 7.660288 -44.087028
64.049194 23.095230 -22.743614
62.559769 20.874550 -9.274045
61.214499 19.100532 -15.377873
67.027356 28.941631 -40.013139
47.830210 8.390747 -31.357159
59.029514 16.613795 -22.591942
66.081408 26.816755 -19.617489
55.915115 13.678492 -16.951435
64.737487 24.255456 -24.190901
66.379233 27.423397 -22.433564
69.144082 35.836296 -26.954248
47.984221 8.471288 -15.113150
38.614702 5.164376 -40.907909
67.097747 29.119267 -48.172648
56.945369 14.580375 -45.354605
66.930565 28.697377 -40.784716
36.547566 4.629038 -27.274016
43.883864 6.712915 -43.156252
48.371418 8.673776 -47.554625
60.536256 18.284733 -51.009152
66.986642 28.838896 -50.197168
53.850352 12.058357 -6.384305
56.902938 14.543229 -46.551154
61.335280 19.245815 -25.877956
58.232260 15.795970 -47.986683
49.505304 9.266746 -26.386214
67.424700 29.944332 -13.646512
69.894048 41.280304 -37.691628
56.690244 14.357038 -37.850087
64.262019 23.453980 -38.446426
40.270117 5.593088 -25.149899
69.963373 45.487025 -19.520087
68.948035 34.956051 -32.666519
60.580685 18.338179 -12.120356
55.648214 13.444846 -31.309904
39.259288 5.331308 -43.851509
64.401574 23.689220 -12.486058
36.441735 4.601630 -19.554774
45.352597 7.287245 -15.667790
64.366631 23.630315 -19.837121
64.724023 24.232759 -14.818661
64.922554 24.567413 -19.866074
60.995096 18.836632 -55.730601
69.538062 38.023128 -55.053276
63.990401 22.996127 -33.828662
49.325683 9.172815 -36.131103
62.201974 20.367513 -33.343868
44.151004 6.802536 -37.189874
69.678140 39.016663 -22.502519
40.147822 5.561417 -31.444001
69.983315 44.384091 -49.198852
39.611619 5.422554 -41.670314
66.104846 26.864503 -19.256470
38.495568 5.133524 -17.323724
68.393930 32.841814 -15.554092
51.840160 10.669583 -42.877449
68.262904 32.415544 -46.505101
62.060420 20.166914 -46.789911
53.760869 11.991738 -18.526726
63.344207 21.986181 -38.809766
45.475635 7.339662 -15.609047
40.050467 5.536205 -34.112227
68.017045 31.615690 -47.902479
42.904876 6.384477 -45.989164
67.317938 29.674917 -13.882048
56.940321 14.575956 -2.800624
38.847591 5.224689 -46.207391
45.021620 7.146242 -20.408765
69.676234 39.003148 -20.211457
66.043847 26.740255 -14.158654
68.353094 32.708967 -10.219427
39.496847 5.392831 -39.330102
67.390858 29.858930 -23.350580
65.649850 25.937724 -43.244390
42.715251 6.320860 -8.433314
68.814970 34.358592 -36.329363
62.523811 20.823590 -33.193149
66.177644 27.012791 -10.860493
69.960008 42.360359 -16.414981
69.409505 37.111288 -31.657820
59.987032 17.624118 -23.772283
37.877894 4.973561 -52.103892
69.862944 40.771013 -44.170136
46.557921 7.800743 -49.522468
69.637280 38.726853 -44.732963
58.893270 16.474033 -16.012362
64.495991 23.848373 -20.632986
69.978355 44.658621 -18.991640
48.796907 8.896286 -11.235037
43.282599 6.511198 -51.236072
69.925616 41.797212 -9.921889
58.966175 16.548819 -21.241709
43.880720 6.711860 -45.919659
62.428048 20.687883 -45.171257
66.839327 28.467149 -34.174042
40.505090 5.653941 -38.795105
69.975423 44.820795 -14.981277
65.923996 26.496133 -44.963331
69.753255 39.549404 -22.147641
60.702464 18.484652 -56.438062
64.575385 23.982214 -22.076141
37.917071 4.983706 -23.635549
63.946399 22.921955 -35.901253
69.486176 37.655074 -36.716511
36.701678 4.668950 -16.869282
58.375629 15.943035 -33.107481
69.965628 45.362581 -23.177438
43.417677 6.556515 -45.344204
67.136615 29.217355 -52.743263
69.463868 37.496855 -25.847695
67.513316 30.167961 -30.406916
55.805165 13.582239 -16.655265
62.146276 20.288581 -30.434117
60.133262 17.800006 -21.436373
69.185500 36.022289 -32.912381
53.286335 11.638452 -8.378521
66.349444 27.362718 -22.434784
41.845868 6.029195 -21.957190
54.561410 12.587737 -38.423527
67.399760 29.881414 -16.766265
37.382875 4.845363 -19.271901
54.625798 12.635671 -38.093829
65.601758 25.839769 -32.061288
67.239361 29.476629 -7.688614
65.904940 26.457320 -8.990616
46.122594 7.615282 -13.917670
69.017861 35.269573 -38.301765
59.016343 16.600279 -12.316105
42.639154 6.295331 -15.256464
66.233471 27.126503 -9.213502
69.560396 38.181534 -36.733142
51.128344 10.222407 -14.618508
52.282341 10.947372 -27.719247
61.415685 19.342521 -16.581584
63.350189 21.994655 -22.902604
49.533792 9.281646 -43.174350
69.478396 37.599932 -26.706669
50.775794 10.000928 -20.445179
37.477896 4.869971 -16.013323
42.572629 6.273013 -14.257257
38.099655 5.030992 -53.739673
45.570028 7.379876 -7.420975
42.149221 6.130965 -19.388367
69.473949 37.568381 -41.209188
69.865785 40.817527 -33.523457
43.744122 6.666033 -36.421127
69.912896 41.589009 -16.910096
69.605797 38.503549 -45.046949
45.399004 7.307016 -8.430650
36.168545 4.530881 -21.948538
53.829832 12.043080 -12.548141
57.984716 15.542037 -50.599852
69.995658 43.701474 -30.474689
69.979729 42.683323 -17.093067
69.912236 41.578163 -43.761497
56.997743 14.626224 -42.468401
64.517331 23.884343 -12.543851
61.134041 19.003758 -21.942415
69.596874 38.440244 -9.670662
44.035243 6.763700 -41.831946
69.959740 42.356054 -3.498700
68.355042 32.715277 -42.373238
36.464652 4.607565 -39.277068
48.523561 8.753340 -5.200303
69.966596 45.309064 -25.145496
69.923400 41.761004 -19.334594
69.971339 45.046430 -17.205907
38.321714 5.088500 -46.459304
40.477123 5.646698 -25.154020
69.573401 38.273765 -10.283814
51.303742 10.332596 -14.838536
49.573385 9.302352 -44.911534
69.865301 40.809578 -39.665446
42.441482 6.229015 -23.053875
38.985662 5.260446 -6.810344
68.035632 31.676161 -48.131941
47.683958 8.314264 -13.994459
69.986119 44.229302 -52.294299
68.581209 33.451095 -21.493449
62.736626 21.125180 -45.696886
58.710911 16.286970 -41.145787
58.505770 16.076536 -9.235657
65.881728 26.410037 -41.746259
56.954739 14.588577 -33.883951
67.463692 30.042734 -11.527441
58.180152 15.742518 -22.118685
69.864741 40.800476 -43.503213
50.800771 10.016619 -17.338720
45.603289 7.394046 -11.851703
68.914103 34.803696 -40.504203
51.570009 10.499869 -13.137781
65.900435 26.448143 -44.961642
65.866801 26.379631 -42.937063
39.200467 5.316075 -35.974613
66.010663 26.672654 -10.346932
48.079431 8.521079 -13.457260
50.954548 10.113225 -14.427926
62.055287 20.159642 -15.302497
37.718063 4.932168 -37.308805
69.855619 40.651089 -33.236027
49.235529 9.125668 -36.677197
69.545236 38.073967 -42.142248
68.449305 33.021962 -32.926816
58.027510 15.585936 -46.133252
60.492341 18.231913 -35.148795
54.592432 12.610831 -28.237650
69.981883 44.463473 -44.554987
43.164125 6.471452 -37.114838
69.933008 41.918348 -10.688019
55.425077 13.249514 -30.923299
61.579452 19.539505 -34.790003
60.247245 17.937105 -29.931898
37.588706 4.898668 -6.720049
61.332388 19.242338 -25.620720
65.961113 26.571738 -46.474555
51.064470 10.182282 -25.900365
54.062550 12.216336 -45.021201
64.424478 23.727827 -11.089312
65.852799 26.351113 -14.122053
55.858845 13.629234 -18.935190
43.675710 6.643082 -38.790342
62.976318 21.464838 -20.719674
47.910332 8.432648 -20.336263
36.943630 4.731609 -17.684619
56.781848 14.437227 -42.640356
61.242165 19.133810 -8.240950
69.683388 39.053846 -15.318935
39.215256 5.319905 -1.303582
67.251959 29.508422 -9.871337
69.523640 37.920817 -46.258690
65.653080 25.944304 -42.433656
69.854857 40.638561 -24.077203
62.753542 21.149150 -14.735414
62.980723 21.471081 -20.043933
64.596163 24.017235 -5.340344
65.832761 26.310300 -38.326973
65.552765 25.739973 -40.522874
54.327579 12.413651 -50.256747
69.288746 36.485878 -28.132244
46.335061 7.705798 -39.258609
69.162333 35.918264 -32.244533
61.501844 19.446156 -32.798903
69.717978 39.299212 -40.549378
43.552199 6.601646 -37.860771
45.116314 7.186583 -29.012586
39.111380 5.293004 -49.677427
69.000669 35.192385 -9.805661
58.903701 16.484737 -7.898146
48.944568 8.973508 -43.578030
51.034387 10.163381 -12.096921
69.705327 39.209481 -17.141281
52.235810 10.918140 -42.964258
60.783766 18.582445 -13.176912
56.820252 14.470848 -40.379997
66.115137 26.885463 -17.530583
48.369568 8.672808 -18.649565
37.764832 4.944281 -0.054611
69.013147 35.248423 -43.004116
60.997082 18.839020 -9.717070
38.294174 5.081368 -33.689237
69.107327 35.671285 -48.189205
56.701975 14.367309 -30.449375
42.095546 6.112958 -17.338472
62.273755 20.469235 -35.856767
62.562238 20.878050 -40.077794
69.836193 40.332920 -31.460940
66.307179 27.276641 -40.139004
69.091024 35.598093 -16.687577
58.659677 16.234414 -50.907703
69.863795 40.785001 -28.892083
36.848903 4.707078 -36.176190
52.030666 10.789264 -33.078999
62.988644 21.482308 -8.130209
61.238217 19.129059 -27.501990
65.756017 26.153980 -44.487259
69.961196 45.607623 -30.185806
69.692423 39.117985 -9.482624
68.237672 32.333462 -44.515528
69.942832 42.079250 -15.284827
69.967875 45.237998 -9.645494
58.857749 16.437595 -8.023935
69.867185 40.840420 -35.776257
49.308767 9.163968 -47.802950
53.329799 11.670811 -33.406908
54.771517 12.744159 -44.721198
65.522218 25.677749 -29.333616
59.197962 16.786586 -14.204268
50.830256 10.035143 -5.883638
61.260432 19.155781 -21.754542
54.117810 12.257480 -14.539825
61.140134 19.011086 -16.186803
69.165695 35.933340 -10.513878
58.067504 15.626960 -24.874668
60.139117 17.807050 -25.046949
58.419239 15.987774 -30.994997
64.777995 24.323739 -26.657365
69.628239 38.662696 -17.910082
69.625895 38.646074 -8.257944
57.435558 15.009483 -24.802790
46.269112 7.677703 -29.562715
48.071767 8.517070 -21.140105
53.930862 12.118296 -49.175598
59.278707 16.869416 -14.661986
50.585113 9.881140 -26.025213
43.850302 6.701655 -36.282094
69.951007 42.212979 -22.672205
67.085392 29.088091 -36.182059
48.303867 8.638449 -6.749909
68.484491 33.136436 -10.795241
41.686864 5.975851 -25.900933
69.679067 39.023230 -6.268078
38.847274 5.224607 -28.596643
36.281633 4.560168 -14.109956
61.179353 19.058261 -16.803892
58.843628 16.423112 -46.985880
58.718762 16.295024 -4.862419
65.892753 26.432495 -49.634129
66.348709 27.361229 -13.845359
65.426305 25.482385 -53.717926
53.273415 11.628833 -24.294750
62.851301 21.287679 -16.603538
36.785409 4.690634 -12.684104
51.981087 10.758117 -44.373591
48.237305 8.603639 -10.845006
37.381802 4.845085 -29.666525
69.690984 39.107766 -19.301385
68.077279 31.811641 -44.663472
43.393754 6.548490 -40.102741
69.885486 41.140115 -36.034033
67.382414 29.837620 -20.613485
51.043982 10.169410 -22.705593
60.426437 18.152642 -31.251042
58.226202 15.789754 -38.033160
69.959869 45.680895 -23.394159
68.419054 32.923540 -35.650299
67.216022 29.417735 -42.796980
55.697753 13.488213 -37.777838
51.599290 10.518265 -48.500859
48.930049 8.965915 -15.020613
42.101441 6.114936 -33.886098
54.293290 12.388123 -48.608429
68.445684 33.010196 -28.496791
53.833068 12.045492 -44.699237
60.047630 17.697009 -32.841769
69.975326 42.611200 -30.809638
69.947201 42.150691 -22.864634
68.005347 31.577621 -46.751313
38.818442 5.217140 -43.583990
69.195798 36.068525 -25.999964
65.553307 25.741079 -38.832821
53.752928 11.985827 -13.054834
68.906250 34.768446 -36.344144
69.694301 39.131253 -24.088375
58.797695 16.375994 -47.694701
39.096530 5.289158 -37.268652
