14.308534 80.625835 5.763880 2
43.011786 -59.395988 6.587768 2
52.795318 65.154941 3.910057 2
-56.322011 -34.389944 4.220824 2
72.305451 42.196662 5.783015 2
-35.458825 -55.855570 5.847909 2
-18.381086 -64.502787 6.604191 2
-58.641587 42.728456 4.827473 2
63.642497 -42.544786 4.020845 2
76.212088 33.941342 4.164765 2
-46.655840 -46.506616 4.319906 2
74.274996 -26.163119 5.696210 2
49.722134 -55.205701 6.837294 2
-47.991761 57.279464 5.411077 2
-48.411447 -44.634596 5.770451 2
40.157525 73.117613 4.000094 2
36.216066 74.955036 5.094278 2
58.417960 -48.070195 4.178426 2
-62.147973 -23.498532 5.300970 2
-61.572132 36.943507 6.313780 2
13.872860 -68.480427 5.534050 2
59.755820 -46.790641 4.017720 2
40.172493 73.110556 5.745207 2
-20.300850 -63.767216 4.665639 2
-61.707376 36.656665 5.217797 2
-66.913590 -7.766037 6.877465 2
-55.678720 -35.405259 6.566219 2
-35.946540 -55.502482 4.139529 2
81.577375 3.927030 6.710947 2
-33.173640 -57.308210 6.551530 2
-0.523497 -68.481077 4.233869 2
67.904603 49.252946 5.412095 2
-4.153596 80.219318 5.313592 2
-53.359951 -38.673579 6.714144 2
-68.208101 6.053230 5.649960 2
-28.049773 -60.271789 5.171992 2
68.795062 -35.801216 4.010276 2
56.555060 -49.807681 5.023143 2
81.575685 3.664591 5.691427 2
-52.894551 51.508114 3.926186 2
57.576876 61.048098 6.726037 2
-18.655432 76.613634 4.420696 2
49.387909 67.648618 6.862141 2
19.048277 -67.785708 6.430305 2
60.221204 -46.295813 5.529840 2
34.100611 -63.596817 4.714054 2
77.962691 29.090198 6.401806 2
-15.010311 77.795846 5.238459 2
71.624308 -31.235992 4.754342 2
10.393068 -68.708892 6.021794 2
71.520330 43.627372 3.900978 2
78.992015 -13.435484 6.368945 2
66.586600 -38.869469 4.574797 2
-40.553083 -52.022373 5.494885 2
-55.515354 -35.663114 5.492301 2
15.643856 -68.258066 3.880291 2
-67.495235 -4.261836 4.694434 2
-67.903660 -1.009107 5.072156 2
-43.419066 -49.590750 6.258467 2
72.214119 42.363094 4.138394 2
-23.922206 -62.270733 5.542884 2
12.454120 80.776576 5.773134 2
-49.721079 -43.214012 5.643058 2
2.907146 80.901884 5.680434 2
50.563350 66.793238 6.696710 2
76.669246 -20.590695 4.110174 2
-51.490915 -41.071348 5.792559 2
65.218582 52.836852 5.420516 2
-23.791466 -62.332375 4.103803 2
31.423934 76.807064 6.785026 2
62.717332 -43.641754 6.374222 2
-52.428401 52.138995 6.828494 2
-6.245579 -67.679487 6.399101 2
-56.719471 45.960851 6.811541 2
12.116098 80.798100 3.890103 2
76.417669 33.420951 5.428011 2
61.174192 57.480271 6.478894 2
1.741269 80.829425 5.588626 2
-64.871323 28.232707 4.098910 2
61.937612 -44.470807 6.400675 2
-54.212969 -37.497609 4.411820 2
49.008348 -55.723458 6.293213 2
-68.207127 7.336243 5.319131 2
-67.148826 18.736690 4.269468 2
-35.061186 -56.108340 3.954317 2
4.678936 80.993739 4.117842 2
64.164776 -41.914428 6.419574 2
38.978883 73.673324 6.023592 2
-17.807491 76.889328 3.960162 2
80.775372 17.182613 5.507714 2
-42.396440 62.695859 5.930274 2
-64.295987 -17.805426 5.614548 2
-14.866545 -65.647669 5.342046 2
-67.225481 -6.124289 6.835331 2
29.448135 -65.252710 5.713339 2
75.554802 -23.399225 6.500863 2
81.382571 0.631857 6.757196 2
36.400819 -62.687436 3.886841 2
61.046307 -45.418505 5.780673 2
-53.310475 50.936549 6.218524 2
-44.723290 -48.364145 4.527393 2
42.677955 71.776763 4.537048 2
-4.824388 -67.934444 4.067246 2
-12.817178 -66.215931 5.204954 2
-57.887534 44.097631 6.726467 2
54.352887 -51.666863 5.659615 2
-52.168116 52.453142 4.017863 2
-67.480858 -4.376337 5.786377 2
-28.077003 72.451538 4.421755 2
-57.380810 44.920501 6.804018 2
30.243559 -64.994927 4.846917 2
-57.448273 -32.612225 4.190982 2
-13.100981 -66.142831 6.300956 2
-67.413523 17.090264 6.689396 2
80.371000 -7.316028 4.238458 2
69.348306 -34.930899 4.430140 2
75.151206 36.496265 4.114172 2
10.876990 -68.678817 6.875044 2
56.484080 62.075858 5.876696 2
30.396080 77.141910 6.599549 2
79.721166 -10.604541 4.661702 2
-17.494536 76.990751 6.307496 2
-18.371322 -64.505967 5.548105 2
-52.948080 -39.241383 5.985884 2
70.626676 -32.919878 4.012221 2
76.083863 -22.065929 6.776511 2
-24.811924 74.047894 6.580647 2
46.077147 69.802749 5.032414 2
0.616288 80.759508 6.281142 2
-59.211938 41.692839 4.910596 2
45.225812 70.343927 4.261764 2
-64.166915 30.395087 6.360438 2
-26.011124 73.484695 6.318356 2
61.590496 57.052396 4.004848 2
-56.717418 45.964080 5.813672 2
74.420501 -25.854515 4.570775 2
-63.974166 -18.798444 5.811618 2
-2.414386 -68.240750 5.702848 2
-47.580551 -45.520395 6.407760 2
-67.150453 -6.519226 4.953607 2
-68.005846 0.520047 6.802277 2
16.109079 -68.199654 5.327308 2
3.318809 80.927469 6.620761 2
-37.599502 66.497592 6.665679 2
80.349211 19.623053 6.707818 2
69.878549 46.294389 5.243176 2
-24.081295 -62.195725 6.780535 2
-67.382855 -5.156845 5.215595 2
3.240724 -68.727166 6.704486 2
-43.215026 -49.782647 4.814829 2
81.580005 7.394239 4.398844 2
34.332141 -63.505350 6.764326 2
-56.456686 -34.177322 5.706248 2
64.237982 54.024034 6.871095 2
80.912131 -3.888447 4.773223 2
12.063677 -68.605064 6.646573 2
12.761480 -68.561695 3.916774 2
-54.129962 49.810407 6.610702 2
-68.039688 11.124645 6.657809 2
-22.099015 -63.053705 4.541949 2
-45.321862 -47.801195 3.972142 2
-1.978034 80.492477 4.227965 2
22.673155 79.291392 5.489416 2
-38.549486 65.808499 4.424761 2
51.921617 -53.610247 4.487737 2
79.162791 24.971315 3.989076 2
-51.902959 52.773170 5.130814 2
59.130540 59.586898 5.815903 2
20.794306 79.651279 4.841286 2
-23.358634 74.730425 5.691842 2
-33.837969 69.084115 5.067056 2
32.472949 -64.239836 4.082932 2
55.610537 62.822416 5.736658 2
43.490946 -59.133042 5.354466 2
-57.290789 45.062113 5.403621 2
-60.373405 39.485906 5.763700 2
78.897784 26.006715 4.284510 2
-9.750190 -67.005900 4.371796 2
8.482788 -68.796194 4.237490 2
-14.699649 -65.702036 3.971234 2
72.095029 42.580110 6.734454 2
-14.980871 -65.610427 6.814809 2
77.646947 -17.862909 4.167593 2
-51.769623 -40.733905 4.016863 2
-26.999398 -60.819887 5.536448 2
41.066764 72.664115 5.488035 2
-59.262660 -29.401273 4.373872 2
56.142931 62.381305 4.138263 2
-41.791753 63.195342 4.233793 2
22.285569 -67.170708 4.021278 2
40.309406 -60.851800 4.147510 2
21.501040 79.515906 5.613538 2
-34.186863 68.863054 6.849271 2
76.099942 34.225221 6.188986 2
-9.673360 79.219420 6.871472 2
79.165671 24.960063 5.621265 2
21.603152 79.496347 3.978309 2
2.284103 -68.666252 4.563241 2
81.578067 4.838922 6.262474 2
79.928348 21.838342 4.327591 2
33.211856 76.147106 5.387364 2
-26.817866 -60.905476 4.104417 2
-56.736599 45.933906 4.479298 2
71.033739 44.471038 6.786136 2
-62.304494 35.292527 4.433558 2
73.829863 -27.107208 6.677157 2
4.349341 80.991517 6.511146 2
-58.619487 -30.573298 5.965377 2
66.598236 51.053857 6.788601 2
29.118629 77.558067 5.612746 2
52.133465 -53.456586 5.454582 2
27.557159 78.060760 5.582514 2
72.855312 -29.000823 4.626465 2
1.270886 80.800191 4.459697 2
-67.933472 12.792701 6.658061 2
31.683054 -64.528411 4.643234 2
23.588823 -66.882672 6.338903 2
81.537219 9.096191 6.845065 2
10.099408 -68.727143 3.917621 2
78.406943 27.719401 5.574619 2
-35.965667 67.682734 5.687615 2
-32.802765 69.739991 3.903825 2
73.422264 -27.971392 5.263917 2
34.739879 75.540787 3.998998 2
77.190595 31.464419 4.575385 2
-35.545909 67.987218 3.961244 2
52.546532 -53.156972 6.513981 2
-27.864967 -60.373571 4.162288 2
28.178332 -65.664232 6.740155 2
-51.040544 53.814052 4.055177 2
6.921152 80.992053 6.735349 2
39.448993 73.451675 6.853394 2
-67.325480 17.782983 4.567566 2
70.240002 -33.528161 6.840376 2
-16.043409 -65.264299 6.412892 2
-50.988035 53.877427 5.144935 2
72.606820 41.647484 4.890150 2
-67.568803 -3.675935 3.914200 2
20.999652 -67.414998 5.516949 2
-60.952516 -26.061347 4.234821 2
-54.644385 -36.902864 6.665726 2
-32.871343 69.696518 5.608385 2
66.507451 51.179021 5.263613 2
81.528163 9.241897 4.982551 2
-7.220442 79.689940 6.864838 2
-5.200711 80.073636 6.427067 2
80.561120 -6.323434 4.225631 2
-32.066273 70.206581 4.913892 2
-64.559064 29.191274 5.036756 2
-37.002938 -54.733730 6.169089 2
-66.083597 23.836997 6.718456 2
64.604147 -41.384134 5.498943 2
50.750655 -54.459645 6.735219 2
-62.212321 -23.335649 4.053439 2
80.719500 -5.404022 6.864793 2
-4.515369 -67.973719 5.745471 2
-65.548102 -13.726267 6.809878 2
-66.983581 -7.397614 5.531998 2
-46.916663 -46.228444 5.346634 2
55.134631 -51.021131 6.668490 2
47.893664 -56.452896 4.955358 2
81.579252 6.401062 4.602974 2
55.791512 62.672470 6.761909 2
12.402238 -68.584022 5.205640 2
68.160601 -36.706495 5.723186 2
-50.529850 -42.234868 6.857489 2
-59.511277 -28.948229 5.206000 2
-63.908093 -19.002322 4.013348 2
-67.787266 14.149672 6.350891 2
69.892207 -34.075281 4.165707 2
50.186224 67.067676 5.711144 2
80.763687 -5.056363 3.934788 2
62.706285 -43.653500 5.303243 2
70.229769 45.740029 4.083000 2
9.998974 80.932910 5.977747 2
9.819117 -68.744563 5.136355 2
-48.000243 57.270446 4.076441 2
-49.536998 55.628739 6.248824 2
80.290671 19.931192 4.089478 2
-66.288629 -10.832972 3.977897 2
-67.793192 -1.888877 6.299025 2
-36.532619 67.271481 6.583701 2
-6.917363 -67.550809 4.501433 2
-56.624086 -33.913099 6.721980 2
-63.430510 32.454834 4.536402 2
-55.894963 47.257880 6.829117 2
61.668238 -44.757224 5.266677 2
75.851739 -22.650910 5.021783 2
20.123942 79.779685 3.906038 2
24.475422 78.854487 4.069973 2
78.341355 27.921782 4.303560 2
64.524967 53.676583 4.624856 2
18.185842 80.133041 5.323274 2
80.204157 -8.187091 5.189173 2
-65.575380 25.810157 5.012274 2
-5.256238 80.063087 4.559257 2
64.945615 -40.972003 6.831603 2
-68.141574 9.524600 5.286207 2
43.486444 -59.135513 4.261985 2
16.639793 -68.133019 4.180548 2
81.044822 15.036577 5.328088 2
34.615618 -63.393360 5.611607 2
-59.670968 40.859355 6.659032 2
51.075674 -54.223874 4.435869 2
56.311243 -50.036308 3.915349 2
-68.206445 8.236395 6.466987 2
-21.247807 -63.391464 6.768584 2
-16.204008 77.408989 5.872805 2
36.943250 74.633092 6.196025 2
-19.118479 76.430706 6.768590 2
81.248547 13.414005 5.358921 2
-53.469182 -38.522994 4.952718 2
41.677340 -60.128283 6.849470 2
-37.138298 66.832137 5.326692 2
1.525928 -68.617974 5.574570 2
-67.448440 16.815537 4.470468 2
-45.700379 -47.445206 6.150117 2
-66.526565 21.985323 5.869750 2
-41.912904 -50.895705 6.873251 2
35.381096 -63.090954 4.342032 2
-33.601106 69.234167 6.140895 2
79.863036 22.182122 5.432273 2
68.836391 -35.736200 5.912106 2
70.249269 -33.513583 4.862450 2
-63.711340 31.747110 5.368350 2
-46.185802 59.191123 6.747324 2
-66.947093 -7.589685 3.920035 2
81.015302 -3.076725 6.640517 2
-34.166673 -56.676962 4.711179 2
-7.590821 -67.421810 6.711113 2
81.266204 13.273375 6.552448 2
18.168508 -67.941078 4.307051 2
-23.372799 74.723772 3.975163 2
-51.775741 52.926715 6.217047 2
-12.178854 78.578149 4.415657 2
48.490008 68.268936 5.215639 2
8.418787 -68.796146 5.324336 2
-61.845410 36.363906 4.154921 2
76.603644 32.950187 6.813737 2
11.153829 -68.661611 5.071921 2
-32.496692 -57.738531 5.187579 2
-43.677616 61.542343 6.201797 2
-67.755682 14.398174 5.356459 2
81.437852 10.694928 6.473343 2
79.447574 -11.666766 6.815429 2
69.608688 46.720343 4.115142 2
11.045273 80.866286 6.662612 2
-29.553079 -59.443848 4.173284 2
-29.466178 71.689209 5.085671 2
40.217024 -60.895186 6.591761 2
78.695729 -14.585817 6.575290 2
-58.162941 -31.405240 6.875579 2
-65.829029 24.825363 6.257840 2
81.365847 11.853439 6.810762 2
-17.387200 77.025537 5.062219 2
-7.944690 -67.354027 4.630965 2
-67.479631 16.570131 5.748784 2
81.243618 13.453261 4.073359 2
6.034607 80.992720 6.210575 2
68.324819 48.673656 4.002125 2
-55.357976 48.102611 4.440513 2
-0.610582 80.664171 4.561662 2
-48.891047 -44.122726 6.710046 2
81.415437 11.055575 5.412036 2
-10.773232 78.937912 5.761414 2
54.795915 63.497363 5.140918 2
77.487319 -18.352933 6.861015 2
78.598878 -14.940688 3.985104 2
-67.899712 13.264952 5.327515 2
-61.207148 37.717607 5.329924 2
74.728892 37.395483 5.545455 2
-66.216962 -11.112982 6.253452 2
-66.441716 22.428295 4.408072 2
-48.171704 57.088138 6.549870 2
-43.615208 61.600860 5.017272 2
79.215628 -12.567302 3.911794 2
9.095210 80.990418 5.187170 2
-65.847628 -12.555998 4.630404 2
30.043882 77.256646 5.012374 2
4.557780 -68.793242 4.037272 2
14.027099 80.661605 4.076682 2
-33.374830 -57.180319 5.450132 2
-17.055563 -64.934584 6.763601 2
9.974957 80.934440 4.521762 2
-68.207020 7.477480 4.132603 2
-68.011145 0.605301 4.105094 2
42.870502 71.670719 5.591015 2
47.021875 -57.005228 5.295797 2
-59.208231 41.699571 3.896092 2
-64.452629 29.518007 6.868116 2
62.204827 56.381087 5.344578 2
-38.435390 -53.691320 5.288335 2
79.503780 23.639043 4.022803 2
-27.037749 73.002546 4.115918 2
-53.379575 50.841593 4.712769 2
15.873245 80.426965 6.111220 2
69.399431 -34.850475 5.680173 2
-37.922725 -54.064392 6.281655 2
-40.727705 64.074242 5.650062 2
-65.121875 27.463568 6.700651 2
-50.119655 54.925508 6.777261 2
65.826612 52.100741 4.426369 2
61.516626 57.121879 5.030751 2
-64.771642 -16.337730 5.008403 2
7.978979 -68.795815 6.603970 2
38.079236 74.097493 6.727414 2
81.578906 5.945478 6.841928 2
77.132048 31.612620 6.278914 2
81.306063 -0.569651 6.531451 2
33.034838 -64.017858 4.986481 2
-50.989378 -41.678514 3.964553 2
-10.902681 -66.709051 4.061590 2
43.461511 71.345225 6.508409 2
-20.440713 75.908352 3.946414 2
80.860358 16.505737 4.088316 2
63.422203 -42.810667 6.580528 2
-39.026652 -53.261053 6.490775 2
59.129783 59.587610 6.837776 2
-22.687249 -62.820294 5.442962 2
-20.555965 -63.665987 5.737913 2
55.390355 -50.809901 3.992118 2
30.566364 -64.890311 6.482504 2
71.343047 43.950430 5.450411 2
60.942945 -45.528407 4.037377 2
-27.689853 -60.470015 6.809940 2
-8.312325 79.482512 3.885324 2
72.083019 -30.403098 5.714420 2
55.260109 63.112759 4.021350 2
45.166052 -58.181009 5.410402 2
-10.227941 79.077477 4.986986 2
-65.719244 25.251603 4.136576 2
26.084157 78.440144 4.741148 2
-10.168529 -66.898148 6.555110 2
-22.717688 75.008825 6.463592 2
72.827922 -29.050555 6.165186 2
53.589010 -52.297835 5.315446 2
-68.206251 8.491878 5.454451 2
6.918783 80.992055 4.610128 2
-50.406050 54.579847 4.275360 2
-61.693798 -24.482937 4.661383 2
-65.994824 -11.980890 6.834230 2
78.888467 -13.837508 4.302751 2
-64.619285 29.006410 5.990238 2
48.144907 -56.293702 6.508609 2
74.611343 37.645778 3.907511 2
-66.271516 23.107401 5.903159 2
-40.089719 -52.406290 4.670485 2
58.824388 59.874829 4.900873 2
4.039989 80.972291 5.318294 2
-2.509540 80.425742 6.664398 2
21.908468 79.437865 6.790913 2
80.600972 18.297865 4.937082 2
20.347790 -67.538835 4.624020 2
-47.305987 58.008620 5.785887 2
63.855733 54.486812 4.024954 2
78.229793 -16.073699 5.310581 2
-58.444354 -30.892434 4.140384 2
57.628332 -48.816589 4.554173 2
16.605241 -68.137357 6.486731 2
-67.919723 -0.865673 6.570712 2
-0.802285 80.640101 5.791289 2
-65.339233 26.727004 3.951569 2
55.831389 -50.445601 6.268573 2
-68.040482 1.077335 5.848070 2
79.355401 24.218772 4.957322 2
41.984094 72.158902 5.560021 2
-52.108125 -40.324120 6.869315 2
73.081147 40.783127 6.856684 2
54.206777 63.985489 4.283494 2
46.224108 69.709328 3.927367 2
74.909704 -24.816956 4.006032 2
-68.148022 2.807669 6.365082 2
2.506884 80.877008 4.710889 2
78.652581 26.961452 4.936612 2
-13.490755 78.242373 3.907923 2
-41.837732 63.157352 6.874387 2
-7.263319 79.681795 3.986238 2
44.713967 70.655444 6.698068 2
-64.059221 -18.535996 6.856470 2
36.025621 75.030605 6.487688 2
-67.576712 -3.612944 6.497683 2
-12.026824 78.617060 6.801054 2
80.586952 18.371666 6.848848 2
25.473107 -66.400397 5.017153 2
-65.881710 24.620827 5.078465 2
64.989425 53.114292 6.604330 2
-44.332178 60.928601 5.434223 2
-15.532422 77.626639 6.815920 2
72.226099 -30.143303 6.646768 2
81.578342 5.201681 3.940972 2
-31.171964 -58.552251 5.006365 2
78.822597 26.300480 6.771508 2
0.894141 -68.577744 6.739187 2
80.906062 -3.936199 6.098049 2
-6.933083 -67.547798 5.550432 2
76.590959 -20.787988 6.337572 2
53.778378 -52.141419 3.994888 2
81.112748 -2.310042 3.992640 2
-63.026030 -21.275919 5.861807 2
-18.638781 -64.418841 4.346591 2
-68.130166 9.703745 4.032102 2
27.758116 78.001284 6.845700 2
-64.491309 29.399270 3.993225 2
81.577520 4.117696 4.746162 2
-67.562502 15.918107 6.807704 2
81.578319 5.171281 5.248172 2
-39.836914 64.810032 3.881505 2
-44.085961 -48.963544 4.043282 2
53.058652 64.936758 4.859126 2
-60.203512 39.846235 6.869549 2
77.595599 30.222908 4.666911 2
23.684876 -66.858088 3.895051 2
-15.618470 77.598753 4.066667 2
38.494691 -61.704066 5.403032 2
17.438690 -68.032712 5.339818 2
79.671479 -10.797455 6.207912 2
34.785839 75.522550 5.005743 2
-52.601960 51.910193 5.608548 2
80.431493 -7.000203 5.363302 2
-49.277369 -43.726754 4.870478 2
80.717757 17.641490 4.038511 2
-11.310268 78.800460 3.884862 2
-66.743224 20.854213 6.641032 2
75.460972 35.836691 6.634061 2
-68.124748 2.433196 5.041823 2
-49.656068 55.485030 4.108960 2
-58.154387 43.613090 5.835335 2
47.172271 -56.909933 6.854923 2
-19.160491 -64.219711 6.104816 2
-66.615322 -9.336079 6.837743 2
75.439424 -23.689993 5.061419 2
4.348088 -68.793085 5.316355 2
18.564350 -67.877641 5.240889 2
-66.719852 20.976231 4.106577 2
-66.050296 -11.764158 3.911272 2
38.867691 73.725749 3.888789 2
33.442259 -63.856903 6.084325 2
-54.859448 48.807945 6.150660 2
80.342466 19.658559 5.010299 2
-67.229188 18.317146 6.678436 2
-45.437083 59.892600 6.436514 2
-68.207388 6.992984 6.710014 2
-11.835901 -66.468680 4.915801 2
-39.971473 64.698895 6.730805 2
-40.580580 -51.999591 6.767454 2
-66.460760 22.328870 6.779764 2
-31.255887 70.707082 4.274534 2
77.797537 29.599802 5.515086 2
73.961296 39.029900 4.182942 2
-21.341652 75.552433 4.298474 2
39.373583 -61.291301 5.072694 2
44.051160 71.020480 4.305558 2
-40.757527 64.049605 4.556362 2
73.161257 40.637145 5.866297 2
-67.363436 -5.311496 4.020109 2
37.174823 74.523909 5.163557 2
-67.682328 -2.771816 4.370227 2
-53.789667 50.278042 5.683829 2
76.330242 -21.445025 4.869604 2
-26.489195 -61.060439 6.621267 2
9.132559 80.988080 3.903730 2
24.782811 -66.577076 4.246489 2
0.251119 80.736812 3.985769 2
39.164945 -61.389286 6.251096 2
22.771308 79.272591 4.113678 2
77.380776 -18.679998 5.702418 2
26.333760 -66.180116 6.835335 2
80.213758 20.336035 5.934907 2
-64.463626 -17.288154 4.736896 2
57.977152 60.671644 4.146214 2
47.264891 -56.851281 4.079534 2
59.338501 -47.200057 5.632500 2
-31.204242 -58.534475 6.551890 2
-11.024449 78.873614 6.833547 2
29.134809 -65.354253 4.684970 2
-62.759373 34.146177 3.925407 2
-9.149791 -67.123194 5.714169 2
30.875749 76.985647 4.486340 2
-64.028653 30.819522 4.061568 2
16.747319 80.315873 6.836321 2
66.905833 50.629826 3.978692 2
47.563692 68.857779 5.531389 2
73.348073 40.296714 4.334031 2
-37.640066 -54.270085 5.302608 2
-36.319850 67.425818 4.685080 2
-19.889482 -63.930447 6.863915 2
28.399560 -65.592535 3.976148 2
-59.148735 41.807601 6.666516 2
63.504836 54.911619 6.504300 2
-39.447771 65.131476 5.883272 2
-68.186057 8.826019 4.507548 2
-66.467260 -10.115457 5.433138 2
-68.122561 2.397997 3.913065 2
42.586351 -59.629451 5.185002 2
76.645999 32.842972 3.904528 2
-63.234515 32.948765 6.363317 2
45.315000 -58.086642 4.227682 2
-57.351489 44.966626 4.058515 2
-65.412537 -14.255931 4.115967 2
26.493976 -66.139110 4.152741 2
41.519055 -60.215144 5.222491 2
-0.136335 -68.512127 5.620526 2
-65.992971 24.188856 3.882842 2
38.306416 -61.792488 6.792199 2
67.265029 50.134645 5.743907 2
60.012868 58.718844 6.713181 2
-29.469454 71.687411 3.934886 2
77.978998 -16.843584 6.826613 2
51.616672 -53.831464 6.596190 2
37.555215 74.344560 4.042980 2
-30.084327 -59.151264 5.157962 2
56.842263 -49.538391 6.366750 2
-39.570929 -52.836128 3.972197 2
-67.945222 12.608179 4.146793 2
74.020643 38.903535 5.360418 2
-59.918560 -28.206057 6.846135 2
-50.200462 -42.633630 4.117535 2
-0.418835 -68.494139 6.754358 2
-46.194978 59.182450 4.109399 2
76.020280 34.426871 5.155877 2
27.639744 -65.838779 4.745373 2
77.069559 -19.581861 4.470495 2
14.963932 80.542536 6.710552 2
-67.833036 13.789553 4.316445 2
-33.678707 69.185031 4.107632 2
-68.209638 4.026808 4.824627 2
79.942536 -9.552981 5.827220 2
-55.624765 -35.490420 4.447545 2
-66.674807 -9.022956 5.555422 2
40.974691 -60.513871 6.122570 2
77.979584 29.038072 4.045884 2
66.113243 -39.519952 5.396996 2
-54.377463 49.470291 5.430307 2
-42.743552 62.409141 5.021580 2
-9.255233 79.303384 5.893433 2
60.382481 58.330412 5.044348 2
-48.829278 56.388966 6.876589 2
79.655378 23.046741 4.955449 2
-10.044943 79.124315 3.922726 2
51.861971 65.848218 6.684245 2
80.961794 15.697850 6.207917 2
37.109299 -62.354704 4.476216 2
6.051419 80.992707 3.914110 2
-38.557040 65.803023 5.524833 2
-29.389919 -59.533708 6.770129 2
-41.299108 -51.404260 4.621207 2
-68.209417 4.317382 6.531921 2
79.519447 -11.387721 5.441133 2
57.150410 61.449183 4.175590 2
8.860327 80.990595 6.702629 2
81.451077 1.707712 6.594071 2
-37.092905 66.865087 4.105446 2
65.812150 -39.926149 6.314244 2
23.346147 79.145342 6.572750 2
44.341776 -58.666138 5.765310 2
75.097992 -24.417613 6.729934 2
32.391704 -64.271932 5.890710 2
2.256041 80.861418 6.620104 2
-59.941065 40.368925 5.313470 2
65.873078 52.044491 5.477217 2
22.184627 -67.189885 5.216278 2
-65.026914 -15.550056 6.720955 2
73.589236 -27.617558 4.043181 2
-16.509135 -65.112586 5.544969 2
65.653785 -40.117285 4.246402 2
81.580305 7.789105 6.041373 2
13.237622 -68.532103 6.692196 2
-42.737384 62.414234 6.856316 2
41.737893 -60.095054 4.191436 2
-54.055983 -37.714033 5.489272 2
-56.142119 46.869079 5.923974 2
-61.966994 36.106037 6.043626 2
76.681513 -20.559781 5.262385 2
46.170351 -57.544718 6.728191 2
-17.657618 -64.738461 4.783544 2
-29.285403 71.788412 6.082477 2
-57.083361 -33.188205 5.655011 2
11.698857 -68.627738 4.151636 2
71.217034 -31.975491 5.465409 2
-66.220346 -11.099761 5.127575 2
71.026686 -32.290618 6.871948 2
-3.187203 80.340656 4.563256 2
49.523964 67.549610 4.981796 2
-35.876853 -55.553193 6.654542 2
7.965209 80.991268 4.075564 2
-44.029340 -49.016795 6.844243 2
-31.695721 -58.247690 4.040999 2
-18.976336 76.486860 5.338594 2
45.316850 -58.085469 6.659007 2
-68.208214 5.903649 4.071427 2
-58.776211 42.484013 5.943283 2
-49.023562 56.182392 4.711857 2
72.455440 -29.726881 3.928645 2
-63.099249 33.289651 5.337703 2
-68.095498 10.248183 5.936304 2
19.373824 -67.723862 4.562614 2
-4.189380 80.214825 4.124973 2
62.030752 56.566733 6.737318 2
63.548240 54.859079 4.931241 2
-2.305958 -68.254531 4.047205 2
-60.422148 39.382525 4.547568 2
54.043886 64.120451 5.830897 2
-39.179784 -53.149618 4.851234 2
-66.853328 20.279396 4.877733 2
-8.653531 79.417692 6.851983 2
-52.141852 -40.283278 5.662351 2
21.335844 -67.351131 4.210416 2
57.218589 61.385062 5.703652 2
-64.204406 30.280000 4.843914 2
79.210297 -12.587999 5.186220 2
-60.364898 -27.312562 6.581017 2
-26.555106 73.229217 5.090684 2
-68.069454 1.543501 4.681855 2
57.669409 -48.762834 6.464039 2
-67.134187 -6.604844 3.879029 2
75.451641 -23.659205 3.918151 2
18.619395 80.067876 4.019557 2
51.146366 -54.172609 5.712010 2
-67.970229 12.215461 5.444488 2
49.495344 -55.370209 3.898163 2
-19.939733 76.106266 6.283855 2
-22.911286 -62.731395 6.392601 2
-30.210025 71.281013 6.449805 2
26.507493 78.331111 5.750747 2
-58.144632 43.630803 4.078905 2
1.304573 -68.603879 4.295243 2
-11.153548 -66.644435 6.299249 2
-54.399678 49.439763 4.446365 2
-50.877506 -41.813976 5.168753 2
3.220484 -68.725877 4.036640 2
-44.004882 -49.039797 5.442536 2
67.030531 -38.259425 6.743442 2
27.019017 78.199363 3.971613 2
81.399464 11.312564 4.086809 2
-68.069088 10.662942 4.774288 2
13.285150 80.723659 6.515716 2
-42.521393 -50.391547 5.979069 2
-63.361472 -20.426821 5.266668 2
-47.367692 57.943012 6.813746 2
19.675156 79.865649 6.878414 2
74.126917 38.677248 6.741760 2
-26.037983 73.472081 4.006047 2
33.117183 76.184673 3.880897 2
80.278363 -7.799674 6.644361 2
-22.044666 75.274705 5.191149 2
70.074875 45.984506 6.352097 2
-67.828955 -1.604064 4.202716 2
46.667605 69.427405 5.721513 2
-55.876775 47.286490 4.117867 2
-60.437509 -27.157952 5.148713 2
54.396721 63.828112 6.682798 2
-64.487464 -17.214598 6.815239 2
-61.279896 -25.364258 5.108559 2
-1.159718 -68.400215 5.972352 2
-66.613353 21.532231 4.906541 2
78.536239 -15.132976 5.703988 2
14.453726 -68.407495 6.377803 2
41.613172 72.363185 4.243973 2
-3.543630 -68.097225 5.633828 2
25.181761 78.672564 5.893868 2
-31.471559 70.583370 5.814028 2
50.334720 -54.761351 4.970573 2
38.316236 -61.787876 4.379781 2
-66.958221 19.731783 3.880387 2
53.005371 64.980903 6.782086 2
23.771178 79.035871 5.171908 2
-67.670448 15.068792 4.497662 2
27.312180 -65.929694 5.667647 2
67.721163 -37.310365 4.934268 2
-65.354650 -14.482098 6.197125 2
-1.221476 80.587468 6.865955 2
66.022096 51.848112 6.823281 2
67.385525 49.968541 4.487961 2
-30.388447 -58.983771 6.797487 2
80.110281 20.880705 4.596600 2
24.318688 -66.695866 5.468397 2
-62.863039 33.884927 6.058350 2
61.323069 -45.124232 6.785861 2
-1.764288 80.519314 5.958911 2
71.481684 -31.494959 6.421028 2
81.471763 10.149326 4.455582 2
81.332642 12.387675 4.302384 2
76.992331 -19.776485 5.748270 2
14.616832 -68.387016 4.119527 2
-6.310592 79.862788 6.065264 2
-61.787732 -24.282924 6.526660 2
80.755979 17.337071 6.686234 2
4.885259 -68.793489 6.232812 2
-12.168595 -66.382988 6.397813 2
-65.127637 27.445878 4.909432 2
81.327792 12.465706 5.839467 2
-60.099317 40.067224 3.908672 2
44.387862 -58.640847 4.372676 2
45.432525 70.212523 5.973795 2
58.023831 60.627742 5.169103 2
-62.658395 -22.206506 6.841923 2
24.822077 78.765204 6.875957 2
81.430633 1.386639 5.540503 2
-32.120927 70.171954 6.664751 2
-61.029243 38.094929 6.691994 2
60.819091 57.868502 4.270753 2
-63.508799 -20.053894 6.230222 2
71.773609 43.165827 6.008213 2
34.778373 75.525513 6.104780 2
-66.908397 19.991897 6.166957 2
62.999513 55.523396 3.923282 2
81.356069 0.215663 4.299565 2
-38.394133 -53.721343 4.243236 2
-66.765443 -8.545862 4.494952 2
25.595180 -66.369153 6.125690 2
7.145227 -68.795188 5.025986 2
7.129279 -68.795176 3.961635 2
-64.758159 -16.379333 3.910797 2
80.903811 16.159657 5.285164 2
69.314749 -34.983689 6.731036 2
-67.620945 -3.260669 5.517952 2
-67.162307 18.666314 5.277123 2
75.561092 35.589229 3.880160 2
47.724065 68.755833 4.370790 2
63.917138 -42.213312 4.910559 2
52.301698 65.528224 5.245321 2
-67.687608 -2.729764 6.862848 2
-47.609241 -45.497979 4.172251 2
75.597475 35.497130 5.397139 2
5.439239 -68.793905 4.851104 2
67.179362 -38.054903 4.180938 2
81.431324 1.397489 4.116482 2
8.945133 -68.796542 6.365002 2
-28.434329 -60.059996 6.032658 2
74.608998 37.650771 6.712548 2
-68.208899 5.001093 5.344673 2
-44.495285 60.775666 6.652119 2
-68.150877 9.378507 6.870082 2
-50.379844 54.611476 5.392429 2
-42.275383 -50.595376 3.998358 2
-25.944649 -61.317184 5.145681 2
-60.923582 38.319027 4.374192 2
73.327560 -28.143348 6.302338 2
-65.518009 26.032904 6.347033 2
62.904882 -43.435042 3.975880 2
15.164134 -68.318298 5.692579 2
-48.460869 -44.598115 4.049966 2
24.689480 -66.600963 6.823357 2
-62.574575 -22.418679 4.657739 2
-34.131591 -56.699263 6.214243 2
-68.087726 1.837508 6.852603 2
81.291993 -0.790599 4.533795 2
15.277556 80.502675 3.926744 2
64.459025 53.756417 5.632778 2
74.679952 -25.304242 6.200594 2
68.296051 -36.520361 6.861439 2
81.065358 -2.682890 5.627932 2
73.585824 39.829380 5.161218 2
40.508730 72.952026 6.755430 2
51.862342 65.847948 3.901008 2
81.562898 8.683034 4.074894 2
66.915928 -38.416911 5.527021 2
-14.479730 77.967799 6.753143 2
54.724027 -51.360299 4.767986 2
-65.580090 -13.601290 5.576512 2
-3.861887 -68.056775 6.860301 2
64.425764 -41.599431 4.003492 2
-61.365502 37.381751 4.380408 2
5.258405 80.993303 5.246143 2
62.808294 55.737473 6.118281 2
-54.962607 -36.464173 3.957616 2
77.411576 30.790736 5.615642 2
-24.526739 -61.985706 4.608937 2
-11.873043 78.656420 5.732813 2
-37.570666 -54.320589 3.915294 2
72.385143 -29.854521 4.950667 2
51.029957 66.453683 5.548695 2
81.352745 0.163472 5.279726 2
61.828941 -44.586354 3.978425 2
-3.196822 80.339448 5.785011 2
-19.944808 76.104261 5.300099 2
-6.542425 79.818746 5.046492 2
-45.023670 -48.081642 5.630280 2
22.350559 -67.158362 6.380690 2
62.907467 55.631701 4.979625 2
-67.634105 15.354739 5.646893 2
-13.687365 -65.991795 4.788430 2
-62.564544 34.637170 6.752412 2
20.600753 79.688354 6.285684 2
58.207912 60.454617 6.141785 2
-35.406719 68.088180 6.741481 2
80.536452 18.637480 3.906034 2
69.221280 47.331824 4.889678 2
58.626179 -47.865738 6.860702 2
59.662798 59.086316 4.321435 2
81.499066 2.461336 3.952686 2
15.945779 80.417746 4.798502 2
80.483518 18.916106 5.695873 2
68.041985 -36.869495 3.998470 2
59.074779 -47.449340 4.587055 2
52.776936 -52.968619 4.080296 2
-47.194692 58.126956 4.072974 2
-59.191133 -29.531613 6.412927 2
29.177619 77.538850 6.863269 2
-63.201641 -20.831398 4.108361 2
-65.284036 -14.756672 5.143976 2
11.082726 80.863901 4.489740 2
49.641433 67.464126 3.904157 2
32.289441 76.513120 5.432114 2
-25.631877 73.662807 5.322648 2
17.155389 80.264008 4.030769 2
53.944001 -52.004608 6.580174 2
31.601432 -64.554863 6.775071 2
76.931615 -19.929496 6.842813 2
40.176376 -60.914276 5.582475 2
79.916099 21.902816 6.779939 2
36.448999 -62.664809 5.180627 2
-45.150107 60.170110 5.287622 2
80.809457 -4.696260 5.302983 2
-57.561739 -32.433113 6.623158 2
37.623984 -62.112987 5.520167 2
69.511871 46.873149 6.197851 2
48.571532 68.217113 4.184952 2
-41.869899 -50.931337 5.531225 2
-34.630661 68.581886 4.293797 2
-59.869359 -28.295713 4.375931 2
78.914426 25.941694 5.604494 2
-38.844163 65.594747 6.703757 2
-62.506929 -22.589912 5.903977 2
32.134402 76.574640 4.387747 2
2.464837 -68.677760 6.109960 2
41.370045 72.497086 6.641291 2
28.636390 77.715167 4.388560 2
-8.765534 -67.196797 4.161254 2
-52.834098 -39.398518 4.275969 2
-68.208331 5.749372 6.862785 2
74.341859 -26.021309 6.787148 2
81.518445 2.765678 6.060500 2
-3.422174 -68.112662 4.486469 2
-65.087164 -15.364146 3.951585 2
-1.265827 -68.386729 4.965779 2
50.782431 66.633810 4.461932 2
81.579107 6.210119 5.551624 2
-46.422383 58.948122 5.339426 2
-67.564719 15.900658 3.896819 2
35.828621 75.108774 4.211701 2
13.181617 80.730252 4.688741 2
-5.890876 -67.747429 5.102066 2
49.206501 -55.579724 5.333254 2
-13.989180 -65.914056 5.909472 2
30.924937 76.969623 5.492741 2
-60.941925 -26.083898 6.793966 2
-45.090079 60.226852 4.107261 2
-8.786736 -67.192736 6.779436 2
79.550363 23.457043 6.517111 2
17.013389 80.282056 5.899202 2
-27.964197 72.513442 5.860324 2
81.232837 -1.365207 5.352256 2
-46.929453 -46.214803 6.647582 2
-62.660536 34.395259 5.062096 2
71.019365 44.493728 4.392080 2
20.342688 -67.539804 6.841659 2
68.559952 48.349475 6.767035 2
73.856025 -27.051722 5.160763 2
-57.964133 -31.767518 5.741151 2
-54.676759 -36.858231 5.638158 2
-12.830910 78.411258 5.187436 2
81.086067 14.708082 6.694457 2
-64.124153 -18.335642 4.798727 2
-2.477817 -68.232688 6.794966 2
-66.538394 -9.741014 4.422278 2
46.063957 -57.612126 4.802270 2
46.869899 69.298811 6.763861 2
26.367840 -66.171394 5.385656 2
-36.868209 -54.831773 4.316497 2
-21.811418 75.366850 6.286705 2
-67.941568 -0.514187 4.135240 2
-7.873591 79.565860 4.976112 2
-43.230632 61.978986 3.889722 2
28.349047 -65.608906 5.619481 2
-5.919451 -67.741955 4.004528 2
19.351664 79.927613 5.427697 2
-63.710943 31.748111 6.623829 2
37.156519 -62.332528 6.736355 2
80.004721 -9.228321 4.106478 2
77.781689 -17.449280 5.450452 2
-19.450871 -64.104488 3.938625 2
48.116490 68.506375 6.568506 2
-32.524347 -57.720951 4.080238 2
6.799670 -68.794928 6.364495 2
60.097880 -46.426939 6.847711 2
-32.297884 -57.864908 6.769375 2
78.487886 27.469642 6.852528 2
76.817873 32.407903 5.155145 2
18.086544 80.145661 6.641666 2
7.776178 80.991410 5.423602 2
-14.030182 78.104309 5.122884 2
-25.032059 -61.747456 6.847842 2
73.627272 39.741126 6.783576 2
-26.876758 73.078154 6.229659 2
35.725842 -62.954760 6.534363 2
17.773396 -67.990687 6.428162 2
-66.012114 -11.913336 5.608029 2
32.633863 76.376454 6.681516 2
77.972061 -16.864881 4.696743 2
