-23.872028 -0.320103 -36.860048
-48.957065 -23.722362 -38.391723
-36.569263 -5.252178 -23.139034
-49.909048 -33.728755 -17.732959
-44.156906 -13.101374 -46.822395
-34.390921 -3.772427 -15.419799
-48.260442 -42.226256 -11.401741
-48.996182 -39.678305 -10.979407
-47.814419 -43.464342 -26.081567
-45.985849 -16.082486 -42.199877
-49.495761 -37.249730 -7.994706
-49.908589 -29.857598 -44.766950
-28.819486 -1.004292 -37.239175
-49.342754 -25.400230 -22.132417
-49.815270 -28.741162 -5.411887
-43.892815 -12.714045 -27.820074
-48.267433 -21.344336 -40.626373
-48.149404 -42.534463 -29.248605
-45.565274 -15.335143 -13.090340
-48.969613 -39.778195 -20.954044
-49.953405 -31.860960 -20.470229
-34.993342 -4.136158 -27.129224
-37.102361 -5.640080 -15.448632
-49.952635 -32.176342 -36.075309
-49.086619 -39.338257 -28.629615
-49.852572 -34.366886 -14.284305
-48.999822 -23.886340 -44.824408
-40.461482 -8.625158 -19.937194
-45.740485 -15.646486 -45.636369
-38.911755 -7.150592 -10.804966
-48.664906 -40.923859 -45.401542
-49.830483 -28.923147 -16.622580
-48.926486 -23.605084 -9.823863
-49.858068 -34.304786 -12.072689
-46.883684 -45.661415 -14.605748
-37.104034 -5.641296 -13.801054
-45.566593 -15.337490 -12.411049
-39.146257 -7.354142 -20.968838
-41.913522 -10.175821 -27.930067
-22.959910 -0.265750 -38.155437
-28.173598 -0.752636 -28.497539
-49.861822 -29.298072 -43.395693
-46.573195 -46.335522 -16.956766
-36.318645 -5.069818 -43.100629
-47.990925 -20.564923 -9.482403
-39.139765 -7.348507 -27.937926
-47.093457 -45.205962 -43.097399
-45.516847 -15.249095 -21.648534
-33.987136 -3.528630 -42.916537
-48.680721 -40.864413 -25.070155
-22.954060 -0.265402 -41.412324
-46.680297 -17.429951 -19.228960
-38.345958 -6.659479 -39.834614
-49.813354 -28.718275 -15.015644
-49.180540 -24.579418 -19.777175
-46.974655 -18.077353 -13.716575
-49.899427 -33.837526 -23.283803
-49.900790 -29.764297 -31.780876
-31.050895 -1.953000 -42.436037
-47.128623 -18.415975 -43.846124
-34.530744 -3.856850 -25.645769
-25.625321 -0.424580 -19.608293
-47.791810 -43.527112 -41.361507
-36.470996 -5.180674 -14.453496
-39.152976 -7.359972 -26.063696
-34.630310 -3.916966 -24.929465
-33.844000 -3.442209 -6.962601
-48.231185 -21.242160 -28.725459
-45.860073 -15.858986 -6.723146
-49.342722 -38.119777 -24.282070
-32.047353 -2.443404 -10.425030
-38.898199 -7.138824 -23.077525
-49.803475 -28.600061 -21.303320
-48.027325 -42.873338 -25.452705
-49.894989 -29.694916 -36.414285
-24.629105 -0.365216 -56.940383
-49.761426 -35.396785 -34.418021
-23.255152 -0.283343 -39.632516
-24.172236 -0.337992 -45.827758
-36.716713 -5.359468 -20.754360
-27.960399 -0.669567 -39.239200
-48.636265 -41.031560 -33.116175
-23.589029 -0.303239 -1.889278
-49.954705 -31.327093 -17.350831
-31.034348 -1.944855 -48.526639
-36.291266 -5.049899 -10.104624
-43.978330 -12.839466 -14.359217
-49.320168 -38.248025 -40.661057
-36.554515 -5.241447 -21.593310
-23.456651 -0.295351 -35.694773
-46.815316 -45.809843 -16.102862
-45.945333 -16.010488 -6.078584
-33.467286 -3.214755 -29.916352
-25.544041 -0.419737 -18.021809
-49.345434 -38.104363 -38.288868
-49.845192 -29.099100 -49.267516
-45.432401 -15.099040 -27.939249
-44.618198 -13.777932 -42.636210
-42.760642 -11.214310 -39.459320
-49.954340 -31.477177 -14.327552
-49.850190 -34.393766 -12.773959
-24.576923 -0.362107 -17.765707
-26.031093 -0.448760 -17.961731
-28.900821 -1.035982 -50.042248
-48.748444 -22.922290 -10.581335
-44.529829 -13.648324 -37.601030
-46.168866 -16.407696 -33.402655
-49.953312 -31.900244 -52.415444
-48.862946 -40.179256 -19.927805
-47.231543 -18.642336 -36.767780
-49.425805 -37.647446 -9.867127
-42.169551 -10.489688 -24.817161
-29.488672 -1.265027 -28.224152
-48.761950 -22.974076 -9.874389
-42.604926 -11.023415 -44.206494
-48.800527 -40.413931 -6.359928
-48.149630 -21.012276 -44.527286
-33.572040 -3.278004 -51.860296
-41.051529 -9.233552 -41.841027
-23.086540 -0.273296 -49.149045
-45.540223 -15.290634 -9.136216
-43.156771 -11.699924 -34.294114
-43.873012 -12.685001 -24.691600
-45.770019 -15.698970 -6.406792
-25.570204 -0.421296 -29.239953
-49.467474 -37.410548 -42.343505
-49.400861 -25.740292 -18.737746
-48.172970 -42.469066 -17.344899
-49.612458 -26.978592 -48.037117
-43.809135 -12.591314 -26.872369
-36.091956 -4.904872 -39.019900
-49.439147 -25.964344 -22.588224
-49.014864 -23.944022 -34.428306
-33.952431 -3.507676 -38.373588
-49.019318 -23.961109 -38.384577
-49.814432 -34.797826 -51.354945
-31.638615 -2.242245 -51.088168
-49.742810 -27.874283 -7.907549
-49.842601 -29.068180 -44.514333
-40.686834 -8.857516 -14.534899
-34.107964 -3.601585 -47.315009
-21.783996 -0.195678 -36.681285
-47.780583 -43.558277 -2.232213
-36.245975 -5.016941 -44.931581
-36.058999 -4.880890 -51.760301
-32.101820 -2.470211 -24.071127
-38.923985 -7.161209 -19.077016
-31.422586 -2.135926 -37.988051
-49.954635 -31.356960 -20.267068
-48.086911 -42.707940 -43.055210
-40.311188 -8.470187 -7.148626
-49.060183 -24.117821 -50.067939
-23.073475 -0.272517 -49.019787
-26.128024 -0.454536 -20.103995
-42.025941 -10.313635 -25.043348
-28.277458 -0.793102 -41.368341
-39.014858 -7.240086 -19.000896
-29.082985 -1.106959 -22.817172
-49.905625 -33.767439 -33.299513
-47.075238 -18.298566 -48.786930
-49.764100 -28.128990 -20.879101
-46.982457 -45.446962 -3.280203
-42.544926 -10.949861 -45.942948
-49.821852 -34.714029 -17.956859
-49.588813 -36.720686 -32.887485
-40.800989 -8.975221 -8.755991
-40.260120 -8.417537 -14.031695
-47.916789 -43.180178 -7.939253
-39.151439 -7.358637 -13.681609
-49.513071 -37.151312 -24.562605
-34.051474 -3.567476 -19.622983
-49.386832 -25.658177 -15.295663
-29.509848 -1.273277 -13.561806
-49.442193 -25.982162 -25.644287
-49.089881 -39.326003 -22.786627
-49.523911 -26.460413 -46.253943
-32.280229 -2.558015 -34.066156
-48.955206 -39.832357 -22.553170
-38.900305 -7.140653 -15.134480
-26.145298 -0.455566 -9.298999
-38.487964 -6.782740 -41.394059
-32.315444 -2.575345 -25.478946
-49.609085 -26.958858 -37.039620
-38.000433 -6.359561 -23.944678
-49.384743 -25.645944 -7.800123
-33.383000 -3.163866 -33.171729
-45.707332 -15.587574 -47.044771
-24.135151 -0.335782 -15.131664
-28.593484 -0.916236 -41.804278
-49.543845 -26.577049 -41.351306
-49.953075 -31.995266 -36.707822
-48.913223 -39.990210 -15.773943
-44.094757 -13.010226 -13.847635
-49.302033 -38.351124 -24.747060
-40.912025 -9.089708 -48.465905
-33.828545 -3.432876 -6.739610
-49.826463 -34.661915 -48.166660
-49.370220 -25.560961 -35.680325
-49.490795 -26.266590 -34.841737
-47.916844 -43.180040 -37.949318
-47.907368 -20.329384 -26.506581
-37.813018 -6.196885 -29.905667
-47.889042 -20.277728 -16.790099
-49.384136 -37.884332 -35.814820
-49.604847 -26.934054 -34.437780
-48.649815 -40.980606 -47.093673
-42.071566 -10.369569 -36.835840
-41.223083 -9.410439 -37.587841
-24.427191 -0.353185 -20.486386
-33.340070 -3.137945 -25.438956
-43.799891 -12.577757 -19.804533
-47.012541 -45.381621 -43.049325
-44.156305 -13.100492 -17.896092
-44.484344 -13.581615 -40.189858
-49.901612 -33.812805 -13.326305
-48.669247 -40.907552 -23.036794
-48.852169 -40.219782 -5.313097
-47.915853 -20.353298 -12.589389
-45.474259 -15.173417 -23.513446
-49.020077 -39.588449 -22.377710
-47.118856 -45.150816 -30.433842
-49.950816 -32.924085 -31.270949
-47.111701 -18.378758 -35.342472
-48.368170 -21.628300 -29.649185
-49.950742 -32.953149 -34.929229
-49.953846 -31.678674 -15.381372
-43.814589 -12.599313 -24.649119
-40.668558 -8.838671 -34.201809
-49.893019 -33.909876 -28.568250
-49.952378 -32.281928 -34.187468
-47.096290 -45.199802 -53.436220
-48.194751 -21.139467 -43.293987
-49.392701 -25.692514 -22.191209
-49.845882 -29.107413 -43.708714
-23.601637 -0.303990 -36.515320
-46.994162 -18.120249 -47.516798
-49.954751 -31.308943 -24.860194
-40.397802 -8.559500 -7.866093
-49.333946 -38.169670 -30.274413
-49.954630 -31.356907 -17.687339
-30.836082 -1.847280 -46.405289
-32.201107 -2.519074 -25.913315
-48.851387 -23.317081 -52.171545
-49.402141 -37.781982 -42.229953
-39.033791 -7.256519 -32.856293
-47.959623 -20.476692 -11.364657
-35.767227 -4.668587 -38.160862
-49.954940 -31.231723 -19.358221
-38.937080 -7.172574 -19.975351
-49.301012 -25.155938 -32.797213
-45.471684 -15.168843 -19.898407
-45.621945 -15.435848 -22.235787
-49.094257 -24.248514 -27.334462
-33.326775 -3.129919 -34.863768
-49.954192 -31.538706 -13.713328
-44.446925 -13.526732 -31.893727
-48.212594 -21.189760 -39.136019
-47.145562 -18.453228 -42.755595
-23.190308 -0.279479 -37.899485
-21.876343 -0.201181 -31.933074
-42.422260 -10.799484 -9.524069
-49.925629 -30.061470 -26.615080
-47.797300 -20.019131 -16.948765
-48.818353 -23.190391 -18.328821
-47.369937 -18.946711 -24.733601
-29.166682 -1.139570 -9.837795
-22.535883 -0.240483 -29.986712
-40.556679 -8.723316 -14.308452
-49.953557 -31.800026 -45.529403
-25.901235 -0.441022 -9.804316
-23.582812 -0.302868 -45.341850
-29.323989 -1.200862 -12.905501
-30.473734 -1.668951 -35.366369
-44.176200 -13.129672 -39.030178
-42.027218 -10.315204 -8.649837
-45.861863 -15.862166 -54.122111
-44.139970 -13.076534 -4.447439
-49.031564 -39.545260 -14.535186
-25.238032 -0.401502 -26.954977
-49.019800 -39.589493 -9.488035
-47.708950 -43.757121 -32.595879
-44.627650 -13.791793 -35.685300
-47.121587 -18.400504 -47.746465
-49.468431 -37.405106 -13.313018
-49.953015 -32.022114 -38.826467
-45.343607 -14.941257 -16.985680
-40.753148 -8.925894 -53.392117
-36.214695 -4.994180 -11.165965
-41.421159 -9.614673 -33.918505
-47.145352 -18.452771 -41.498523
-26.247385 -0.461649 -11.153771
-47.068152 -45.260885 -38.150687
-44.050788 -12.945735 -23.796604
-23.220153 -0.281258 -45.639990
-46.679342 -17.427854 -22.149801
-36.931978 -5.516102 -28.053202
-47.097094 -18.346635 -38.373031
-44.386949 -13.438768 -41.915449
-47.156820 -18.477987 -52.701635
-49.952770 -32.122812 -39.717526
-34.178317 -3.644063 -8.509022
-31.210628 -2.031612 -35.397279
-44.219032 -13.192492 -16.442477
-49.952704 -32.147126 -48.896840
-46.183141 -16.433064 -34.763734
-47.933634 -20.403420 -16.818370
-26.611131 -0.483324 -16.945858
-38.518139 -6.808932 -47.679292
-38.194136 -6.527696 -29.294316
-32.038118 -2.438859 -16.434405
-36.621498 -5.290187 -26.537692
-45.816545 -15.781639 -50.061587
-49.858196 -34.303376 -26.402275
-48.236011 -21.255763 -42.361257
-39.064128 -7.282852 -12.487716
-49.587760 -36.726684 -25.485292
-49.504132 -37.202116 -14.796192
-42.634086 -11.059164 -10.428791
-42.288332 -10.635304 -19.167235
-34.604300 -3.901262 -23.213490
-49.517418 -37.126604 -9.059014
-47.191625 -18.554540 -53.574141
-47.209829 -44.953297 -37.590058
-38.826677 -7.076744 -51.621242
-29.540651 -1.285279 -28.181761
-49.369396 -25.556151 -29.070600
-47.241799 -18.664890 -28.191293
-29.421756 -1.238954 -7.563126
-46.614879 -17.286075 -20.306706
-47.183207 -18.536025 -34.237029
-46.813188 -17.722226 -10.488169
-49.533117 -26.514263 -43.368364
-46.667271 -17.401303 -23.957898
-46.751187 -45.949067 -22.211288
-49.334278 -25.350640 -13.435434
-46.581419 -46.317672 -14.148003
-32.000850 -2.420518 -19.558960
-43.705246 -12.438941 -16.347189
-48.771010 -40.524949 -43.181892
-39.256302 -7.449658 -17.000625
-48.829259 -23.232206 -16.133947
-22.848210 -0.259094 -43.024543
-36.174339 -4.964818 -41.516896
-38.737073 -6.998967 -16.819817
-47.256213 -18.696596 -28.903180
-48.760467 -22.968387 -32.969624
-48.875954 -40.130344 0.080466
-49.630173 -36.485548 -23.883917
-39.232289 -7.428817 -16.995906
-40.148814 -8.302769 -19.516914
-49.840841 -34.499449 -44.617907
-34.061136 -3.573311 -8.542629
-28.860598 -1.020311 -40.748168
-49.882612 -29.546809 -46.824466
-31.514343 -2.181086 -9.183172
-26.333250 -0.466765 -38.362442
-49.954346 -31.474890 -13.212336
-33.710947 -3.361872 -28.199996
-49.811395 -34.832171 -43.093775
-42.069807 -10.367412 -18.541322
-49.825667 -28.865543 -17.189619
-47.891921 -43.249205 -39.807800
-49.953424 -31.853449 -12.112496
-46.918804 -45.585164 -9.486559
-40.470669 -8.634629 -10.574342
-31.216565 -2.034534 -1.504308
-45.551156 -15.310057 -9.680340
-49.478440 -26.194313 -18.911719
-49.432766 -25.926979 -25.562225
-47.254750 -44.855770 -35.186604
-48.944697 -23.674926 -37.884362
-49.303880 -25.172721 -14.183370
-48.665508 -40.921609 -40.106758
-49.428492 -37.632159 -43.868878
-48.420751 -21.776503 -23.552496
-48.616537 -41.105747 -48.259802
-24.006368 -0.328108 -40.124603
-29.783831 -1.380029 -29.619515
-24.616010 -0.364436 -46.684683
-49.954988 -31.211206 -24.059461
-40.864803 -9.041020 -38.695019
-47.830966 -43.418420 -38.241843
-48.959720 -23.732551 -52.555789
-42.043959 -10.335722 -31.284287
-44.035710 -12.923620 -20.443798
-47.094978 -18.341980 -45.610206
-45.509094 -15.235319 -8.599965
-48.917476 -39.974229 -20.357419
-49.600666 -26.909579 -43.598777
-34.156483 -3.630878 -22.039716
-42.597390 -11.014180 -35.222859
-29.813807 -1.391709 -10.862708
-38.902094 -7.142206 -27.356804
-49.856534 -29.234840 -38.480924
-49.542893 -26.571494 -50.687973
-36.652200 -5.312526 -6.618613
-38.560936 -6.846079 -41.131145
-44.575667 -13.715554 -41.610181
-23.941782 -0.324259 -11.968965
-25.932582 -0.442890 -28.062452
-47.866978 -20.215539 -11.977985
-49.470476 -37.393453 -51.529266
-24.430523 -0.353383 -8.317298
-48.578894 -41.247268 -14.553958
-48.063198 -42.773755 -18.275857
-45.841550 -15.826071 -39.962965
-49.451536 -26.036837 -14.836298
-49.954894 -31.248596 -22.493742
-49.016914 -23.951881 -29.780545
-49.851753 -29.177601 -44.459579
-48.617572 -41.101844 -36.086645
-42.436757 -10.817257 -20.752342
-41.923947 -10.188600 -38.521812
-47.766875 -19.933356 -20.384304
-44.066917 -12.969393 -13.330999
-47.906977 -43.207407 -48.877949
-38.133765 -6.475294 -41.985692
-42.838041 -11.309192 -45.793811
-49.026086 -23.987049 -41.166561
-48.656511 -40.955441 -25.883949
-29.360075 -1.214921 -22.678300
-49.405450 -37.763168 -19.209674
-32.021646 -2.430753 -23.184634
-31.349084 -2.099753 -40.321679
-47.883864 -20.263130 -10.776219
-31.083023 -1.968810 -35.352296
-49.856864 -34.318397 -26.340920
-48.147209 -21.005455 -33.046897
-30.742224 -1.801087 -27.071366
-46.986875 -45.437375 -4.675491
-48.830413 -23.236635 -20.719416
-44.405491 -13.465961 -39.723347
-40.866792 -9.043070 -43.119208
-45.973773 -16.061028 -43.267778
-29.620919 -1.316554 -19.504644
-46.855901 -45.721728 -5.803738
-29.064531 -1.099769 -22.855706
-47.210112 -18.595201 -46.342803
-31.040679 -1.947972 -43.230073
-49.343997 -38.112532 -32.880435
-41.371332 -9.563296 -38.898644
-48.054094 -42.799035 -8.883641
-46.900605 -45.624661 -13.965369
-48.263988 -21.334636 -45.429799
-49.768611 -28.182939 -22.548981
-49.801817 -28.580193 -23.934693
-44.437000 -13.512178 -39.385353
-45.698939 -15.572660 -47.082975
-29.682679 -1.340618 -9.024499
-49.604379 -26.931304 -32.815889
-49.747132 -35.558308 -38.752260
-47.041129 -18.223555 -31.819211
-44.716927 -13.922733 -30.056760
-49.821073 -34.722831 -40.194626
-44.456857 -13.541298 -33.382290
-33.693822 -3.351534 -45.177440
-47.358547 -44.630427 -29.115519
-49.006852 -39.638190 -28.475633
-28.664385 -0.943861 -42.266160
-49.793655 -28.482606 -27.692834
-42.028052 -10.316223 -13.731865
-31.130673 -1.992262 -45.873447
-49.532849 -37.038877 -9.533689
-49.621655 -27.032397 -32.788259
-47.073084 -18.293829 -11.699288
-38.713795 -6.978762 -41.464832
-28.585742 -0.913219 -47.628033
-49.101770 -24.277318 -18.372729
-46.934691 -17.989456 -15.248197
-41.090040 -9.273260 -32.104930
-49.599071 -36.662371 -25.716528
-48.770710 -40.526046 -46.335572
-47.982292 -20.540573 -14.501268
-49.875825 -34.104128 -11.648950
-44.582066 -13.724940 -36.919106
-46.682615 -46.097961 -19.345749
-49.415455 -25.825689 -12.103624
-49.779134 -28.308859 -11.942186
-42.030701 -10.319470 -32.776362
-49.507111 -37.185187 -14.284472
-29.511103 -1.273767 -10.674032
-28.915324 -1.041633 -13.379876
-48.755012 -40.585069 -52.782657
-29.864556 -1.411483 -28.511666
-23.664262 -0.307722 -41.938098
-48.689014 -40.833234 -44.846005
-49.954762 -31.303655 -20.488926
-40.325911 -8.485373 -14.286275
-44.511188 -13.620984 -40.058453
-23.461933 -0.295665 -6.402678
-48.661493 -22.588814 -31.375441
-42.037768 -10.328135 -23.285508
-47.927886 -43.149371 -39.860988
-47.849192 -43.367815 -41.007671
-49.868115 -34.191278 -12.235718
-49.352383 -25.456583 -11.368311
-46.617402 -46.239538 -13.668094
-47.180086 -45.017867 -52.244617
-49.778607 -28.302524 -16.303442
-47.858017 -43.343328 -36.622356
-38.949196 -7.183091 -15.773796
-33.627345 -3.311395 -39.928087
-22.948465 -0.265068 -39.284937
-49.855418 -29.221522 -45.368816
-38.266301 -6.590336 -36.155985
-41.402623 -9.595558 -41.640363
-48.404559 -21.730868 -21.996196
-49.787853 -28.413179 -19.680001
-42.769695 -11.225406 -39.804882
-29.424370 -1.239973 -14.538593
-33.502350 -3.235925 -30.751607
-47.122807 -45.142227 -44.143523
-47.222319 -44.926181 -38.590897
-46.591345 -46.296111 -24.160534
-49.853915 -34.351711 -9.356364
-23.080781 -0.272953 -25.100332
-38.838902 -7.087356 -10.917637
-46.048062 -16.193035 -28.300624
-47.868310 -20.219287 -24.309139
-24.182368 -0.338596 -12.190643
-48.063559 -20.769667 -9.714818
-49.002734 -23.897513 -40.920063
-33.619965 -3.306941 -36.346341
-49.776639 -28.279025 -31.224623
-47.186682 -18.543668 -38.175972
-46.683836 -46.095299 -18.336112
-45.556936 -15.320332 -23.195151
-32.052960 -2.446165 -27.565862
-22.953826 -0.265388 -38.334681
-47.822892 -43.440832 -44.261675
-46.960534 -18.046290 -18.091496
-49.802640 -28.590067 -32.022814
-40.137605 -8.291210 -23.466098
-29.387480 -1.225599 -19.166096
-28.880937 -1.028235 -36.714820
-33.785827 -3.407085 -43.114080
-49.904366 -33.781671 -12.458465
-39.093922 -7.308713 -14.074167
-38.353707 -6.666205 -40.374019
-41.118130 -9.302221 -36.837076
-28.246340 -0.780977 -39.481050
-48.904234 -40.024008 -5.867375
-47.922020 -43.165665 -40.957254
-46.905209 -17.924610 -43.336568
-46.623095 -46.227184 -9.457254
-49.156238 -24.486201 -25.914509
-49.568298 -36.837329 -23.998984
-40.478364 -8.642565 -16.240444
-49.472785 -37.380331 -18.699752
-37.798946 -6.184670 -46.679797
-49.956090 -30.759637 -26.081084
-28.091662 -0.720710 -39.531925
-47.922359 -20.371642 -6.854467
-49.953759 -31.715065 -45.314203
-40.294163 -8.452639 -18.143759
-47.177660 -45.023137 -30.364654
-28.582930 -0.912123 -48.677801
-36.656926 -5.315964 -18.374408
-24.871471 -0.379659 -23.434432
-33.733639 -3.375573 -44.568464
-49.819136 -34.744700 -8.099129
-38.556972 -6.842641 -52.570959
-48.052822 -42.802579 -9.153748
-47.727529 -19.822456 -22.314896
-48.170779 -21.071891 -46.995143
-38.007302 -6.365523 -24.171733
-39.181846 -7.385031 -24.287751
-42.289576 -10.636827 -12.375012
-34.860342 -4.055854 -20.535747
-48.865582 -23.371520 -55.263122
-42.811054 -11.276108 -42.587475
-48.078790 -42.730499 -18.981706
-28.889803 -1.031690 -41.908929
-43.066867 -11.589709 -43.219358
-46.865025 -45.701898 -22.198606
-48.953444 -39.838985 -11.451933
-39.151438 -7.358638 -22.412095
-38.576480 -6.859571 -15.852847
-46.857509 -45.718225 -15.753427
-40.195889 -8.351307 -22.787286
-49.880670 -29.523614 -38.962506
-49.422725 -25.868251 -4.749303
-49.540114 -36.997591 -10.365399
-31.528288 -2.187947 -46.493589
-29.146003 -1.131513 -12.903785
-33.275716 -3.099089 -34.684492
-25.062718 -0.391055 -16.168351
-40.197799 -8.353277 -12.875979
-34.564308 -3.877115 -15.803921
-49.054170 -24.094760 -42.628884
-24.097061 -0.333512 -11.185984
-44.529836 -13.648337 -39.995940
-23.249647 -0.283015 -29.282460
-46.995622 -18.123464 -49.013526
-47.093499 -18.338730 -35.571439
-49.724728 -35.811490 -43.167655
-49.776405 -35.227559 -36.945508
-45.600491 -15.397724 -50.489788
-36.881526 -5.479392 -21.675102
-49.577866 -36.782924 -26.386071
-44.580440 -13.722551 -34.403923
-49.840592 -34.502305 -48.072377
-38.246111 -6.572811 -45.675149
-43.044019 -11.561703 -40.228203
-36.835490 -5.445894 -19.633672
-23.174243 -0.278522 -40.513515
-49.084777 -24.212141 -41.822299
-36.834949 -5.445501 -15.899843
-43.965819 -12.821114 -22.697329
-30.898542 -1.878018 -40.998299
-24.911018 -0.382016 -17.293549
-35.965212 -4.812648 -29.817059
-43.272793 -11.842155 -16.830007
-40.239446 -8.396217 -6.420075
-41.039979 -9.221643 -33.265944
-48.779158 -23.040076 -2.664446
-48.971635 -23.778234 -40.822557
-39.229400 -7.426309 -13.860679
-48.629204 -22.464988 -15.390018
-47.071826 -45.252907 -43.253774
-49.520405 -26.439877 -16.722938
-33.503776 -3.236787 -24.265323
-36.887105 -5.483452 -19.357465
-29.078259 -1.105118 -47.895542
-36.986034 -5.555435 -30.028556
-49.822165 -34.710490 -44.032405
-43.961286 -12.814466 -20.318069
-22.739812 -0.252635 -26.488844
-47.043518 -45.314385 -42.656087
-35.895013 -4.761569 -31.039045
-49.015905 -23.948009 -28.069219
-49.770813 -35.290727 -45.565661
-36.203376 -4.985945 -41.283168
-28.691675 -0.954493 -36.433331
-48.233747 -42.300352 -14.536189
-49.418215 -37.690585 -37.570119
-49.865925 -29.347213 -38.557479
-42.309366 -10.661088 -13.638029
-40.360187 -8.520714 -15.528855
-47.703376 -19.754379 -15.830132
-37.911403 -6.282283 -42.580773
-48.816179 -40.355105 -51.439013
-42.267403 -10.609644 -16.225108
-49.409266 -25.789473 -15.752170
-36.496452 -5.199199 -13.736950
-47.881026 -43.279462 -46.122882
-30.922851 -1.889983 -32.773471
-42.528105 -10.929244 -51.038244
-46.681607 -46.100139 -21.087337
-48.709025 -22.771104 -11.360701
-23.135643 -0.276222 -42.989475
-46.036028 -16.171651 -29.689029
-48.865127 -40.171038 -46.761238
-48.188338 -21.121390 -37.324591
-41.299025 -9.488740 -27.695988
-47.889105 -20.277909 -8.228974
-26.002892 -0.447080 -26.050634
-33.916182 -3.485790 -7.440438
-28.091033 -0.720465 -42.758923
-32.238041 -2.537252 -17.952884
-48.806703 -23.145708 -12.445868
-48.675274 -40.884895 -34.325029
-49.898223 -29.733603 -44.909689
-49.951620 -32.592706 -29.680335
-47.896522 -43.236440 -39.146625
-49.802767 -34.929667 -45.849849
-23.271144 -0.284296 -42.228258
-41.206582 -9.393424 -36.267331
-25.982682 -0.445875 -15.789158
-40.069533 -8.221023 -29.300416
-42.136524 -10.449199 -25.929097
-49.842699 -34.478493 -15.341317
-40.188527 -8.343717 -17.492423
-48.806252 -40.392417 -38.517361
-36.072830 -4.890956 -44.959935
-41.259076 -9.447549 -24.912926
-31.345254 -2.097868 -13.660560
-49.781761 -28.340332 -25.987983
-47.082409 -18.314338 -49.963184
-40.183111 -8.338133 -3.730031
-49.010122 -39.625886 -13.221280
-48.950628 -39.849575 -23.464797
-47.843771 -43.382857 -46.601952
-48.624427 -41.076075 -22.817505
-47.845861 -20.156011 -14.755478
-49.864760 -29.333261 -40.561686
-48.095171 -42.685010 -12.858117
-42.060273 -10.355724 -33.190598
-49.886667 -29.595361 -39.371179
-49.482929 -37.322701 -5.210667
-48.153649 -21.023600 -48.659299
-40.842937 -9.018472 -36.469669
-45.376129 -14.999047 -29.261239
-45.993241 -16.095615 -30.412561
-38.949779 -7.183598 -11.524173
-41.184432 -9.370586 -41.449580
-35.855995 -4.733177 -44.018261
-44.348320 -13.382116 -44.279813
-48.924247 -39.948768 -9.054106
-47.915448 -20.352158 -19.006409
-47.917375 -20.357600 -16.200549
-36.148354 -4.945910 -36.562260
-45.838126 -15.819988 -8.779073
-46.910003 -45.604262 -14.311689
-49.298999 -25.144175 -29.227660
-47.204871 -44.964056 -29.520229
-34.734485 -3.979865 -14.385215
-48.884988 -40.096379 -13.544815
-48.671992 -22.629076 -10.735190
-49.900228 -29.757586 -28.368976
-33.572188 -3.278093 -37.411520
-22.977722 -0.266812 -33.167556
-48.953514 -39.838732 -7.855549
-48.777939 -23.035387 -15.646481
-23.798777 -0.315738 -19.537911
-36.876142 -5.475473 -21.605775
-48.068987 -20.784955 -15.051816
-47.941538 -20.425709 -19.005679
-22.757388 -0.253682 -45.200946
-49.850428 -29.161799 -46.768506
-45.186679 -14.662400 -20.057522
-40.992243 -9.172422 -37.080091
-49.068231 -24.148694 -18.423548
-40.978745 -9.158503 -44.573127
-49.128338 -24.379202 -44.716235
-48.665698 -22.604945 -23.896382
-49.952679 -32.158954 -41.339648
-36.790609 -5.413236 -23.853965
-29.674341 -1.337369 -20.170458
-49.600784 -36.652620 -17.742378
-48.357787 -21.599028 -22.675209
-49.441098 -37.560477 -40.088910
-47.402556 -19.018449 -40.521619
-46.893690 -17.899277 -13.474867
-26.308381 -0.465284 -26.015010
-42.259874 -10.600416 -24.114910
-47.315069 -18.826034 -32.015001
-49.556473 -36.904527 -24.714738
-38.640185 -6.914866 -11.651826
-36.068851 -4.888060 -31.033087
-30.897551 -1.877532 -39.637241
-49.420462 -37.677805 -39.427554
-23.628507 -0.305592 -47.409968
-49.825892 -34.668317 -35.495118
-38.431721 -6.733922 -33.927037
-38.577555 -6.860505 -41.006595
-38.897836 -7.138510 -21.245320
-36.572735 -5.254704 -10.312602
-30.912219 -1.884751 -26.592980
-49.953912 -31.651341 -18.097237
-34.541328 -3.863240 -6.378759
-36.448343 -5.164192 -18.326244
-45.649336 -15.484519 -15.489075
-49.834857 -28.975479 -41.143504
-35.690123 -4.612485 -24.651242
-44.461308 -13.547827 -36.591745
-36.528759 -5.222707 -9.750670
-40.881911 -9.058659 -45.880675
-49.953516 -31.815043 -51.811450
-49.814084 -34.801815 -11.078644
-49.869837 -29.393961 -42.526366
-42.945557 -11.440995 -39.847695
-40.011390 -8.161071 -30.163854
-22.692854 -0.249836 -50.543682
-45.477196 -15.178639 -7.449783
-47.184486 -18.538842 -43.935494
-46.938148 -45.543143 -33.428767
-49.577012 -26.771133 -48.651511
-45.885376 -15.903948 -38.490552
-49.312233 -38.293116 -23.575758
-49.381969 -37.896644 -49.023551
-28.988187 -1.070023 -11.070368
-26.392124 -0.470274 -14.913074
-22.937961 -0.264442 -42.332589
-49.332596 -25.340796 -21.508034
-42.080569 -10.380606 -18.580579
-46.776193 -17.640867 -17.578467
-39.169913 -7.374673 -10.577883
-49.954875 -31.257154 -28.483479
-49.274846 -38.505678 -28.383620
-47.256551 -44.851861 -45.214374
-36.890914 -5.486223 -11.179379
-29.458367 -1.253220 -20.668330
-48.766435 -22.991270 -8.672982
-46.659675 -17.384600 -27.449894
-48.279358 -21.377955 -36.111834
-46.803536 -17.701005 -26.143236
-25.675529 -0.427572 -25.236653
-49.615522 -26.996515 -42.427940
-40.223632 -8.379915 -14.845973
-45.453442 -15.136431 -6.621641
-32.298265 -2.566891 -26.602939
-46.016548 -16.137033 -28.634638
-31.492970 -2.170566 -13.533425
-44.035768 -12.923709 -10.403905
-28.584963 -0.912915 -38.853652
-44.188925 -13.148332 -10.071349
-49.820821 -28.807605 -25.244915
-46.840427 -45.755317 -9.859563
-40.733279 -8.905407 -39.177962
-49.418974 -25.846289 -23.978954
-45.458684 -15.145742 -25.162597
-49.521869 -26.448454 -35.608282
-25.228958 -0.400961 -27.061846
-49.953496 -31.824448 -13.058292
-49.545517 -36.966824 -28.537566
-49.802558 -28.589105 -19.422860
-48.695073 -22.717597 -21.529347
-33.908415 -3.481100 -47.622445
-49.076318 -24.179699 -31.692240
-49.884646 -29.571142 -47.979353
-25.516587 -0.418101 -21.838373
-46.534660 -46.419174 -32.793587
-31.157963 -2.005693 -40.683175
-22.768178 -0.254325 -37.609340
-23.149500 -0.277048 -45.409829
-46.034161 -16.168334 -29.010168
-49.866179 -29.350202 -37.519823
-46.896165 -17.904725 -13.788555
-49.016157 -23.948979 -31.420082
-49.953099 -31.988438 -9.049586
-48.125845 -20.945236 -7.169668
-47.818185 -20.077992 -29.590291
-49.160376 -24.502082 -50.548618
-25.235967 -0.401379 -25.111032
-26.521221 -0.477967 -11.856496
-48.156867 -42.513750 -25.170640
-48.723831 -40.702322 -31.491687
-46.163848 -16.398780 -36.158148
-25.875075 -0.439463 -18.980292
-33.544406 -3.261319 -27.859381
-47.787330 -43.539533 -52.008873
-42.141962 -10.455868 -23.752636
-49.951948 -32.460112 -29.923786
-47.209740 -44.953492 -28.017150
-44.511765 -13.621830 -42.633277
-49.891284 -29.650582 -38.178594
-43.112751 -11.645959 -23.959764
-29.890333 -1.421526 -13.345364
-45.881992 -15.897936 -46.683663
-47.897445 -43.233874 -48.464838
-45.796993 -15.746899 -40.322015
-47.730099 -43.698404 -33.919367
-38.927894 -7.164602 -10.261706
-26.973197 -0.504900 -34.988158
-49.951885 -32.484537 -39.574673
-49.871831 -29.417813 -47.281767
-22.884243 -0.261241 -42.497586
-49.041205 -39.509015 -27.888529
-26.097254 -0.452703 -14.668514
-46.781097 -45.884135 -17.367969
-49.597801 -36.669592 -25.503003
-44.306113 -13.320209 -31.966429
-48.766429 -22.991252 -18.403800
-48.654888 -22.563476 -16.293189
-43.747458 -12.500854 -32.485778
-49.410424 -25.796250 -25.432433
-38.353024 -6.665612 -37.279303
-45.380048 -15.006015 -20.991119
-49.828162 -28.895401 -10.981006
-29.807222 -1.389144 -34.535338
-48.211849 -21.187662 -33.255124
-43.784529 -12.555223 -35.003756
-49.861837 -29.298325 -34.870552
-49.064375 -39.421890 -14.249444
-42.635814 -11.061282 -54.358753
-46.726012 -17.530495 -30.538894
-42.532251 -10.934325 -8.897132
-25.537173 -0.419328 -22.067162
-48.882653 -40.105158 -28.014866
-44.025117 -12.908086 -14.483189
-31.002552 -1.929207 -40.194710
-49.354284 -25.467715 -14.784478
-47.323638 -44.706214 -34.081882
-36.431014 -5.151581 -7.008415
-42.167141 -10.486733 -15.875396
-49.820782 -34.726111 -49.513648
-49.094422 -24.249132 -46.159904
-49.751979 -35.503557 -27.033424
-31.514411 -2.181119 -6.428142
-36.562742 -5.247432 -8.781469
-42.936373 -11.429736 -38.835330
-29.260431 -1.176097 -19.518291
-48.774890 -40.510339 -39.109588
-49.602503 -26.920333 -36.107697
-48.844368 -23.290165 -17.367221
-36.830889 -5.442547 -15.166695
-48.904903 -40.021489 -10.524146
-49.866551 -29.354687 -38.171788
-40.199735 -8.355273 -23.268625
-48.175009 -42.463399 -24.907254
-48.674413 -22.638371 -8.221666
-48.886931 -23.453394 -15.178335
-29.579069 -1.300248 -12.647066
-48.699102 -40.795278 -39.755222
-49.862636 -34.253174 -25.606509
-31.042125 -1.948684 -49.857268
-48.746309 -40.617811 -54.504485
-25.240524 -0.401651 -6.913329
-46.045855 -16.189114 -30.080690
-45.763925 -15.688139 -52.087378
-49.599780 -26.904385 -35.335890
-34.987337 -4.132532 -36.724461
-29.372687 -1.219836 -18.086152
-49.902069 -29.779571 -38.229399
-24.496792 -0.357332 -8.913480
-24.433663 -0.353570 -10.264283
-47.960188 -20.478274 -14.189511
-47.318614 -44.717113 -30.854006
-34.951250 -4.110743 -27.082992
-49.446975 -37.527072 -13.483863
-33.419216 -3.185732 -44.063932
-49.950902 -32.887992 -37.689014
-34.103767 -3.599051 -51.193703
-46.136890 -16.350871 -46.791699
-49.863244 -34.246287 -53.712289
-49.882205 -29.541975 -45.482546
-39.031981 -7.254949 -15.127661
-36.626062 -5.293507 -15.511979
-49.955561 -30.977315 -26.382481
-47.813426 -43.467098 -39.875276
-49.392051 -25.688729 -20.866082
-42.189727 -10.514421 -23.734187
-47.942473 -43.108880 -46.380923
-49.904358 -29.806944 -21.641706
-40.811914 -8.986487 -8.861716
-39.158182 -7.364493 -37.140759
-49.759502 -28.074017 -14.378575
-35.917369 -4.777836 -47.743276
-39.990255 -8.139278 -31.206196
-39.128759 -7.338953 -6.780382
-30.445812 -1.655209 -29.068245
-42.302879 -10.653137 -14.941137
-23.587990 -0.303177 -34.908649
-47.679937 -43.837649 -31.945283
-48.216572 -42.348023 -28.518686
-48.258929 -21.320370 -36.231052
-36.810886 -5.427992 -11.812618
-24.106567 -0.334079 -44.218171
-49.867514 -34.198037 -6.161005
-48.986496 -39.714716 -21.792960
-34.658466 -3.933966 -19.176096
-41.036448 -9.218002 -39.121577
-49.466278 -37.417334 -6.845241
-45.278231 -14.825092 -27.411593
-35.602228 -4.548528 -32.623837
-40.108600 -8.261305 -24.577580
-33.614704 -3.303763 -46.902586
-49.391347 -25.684603 -30.901138
-49.569564 -26.727568 -44.791789
-49.434543 -37.597767 -43.949591
-48.127881 -42.594217 -17.804709
-47.016943 -45.372072 -44.374557
-45.545640 -15.300260 -17.526093
-44.367650 -13.410464 -33.367735
-38.274391 -6.597357 -47.038227
-32.284560 -2.560146 -27.191164
-48.813580 -40.364857 -47.000869
-45.661003 -15.505252 -43.864268
-42.842991 -11.315263 -34.257667
-45.608719 -15.412346 -20.867168
-23.056071 -0.271480 -29.164910
-38.263874 -6.588230 -35.376311
-39.816959 -7.960598 -10.018078
-46.699965 -46.060281 -27.782840
-46.696415 -46.067992 -14.235441
-47.263291 -18.712159 -41.213425
-48.828469 -40.308894 -45.874551
-40.825757 -9.000761 -33.178465
-49.954003 -31.615192 -19.474510
-45.666713 -15.515397 -10.852479
-46.607841 -17.270601 -9.351994
-47.005407 -45.397122 -34.578673
-28.814160 -1.002217 -42.803727
-31.586531 -2.216612 -47.160477
-49.372154 -37.952459 -48.882211
-24.773573 -0.373825 -49.227312
-49.862577 -29.307138 -43.469792
-26.602023 -0.482782 -30.522990
-25.439700 -0.413519 -15.112265
-48.325422 -21.507795 -30.007823
-49.122919 -39.201780 -17.519711
-23.906824 -0.322176 -2.614759
-48.775240 -23.025050 -21.904865
-47.884762 -43.269092 -35.221632
-23.204578 -0.280330 -35.635821
-49.335522 -25.357929 -23.413327
-22.259446 -0.224010 -45.141614
-46.721962 -17.521585 -21.545901
-49.026891 -39.562829 -19.613874
-31.266363 -2.059042 -50.884940
-49.951165 -32.781333 -31.664768
-49.895971 -33.876516 -6.621087
-49.602035 -26.917600 -52.906595
-48.686652 -22.685296 -11.535415
-22.863791 -0.260023 -46.422145
-28.291116 -0.798424 -52.548913
-49.954758 -31.306162 -14.981958
-49.017060 -23.952435 -38.395779
-40.557171 -8.723825 -15.571568
-47.884984 -20.266292 -22.727746
-46.517287 -46.456903 -19.818604
-44.010096 -12.886054 -19.561502
-39.258370 -7.451455 -20.963784
-24.736983 -0.371645 -15.226632
-40.904380 -9.081825 -31.785162
-48.209620 -21.181374 -47.349204
-47.899446 -20.307060 -4.803512
-25.157743 -0.396718 -21.210368
-48.882369 -23.435904 -46.443489
-46.948232 -45.521253 -46.989147
-49.904091 -29.803768 -29.936203
-26.302486 -0.464932 -24.532159
-23.056199 -0.271488 -31.273906
-46.805415 -17.705132 -20.782922
-45.527957 -15.268839 -48.577870
-29.196773 -1.151294 -12.641506
-38.318759 -6.635871 -44.448164
-47.820333 -43.447926 -29.401856
-25.260633 -0.402849 -14.229408
-47.960509 -20.479177 -12.448552
-24.799100 -0.375346 -19.211848
-33.600314 -3.295075 -41.335580
-49.601996 -36.645741 -22.470407
-46.692474 -46.076524 -52.945395
-49.863540 -29.318646 -43.174754
-31.082177 -1.968395 -37.551404
-36.673304 -5.327883 -20.100874
-46.130232 -16.339046 -45.092471
-36.854477 -5.459709 -17.591417
-36.736571 -5.373917 -20.126053
-49.263156 -38.572111 -42.508470
-48.135049 -20.971174 -37.123431
-40.531725 -8.697586 -9.902370
-49.857260 -34.313910 -22.867205
-25.548430 -0.419999 -28.596744
-48.212035 -21.188188 -34.243306
-25.311105 -0.405857 -15.983954
-49.931301 -30.129307 -39.571566
-24.564300 -0.361355 -14.543616
-31.136950 -1.995350 -32.898834
-47.162199 -18.489825 -52.169411
-28.602291 -0.919667 -49.660550
-41.185554 -9.371742 -32.373780
-46.841303 -17.784060 -25.352452
-47.136007 -18.432220 -34.434222
-42.844474 -11.317078 -54.069589
-49.564780 -26.699557 -44.250395
-39.207470 -7.407275 -5.855444
-39.048999 -7.269722 -30.173083
-49.951960 -32.453978 -46.762869
-48.846968 -23.300124 -45.113708
-29.061144 -1.098449 -43.504696
-49.806414 -34.888495 -10.133902
-42.324795 -10.680002 -16.809393
-44.574855 -13.714360 -44.236899
-23.878699 -0.320500 -38.027788
-24.599273 -0.363439 -7.444018
-25.959418 -0.444489 -20.917647
-49.372614 -25.574994 -7.339680
-44.251601 -13.240259 -7.858859
-47.822355 -43.442311 -38.325075
-48.292906 -21.416148 -42.008126
-21.342847 -0.169390 -42.063608
-29.158388 -1.136337 -29.675324
-49.500997 -37.219959 -18.363434
-44.734059 -13.947858 -30.652262
-48.845597 -23.294876 -45.742256
-36.897326 -5.490889 -19.279224
-36.493260 -5.196875 -42.719048
-42.214497 -10.544787 -14.500636
-40.908878 -9.086463 -42.693703
-31.580420 -2.213604 -15.005076
-47.249157 -18.681072 -36.728793
-49.954936 -31.233805 -11.294600
-49.953761 -31.715603 -13.958860
-48.941633 -39.883385 -27.008065
-42.571120 -10.981972 -41.231665
-33.384370 -3.164692 -43.338867
-35.902043 -4.766683 -52.786374
-47.196484 -18.565223 -50.275607
-47.995491 -42.961711 -47.320055
-40.194306 -8.349674 -15.511302
-38.215422 -6.546174 -46.246361
-24.228823 -0.341364 -40.433754
-48.774137 -23.020821 -21.615974
-49.865680 -34.218817 -26.310105
-25.339981 -0.407577 -10.617899
-24.133902 -0.335708 -41.848500
-47.906513 -43.208701 -38.749212
-48.692659 -22.708353 -24.942411
-21.581913 -0.183636 -46.387541
-34.524221 -3.852911 -17.132272
-49.804928 -34.905241 -39.364783
-43.805516 -12.586008 -24.199576
-36.113314 -4.920413 -45.344642
-31.054782 -1.954913 -34.584324
-46.897496 -17.907650 -12.769664
-49.867567 -29.366826 -47.386438
-38.761303 -7.019999 -15.800300
-46.277603 -16.600913 -15.331196
-34.472001 -3.821383 -26.967563
-29.292940 -1.188764 -11.175382
-42.236746 -10.572061 -26.895648
-49.840200 -29.039435 -49.145067
-49.342425 -38.121463 -40.476072
-32.003577 -2.421861 -12.429034
-47.330299 -44.691751 -32.394281
-47.778962 -43.562779 -45.416155
-44.422340 -13.490676 -35.733640
-48.291096 -42.141163 -19.084685
-46.684390 -17.438955 -14.808217
-49.003275 -23.899577 -34.287200
-49.955162 -31.140350 -17.763397
-48.938135 -39.896539 -25.152356
-45.941603 -16.003862 -38.904545
-39.149962 -7.357358 -7.032284
-49.642146 -27.152313 -43.838298
-49.899137 -29.744493 -47.494780
-48.826342 -23.221015 -18.241275
-49.072547 -39.391177 -16.741267
-48.744568 -40.624346 -46.088796
-48.290002 -21.407957 -34.209931
-40.334738 -8.494473 -3.367199
-37.183464 -5.699091 -18.320789
-49.864120 -34.236451 -16.201406
-48.989645 -23.847302 -25.990783
-49.953887 -31.663111 -46.559637
-48.631480 -41.049536 -25.264303
-49.901839 -29.776824 -27.477294
-49.539403 -26.551047 -45.936470
-49.529985 -26.495931 -51.596171
-32.198516 -2.517800 -9.473992
-49.623420 -27.042749 -32.490366
-40.385651 -8.546970 -7.851742
-47.735740 -43.682757 -47.280937
-48.301632 -42.111902 -14.827143
-47.812865 -20.062999 -12.684387
-43.990662 -12.857549 -14.310114
-49.640315 -27.141607 -29.922251
-49.809535 -28.672508 -17.246304
-37.954866 -6.320008 -43.039672
-22.080827 -0.213366 -49.432843
-31.044274 -1.949741 -38.852755
-47.943539 -43.105916 -42.220912
-49.007450 -39.635946 -28.229334
-47.787648 -43.538659 -40.122679
-45.857426 -15.854282 -53.541090
-48.981905 -23.817622 -34.242539
-23.026026 -0.269690 -40.867696
-48.055715 -42.794556 -23.141407
-23.418653 -0.293086 -47.509422
-31.753320 -2.298696 -14.860317
-42.684289 -11.120709 -42.314467
-38.459074 -6.757664 -43.128686
-47.706053 -43.765166 -36.168660
-47.874959 -43.296299 -53.214542
-22.308093 -0.226909 -26.831396
-36.719007 -5.361136 -20.479942
-49.784307 -35.138269 -40.969896
-35.730040 -4.641527 -43.786361
-23.576657 -0.302502 -41.263447
-49.059208 -39.441327 -17.561905
-40.964719 -9.144039 -32.866920
-24.282443 -0.344559 -14.412909
-47.889920 -43.254765 -41.050875
-49.121602 -24.353373 -28.602437
-33.306753 -3.117830 -50.698882
-42.166874 -10.486407 -28.509180
-49.399911 -37.794661 -36.016310
-38.375321 -6.684964 -44.882862
-46.708134 -17.491182 -22.119384
-42.110799 -10.417664 -25.218703
-28.799903 -0.996663 -53.223169
-25.524951 -0.418599 -11.614044
-49.872990 -29.431716 -42.392337
-49.566544 -26.709892 -46.630459
-45.952251 -16.022788 -51.810127
-48.072001 -42.749336 -11.547505
-40.781917 -8.955556 -46.734391
-33.805069 -3.418702 -37.658472
-31.544424 -2.195889 -45.336494
-49.430141 -25.911636 -14.860273
-49.955295 -31.083587 -19.699590
-46.594681 -17.241653 -17.777194
-43.644326 -12.349594 -23.167427
-49.760660 -35.405396 -30.747287
-25.796992 -0.434810 -32.691910
-39.019293 -7.243934 -14.687012
-48.112609 -42.636607 -17.983867
-36.962250 -5.538129 -8.978193
-48.652306 -40.971251 -34.039364
-41.004995 -9.185568 -42.826066
-34.524625 -3.853156 -12.405401
-23.851865 -0.318901 -42.505443
-37.940562 -6.307592 -26.991612
-49.342427 -25.398313 -19.148090
-28.412539 -0.845733 -47.156484
-42.230990 -10.565008 -20.614465
-46.568232 -46.346286 -25.215770
-46.772058 -17.631768 -30.798310
-46.763362 -45.922641 -17.622874
-49.812688 -28.710281 -20.650659
-47.061507 -45.275321 -34.805755
-49.889179 -33.953259 -11.863424
-48.967120 -23.760906 -47.640582
-43.825336 -12.615077 -11.884474
-48.416813 -21.765412 -31.768179
-49.069478 -24.153474 -34.248802
-40.258478 -8.415844 -27.625125
-35.767009 -4.668428 -44.785891
-38.254245 -6.579872 -34.283228
-46.803841 -45.834759 -18.763759
-48.998843 -39.668281 -15.045106
-48.193858 -42.411074 -24.619751
-46.458253 -46.585074 -33.966671
-35.619788 -4.561306 -41.923329
-22.990527 -0.267575 -33.931471
-49.805622 -28.625737 -6.954202
-49.952212 -32.350833 -33.564174
-49.087109 -39.336420 -12.200119
-45.483532 -15.189894 -10.887094
-22.241685 -0.222952 -35.835294
-49.815985 -34.780286 -17.330146
-38.199663 -6.532493 -35.069997
-38.989882 -7.218407 -16.106244
-47.310739 -44.734208 -45.143616
-25.906831 -0.441356 -12.523038
-47.137096 -18.434613 -32.745455
-48.885737 -40.093567 -10.690620
-49.902062 -29.779529 -40.231380
-49.319487 -38.251887 -37.544560
-49.798933 -34.972964 -45.497977
-45.318968 -14.897474 -17.737131
-47.905299 -43.212078 -50.742302
-30.743563 -1.801747 -26.748706
-47.229340 -18.637492 -35.087209
-49.476418 -26.182453 -47.370289
-39.300026 -7.487611 -22.842927
-24.426447 -0.353140 -20.457939
-48.193240 -42.412784 -18.878964
-44.273566 -13.272471 -49.623517
-25.299818 -0.405184 -15.180513
-49.888677 -29.619409 -41.179899
-49.886006 -29.587427 -30.600539
-49.374137 -25.583902 -21.651850
-23.948456 -0.324657 -13.930446
-34.775654 -4.004722 -22.575220
-49.370134 -37.963938 -27.532246
-24.737961 -0.371703 -21.649723
-24.364319 -0.349438 -20.868154
-49.954890 -31.252483 -33.617318
-26.129929 -0.454650 -29.550614
-28.291263 -0.798481 -41.399028
-48.183284 -42.440422 -11.218508
-49.820341 -28.801864 -10.273729
-49.953427 -31.852031 -43.533780
-24.138674 -0.335992 -13.484969
-36.167581 -4.959900 -46.084209
-29.344972 -1.209037 -15.374171
-49.098946 -24.266488 -24.124363
-49.405337 -37.763811 -46.222992
-40.571670 -8.738772 -19.892512
-49.866457 -34.209985 -26.787143
-49.477104 -37.355789 -14.110252
-42.229552 -10.563245 -22.731523
-46.786399 -45.872609 -22.451950
-49.338517 -38.143692 -41.341132
-29.970852 -1.452898 -19.228689
-40.459117 -8.622719 -52.892499
-42.774366 -11.231133 -35.484153
-43.078802 -11.604342 -30.665247
-32.102038 -2.470318 -20.445117
-24.762092 -0.373141 -15.977547
-43.802051 -12.580923 -13.620978
-29.544957 -1.286957 -24.948242
-22.232591 -0.222410 -25.626659
-49.855263 -34.336460 -18.925866
-48.641492 -41.011896 -41.777174
-46.745158 -45.962158 -25.805662
-38.259482 -6.584416 -35.292754
-26.273918 -0.463230 -15.578880
-43.913074 -12.743755 -7.723034
-46.753285 -45.944518 -7.746724
-49.048152 -24.071686 -44.456911
-44.700016 -13.897934 -45.747336
-28.062666 -0.709413 -33.680033
-48.290152 -21.408379 -24.791295
-49.951798 -32.520772 -34.689537
-49.387118 -25.659849 -12.154505
-49.291289 -38.412176 -34.770245
-47.795295 -20.013474 -19.960012
-49.081960 -39.355784 -29.187336
-48.052626 -42.803111 -4.947019
-49.362729 -38.006023 -30.704444
-39.065340 -7.283903 -17.960956
-49.014741 -23.943560 -33.005371
-45.346659 -14.946682 -37.489175
-49.595109 -36.684925 -20.355429
-25.527387 -0.418745 -16.297850
-35.791123 -4.685974 -32.149912
-25.049373 -0.390260 -19.530445
-44.770476 -14.001270 -25.092115
-29.304640 -1.193322 -5.516201
-45.415615 -15.069212 -19.976139
-23.686762 -0.309063 -40.278711
-47.813194 -43.467730 -37.009769
-48.262624 -42.220188 -37.193039
-33.922623 -3.489678 -48.756030
-23.100946 -0.274154 -45.602211
-49.493275 -37.263846 -8.820866
-36.412248 -5.137928 -12.129967
-48.241090 -42.279963 -11.149719
-34.882094 -4.068988 -34.987484
-41.029327 -9.210659 -36.411991
-47.972725 -43.024899 -44.162472
-49.060166 -39.437734 -2.105900
-25.235375 -0.401344 -20.446826
-49.822812 -28.831433 -12.125783
-24.921402 -0.382634 -22.994263
-28.744048 -0.974899 -35.149121
-25.860401 -0.438589 -7.516080
-28.650322 -0.938381 -54.560777
-48.763969 -40.551402 -30.968768
-44.232820 -13.212713 -21.049904
-48.189670 -42.422705 -23.625321
-47.733030 -43.690269 -41.594284
-49.794502 -35.023059 -36.802312
-49.862165 -34.258492 -23.244479
-46.767155 -17.620987 -14.690487
-26.171223 -0.457110 -25.434029
-48.062981 -42.774380 -42.727211
-49.899837 -29.752898 -37.416360
-49.898792 -33.844650 -6.211627
-49.903000 -29.790743 -46.409358
-49.740009 -35.638801 -38.208688
-48.979961 -23.810167 -42.560793
-48.980131 -23.810814 -42.247823
-44.068574 -12.971822 -7.180164
-48.101075 -20.875402 -41.864935
-22.263079 -0.224226 -46.842625
-48.155874 -42.516512 -19.064130
-49.526655 -26.476467 -36.179388
-28.858052 -1.019318 -8.885294
-48.129306 -42.590277 -24.758110
-46.685073 -17.440456 -24.864421
-31.812351 -2.327749 -12.261634
-49.892139 -33.919836 -17.088467
-34.150550 -3.627296 -53.425515
-48.732729 -22.862015 -21.526261
-49.423549 -37.660282 -34.386721
-48.178645 -42.453310 -27.492812
-37.802882 -6.188085 -37.603085
-48.765530 -40.545525 -34.194201
-49.887913 -33.967589 -11.307903
-48.872219 -23.396974 -15.130643
-49.954006 -31.613865 -22.333644
-28.146362 -0.742023 -45.961565
-47.142281 -18.446019 -30.402121
-42.077789 -10.377196 -31.214538
-47.674743 -43.852073 -52.324050
-45.413796 -15.065982 -21.284625
-31.800711 -2.322020 -19.523845
-36.909798 -5.499962 -26.756415
-49.899018 -29.743094 -51.341580
-37.207573 -5.716636 -17.372771
-49.536495 -37.018108 -12.289341
-33.433493 -3.194351 -35.572753
-22.012798 -0.209312 -54.035247
-49.386366 -25.655459 -19.759006
-49.850316 -34.392370 -18.854368
-49.860215 -34.280559 -15.902237
-46.620864 -17.299234 -13.062029
-47.381701 -18.972582 -30.856428
-42.329445 -10.685702 -10.994680
-49.020453 -23.965460 -27.912555
-49.439506 -37.569552 -13.874096
-25.348422 -0.408080 -22.119422
-30.753987 -1.806877 -32.150143
-45.338042 -14.931368 -18.713171
-49.133717 -24.399833 -44.320798
-47.271251 -44.819938 -29.937852
-43.786323 -12.557856 -31.040004
-46.826507 -45.785538 -26.014407
-32.254982 -2.545588 -22.108502
-33.433163 -3.194152 -55.289525
-49.016804 -39.600759 -15.495865
-49.032692 -39.541020 -21.155539
-49.564376 -36.859627 -29.599186
-22.883756 -0.261212 -33.124261
-48.163619 -42.495019 -10.096971
-43.259229 -11.825530 -37.833367
-25.238111 -0.401507 -15.535982
-23.346799 -0.288805 -49.454790
-47.000767 -45.407200 -41.972441
-44.281399 -13.283966 -43.479470
-49.046355 -39.489651 -25.953243
-22.560357 -0.241941 -38.587593
-49.531269 -26.503466 -9.228726
-48.927552 -23.609169 -41.259423
-42.796676 -11.258486 -7.930252
-26.499101 -0.476648 -16.519708
-48.989856 -39.702097 -22.439203
-46.876203 -17.860816 -22.563572
-46.924099 -17.966165 -14.596367
-25.938156 -0.443222 -11.065179
-46.879063 -17.867116 -12.653806
-23.712276 -0.310583 -42.849580
-41.016251 -9.197175 -31.286022
-38.959895 -7.192377 -30.494487
-42.454581 -10.839106 -19.539887
-47.329752 -18.858332 -38.052060
-47.195363 -44.984704 -29.407443
-49.954229 -31.522118 -7.797444
-49.768613 -35.315585 -36.269826
-41.152034 -9.337181 -53.371613
-48.050201 -42.809854 -7.286274
-37.867032 -6.243768 -30.987208
-24.536521 -0.359699 -6.622967
-34.719248 -3.970664 -26.370597
-46.960909 -45.493741 -44.796753
-34.219794 -3.669105 -45.903036
-24.785603 -0.374542 -10.259340
-44.578581 -13.719826 -45.518451
-34.694209 -3.955548 -18.680662
-44.443442 -13.521626 -8.443725
-26.123272 -0.454253 -22.531247
-47.244161 -18.670084 -26.952078
-34.104658 -3.599588 -38.819426
-49.952927 -32.059028 -41.534810
-40.745341 -8.917842 -43.993078
-49.952192 -32.359116 -28.334885
-49.762473 -28.109508 -24.033008
-49.570743 -36.823426 -24.268542
-46.507095 -46.479019 -23.851435
-47.796189 -43.514952 -52.934781
-23.479262 -0.296698 -41.807274
-42.342729 -10.701986 -27.227507
-43.775874 -12.542531 -17.790599
-46.083261 -16.255585 -46.582614
-48.943936 -23.672007 -41.298290
-31.486468 -2.167366 -44.041503
-24.166197 -0.337632 -50.633527
-24.570079 -0.361699 -42.682657
-40.754721 -8.927515 -45.140646
-49.734464 -35.701486 -32.370907
-43.759673 -12.518767 -8.185028
-48.830992 -23.238853 -49.673556
-28.929111 -1.047005 -45.928913
-48.725287 -40.696849 -28.857683
-36.958540 -5.535430 -12.423389
-49.053394 -39.463178 -26.357417
-49.467658 -26.131182 -43.015844
-23.794423 -0.315478 -36.819454
-49.880367 -29.519946 -28.873002
-36.615406 -5.285753 -14.180515
-31.792574 -2.318016 -51.477968
-48.248567 -21.291168 -52.813111
-38.428410 -6.731047 -40.905930
-47.198908 -44.977012 -37.804547
-48.811277 -23.163256 -14.006185
-40.364212 -8.524864 -27.487039
-49.135352 -39.155028 -20.668333
-47.224951 -18.627831 -42.589951
-47.270720 -44.821094 -24.014495
-47.949311 -20.447624 -12.859636
-49.670800 -27.320007 -50.774306
-42.407535 -10.781436 -13.358295
-42.755196 -11.207630 -31.868811
-48.272842 -21.359587 -34.529505
-48.320734 -21.494585 -42.588017
-35.449624 -4.437489 -27.492951
-49.869935 -34.170715 -23.123699
-49.555987 -36.907288 -14.780071
