-28.998728 71.945728 5.756470
-20.338707 -63.752197 5.297840
65.280819 52.761503 5.839624
79.514240 23.598186 5.245686
-60.498679 39.220214 4.723607
-61.762422 -24.336823 5.137191
-13.300045 -66.091554 5.518995
0.763165 -68.569404 5.766341
-67.544692 16.058243 5.258331
-59.068529 41.953235 6.197544
67.499600 49.811270 6.021688
46.684864 69.416433 6.383166
-36.711792 -54.945594 4.488917
-8.703781 79.408153 5.476372
46.691040 69.412506 6.377164
80.931150 -3.738807 4.912616
-65.605844 -13.500675 5.755863
-53.453113 -38.545143 4.727543
20.168614 -67.572875 5.800417
63.971538 -42.147648 6.334788
-68.208658 5.312614 5.772605
81.408415 11.168542 5.911189
-53.425244 50.778838 4.537342
63.241508 -43.028755 5.203204
-67.524323 16.218512 4.991486
-40.859318 63.965523 5.754988
-43.954701 -49.086990 5.546321
-64.309628 29.956989 4.850273
-39.899374 64.758441 6.094062
-16.929152 77.173983 4.977269
76.704788 32.694152 5.624331
24.742092 -66.587499 5.487332
58.678093 60.012422 5.863985
-66.670633 21.233154 4.996129
-68.207267 7.147158 4.999617
-21.978759 -63.101427 6.075525
77.729330 29.810265 6.109449
-25.329539 73.804800 5.042938
76.087904 34.255706 5.806307
-16.921986 77.176308 5.152672
30.410642 -64.940780 5.287516
57.489037 61.130705 5.210680
-50.926795 -41.754311 6.096620
69.304089 47.201129 4.726092
-44.284262 -48.777041 4.898991
-29.444685 71.701004 6.315193
-3.418700 -68.113106 5.805643
65.181229 -40.687639 5.494150
72.370615 42.077906 5.016008
68.490264 48.445571 4.396438
41.837500 -60.040398 5.550283
33.456456 -63.851295 5.851160
-24.130882 74.367745 5.661087
-43.844485 61.385881 5.873975
-62.295127 -23.126041 5.150136
-68.088426 10.359249 6.272667
-66.758549 20.774197 4.909217
-24.439592 -62.026794 5.223328
-51.961943 -40.501078 5.075988
-15.001224 77.798793 5.449439
80.981183 15.543400 6.376056
76.428570 -21.197240 6.114804
-20.062837 -63.861660 4.638317
-62.883425 33.833556 6.326239
-68.208755 5.192767 5.561808
14.186058 -68.441098 6.077892
-61.414538 -25.077574 5.115953
45.938929 69.890608 4.642940
-44.569018 -48.509238 6.386647
76.197991 -21.778321 4.640531
-2.812639 80.387682 4.867577
-62.892053 33.811797 4.782069
74.180175 38.563847 5.659048
-64.508343 -17.150166 6.081552
63.497752 -42.719480 5.643906
64.057119 54.242994 4.628258
38.312922 -61.789430 6.434450
81.511330 2.653881 5.638624
-65.092110 27.554942 5.452371
78.954948 25.783381 5.878344
34.703674 -63.358572 5.019515
-17.307336 -64.852565 6.070529
73.691402 39.604573 5.550477
11.058725 -68.667518 5.969744
-21.472660 75.500685 4.823147
77.920911 -17.021899 6.043433
-30.205077 -59.084764 5.701692
-40.384993 64.357325 5.558227
-58.657015 -30.504909 6.240690
-53.447114 50.748782 4.488668
64.472306 53.740337 4.504888
55.411615 62.987229 5.968006
-1.774066 -68.322135 5.254932
-2.044770 -68.287727 4.667131
80.194819 20.435723 4.510213
26.380260 -66.168211 5.198862
80.217649 -8.116636 6.375056
-60.874941 -26.226528 5.580874
57.166444 -49.234426 5.637646
66.646205 50.987748 4.612611
-14.940747 77.818387 5.280669
38.606782 -61.651422 6.504220
-56.043283 47.024561 4.686356
72.861735 41.182962 4.787872
74.275819 38.360197 5.977415
37.422734 -62.207501 5.604152
-60.763482 -26.463861 5.921979
-38.224963 -53.844453 6.253759
-68.209317 4.448997 5.425567
10.604068 80.894383 4.785655
2.743082 80.891690 5.805752
-21.336848 75.554331 4.709842
16.649542 -68.131799 5.016072
-3.405652 -68.114762 5.872982
78.932539 25.870915 5.913233
-63.235122 -20.746647 4.985805
76.044017 34.366780 6.493720
1.837942 -68.637844 4.753267
46.428153 69.579620 4.947954
-56.016626 -34.871930 4.601518
6.158398 80.992622 4.915811
-6.596932 79.808393 6.058649
38.717788 73.796432 6.367205
62.877726 55.663421 5.471236
15.534455 -68.271803 6.212245
25.168584 -66.478343 6.058804
72.529413 -29.592562 6.107267
-36.791676 67.083567 6.338950
45.763701 70.001994 4.839142
-64.813800 28.409298 5.286665
-24.039191 -62.215569 4.763472
60.950040 -45.520867 4.350120
12.201063 80.792694 6.041638
-58.569775 42.858852 4.209767
78.850268 -13.985825 5.441412
-15.267501 77.712495 6.597936
-53.346664 -38.691900 5.795113
58.941464 59.764731 5.781316
53.078069 -52.719881 6.204896
-20.537524 -63.673308 5.028267
64.665234 -41.310402 6.276619
42.914369 71.646558 5.911919
-11.114098 -66.654593 5.359286
46.781471 -57.157554 4.586861
72.761944 41.364809 5.045481
-40.680585 -51.916733 4.890601
-12.554162 78.482090 4.904155
26.438657 -66.153264 5.001085
-24.978097 73.969852 6.315458
-38.747189 65.665093 4.182030
-6.189735 -67.690186 4.949720
42.840340 -59.490076 4.653042
15.721353 80.446270 4.661143
74.934638 -24.764071 5.584617
81.579116 6.221286 6.062283
24.653958 78.808499 4.601426
-33.508875 -57.095106 4.288971
-62.876125 33.851946 4.785298
-68.208229 5.883694 5.658546
-50.057711 55.000280 5.703103
-66.837948 20.359664 6.286133
-56.295134 -34.432307 6.094107
-60.826941 -26.328739 6.124664
63.700836 -42.474377 5.606309
12.890954 -68.553646 5.587705
34.213283 75.749740 4.859431
-36.239717 67.483949 5.978941
7.743343 80.991435 5.654860
15.588760 80.463122 5.330019
-67.657107 -2.972642 4.360187
-59.654943 40.888454 5.309366
-50.438834 54.540279 4.998381
-64.190056 -18.132283 5.455682
34.525601 75.625808 4.556627
-51.777999 -40.723777 5.032007
2.304739 -68.667568 5.099089
7.546942 -68.795488 5.017646
-25.646799 -61.457614 5.422392
-56.259950 -34.487897 4.154864
28.650479 77.710581 4.991953
54.303095 -51.708000 4.508344
-58.752217 42.527575 4.796589
-43.446257 61.759278 6.082155
81.577647 4.287994 5.332566
-41.542754 63.401010 5.099796
-48.101068 57.163236 5.897319
-34.545504 68.635844 5.394897
9.979017 80.934179 5.206890
50.758886 -54.453679 5.264459
11.825858 80.816581 5.967169
70.806485 44.829729 4.255933
-51.709976 53.006086 5.815161
-15.495873 77.638486 5.575560
64.492975 53.715320 6.221853
-28.929980 71.983451 5.443350
57.754371 -48.683168 6.008008
69.804262 46.411646 5.496683
-57.572104 -32.416756 4.969598
70.036403 46.045222 6.253162
26.111528 78.433090 6.031374
-8.578739 79.431898 5.049839
76.577157 -20.822777 6.090533
-26.550255 73.231502 5.556730
-60.277798 -27.498025 5.315573
-15.960315 77.487967 6.269947
15.228349 80.508935 4.444946
-11.140087 78.844017 6.099126
12.608873 80.766719 5.614041
35.293107 -63.125708 5.642575
66.849555 -38.508120 4.650829
54.750259 -51.338627 4.718464
67.310888 -37.874157 5.995893
-44.099686 -48.950635 4.635601
15.779428 -68.241041 5.676541
8.029077 -68.795853 4.904062
-67.034852 -7.127742 4.756160
-34.982750 68.358815 4.612823
37.768936 -62.044912 6.491537
77.694076 -17.718240 4.862299
58.249654 -48.218791 5.633248
14.783162 -68.366133 5.856785
-11.667043 -66.512176 4.418720
-53.455211 50.737660 4.958389
12.989135 80.742507 5.585879
23.700383 -66.854117 6.174119
-11.828712 78.667765 5.911396
74.799072 37.246043 5.230698
-5.539589 80.009261 4.948968
-37.014590 -54.725250 5.038195
-59.634199 -28.724236 4.564343
78.256377 -15.992091 5.247127
-67.693633 -2.681763 4.943620
80.336039 19.692402 4.919573
-66.930410 19.876975 6.019448
57.973587 60.674999 4.711552
20.410822 79.724737 4.881448
76.409548 33.441513 4.819580
12.717866 80.759783 5.968136
57.745330 -48.691663 5.173324
-54.316723 49.553756 5.251670
78.945570 25.820009 6.212192
-67.487197 16.510608 5.486121
34.334095 75.701806 4.784698
-60.497628 -27.029935 5.952506
-61.265351 37.594164 4.258618
-58.793153 -30.256828 5.489733
-51.384269 -41.200439 4.453866
74.517722 37.845127 4.833121
71.968632 -30.610793 4.807870
72.790481 -29.118545 5.421917
-8.168101 79.509913 4.689337
64.468256 53.745241 5.922306
-60.776244 -26.436679 5.879002
-56.304218 -34.417972 6.059308
43.156108 71.513418 6.004980
-64.763304 -16.363464 6.607296
-17.006472 77.148927 4.718321
81.401134 11.285627 5.492439
35.632612 -62.991590 5.251289
-64.327377 29.902525 4.702124
-54.807258 48.879657 5.220797
-41.063127 63.797177 5.325869
58.720055 59.972960 5.782057
-20.011463 76.077931 5.529230
14.896486 -68.351899 6.214847
-2.396814 80.439891 5.855898
64.293131 -41.759516 6.236326
81.339388 -0.046264 4.880891
81.370325 0.439592 5.496288
-24.562954 74.164819 5.810692
-68.038763 11.139144 6.230932
24.079208 -66.757164 5.082068
7.073398 -68.795134 4.855046
-24.605868 74.144668 5.827426
-65.950062 -12.155778 5.874311
53.628910 -52.264877 6.502947
-68.065565 10.718206 5.899929
-3.518878 80.299007 4.608544
-54.547574 -37.036331 5.333240
-20.532087 -63.675463 5.094157
81.342928 12.222124 5.575377
-37.788020 66.360863 4.820255
78.804782 -14.162412 4.857760
76.315462 33.679670 6.125246
-7.840912 79.572068 4.972197
-65.858344 -12.514130 6.476853
-61.445373 37.212352 5.974792
13.153835 80.732018 5.598402
22.081367 -67.209503 5.496417
25.410207 78.613723 6.054308
1.670282 80.825011 4.226073
-7.981826 79.545300 4.686148
-8.134693 79.516255 5.188392
-3.103901 80.351119 4.998383
70.677906 45.032679 4.756846
-40.725750 64.075854 5.038800
69.453894 -34.764793 4.798201
11.252491 80.853090 6.079080
-67.108967 18.944791 6.090037
22.416053 -67.145923 4.803864
-2.052751 -68.286713 4.816955
-67.489645 -4.306374 5.946762
75.709815 35.212755 5.839816
42.690277 -59.572424 4.448958
10.729385 -68.687986 5.885159
-2.483899 -68.231909 5.959791
66.482212 -39.012917 5.211151
-34.534438 68.642849 5.260300
-66.264622 23.134167 5.348151
46.222402 69.710413 4.746145
-64.868093 -16.040125 4.710712
69.882160 46.288680 6.504563
-50.395250 -42.397824 5.092203
75.927135 34.662652 5.567007
-64.669216 -16.653782 5.193103
10.880577 80.876773 5.277409
-53.053312 51.289948 5.473599
74.975699 -24.676992 5.691847
-1.569916 -68.348081 5.073945
81.394997 11.384307 5.522686
-67.474171 16.613104 4.891962
-3.682643 -68.079561 5.864657
80.413161 19.286445 4.896029
76.791861 -20.281672 6.084176
20.122137 -67.581705 5.654548
53.570398 64.512755 4.554990
77.786448 29.634009 5.959241
39.231921 73.554020 6.228414
24.906412 -66.545438 5.614073
-62.438781 34.954125 4.870789
-24.188225 74.340809 5.822294
57.967019 60.681173 6.401713
70.987352 -32.352498 5.816629
-68.208598 5.397415 5.360810
58.838117 -47.673043 5.010117
-6.630662 79.801978 5.864230
-67.613809 15.514388 6.125179
-57.154288 45.276840 6.479743
47.934014 68.622376 5.164502
42.455523 71.899261 6.291882
-65.960489 -12.115039 4.986780
-48.422489 -44.630034 4.995358
-57.085131 -33.185417 5.362563
-15.787354 -65.347712 4.499064
-53.413897 50.794422 5.024208
81.533376 9.158055 4.968819
23.809208 -66.826262 5.686157
-2.130434 80.473339 6.221065
-67.100910 18.986853 5.895270
16.934820 -68.095976 4.752108
50.068101 -54.954746 6.316926
-67.712168 14.740520 5.557144
35.881378 75.087843 5.492447
-68.088039 10.365364 5.672176
-67.042307 19.292800 5.471985
26.450340 -66.150276 4.855539
20.238901 79.757668 4.946775
76.305864 -21.506465 4.451783
21.861788 -67.251213 5.358937
-11.532412 -66.546851 6.457688
24.562720 78.832003 4.866033
77.814410 -17.348842 4.799025
81.433134 10.770859 6.447281
-57.003364 45.514262 5.436563
-25.471608 -61.540217 6.214196
10.821906 -68.682238 6.064930
67.234799 -37.978730 5.977250
54.184806 -51.805697 5.999940
-21.473732 -63.301815 5.960776
81.346193 12.169655 5.930670
-61.751236 -24.360630 4.860350
-50.092059 54.958822 4.751411
61.981891 -44.423722 6.471624
39.397633 -61.280009 5.181919
-64.854895 -16.080831 4.985194
-37.564057 66.523296 5.966822
81.482238 2.197061 5.986037
-68.116543 9.917723 5.806036
79.351441 -12.040005 5.714247
-64.417870 -17.429337 5.677300
11.258628 80.852703 4.794245
-56.816272 45.808576 5.689233
-14.995641 -65.605613 5.099349
19.563731 -67.687785 6.098463
-63.477694 -20.132623 5.143602
42.938151 71.633471 6.077414
81.504497 9.622694 5.565290
33.348351 76.092942 5.079447
70.352591 -33.351041 5.916415
79.079564 25.296478 5.731086
-33.100444 69.551393 4.268493
79.460461 23.808275 5.306258
-1.597842 -68.344531 4.821176
-68.207533 6.801214 4.807267
79.024632 -13.308841 4.603799
81.231981 -1.371931 5.167637
-64.888484 -15.977187 5.105673
16.842082 -68.107618 4.910020
-48.158050 57.102656 6.233424
-13.146707 -66.131056 5.937960
-11.101323 -66.657885 4.773694
21.100086 79.592708 6.398220
1.269376 -68.601640 6.329104
33.265973 -63.926547 5.675256
-37.888721 -54.089132 5.893032
80.411217 19.296664 5.549003
47.734956 -56.553457 5.057495
81.331250 -0.174078 5.790044
-7.008270 79.730247 4.870038
-67.141919 18.772766 5.392039
71.496811 -31.467495 5.351490
-11.717969 78.696108 4.661112
80.016550 21.374065 5.329631
47.085671 -56.964820 4.916864
-59.286471 -29.357883 4.585870
45.763431 70.002168 4.304468
-30.058884 71.363954 4.787724
20.634572 79.681881 4.538205
-57.468939 -32.579613 5.134680
-33.446985 69.331817 5.125406
81.530835 2.960287 5.841794
38.950574 -61.489965 4.504125
45.783442 -57.789853 6.093465
22.254072 79.371668 6.253492
54.031556 64.130676 4.776448
15.120116 -68.323825 5.642773
-25.707678 -61.428908 5.849760
16.320926 -68.173049 4.780929
-38.240780 66.032430 4.996531
76.700043 -20.513090 5.660104
71.932530 42.876222 5.738819
-43.454275 61.751754 5.401904
43.564259 -59.092811 5.003909
-67.692275 -2.692573 4.912393
81.491867 2.348240 5.484893
17.684655 80.196741 5.721395
81.360104 11.945873 5.496691
61.455837 57.179887 6.033101
-65.919650 24.473538 6.350433
-53.729157 50.361188 4.631637
-54.658938 -36.882804 4.752848
-28.475523 72.232842 5.541818
67.763932 49.446879 5.037056
64.768300 53.381983 6.080685
-48.279569 56.973447 6.528901
62.230548 -44.159342 5.623018
2.031873 -68.650191 6.238767
-15.033312 77.788394 6.205813
-30.041472 71.373507 4.547659
76.103741 34.215597 6.490457
81.444826 10.582680 6.043878
81.579263 6.421082 5.594659
-65.986490 -12.013469 6.288198
-53.630726 -38.300288 6.261185
-44.023934 -49.021882 5.162281
73.672201 39.645453 5.551902
-6.578839 -67.615655 4.430161
-26.798597 -60.914561 5.561901
76.713799 32.671333 5.415912
33.739175 75.937869 4.629775
-49.127162 56.072237 5.286821
-27.756354 -60.433390 5.398656
10.247715 80.917069 4.901147
21.694881 -67.282929 4.532212
81.373279 11.733898 5.172303
-40.231808 64.483851 4.563785
-23.895873 -62.283146 5.627239
81.346254 12.168707 5.824817
-36.618743 -55.013313 4.809808
0.444999 80.748857 5.122663
26.094638 78.437450 5.631021
76.673860 32.772440 4.750973
24.679485 78.801925 4.462364
60.591449 -45.902149 5.337418
-66.701381 21.072662 4.832896
74.716796 37.421239 4.594300
71.794212 -30.927503 4.739102
50.280089 -54.800978 6.064182
67.367407 49.993508 5.454420
-53.836450 50.213753 4.786700
-32.466290 69.953145 5.600037
-3.898047 80.251405 4.178886
-3.080944 -68.156029 6.358577
28.763653 -65.474540 5.291955
-34.557233 68.628404 4.980252
-5.416007 80.032738 6.366323
81.092998 -2.465427 5.658214
55.868861 -50.414646 4.682425
-26.206472 -61.193739 5.544560
24.836543 78.761479 4.988725
29.323765 77.491238 6.330523
81.456891 1.798978 6.381208
24.180756 78.930382 5.599077
74.675242 -25.314231 6.074912
-2.917452 80.374523 6.065179
-63.275330 -20.644878 4.440495
77.741400 29.773004 5.136141
33.333554 76.098813 4.548582
73.869011 39.226402 6.003971
-66.868803 -8.001783 6.180540
-68.207631 6.680023 5.159174
28.722686 77.687055 4.867294
12.922866 80.746727 5.653094
78.223368 -16.093428 6.202578
-12.738584 -66.236172 6.363360
17.203149 -68.062285 4.704504
53.975764 -51.978377 6.158719
25.155326 -66.481731 6.129947
-55.943084 47.182188 4.779233
78.903467 25.984519 5.987023
-68.052542 1.271373 4.805790
60.399204 58.312713 5.213496
-25.316388 -61.613397 5.826393
0.823642 -68.573259 5.602084
77.523405 30.445670 5.888552
70.805608 -32.638398 5.496714
-41.262666 63.632360 6.415296
20.827434 79.644930 4.539263
-7.570098 -67.425775 6.660440
-56.575028 -33.990535 6.418721
20.595934 -67.491692 6.093621
5.631241 80.993028 4.824450
74.350133 38.201971 6.304742
-30.293417 71.235253 4.613542
-16.520931 -65.108739 6.367548
-64.876565 28.216612 6.276403
-7.087431 79.715211 6.010217
-44.825476 -48.268034 5.766710
78.020196 28.912753 4.811495
-68.022046 0.780739 6.156983
37.424319 -62.206757 5.739931
80.013489 -9.182548 4.817394
24.901424 78.744767 4.418595
14.579873 -68.391663 5.862310
42.822981 71.696888 4.678284
61.904907 56.700954 5.897354
-32.628929 69.850097 5.391622
51.200586 -54.133274 4.858701
-66.991783 -7.354442 4.705553
-41.968103 -50.849968 5.938218
-67.412268 -4.922613 5.208477
-51.021516 53.837025 4.576149
-15.774062 77.548325 5.841068
71.873601 42.983616 6.321285
47.097603 -56.957253 5.185163
-12.677814 -66.251830 4.437233
54.497562 63.744564 4.560027
77.566581 -18.109608 4.914505
60.389364 58.323136 5.039383
72.802099 -29.097438 6.027836
-62.754338 -21.963662 6.371085
-63.289480 -20.609047 5.294638
21.857781 -67.251974 5.309198
67.601947 49.670178 5.213995
47.435078 68.939534 5.698011
16.576045 80.337644 4.420205
-57.515851 44.708069 5.008756
39.400105 73.474722 5.599168
-11.298019 78.803590 5.879121
-17.412004 77.017501 5.159078
73.951162 39.051479 5.271972
-15.067944 77.777165 5.129938
-3.702067 -68.077090 5.755747
-67.707781 14.775089 6.015085
81.177521 13.979683 4.488114
-28.139952 72.416996 5.378856
-67.954177 12.467588 5.429413
-64.419835 -17.423287 5.967993
7.155656 80.991874 6.033715
-12.480386 -66.302677 5.883696
47.052771 69.182565 6.291173
19.538772 79.891776 4.840378
-32.131735 70.165104 5.770543
7.637385 -68.795560 5.132096
-29.610429 -59.412263 6.139012
-38.207471 -53.857183 5.219241
77.894061 -17.104316 4.693954
-58.486252 43.010497 5.122017
-21.402603 75.528352 5.035212
64.540622 -41.460795 6.180120
72.693756 -29.294170 6.122113
-64.501346 -17.171744 4.329117
-67.471435 -4.451357 5.013907
10.721168 -68.688500 5.291841
81.484962 2.239849 5.871903
-37.832681 -54.129915 6.142910
-24.932325 73.991347 6.370656
-6.458011 79.834782 5.229958
77.788485 -17.428416 4.885081
-22.081291 -63.060737 6.144015
-63.125223 33.224198 6.040587
-68.140744 2.690682 5.530415
80.800018 -4.770511 5.271825
7.034893 80.991967 6.517593
75.881783 34.777460 6.254828
80.803811 -4.740659 5.242824
39.397447 73.475978 5.838610
38.516195 73.891481 4.369234
81.578562 5.495051 4.823794
-40.598327 -51.984890 4.673202
-53.093625 -39.040733 5.459360
42.715532 71.756062 6.506073
-42.445013 62.655747 4.845330
-29.959978 71.418231 6.117036
-22.495150 -62.896517 5.761585
45.427456 -58.015390 5.339334
64.809615 53.331976 6.325719
-21.462820 75.504573 5.049362
-19.848747 76.142210 5.477260
-51.820582 52.872593 5.456325
-66.537998 21.925653 5.108829
-28.390268 72.279630 5.585125
-37.490945 -54.378605 5.972723
-59.355969 -29.231239 4.675221
81.579071 6.166173 6.293548
-53.365783 50.860545 4.609193
38.288498 73.998825 4.942050
49.716130 -55.210053 6.025457
14.695584 80.576638 4.989625
79.215734 24.764469 4.730917
2.266376 80.862065 4.647370
-56.717472 45.963993 5.762038
-29.627772 -59.402713 5.701079
80.129328 20.780457 5.384906
-25.960609 -61.309658 5.572124
43.341024 71.411582 6.382113
51.425992 -53.969779 5.913463
57.178653 -49.222983 6.247295
77.832363 29.492341 6.178741
74.212459 -26.295750 4.629497
-61.118866 -25.707133 6.288215
-21.013921 75.681906 5.788556
46.163667 69.747747 4.676748
-59.142144 41.819570 5.814387
-61.139958 -25.662229 6.349904
-34.173256 -56.672779 5.880111
-44.230755 61.023704 6.358329
-51.526837 -41.027842 5.064297
81.372938 0.480629 4.279045
-21.908352 75.328559 4.667943
49.058967 -55.686737 5.311833
-53.050046 51.294434 4.855946
-67.166590 -6.434286 4.456702
66.153064 -39.465235 5.299236
-60.788796 -26.409968 5.611920
79.169530 24.944984 5.899039
78.818336 -14.109795 4.645556
-29.292691 71.784412 6.300215
15.267634 80.503934 5.027999
-56.371904 46.507600 6.456084
67.822255 -37.171447 5.882538
61.964692 56.637204 5.016184
-55.573928 47.762896 5.038878
-10.232359 79.076340 5.671235
44.332508 70.865524 5.738837
3.014125 -68.712735 5.182895
61.413809 57.239323 4.545309
67.532506 -37.569607 5.687724
74.786815 37.272139 4.914865
10.045351 80.929955 4.602026
-67.030056 -7.152979 4.885168
39.699123 73.333746 5.988560
-67.016211 19.429038 5.534787
67.608908 49.660578 6.677357
12.788944 80.755254 5.714951
77.961044 -16.898711 4.708774
-62.572452 34.617235 5.156762
-48.263188 56.990861 5.899919
67.555171 -37.538470 5.926584
-34.177187 -56.670283 5.565029
-12.592895 78.472177 4.868085
-38.325899 65.970680 6.145009
-8.800620 79.389747 5.674506
-2.101252 80.477004 5.705275
60.498329 -46.001154 5.075646
-64.739489 28.637416 6.252720
81.416745 11.034448 5.869990
-63.226334 32.969388 5.798602
42.646697 -59.596338 6.081198
-66.982668 19.604130 6.047067
-63.113731 -21.053914 6.563085
72.465505 -29.708601 5.930986
-64.302219 29.979743 4.840955
60.972181 57.706544 4.434176
42.925891 71.640213 4.904992
42.527730 -59.661621 5.858784
81.395108 0.828717 4.944454
-7.625332 79.613023 6.129834
44.425272 -58.620317 4.994332
-24.639587 74.128834 6.314955
77.525677 -18.235181 4.957684
43.503103 -59.126370 4.593920
21.280209 79.558197 4.459943
-61.116298 37.910280 5.969436
2.345713 -68.670173 5.051001
-2.873093 80.380090 4.599178
-67.695450 -2.667339 4.957761
-21.090827 -63.453756 6.323971
7.755699 80.991422 5.251998
50.323276 -54.769647 6.244681
-62.659361 -22.204067 6.228738
39.544875 -61.210851 4.952516
-51.503903 -41.055611 4.892701
69.203198 -35.159176 4.343813
0.497428 80.752118 5.084917
-34.642235 68.574563 5.132338
-67.533422 -3.957722 5.574296
35.368133 -63.096074 4.782836
42.523418 71.861873 4.712758
80.885203 -4.100320 4.609306
81.580198 7.648941 6.047749
-29.860941 -59.274294 6.437879
26.357179 -66.174125 4.787536
15.348912 -68.295099 5.438685
-67.552673 15.995420 4.594156
38.835636 73.740861 6.167467
77.774569 -17.471148 5.412233
33.784505 -63.721699 5.514760
74.159909 38.607000 5.725484
-66.955955 19.743616 6.612701
-10.529802 79.000220 5.790079
30.810213 -64.811288 4.630601
41.748744 72.288520 4.757085
-28.657100 72.133204 5.648842
24.857040 -66.558076 5.522020
81.386033 11.528738 6.050556
72.763238 41.362457 4.733541
-54.891183 48.764335 6.074376
17.356642 -68.043014 4.957553
2.459934 80.874093 6.213799
-63.003962 -21.331771 4.804880
-16.692485 -65.052857 6.319216
-36.588612 -55.035244 4.814399
-64.482427 29.426522 4.885292
29.286106 77.503505 5.011342
81.089904 -2.489754 5.702884
5.614454 -68.794039 5.468195
-67.596580 -3.454704 6.303599
-53.032500 51.318544 5.210094
-53.366690 -38.664282 5.753549
81.405567 0.993018 4.341897
-66.927625 -7.692182 4.648279
-54.488977 -37.117112 4.470352
-60.646660 38.906364 5.158412
79.218644 -12.555592 6.420461
-52.438796 -39.923786 4.556205
-22.226427 75.202901 4.951375
-48.609988 -44.431274 5.038167
-30.668055 -58.829784 5.892457
67.267523 -37.933751 6.348962
37.495129 -62.173500 5.755100
-48.648484 56.581197 5.109067
54.872691 63.433763 6.239333
-67.968627 12.240553 5.015364
-20.340768 75.947835 4.459596
29.809144 77.333115 6.182504
-21.591949 75.453547 5.178960
76.885879 32.235760 5.168689
74.679419 37.500819 4.659234
-66.650163 21.340069 5.356876
-63.168570 33.114947 6.194483
-67.955274 12.450349 5.041901
23.671236 -66.861580 5.103364
72.579452 41.697340 6.125415
76.553518 33.077084 4.751516
26.841045 78.245211 4.749767
-56.679493 46.023735 6.080557
-59.717641 -28.572187 5.326109
72.197919 42.392616 6.150572
64.994553 -40.912941 6.049139
-6.724086 -67.587832 4.932965
78.887234 26.047943 5.327721
1.340894 80.804545 5.247272
-4.053607 -68.032407 6.602570
-50.412613 -42.376799 6.052668
-28.000295 -60.299040 5.380684
80.059089 -8.944512 5.006430
-45.048884 -48.057928 6.156462
10.793448 80.882324 6.354377
-20.787167 75.771483 6.426629
75.722586 35.180437 5.554267
-63.228314 -20.763881 4.718365
-12.208428 78.570581 4.991350
-47.177887 -45.949841 5.543424
21.358192 79.543270 6.227856
-7.987646 -67.345795 5.960064
-66.886189 -7.910271 5.719075
70.187421 45.806870 6.333416
-51.046766 -41.609051 5.080127
-33.263809 -57.250895 4.355908
-37.064291 66.885816 5.807451
-44.442668 -48.628069 4.594748
81.141041 -2.087444 6.020208
20.338134 79.738659 4.939877
-28.781168 72.065120 5.818036
-65.524894 26.006159 4.945496
-68.126485 9.761552 5.429121
2.327496 80.865857 6.331011
-60.544627 39.122748 5.415253
46.345882 69.631922 5.072744
-51.205415 -41.416987 6.071599
11.485556 80.838255 4.799615
77.348874 -18.777931 4.757821
11.177368 -68.660148 4.310095
-11.538780 78.741975 5.852861
76.186331 -21.807699 4.794920
-58.900429 42.258461 4.896663
54.187318 64.001606 4.870991
32.738130 -64.135076 5.504000
-24.363759 74.258370 6.267068
63.176366 55.309290 4.464374
80.036846 21.267245 5.820482
54.456998 63.778174 6.031378
21.286637 79.556973 5.786148
11.986605 80.806343 6.006357
24.424300 78.867659 5.235901
41.619181 72.359876 5.126531
-47.997460 -45.085353 4.379734
77.331030 -18.832717 6.225866
-67.520318 -4.062040 5.671020
-60.472075 -27.084345 6.008692
80.233626 -8.033218 4.669943
64.862822 -41.071925 5.597777
-22.313470 -62.968610 5.246636
-21.723337 75.401647 4.604710
-68.024951 0.827448 6.328766
6.316521 -68.794563 6.065632
71.743240 -31.020049 5.447345
-60.775373 -26.438538 5.964059
12.457775 -68.580569 5.058345
-29.246675 71.809666 6.159392
33.506266 76.030287 4.651449
81.579495 6.724276 5.879700
-53.559297 -38.398764 6.250390
-25.446132 73.750044 4.552932
26.198414 78.410716 5.741661
-58.927665 -30.011709 4.696420
25.437512 -66.409509 4.524255
15.617822 80.459425 5.015906
69.398704 -34.851613 4.728033
81.007377 15.334798 5.115602
-67.703616 -2.602257 4.742940
74.916374 -24.802809 6.084608
-15.227933 -65.529945 5.672342
-62.951877 33.661040 6.286583
-64.566537 29.168333 6.321690
-44.099004 -48.951270 4.443308
76.941441 -19.904742 5.400357
77.666527 -17.802803 5.290599
-39.924564 -52.543128 5.432205
-61.697382 -24.475299 5.264747
-30.752392 -58.783329 5.607147
-61.420068 37.266026 5.934720
57.305232 -49.104294 5.994318
69.835506 46.362321 5.910731
18.004987 -67.961614 5.017212
11.084275 80.863809 6.217256
-6.590781 -67.613362 5.307680
-60.847340 38.480736 5.000409
-66.100983 -11.566113 4.878591
-58.636831 42.737096 4.936982
-62.600737 34.545954 4.824691
-41.400629 63.518399 4.989007
12.169531 80.794695 5.489143
-54.356039 -37.300375 4.604763
76.648767 32.835957 4.513008
-62.774186 34.108845 5.925599
58.459584 60.217922 6.524092
-12.810998 -66.217525 6.030033
-30.298564 71.232424 4.955023
12.929361 -68.551262 5.373997
15.742515 80.443585 4.868368
17.510573 80.218867 6.226222
43.682415 -59.027973 5.121609
57.148878 61.450624 5.160216
-63.028587 33.467727 5.652975
49.961479 67.231224 4.558853
26.627688 -66.104891 5.629175
76.195497 33.983340 5.944930
19.677627 79.865175 4.850994
-16.478586 77.320005 5.986812
79.095652 25.233640 6.327735
42.027891 72.134778 4.808855
-66.760943 20.761711 4.449397
-17.494327 -64.791656 6.286185
75.930330 -22.452857 4.789904
3.332277 80.928312 5.459635
-66.013058 24.110864 5.572093
67.440335 49.892964 5.869527
-38.576065 -53.588954 5.368795
63.941623 -42.183756 4.843629
78.177165 -16.235263 5.561945
50.075072 -54.949695 5.287435
-40.113627 -52.386473 5.405078
29.122399 -65.358275 5.958317
-27.765122 -60.428559 5.838578
75.089069 -24.436527 5.215164
64.523086 -41.481969 4.240614
28.847461 -65.447375 5.458389
-51.131426 -41.506559 5.284079
11.840792 80.815634 6.265726
34.164009 -63.571769 5.924486
-40.025695 64.654111 5.497627
2.775264 80.893690 5.946066
3.445671 80.935348 6.194869
78.895832 -13.808905 4.971555
-11.956790 -66.437541 6.166347
50.044661 -54.971753 5.379190
-36.758029 -54.911958 4.856055
-47.330539 57.982521 6.581317
-45.680840 59.668439 5.191801
-62.688866 34.323862 4.361352
0.201769 -68.533652 6.173060
66.657809 -38.771615 4.952722
-68.163276 3.053120 5.823449
-44.165619 -48.888628 5.160514
46.656932 69.434197 4.937019
-31.993267 -58.058552 5.865650
-62.841144 33.940105 6.076232
-44.878237 -48.218419 6.032879
-64.703961 -16.546572 6.161737
-66.637486 -9.219413 6.224494
78.296500 28.060195 5.044129
-67.959378 -0.227607 4.992138
44.298148 70.884453 6.107619
39.645451 73.359051 5.863971
-30.681467 71.022302 5.950672
66.901658 -38.436524 4.429414
77.328200 -18.841409 5.355248
72.578314 -29.503783 5.731029
49.715469 -55.210538 6.049420
-47.590624 57.705981 5.085749
71.907747 -30.721346 5.339529
71.607934 -31.265718 5.301919
21.675057 -67.286691 5.036259
-39.767201 64.867629 5.336175
-37.367474 -54.468451 6.467798
39.241999 -61.353101 5.080764
17.165420 80.262731 5.291077
54.682141 63.591636 5.676807
-8.686899 79.411354 5.038558
68.075654 -36.823224 5.962601
33.907201 75.871199 4.912765
58.518532 60.162474 4.247868
80.842095 -4.439473 5.050253
-20.475156 -63.698056 4.717708
-64.929299 28.054740 6.386273
-21.442571 -63.314186 6.179521
46.041293 -57.626479 5.755935
-66.743417 -8.661785 5.749447
81.577685 4.335721 4.837068
-61.522048 37.049736 5.579753
64.831766 -41.109417 6.451306
30.186007 -65.013574 4.909085
-65.835083 24.801875 4.633290
-21.559430 75.466406 5.028731
-64.499018 -17.178948 4.930452
-17.755652 -64.706526 5.261283
78.080470 28.726799 4.739606
-50.837617 -41.862264 4.799485
-51.911354 -40.562316 4.477652
42.470685 71.890914 4.406909
30.211990 77.201883 4.603740
-11.177630 -66.638234 4.585965
-28.786027 -59.866306 6.330727
-66.763777 20.746935 4.407129
24.979053 78.724776 4.884183
76.724546 -20.451340 5.963728
-68.207381 7.004543 5.234701
45.522784 -57.954994 5.982009
-5.894839 -67.746670 4.771353
-66.838213 -8.162822 5.943181
1.356045 -68.607158 5.323246
20.320213 -67.544074 5.909272
81.461716 10.311029 4.586497
72.972020 40.981996 4.916628
-56.020932 47.059713 4.903626
11.034303 80.866980 4.431059
19.888785 -67.626034 5.942018
1.135464 -68.593116 5.514791
49.549825 67.530793 4.549210
-40.490503 -52.074224 5.459433
-10.020591 79.130547 5.598874
-42.485936 -50.420921 5.839572
-67.957877 12.409498 4.960603
72.409873 42.006379 6.255373
15.936992 80.418863 4.384011
81.489639 2.313257 5.619052
-68.008959 11.607232 4.827438
69.239280 47.303414 4.794970
-47.095578 58.232339 5.007334
-16.175616 77.418188 5.937254
-47.315083 57.998949 5.089260
-56.211904 -34.563691 5.992159
-28.630736 -59.951822 5.283591
60.576596 -45.917935 4.666574
39.328791 -61.312335 5.000522
20.189036 -67.568994 4.485293
77.809496 29.562902 6.053083
-44.987903 60.313764 6.104107
10.981146 80.870368 5.076977
-66.934726 -7.654804 4.770732
-65.605959 25.691428 4.814030
-44.520467 60.757739 5.207877
-63.113293 33.254267 4.530363
-55.125447 -36.239679 4.918133
70.063757 46.002051 5.963092
-46.915291 -46.229907 5.383470
-20.427444 -63.716985 4.423569
-68.125845 9.771609 4.902895
-64.729486 28.668109 5.933085
-7.466648 -67.445593 4.972197
5.153560 80.993386 5.314553
21.076269 -67.400437 4.722189
53.749716 64.364182 4.545406
77.866171 29.388032 5.898516
-64.211846 -18.065060 5.725326
-21.436786 -63.316477 5.805017
-20.331323 -63.755127 5.069630
60.529152 -45.968384 5.145041
-66.252601 23.180821 5.206770
55.867209 -50.416009 4.901556
-10.853857 -66.721625 5.451185
-51.677860 53.044852 5.961580
-15.641999 -65.395062 5.018662
24.627449 -66.616841 6.443758
-12.277467 -66.354945 5.799024
70.243301 -33.522967 6.075976
-17.374450 77.029674 4.996423
12.286658 80.787234 5.561550
-28.721054 -59.902081 4.849030
-68.208169 5.960062 5.880227
10.426480 -68.706820 5.863645
19.859383 79.830364 5.506968
38.817645 -61.552393 4.902144
55.986419 -50.317548 4.861504
37.397377 -62.219408 6.071377
21.133981 -67.389485 4.575535
-45.573593 -47.564450 6.348687
-25.148566 -61.692521 4.996833
-6.132775 -67.701094 5.238449
32.948049 76.251788 4.749185
-32.708400 69.799756 5.888512
51.224214 -54.116131 4.798545
80.906204 16.140579 5.307689
-62.617124 -22.310982 6.127287
-10.889624 -66.712417 5.578933
30.834749 76.999006 6.400832
25.067444 78.702006 4.899748
21.277853 79.558656 6.258964
20.039878 -67.597333 4.517696
75.899042 -22.531695 5.240691
78.805200 -14.160809 5.177202
47.658188 68.797712 5.167679
66.920396 -38.410763 4.832501
78.486313 -15.286238 5.505735
-67.805882 14.003179 5.696378
9.791114 -68.746302 5.172524
74.784994 37.276022 4.961130
-17.165222 77.097476 4.806936
26.839914 78.245496 5.098883
80.144790 -8.497065 5.186944
-62.478798 34.853268 5.784827
-28.482402 72.229069 6.296461
69.493961 -34.701770 4.593050
-29.320334 71.769242 6.279408
58.288047 60.379254 5.974328
26.540784 -66.127130 5.452301
7.515334 80.991611 6.104618
67.934363 -37.017385 5.794171
63.277169 -42.985717 4.882344
81.043416 -2.855548 6.081541
-34.382638 -56.539680 5.903711
-50.492859 54.475078 4.702024
-63.417580 -20.284795 4.862600
72.914214 41.087326 4.943894
2.565637 80.880660 6.502566
62.054588 -44.346430 5.786815
-54.307498 49.566442 6.210625
65.255770 -40.597661 5.960779
-52.929030 -39.267646 4.602114
-44.057760 61.185909 6.447854
67.668863 -37.382232 5.751154
67.620727 49.644272 5.875422
-25.468642 73.739475 6.577088
78.982241 -13.473428 4.808216
64.808772 53.332988 5.164453
70.532564 -33.067921 5.592900
-6.415764 -67.646888 5.010518
45.813011 -57.771111 5.747699
-20.011251 -63.882128 4.498079
-29.791507 71.510682 5.292467
15.542527 -68.270786 6.187614
58.393271 60.280289 5.580148
-64.794750 28.467758 5.666054
-24.748460 74.077702 6.309352
-13.345291 78.279602 4.654242
76.408018 33.445386 6.202207
-44.204519 -48.852047 6.101924
-65.037953 27.721185 5.375222
50.003628 -55.001515 6.394142
1.358686 -68.607327 5.799343
80.857643 16.527386 5.563213
-68.057854 10.839409 4.800325
-56.495097 -34.116737 4.612704
-6.449560 -67.640415 4.585121
67.912725 49.241739 6.034723
-41.058891 63.800679 5.999990
49.598544 -55.295350 6.074266
-16.749242 77.232286 6.188040
17.169335 80.262235 6.775911
-52.380894 -39.993879 4.496349
20.732444 79.663129 6.460372
48.030677 -56.366084 5.100777
70.858331 44.747900 4.620289
30.615163 -64.874492 4.894661
67.340324 50.030854 4.757583
-53.829748 50.222959 4.887229
-17.351885 77.036982 5.065734
-65.722248 25.239950 4.779474
69.441747 -34.783907 4.747416
80.769783 17.227101 5.528149
-24.585943 -61.957790 4.548827
-29.740642 71.538589 5.007256
-56.962032 45.579279 5.686808
-2.545714 80.421205 6.087442
81.577864 4.569364 5.451975
-30.176739 -59.100371 5.956564
49.498405 -55.367989 5.306285
68.099397 -36.790593 5.635338
34.232853 -63.544572 4.283106
-26.313215 -61.143411 6.020773
37.957833 74.154731 5.203566
-13.482590 78.244461 5.165700
-67.069639 -6.944613 4.284822
-66.090673 -11.606391 5.422366
81.579710 7.004580 5.955367
-40.227979 64.487019 5.683483
81.074485 14.800365 5.088301
41.874321 -60.020192 5.910680
-41.646928 -51.116078 5.753788
-39.991952 -52.487291 4.678765
-51.874260 -40.607234 5.012959
45.770356 -57.798139 5.282156
80.540212 -6.432599 6.122311
73.680527 39.627729 5.612588
64.747290 53.407424 5.670612
29.388514 -65.272032 6.090790
-66.708460 -8.845807 6.156052
-12.664696 78.453801 5.485090
-32.319999 -57.850847 4.757854
80.319621 19.778806 4.954857
-67.616121 -3.299137 4.510782
81.509870 9.536209 4.759318
-36.495681 67.298277 6.003425
-62.492475 -22.626499 5.200270
69.538972 -34.630962 6.359715
80.238530 -8.007642 4.903626
-58.449423 -30.883196 5.737718
66.618019 51.026584 5.685270
-58.849378 42.351168 4.898076
-15.376045 -65.481694 4.588717
-47.023086 58.309422 4.981512
-50.938831 -41.739737 6.103103
75.996002 -22.287354 4.358476
-68.206951 7.570532 4.710369
16.655233 -68.131080 4.353400
78.283661 -15.908324 5.877208
38.407041 -61.745228 5.952235
33.722065 -63.746364 5.983443
-29.021551 -59.736582 5.275282
50.526149 -54.622494 5.922639
-34.117651 -56.708118 5.530384
8.265702 -68.796028 5.073073
5.451648 -68.793920 5.529503
75.982070 34.523594 5.698806
-63.246620 32.918260 5.706333
-55.842989 -35.145985 6.318798
17.607993 -68.011452 5.044940
81.385601 0.679446 5.038792
51.246641 -54.099869 5.160166
-1.860171 -68.311185 5.291177
-30.814646 70.949225 5.071981
-17.488128 -64.793677 5.979690
-51.079559 -41.569348 4.565495
60.439498 58.270087 4.967555
79.442352 23.879048 4.978113
79.511604 -11.418174 6.066468
-47.431129 57.875559 4.638638
57.401619 -49.013948 4.844196
-67.949154 -0.392079 5.892061
69.153497 -35.237357 5.529600
9.638421 -68.755794 6.446506
-64.724580 28.683179 5.755906
-64.448024 -17.336285 5.629663
-41.694267 63.275854 5.302538
10.514074 80.900108 5.179235
-55.196131 -36.142236 4.831884
1.078108 80.788205 5.014094
-57.498027 -32.533696 4.570230
-54.610682 49.149810 6.226264
-26.559607 73.227105 4.931173
54.973725 -51.154053 4.370840
21.429282 79.529650 6.145497
1.057273 -68.588134 5.784173
29.360711 -65.281042 5.899140
-14.800021 -65.669341 5.677043
57.584374 61.041053 4.897454
74.972599 36.876572 4.575444
-53.399929 50.813629 4.541927
81.486292 2.260663 6.004355
44.127014 70.978702 5.869156
80.414661 -7.088103 5.844880
28.263653 77.836596 4.883996
77.687472 -17.738491 5.199606
-66.815530 20.476735 4.905145
-66.775052 20.688048 4.774106
80.786127 17.096996 5.532117
7.622308 80.991522 5.493496
35.705463 -62.962808 4.622885
-67.662191 -2.932203 4.303731
17.482775 80.222394 5.436428
-24.215087 74.328195 6.147116
-64.349120 -17.641455 4.052411
-66.819721 20.454835 4.594991
-55.849036 -35.136431 6.175419
-56.801195 -33.633588 4.794798
57.219675 -49.184524 6.302293
-62.435556 -22.770583 5.631358
80.143768 20.704414 5.864242
-16.981866 -64.958591 5.960445
-40.622061 -51.965227 4.853908
21.285907 -67.360615 4.879037
2.702131 80.889148 6.340192
7.370637 -68.795357 5.319177
60.170950 -46.349245 5.866519
81.578291 5.133278 5.267430
59.056780 -47.466348 4.726697
30.789367 -64.818036 4.628896
-13.865158 78.146546 5.598558
-40.796666 -51.820555 4.806075
-58.693625 -30.438186 6.153982
57.785350 60.852036 4.568278
8.060240 80.991196 5.446427
80.559920 -6.329689 6.390330
-64.633965 28.961337 6.153505
29.194162 -65.335018 4.563475
73.770246 -27.233641 5.450025
-63.306146 32.768242 5.089284
80.105490 -8.702235 5.048338
-68.101950 10.146861 5.706446
-65.721927 25.241187 4.809364
57.012663 -49.378623 5.586598
-4.319386 80.198502 4.952801
-62.796005 -21.858183 6.267366
81.325200 -0.269154 5.108119
76.102554 -22.018821 4.586409
-67.477024 16.590655 4.755346
-68.135136 2.600367 4.804889
-16.651648 -65.066163 6.466821
62.490440 56.076475 5.935432
60.056899 58.674865 5.094014
-51.763605 -40.741198 4.768339
24.624757 -66.617529 5.860439
70.031169 -33.856677 5.866482
1.207212 -68.597681 6.013316
-67.695882 14.868685 5.683284
-64.202854 -18.092799 5.980492
64.050921 -42.051841 6.118432
72.052203 -30.459043 4.402909
-30.440385 -58.955164 5.651983
29.898140 77.304123 4.768772
81.577741 4.410857 5.318017
-24.818594 74.044758 6.198214
72.464061 41.907620 4.302265
55.059438 -51.083241 5.069853
-48.287961 -44.769512 5.305041
-8.662484 79.415996 5.085278
28.454615 -65.574692 5.352158
-52.861861 51.553044 4.994023
-57.363460 -32.746098 4.816070
-50.726136 -41.997232 6.371545
6.329232 80.992498 5.105615
-20.759295 75.782490 4.507923
-67.622185 15.448531 4.053837
-56.226419 -34.540794 4.773773
-21.102925 -63.448951 6.286421
75.710973 35.209817 5.400970
31.163375 -64.696826 5.382088
-5.927550 79.935558 5.932944
29.712173 77.364708 4.763839
-54.266683 -37.423559 6.530743
-15.248225 -65.523335 5.123397
12.185141 -68.597521 4.926862
-55.896979 -35.060762 6.410248
0.305313 -68.540247 5.954977
-19.951273 76.101705 6.026945
-50.228605 -42.599573 5.426461
60.360888 58.353253 4.896286
81.134194 14.324759 6.445672
-57.496787 -32.535652 4.172362
46.790446 69.349320 4.633263
5.386718 -68.793865 5.096718
-59.127096 -29.648313 6.226987
-48.018712 57.250813 4.435167
-66.868523 20.200072 5.864516
77.542584 -18.183281 5.355040
10.662928 -68.692116 6.093590
61.726985 56.890716 6.127477
29.519979 -65.229426 6.515250
-58.342904 43.270788 4.815899
19.871521 79.828036 5.348676
37.805481 -62.027751 4.102349
81.515451 9.446485 4.812704
79.117903 -12.946707 4.281040
26.232631 78.401906 5.679653
-68.208574 5.432527 5.598594
81.403076 11.254512 4.214580
80.789821 -4.850733 4.789932
61.744078 56.872481 5.967350
75.134530 -24.340123 5.414310
-68.207066 7.421114 5.017916
14.731648 -68.372599 5.450710
-25.893687 73.539846 4.350733
69.477691 -34.727372 4.437398
20.378973 -67.532909 6.128972
-13.306213 -66.089966 5.132097
-66.953567 -7.555601 6.328587
43.211206 -59.286556 4.444944
54.427995 -51.604825 5.936584
-24.889746 74.011351 4.741428
70.754994 44.911002 5.323032
18.745816 -67.843170 5.561623
-16.902636 77.182572 6.337375
-68.209199 4.606524 5.620494
-12.720594 78.439493 4.525909
81.577742 4.399358 4.557110
62.036522 -44.365643 6.086285
-24.317897 -62.084169 5.065286
-50.624137 -42.120706 4.625509
60.478025 58.229332 4.999040
57.782933 -48.656394 6.047566
-6.743982 -67.584017 4.953187
-6.328618 -67.663585 5.409592
-66.767026 -8.537555 4.580065
54.638864 -51.430643 5.953340
17.466350 80.224482 6.028215
43.924584 71.090189 5.870633
51.828648 65.872465 5.741503
-62.419052 35.003839 5.578148
81.461483 1.871079 6.069271
-67.667620 15.091053 6.291592
26.102895 -66.239201 4.865098
69.183121 47.392050 4.857351
74.672396 37.515791 5.040535
-8.698893 79.409070 5.663159
-67.997171 0.380427 5.941123
43.735270 -58.998963 5.052745
-68.026470 11.332232 4.818624
20.447843 -67.519829 6.183338
32.996620 -64.032962 5.088603
33.165097 76.165660 4.615872
-16.619360 77.274378 5.104529
-9.127916 79.327571 4.970962
-67.104928 18.965864 5.108213
-6.563346 79.814769 5.440876
-58.613648 -30.583941 5.850832
54.296643 -51.713329 5.176553
2.084700 -68.653556 4.618667
64.142686 -41.941090 6.441018
-50.158294 -42.684683 4.278456
-68.209167 4.645706 5.521420
53.912178 -52.030891 6.098334
-13.605192 -66.012964 5.861645
-41.248729 -51.446000 5.826460
-56.134190 46.881552 4.732774
17.633294 80.203269 5.708182
11.777109 -68.622873 4.615699
39.625735 -61.172877 5.301707
23.824388 79.022163 4.299834
73.792959 -27.185487 5.377641
28.434718 77.780866 5.334874
-67.104783 -6.759611 5.349905
32.754549 -64.128584 5.186601
77.623686 30.136259 5.853393
54.799343 -51.298084 6.368992
-11.814090 -66.474297 6.170989
68.244246 -36.591542 5.842200
-64.928303 -15.854342 4.890843
-12.943186 -66.183471 6.009723
-63.243738 -20.724828 4.823309
57.333620 -49.077683 5.862084
-47.824020 57.457815 4.567479
61.248336 -45.203696 5.865314
79.547273 -11.279699 5.956591
29.295320 77.500505 5.045407
-51.512321 -41.045415 4.594342
-42.337587 62.744473 4.686629
78.250062 -16.011462 5.959687
57.046503 -49.346886 6.513514
-21.488162 75.494556 4.369155
71.978033 42.793304 5.697960
-6.750543 79.779211 5.925422
-37.839423 66.323574 4.928254
80.079041 -8.840333 4.941334
-51.874338 52.807709 5.839204
-45.474204 -47.657917 5.738283
-30.380014 71.187733 4.685224
-48.334194 56.915372 5.887009
67.946283 -37.001011 5.753665
76.308733 33.696710 5.928824
46.354191 -57.428249 4.844167
-56.194680 46.786394 5.234926
-33.248799 -57.260439 6.234767
-68.142543 2.719494 5.349361
-67.199423 -6.261435 4.680475
58.869093 59.832788 6.266548
-12.784761 -66.224281 5.729240
63.632522 -42.556826 5.047883
80.258933 20.098261 6.262836
5.968617 80.992767 4.891765
81.397979 11.336475 6.264924
56.849041 -49.532042 5.298266
70.325908 45.588278 6.114159
16.225675 -68.185015 4.488218
-65.639965 -13.367352 5.525567
73.976907 38.996667 5.806412
-40.863069 63.962430 6.168563
74.170236 -26.385316 4.782236
-51.561149 -40.986303 4.855659
-15.470502 -65.450926 4.884565
-53.862918 -37.980187 4.448918
-68.014508 11.520100 4.559008
16.553822 -68.143813 5.066023
80.511659 -6.581660 6.224248
-34.421542 -56.514950 5.793485
-42.657987 62.479818 4.537355
-43.697667 -49.328722 5.001851
60.215346 -46.302046 5.354111
-67.659016 15.158753 5.918171
69.388706 -34.867342 4.465957
16.481139 -68.152937 4.790997
70.014308 46.080107 5.831094
-48.810285 -44.223688 4.568080
10.163087 -68.723190 4.994212
5.819831 80.992881 4.686376
-58.778522 -30.283487 5.695065
77.722756 -17.630196 6.289225
-52.746644 -39.519086 5.557239
-63.163392 -20.928212 4.798566
25.808679 -66.314511 6.269712
-36.482000 67.308199 5.995895
80.856629 16.535441 6.075184
-63.297589 32.789816 5.652784
81.359148 11.961279 5.666827
35.113950 75.392357 6.248317
79.481204 -11.536183 5.326640
-11.509293 -66.552806 5.153718
-21.362319 -63.346024 5.824694
-68.117667 2.319262 5.034911
-55.929526 47.203504 4.695706
-55.694964 47.572501 5.110011
-45.041614 60.272673 4.618827
50.703155 -54.494098 6.146027
-56.859282 -33.541902 5.042360
-12.050359 -66.413446 6.116232
28.409519 77.789067 4.902382
-21.655539 75.428423 4.669224
0.565414 80.756341 5.202417
-32.927473 69.660959 6.429639
-68.141766 9.521615 5.955259
45.842902 69.951646 4.585501
28.432569 -65.581835 6.104434
81.433233 1.427512 6.225114
30.168866 -65.019130 4.456333
47.373337 68.978781 5.774007
-68.004534 11.676669 4.525746
58.175051 60.485517 6.166691
-38.085828 -53.945703 5.691131
80.859608 16.511756 5.464217
-53.512454 -38.463336 5.760609
-24.965709 73.975672 6.100090
1.046470 -68.587442 5.619243
2.257787 80.861521 5.786421
17.016183 80.281696 5.770272
64.103788 -41.988030 6.229046
57.515227 61.106083 5.190336
-21.820413 -63.164252 6.005364
-62.556725 34.656878 5.435473
-32.913954 -57.473288 4.624238
74.649932 -25.367906 5.639583
-60.484935 -27.056972 5.771619
74.563747 37.747131 4.498081
-1.368694 80.568986 5.918663
17.348577 80.239453 5.534146
-56.182394 -34.610268 6.235677
-64.762430 -16.366162 4.842667
75.047410 -24.524888 4.950909
-45.681312 59.667992 4.682921
-66.191551 -11.212239 4.928273
64.890625 -41.038373 5.713305
81.387193 0.704340 4.401467
71.653423 -31.183135 5.466179
-38.321083 -53.774507 5.366768
-56.924752 45.637930 5.577904
-67.766945 -2.097900 5.190975
29.768863 77.346244 4.916712
-30.745823 70.986988 4.617219
7.254606 -68.795272 4.411977
-12.139327 -66.390525 4.516128
-66.652117 -9.142387 5.721341
2.638568 -68.688824 5.187948
-21.925558 75.321759 5.627733
64.363993 -41.673985 6.247022
-6.188374 -67.690445 4.546979
64.252093 54.006944 6.069978
-61.000206 -25.959803 5.670752
-38.602335 -53.569838 6.075898
-15.610995 -65.405158 4.709182
74.301500 38.305513 5.680568
46.786443 69.351856 4.613419
-54.104799 49.844987 6.211597
81.579085 6.184868 5.863022
30.871703 76.986965 5.906551
54.509948 -51.537128 4.613688
-32.821442 -57.532092 4.715790
29.518875 77.427678 6.076755
-37.152247 -54.625072 4.790739
-12.948063 -66.182217 5.943536
-22.372873 75.145048 5.233140
26.258717 -66.199323 4.952951
71.761338 -30.987187 4.781413
-66.220910 -11.097546 5.220869
6.379906 80.992461 4.892049
20.644810 79.679920 5.137056
-68.067394 1.510278 5.731279
81.149784 -2.018632 5.482745
-63.076172 33.347802 5.884522
57.271479 -49.135970 4.728825
57.045011 -49.348316 4.527166
16.102488 -68.200483 4.549519
-63.120846 33.235212 4.485254
-67.739645 -2.315315 4.375309
-58.184745 43.557973 5.086434
64.940407 -40.978289 6.023391
-20.299882 -63.767601 4.516909
41.386071 -60.288120 5.177818
6.447395 80.992410 6.248307
77.833351 29.489315 6.489021
47.489200 -56.709150 5.646696
-6.255779 -67.677532 4.397603
14.768428 -68.367978 5.448429
45.621291 -57.892582 5.921517
21.154009 -67.385670 5.062779
34.755054 75.534762 4.686051
42.957365 -59.425849 4.831484
-9.120828 79.328914 4.581535
-50.175179 54.858494 5.535366
75.843119 -22.672618 4.677941
-15.604117 77.603409 6.068452
-2.867378 80.380817 4.684149
70.336842 45.571018 5.943020
38.223158 -61.831591 6.153807
50.582845 -54.581367 5.188004
0.713561 -68.566245 5.847564
-58.965387 -29.942977 4.457238
-47.143151 58.181764 5.125168
-25.092511 -61.718957 4.608476
50.229871 -54.837406 6.328727
-60.747147 38.693230 4.904783
76.636873 32.866087 5.091794
-66.729518 -8.734964 5.497656
-58.691261 42.638259 5.089070
21.027021 79.606707 6.153802
14.826519 -68.360687 5.676820
-33.817126 -56.899154 5.947980
-8.197650 -67.305576 5.819731
80.952036 -3.574493 5.082660
69.732526 -34.326481 6.081133
81.131020 -2.166299 5.276938
-66.692335 -8.930699 5.136232
80.314812 -7.609357 5.810654
19.945558 -67.615247 5.453479
-68.007996 0.554643 5.471572
58.996569 -47.523277 5.441606
-58.290413 -31.172949 5.885975
-57.018390 45.490620 5.480571
-67.266405 18.122864 5.574613
57.249816 -49.156247 5.107086
-2.006821 -68.292550 4.577879
-48.715115 56.510349 5.561063
64.946283 -40.971197 5.656607
79.554337 23.441515 4.909739
17.225505 80.255099 5.862515
-68.208347 5.722078 4.505964
42.217008 -59.832132 5.680306
7.253958 80.991800 5.872790
-58.922655 -30.020839 4.416959
68.572824 48.331740 4.680978
11.347776 -68.649556 4.874469
-44.448753 60.819295 6.335993
-25.604747 73.675551 4.713047
21.447296 79.526206 5.803965
-59.358994 41.425823 5.687205
40.311774 73.044884 5.747658
81.469885 10.179505 4.333242
-44.118440 61.129009 5.680223
74.311074 -26.086607 4.663596
68.946525 47.765489 4.611200
21.331258 79.548429 6.175960
