48.000106 -56.382470 -14.639267
58.660775 -47.840676 -44.991207
54.692255 -51.398937 -14.593178
49.326480 -55.488748 -35.499376
50.492996 -54.681933 -27.514033
51.849703 -53.655469 -42.455972
53.996624 -51.987791 -29.711905
52.067117 -53.490989 -41.694735
55.350825 -50.841441 -41.887010
54.584870 -51.489834 -19.747017
48.091381 -56.320963 -11.992396
58.364977 -48.120282 -30.506624
58.795639 -47.713199 -33.533887
48.605234 -55.974728 -7.944749
48.784743 -55.853775 -45.196113
50.824792 -54.430905 -20.263781
51.825583 -53.673720 -39.464893
48.587774 -55.986486 -51.391755
51.237024 -54.119013 -23.568316
58.425380 -48.063181 -43.301583
49.371288 -55.458559 -26.845865
54.972182 -51.161973 -50.110471
58.018479 -48.447803 -42.551712
48.895082 -55.779426 -34.920925
47.688002 -56.592757 -14.691481
55.428426 -50.775761 -49.879766
57.360650 -49.069611 -4.009623
58.431813 -48.057104 -40.731336
51.431149 -53.972150 -4.757842
51.182597 -54.160197 -30.204468
49.486287 -55.381069 -28.501511
57.843844 -48.612879 -18.931519
48.693057 -55.915551 -43.351662
54.176947 -51.835141 -24.147027
49.634805 -55.281003 -34.172575
58.723655 -47.781235 -33.918793
51.392541 -54.001355 -13.422568
48.135740 -56.291075 -7.516344
49.434101 -55.416231 -21.784614
58.587626 -47.909825 -33.549306
48.981501 -55.721194 -44.606735
57.738183 -48.712743 -25.158805
57.347569 -49.081979 -6.752972
54.529505 -51.536702 -25.721459
55.896485 -50.379540 -37.715439
58.316350 -48.166251 -41.128880
54.208517 -51.808417 -16.338642
57.253355 -49.171034 -17.510882
57.422841 -49.010829 -20.971579
52.727919 -52.991032 -36.257208
49.476606 -55.387592 -24.013350
48.700320 -55.910659 -38.308827
48.680784 -55.923821 -43.708197
57.473865 -48.962598 -18.782864
47.608548 -56.646294 -9.363104
51.360449 -54.025633 -6.500890
48.843859 -55.813935 -41.971125
51.062931 -54.250728 -24.705676
52.039173 -53.512131 -34.241948
54.066674 -51.928489 -28.810537
55.300289 -50.884229 -48.286529
51.540671 -53.889291 -12.121699
54.870687 -51.247884 -16.542566
49.062101 -55.666885 -32.645560
52.970663 -52.807386 -36.621170
55.618488 -50.614863 -35.402569
55.747396 -50.505739 -31.785038
51.372733 -54.016344 -18.203456
57.511047 -48.927453 -12.094119
57.891497 -48.567834 -53.143997
54.398773 -51.647374 -33.178041
49.119141 -55.628459 -31.749858
52.704486 -53.008761 -44.919758
51.494751 -53.924029 -21.118744
51.115720 -54.210793 -53.425255
58.236312 -48.241891 -44.118052
51.170802 -54.169120 -25.047073
48.012991 -56.373784 -24.510496
52.109528 -53.458903 -48.381997
47.637969 -56.626473 -12.944535
51.555763 -53.877858 -16.663418
48.642719 -55.949472 -41.812208
48.362611 -56.138207 -17.448637
54.340583 -51.696624 -29.637418
49.341371 -55.478720 -41.568501
51.210402 -54.139163 -12.950867
52.425141 -53.220115 -38.928354
47.369807 -56.807166 -28.635969
49.705279 -55.233506 -17.807729
49.647342 -55.272547 -21.705635
56.205757 -50.117738 -28.359436
48.663534 -55.935449 -42.327680
55.811891 -50.451143 -52.070595
57.625708 -48.819065 -3.937302
52.127103 -53.445603 -36.773114
57.951349 -48.511256 -6.159353
49.260979 -55.532883 -39.836012
51.423567 -53.977881 -15.759436
58.914297 -47.601035 -41.820819
48.709661 -55.904365 -46.781541
47.852270 -56.482077 -13.215060
52.369489 -53.262211 -37.760913
49.513102 -55.363006 -52.389329
58.223956 -48.253574 -44.631635
48.106077 -56.311066 -46.478923
52.688937 -53.020522 -24.276453
55.124753 -51.032814 -41.087935
54.175487 -51.836383 -23.352353
47.639329 -56.625561 -7.526151
47.330507 -56.833637 -32.807852
54.791884 -51.314594 -20.410909
59.024561 -47.496808 -43.105915
52.165940 -53.416224 -44.253818
55.914315 -50.364444 -42.911281
54.628683 -51.452748 -14.245748
52.006817 -53.536614 -37.579333
48.669717 -55.931277 -36.738309
56.273460 -50.060419 -38.903892
54.643816 -51.439933 -19.492243
57.027686 -49.384352 -17.547895
52.564669 -53.114545 -37.107318
51.378899 -54.011674 -55.533556
52.536854 -53.135589 -38.986738
54.265462 -51.760211 -25.907610
58.516042 -47.977484 -44.649549
48.882163 -55.788132 -31.857932
48.647322 -55.946365 -41.573856
51.831273 -53.669423 -10.386478
49.209620 -55.567486 -34.173360
48.427273 -56.094639 -5.406237
53.931877 -52.042599 -23.625619
48.849998 -55.809806 -41.473154
55.551197 -50.671823 -40.438453
57.820976 -48.634497 -12.136833
57.476037 -48.960542 -18.922420
55.357593 -50.835716 -45.298080
58.059827 -48.408720 -44.095911
55.522028 -50.696517 -47.004902
48.344923 -56.150120 -21.362093
49.342384 -55.478035 -34.631653
52.642743 -53.055473 -39.701347
58.440113 -48.049253 -45.152478
57.779605 -48.673596 -4.606316
57.279745 -49.146089 -24.981964
54.176252 -51.835734 -18.629587
54.674530 -51.413932 -23.246765
55.187154 -50.980002 -43.674017
48.942231 -55.747650 -33.119872
48.582735 -55.989887 -7.430247
49.079786 -55.654974 -43.683498
51.374456 -54.015036 -11.639384
48.296837 -56.182524 -17.573034
55.714885 -50.533269 -36.473565
54.431597 -51.619585 -18.161017
48.490749 -56.051871 -14.588463
52.698953 -53.012951 -32.413229
48.375573 -56.129476 -26.542499
51.259325 -54.102149 -17.182353
55.963537 -50.322782 -31.996873
52.097126 -53.468286 -15.859015
50.730835 -54.501996 -38.133092
57.560674 -48.880545 -25.249153
54.833522 -51.279350 -12.296472
54.416137 -51.632671 -22.741889
52.835554 -52.909600 -40.757318
51.981769 -53.555558 -15.298813
51.101290 -54.221709 -25.303089
54.143113 -51.863788 -39.549343
50.841283 -54.418434 -30.638227
54.865578 -51.252210 -43.942990
51.260084 -54.101573 -24.724313
56.088140 -50.217297 -43.683470
47.395660 -56.789739 -29.643873
57.069956 -49.344393 -14.967749
54.610046 -51.468525 -16.235098
52.086184 -53.476564 -39.863054
51.029917 -54.275711 -22.886336
48.224360 -56.231365 -8.572864
55.160397 -51.002642 -37.498348
58.629001 -47.870705 -47.418182
51.391295 -54.002304 -23.212163
52.415096 -53.227709 -36.703825
50.947390 -54.338149 -7.407875
54.754123 -51.346556 -7.702527
55.521599 -50.696879 -37.972874
48.566344 -56.000936 -15.776397
57.853304 -48.603930 -46.970377
54.707776 -51.385793 -12.738095
48.173353 -56.265737 -11.462805
49.085651 -55.651020 -32.050351
53.039260 -52.755484 -31.062376
48.608998 -55.972188 -41.009906
52.637724 -53.059281 -36.674434
57.217996 -49.204456 -4.012860
54.808872 -51.300214 -26.003693
54.979394 -51.155861 -4.899205
54.905895 -51.218081 -45.172909
55.496648 -50.718000 -38.486285
58.447841 -48.041949 -30.029824
51.570097 -53.867027 -15.345769
54.644033 -51.439752 -18.948070
57.543135 -48.897120 -12.895198
50.942240 -54.342041 -5.078765
59.096348 -47.428951 -23.746573
57.419271 -49.014203 -25.021098
47.943406 -56.420662 -31.632474
57.370264 -49.060524 -11.162001
51.535535 -53.893173 -15.629420
59.134727 -47.392675 -24.311195
58.321461 -48.161411 -41.021814
51.776848 -53.710594 -39.931354
54.668843 -51.418750 -13.517827
57.807197 -48.647516 -2.777484
57.562497 -48.878814 -27.602759
54.630745 -51.451006 -21.336739
52.499604 -53.163774 -31.491293
49.202976 -55.571963 -38.644593
48.070164 -56.335259 -21.203710
49.110922 -55.633992 -27.110157
52.967047 -52.810117 -32.291554
52.131403 -53.442348 -32.931758
54.713860 -51.380641 -21.640961
57.563285 -48.878071 -52.036521
49.003891 -55.706107 -39.424554
52.573400 -53.107942 -39.499407
57.869829 -48.588320 -18.055215
55.847640 -50.420882 -27.000435
52.638776 -53.058481 -48.005431
59.099099 -47.426349 -38.727955
53.899870 -52.069694 -21.119610
47.857347 -56.478656 -28.929556
55.474386 -50.736844 -33.830940
55.648451 -50.589497 -33.640632
50.780819 -54.464176 -24.847969
47.738629 -56.558652 -25.122060
52.033796 -53.516194 -44.340471
57.146669 -49.271877 -11.626650
47.966941 -56.404812 -28.378105
57.791514 -48.662341 -20.671311
52.314435 -53.303873 -44.006276
55.331966 -50.857411 -9.523564
55.624536 -50.609744 -36.458741
52.248675 -53.353617 -40.704133
54.450508 -51.603576 -16.860030
52.444585 -53.205398 -41.306536
51.770920 -53.715080 -13.438621
54.682132 -51.407493 -21.010561
51.960023 -53.572006 -45.108296
47.543075 -56.690408 -13.334836
58.305817 -48.176201 -9.238645
54.274762 -51.752341 -18.410572
56.204994 -50.118370 -39.275167
55.103249 -51.051017 -41.464714
48.653883 -55.941944 -14.903868
52.411077 -53.230755 -39.790797
55.742778 -50.509657 -43.714732
56.095397 -50.211150 -38.588114
52.327168 -53.294237 -41.159212
53.101386 -52.708475 -35.704129
51.726988 -53.748324 -22.051482
51.187176 -54.156738 -23.049698
47.612603 -56.643567 -21.612121
57.312760 -49.114882 -23.881098
58.033294 -48.433790 -46.602156
55.334127 -50.855577 -51.629674
47.912643 -56.441394 -11.461873
51.641129 -53.813279 -8.241029
53.939971 -52.035751 -22.480342
53.209934 -52.626356 -43.322432
54.201069 -51.814726 -15.836395
58.628211 -47.871450 -39.070962
51.267554 -54.095922 -12.822940
52.671482 -53.033738 -35.727307
52.620881 -53.072016 -36.150224
57.726957 -48.723367 -20.511872
49.266074 -55.529447 -38.752240
49.077916 -55.656234 -33.928031
47.787534 -56.525696 -24.838508
49.223846 -55.557903 -39.995682
55.133699 -51.025247 -48.853738
54.333125 -51.702932 -9.911434
54.103779 -51.897082 -36.472822
55.697460 -50.548007 -39.726129
58.378319 -48.107663 -42.167757
54.609489 -51.469000 -6.276414
55.583794 -50.644233 -34.720055
55.351424 -50.840934 -39.771462
55.695514 -50.549661 -41.915633
57.450614 -48.984573 -20.772328
48.849516 -55.810131 -46.061004
58.985217 -47.533991 -33.198671
50.975065 -54.317211 -11.056153
48.362372 -56.138369 -49.036908
52.520055 -53.148307 -44.426380
49.199921 -55.574024 -40.576984
47.932565 -56.427973 -7.328284
57.728596 -48.721808 -10.398793
48.206943 -56.243095 -12.122306
54.903603 -51.220018 -11.577688
57.403751 -49.028867 -13.636574
47.862581 -56.475126 -17.411857
55.755279 -50.499073 -47.445573
55.430350 -50.774127 -34.580600
51.143564 -54.189721 -7.966072
48.181165 -56.260469 -18.168554
51.345175 -54.037194 -19.292732
49.134335 -55.618219 -44.145359
47.489214 -56.726705 -18.724476
54.919842 -51.206275 -8.694324
52.612110 -53.078648 -48.009832
47.992913 -56.387312 -26.383326
47.690028 -56.591391 -17.116705
55.013147 -51.127294 -40.556246
49.026677 -55.690754 -48.432982
52.608695 -53.081243 -28.223750
58.762155 -47.744853 -32.863156
57.843365 -48.613326 -5.740075
51.841334 -53.661810 -38.372457
51.927471 -53.596638 -14.492640
48.110925 -56.307796 -18.616305
54.333308 -51.702781 -28.167655
58.491699 -48.000488 -40.640505
52.245142 -53.356292 -29.249736
52.755177 -52.970411 -40.034542
48.541135 -56.017916 -11.975412
51.045877 -54.263638 -20.799252
58.265872 -48.213950 -44.539405
57.746913 -48.704497 -46.664656
55.756269 -50.498234 -33.155055
55.437734 -50.767872 -48.306112
58.674551 -47.827658 -47.379719
57.361974 -49.068371 -25.172104
58.257492 -48.221878 -36.600207
55.541745 -50.679830 -46.556953
47.501451 -56.718456 -24.389521
52.862566 -52.889166 -44.904893
52.727043 -52.991693 -34.800416
55.783423 -50.475244 -36.949421
54.715729 -51.379055 -10.856066
51.787291 -53.702695 -47.593829
47.642195 -56.623633 -17.832346
58.780092 -47.727885 -44.625068
57.459156 -48.976498 -19.037640
52.292794 -53.320241 -41.801899
55.393330 -50.805463 -42.002593
52.528328 -53.142043 -8.871699
54.404033 -51.642911 -20.099144
52.885985 -52.871449 -41.146324
51.800874 -53.692423 -12.348487
47.533289 -56.697010 -32.763762
58.855594 -47.656517 -32.003241
58.613981 -47.884911 -36.462208
58.398493 -48.088597 -38.372663
58.170703 -48.303919 -20.021869
48.731815 -55.889430 -36.216231
57.644316 -48.801485 -23.379380
54.635572 -51.446905 -12.971262
51.254737 -54.105618 -35.929393
52.509025 -53.156641 -32.039456
55.366561 -50.828122 -48.377137
55.604567 -50.626648 -33.787855
48.402352 -56.111428 -3.075434
57.993897 -48.471040 -46.979929
47.615591 -56.641551 -22.571427
54.199334 -51.816195 -16.244258
52.783157 -52.949244 -41.405647
51.642370 -53.812342 -19.025881
55.820287 -50.444044 -45.777523
49.616414 -55.293388 -40.147211
52.889187 -52.869028 -53.810299
50.964904 -54.324902 -29.049194
57.492563 -48.944926 -24.479895
57.259146 -49.165563 -9.727333
57.279836 -49.146004 -16.626201
52.301694 -53.313504 -34.682662
52.418638 -53.225029 -28.464429
58.435244 -48.053859 -56.228850
47.837579 -56.491976 -18.164498
58.886363 -47.627442 -42.677150
54.878155 -51.241566 -20.102968
48.005236 -56.379013 -52.277670
58.364400 -48.120826 -39.826807
58.445403 -48.044253 -31.689912
52.092707 -53.471628 -18.569204
54.883220 -51.237277 -48.772273
52.364456 -53.266030 -38.563618
57.830172 -48.625800 -14.863612
52.418380 -53.225227 -36.337663
54.598768 -51.478069 -17.799024
47.752374 -56.549380 -36.496614
55.863485 -50.407474 -36.771507
54.505864 -51.556708 -13.902787
47.834472 -56.494072 -21.327435
49.352082 -55.471490 -45.846688
48.635112 -55.954596 -15.083787
59.150749 -47.377534 -41.077006
58.535735 -47.958872 -50.966300
52.730588 -52.989008 -41.226714
54.018364 -51.969381 -9.341101
57.357563 -49.072534 -16.382978
51.778851 -53.709087 -11.658936
55.401092 -50.798891 -37.747985
56.030230 -50.266316 -35.397751
58.067352 -48.401610 -48.790215
49.557720 -55.332933 -42.015604
57.579489 -48.862757 -7.001799
47.760820 -56.543696 -25.380748
52.815787 -52.924556 -35.664935
55.046784 -51.098814 -15.466095
59.104364 -47.421370 -35.141863
47.850629 -56.483177 -24.124587
52.304570 -53.311333 -49.526587
55.738084 -50.513625 -35.340462
57.567895 -48.873717 -23.599973
52.368936 -53.262633 -35.394175
55.677045 -50.565299 -28.733223
55.080636 -51.070162 -42.410633
51.005219 -54.294397 -28.393655
55.120981 -51.036006 -51.383152
57.339645 -49.089468 -32.122969
52.712880 -53.002413 -30.935523
57.438799 -48.995750 -14.320140
47.233611 -56.898929 -21.303454
50.968243 -54.322369 -23.704423
51.017597 -54.285031 -32.406304
48.048905 -56.349586 -27.734140
48.745041 -55.880529 -42.814602
59.104918 -47.420855 -26.338782
54.371207 -51.670701 -28.752155
54.437902 -51.614251 -3.824758
57.651792 -48.794413 -22.581111
51.808171 -53.686904 -47.114093
57.295468 -49.131226 -15.983260
51.153978 -54.181852 -16.551045
47.870808 -56.469586 -10.126594
49.187863 -55.582149 -37.250423
54.126024 -51.878248 -23.943473
55.651064 -50.587287 -51.570647
48.392275 -56.118224 -49.548019
51.530961 -53.896639 -10.936232
52.802461 -52.934636 -40.506187
47.445342 -56.756267 -18.103468
57.622458 -48.822138 -6.482135
58.221088 -48.256287 -38.616906
47.908132 -56.444438 -49.928805
51.864736 -53.644102 -43.946024
59.188268 -47.342064 -37.014976
52.131363 -53.442376 -12.247511
55.614782 -50.618007 -39.273694
50.891817 -54.380195 -39.445756
52.613003 -53.077968 -48.812373
51.503404 -53.917478 -4.072167
54.431647 -51.619539 -18.179449
55.415040 -50.787085 -43.913151
55.332317 -50.857111 -50.104756
58.391842 -48.094881 -39.050242
54.080688 -51.916633 -24.707212
56.131625 -50.180484 -48.657815
51.833776 -53.667525 -51.261373
48.004791 -56.379305 -13.129665
52.565392 -53.113995 -36.192929
54.957885 -51.174071 -47.999449
51.987649 -53.551112 -4.952699
51.514540 -53.909059 -23.380405
55.216150 -50.955445 -5.407857
47.551880 -56.684489 -21.628707
57.193602 -49.227511 -22.333958
54.419390 -51.629915 -15.843530
58.102918 -48.367986 -52.617865
52.474818 -53.182531 -45.240206
58.963506 -47.554524 -51.377635
55.723923 -50.525612 -33.011863
48.440339 -56.085831 -44.882284
51.775721 -53.711444 -20.521134
48.877173 -55.791497 -12.787242
50.951444 -54.335080 -10.346168
50.950484 -54.335810 -13.700095
54.183143 -51.829904 -26.002282
52.525749 -53.143997 -39.097165
57.943084 -48.519070 -17.760738
50.806676 -54.444603 -37.101567
47.637182 -56.627000 -33.417950
48.985907 -55.718225 -37.873568
52.778801 -52.952542 -41.668716
58.140296 -48.332656 -13.818676
48.350813 -56.146161 -23.232013
58.399369 -48.087762 -42.034212
58.148718 -48.324693 -15.989974
47.646578 -56.620676 -29.943189
50.695073 -54.529045 -15.733447
48.354104 -56.143942 -41.537853
54.795763 -51.311302 -22.160535
58.316880 -48.165738 -40.306988
48.235933 -56.223560 -20.882187
51.523975 -53.901918 -8.342282
48.004873 -56.379253 -52.726689
47.662439 -56.609985 -8.194600
51.964025 -53.568983 -47.096169
58.054847 -48.413420 -38.917628
58.763408 -47.743655 -41.613327
49.138279 -55.615556 -6.896731
51.681750 -53.782551 -16.545615
55.738590 -50.513205 -40.837980
50.902303 -54.372262 -18.266446
49.287449 -55.515048 -36.648033
51.799173 -53.693700 -14.013784
54.134356 -51.871204 -10.351215
54.682989 -51.406775 -22.871974
54.045047 -51.946796 -16.262878
49.448732 -55.406368 -47.278464
54.776426 -51.327683 -17.811076
58.605059 -47.893331 -38.031425
58.234285 -48.243819 -11.588755
55.466016 -50.743930 -33.642621
49.279912 -55.520124 -28.338883
52.372562 -53.259892 -42.406836
51.966177 -53.567355 -39.595583
47.933781 -56.427156 -11.103578
52.488167 -53.172422 -25.976048
57.063787 -49.350228 -20.110556
57.121897 -49.295299 -22.391501
51.324327 -54.052967 -15.490730
57.397540 -49.034739 -4.959563
49.434908 -55.415691 -20.228077
52.283663 -53.327146 -47.254156
58.282390 -48.198347 -9.815152
51.443068 -53.963129 -18.933803
58.153849 -48.319843 -19.790661
50.852119 -54.410228 -23.765075
48.341897 -56.152169 -6.165732
58.006549 -48.459084 -2.731168
52.648664 -53.050997 -46.415491
47.885620 -56.459611 -7.419400
49.431950 -55.417677 -31.430598
59.226822 -47.305626 -40.908536
54.618114 -51.461684 -19.718762
51.063507 -54.250297 -5.172442
53.855400 -52.107342 -21.648869
57.664093 -48.782786 -15.244146
57.676188 -48.771353 -7.515454
47.736089 -56.560359 -33.124367
48.118773 -56.302505 -9.901913
47.876285 -56.465895 -31.832330
52.011990 -53.532696 -13.071408
55.943098 -50.340075 -35.385652
55.499119 -50.715905 -46.347579
47.573791 -56.669717 -17.854155
47.062044 -57.014531 -36.544175
57.766360 -48.686123 -23.313311
54.422016 -51.627684 -33.797907
57.665761 -48.781212 -12.843753
52.629646 -53.065382 -43.642458
49.707197 -55.232222 -43.544957
54.821576 -51.289465 -19.796464
47.089716 -56.995894 -34.286173
47.749759 -56.551145 -10.508075
54.869137 -51.249196 -17.512688
55.607105 -50.624499 -50.587485
56.302697 -50.035675 -30.774494
55.508695 -50.707805 -34.722953
49.601755 -55.303263 -34.568067
51.233105 -54.121984 -14.051539
56.007839 -50.285272 -37.609303
47.733875 -56.561857 -12.912483
51.500222 -53.919890 -16.860805
55.737007 -50.514536 -37.532155
55.517969 -50.699950 -45.502471
54.022672 -51.965743 -25.013233
55.192988 -50.975050 -3.466297
57.744228 -48.707036 -23.286248
49.505442 -55.368167 -18.611719
48.258234 -56.208532 -51.692449
57.250846 -49.173404 -36.877148
57.562494 -48.878824 -14.153743
51.057097 -54.255146 -25.855334
48.022303 -56.367508 -25.073610
56.053281 -50.246805 -38.810908
57.554719 -48.886169 -25.308905
52.280433 -53.329587 -44.414349
54.478919 -51.579519 -3.425396
54.422262 -51.627483 -21.144875
48.936668 -55.751405 -42.129736
59.095469 -47.429785 -34.980663
54.437481 -51.614601 -23.538060
57.903897 -48.556107 -54.150332
57.973657 -48.490177 -17.568799
54.526664 -51.539111 -32.664607
58.932328 -47.583984 -31.780440
54.853181 -51.262701 -21.964448
49.689598 -55.244081 -21.874947
54.236877 -51.784409 -21.418676
55.771582 -50.485271 -42.294720
51.500377 -53.919775 -21.287069
48.663254 -55.935633 -40.632230
57.396141 -49.036069 -17.728221
51.388920 -54.004100 -12.724304
49.627698 -55.285790 -33.773850
57.890452 -48.568820 -14.210422
49.480223 -55.385154 -46.144439
55.579197 -50.648122 -49.648675
57.518056 -48.920826 -22.585875
56.916780 -49.489177 -15.471860
55.682270 -50.560869 -44.095313
52.570320 -53.110279 -45.432425
53.999977 -51.984951 -25.031063
57.492055 -48.945404 -18.435881
52.737515 -52.983776 -31.401883
51.178729 -54.163123 -13.499806
58.844169 -47.667329 -39.353632
58.119142 -48.352654 -11.873227
51.435893 -53.968554 -11.902703
58.523747 -47.970202 -9.753528
57.770369 -48.682327 -9.404826
48.824742 -55.826820 -8.827519
58.252832 -48.226277 -55.937636
47.775678 -56.533688 -26.282584
55.905664 -50.371769 -34.692859
55.128556 -51.029598 -4.441725
49.817639 -55.157803 -29.761952
52.322876 -53.297483 -42.673919
47.968302 -56.403898 -7.933014
55.516349 -50.701322 -36.028968
52.710547 -53.004184 -32.283476
58.244360 -48.234286 -37.085147
52.074005 -53.485777 -33.494938
58.255193 -48.224047 -10.027292
53.244895 -52.599901 -38.146024
52.038272 -53.512812 -44.638705
51.179550 -54.162501 -10.556470
51.555965 -53.877717 -13.274422
49.609562 -55.298007 -46.681866
57.947395 -48.514993 -19.401797
52.599299 -53.088350 -34.045984
51.554408 -53.878890 -48.217005
51.940082 -53.587100 -17.244301
55.214110 -50.957178 -47.703363
55.797614 -50.463234 -38.175951
54.625367 -51.455547 -13.090978
58.442232 -48.047246 -47.162710
55.327105 -50.861526 -37.956741
57.308801 -49.118622 -13.657602
54.921522 -51.204853 -19.743644
58.142952 -48.330147 -41.971801
58.729909 -47.775324 -40.392333
51.932361 -53.592938 -17.984676
56.386730 -49.964540 -40.148358
51.919017 -53.603032 -47.475436
49.156011 -55.603603 -42.212951
51.576696 -53.862029 -15.880318
51.643372 -53.811581 -18.012281
47.677061 -56.600136 -18.381587
48.808716 -55.837621 -39.592503
53.045270 -52.750936 -39.011990
55.911370 -50.366930 -40.318963
49.012087 -55.700590 -38.471830
51.283708 -54.083695 -22.664294
57.251297 -49.172976 -17.823418
58.854005 -47.658022 -40.104038
51.674959 -53.787678 -47.397169
49.692481 -55.242130 -47.666381
55.135200 -51.023978 -8.936702
57.204902 -49.216835 -21.392692
51.354328 -54.030266 -17.602695
49.450211 -55.405378 -35.292946
55.583489 -50.644494 -37.742603
54.151189 -51.856949 -28.352264
59.280375 -47.255007 -33.143762
54.045624 -51.946313 -13.522050
56.063753 -50.237937 -24.469596
55.571266 -50.654835 -38.889749
55.527100 -50.692222 -38.516818
58.094625 -48.375829 -20.549960
54.824435 -51.287034 -6.112471
57.468340 -48.967814 -30.898356
51.687365 -53.778305 -20.603644
55.711824 -50.535856 -44.117716
55.591035 -50.638106 -37.716236
52.612333 -53.078483 -39.604110
55.993830 -50.297132 -29.044028
58.935178 -47.581297 -45.952023
51.233433 -54.121732 -5.306337
59.077765 -47.446509 -45.078108
57.606158 -48.837550 -30.681182
55.354917 -50.837974 -40.235162
55.388352 -50.809668 -48.221695
51.652500 -53.804679 -10.506161
49.424093 -55.422976 -35.288060
55.710235 -50.537199 -33.763606
54.813284 -51.296476 -12.452111
49.427834 -55.420457 -34.452957
49.296004 -55.509281 -31.945402
56.196400 -50.125651 -37.754739
48.186326 -56.256985 -5.615736
58.803294 -47.705957 -37.069243
48.212569 -56.239304 -17.321663
55.478559 -50.733312 -39.744949
57.852218 -48.604961 -15.249963
57.948376 -48.514073 -0.516882
49.563758 -55.328871 -29.448928
58.796359 -47.712520 -49.640020
55.442434 -50.763897 -58.803875
51.222881 -54.129717 -11.695746
48.918306 -55.763778 -46.187694
51.164495 -54.173893 -26.739545
52.526500 -53.143421 -25.041714
51.494642 -53.924111 -4.577527
58.682243 -47.820383 -43.455751
59.154146 -47.374316 -44.033285
52.615877 -53.075807 -44.752699
48.924034 -55.759918 -41.278190
57.697184 -48.751504 -17.018336
56.046190 -50.252810 -33.791902
52.077979 -53.482764 -47.805389
58.171356 -48.303295 -47.297197
52.871456 -52.882439 -41.673429
47.752893 -56.549036 -27.950948
51.990769 -53.548747 -12.056431
52.102761 -53.464013 -7.844061
52.646825 -53.052395 -37.188911
57.537099 -48.902820 -24.740388
54.378983 -51.664125 -3.945217
55.952689 -50.331960 -35.384983
48.675903 -55.927115 -44.323827
52.811151 -52.928066 -43.957298
52.060888 -53.495703 -32.110647
54.273705 -51.753238 -11.928891
48.934936 -55.752572 -37.898634
58.601455 -47.896749 -24.382401
57.243112 -49.180720 -23.973386
52.115037 -53.454732 -48.824819
47.597622 -56.653661 -11.089792
57.648558 -48.797467 -17.070829
55.747966 -50.505262 -34.572031
58.946703 -47.570405 -42.086452
58.926122 -47.589857 -40.425661
47.745278 -56.554168 -19.888725
57.124299 -49.293025 -31.141499
50.731840 -54.501230 -7.982142
58.503711 -47.989141 -31.878379
51.154030 -54.181813 -23.586008
55.058090 -51.089251 -12.624874
54.268619 -51.757549 -28.068014
59.143387 -47.384491 -19.988583
58.023849 -48.442732 -14.952456
54.742721 -51.356211 -24.966459
58.775030 -47.732676 -28.655422
55.606950 -50.624628 -44.704150
55.704971 -50.541653 -45.510109
57.946364 -48.515970 -6.911904
52.591130 -53.094531 -49.139795
58.298635 -48.182987 -37.475051
54.585766 -51.489067 -16.006363
55.053272 -51.093323 -46.916868
48.535536 -56.021689 -15.551026
58.092735 -48.377617 -14.128370
55.175858 -50.989552 -48.519090
51.608309 -53.838107 -21.288354
55.560773 -50.663722 -28.401780
57.794698 -48.659329 -15.175432
57.572497 -48.869365 -5.751189
54.213620 -51.804096 -23.999887
47.664436 -56.608638 -15.142649
55.872675 -50.399690 -40.095309
49.745527 -55.206395 -40.789514
52.080049 -53.481204 -39.634148
49.814652 -55.159816 -38.988695
51.608068 -53.838291 -10.944202
54.054353 -51.938921 -11.586281
49.001688 -55.707594 -41.915615
59.173099 -47.356409 -23.304069
58.841913 -47.669458 -30.750224
50.930064 -54.351261 -18.498319
51.159583 -54.177609 -11.135323
51.346376 -54.036283 -31.743279
49.598342 -55.305566 -39.659464
57.135675 -49.282269 -25.488736
49.247518 -55.541948 -33.332588
58.361830 -48.123250 -14.468224
55.050719 -51.095488 -36.023409
52.459899 -53.193820 -43.945827
48.108662 -56.309319 -13.684908
51.138766 -54.193356 -27.234520
48.725685 -55.893566 -43.932288
59.219766 -47.312293 -32.781202
54.474222 -51.583493 -20.711459
49.277666 -55.521637 -41.330600
58.581008 -47.916078 -27.189613
54.349654 -51.688947 -13.830535
57.981539 -48.482721 -7.339652
52.632854 -53.062963 -48.908391
52.602629 -53.085828 -43.917395
58.521292 -47.972521 -40.710310
58.416917 -48.071179 -38.535280
58.337764 -48.145993 -36.192583
54.335426 -51.700983 -22.619140
52.022053 -53.525081 -11.333852
49.390548 -55.445573 -32.466445
48.209864 -56.241131 -42.875992
54.494817 -51.566070 -27.453309
55.303243 -50.881723 -44.864759
58.910002 -47.605092 -35.011178
47.928090 -56.430992 -7.496703
58.043761 -48.423903 -44.017903
58.007149 -48.458513 -12.899668
47.196653 -56.923833 -25.097251
47.640903 -56.624496 -21.169478
54.599102 -51.477784 -12.564842
57.705050 -48.744068 -16.131142
47.735859 -56.560515 -24.190413
58.562054 -47.933992 -51.841199
55.808050 -50.454394 -40.287547
47.822460 -56.502160 -17.384865
55.588605 -50.640160 -40.306017
54.119999 -51.883349 -33.851837
54.889265 -51.232165 -11.003677
47.640438 -56.624808 -13.776902
52.463279 -53.191263 -41.136107
51.895106 -53.621128 -6.828290
52.688113 -53.021151 -48.292656
48.654342 -55.941640 -9.727578
48.054846 -56.345583 -20.289376
58.966148 -47.552021 -30.337776
57.444405 -48.990437 -10.624928
51.141829 -54.191033 -20.420349
49.536462 -55.347257 -44.961576
58.282531 -48.198208 -14.345562
57.692846 -48.755604 -15.964048
54.892140 -51.229728 -41.807862
58.531950 -47.962447 -39.299338
54.556504 -51.513849 -19.859152
54.964527 -51.168452 -37.244915
58.349715 -48.134700 -39.490381
48.055255 -56.345302 -17.330683
49.340808 -55.479094 -25.843775
52.070216 -53.488640 -40.235787
57.012879 -49.398341 -23.983000
54.258241 -51.766325 -25.071001
48.042559 -56.353864 -23.035419
49.864109 -55.126491 -36.479008
48.531404 -56.024483 -37.622384
58.017493 -48.448736 -41.679159
51.886061 -53.627964 -41.827043
53.136315 -52.682049 -30.018650
49.009037 -55.702645 -41.101620
48.870789 -55.795797 -45.322746
58.126212 -48.345964 -50.012444
54.399406 -51.646835 -25.693807
48.485199 -56.055606 -46.964956
47.918923 -56.437163 -17.590594
59.118986 -47.407554 -36.592531
58.890203 -47.623807 -41.325131
47.702230 -56.583177 -23.712454
57.073191 -49.341337 -18.285973
58.790868 -47.717703 -35.332859
48.110862 -56.307839 -18.438341
52.508674 -53.156913 -49.977836
48.561897 -56.003926 -16.914706
51.945382 -53.583083 -42.138481
55.205004 -50.964886 -10.987991
49.107892 -55.636028 -38.890160
52.439386 -53.209334 -34.717129
49.399034 -55.439855 -37.235676
50.882866 -54.386964 -25.228612
48.027866 -56.363765 -13.954553
52.931851 -52.836742 -32.664569
52.651735 -53.048678 -40.912010
59.225571 -47.306807 -32.595027
57.875316 -48.583129 -21.067412
49.059749 -55.668470 -37.365269
48.173035 -56.265944 -19.063259
58.994072 -47.525620 -41.825359
55.486822 -50.726318 -42.222780
56.084265 -50.220577 -32.067003
49.449463 -55.405879 -41.352015
54.256736 -51.767601 -22.014462
59.182434 -47.347577 -33.141998
50.782338 -54.463021 -24.735967
57.244355 -49.179540 -35.835123
58.985089 -47.534116 -41.898183
54.752808 -51.347678 -16.796703
47.594652 -56.655658 -23.088885
55.569959 -50.655949 -33.631615
51.709873 -53.761271 -10.789341
52.562412 -53.116255 -29.425308
52.576963 -53.105244 -44.567265
57.217944 -49.204507 -27.988594
58.595715 -47.902168 -33.154359
57.371381 -49.059472 -15.384766
51.678169 -53.785255 -46.249411
53.795808 -52.157781 -19.328831
48.926312 -55.758383 -40.435051
54.998198 -51.139948 -10.114904
54.886533 -51.234474 -18.170914
58.432428 -48.056523 -43.853562
57.665931 -48.781048 -17.287763
48.946182 -55.744991 -11.074748
58.155119 -48.318653 -15.433841
48.687470 -55.919311 -50.868116
54.922009 -51.204444 -25.265059
50.852877 -54.409657 -17.520097
51.724210 -53.750424 -3.763445
54.689040 -51.401653 -15.135239
55.693331 -50.551510 -46.571120
57.423351 -49.010352 -24.832185
52.687563 -53.021571 -39.443406
58.577729 -47.919171 -44.944033
55.535998 -50.684691 -32.793005
49.393910 -55.443316 -45.212727
51.026166 -54.278544 -35.963704
54.295259 -51.734991 -27.067216
57.392184 -49.039808 -15.597624
48.182735 -56.259407 -20.007649
48.479571 -56.059403 -48.278722
57.317550 -49.110348 -27.785994
54.105034 -51.896019 -19.033981
57.260488 -49.164298 -25.019244
58.115110 -48.356468 -48.129197
47.763211 -56.542080 -27.051502
52.581172 -53.102059 -40.155820
57.551644 -48.889079 -6.844866
57.511421 -48.927102 -12.153614
58.735303 -47.770230 -26.337904
48.449914 -56.079386 -44.948676
58.802438 -47.706772 -31.770254
57.184871 -49.235775 -25.096190
57.482324 -48.954606 -28.119592
51.125688 -54.203250 -28.752500
51.969970 -53.564485 -12.535550
55.801627 -50.459838 -40.832924
57.810066 -48.644802 -16.925564
52.497670 -53.165235 -35.444671
55.951156 -50.333255 -31.445418
50.916415 -54.361585 -18.091965
58.277200 -48.203250 -50.560884
55.852078 -50.417130 -43.828155
49.603404 -55.302157 -41.559277
54.108030 -51.893489 -24.351919
48.498294 -56.046785 -19.213138
57.791391 -48.662454 -21.189671
58.461736 -48.028810 -50.051522
53.956630 -52.021638 -29.337962
47.771351 -56.536598 -1.544801
48.572931 -55.996493 -51.998916
51.512570 -53.910548 -21.262717
57.602762 -48.840758 -11.356149
51.476552 -53.937793 -6.415532
55.453756 -50.754311 -41.753788
47.327208 -56.835867 -4.816144
57.661984 -48.784779 -14.539542
57.503168 -48.934895 -26.387371
49.416934 -55.427796 -40.725034
57.403063 -49.029518 -9.677306
54.822081 -51.289037 -12.123164
55.452367 -50.755488 -42.038991
51.803649 -53.690322 -19.882790
57.527441 -48.911952 -15.033006
49.172395 -55.592565 -46.091778
52.360067 -53.269351 -42.395781
48.981359 -55.721296 -55.763455
47.654781 -56.615147 -30.254544
54.771908 -51.331507 -13.279052
53.156378 -52.666870 -37.611123
55.739701 -50.512255 -31.512266
55.169821 -50.994661 -38.553027
49.580867 -55.317338 -27.780351
49.560389 -55.331139 -43.899122
53.148635 -52.672729 -45.039037
55.266520 -50.912808 -47.205266
58.346241 -48.137988 -42.488024
52.309229 -53.307803 -40.945184
54.325677 -51.709244 -27.009998
57.723042 -48.727062 -3.824456
55.310673 -50.875432 -45.826799
49.514593 -55.361996 -34.535691
57.827961 -48.627885 -19.495683
49.411139 -55.431706 -43.783347
54.701493 -51.391111 -16.532995
58.110941 -48.360411 -6.727280
49.351937 -55.471595 -36.474013
58.370218 -48.115331 -37.958278
48.755628 -55.873389 -37.586603
48.552606 -56.010190 -43.762200
53.053813 -52.744476 -47.422160
51.929964 -53.594759 -14.779619
48.799129 -55.844081 -14.305387
52.564902 -53.114374 -33.134791
55.159712 -51.003228 -45.288871
58.399508 -48.087644 -47.625705
58.519376 -47.974326 -37.670076
48.980492 -55.721876 -38.303747
48.289263 -56.187633 -6.789442
57.563824 -48.877558 -6.164286
52.434022 -53.213398 -48.307109
58.865643 -47.647017 -49.496621
58.891513 -47.622575 -40.018919
51.071754 -54.244054 -33.627662
58.016681 -48.449506 -24.573234
48.849130 -55.810390 -46.324546
52.616486 -53.075345 -51.220623
55.333876 -50.855796 -46.440813
52.617920 -53.074256 -39.690369
54.713295 -51.381122 -28.435594
50.986422 -54.308616 -22.275781
52.267696 -53.339233 -36.073347
57.760600 -48.691566 -51.320970
55.767337 -50.488864 -38.727123
55.805679 -50.456410 -43.663165
47.691361 -56.590500 -34.355667
51.275933 -54.089584 -22.575908
49.522995 -55.356330 -36.106917
50.730291 -54.502407 -17.018264
55.542620 -50.679093 -37.394485
49.162944 -55.598944 -41.098722
50.948759 -54.337117 -31.688349
51.262469 -54.099763 -9.804484
55.366235 -50.828400 -46.577501
49.032820 -55.686620 -48.133599
58.745355 -47.760730 -35.747080
54.426704 -51.623728 -28.492058
58.042655 -48.424954 -45.610352
52.387405 -53.248665 -44.137514
59.182857 -47.347182 -41.911913
47.690097 -56.591347 -19.038587
51.865821 -53.643281 -11.302219
58.544647 -47.950445 -40.680846
55.703875 -50.542584 -22.201223
52.207984 -53.384409 -32.287415
54.723854 -51.372176 -31.604254
57.892370 -48.567011 -17.307756
51.116300 -54.210362 -16.264017
48.154778 -56.278244 -10.326300
48.035788 -56.358422 -17.793259
52.219835 -53.375441 -35.609628
50.720756 -54.509616 -8.357246
58.769543 -47.737859 -37.215564
58.216091 -48.261011 -7.944700
52.439991 -53.208884 -50.145270
54.746173 -51.353291 -48.949704
55.557667 -50.666353 -5.491862
57.546761 -48.893694 -10.782929
51.023364 -54.280665 -17.495408
49.026620 -55.690799 -28.821080
47.865445 -56.473194 -29.045843
57.250857 -49.173395 -17.093221
56.119300 -50.190919 -38.612731
53.847319 -52.114174 -16.563515
58.652707 -47.848299 -42.525144
54.425275 -51.624930 -14.020196
47.831554 -56.496038 -14.704764
53.134175 -52.683678 -45.796004
54.620428 -51.459734 -28.224576
55.696189 -50.549092 -40.587249
51.391973 -54.001787 -16.235433
58.240086 -48.238335 -50.304703
59.068165 -47.455590 -30.038322
51.995740 -53.544998 -9.824578
58.644460 -47.856100 -34.775866
48.006097 -56.378431 -8.056399
54.459789 -51.595714 -22.457064
57.377266 -49.053914 -18.829130
54.155038 -51.853690 -21.444591
51.170647 -54.169238 -16.592938
55.971608 -50.315940 -39.124158
57.591243 -48.851652 -20.646711
57.451983 -48.983278 -18.886283
57.227939 -49.195057 -24.593460
58.506015 -47.986961 -50.341248
57.845509 -48.611306 -13.375653
48.156541 -56.277054 -43.327610
52.910662 -52.852777 -47.738132
55.369147 -50.825937 -32.658207
55.220832 -50.951486 -9.718382
52.860259 -52.890907 -35.552109
57.478582 -48.958136 -21.922230
48.253327 -56.211837 -7.895008
57.029651 -49.382486 -18.244268
50.933048 -54.349006 -24.961375
47.663723 -56.609123 -10.731068
49.352191 -55.471420 -21.910879
57.782480 -48.670881 -13.189809
55.694735 -50.550326 -34.872884
50.719573 -54.510516 -31.776935
54.083881 -51.913929 -23.080904
52.283078 -53.327591 -41.671230
47.962458 -56.407826 -25.959241
57.522002 -48.917095 -11.984162
47.543785 -56.689935 -28.951450
48.653249 -55.942372 -45.765854
55.525474 -50.693600 -45.856528
56.131401 -50.180681 -42.772275
48.194697 -56.251351 -14.041375
55.323818 -50.864305 -37.344803
52.575638 -53.106246 -44.869780
54.353399 -51.685777 -18.346931
52.456589 -53.196313 -41.753377
55.547930 -50.674590 -45.596365
55.488448 -50.724947 -36.870503
50.717627 -54.511978 -23.585454
58.252219 -48.226868 -20.901646
55.700644 -50.545322 -47.245347
49.431067 -55.418276 -39.092701
52.507316 -53.157943 -39.284278
52.762201 -52.965099 -26.142953
51.188442 -54.155772 -19.288396
54.048852 -51.943584 -21.818958
58.066184 -48.402715 -35.929324
51.470098 -53.942673 -14.257811
52.523075 -53.146017 -41.703970
57.498525 -48.939284 -1.715072
58.826884 -47.683659 -37.919666
56.127413 -50.184056 -48.131213
51.514922 -53.908767 -49.292375
55.778122 -50.479732 -37.640852
47.819923 -56.503875 -27.933364
52.238626 -53.361222 -35.544186
55.678881 -50.563741 -41.478050
48.575413 -55.994814 -10.363676
49.122912 -55.625918 -42.195406
48.118616 -56.302611 -11.790782
47.737898 -56.559140 -31.047633
55.475390 -50.735998 -46.131702
52.049168 -53.504568 -56.206009
58.455095 -48.035091 -51.899141
52.547039 -53.127886 -27.241615
50.842044 -54.417851 -16.206531
55.506437 -50.709719 -39.007047
57.921204 -48.539756 -11.227219
52.794223 -52.940877 -23.433351
57.322061 -49.106090 -29.966858
54.771385 -51.331956 -16.407234
57.674270 -48.773169 -15.840389
58.167360 -48.307071 -40.555861
48.255611 -56.210299 -15.586976
55.444006 -50.762560 -15.536815
58.228344 -48.249437 -39.005670
53.016706 -52.772552 -31.617179
58.030734 -48.436227 -44.003673
54.828445 -51.283643 -25.778044
55.790129 -50.469570 -30.575154
48.812847 -55.834839 -52.044319
51.158293 -54.178576 -18.934247
52.807422 -52.930888 -38.643676
54.566117 -51.505709 -14.512659
47.758802 -56.545058 -27.142947
55.154241 -51.007856 -50.006955
55.496337 -50.718265 -33.644528
55.467436 -50.742734 -41.040199
51.459678 -53.950563 -17.870508
55.422365 -50.780888 -36.812584
57.596757 -48.846434 -15.001165
55.002598 -51.136228 -10.318858
54.775522 -51.328444 -5.929981
53.011184 -52.776722 -27.889778
54.170377 -51.840709 -16.151002
47.669760 -56.605053 -31.539189
49.565179 -55.327911 -33.385874
48.253295 -56.211870 -25.067278
57.610971 -48.833002 -21.453313
58.655516 -47.845649 -42.212945
52.171965 -53.411665 -41.506987
52.260567 -53.344628 -42.639486
51.255535 -54.105013 -19.783865
47.899400 -56.450324 -26.315078
52.792315 -52.942315 -37.243074
48.985814 -55.718285 -40.225519
51.025661 -54.278934 -14.790318
49.899569 -55.102601 -32.578526
57.240056 -49.183599 -33.906252
51.034016 -54.272607 -35.153118
58.586409 -47.910964 -44.537695
55.957219 -50.328127 -46.317400
57.704886 -48.744223 -16.274416
47.854437 -56.480610 -51.181292
54.460567 -51.595061 -12.672964
49.387347 -55.447733 -31.363530
57.962676 -48.500556 -8.844439
58.208750 -48.267951 -34.483766
48.918703 -55.763508 -36.894339
58.583524 -47.913697 -33.711485
51.682046 -53.782322 -16.371479
55.229824 -50.943867 -35.175551
58.347333 -48.136960 -38.253777
48.053743 -56.346324 -6.303898
57.319603 -49.108413 -18.681206
54.696135 -51.395641 -13.057655
47.674403 -56.601918 -27.284837
58.623226 -47.876165 -42.266931
47.608272 -56.646480 -9.524873
51.456709 -53.952812 -18.191701
58.255637 -48.223638 -53.869210
48.076060 -56.331285 -22.281467
58.159538 -48.314460 -38.100655
52.424221 -53.220808 -40.052268
54.398087 -51.647948 -25.660850
52.326751 -53.294554 -47.004654
49.141276 -55.613539 -38.385322
50.917616 -54.360675 -6.657438
58.404844 -48.082601 -47.042289
48.644176 -55.948482 -6.023819
58.409134 -48.078537 -37.373898
52.600119 -53.087727 -41.702478
52.485311 -53.174588 -33.999287
48.118340 -56.302794 -9.523628
51.851694 -53.653972 -48.646173
52.214129 -53.379759 -42.121891
58.303608 -48.178286 -44.720891
47.545767 -56.688593 -17.023838
49.182030 -55.586079 -41.870329
58.599763 -47.898347 -47.847296
55.586105 -50.642275 -31.017862
57.215572 -49.206750 -24.808048
55.689597 -50.554670 -44.214597
48.044139 -56.352797 -11.895050
50.881906 -54.387698 -26.677323
58.641888 -47.858525 -30.427805
55.322064 -50.865794 -40.674084
50.848583 -54.412902 -13.514578
54.385622 -51.658497 -21.314772
57.776858 -48.676198 -23.440892
50.664966 -54.551818 -28.622704
49.328626 -55.487307 -39.091727
50.756655 -54.482452 -20.960764
52.625229 -53.068727 -31.866624
48.896624 -55.778387 -37.533230
55.897919 -50.378316 -41.028424
47.937061 -56.424947 -14.987964
51.696405 -53.771464 -46.802677
58.063141 -48.405591 -55.398701
49.115565 -55.630866 -28.411854
51.586388 -53.854694 -20.435267
51.477238 -53.937280 -14.057424
54.720289 -51.375199 -25.812382
51.606692 -53.839334 -16.783954
55.443325 -50.763141 -38.610040
58.395431 -48.091491 -43.247075
55.638756 -50.597706 -42.255140
54.245463 -51.777147 -7.661204
51.196309 -54.149817 -23.049834
57.503606 -48.934478 -11.238807
52.444753 -53.205280 -41.368279
49.221216 -55.559678 -37.348621
58.334983 -48.148631 -36.356841
58.564399 -47.931768 -42.478207
59.029450 -47.492188 -37.664289
55.559461 -50.664835 -33.442082
49.632830 -55.282325 -25.096591
48.269106 -56.201215 -25.642406
58.655103 -47.846034 -42.084599
54.299080 -51.731756 -21.311460
55.908677 -50.369211 -28.930334
48.147863 -56.282906 -20.138501
49.108539 -55.635599 -46.348074
51.387112 -54.005464 -19.081361
52.460939 -53.193028 -44.153939
47.387181 -56.795454 -21.777798
49.196665 -55.576218 -35.765002
48.716142 -55.899998 -55.522997
52.140638 -53.435364 -43.785189
55.704060 -50.542426 -43.112889
57.632557 -48.812592 -11.329224
47.488859 -56.726940 -37.091439
55.195123 -50.973249 -46.741953
50.781991 -54.463287 -38.757695
49.123946 -55.625214 -44.846763
58.158232 -48.315701 -11.519539
47.840763 -56.489830 -23.662597
48.298695 -56.181270 -11.987115
51.196071 -54.150004 -8.285947
51.131599 -54.198781 -35.036440
54.409295 -51.638467 -29.270238
50.865740 -54.399923 -24.103045
55.447395 -50.759699 -37.762852
53.997902 -51.986711 -35.789162
47.385477 -56.796604 -20.958025
50.772459 -54.470504 -18.065951
57.897373 -48.562283 -23.586428
54.582392 -51.491920 -16.392509
51.875464 -53.635986 -52.802038
52.111400 -53.457480 -10.771345
48.027000 -56.364344 -10.663726
52.760496 -52.966393 -45.739742
56.131657 -50.180455 -33.456357
49.643528 -55.275117 -39.079483
48.395606 -56.115970 -38.915357
54.821310 -51.289683 -17.893299
52.676177 -53.030183 -30.055273
55.435313 -50.769933 -42.725648
48.213891 -56.238413 -10.039430
52.596968 -53.090103 -53.329944
47.760644 -56.543815 -9.371473
51.294606 -54.075456 -29.680632
58.163706 -48.310538 -20.078604
58.567180 -47.929146 -44.790597
54.321578 -51.712714 -18.455402
48.816527 -55.832355 -47.681830
49.170444 -55.593883 -44.271361
55.464611 -50.745125 -33.609122
49.156863 -55.603037 -41.225461
50.751281 -54.486520 -14.160901
47.532160 -56.697766 -19.709583
52.477990 -53.180128 -57.176988
58.561262 -47.934733 -39.859427
52.897524 -52.862720 -49.570865
47.757581 -56.545881 -23.364396
50.882435 -54.387294 -27.380372
49.641361 -55.276580 -25.786908
57.786731 -48.666855 -26.129153
48.031954 -56.361005 -11.396472
54.822428 -51.288738 -53.363753
51.058410 -54.254157 -12.850749
54.366812 -51.674416 -25.503790
55.472951 -50.738063 -37.551850
59.021884 -47.499339 -33.950045
47.578684 -56.666423 -18.364671
47.539169 -56.693046 -16.101609
55.796021 -50.464577 -28.092961
52.675370 -53.030796 -42.424937
58.087912 -48.382169 -15.334801
58.810457 -47.699192 -40.845130
56.059733 -50.241338 -24.764313
55.817502 -50.446402 -28.813040
57.741414 -48.709697 -21.984385
57.388541 -49.043249 -21.675069
49.248361 -55.541388 -33.000738
55.664688 -50.575758 -38.337380
58.210813 -48.265998 -8.502050
55.829156 -50.436534 -32.196386
51.172830 -54.167589 -11.236741
52.196654 -53.392977 -48.468521
49.561037 -55.330699 -31.891197
55.958181 -50.327308 -24.369982
57.440178 -48.994444 -12.009402
51.421398 -53.979519 -11.140943
55.471237 -50.739509 -36.244495
57.989296 -48.475390 -18.036458
47.668105 -56.606171 -9.330945
52.767112 -52.961381 -34.156556
58.092967 -48.377386 -45.535732
57.820855 -48.634604 -25.020017
49.264551 -55.530481 -35.397418
49.351731 -55.471734 -37.992028
58.918066 -47.597472 -48.649555
52.163714 -53.417905 -29.509587
48.805706 -55.839651 -42.413351
49.371996 -55.458084 -44.856747
55.494470 -50.719853 -40.182733
51.620797 -53.828664 -27.120336
52.304950 -53.311046 -42.015123
51.525470 -53.900792 -9.779035
57.853940 -48.603335 -18.750631
52.674983 -53.031082 -50.201684
57.310222 -49.117287 -21.002862
58.496942 -47.995538 -28.811720
58.542176 -47.952781 -41.074262
52.243194 -53.357770 -15.265530
48.856774 -55.805238 -44.256914
56.953467 -49.454497 -18.552143
57.204485 -49.217224 -27.902581
54.336453 -51.700119 -24.560798
48.120732 -56.301191 -15.410123
47.373128 -56.804925 -16.446117
52.859532 -52.891460 -40.607176
58.570255 -47.926242 -41.057217
57.359550 -49.070659 -11.808531
52.431500 -53.215298 -42.566198
55.960720 -50.325157 -34.724619
57.726021 -48.724250 -9.078732
48.459046 -56.073229 -40.731185
58.537046 -47.957639 -47.195733
50.795408 -54.453135 -33.674642
48.976664 -55.724461 -44.715375
48.915123 -55.765922 -38.341891
55.471720 -50.739099 -45.687020
54.217803 -51.800564 -24.016724
48.258466 -56.208379 -12.318311
55.420900 -50.782125 -46.311044
56.091039 -50.214847 -33.662893
58.629823 -47.869935 -43.360364
56.285894 -50.049897 -43.684390
58.773446 -47.734177 -52.725518
55.584120 -50.643959 -37.483925
54.513465 -51.550282 -26.654639
48.422175 -56.098070 -17.707315
55.993365 -50.297523 -18.868062
48.452090 -56.077917 -42.738117
57.690195 -48.758119 -12.594672
56.048827 -50.250574 -20.348146
48.679899 -55.924412 -40.782915
55.642998 -50.594112 -47.045842
55.849627 -50.419196 -36.176550
58.654612 -47.846501 -42.641667
48.664780 -55.934610 -44.173837
57.134629 -49.283258 -16.644019
58.164628 -48.309653 -42.938797
54.317707 -51.715994 -16.395583
47.869980 -56.470139 -12.884487
47.406777 -56.782253 -16.976546
58.557284 -47.938497 -42.888150
57.935213 -48.526508 -19.809199
51.463134 -53.947954 -21.629055
47.733796 -56.561904 -11.730341
49.593228 -55.309009 -46.370169
48.600698 -55.977789 -44.540224
48.461745 -56.071406 -15.820881
57.467865 -48.968263 -13.454201
56.171879 -50.146409 -33.629388
52.093626 -53.470929 -5.256511
57.850631 -48.606455 -16.993142
50.989176 -54.306531 -31.691062
55.728927 -50.521373 -41.942987
51.799653 -53.693344 -10.912332
48.179187 -56.261799 -13.443311
57.288367 -49.137934 -30.956281
49.506660 -55.367339 -34.857249
51.240609 -54.116309 -7.993648
58.112271 -48.359152 -17.431228
54.952525 -51.178604 -50.898407
47.757737 -56.545771 -18.095086
55.886671 -50.387842 -22.090970
52.952720 -52.820961 -37.227119
55.645537 -50.591966 -32.387014
52.308650 -53.308247 -41.724469
55.370676 -50.824648 -41.190905
54.546103 -51.522651 -9.562988
49.241444 -55.546039 -31.445077
54.934505 -51.193867 -3.619044
48.988295 -55.716624 -50.434267
57.004116 -49.406621 -45.392817
58.736334 -47.769252 -52.792276
54.809297 -51.299853 -8.862214
57.543858 -48.896436 -29.613882
51.770523 -53.715380 -37.893780
49.245411 -55.543378 -36.990541
49.069725 -55.661753 -50.825719
57.516248 -48.922532 -17.115711
55.825774 -50.439393 -25.633036
52.852529 -52.896754 -35.064276
58.975627 -47.543061 -19.073606
57.246551 -49.177461 -23.544608
48.677581 -55.925981 -36.332117
51.178833 -54.163045 -27.883134
51.781322 -53.707215 -51.905065
58.254086 -48.225100 -43.746238
58.550803 -47.944626 -41.360963
55.484170 -50.728564 -51.477398
47.259798 -56.881284 -14.397354
50.656110 -54.558523 -20.422546
51.106578 -54.217712 -12.701180
55.493363 -50.720782 -45.573421
52.815627 -52.924674 -32.102787
58.973797 -47.544790 -43.825997
50.938925 -54.344549 -23.821975
47.859619 -56.477130 -23.400681
54.477024 -51.581129 -15.872951
52.374147 -53.258693 -35.526492
52.742578 -52.979952 -40.004136
57.208598 -49.213341 -21.515769
48.863478 -55.800726 -43.052118
48.682929 -55.922378 -45.323864
54.698457 -51.393686 -24.591151
55.062760 -51.085297 -42.926008
55.196443 -50.972135 -12.957570
54.977903 -51.157124 -38.009783
52.177596 -53.407402 -40.337372
55.437949 -50.767695 -42.489715
51.308563 -54.064894 -18.337639
52.754098 -52.971230 -46.635691
47.845783 -56.486451 -18.532574
55.605019 -50.626265 -26.460545
55.614660 -50.618105 -5.803351
54.570821 -51.501724 -6.578793
49.464142 -55.395985 -27.555512
54.018552 -51.969223 -29.961104
51.717005 -53.755879 -7.938931
54.573434 -51.499510 -25.231103
53.051619 -52.746131 -23.742683
51.285036 -54.082699 -14.636109
48.418272 -56.100698 -18.015646
59.087699 -47.437126 -45.238021
47.523816 -56.703391 -22.904526
52.218023 -53.376811 -36.123313
57.414177 -49.019017 -15.658117
59.229056 -47.303517 -42.690042
50.587124 -54.610721 -9.844079
47.539357 -56.692912 -25.560399
55.248257 -50.928274 -42.545402
51.602239 -53.842698 -12.934402
58.384078 -48.102219 -54.039976
59.014152 -47.506646 -31.782358
52.873796 -52.880665 -20.985027
55.699068 -50.546643 -39.135508
58.348682 -48.135680 -10.002245
49.530160 -55.351510 -22.236872
53.118444 -52.695570 -22.855928
49.237259 -55.548865 -35.776898
58.589815 -47.907753 -43.406733
50.968460 -54.322216 -11.317913
54.154821 -51.853879 -17.481236
57.850976 -48.606135 -25.150043
48.861304 -55.802188 -45.651692
48.135544 -56.291204 -5.548693
47.638823 -56.625897 -19.337079
47.647093 -56.620327 -12.335315
