63.086290 55.417179 1.631024 7
69.849898 46.399248 -60.504213 7
69.936992 46.269987 -36.933873 7
68.917299 47.783358 -38.095429 7
60.597720 58.102701 -36.777470 7
64.200998 54.084342 -10.487645 7
66.386755 51.332866 -18.981245 7
62.856334 55.685163 -18.525624 7
62.014164 56.604177 -55.401056 7
62.446462 56.146828 -10.060003 7
63.188552 55.285649 -13.327514 7
65.776139 52.150303 -25.677504 7
67.627438 49.693008 3.635765 7
68.822244 47.924434 -39.562078 7
66.173820 51.614313 -59.268088 7
60.206194 58.516914 -49.571460 7
68.941095 47.748046 -19.289974 7
61.118297 57.551957 -36.503410 7
65.646246 52.321226 -32.204052 7
60.954759 57.724972 -4.046567 7
61.518290 57.128786 -29.693522 7
69.488934 46.934970 -21.343435 7
67.123138 50.359562 -24.683693 7
61.679346 56.958398 -43.772821 7
67.529278 49.822750 -53.506375 7
67.386092 50.012005 -58.991318 7
63.878565 54.465230 -55.490005 7
69.011698 47.643257 -22.705504 7
69.847916 46.402189 -52.019625 7
60.524038 58.180652 3.584578 7
61.255160 57.407163 -10.838956 7
67.961856 49.201380 -42.517593 7
62.355365 56.243204 -17.410711 7
60.334231 58.381458 -6.590868 7
60.709508 57.984435 -47.282990 7
64.939572 53.211871 -31.632571 7
66.107943 51.725574 0.518651 7
67.134478 50.344574 -25.652897 7
62.563396 56.018830 -38.925880 7
67.720342 49.559819 -47.639426 7
66.254756 51.507337 -58.391911 7
69.097844 47.515403 -54.469267 7
68.210465 48.832427 -7.161141 7
67.412400 49.977233 -31.473673 7
61.619098 57.022136 -35.486602 7
68.429474 48.507361 -56.489891 7
61.814730 56.815168 -10.418193 7
64.933753 53.218745 -48.298259 7
64.488496 53.744723 -6.946688 7
67.258170 50.181085 -32.555585 7
67.908599 49.280429 -10.779202 7
59.773758 58.974409 -34.164973 7
67.310893 50.111399 -16.475235 7
67.520937 49.833775 -14.841449 7
59.903614 58.837028 -31.914896 7
68.523734 48.367465 -58.760094 7
67.770572 49.485267 -59.979306 7
63.704992 54.670269 -32.668719 7
60.909234 57.773135 -20.822935 7
65.576459 52.403827 3.865335 7
64.509579 53.719818 -27.339706 7
63.032734 55.479401 -3.430481 7
68.242518 48.784831 -57.383698 7
69.416732 47.042128 -18.716961 7
63.395954 55.035333 -58.339618 7
60.661555 58.035167 -10.481298 7
61.025706 57.649914 -6.165147 7
68.343444 48.635064 -10.328713 7
69.393573 47.076499 -42.913031 7
65.101622 53.020443 -58.362215 7
68.520032 48.372984 -0.751815 7
67.312251 50.109604 -8.602136 7
66.639071 50.999372 -39.060760 7
63.985566 54.338830 -37.396628 7
67.907249 49.282422 -49.309858 7
63.111083 55.371849 -50.292175 7
68.905470 47.800915 -52.149610 7
66.899396 50.655291 -51.932259 7
69.051012 47.584909 -53.394695 7
60.597266 58.103181 -52.069382 7
65.255245 52.828423 -1.882314 7
62.573065 56.007408 -16.481191 7
64.812787 53.361641 -54.462337 7
65.538150 52.468210 -22.889974 7
60.488071 58.218704 -18.059494 7
67.976024 49.180359 -31.870380 7
63.812652 54.543092 -19.551756 7
63.063466 55.428098 -52.075197 7
68.484540 48.425637 -34.893415 7
62.268438 56.335169 -58.398484 7
65.215877 52.881885 -57.389739 7
66.469070 51.224069 -50.251786 7
65.259067 52.823371 -33.795263 7
69.101354 47.510195 -26.843727 7
69.215756 47.340405 -58.067813 7
66.750426 50.852191 -30.157405 7
66.212552 51.563119 -31.761635 7
65.808818 52.096751 -59.955149 7
64.894791 53.264770 -37.740316 7
69.207221 47.353073 -24.910544 7
68.710891 48.089698 -44.993550 7
61.047331 57.627035 -2.960890 7
61.284244 57.376394 -55.507906 7
68.591126 48.267446 -44.222190 7
68.842315 47.894667 1.756024 7
68.174224 48.886216 -4.682260 7
69.675154 46.658592 -50.920872 7
65.374992 52.670157 -60.988215 7
68.085693 49.017604 -14.729667 7
61.427202 57.225152 -0.353474 7
63.615215 54.776322 -57.566903 7
65.547304 52.457957 -24.104492 7
61.705642 56.930577 -53.451296 7
69.111902 47.494540 -32.941096 7
63.370377 55.065547 -29.628081 7
67.305642 50.118340 -56.185109 7
67.565779 49.774506 -46.614231 7
67.841138 49.380547 -23.418374 7
65.551748 52.437384 -43.515005 7
63.239769 55.225778 -9.197187 7
65.386632 52.654749 -26.490574 7
60.481239 58.225931 -42.961471 7
61.791411 56.839838 -32.738130 7
67.961939 49.201268 -1.448896 7
60.617855 58.081399 -25.876470 7
67.161465 50.308901 3.260604 7
63.008182 55.500064 -20.975183 7
66.013839 51.845525 -7.318539 7
65.926812 51.940794 -60.853244 7
67.640855 49.675275 -36.423180 7
63.257823 55.205887 -5.390470 7
61.618098 57.023194 -41.511183 7
61.201465 57.463970 -43.217286 7
67.962471 49.200466 -43.466561 7
62.580240 55.998933 -8.868090 7
65.492256 52.515130 0.333784 7
67.639746 49.676741 -25.055368 7
64.816534 53.357216 -10.764792 7
64.516655 53.711459 -34.151313 7
60.806373 57.881957 -33.226897 7
65.854966 52.062083 -9.289260 7
62.869600 55.657111 -48.529930 7
67.549240 49.796366 -38.170073 7
69.106193 47.503028 -1.326068 7
66.053671 51.773119 -39.493970 7
61.889033 56.736559 -48.811435 7
65.381372 52.661724 -56.422738 7
64.791273 53.387056 -33.281240 7
67.279707 50.152618 -10.507056 7
64.549406 53.672771 -12.630308 7
63.634817 54.753166 -26.522113 7
60.354395 58.360125 -20.473618 7
61.188995 57.477162 -40.011136 7
66.005879 51.836288 -49.924616 7
68.034263 49.093926 -27.028696 7
61.013095 57.663255 -1.658190 7
64.855091 53.311667 -26.715640 7
67.100508 50.389473 -58.232504 7
66.938115 50.604111 -1.289627 7
64.488434 53.744796 -22.206123 7
60.673469 58.022562 -46.122662 7
60.301598 58.415982 -35.048404 7
67.593304 49.738126 -30.643837 7
63.149748 55.327937 -22.408137 7
69.059564 47.572231 -4.235072 7
69.849657 46.399605 -1.902689 7
63.447094 54.978233 -2.514661 7
60.786772 57.902693 -56.050913 7
60.404360 58.307266 -43.882564 7
60.769853 57.920593 -40.593241 7
65.059775 53.069876 3.203248 7
64.372055 53.882274 -38.129360 7
69.174976 47.400929 -46.653251 7
64.887896 53.272916 -21.431131 7
69.855502 46.390930 -6.332738 7
69.935631 46.272008 -21.420141 7
68.068016 49.043817 -53.593487 7
63.117856 55.363848 -54.934198 7
66.795762 50.792268 -14.399226 7
61.276694 57.384381 -60.026982 7
61.394286 57.259976 -9.244175 7
64.424423 53.820412 -53.834519 7
64.475709 53.759828 -16.564920 7
65.153261 52.959442 -51.218768 7
63.096471 55.389110 -46.940041 7
61.993284 56.626268 -0.450016 7
64.826061 53.345961 -60.977595 7
61.838324 56.790207 -40.225373 7
63.087213 55.404953 -19.875072 7
59.751516 58.997939 -32.879399 7
67.499312 49.862359 -33.389963 7
65.388188 52.654353 -50.335827 7
60.626506 58.072247 -39.395381 7
68.091667 49.008739 3.205129 7
66.626652 51.015788 -23.624081 7
61.285772 57.374778 -33.790906 7
69.349687 47.141632 -52.630012 7
69.748955 46.549061 -50.030978 7
59.725179 59.025803 -36.278062 7
62.293319 56.308846 -35.540601 7
67.874810 49.330562 -60.772978 7
60.381638 58.331304 -7.452997 7
67.273491 50.160834 -51.247238 7
64.839771 53.329766 -50.446746 7
66.330502 51.407218 -19.927155 7
62.881076 55.643554 -58.629257 7
66.775016 50.819684 -0.454285 7
62.339198 56.260308 1.132166 7
63.199243 55.267706 -51.214438 7
61.221541 57.442730 -32.655308 7
65.939430 51.924113 -29.859547 7
67.770932 49.484738 -28.124060 7
69.491415 46.931287 -59.339632 7
61.407832 57.245645 -46.294628 7
65.825414 52.092805 -17.317434 7
62.561457 56.021119 3.750005 7
69.169005 47.409790 -47.448222 7
62.776003 55.770638 -41.324817 7
61.623781 57.017182 -1.241686 7
65.140065 52.975031 -43.024058 7
66.590546 51.063511 -47.361189 7
59.897222 58.843791 -23.905206 7
62.934912 55.582279 -33.537916 7
62.552448 56.031760 -44.529379 7
60.272194 58.447090 -11.531716 7
62.274171 56.329104 -34.388401 7
62.763927 55.793025 -26.286895 7
67.355354 50.052633 -49.906125 7
66.135594 51.676241 -8.469470 7
68.797361 47.961366 -25.873495 7
69.059622 47.572130 -50.575724 7
66.014013 51.825537 -38.565421 7
68.712992 48.086580 -48.085152 7
69.929538 46.281049 2.018269 7
61.022299 57.653518 -48.157291 7
67.758747 49.502822 -50.890536 7
61.517072 57.130075 -57.294564 7
68.089575 49.011829 -36.804662 7
67.781200 49.469500 -37.459902 7
66.478118 51.212109 -20.788045 7
64.515278 53.713086 -58.652047 7
69.335904 47.162089 -29.170146 7
61.720164 56.915214 -6.239587 7
61.480913 57.168329 -50.880283 7
66.034178 51.798884 -45.483213 7
69.216163 47.339801 -41.697854 7
61.288486 57.371907 -28.625702 7
64.526525 53.699801 -43.369007 7
59.737324 59.012955 -0.403674 7
64.540403 53.683406 -13.448430 7
59.778086 58.969830 1.643825 7
62.131189 56.480371 -57.465274 7
59.761041 58.987862 -20.948815 7
63.609926 54.782570 -59.151458 7
61.837701 56.790866 -2.674189 7
62.093269 56.520489 -36.649969 7
65.263694 52.817254 -14.977384 7
63.878541 54.465257 1.320651 7
66.127819 51.675115 -56.566712 7
68.049406 49.071456 -21.098682 7
60.428419 58.281812 -57.347162 7
63.334288 55.115364 -1.423882 7
62.540190 56.046240 -21.769932 7
60.781739 57.908019 0.165886 7
61.551725 57.093413 -15.179518 7
65.492089 52.522952 -21.393968 7
69.367633 47.114997 -55.489960 7
66.003101 51.868690 -0.615782 7
63.036680 55.473112 -6.357358 7
64.810108 53.364806 -0.644505 7
64.477258 53.757999 -36.407901 7
67.396423 49.998351 -29.052581 7
63.889442 54.452380 -53.677216 7
62.292124 56.310111 -25.625291 7
67.472323 49.898031 -34.312065 7
63.086094 55.401368 -53.088176 7
63.785315 54.575385 -44.006635 7
69.884572 46.347785 -15.186484 7
61.816942 56.812828 -38.324163 7
63.294933 55.154668 -38.510029 7
65.935280 51.943650 -15.471423 7
63.414304 55.013657 -23.779788 7
66.160284 51.632205 -54.202781 7
63.381535 55.052367 -42.391880 7
63.190768 55.277718 -59.794717 7
64.493336 53.739005 0.872246 7
61.042476 57.632172 -26.561855 7
66.412773 51.298479 -29.481920 7
68.528028 48.361093 -42.380470 7
69.668963 46.667781 -17.805272 7
59.798384 58.948355 -11.016753 7
62.011244 56.607267 -19.787111 7
61.971618 56.649189 -44.815430 7
69.394807 47.074667 -43.944453 7
61.235401 57.428068 -39.044566 7
64.996365 53.144782 -40.452255 7
63.961016 54.367830 -0.867317 7
60.552482 58.150560 -59.967678 7
64.893247 53.266594 -60.059830 7
69.307040 47.204937 -0.458244 7
62.562669 56.021118 -56.411574 7
64.447150 53.793565 -46.363235 7
64.114463 54.186565 -23.891279 7
64.672248 53.527658 -4.635142 7
68.212605 48.829237 -28.272921 7
61.031215 57.644086 -56.851781 7
64.484297 53.749683 1.737066 7
61.979659 56.640682 -23.446589 7
65.727552 52.208131 -33.012035 7
61.510592 57.136930 -27.380207 7
68.352877 48.621050 -31.249090 7
64.884274 53.277194 -9.843781 7
69.309085 47.201891 -20.003287 7
65.526943 52.473382 -42.071168 7
68.702903 48.101553 -36.677533 7
64.248689 54.028005 -60.824565 7
61.723389 56.911802 -5.076200 7
69.853967 46.393208 -31.143446 7
61.083238 57.589048 3.877521 7
69.923385 46.290183 -5.517991 7
62.673803 55.888416 -7.802510 7
65.981601 51.871403 -22.196296 7
62.332803 56.267074 -32.131307 7
69.875259 46.361608 -0.688802 7
68.912099 47.791095 -0.071088 7
66.212931 51.578060 -1.710377 7
69.868223 46.372050 -8.145317 7
64.190043 54.097283 -35.514289 7
63.564392 54.836358 -20.465272 7
64.903383 53.254622 -27.939192 7
68.433459 48.501472 -2.825585 7
63.297692 55.156110 -8.312093 7
66.685554 50.937935 -34.105334 7
64.653693 53.549577 -49.620884 7
59.889748 58.851698 -56.881511 7
62.942438 55.571067 -54.066262 7
68.192367 48.859262 -46.939097 7
59.949601 58.788376 -8.168495 7
59.853455 58.890093 -51.968428 7
69.948361 46.253114 -56.165729 7
66.353957 51.376219 -51.890649 7
63.028686 55.477863 -15.897387 7
62.423735 56.170873 -24.163554 7
66.996476 50.526977 -12.854879 7
66.911967 50.638671 1.105035 7
62.666617 55.896903 -1.353955 7
59.835095 58.909517 -7.192141 7
59.884033 58.857744 -18.206784 7
69.946165 46.256374 -32.892807 7
59.874654 58.867667 -4.550026 7
62.085014 56.529222 -1.789042 7
67.349771 50.060012 -5.882978 7
67.775416 49.478085 -6.520674 7
59.894836 58.846315 -37.250447 7
62.748191 55.801024 -47.685599 7
69.347668 47.144629 -45.802970 7
63.705094 54.670149 -40.392809 7
59.745308 59.004508 -48.979955 7
69.018809 47.632716 -6.660801 7
65.368811 52.683590 -38.106697 7
66.370252 51.354682 -49.281564 7
61.344830 57.312298 -12.637557 7
63.289630 55.160932 -24.685641 7
63.715941 54.657334 2.849823 7
69.310447 47.199883 1.400268 7
67.833149 49.392403 -0.694228 7
63.474375 54.942695 -28.098198 7
67.213871 50.239636 -22.955188 7
69.861363 46.382232 -9.072211 7
66.408811 51.303711 -5.345304 7
66.602476 51.047741 -59.905652 7
59.809245 58.936865 -27.212177 7
66.820417 50.759681 -32.162074 7
63.535511 54.870476 -39.440483 7
69.521325 46.886897 -26.235305 7
64.027013 54.289868 -11.817103 7
61.911187 56.713121 -27.957325 7
66.912364 50.638151 -53.608164 7
65.544098 52.446643 -53.572472 7
67.181933 50.281850 -26.512884 7
60.905956 57.776603 -21.969621 7
68.563422 48.308563 -54.384592 7
64.923634 53.230699 -3.774166 7
66.268384 51.489320 -14.570479 7
61.762609 56.870309 -18.216554 7
61.893272 56.732075 -28.869973 7
69.015344 47.637855 -11.657546 7
60.521483 58.183356 -23.823830 7
68.143302 48.932097 -25.020165 7
63.813609 54.541962 -47.211257 7
67.988764 49.161450 -34.153921 7
60.735244 57.957207 -28.081124 7
69.947902 46.253796 -52.941763 7
63.251310 55.206199 -36.556258 7
59.747040 59.002676 -41.776197 7
69.742733 46.558295 -53.824845 7
63.939817 54.392872 -42.250187 7
62.094300 56.519398 -14.360274 7
60.293197 58.424870 -48.698013 7
68.217692 48.821683 -36.044714 7
65.838981 52.056881 -31.172459 7
62.650435 55.917451 -51.402554 7
66.702259 50.915854 -45.691322 7
65.908552 51.964929 -47.269885 7
60.361491 58.352619 -15.937440 7
65.480786 52.531677 -14.126257 7
65.270304 52.808517 -39.711804 7
68.640437 48.194274 -15.764622 7
63.905024 54.433973 -27.501198 7
68.605746 48.245758 -21.345133 7
63.277632 55.175105 -19.064251 7
66.826902 50.751106 -7.213452 7
66.098641 51.713677 -24.181013 7
60.842630 57.843599 -0.772827 7
69.503819 46.912879 -48.176091 7
62.218421 56.388085 0.295798 7
68.192389 48.859249 -17.498805 7
63.369158 55.066986 -18.203153 7
63.671714 54.709581 -56.743601 7
60.447158 58.261987 -54.444383 7
67.856406 49.357878 -52.839516 7
68.713185 48.086306 -13.958687 7
65.544713 52.445790 1.310901 7
67.640292 49.676019 -7.373828 7
62.096295 56.517287 -49.706243 7
60.351701 58.362975 -21.450911 7
69.938446 46.267829 -28.654390 7
68.066731 49.045724 -51.599753 7
62.322601 56.277868 -10.987086 7
67.068397 50.431915 -9.516409 7
63.060700 55.431366 -57.289149 7
65.774385 52.142262 -58.746269 7
69.051891 47.583604 -35.028400 7
67.609844 49.716263 -21.934406 7
64.140382 54.155948 -20.375799 7
66.735375 50.872083 -16.962940 7
69.745456 46.554254 -22.246808 7
59.972380 58.764278 -30.149479 7
65.952982 51.925858 -10.172855 7
60.073550 58.657245 -55.893969 7
65.047974 53.083817 -12.357175 7
66.575632 51.083219 -10.269021 7
69.921635 46.292779 -55.182371 7
64.935572 53.216597 -2.563783 7
69.777654 46.506468 -7.260289 7
68.318461 48.672121 -60.290141 7
64.070680 54.238285 -30.201260 7
69.919960 46.295266 -16.816793 7
66.255845 51.505896 -24.976559 7
63.687372 54.691084 -50.612280 7
64.175233 54.114778 -23.003782 7
66.373609 51.350245 -33.240561 7
63.316297 55.135679 -4.260394 7
59.888657 58.852852 -6.022845 7
67.585204 49.748832 -52.108075 7
65.453398 52.580480 -37.065224 7
59.857309 58.886016 -58.128412 7
67.358072 50.049039 0.231026 7
62.269015 56.334558 -33.258928 7
61.891828 56.733603 -12.350889 7
59.789402 58.957858 -60.196486 7
66.985458 50.541539 -21.070575 7
65.849092 52.058545 -18.614742 7
66.168614 51.621195 -48.438824 7
64.026789 54.290134 -54.601127 7
62.775485 55.779107 -13.990725 7
68.247078 48.778067 -39.205411 7
61.615676 57.025757 0.420985 7
60.846962 57.839016 -13.635459 7
62.509609 56.080023 -6.786289 7
66.539887 51.131705 1.795808 7
64.984871 53.158360 -30.148579 7
67.136395 50.342040 -36.585543 7
68.813562 47.937319 -40.499761 7
64.524481 53.702214 -42.237780 7
63.677873 54.702305 -60.498435 7
68.633661 48.204321 -30.259846 7
65.970891 51.882533 -42.974977 7
65.710160 52.251917 -11.072946 7
60.055180 58.676680 -14.821200 7
67.955644 49.210593 -59.034559 7
64.527072 53.699153 -51.670249 7
60.290698 58.427514 -61.012591 7
64.997953 53.142906 -22.543592 7
67.841008 49.380740 -18.214918 7
61.423349 57.229229 -47.365194 7
65.174003 52.934940 -32.482190 7
67.846654 49.372360 0.620768 7
62.021689 56.596216 -31.003880 7
66.717929 50.895143 -54.629249 7
68.486953 48.422078 -1.739636 7
61.333356 57.324436 -23.558553 7
69.724241 46.585740 -27.200486 7
60.363906 58.350064 -5.403155 7
67.702130 49.586846 -17.225820 7
65.209900 52.888362 -11.316484 7
67.282818 50.148507 -5.031798 7
69.252261 47.286226 -36.317065 7
68.230693 48.802394 -26.018586 7
69.907084 46.314374 -39.723217 7
69.209316 47.349964 -49.138002 7
69.768634 46.519855 -42.370113 7
67.253140 50.187734 -27.645034 7
63.899376 54.440645 -38.695242 7
60.946413 57.733802 -53.990451 7
66.928917 50.616272 -35.691775 7
68.546434 48.333775 -37.598311 7
69.364710 47.119336 -12.290829 7
63.512482 54.900150 -0.424057 7
63.940856 54.391645 -1.773734 7
60.182616 58.541858 -19.181844 7
65.192659 52.911151 -7.878511 7
69.835411 46.420748 -25.542648 7
64.643375 53.561766 -11.564819 7
69.134669 47.460751 -30.281951 7
69.948580 46.252789 -2.721740 7
62.549186 56.035614 -20.455351 7
69.926639 46.285353 -14.395687 7
67.692917 49.600520 -9.426698 7
66.913760 50.636301 2.488093 7
64.858681 53.307428 0.180569 7
64.307237 53.958843 -5.672719 7
69.928205 46.283028 3.302563 7
68.948365 47.737269 -2.443326 7
65.568846 52.428752 -19.521380 7
63.480489 54.935472 -17.350503 7
60.901968 57.780822 -60.896146 7
66.338331 51.396873 -44.722646 7
68.342048 48.637114 -52.693646 7
63.276676 55.176235 -55.755323 7
67.920665 49.262519 -34.971960 7
65.732586 52.197510 -49.234472 7
65.585460 52.391971 -44.711024 7
68.673799 48.144754 -24.103015 7
69.080803 47.540695 -20.896401 7
62.047313 56.569107 -47.078694 7
59.711642 59.040124 -35.315110 7
66.098879 51.739183 1.411040 7
69.261633 47.272330 0.505191 7
62.093020 56.520752 2.807916 7
64.126771 54.172026 -25.958634 7
64.217914 54.064359 -39.331773 7
67.168899 50.299078 -57.218406 7
63.281437 55.176259 -7.402325 7
64.780810 53.399415 -52.904653 7
60.618970 58.080219 -44.662584 7
63.070108 55.430237 -11.016617 7
69.323941 47.179843 -60.947109 7
67.290655 50.138149 -54.295452 7
62.496681 56.093699 -59.614437 7
61.546634 57.098800 -3.661687 7
68.543277 48.338480 -8.719848 7
66.706250 50.910579 -50.997580 7
60.815134 57.872688 -49.654853 7
59.981315 58.754825 -31.139632 7
63.567626 54.832538 -48.832696 7
61.275050 57.386121 -31.611377 7
69.854685 46.392143 -19.020048 7
69.617697 46.743867 -4.910570 7
69.254433 47.283002 -33.973091 7
68.375393 48.587625 -41.245996 7
68.363192 48.605746 -23.438283 7
61.575943 57.067792 -37.526268 7
59.750035 58.999507 -25.214178 7
59.918881 58.820877 -26.088614 7
62.374780 56.222665 -37.744362 7
64.397019 53.852784 -15.438095 7
64.906373 53.251089 -19.487117 7
62.848771 55.685561 -35.481401 7
62.648358 55.919655 -27.329755 7
69.749144 46.548781 -24.312764 7
59.802966 58.943508 -39.270243 7
68.826586 47.917989 -60.974308 7
65.936903 51.927456 -52.683795 7
60.344259 58.370849 -24.800480 7
63.822833 54.531065 -16.613584 7
66.736146 50.871064 -27.433992 7
62.100779 56.512543 -22.653536 7
62.975555 55.544207 -11.984910 7
62.651414 55.914861 -12.827505 7
62.637828 55.930909 -2.234493 7
67.156580 50.315361 -52.775817 7
60.726077 57.966906 -55.124093 7
63.820205 54.534168 -13.783891 7
64.975736 53.169151 -44.188050 7
69.179464 47.394268 -23.750782 7
61.602779 57.039401 -26.290498 7
67.164621 50.304732 -55.122456 7
69.803712 46.467794 -20.549827 7
67.405213 49.986733 -2.277413 7
65.053982 53.076719 -17.348240 7
61.365324 57.290616 -45.332123 7
61.113953 57.556553 -5.087558 7
63.577476 54.820902 -25.653002 7
63.341097 55.100135 -41.353832 7
61.790154 56.841168 -13.210285 7
63.694829 54.682275 -22.116102 7
60.643370 58.054405 2.314931 7
65.277811 52.798594 -41.139484 7
67.280797 50.151178 -13.912012 7
66.811193 50.771872 -37.386848 7
60.240079 58.481066 -23.108561 7
61.932500 56.690573 -56.584397 7
64.084803 54.221602 -49.095236 7
60.202506 58.520816 -13.382616 7
66.734593 50.873118 -58.882283 7
59.719026 59.032313 -44.714151 7
62.206241 56.400970 -26.672162 7
59.984833 58.751103 -3.627066 7
65.343547 52.711701 -13.210681 7
69.816800 46.448369 -43.534243 7
64.579945 53.636695 -18.414725 7
69.419471 47.038063 -51.732692 7
67.344214 50.067358 -23.856510 7
63.678640 54.701398 -6.150818 7
61.919114 56.704736 -52.614911 7
64.137800 54.158997 -52.645672 7
69.840287 46.413511 0.420582 7
64.359499 53.897106 -40.451846 7
65.524855 52.472076 -54.605836 7
63.807119 54.549627 -8.754889 7
61.985255 56.634761 -20.894785 7
65.515695 52.498474 -27.403519 7
69.305413 47.207342 -56.929457 7
61.535622 57.110450 -22.712778 7
62.580136 55.999055 2.002804 7
69.867489 46.373140 -23.365658 7
62.471983 56.119829 -45.438301 7
69.223111 47.329490 -59.995714 7
61.722786 56.912440 -54.425365 7
68.593306 48.264210 -49.420095 7
68.916136 47.785097 -10.162503 7
68.444459 48.485121 -38.403974 7
68.191020 48.861277 -22.638065 7
64.047445 54.265732 -4.380802 7
67.098701 50.391859 -2.987253 7
67.423916 49.962012 -1.350735 7
60.200712 58.522714 -45.372218 7
65.067940 53.060231 -52.158775 7
68.846992 47.887711 -18.304235 7
67.110413 50.376382 -47.018412 7
68.870945 47.852169 -7.526630 7
67.979032 49.175901 -2.388143 7
66.199425 51.580469 -26.532976 7
59.762341 58.986488 -55.049198 7
61.982251 56.637939 -39.249211 7
62.529338 56.059059 -46.509203 7
62.998213 55.505181 -43.835302 7
67.043011 50.465469 -39.847803 7
64.160697 54.131949 -7.569514 7
61.486409 57.162515 -42.346109 7
63.529445 54.877641 -45.732669 7
59.959158 58.778266 -10.101455 7
65.860787 52.028062 -55.818014 7
66.535650 51.136068 -52.828942 7
67.309991 50.112591 -19.582008 7
65.858766 52.030731 -37.602829 7
69.918287 46.297747 -13.561584 7
69.886689 46.344644 -45.488970 7
68.399100 48.552445 -33.682114 7
65.652929 52.302796 -51.263751 7
68.373089 48.591066 -9.503689 7
67.997480 49.148522 -19.039173 7
68.897865 47.812201 -45.804326 7
68.153030 48.917669 -8.059787 7
60.453328 58.255460 -41.787734 7
62.853603 55.690673 -0.216530 7
63.792028 54.567453 -5.198474 7
65.236719 52.852912 -49.450009 7
62.592239 55.984760 -39.722427 7
68.853581 47.877943 -3.499776 7
65.265303 52.815128 -18.482975 7
59.776858 58.971129 -22.609582 7
69.912302 46.306631 -11.865060 7
65.261317 52.820396 -46.426129 7
66.722542 50.889046 -43.621467 7
67.861325 49.350588 -5.451493 7
67.118707 50.365418 -48.934953 7
64.390534 53.860445 -19.672371 7
67.796864 49.446253 -29.755437 7
63.911506 54.426316 -36.328270 7
67.638104 49.678911 -12.646884 7
67.224335 50.225807 -17.320966 7
66.192879 51.594193 -10.935286 7
64.009360 54.310722 -18.193082 7
61.172274 57.494853 -25.424389 7
63.050810 55.444373 -28.879779 7
67.201951 50.255392 -48.034391 7
68.263381 48.753869 -40.239297 7
68.912784 47.790060 -56.217250 7
64.647880 53.556444 -20.688712 7
66.868460 50.696178 -5.929041 7
64.612904 53.597762 -47.308852 7
60.289202 58.429096 1.047007 7
67.232700 50.214749 -40.932964 7
68.344012 48.634225 -3.811346 7
65.320109 52.742682 -28.516713 7
67.212754 50.241114 -29.839528 7
69.928987 46.281868 -47.304727 7
66.601876 51.048535 -55.858815 7
62.477998 56.113465 -28.640069 7
69.337446 47.159800 -37.361493 7
67.400597 49.992834 -43.201058 7
63.991418 54.331917 -44.884221 7
64.866500 53.298191 -56.176924 7
65.468264 52.557266 -29.416034 7
64.209754 54.073999 -33.263822 7
60.579428 58.122053 -30.466973 7
64.596188 53.617508 -55.320500 7
65.135295 52.980666 -23.442989 7
66.058707 51.766461 -27.490730 7
60.575477 58.126233 -58.915807 7
64.954213 53.194576 -5.513933 7
63.961546 54.367205 -34.798343 7
65.533198 52.469532 -16.038515 7
64.000364 54.321349 -51.478319 7
61.461402 57.188971 -7.194446 7
64.279982 53.991040 -50.327938 7
66.009935 51.830927 -46.357354 7
67.098855 50.391658 -46.166296 7
66.837046 50.737701 -49.655930 7
65.378979 52.664866 -7.083222 7
66.129960 51.672282 -22.984217 7
61.138525 57.530557 -30.779029 7
69.532857 46.869782 -32.149242 7
60.446625 58.262551 -50.552674 7
62.654974 55.910656 -4.124677 7
64.453630 53.785911 -57.751854 7
62.010991 56.607534 -45.904801 7
68.631238 48.207934 -4.843451 7
62.036692 56.580344 -15.772051 7
69.145042 47.445363 -8.451491 7
60.250418 58.470128 -40.881076 7
69.489585 46.934003 -34.762071 7
62.066208 56.549118 -3.886111 7
65.958715 51.898625 -35.204742 7
67.881269 49.320989 -15.460344 7
64.712964 53.479561 -28.730084 7
60.873580 57.810855 -11.554521 7
64.498649 53.732729 2.819702 7
60.762499 57.928373 -29.011775 7
63.633174 54.755107 -34.083591 7
62.633007 55.936604 -23.165149 7
62.532480 56.055347 -15.044857 7
63.742233 54.626277 -15.120562 7
67.845412 49.374193 -56.121161 7
66.585457 51.070237 -40.266588 7
67.952029 49.215975 -24.195925 7
66.313410 51.433654 -6.430546 7
67.407845 49.983253 -61.044460 7
61.694521 56.942343 -58.316716 7
60.616876 58.082435 -32.317700 7
68.632134 48.206584 -47.193768 7
65.764117 52.180706 -2.437263 7
67.145862 50.329527 -41.850463 7
61.905355 56.719292 -59.955311 7
68.575843 48.290131 -32.041195 7
66.227359 51.545477 -11.883800 7
64.990311 53.151933 2.165326 7
65.994919 51.860207 -16.455477 7
68.659101 48.166566 -26.651042 7
62.304801 56.296699 -5.863908 7
66.524387 51.150954 -22.078284 7
65.920247 51.949468 -28.803290 7
60.348055 58.366833 -12.386883 7
65.999655 51.844514 -41.445636 7
59.810490 58.935548 -52.955227 7
68.571188 48.297051 -16.687029 7
65.841516 52.085710 -5.213410 7
69.732560 46.573393 -38.304374 7
59.811495 58.934485 -42.703998 7
63.442851 54.979934 -12.449782 7
61.067448 57.605753 -53.134039 7
60.956127 57.723525 -51.188689 7
64.039796 54.274768 -41.314336 7
62.986177 55.528496 -17.505500 7
68.907230 47.798324 3.823152 7
61.825158 56.804136 1.956496 7
60.856086 57.829363 -34.551286 7
66.940955 50.600360 -15.554235 7
64.778415 53.402244 -45.139175 7
66.320404 51.420567 -42.233902 7
63.396318 55.034903 -37.687333 7
65.830415 52.096774 2.947674 7
68.826102 47.918707 -43.471418 7
62.033768 56.583437 -7.656503 7
68.863994 47.862470 -55.275062 7
66.321771 51.418760 -28.224315 7
68.845210 47.890349 -57.089689 7
64.507150 53.722687 -24.581429 7
60.770290 57.920131 -19.685638 7
62.287024 56.315506 -60.996902 7
68.185097 48.870051 -50.272012 7
68.317121 48.674109 -55.453656 7
59.813625 58.932232 -17.186225 7
62.155103 56.455072 -42.116913 7
62.950367 55.561700 -37.297161 7
64.424580 53.820226 -9.410031 7
60.398989 58.312947 -27.263532 7
61.999505 56.619686 -8.664871 7
65.855483 52.068496 -3.578341 7
61.146197 57.522441 1.804099 7
64.223589 54.057655 -56.126082 7
61.382052 57.272918 -17.323723 7
66.420207 51.288654 -34.854013 7
68.123583 48.961365 -19.867501 7
61.802478 56.828130 3.666808 7
66.536372 51.135114 -36.457779 7
69.474280 46.956718 -13.178311 7
60.050703 58.681416 -40.076562 7
69.069015 47.558193 -17.516329 7
69.058506 47.573791 -16.245899 7
69.290740 47.229118 -39.996890 7
64.084679 54.221748 -28.491327 7
62.345542 56.253597 -42.907977 7
63.059254 55.450441 2.660017 7
68.429876 48.506779 -18.684650 7
61.277031 57.384025 -44.477682 7
66.100406 51.711348 -50.878852 7
65.056079 53.074243 -25.405152 7
59.712331 59.039396 -14.069083 7
66.018683 51.821599 -21.142367 7
60.200898 58.522518 0.143452 7
67.152537 50.320705 -38.928486 7
66.708397 50.907742 -41.085755 7
63.926147 54.409021 -29.336517 7
68.674456 48.143776 -27.557361 7
63.241370 55.230514 3.725737 7
64.172115 54.118461 3.812144 7
65.387575 52.653502 -3.203488 7
66.474555 51.216820 -30.902854 7
68.699119 48.107170 -57.936781 7
66.875299 50.687138 -3.822763 7
63.987205 54.336893 -3.328102 7
64.228718 54.051596 -32.024290 7
69.213601 47.343604 -31.287336 7
65.302577 52.770106 -47.391864 7
69.912597 46.306193 -48.997498 7
66.888703 50.669425 -31.326955 7
65.715781 52.241677 -6.037507 7
60.570680 58.131307 -8.465135 7
68.123488 48.961491 -44.423544 7
59.761356 58.987529 -9.174172 7
68.985193 47.682602 -13.008839 7
60.794739 57.894265 -57.983998 7
65.318006 52.745462 -8.835572 7
63.614796 54.776817 -31.459775 7
64.622333 53.586622 -41.269296 7
61.398653 57.255356 -14.194703 7
63.129729 55.349822 -44.807672 7
67.906109 49.284125 -3.376611 7
65.819716 52.106416 -12.703647 7
61.119155 57.551050 -52.292096 7
69.543619 46.853813 -3.624211 7
66.426342 51.280542 -15.476901 7
62.111384 56.501324 -50.629308 7
67.680801 49.618500 -55.193528 7
65.020920 53.115776 -16.084410 7
65.548449 52.452981 -34.659809 7
66.869817 50.694387 -28.449033 7
66.133321 51.672836 -13.709837 7
61.276246 57.384856 -18.834221 7
69.869044 46.370831 -40.933310 7
67.699254 49.591115 -26.155311 7
69.741155 46.560638 -35.903317 7
59.740092 59.010026 -38.214112 7
59.847292 58.896614 -53.964613 7
59.774802 58.973305 3.790888 7
69.769046 46.519243 -58.661078 7
64.182694 54.105964 -57.017391 7
69.896819 46.329609 -33.965792 7
63.871391 54.473704 -24.860350 7
67.633090 49.685539 -41.762382 7
63.979072 54.346502 -58.552009 7
68.587039 48.273536 0.664741 7
59.907672 58.832735 -50.816880 7
63.540762 54.864272 -11.442602 7
68.904469 47.802401 -59.337327 7
59.785380 58.962114 -2.680137 7
62.991877 55.512736 -34.658069 7
64.342753 53.916888 -14.290278 7
60.388160 58.324404 -2.863333 7
64.240735 54.037400 0.054910 7
69.131217 47.465874 -38.824006 7
63.382491 55.051236 -14.314756 7
62.932637 55.586433 -30.827035 7
62.292426 56.309791 -53.789193 7
63.273940 55.179467 -27.111698 7
66.294836 51.470647 2.695668 7
66.439655 51.262946 -17.823253 7
63.614104 54.777634 -10.275446 7
60.199212 58.524301 -0.845844 7
67.680666 49.618701 -4.276021 7
69.153351 47.433033 -5.331028 7
59.810736 58.935289 -59.316162 7
63.736802 54.632693 -43.094804 7
69.667863 46.669413 -9.881845 7
61.919025 56.704829 -9.583885 7
61.340953 57.316399 -16.469068 7
59.773215 58.974983 -11.928452 7
66.580617 51.076634 -60.838993 7
67.185941 50.276552 -44.202165 7
62.367391 56.230482 -11.867342 7
63.487500 54.927191 -35.735332 7
64.497086 53.734576 -17.434209 7
66.684245 50.939664 -48.297606 7
68.277159 48.733447 0.107220 7
67.972388 49.185746 -48.343679 7
65.343005 52.712434 -55.459899 7
61.718915 56.916535 -11.266272 7
60.651028 58.046304 -16.830241 7
63.627632 54.761655 -52.947311 7
69.138439 47.455159 -14.487636 7
64.268621 54.004460 -2.425895 7
67.593140 49.738342 2.771431 7
69.518366 46.891288 -15.990035 7
68.585098 48.276418 2.494128 7
65.488049 52.520724 -48.366261 7
61.398279 57.255752 -19.731386 7
66.186413 51.621479 3.788615 7
61.735649 56.898832 -21.755269 7
67.365674 50.038992 1.838636 7
68.280186 48.728946 -13.644891 7
61.411526 57.241736 -34.738425 7
63.490984 54.926715 0.616735 7
69.659584 46.681700 -30.177012 7
60.544174 58.159349 -35.839120 7
67.610459 49.715450 -40.138235 7
67.301335 50.124032 -45.362255 7
64.273578 53.998604 -21.302166 7
68.126030 48.957717 -45.499230 7
64.159889 54.132903 -48.053548 7
66.515855 51.162232 -57.611090 7
66.108197 51.701051 -43.791518 7
61.437724 57.214021 -24.695987 7
64.813770 53.360480 -8.518703 7
69.381710 47.094106 -44.883532 7
68.897683 47.812484 -9.219121 7
68.266920 48.748639 -6.273156 7
60.134363 58.592908 -1.664129 7
65.025459 53.110414 1.314110 7
66.358661 51.369998 -12.970828 7
67.616101 49.707993 -20.280083 7
61.623448 57.017534 -61.080578 7
66.755874 50.844987 -8.769897 7
66.669777 50.958787 -26.398612 7
68.170408 48.891861 -32.685141 7
61.259976 57.402068 -8.287707 7
67.237050 50.209000 -11.737253 7
62.683740 55.876665 -55.441916 7
64.164827 54.127071 -59.508223 7
68.593284 48.264243 -53.414427 7
62.401348 56.194557 -29.783792 7
65.718061 52.216708 -57.197998 7
65.288872 52.783972 -35.785886 7
68.465464 48.453947 -46.084373 7
63.053736 55.439593 -60.740008 7
65.633080 52.329221 -40.343160 7
62.213474 56.393318 -41.205247 7
62.858320 55.675541 -32.498442 7
60.883249 57.800626 -38.208982 7
69.856516 46.389425 -44.468389 7
65.275367 52.801824 -45.459677 7
67.062133 50.440195 -34.738152 7
59.994673 58.740693 2.660155 7
69.353429 47.136081 -10.618397 7
69.835206 46.421052 -56.986770 7
60.041094 58.691582 -46.639941 7
64.985384 53.157754 -38.993730 7
66.300806 51.455572 -2.789799 7
67.628227 49.691966 -58.272720 7
59.734189 59.016271 -19.772251 7
69.375131 47.103878 -2.701878 7
67.899672 49.293677 1.672438 7
67.639702 49.676799 -57.373832 7
68.411904 48.533446 -29.473098 7
69.109629 47.497913 -28.257703 7
60.703784 57.990490 -15.163334 7
68.672250 48.147057 -19.955129 7
62.700950 55.856348 -5.018680 7
66.133001 51.684891 -4.401175 7
61.973131 56.647588 -51.675731 7
68.604216 48.248035 -12.385088 7
67.866389 49.343072 -16.428800 7
66.771637 50.824154 -13.581565 7
66.561627 51.101733 -38.257640 7
62.982560 55.525587 -31.615388 7
65.023500 53.112728 -34.845028 7
61.368750 57.286991 -49.878876 7
66.016168 51.822688 -36.603116 7
63.306520 55.140981 -47.778269 7
69.417541 47.040939 3.693045 7
66.441001 51.261165 -7.841917 7
68.212385 48.829574 -12.824910 7
63.163233 55.310245 -40.366459 7
60.062907 58.668505 -28.605057 7
66.493418 51.191888 -46.534197 7
66.962734 50.571575 -18.827964 7
64.663671 53.537791 -30.806568 7
68.466173 48.452913 -11.112222 7
