4.338028 34.029360 -33.826099
20.250523 30.929325 -6.654858
25.391340 27.336912 -22.012974
4.222386 34.021328 -18.726626
34.769754 2.654964 -37.414909
-19.291181 17.332268 -27.919452
-13.695949 -13.532847 -10.005527
15.855526 -20.677947 -43.224557
15.245371 33.068573 -40.943669
30.813993 -8.690232 -12.738246
27.383525 25.388524 -21.651319
4.030502 -22.077132 -30.471478
34.404844 11.735618 -29.321440
34.113628 13.003285 -40.676044
-21.456056 9.112145 -21.437948
-8.929668 -17.497732 -14.341383
31.986640 -6.574381 -27.520975
7.717401 -21.942778 -11.117347
34.765976 6.509290 -33.793660
7.022026 -21.986466 -23.825152
-20.726325 -0.867809 -56.804964
22.885003 -17.100251 -12.235872
-21.353754 5.559906 -24.519372
-18.058243 -7.624854 -18.210110
22.000824 29.888203 -5.245870
28.958561 23.554939 -29.823681
23.707844 28.700188 -19.148266
34.072448 13.159196 -38.460757
2.380108 33.893344 -45.256876
-11.081953 -15.926474 -43.718515
34.828371 5.516105 -45.075663
28.521949 24.089947 -20.033325
-21.101845 2.266379 -40.595379
-19.374811 17.125112 -39.407950
-16.871150 21.775624 -28.873694
-17.440995 -8.682388 -50.366204
-10.217206 28.793936 -43.444828
23.273897 29.019930 -39.540943
34.064597 13.188919 -15.440550
-12.468314 26.922785 -47.547253
-20.064623 15.319957 -43.241032
33.597967 -2.633920 -16.026829
2.444509 -21.879431 -21.508551
32.919818 16.701087 -25.551606
9.385488 34.271595 -33.575688
-13.523534 25.904457 -31.045347
-19.380602 17.110767 -44.694418
4.013826 -22.076050 -29.687950
33.399360 -3.231545 -39.340899
34.681399 1.991204 -52.608729
29.211715 -11.025829 -40.740522
9.670501 -21.820064 -7.041144
-19.413996 17.028043 -43.444763
32.142665 18.456448 -34.416904
-7.874180 30.363603 -24.556335
-18.905059 -5.970726 -46.369230
-18.156944 19.642578 -21.110448
-10.183473 -16.615840 -49.830955
-21.282915 10.412849 -39.267030
-16.595500 -9.986330 -30.728524
9.784004 34.228917 -27.021547
34.814117 2.988238 -23.142676
33.677781 -2.393749 -14.068855
33.399246 -3.231885 -37.308139
-18.117699 19.712851 -14.832996
-20.802996 12.756563 -6.217287
-21.130734 11.280882 -41.460330
30.193035 -9.654447 -29.573552
-21.430261 9.305937 -11.695171
17.301912 -20.130215 -33.020071
-14.279578 -12.902962 -52.364430
13.874113 -21.254437 -17.741039
27.600502 -12.965251 -24.935774
31.419196 19.840702 -24.482183
-13.667521 25.753167 -38.732727
32.920867 -4.493969 -7.008857
-21.220305 3.815169 -42.841673
-20.752028 12.958452 -14.270350
34.632788 8.629204 -43.900200
28.403709 24.234830 -10.352731
21.329062 -18.113726 -16.681464
-11.621850 27.677238 -29.347293
-20.922983 12.281280 -26.710850
-21.055967 11.695113 -44.092456
-15.034984 -12.034729 -15.295157
30.683257 -8.893236 -22.757952
34.780502 6.278070 -28.573015
34.810478 5.800959 -34.311667
10.241507 34.168023 -26.133307
-21.362547 5.674889 -25.670515
16.462056 -20.456251 -28.294784
-2.642575 32.823042 -45.866631
31.772638 19.187502 -50.086256
-5.748445 31.520679 -30.580984
20.633072 30.715669 -7.731823
32.485473 -5.532428 -31.285321
-3.835115 -20.165803 -14.721057
15.863453 -20.675323 -39.259266
-9.217802 29.509869 -23.075121
-16.737575 21.983036 -31.903640
34.644229 1.712002 -42.101921
-19.944934 15.680129 -39.604011
34.666358 1.878220 -47.505144
15.475520 32.992094 -41.008215
-21.330278 5.252981 -50.236094
29.776177 -10.259734 -9.748091
-19.686740 -4.148552 -5.514309
-14.229847 -12.956635 -38.340053
-21.500819 8.592346 -45.298661
7.569598 -21.952063 -42.975294
31.174694 -8.077622 -30.184405
13.805790 33.470430 -21.951330
-6.890214 -18.725944 -44.414116
-18.794186 18.398889 -45.052256
-21.282353 10.417073 -7.943445
28.347512 24.303691 -32.425765
-5.881446 -19.253264 -16.149038
-5.319374 -19.522374 -40.106353
14.278513 -21.147634 -38.023958
7.000339 34.214310 -19.844980
17.281016 -20.138324 -34.580326
-21.075248 11.577946 -19.219881
-20.614073 13.504895 -27.297517
-20.593726 13.585502 -45.683548
26.140736 26.641285 -3.936117
23.759060 28.662448 -21.052494
23.298418 -16.804097 -11.013256
-10.746048 28.391983 -10.533472
-20.834166 12.633096 -30.468653
33.649848 -2.477800 -15.090945
32.098209 -6.341340 -47.797859
20.795102 30.625176 -20.384489
-9.929913 -16.802667 -2.702337
26.329329 26.461803 -22.682688
-17.820301 20.245369 -40.195919
0.351200 -21.471482 -34.369077
34.027528 13.329276 -48.909743
34.781231 6.266479 -38.667873
-0.279755 -21.312194 -9.474429
-17.933401 20.042849 -35.672015
-8.046949 30.255570 -14.379764
-18.962892 -5.845663 -15.956535
-20.211485 14.878009 -23.290930
24.370291 28.193131 -33.659214
-21.082368 2.011731 -41.804338
-21.491486 8.736034 -30.010039
-20.268423 14.706673 -33.869488
3.676621 33.983414 -51.067691
18.392510 31.862364 -48.063623
4.196744 34.019546 -47.311321
-10.349926 -16.493196 -4.009727
19.803575 -18.972618 -24.195723
-21.395374 6.104053 -28.035499
33.570834 -2.715564 -11.254625
-18.309471 -7.160557 -31.184142
31.094029 -8.222059 -48.036657
23.077617 -16.962269 -7.472413
-14.883421 -12.220446 -34.138191
12.117971 33.867094 -29.845048
-0.495642 33.453829 -38.928403
-8.869382 -17.536557 -21.045098
27.285027 -13.296725 -17.196705
28.658415 -11.731039 -28.634307
-9.925284 -16.806076 -47.774939
-5.188992 -19.584799 -26.716235
-21.452355 9.139954 -17.536018
-0.967206 -21.138642 -12.173661
-19.465026 16.901635 -4.800562
2.025557 33.868713 -27.018378
32.271609 18.177612 -18.965797
-16.208436 22.724197 -13.570694
2.233559 33.883164 -42.033083
18.547216 31.788297 -47.793081
3.913398 33.999863 -34.360543
-15.863689 23.192103 -26.029631
33.901921 -1.636766 -21.209904
-3.922651 32.330825 -31.573116
-8.875752 -17.532454 -26.043063
33.595478 -2.641407 -10.964723
-18.212121 19.543779 -22.715083
-12.906797 26.516503 -41.147879
17.126846 32.395173 -54.289000
14.144203 -21.183107 -16.032347
-16.474798 -10.154820 -40.756852
-9.666497 29.188438 -8.985602
34.601560 9.126245 -10.455726
34.308968 12.234592 -38.230457
7.824156 -21.936069 -15.558834
-3.225857 32.601328 -20.787257
15.747468 32.901723 -10.490084
-13.943735 -13.265426 -24.001852
7.380236 -21.963961 -16.777622
-13.902931 25.505811 -15.799347
-12.722111 -14.489267 -41.420689
-20.627712 -1.241177 -41.905977
-16.227186 -10.500463 -16.999240
-18.699067 18.597568 -37.460697
-5.220453 -19.569737 -39.304917
33.017898 -4.253603 -23.389624
-12.810074 26.606125 -29.028695
-18.235214 19.502429 -18.507130
-20.181590 -2.798122 -15.340548
-15.057127 24.203100 -12.007836
-12.561470 -14.642151 -36.622366
-11.014669 28.172759 -18.229923
31.518665 -7.461741 -26.696084
29.769021 22.459298 -46.675381
29.394282 22.982403 -23.636329
26.729972 -13.879923 -43.472913
34.124596 -0.754739 -6.824785
34.147684 12.874339 -36.189563
27.107437 -13.483320 -9.857923
0.761355 33.762903 -16.726564
10.392575 -21.774695 -48.521837
34.384841 11.839720 -30.246150
-14.046161 25.355316 -6.767952
10.268723 -21.782477 -26.688401
-19.623262 -4.312068 -19.870956
34.512786 0.972641 -4.310540
20.360411 30.867951 -18.349066
25.709410 -14.845709 -29.327365
19.827272 -18.959796 -22.601889
-14.236995 25.154800 -19.776355
-3.479393 -20.309395 -23.955527
-21.289673 4.722078 -52.655829
-18.911692 18.153441 -9.847243
-5.719116 31.534241 -31.428119
-20.110681 -3.012355 -25.761128
3.471075 -22.016100 -40.924670
23.665486 -16.541143 -32.393334
1.034640 -21.633798 -29.274384
7.151993 34.224845 -27.526305
34.581736 1.321410 -27.560409
-21.501287 8.585121 -33.790174
34.734302 7.013485 -39.219666
0.969196 -21.623035 -32.201950
-17.215731 -9.042635 -16.956954
34.671058 8.020076 -39.297135
31.639091 -7.246112 -15.201201
33.653362 -2.467224 -12.526339
18.372908 31.871745 -12.068980
-21.310945 5.000200 -17.836747
-5.647004 -19.365510 -8.864834
32.878076 16.808609 -23.737124
-8.163067 -17.991430 -36.106732
2.486202 -21.884984 -52.309933
-20.787554 12.817727 -12.993851
32.445949 17.800602 -34.950477
-16.194105 -10.546640 -3.845672
3.151194 33.946911 -31.446951
12.909481 33.696713 -41.356303
-21.506369 8.506863 -15.634591
-3.660051 -20.236469 -43.343739
30.658501 -8.931678 -23.055517
-18.656733 18.685991 -28.147698
-20.720505 -0.889848 -48.863498
-16.053933 -10.742307 -18.734761
23.365325 -16.756167 -48.436916
34.257048 -0.230087 -20.215976
30.652492 21.134766 -40.854711
30.145372 -9.728456 -34.205586
33.636611 -2.517637 -13.684168
24.900302 -15.555329 -37.902611
-9.036054 -17.429218 -20.405662
-7.153451 30.779963 -40.514668
13.691667 33.499239 -43.906080
34.201927 -0.448425 -17.609330
-18.865545 18.249830 -22.571495
33.671090 -2.413882 -27.435098
16.891327 -20.289603 -19.594042
-8.307042 -17.898709 -31.008942
0.650910 33.741675 -41.589506
-21.119498 2.497178 -35.405205
15.155718 33.098368 -36.924784
23.681745 28.719417 -21.326362
-21.140623 11.230847 -29.486355
-1.339308 33.230998 -37.495620
29.813281 -10.209380 -19.096544
-10.235270 28.780994 -26.925763
-7.271437 30.716119 -44.569695
24.260012 -16.077875 -25.298783
16.957086 32.463699 -36.434931
31.454262 -7.577056 -15.813897
32.213112 18.304102 -14.749539
30.874693 20.779415 -32.389135
-5.914045 -19.237654 -18.997407
6.352027 -22.028563 -25.011031
5.572016 34.115084 -17.978311
-20.610905 13.517449 -36.827783
25.372443 27.352759 -39.377711
20.274572 30.915893 -39.239069
-15.155481 -11.887076 -18.321715
32.824125 16.947583 -32.134630
32.307221 18.100599 -8.511934
34.381310 11.858108 -54.050822
13.378743 -21.385265 -24.516296
-5.632399 31.574341 -46.877323
18.975531 -19.389815 -33.889142
-17.306810 21.099156 -30.466999
-21.182102 3.315702 -9.825233
-15.749125 23.347595 -33.015611
-3.904094 32.338029 -46.383452
-11.068773 28.128608 -8.657835
10.647891 34.113921 -41.615430
29.806587 -10.218461 -19.007205
30.573788 -9.063214 -9.293747
-20.497533 -1.734070 -14.831304
-1.184258 33.271949 -28.874669
30.799954 -8.712031 -33.966977
24.765082 27.862075 -45.706327
-20.553163 13.746170 -27.482919
19.140546 31.504249 -24.508359
31.931915 -6.688688 -33.205607
4.851310 34.065021 -7.673271
-21.157032 2.987929 -45.482366
34.743709 6.863707 -43.110934
-16.204192 -10.532559 -18.750697
10.869797 34.084370 -41.824611
32.891024 16.775264 -28.846560
34.781755 2.745101 -41.124523
-15.407016 23.785869 -27.063427
17.378184 32.293712 -47.758770
31.387355 19.899544 -22.206757
31.611433 -7.295631 -17.848748
-13.477743 25.952571 -39.722462
31.656945 -7.214148 -24.699761
10.765747 34.098225 -32.282371
7.166101 -21.977415 -25.172056
-19.384109 17.102073 -31.466512
4.226634 34.021622 -46.315325
-12.330299 27.050666 -16.439791
10.281616 34.162684 -24.003445
34.092751 13.082327 -46.811830
30.542158 -9.112331 -19.655624
29.927677 22.237834 -30.532393
34.759042 6.619655 -36.330598
24.436692 -15.933681 -20.347359
12.975742 33.679983 -28.920496
-0.824426 33.366991 -38.866299
34.754029 2.536811 -42.777638
12.891789 33.701179 -39.796516
9.836674 -21.809623 -49.900922
23.272299 -16.822805 -15.038539
6.789806 -22.001057 -12.521664
24.780137 -15.653397 -30.019268
12.147754 33.862196 -42.089172
32.157087 -6.218349 -36.098087
-21.425300 9.343221 -41.389332
15.611148 -20.758835 -39.631890
-14.915449 24.372053 -50.397409
-21.287711 4.696446 -17.231737
33.917119 13.747290 -30.190715
29.530323 -10.593411 -11.859454
34.804615 5.894268 -40.460641
4.576965 -22.112629 -32.817381
23.175509 -16.892145 -50.491547
-15.308482 -11.699593 -53.249717
-21.399511 9.536969 -36.640345
21.894022 29.956985 -13.062532
3.768192 33.989774 -46.146429
21.936752 -17.733740 -51.371853
-12.324938 27.055632 -20.890738
22.837594 -17.134213 -11.922408
34.756968 6.652703 -55.544867
-14.186984 -13.002896 -29.879673
21.864512 -17.778912 -42.331491
21.969285 -17.713396 -40.848931
-15.166621 -11.873425 -51.403848
-4.976041 31.877862 -22.481092
-8.387699 30.042500 -40.761470
30.682897 -8.893795 -21.308540
-16.155521 22.796015 -20.794237
-21.132656 2.669201 -40.220680
-17.092835 21.431403 -40.405622
-0.975767 -21.136479 -32.915333
-12.565499 26.832738 -39.263192
29.415571 22.952678 -25.377947
32.925041 -4.483640 -48.513499
-10.233279 -16.579143 -45.862539
32.185766 -6.158451 -51.493366
-18.102508 -7.543047 -25.760549
9.117262 -21.854824 -53.996853
34.787836 6.161352 -26.299760
-21.343582 5.426924 -21.990313
-15.579740 -11.367205 -41.546223
9.697302 -21.818380 -45.256660
-1.861132 33.081686 -19.637707
-1.003132 33.319789 -32.361299
4.227901 -22.089956 -12.773217
20.868644 30.584100 -23.493660
-6.727114 31.010660 -12.249142
14.019698 -21.215986 -15.092556
-2.446612 32.887900 -42.113712
31.545876 19.606578 -9.134028
23.145571 -16.913590 -10.568486
-9.063983 -17.411233 -18.204155
29.827553 22.377598 -36.582792
30.649597 21.139390 -9.457913
-20.166832 15.012385 -21.662160
27.187188 25.600425 -5.542215
34.596587 9.205434 -17.639828
9.359334 34.273292 -21.538781
17.019244 32.438608 -29.544693
28.754509 23.804974 -44.196099
-1.708395 -20.926360 -37.016457
-3.640533 -20.244348 -46.423840
-8.390681 30.040637 -42.398229
34.552031 9.914603 -13.432860
-21.075992 11.573435 -19.988196
11.614312 33.964965 -40.391199
34.017774 -1.177869 -37.612180
-21.263766 4.383385 -11.102261
25.927235 -14.643879 -9.226952
31.177998 -8.071710 -31.389404
26.002272 -14.574355 -45.769240
23.493222 -16.664545 -45.369129
15.275794 33.058465 -47.479347
-21.183985 11.011482 -6.037266
4.010054 -22.075804 -16.047289
33.078290 16.292900 -40.869125
13.851037 33.459007 -17.871341
31.414513 -7.648224 -17.798233
-1.832716 33.091090 -8.016980
9.908318 -21.805122 -37.119677
25.960691 26.812636 -37.046476
2.429703 -21.877460 -19.812053
34.604047 9.086700 -8.521837
-4.077709 32.270629 -26.167039
-20.440886 -1.948557 -30.209117
-13.040797 26.392346 -39.032627
34.861443 3.445884 -28.083908
5.257793 34.093256 -8.301471
14.551901 -21.075432 -46.391943
24.675370 27.937300 -48.647618
34.781320 6.265045 -31.788355
-21.273494 10.483611 -28.334673
-18.507606 -6.794379 -38.967246
-21.343254 5.422643 -12.945854
25.879378 -14.688223 -19.831630
34.492270 0.868846 -37.096968
-13.091821 -14.137407 -19.402905
17.541010 32.227983 -26.488839
-20.609125 -1.311556 -40.293989
32.492380 17.700190 -33.910781
-3.823141 32.369455 -46.436112
-4.022320 32.292134 -32.293001
30.744393 20.987792 -37.737574
20.324121 30.888222 -51.201658
23.269877 -16.824543 -45.920822
-20.600496 13.558687 -3.452679
20.119569 -18.801630 -48.886689
13.727739 33.490138 -41.306691
21.553498 -17.973385 -17.556384
-11.863771 -15.270868 -23.844802
-9.077272 -17.402674 -29.764681
22.036526 29.865212 -5.253514
34.901973 4.070135 -21.765028
34.624578 8.759919 -12.575591
34.801354 2.892373 -15.120142
2.990271 33.935730 -25.401549
-21.324496 5.177388 -14.822508
16.965190 32.460428 -36.569331
2.972259 33.934483 -37.977351
33.576165 14.924154 -12.263455
-21.209153 3.669383 -47.210097
23.300646 -16.802498 -42.009540
0.047479 -21.394806 -32.748143
34.233950 -0.321573 -15.698629
-13.982975 -13.223074 -20.135838
13.795879 -21.275100 -23.354619
34.560222 9.784238 -7.964711
-15.282897 23.933877 -33.952240
-21.163377 11.115738 -35.857559
-16.785764 21.908210 -34.410574
32.889807 -4.570922 -51.502046
2.845324 33.925665 -41.150526
18.269324 -19.716395 -24.538577
20.009110 -18.861401 -22.914966
4.594450 -22.113764 -43.127584
-7.008079 -18.660121 -44.628744
13.602787 -21.326095 -25.938418
-16.313240 22.581952 -5.608247
24.131073 -16.183102 -16.175650
34.719492 7.249166 -38.603839
-20.827185 12.660755 -6.655183
16.983077 32.453210 -39.830512
10.723702 34.103826 -38.125186
-12.555990 -14.647369 -44.081296
32.474608 17.738634 -43.978065
-21.327164 10.080470 -29.447593
24.872022 -15.578409 -44.982102
20.340161 -18.682266 -12.085858
-0.884804 33.351042 -48.033018
16.632115 32.594881 -33.385395
5.210654 34.089984 -11.713063
19.702701 -19.027204 -25.441245
-21.055721 11.696618 -43.268516
11.028266 34.063265 -24.936171
-4.753574 31.980737 -17.122183
-1.051719 33.306955 -29.838107
-15.930375 -10.914782 -18.772126
-7.047767 30.837150 -32.657801
-18.950564 18.072246 -16.157596
-13.549679 25.876984 -34.481376
17.477578 32.253590 -9.132804
5.910232 34.138580 -15.398080
34.774152 6.379144 -41.775639
-0.370118 33.486982 -24.105023
-21.111446 2.391900 -35.693192
-21.150911 2.907882 -32.066648
22.848831 -17.126164 -14.381401
32.528432 17.622234 -36.244538
-18.762529 -6.278940 -8.040714
19.963882 31.089416 -17.222120
-5.753142 -19.314693 -18.016957
5.687038 34.123074 -7.988749
-7.139694 -18.586618 -44.816566
-21.366208 5.722728 -29.951531
17.046518 32.427600 -44.285117
-21.424621 6.486441 -22.205616
-21.292928 10.337638 -34.743888
7.554726 -21.952998 -5.829179
14.209517 33.368503 -22.790246
15.403772 -20.827474 -10.874676
-4.036397 -20.084551 -17.275786
-0.079061 -21.362859 -37.605507
10.529599 -21.766087 -35.342815
6.078899 34.150299 -9.105667
-4.345193 -19.959902 -18.565562
-8.325928 -17.886545 -43.403930
30.620315 -8.990973 -13.947876
-18.148500 19.657700 -19.035276
28.886293 23.643487 -37.048156
-12.578963 26.820264 -41.388826
-21.059961 1.718778 -37.662833
-3.375041 32.543413 -20.657683
30.559108 21.284105 -46.169469
-19.747222 16.202593 -29.056571
-16.086653 -10.696633 -15.359538
-21.079449 1.973584 -30.962749
31.641982 19.428967 -37.677083
9.096792 -21.856110 -44.132985
33.030818 16.415176 -8.840755
-21.165851 3.103213 -7.111390
3.515258 33.972204 -41.666327
31.814743 19.109684 -33.413477
30.674383 21.099754 -13.079874
-3.691171 -20.223907 -35.122430
-7.099799 30.808994 -25.565307
18.479651 31.820645 -31.757237
-21.501402 8.583370 -36.724238
25.780816 -14.779545 -21.555369
12.707101 -21.546742 -33.531444
4.369245 -22.099136 -49.198997
-9.451418 29.342513 -27.894333
17.146488 32.387241 -50.217679
33.148317 -3.930516 -16.439409
34.663337 1.855511 -7.176862
-13.906548 -13.305559 -25.180543
34.443329 0.601967 -2.115734
-5.048050 -19.652280 -36.978533
-20.845962 -0.414830 -35.770938
22.144423 -17.603885 -29.450624
-13.949357 25.457033 -4.325107
29.760107 22.471737 -43.545397
-18.067389 19.802933 -8.676514
-13.653576 -13.578581 -21.650810
-18.703477 18.588357 -44.538343
29.844648 22.353730 -30.357396
-21.180761 3.298150 -43.955501
-4.785168 31.966125 -27.835779
-16.072853 -10.715896 -20.527098
-16.987205 21.595422 -9.025959
29.887558 22.293834 -40.559947
-20.738037 -0.823461 -44.067248
-2.027606 33.026585 -21.145930
30.434789 21.482907 -29.937638
13.533186 -21.344477 -20.213268
-19.053679 -5.649338 -9.838256
-11.170276 -15.852408 -50.127909
3.471928 33.969193 -23.289988
31.281103 20.095906 -20.454273
-21.292645 4.760964 -13.494820
-18.867520 -6.051903 -18.960843
-11.606970 27.689379 -48.287758
-15.182820 -11.853574 -24.850075
-16.477514 -10.151030 -38.556601
-16.002273 -10.814418 -30.920327
-11.531878 27.750663 -26.725775
0.073109 -21.401277 -32.269937
-0.234163 33.522889 -36.816821
4.220161 -22.089452 -9.112829
1.799138 -21.775977 -40.935401
26.024954 26.751477 -9.459245
29.911822 22.259964 -43.397235
23.290100 -16.810055 -47.682907
30.941190 20.673074 -36.679302
-21.321728 5.141192 -9.420306
-21.283211 4.637594 -13.490753
-21.083391 2.025113 -35.598035
6.970967 -21.989675 -15.350775
-20.659795 -1.119703 -4.782892
-21.440166 9.231541 -22.746009
29.229110 -11.002223 -47.591119
-8.675651 29.862444 -44.620885
-8.948019 29.692136 -33.270057
17.313614 -20.125671 -49.034746
-9.589096 29.243886 -18.626350
-18.655335 18.688917 -31.328665
-16.129647 -10.636620 -16.885157
-20.840156 12.609363 -12.783356
31.813546 19.111900 -30.754741
-2.411060 -20.692855 -18.571077
-4.164134 -20.032990 -22.942698
25.618189 -14.930229 -27.655602
-16.245564 22.673803 -20.412668
-15.766893 23.323480 -31.903650
-6.486866 31.140660 -21.879566
19.280015 31.437480 -28.475885
31.499309 -7.496396 -11.708346
-8.148438 30.192108 -17.444010
-15.197137 -11.836031 -16.306166
20.326177 -18.689834 -51.315352
-10.181601 -16.617220 -8.825493
34.803989 5.904213 -38.788224
-18.588586 18.828337 -31.759012
33.979853 13.509779 -11.216545
28.571559 -11.834619 -18.528363
34.734210 7.014932 -38.243217
2.351315 33.891346 -34.001038
-14.204937 25.188486 -36.288289
-20.149469 15.064635 -40.646088
24.626428 -15.778839 -14.133037
-21.179708 3.284372 -12.686489
31.137775 -8.143724 -39.299241
-0.358704 33.489996 -18.622295
-21.400630 9.528563 -40.145892
13.469279 -21.361353 -29.456600
25.759576 27.004036 -27.764833
26.270620 -14.325711 -38.609703
-21.345495 5.451914 -13.676282
34.734026 7.017825 -39.185100
34.384040 11.843884 -48.874528
-4.014596 -20.093351 -53.780781
-6.448439 31.161454 -11.854071
-21.245897 4.149755 -43.770072
-5.733790 -19.323958 -22.898293
28.070354 -12.432308 -32.681747
31.494376 -7.505230 -15.793481
34.497393 0.894773 -43.775781
34.087351 13.102762 -40.057706
16.961179 -20.262489 -5.732306
-5.666088 -19.356374 -12.106083
-20.805492 -0.568061 -30.280245
-20.694871 -0.986896 -6.645541
-15.491576 -11.475238 -48.166034
-19.480472 16.863370 -37.845319
16.046606 32.802319 -20.580390
13.953048 33.433254 -20.343948
30.342751 -9.421965 -42.569144
-21.146020 2.843948 -45.562908
-21.136534 11.251529 -22.483995
31.084520 20.443859 -17.389999
-13.776810 -13.445581 -10.916286
-13.870515 25.539872 -42.577646
-8.131925 -18.011487 -42.958426
-16.143955 22.811715 -14.106370
-21.093181 2.153128 -29.469293
17.220428 -20.161848 -44.114072
32.991510 -4.318972 -12.722072
22.158722 29.786514 -15.229742
-19.793195 -3.874329 -36.385332
27.559523 25.198574 -51.721481
-11.412844 27.847807 -49.055082
-1.137956 33.284178 -37.456383
31.343626 -7.775147 -39.996700
-21.386875 5.992933 -16.873608
-21.079208 11.553877 -24.189216
-20.538436 -1.579202 -14.513956
26.345460 26.446452 -13.604939
-20.476253 -1.814641 -11.761557
-9.503241 -17.117042 -27.310043
34.881519 3.755064 -24.721808
30.010465 22.122263 -41.658456
-21.423921 6.477282 -25.869882
-11.435812 27.829061 -38.224584
34.783913 6.223796 -40.246864
-16.289407 -10.413611 -14.764259
34.146530 12.878700 -34.532924
-20.771084 -0.698338 -33.536597
30.390108 -9.348432 -4.487129
19.138632 31.505163 -22.317579
26.078812 26.700221 -35.929591
32.562783 17.547948 -43.211360
31.669243 19.378590 -38.722353
-21.297734 4.827500 -9.460700
-21.319101 5.106833 -29.943515
15.852636 32.866774 -26.938808
-17.130977 21.372182 -49.098895
21.652982 -17.911183 -4.932882
33.561351 14.968910 -46.375882
-16.408949 22.452050 -23.472104
22.226573 29.742820 -20.576220
33.437926 -3.115496 -42.543920
-9.318616 29.437648 -15.730913
9.707304 34.239120 -34.230904
-0.320990 -21.301784 -8.551013
-0.807218 -21.179032 -12.856495
27.734247 25.009992 -44.774649
-18.772223 18.444764 -31.114906
6.297052 -22.032017 -27.897047
-13.628536 25.794127 -40.935068
-2.258885 32.950036 -50.572239
3.518187 33.972409 -48.182308
11.832789 33.921775 -23.627016
33.584888 14.897794 -43.210138
34.026536 -1.143163 -38.044105
7.933056 -21.929227 -18.366783
12.346167 -21.616096 -21.849475
3.796379 33.991733 -5.846812
34.400684 11.757264 -39.213704
20.455581 -18.619810 -25.719343
2.670505 -21.909525 -30.973959
0.735835 33.758000 -11.615841
18.962171 -19.395996 -24.155360
11.477870 33.991934 -35.238686
-21.262006 4.360364 -12.110704
-21.179861 3.286382 -39.039279
6.230625 34.160839 -32.009800
20.855750 30.591306 -19.321316
-21.041545 1.478011 -41.781913
25.924759 26.846830 -37.430106
34.019415 13.359992 -45.780020
-2.123273 32.994919 -7.944598
30.600896 21.217274 -20.023059
27.365546 25.407929 -9.815983
-0.173816 -21.338939 -46.122819
31.709017 -7.120910 -38.574332
-2.455926 -20.677943 -15.537811
6.487357 34.178673 -13.746320
-21.488267 8.785555 -40.011657
-21.156064 2.975271 -33.859579
27.595825 25.159390 -30.865089
-20.574797 -1.441524 -20.260085
14.481625 -21.093992 -37.266844
-16.339814 -10.343247 -46.484841
-0.274523 -21.313515 -14.554026
34.745946 6.828081 -31.965745
-13.495848 25.933547 -35.312556
28.735961 23.827705 -48.716944
34.089551 13.094436 -42.463451
-21.413623 9.430949 -6.261047
-21.301658 10.272072 -14.312068
6.659766 -22.009229 -31.794536
-21.257197 4.297505 -20.474721
-18.339905 -7.104313 -38.708856
30.456698 -9.245030 -11.317098
4.847615 34.064761 -14.750558
-11.379499 27.875020 -30.001853
-10.676174 28.449008 -16.659932
31.208440 -8.017201 -41.750649
15.990576 32.820936 -5.071900
-14.107767 25.290586 -28.962069
2.619691 -21.902759 -50.118702
21.908348 29.947761 -12.704006
34.586295 9.369266 -15.856818
-12.297332 -14.893538 -17.960715
34.881820 3.759738 -21.731132
-0.439682 -21.271819 -7.410950
-19.542687 16.709255 -5.770789
-9.795914 -16.901399 -34.130794
14.413746 33.316946 -32.835759
23.499186 28.853930 -17.690964
29.425675 22.938575 -20.902965
-7.109671 -18.603385 -8.955611
2.624006 -21.903334 -52.506453
-0.013008 33.581302 -16.306815
-20.467966 -1.846022 -10.003806
31.371185 19.929434 -23.781122
21.539095 -17.982395 -12.082391
-0.847313 33.360945 -49.844599
2.323668 -21.863338 -12.413725
-14.162178 25.233415 -35.907875
11.527570 33.982112 -28.474140
34.412517 11.695692 -34.056155
30.664773 -8.921935 -15.655890
11.578536 33.972035 -50.327319
-4.891143 31.917119 -18.984808
-21.234687 4.003172 -15.417759
-5.262235 31.745517 -38.493119
32.883528 16.794574 -16.454191
-17.138985 -9.165365 -22.348262
28.119493 -12.373712 -27.526529
34.783963 6.223005 -35.508014
-10.185254 -16.614528 -13.421818
-19.579074 -4.425894 -9.027401
-4.268977 -19.990668 -22.673860
-8.617968 -17.698469 -14.606967
25.879857 26.889566 -35.318016
4.165970 -22.085934 -13.506771
-6.257117 31.264981 -19.998713
34.530855 10.251649 -22.018026
-12.547342 -14.655600 -46.229034
30.161654 -9.703170 -30.970250
25.863324 26.905299 -40.035429
17.010921 32.441967 -39.177334
-17.449640 -8.668561 -41.225099
-20.907246 12.343615 -22.834525
34.627809 8.708492 -18.303568
-0.085424 33.562173 -32.551532
32.342158 -5.831784 -31.328217
-5.381458 31.690384 -40.956532
32.079666 18.592689 -26.637139
34.572177 1.273036 -29.222554
33.272508 15.792626 -44.548294
33.559566 -2.749464 -16.189672
-21.521919 8.267460 -29.415525
-7.851867 30.377556 -12.715606
3.578975 33.976630 -44.182973
-21.485619 8.826364 -41.950456
34.530391 1.061671 -33.484413
-21.414230 6.350586 -26.373983
21.791751 30.022850 -37.318700
-19.375665 17.122994 -24.164894
4.255184 34.023607 -2.810615
-17.991462 -7.748271 -6.809570
32.111574 18.523686 -24.130024
10.174299 34.176968 -15.132620
-19.745165 -3.998051 -44.342957
6.445963 -22.022661 -27.485921
22.985729 -17.028097 -9.060443
34.714879 7.322611 -44.343069
-16.113935 -10.658549 -25.770458
34.893821 3.944588 -31.942860
24.517465 -15.867763 -13.106163
-20.740978 -0.812326 -33.005285
26.019432 -14.558455 -50.168444
0.793766 33.769131 -18.933555
-2.450644 -20.679698 -30.635462
-3.414561 -20.335564 -45.531662
32.992847 -4.315656 -16.100323
34.400257 11.759486 -39.052595
28.377538 24.266898 -20.097678
-20.575045 -1.440586 -8.641240
-19.557095 -4.482512 -16.522156
1.085856 -21.642223 -17.380473
7.272114 -21.970754 -15.161168
3.164443 33.947833 -28.551455
-13.922714 25.485025 -48.753869
-18.335207 -7.112992 -46.478518
-7.520487 -18.373957 -13.469319
21.892523 -17.761398 -44.208040
27.487109 -13.084395 -18.790554
-12.603844 26.797207 -34.349460
-21.156742 2.984139 -42.494911
34.632163 1.621349 -30.039614
-19.781213 16.118389 -33.190300
-20.297084 14.620424 -12.310197
19.004857 -19.376254 -37.786477
6.197306 -22.038283 -23.722876
1.249578 -21.669152 -30.805590
-20.133113 -2.944581 -14.043862
-1.622803 -20.954803 -40.428929
28.734368 23.829651 -39.863880
27.392510 -13.183789 -25.643063
34.679205 7.890419 -10.597031
-20.567682 -1.468466 -22.223050
11.044127 -21.733760 -26.162360
33.705579 -2.310096 -21.622456
-17.549884 -8.508253 -27.098821
30.738011 -8.808214 -18.684794
18.515486 31.803486 -34.184675
-14.778180 24.535739 -45.751676
25.984966 -14.590389 -48.853219
7.054483 34.218069 -17.097479
-12.788054 -14.426509 -17.575236
34.626870 8.723422 -13.916343
30.176993 -9.679357 -21.202534
-18.112587 -7.524419 -13.794797
1.791839 -21.774532 -45.852152
-16.185339 22.755543 -22.194706
2.408563 33.895321 -30.193185
11.762526 33.935662 -4.483823
7.645934 -21.947266 -14.765120
31.558777 19.582744 -50.148749
-21.361585 9.821926 -39.564363
-15.296327 -11.714485 -51.833253
15.283363 33.055949 -30.066901
19.612688 -19.075911 -17.642786
-3.739063 32.402095 -39.881781
11.919091 33.904712 -11.737063
-19.476145 16.874085 -34.313697
-20.757849 -0.748452 -44.915495
-6.304306 31.239445 -29.107592
25.991319 26.783490 -39.172857
-13.868102 25.542407 -44.971068
-20.542299 -1.564573 -25.179180
29.399895 -10.770430 -49.989626
-20.569788 -1.460490 -13.611659
33.426042 -3.151256 -41.353706
4.175813 -22.086572 -10.204120
28.334722 -12.117049 -45.356433
-13.789120 25.625398 -19.728308
-19.681745 16.364791 -19.398713
-15.888303 23.158695 -39.094889
28.469212 24.154565 -6.115698
-15.085479 -11.972850 -21.357533
32.273682 -5.974808 -18.108518
-17.050915 21.496499 -49.416924
-8.513956 29.963552 -53.886503
34.656955 1.807582 -41.550426
4.134412 -22.083883 -14.495687
5.145257 34.085440 -16.316065
-19.064666 17.833911 -18.137043
32.893703 -4.561267 -13.520150
25.140255 27.547463 -14.421163
31.270408 -7.906241 -37.972785
32.970203 -4.371762 -12.829652
-15.474517 -11.496139 -44.887924
-5.232481 -19.563978 -43.065361
29.304392 -10.900044 -29.995557
33.990392 -1.286328 -27.708504
-6.960501 30.884371 -49.681413
8.767504 -21.876798 -40.079675
0.837788 33.777593 -13.302764
11.739441 33.940225 -8.903357
-3.369929 32.545397 -25.662574
4.850629 34.064971 -20.585904
34.029675 13.321145 -41.461126
18.611683 -19.558076 -17.871936
-5.416467 31.674195 -52.621526
5.826498 34.132764 -12.294893
34.019734 13.358781 -51.018057
18.184489 -19.755625 -13.872304
-20.498303 -1.731152 -28.526388
18.595184 -19.565705 -49.741769
-16.878502 21.764205 -29.787648
19.805261 -18.971708 -29.244827
34.856029 5.075915 -25.776866
23.340032 28.971201 -36.502667
-4.891625 31.916897 -8.339580
-18.288036 -7.200171 -37.614821
-16.484510 22.349496 -14.151215
-18.176448 -7.406400 -19.077330
34.397300 11.774885 -38.404450
21.857044 -17.783582 -55.231585
30.436228 21.480612 -23.690829
34.026426 13.333437 -49.576896
-11.604977 27.691003 -38.509447
-15.449329 -11.527004 -50.545319
-9.683848 29.176009 -46.375217
-21.345012 5.445604 -14.872678
-10.081417 28.891207 -31.059170
25.740113 -14.817260 -11.399377
30.693532 -8.877277 -20.072129
34.763618 6.546814 -45.676431
-0.993530 -21.131995 -25.128835
21.608217 30.141044 -31.229004
34.695494 7.631136 -43.096074
18.394301 31.861505 -33.792707
34.569401 1.258994 -17.781539
-3.515601 -20.294780 -48.802355
-21.053290 11.711381 -43.254010
3.405955 -22.007433 -40.594808
24.091850 -16.215111 -31.803928
-21.108613 2.354886 -23.115667
-21.202821 3.586565 -35.055221
-18.124613 -7.502195 -15.046944
-17.661099 -8.330395 -52.357524
33.511863 15.118438 -23.751960
25.398613 -15.133680 -19.086253
32.009425 -6.526787 -35.835748
23.582431 -16.600641 -49.421110
-17.352149 21.028757 -14.563598
2.720925 33.917020 -33.997050
-5.723986 31.531989 -37.003430
-10.200754 -16.603106 -8.811111
-9.161356 -17.348522 -23.470461
14.269208 -21.150091 -33.046015
-21.197646 10.942381 -26.198225
24.448969 -15.923663 -53.731890
10.529115 -21.766119 -36.544526
-16.129825 22.830890 -24.498437
-9.292097 29.456644 -31.404526
-10.285623 -16.540574 -26.813842
-21.289639 4.721631 -10.933040
21.602765 -17.942579 -20.248855
4.022819 -22.076635 -19.080530
-19.959272 15.636984 -36.800469
-21.310412 4.993231 -9.528974
-21.415293 9.418403 -8.020903
28.443157 24.186495 -13.651880
10.484390 -21.768927 -37.848495
28.816671 23.728802 -32.445563
12.332958 -21.618634 -3.177482
-15.433135 -11.546847 -45.089231
-11.935240 -15.210935 -12.253228
24.765225 -15.665567 -31.744694
5.832654 34.133190 -16.543262
-3.931023 32.327574 -39.715378
-18.630599 18.740577 -40.691739
32.384103 17.934344 -15.848452
-21.342109 5.407645 -20.843184
31.277475 -7.893592 -12.689195
-21.477968 7.183917 -36.073377
2.463481 33.899138 -26.874925
29.720011 22.527709 -40.282253
-2.340556 32.923003 -9.619959
0.410135 -21.486363 -39.998769
27.673093 25.075996 -36.938296
34.753327 2.531534 -46.261529
-10.109400 -16.670417 -15.201996
-21.424393 6.483471 -12.648407
23.373804 -16.750092 -35.095446
-15.168333 -11.871327 -12.677409
17.414933 32.278878 -12.859221
30.975244 20.618619 -30.442453
-11.370522 27.882347 -44.878768
-16.662445 -9.892882 -32.545960
10.985937 -21.737416 -46.127718
-2.997938 32.689809 0.933481
16.849216 32.507240 -33.618749
32.375983 -5.761128 -27.312263
13.399593 33.572979 -33.982280
6.371665 -22.027329 -13.328149
-21.435486 9.266692 -53.966574
-17.314103 21.087833 -17.607271
-17.186774 -9.088941 -5.014654
28.227602 -12.244790 -44.509579
-0.626504 33.419265 -8.209293
-2.296164 32.937696 -47.931290
30.215994 -9.618796 -47.738931
-1.036788 33.310900 -24.649211
-21.186926 10.996605 -31.733338
-13.984136 25.420488 -49.732671
5.869660 -22.058870 -27.746898
18.764373 31.684335 -39.713021
34.574094 9.563496 -16.895335
-8.079371 30.235296 -10.629052
18.771881 31.680744 -42.945002
23.933421 28.533977 -19.671375
24.909171 27.741243 -54.907972
-15.876787 23.174330 -28.823223
34.704469 7.488285 -43.176466
33.695855 -2.339363 -28.836964
30.622311 21.183032 -13.599265
-20.256217 14.743407 -26.150430
-19.104989 -5.538380 -34.359096
-11.083373 28.116690 -16.523080
-21.334911 5.313550 -7.751822
34.051415 -1.044621 -46.081160
34.857487 3.384919 -36.953004
-20.511444 -1.681410 -19.631159
23.974823 28.503469 -32.764220
-20.680704 -1.040536 -47.457400
-16.288023 22.616176 -14.657606
-11.078408 28.120743 -53.629160
34.564036 9.723590 -23.095405
-21.352460 5.542980 -24.117597
-2.566351 -20.641249 -35.386150
-0.276460 33.511718 -23.298808
11.777984 33.932607 -29.501256
34.351175 12.014933 -11.327217
34.649449 1.751208 -38.168968
15.208671 33.080770 -40.245005
27.654234 25.096355 -35.421169
20.413075 30.838541 -6.853506
29.539782 22.779294 -13.052105
7.472083 -21.958190 -25.476303
-1.083161 -21.109366 -27.559891
-14.642361 24.697705 -41.484277
-11.228832 27.997978 -37.896344
26.015726 -14.561889 -37.710947
33.903414 13.799187 -13.848952
-21.161812 3.050407 -49.973045
18.489496 31.815930 -51.966266
31.272146 -7.903130 -50.816940
3.655976 33.981979 -33.293205
18.268715 -19.716677 -29.239345
-16.377225 22.495107 -13.955207
19.301109 31.427383 -25.776403
25.817655 -14.745412 -15.061355
-13.473455 25.957074 -49.773845
28.367626 24.279045 -25.753922
10.275012 -21.782084 -19.305363
-5.599554 31.589528 -31.126120
-2.428109 -20.687187 -8.608992
-21.086265 2.062692 -32.823185
-19.783567 16.112557 -23.056052
-21.293627 10.332377 -14.207685
-7.608125 -18.325014 -15.080761
7.451583 -21.959478 -45.043113
31.955320 -6.639803 -19.438473
22.008583 -17.688825 -36.692196
32.937996 -4.451537 -14.877537
3.558967 -22.027802 -38.888466
-5.671231 -19.353912 -21.496766
7.650487 -21.946980 -51.581422
-12.969990 26.457956 -38.303135
1.735361 -21.763369 -42.150233
8.889444 34.303809 -3.103124
30.388048 21.557664 -19.265536
33.053224 16.357457 -10.193248
31.078294 20.453816 -21.285308
-14.304612 -12.875945 -29.369479
33.057543 -4.155392 -24.507906
-21.022767 1.232499 -54.682366
34.670320 1.907983 -12.607101
-20.756648 -0.753000 -27.339850
34.098725 -0.857229 -11.745518
-17.623510 -8.390509 -30.947904
5.284423 34.095105 -47.043735
-2.459113 -20.676885 -19.134106
27.666161 25.083483 -39.321907
-16.260646 -10.453754 -14.397764
-21.099641 2.237548 -34.644959
-7.155689 30.778755 -43.667561
33.826731 14.089520 -8.110810
-21.146063 2.844516 -39.605559
34.673214 7.985784 -16.316568
19.730075 -19.012391 -27.281990
0.429099 -21.491150 -47.135169
-21.172266 3.187086 -46.638738
-21.407942 9.473634 -37.616671
-20.777448 -0.674239 -48.550021
-10.698439 28.430835 -13.187826
9.249975 34.280393 -4.378330
-10.808185 28.341272 -35.276926
34.694398 7.648596 -44.276845
-12.728053 -14.483613 -11.760060
-0.002033 -21.382307 -53.606680
6.382504 34.171392 -26.764245
34.448292 0.632132 -30.503286
6.124140 34.153441 -3.551578
4.249434 34.023206 -48.294739
20.875083 30.580503 -25.137085
-21.424272 6.481874 -18.843303
-1.919803 -20.856107 -47.289282
3.342699 -21.999012 -14.412202
-20.850404 12.568767 -6.946909
34.799562 5.974681 -37.074320
-21.390509 6.040456 -16.607579
9.188872 34.284363 -9.425614
32.383984 -5.744412 -12.391835
-18.872052 -6.042104 -20.465279
22.187138 -17.577176 -44.801521
26.422666 26.372976 -18.548494
4.131354 -22.083685 -14.714539
34.560023 9.787444 -30.837804
31.102936 -8.206104 -52.919130
-7.332290 -18.479059 -22.901921
7.214338 34.229178 -19.209323
34.901619 4.064708 -22.765077
-17.291661 -8.921202 -44.919461
32.234625 -6.056395 -12.061777
10.013995 34.198301 -45.910170
24.323394 -16.026146 -21.937231
28.337577 -12.113640 -8.464237
34.020770 -1.165996 -35.760832
9.111540 34.289386 -5.655950
22.829565 -17.139963 -17.991613
-10.607879 -16.303133 -30.740207
-21.041398 11.783648 -26.466938
33.700016 -2.326837 -34.698980
-4.132600 32.249321 -30.682588
10.808402 34.092544 -42.151950
-14.721764 24.603017 -45.180375
-9.487200 29.316882 -33.667424
-13.064712 26.370186 -39.497407
22.988982 -17.025767 -48.518228
-3.905812 -20.137265 -46.663049
-16.129223 -10.637210 -20.340248
4.568815 -22.112098 -40.869949
26.194461 -14.396279 -30.501188
-18.308518 -7.162316 -49.103513
15.481736 -20.801669 -50.526924
-9.915306 -16.813428 -27.382954
20.129205 30.997084 -44.465809
33.603755 14.840791 -34.679730
-20.625560 13.459400 -40.352908
-2.799542 -20.563755 -41.427031
34.238417 -0.303881 -16.594488
-16.406548 22.455309 -14.010470
34.804046 5.903328 -35.669562
16.242350 32.737269 -23.951002
16.995342 -20.249227 -38.627456
34.597436 9.191952 -30.128292
-5.644012 31.568973 -30.210389
34.803042 5.919304 -43.109233
6.739181 34.196167 -31.451037
34.610243 8.988091 -9.374093
28.039525 -12.469073 -42.754819
-20.170593 -2.831345 -10.195666
-21.081611 2.001851 -23.116326
29.329774 -10.865594 -35.253227
-17.385672 -8.770860 -38.121362
-17.100352 21.419735 -41.580395
-20.648056 -1.164150 -13.182551
14.645960 -21.050590 -31.046162
24.612620 27.989921 -34.630428
-5.841597 -19.272343 -18.171412
14.492439 -21.091136 -53.194555
2.756509 33.919496 -24.758923
-9.998540 -16.752100 -33.463050
-4.144973 32.244516 -33.961809
-9.822517 29.076671 -16.367952
-21.151444 11.176103 -5.899357
34.202483 -0.446228 -16.251575
-16.251582 22.665635 -27.610323
-21.069823 1.847706 -41.600736
30.355259 21.610103 -28.389408
20.152572 -18.783774 -42.290400
14.515516 -21.085042 -34.015733
17.191147 32.369215 -52.605518
30.610178 -9.006709 -21.509212
-20.317934 14.557686 -23.419305
-19.707567 16.300826 -12.851623
33.364294 -3.337055 -29.149376
-5.861384 -19.262867 -15.009821
-20.671700 -1.074634 -48.048327
21.503008 -18.004957 -57.500789
-21.506426 8.505983 -9.241735
-17.263086 21.167051 -12.677805
8.955595 34.299514 -45.717578
20.829279 30.606087 -15.185879
26.908888 -13.691935 -48.482046
-20.533939 -1.596233 -15.521124
28.385105 24.257625 -22.974849
-6.513882 -18.936113 -31.230425
34.492655 0.870808 -51.721765
8.836725 -21.872449 -1.848642
7.836447 -21.935297 -15.440256
-20.986841 0.762800 -44.047477
34.435731 0.555770 -19.499581
4.303488 34.026960 -8.578537
33.138007 16.139066 -44.672160
30.553642 -9.094498 -21.271607
34.733497 7.026228 -49.080176
-2.573158 -20.638986 -20.157373
10.430368 -21.772321 -30.338114
32.809525 16.985190 -32.949167
-18.908005 -5.964355 -49.053794
20.820979 30.610723 -29.474852
-20.046532 15.374395 -44.492888
6.617699 34.187729 -17.860297
0.321613 -21.464014 -33.283086
-10.375516 -16.474342 -18.926467
33.898434 13.818041 -28.234572
-17.227224 21.222733 -13.580939
28.235084 24.441462 -18.277000
33.413370 -3.189384 -29.271897
-20.248721 -2.595308 -42.947189
31.467167 19.752046 -13.663731
34.785284 6.201945 -41.458326
15.259391 33.063914 -38.004610
2.259865 -21.854845 -25.620353
-3.843608 32.361507 -33.306232
15.348347 33.034356 -45.914542
17.053500 32.424779 -38.627238
34.874480 3.646637 -55.798934
34.512448 10.544707 -33.224339
-16.127573 -10.639513 -21.660577
-17.372619 -8.791739 -47.009499
33.168793 16.059767 -33.992240
27.610821 25.143207 -40.117546
-21.056986 1.679880 -34.422493
-16.447480 22.399755 -8.329800
-5.538081 -19.417662 -6.892184
20.087317 -18.819082 -13.875361
21.481326 -18.018515 -18.840014
34.146493 12.878859 -28.738811
33.963431 -1.393131 -31.280567
-14.712224 24.614394 -46.033597
-20.799870 12.768947 -48.166120
-21.024323 1.252849 -29.678624
-12.530491 -14.671636 -21.357364
34.682460 7.838637 -17.260009
33.644020 -2.495332 -25.412298
-21.326952 5.209499 -19.417223
23.265827 -16.827441 -36.022474
-3.298634 -20.382360 -31.948086
-4.818891 31.950531 -24.097974
-6.510605 31.127817 -20.389440
33.648575 14.705365 -38.093364
-10.205480 28.802335 -44.357593
-8.494250 -17.778146 -43.082445
-16.327162 22.563055 -15.721135
15.699133 -20.729713 -33.060851
4.499839 -22.107619 -43.379594
34.673720 7.977728 -11.350972
27.377892 -13.199150 -21.408395
-20.703117 -0.955673 -44.744021
-19.766107 -3.944107 -43.273420
-3.714440 32.411655 -38.155232
34.125215 12.959419 -22.746635
13.534104 -21.344234 -15.478171
-21.520675 8.286629 -25.995739
13.588337 -21.329911 -15.098920
-19.141294 -5.459871 -34.038797
-21.334638 5.309975 -25.206237
-20.085165 -3.089443 -16.759622
-21.073033 1.889702 -47.292432
34.560491 9.779936 -27.229173
32.944534 -4.435345 -44.201009
10.748863 -21.752311 -36.079121
14.063579 33.405346 -14.521337
31.504299 -7.487460 -19.144208
-15.119602 24.128602 -51.249071
11.554965 33.976694 -44.236256
-2.215670 -20.757784 -0.952901
29.540051 22.778919 -4.970165
33.521614 15.088977 -20.743040
-12.569700 -14.634322 -42.444209
-21.119200 2.493285 -39.030990
-10.094482 28.881851 -22.648029
-13.668349 25.752295 -51.560762
-20.948919 12.178546 -30.817782
25.688940 -14.864676 -14.322397
31.495318 -7.503540 -19.581805
29.249326 -10.974785 -39.745814
-7.215161 -18.544471 -23.712617
-21.455645 6.892052 -11.945288
22.416705 29.620371 -9.560708
28.655127 -11.734962 -31.702552
-17.446791 20.881803 -28.251423
-19.153335 -5.433836 -39.315077
20.061221 -18.833205 -46.394972
20.582297 30.744027 -23.435685
30.471833 -9.221534 -12.873803
30.544449 21.307544 -19.902878
31.320326 20.023423 -22.844178
-8.664754 29.869261 -49.311779
31.380426 19.912351 -23.614227
-13.561511 25.864556 -24.302931
32.749260 -4.919088 -37.884862
-21.129474 2.627598 -42.473309
30.630039 21.170667 -14.988227
-8.365331 30.056486 -20.125217
9.350455 -21.840174 -42.502490
22.826415 -17.142220 -25.664002
5.424537 34.104841 -14.891796
-1.961993 -20.842086 -31.108373
28.263259 24.406934 -34.284480
34.766566 2.630990 -47.220209
30.646908 21.143695 -40.034984
-21.318693 5.101506 -12.050213
15.841590 32.870445 -13.936081
6.427988 -22.023791 -21.685413
-9.077485 -17.402536 -26.521619
6.343076 34.168649 -25.126256
-19.770231 16.145596 -13.417552
30.641236 -8.958481 -16.015938
26.892923 -13.708704 -43.255669
21.745000 30.052958 -6.865412
12.673391 -21.553219 -38.145763
-7.859781 30.372604 -23.620087
23.920984 28.543139 -31.203326
33.438845 15.339058 -14.676152
-18.273301 -7.227404 -7.615347
32.750276 -4.916577 -41.347614
34.736677 6.975660 -34.835750
10.179653 -21.788074 -29.240828
-14.018844 25.384017 -20.171497
7.997259 -21.925193 -13.905701
-0.781531 -21.185515 -32.673085
-20.738839 13.010688 -22.334535
18.688955 -19.522341 -6.004352
-11.328709 27.916471 -45.231086
-13.356188 26.080294 -26.836102
1.959102 -21.807596 -37.024332
27.541946 25.217541 -53.632802
-17.388791 -8.765874 -46.416909
30.661729 21.119988 -51.190043
23.200477 -16.874259 -13.866516
29.646807 -10.435317 -14.499023
30.668844 21.108611 -15.984393
-21.243423 4.117405 -24.736978
-5.239834 -19.560458 -40.829373
15.439985 33.003900 -48.202015
-21.373862 5.822783 -9.963099
-0.836790 33.363723 -36.494135
21.374653 30.291463 -39.617867
28.569804 -11.836714 -19.848382
-16.021335 22.978140 -42.970776
-17.479878 -8.620205 -11.941384
15.206317 33.081554 -28.606669
34.882400 3.768619 -39.106499
26.850460 -13.753328 -33.017490
-20.630630 13.439319 -41.946422
-8.848255 -17.550162 -20.632975
31.909878 18.933865 -30.196265
34.883172 3.780581 -7.594483
30.119609 -9.768462 -25.959049
21.393909 -18.073179 -27.542118
32.862794 -4.637836 -37.698489
-21.518619 8.318285 -7.494177
10.615080 -21.760717 -25.132425
-18.815710 18.353930 -42.736718
30.655923 -8.935679 -27.247950
7.198098 -21.975404 -16.434806
11.001498 34.066829 -15.298898
0.468568 -21.501115 -29.468972
34.414102 11.687427 -36.384999
-19.086359 -5.578668 -5.601316
30.935695 20.681857 -28.007543
27.673702 25.075337 -29.998104
28.586503 24.010842 -43.761863
13.802318 33.471306 -42.856228
-17.363113 -8.806937 -33.796254
-20.161421 15.028671 -40.342035
6.625157 34.188248 -5.642156
-4.590718 32.056047 -29.097073
-9.767895 29.115803 -17.488403
3.650543 -22.039990 -44.279133
-20.264058 -2.548970 -38.915042
28.818683 23.726334 -40.283965
20.488977 -18.601741 -34.637181
28.254384 -12.212850 -14.158404
-12.656782 26.748159 -40.630130
-17.250851 -8.986470 -44.933789
-1.840794 33.088416 -25.945441
-20.203265 -2.732636 -33.216025
-4.248114 -19.999088 -12.422545
5.385613 34.102135 -7.681285
30.799015 20.900438 -31.281213
34.523635 1.027509 -45.987338
23.451050 -16.694759 -41.402171
10.861359 -21.745243 -25.478244
19.009910 -19.373918 -46.698193
22.271955 29.713596 -25.762835
-20.796759 12.781258 -14.576910
34.162923 -0.602937 -21.391574
34.213596 -0.402218 -12.789632
29.911982 22.259738 -38.649709
30.745674 20.985744 -36.689218
9.852990 34.219733 -33.951521
-8.706372 -17.641536 -36.331224
26.253961 -14.341148 -37.113721
15.956028 32.832416 -19.212198
-0.284481 -21.311001 -7.189014
-0.219155 33.526853 -17.485050
15.412042 33.013188 -32.583816
32.982322 -4.341730 -15.067296
-16.834995 21.831761 -36.373484
-21.506905 8.498614 -9.867178
-8.408049 -17.833661 -38.681181
11.010758 -21.735857 -16.953757
13.047674 33.661825 -42.671778
-21.295305 4.795729 -19.175881
-21.137200 11.248171 -34.315738
-21.382439 9.665236 -32.896381
-15.682662 -11.241087 -18.370063
33.497532 15.161732 -13.138105
-11.553855 27.732724 -20.893286
14.379691 -21.120912 -41.067657
-17.044635 -9.316252 -15.617480
2.621049 -21.902940 -4.076870
25.159861 27.531026 -21.367776
-21.306693 4.944628 -17.398035
-15.310531 -11.697081 -49.916301
34.801635 2.894462 -14.999937
-19.771884 16.141499 -19.225158
26.899937 -13.701337 -43.528241
-12.600220 26.800569 -5.318471
10.741644 34.101435 -47.845614
-2.037453 33.023326 -16.513916
-21.202309 10.918790 -18.318976
25.838794 -14.725827 -45.759002
3.126825 33.945218 -44.076480
24.642721 27.964681 -42.974665
-2.139105 32.989682 -44.328101
16.771643 -20.336070 -14.483649
-16.228593 22.696839 -23.112962
-21.315529 10.167884 -19.774977
-21.121447 2.522653 -53.454518
-5.366163 -19.499974 -43.925909
21.984505 29.898712 -33.937016
-16.855582 21.799799 -56.847771
21.988158 29.896359 -49.705411
-20.037392 15.401899 -52.262067
-14.109890 -13.086100 -7.810365
25.254691 27.451503 -36.884218
34.071749 13.161848 -28.381824
-5.614812 -19.380924 -4.539523
7.610972 34.256730 -37.351912
21.784377 -17.829020 -40.340067
-10.349872 -16.493236 -23.082391
18.884390 -19.431964 -52.506606
34.766629 6.498906 -32.562943
-8.094418 30.225888 -22.449532
31.134348 -8.149864 -41.296225
-17.344255 21.041015 -23.255329
-7.802356 30.408514 -28.850229
28.393110 24.247822 -14.595423
8.856565 34.305943 -49.563542
-0.516590 33.448295 -46.066860
23.563093 28.806845 -48.599308
33.857564 13.972776 -14.024843
2.386811 -21.871747 -17.993806
12.960779 33.683763 -33.446081
31.733763 19.259349 -54.703411
-20.039683 15.395005 -47.147614
-8.496951 -17.776404 -50.976271
34.081196 13.126070 -40.493954
5.136399 34.084822 -15.791572
34.013014 -1.196736 -41.145927
-6.670386 -18.848711 -17.948343
-21.169996 3.157416 -36.971166
-9.576238 -17.063258 -36.257197
-17.363799 -8.805841 -45.375320
33.177933 16.036226 -34.558868
-20.647425 -1.166541 -15.629874
34.550397 9.940667 -26.571568
33.966379 13.560798 -12.981302
26.423315 26.372360 -12.864277
-12.669693 26.736197 -49.467137
3.065821 33.940984 -29.652241
26.411649 26.383459 -26.358263
-17.516397 -8.561804 -46.040829
-5.322544 -19.520857 -41.318272
9.271399 34.279003 -25.662210
-3.706283 32.414820 -43.662966
31.314915 20.033422 -26.941537
32.834536 16.920763 -12.643401
-17.179739 21.296464 -16.480362
-0.877141 -21.161377 -25.850854
12.800130 33.724320 -40.659358
-21.286852 4.685233 -48.974038
29.757791 -10.284691 -26.589572
18.657559 31.735470 -43.859827
9.219816 -21.848381 -47.232887
28.062692 -12.441448 -22.586829
-7.245997 30.729887 -33.911393
34.537512 10.145764 -37.525450
