-9.316727 54.475547 -1.567860 20
-40.662430 61.362566 -43.786591 20
-17.876568 59.934302 -13.543326 20
-23.613279 61.865784 -32.058066 20
-23.639323 61.872575 -53.140972 20
-30.422746 62.739677 -59.297985 20
-22.560503 61.591269 -16.690962 20
-40.421392 61.426675 -60.757448 20
0.869858 34.082962 -47.595392 20
-24.823747 62.128675 1.661719 20
-18.885965 60.387608 -41.504607 20
-36.199706 62.361403 -52.354142 20
-7.541785 52.763999 -60.685659 20
-6.334669 51.431925 -11.085191 20
0.824161 34.433036 -24.156938 20
-35.009617 62.527909 -53.418141 20
0.370691 37.906969 -48.892288 20
0.811568 34.529506 -56.190069 20
0.868271 34.095117 -28.563467 20
-33.604939 62.652226 -19.325394 20
-27.892472 62.577569 -31.001621 20
-15.916134 59.006597 -38.831364 20
-26.262148 62.374481 -40.834542 20
-38.094406 62.028179 -50.784327 20
-27.212206 62.520701 -29.205001 20
-0.917173 42.886092 -50.797049 20
-17.591555 59.804712 -6.105360 20
-13.091005 57.334107 -50.376329 20
-2.705889 46.380515 -12.070725 20
-39.001889 61.804221 -56.833390 20
-45.837845 59.316297 1.369261 20
-24.919754 62.145082 -59.423938 20
-32.466208 62.734655 -29.229766 20
-9.580971 54.691102 -21.764259 20
-2.804840 46.544403 -56.891290 20
-10.935491 55.796042 -45.225604 20
0.370860 37.905675 -34.974466 20
-1.196049 43.489323 -57.819038 20
-15.399241 58.715718 -49.259209 20
-18.790130 60.349681 3.870315 20
-36.923642 62.234083 -45.117993 20
-43.787860 60.260501 -43.953147 20
-40.746085 61.340316 -9.337176 20
-44.702021 59.839447 -18.240668 20
-21.974164 61.438379 -57.162429 20
-11.895566 56.519034 -2.975575 20
-30.274212 62.740043 -33.486331 20
-39.678071 61.624377 -40.146858 20
-36.244904 62.353454 -41.454256 20
0.596720 36.175413 -18.021569 20
0.521018 36.755349 -23.316459 20
-40.915854 61.295163 -18.764864 20
-2.297053 45.703382 -1.527694 20
-37.602166 62.114750 -10.084589 20
-34.544293 62.569091 -48.094974 20
-0.038806 40.631658 -5.552542 20
-8.885520 54.067235 -23.075045 20
-22.688254 61.624581 3.768767 20
-25.901527 62.312855 -61.087716 20
-42.145763 60.862219 -21.948404 20
-12.597383 56.997547 -27.025128 20
-0.636596 42.165957 -4.933469 20
-1.726498 44.567132 -13.043083 20
-12.595458 56.996234 -55.255220 20
-3.030086 46.917465 -49.915836 20
-14.403331 58.155274 -24.684652 20
-14.686026 58.314360 -50.826561 20
-27.414184 62.537585 -39.338753 20
0.687651 35.478807 -0.761826 20
-14.680451 58.311223 -37.404981 20
-29.974693 62.740779 -11.688739 20
0.627622 35.938677 -27.674282 20
-37.516241 62.129861 3.456648 20
-14.866996 58.416200 -44.384329 20
-17.176109 59.615817 -11.860287 20
-4.806468 49.547334 -42.796981 20
-21.626563 61.347741 -2.980992 20
-26.662829 62.442953 -12.371876 20
-18.456601 60.198032 -45.060225 20
-30.122294 62.740416 -2.702567 20
-36.921881 62.234393 -43.261703 20
-22.517858 61.580149 -46.684859 20
-3.888351 48.285554 -20.500140 20
-14.020095 57.939610 -57.677484 20
-7.073899 52.283543 -51.791410 20
-16.205982 59.169707 -16.791603 20
-4.123035 48.608083 -44.695748 20
-11.454026 56.217984 -37.322166 20
-44.247325 60.048875 -59.066972 20
-14.417293 58.163132 -10.889718 20
-2.252921 45.630289 -3.285513 20
-3.067710 46.979779 -44.761986 20
-5.069042 49.908192 -7.884160 20
-31.288030 62.737551 -52.071288 20
-36.513354 62.306241 -50.470329 20
-44.225990 60.058702 -8.203370 20
-23.841089 61.925186 -0.095336 20
0.286187 38.554333 -42.557811 20
-26.503162 62.415667 -49.628408 20
-18.617752 60.271305 -24.498407 20
0.128754 39.760395 -9.869804 20
0.151389 39.586994 -56.317437 20
-6.515302 51.640021 -54.405422 20
-27.898911 62.578107 -44.565512 20
-37.791433 62.081463 -38.082592 20
-27.333120 62.530809 -6.565734 20
-3.899571 48.300974 -3.635534 20
-39.264672 61.734329 -32.179862 20
-9.632222 54.732910 -25.717215 20
-40.712166 61.349338 -21.530634 20
-20.133381 60.830147 -37.748169 20
-40.525932 61.398870 -38.367795 20
-3.443763 47.602615 0.364666 20
-14.714741 58.330519 -18.813071 20
-35.433663 62.490380 -60.789396 20
-9.760502 54.837553 1.726640 20
-35.313160 62.501045 -1.906867 20
-26.664252 62.443196 -37.243668 20
-42.319466 60.799640 3.869613 20
-5.993780 51.039210 -35.608143 20
-21.079606 61.165834 1.385126 20
-9.012721 54.190602 -60.675049 20
-21.090781 61.169798 -21.590987 20
-26.752479 62.458273 -52.278047 20
-10.789590 55.677024 -15.577987 20
-21.625363 61.347428 -12.289718 20
-31.246190 62.737654 0.294611 20
0.077326 40.154376 -30.760531 20
-0.336628 41.396053 -57.824680 20
-30.781172 62.738797 -20.679139 20
-8.426592 53.622139 -29.704036 20
-27.883509 62.576820 -42.756454 20
-21.598153 61.340333 -28.771843 20
-4.021265 48.468219 -32.031154 20
-46.209727 59.145011 -38.169119 20
-25.305660 62.211029 3.409264 20
-44.053213 60.138282 -57.335381 20
-0.524184 41.877440 -41.471607 20
0.751060 34.993042 -22.182327 20
-5.148656 50.017607 -29.076208 20
-11.653138 56.353742 -39.170075 20
-0.476500 41.755051 -24.387433 20
-37.713219 62.095219 -25.350695 20
-34.161588 62.602961 -33.653191 20
-34.899592 62.537647 -51.217907 20
0.635398 35.879106 -2.677088 20
-1.612356 44.335209 -26.281494 20
-45.533974 59.456257 -50.675405 20
-1.666995 44.446230 -19.768275 20
-13.123390 57.356188 1.863147 20
-1.107063 43.308513 -60.881078 20
-27.375057 62.534314 -19.411015 20
-29.478129 62.710126 -43.792316 20
-10.745965 55.641437 -35.068585 20
-29.185328 62.685648 1.093680 20
-29.740867 62.732090 -51.491234 20
-40.124869 61.505541 -29.405280 20
-28.406272 62.620521 -47.000633 20
-1.934596 44.989964 -8.749359 20
-10.954235 55.811332 -4.193320 20
-0.629021 42.146517 -19.766393 20
-0.558634 41.965859 -13.480918 20
-7.962261 53.171802 -48.587009 20
-17.554352 59.787796 -34.537236 20
-39.208506 61.749267 -28.018937 20
-17.969260 59.976447 -39.152835 20
-15.655519 58.859937 -25.509822 20
-17.494747 59.760695 -23.183530 20
-13.396385 57.542321 -29.637053 20
-8.070107 53.276397 -19.683347 20
-6.473244 51.591569 -4.934410 20
-33.501248 62.661402 -43.133698 20
0.055638 40.320517 -43.665812 20
-28.951625 62.666112 -25.539221 20
-39.621430 61.639442 -54.367341 20
0.804019 34.587339 -36.821277 20
-25.277277 62.206178 -27.699621 20
-18.664580 60.292596 2.208566 20
-16.393978 59.260196 -42.835318 20
-41.825632 60.977550 -37.319844 20
-6.019911 51.069314 -58.216755 20
-38.261495 61.998792 -46.632419 20
-12.893234 57.199263 -48.602021 20
-8.233670 53.435031 1.295846 20
-9.844799 54.906318 -14.044105 20
-0.711367 42.357866 -6.704319 20
-27.003909 62.501239 -54.136923 20
-44.047661 60.140839 -34.038124 20
-14.840281 58.401166 -1.899970 20
-13.095155 57.336937 -12.711459 20
-10.699783 55.603764 -55.596339 20
-24.331476 62.044552 -23.401482 20
-24.924704 62.145928 -44.505079 20
-1.659527 44.431055 -39.730409 20
-16.380087 59.253880 -27.540582 20
-32.840745 62.719858 -8.029467 20
-20.399605 60.924594 -0.783332 20
-4.888770 49.660442 -27.022100 20
-44.015325 60.155732 -20.583271 20
0.352477 38.046501 -0.009520 20
-39.132004 61.769614 -35.078827 20
-0.950585 42.971847 -33.686853 20
-32.219489 62.735261 -56.910604 20
-44.792289 59.797870 -31.833345 20
-0.476408 41.754815 -52.012311 20
0.880138 34.004211 0.759170 20
-8.049497 53.256409 -28.056609 20
-33.097807 62.697108 -41.360207 20
-39.767023 61.600718 -52.277958 20
-40.583403 61.383585 -3.953669 20
-24.960395 62.152027 -1.195304 20
0.882633 33.985097 -20.515086 20
-34.385627 62.583133 2.413993 20
-21.775570 61.386595 -35.987639 20
-20.977652 61.129664 -16.524107 20
-23.803982 61.915510 -4.434228 20
-30.761254 62.738846 -6.840131 20
-35.770003 62.436976 -0.263102 20
-16.163069 59.145558 -5.899530 20
-43.077349 60.526602 -27.051739 20
-31.740656 62.736438 -35.762751 20
-12.464218 56.906752 -46.381413 20
-16.845245 59.465379 -15.303128 20
-15.776384 58.927954 -12.316111 20
-2.674666 46.328802 -34.164441 20
-19.773673 60.702535 -19.894950 20
-13.048371 57.305039 3.667327 20
-17.802562 59.900653 -52.051241 20
-1.672393 44.457199 0.512842 20
-5.022410 49.844106 -58.924796 20
-26.673667 62.444805 -24.313083 20
-29.288219 62.694250 -31.782328 20
-4.789278 49.523710 -37.600829 20
-1.081843 43.257269 -31.951589 20
-44.423940 59.967528 -28.193799 20
-33.310148 62.678315 -35.261717 20
-24.219357 62.023821 -7.616945 20
-8.537351 53.729559 -47.078663 20
0.438643 37.386407 -29.684903 20
-2.970788 46.819253 -26.998996 20
-45.908661 59.283679 -27.746015 20
-1.506681 44.120490 -30.103351 20
0.668673 35.624192 -54.335224 20
0.216541 39.087880 -2.681587 20
-14.495059 58.206894 -13.208899 20
-13.748573 57.782450 -45.434298 20
-8.364773 53.562183 -32.857026 20
-38.031136 62.039306 -0.374126 20
-28.323792 62.613626 -10.773428 20
-3.925196 48.336190 -12.541814 20
-32.181872 62.735354 -47.915228 20
-3.940886 48.357753 -58.988753 20
-44.412593 59.972755 -4.616921 20
-13.123196 57.356056 -53.776398 20
0.345279 38.101641 -59.555960 20
-11.666182 56.362636 -19.025839 20
-29.221123 62.688641 -7.640608 20
-12.473073 56.912790 -40.845788 20
-1.881637 44.882356 -56.838364 20
-10.389470 55.350629 -38.847969 20
-18.049911 60.013118 -2.192706 20
-27.998879 62.586464 -23.316958 20
-7.191842 52.419418 -46.750703 20
0.441362 37.365570 1.813318 20
-25.131085 62.181196 -11.336496 20
-6.364508 51.466301 -3.060346 20
-24.627811 62.095192 -41.416864 20
-10.962565 55.818127 -8.906270 20
-14.962850 58.470141 -59.323013 20
-0.529521 41.891137 -48.495493 20
-5.762526 50.772798 -53.198284 20
-18.170204 60.067813 -9.701433 20
-17.404229 59.719538 0.663717 20
-23.336642 61.793650 -36.537663 20
-27.734977 62.564403 -27.074731 20
-40.298373 61.459394 -1.872808 20
-18.691510 60.304841 -3.768226 20
-31.703336 62.736530 -54.762875 20
0.219975 39.061572 -17.523795 20
-12.724341 57.084108 -17.584021 20
-14.850376 58.406847 -55.580049 20
-5.992368 51.037584 -32.725832 20
-30.196153 62.740234 -17.650121 20
-2.736039 46.430452 -55.283766 20
-7.709067 52.926239 -53.682666 20
-21.302310 61.244841 -34.430098 20
-0.543962 41.928201 -11.876206 20
0.765766 34.880386 -35.024091 20
-20.298003 60.888549 -56.715313 20
-26.775697 62.462240 2.305214 20
-32.414025 62.734783 -20.873129 20
-25.997095 62.329187 -26.120981 20
-45.607836 59.422237 -24.545693 20
-0.112987 40.822053 -7.963250 20
0.096218 40.009645 -24.641696 20
0.257958 38.770593 -47.227090 20
-35.716070 62.446461 -31.282607 20
-21.126144 61.182344 -45.891879 20
-33.568041 62.655491 -5.723863 20
-28.344856 62.615387 -37.547876 20
-45.595220 59.428047 -22.799933 20
-21.189032 61.204654 -7.176375 20
-28.055287 62.591180 -14.799147 20
-6.547621 51.677253 -22.403914 20
-40.326010 61.452044 -58.608566 20
0.861408 34.147695 -7.584503 20
-34.203631 62.599240 -0.597950 20
-8.593754 53.784263 -55.678029 20
-29.927681 62.740894 3.503904 20
-31.517967 62.736986 -16.496609 20
0.685542 35.494964 -30.214446 20
-41.274638 61.176053 -27.735277 20
-17.399779 59.717515 3.268370 20
-23.618650 61.867184 -60.896706 20
-3.329891 47.414015 -1.288658 20
-4.583912 49.241473 -41.056440 20
-44.583549 59.894014 -6.490091 20
-45.061467 59.673889 -35.095884 20
-7.115767 52.331776 -49.612722 20
0.435571 37.409938 -24.732542 20
-1.218063 43.534053 -41.208230 20
-0.695958 42.318316 3.411974 20
-13.985430 57.920103 -22.064966 20
-3.397757 47.526419 3.444983 20
-25.649431 62.269775 -20.030447 20
-44.726276 59.828275 -26.568898 20
-19.931291 60.758452 -28.925417 20
0.111452 39.892941 -58.613322 20
-33.134883 62.693826 -30.726400 20
-4.485865 49.106725 -57.542246 20
-38.166879 62.015433 -53.380644 20
-41.795334 60.988465 -5.858558 20
-8.355121 53.552821 -51.781564 20
-26.913355 62.485764 -56.689016 20
0.672204 35.597141 -42.412155 20
-36.825147 62.251406 -19.632844 20
-43.411113 60.406359 -55.181601 20
-0.428879 41.632827 -39.664691 20
-16.183068 59.156813 -46.314339 20
-15.566754 58.809985 -52.615210 20
-43.302560 60.445467 -36.147067 20
-2.007690 45.138483 -51.239047 20
-42.522075 60.726647 -49.576846 20
-38.993891 61.806348 -3.084723 20
-38.253004 62.000286 -48.369955 20
-41.907063 60.948213 -16.579194 20
-18.729543 60.322134 -15.013854 20
-6.255664 51.340909 -45.668151 20
-19.276946 60.526314 -8.315476 20
-39.648590 61.632218 -41.889885 20
-35.596686 62.467457 -35.305267 20
-28.363883 62.616978 3.762209 20
-0.416056 41.599914 -53.765876 20
-42.337668 60.793082 -1.206449 20
-24.675817 62.103396 -25.164283 20
-22.219749 61.502416 -22.660587 20
-28.922910 62.663711 -60.702742 20
-5.332706 50.270550 -34.150671 20
-45.805393 59.331244 -58.278751 20
0.453357 37.273680 -21.759954 20
-14.602718 58.267479 -33.929819 20
0.892366 33.910530 -51.083472 20
-41.669864 61.033667 -25.770904 20
-26.573507 62.427688 -45.505648 20
-3.375156 47.488985 -28.612084 20
0.881158 33.996392 -11.430584 20
-39.203015 61.750728 -22.247222 20
-18.543854 60.237704 -35.981618 20
-10.390271 55.351283 -59.240008 20
-42.282777 60.812858 -56.746599 20
-7.646458 52.865517 3.654733 20
-13.619843 57.694679 -52.092133 20
-9.398739 54.542448 -11.259184 20
-17.404430 59.719630 -60.769125 20
-16.390719 59.258714 -36.084478 20
-24.682905 62.104607 -50.071577 20
-40.682511 61.357225 -49.832946 20
-8.836033 54.019240 -42.212374 20
-1.856695 44.831678 -32.421372 20
-1.514352 44.136077 -46.820060 20
-8.608279 53.798349 -8.936565 20
-13.971761 57.912411 -20.172896 20
-2.649046 46.286368 -31.859602 20
0.845985 34.265847 -33.409741 20
-40.680439 61.357776 -56.642352 20
-34.765226 62.549538 -40.195528 20
-11.222319 56.030019 -27.568350 20
-37.961402 62.051570 -41.296174 20
-19.594667 60.639030 0.860057 20
-46.113201 59.189470 -43.135788 20
-4.652014 49.335065 -51.736315 20
-30.951564 62.738378 -49.398570 20
-31.967423 62.735881 -3.180568 20
-45.805361 59.331258 -48.775029 20
0.380443 37.832261 -45.910953 20
-1.928133 44.976831 -60.996688 20
-18.117656 60.043920 -31.406868 20
-7.068798 52.277667 -36.014775 20
-9.688275 54.778635 -33.312378 20
-32.238285 62.735215 -59.004284 20
-23.209656 61.760538 -11.609221 20
-12.355735 56.832786 -31.465233 20
-41.728207 61.012649 0.811479 20
-44.537925 59.915028 -47.574818 20
-15.817344 58.951003 -19.819047 20
-11.026720 55.870461 -24.273464 20
-5.499964 50.470318 -19.412785 20
-35.342105 62.498484 -18.430445 20
-22.883348 61.675452 -9.814079 20
-17.218148 59.634931 -55.843964 20
-39.049731 61.791496 1.475264 20
0.615391 36.032376 -37.813249 20
-3.072437 46.987609 -22.301361 20
-0.561737 41.973822 -44.656127 20
0.060204 40.285545 -41.761012 20
-12.014357 56.600028 -51.732807 20
-4.880290 49.648788 -16.605884 20
0.172769 39.423203 -37.056862 20
-10.663828 55.574435 -32.001104 20
-1.369537 43.841830 -16.207825 20
-2.492748 46.027501 0.120514 20
-36.516911 62.305616 -29.436128 20
-35.370548 62.495966 -57.718627 20
-43.379337 60.417807 -17.306106 20
-3.076157 46.993769 -35.715378 20
-12.951117 57.238729 -15.013834 20
-22.743173 61.638901 -13.367178 20
-16.468650 59.294148 -21.706016 20
-33.379680 62.672161 -60.614145 20
-8.789343 53.973957 2.903838 20
-2.273498 45.664369 -6.961926 20
-19.135229 60.476038 -54.862694 20
-30.303540 62.739970 -37.143807 20
-16.123880 59.123505 -0.704269 20
-43.720490 60.291531 -40.517337 20
-3.982166 48.414485 -39.352168 20
-20.794944 61.064846 -23.426881 20
-10.788341 55.676005 -11.069919 20
-42.564638 60.711313 2.168504 20
-9.167536 54.340751 -37.767241 20
-33.493638 62.662076 -16.089356 20
-21.483257 61.309035 -55.451206 20
-3.793630 48.155377 -52.596434 20
-44.426919 59.966156 -37.328462 20
-43.568357 60.349710 -29.533083 20
-31.140603 62.737913 -24.853034 20
-3.336096 47.424292 -7.875685 20
-19.394336 60.567960 -34.434824 20
-4.682129 49.376453 -60.704981 20
0.206742 39.162944 -5.056462 20
-4.745316 49.463292 -48.868647 20
-7.804187 53.018493 -10.417941 20
-9.618421 54.721652 0.031193 20
-21.094768 61.171213 -14.898121 20
-33.022800 62.703746 3.209437 20
-38.887000 61.834778 -8.754101 20
-45.679927 59.389032 -52.717490 20
-18.376197 60.161474 -20.667945 20
-16.465317 59.292633 -3.862398 20
-2.873696 46.658444 -37.974973 20
-19.503323 60.606624 -49.149568 20
-5.817919 50.836613 -12.811423 20
-2.438511 45.937671 -17.727951 20
-25.407636 62.228455 -17.998775 20
-9.362758 54.513097 -45.831195 20
0.422416 37.510715 -41.264183 20
0.112919 39.881707 -34.485761 20
-39.192284 61.753582 -36.960425 20
-45.904792 59.285461 -8.336866 20
0.047526 40.382669 -19.456683 20
-32.963551 62.708990 -10.250047 20
-4.663254 49.350513 -21.479583 20
-0.958298 42.991644 -10.252313 20
-31.204832 62.737755 -5.279518 20
-43.325340 60.437260 -60.940072 20
-25.395967 62.226461 -3.532869 20
-24.410498 62.058056 -16.182142 20
-2.341419 45.776863 -5.335674 20
-21.546608 61.326893 -19.666212 20
-42.658778 60.677398 -12.095240 20
-5.942273 50.979873 -1.374047 20
-43.118504 60.511775 -2.665934 20
-33.606347 62.652101 -2.547162 20
-7.960173 53.169777 -38.531372 20
-26.247984 62.372061 -42.693943 20
-3.520236 47.729273 -30.335553 20
-3.806240 48.172708 -36.796117 20
-2.528060 46.085986 -9.986310 20
-3.641968 47.930892 -55.657859 20
-41.034009 61.262743 -33.227000 20
-28.534446 62.631236 -52.542948 20
-10.411125 55.368294 -6.100272 20
-3.119024 47.064768 -60.912418 20
0.902409 33.833596 -2.383189 20
-3.912724 48.319050 -46.570177 20
0.603331 36.124764 -44.189115 20
0.849917 34.235724 -14.208811 20
-7.851942 53.064808 -58.626242 20
-15.368040 58.698160 -15.069804 20
-45.397832 59.518963 -29.582927 20
-13.873077 57.856877 -42.063124 20
-33.186236 62.689282 -13.226019 20
0.670331 35.611494 -9.387033 20
-29.537466 62.715086 -9.291434 20
-30.468768 62.739564 -26.571427 20
0.849590 34.238232 -43.502811 20
-25.024463 62.162975 -51.859589 20
-45.230108 59.596214 -3.054044 20
-40.032713 61.530052 -0.023026 20
-10.733104 55.630946 -12.803519 20
-10.225537 55.216902 -50.806575 20
-25.485285 62.241724 -29.547196 20
-4.250660 48.783479 1.754146 20
-8.606239 53.796371 -18.339824 20
-38.109961 62.025443 -12.389213 20
-12.404191 56.865824 -7.014705 20
-31.232279 62.737688 -39.378550 20
-24.652715 62.099448 -9.688514 20
-19.684635 60.670947 -10.523080 20
-17.031933 59.550262 -37.711421 20
-39.013761 61.801063 -43.800380 20
-20.907264 61.104693 3.627002 20
-21.619097 61.345794 -53.732104 20
-35.454469 62.488539 -7.794083 20
-23.298736 61.783766 -33.817697 20
0.887083 33.951002 -54.074844 20
0.522362 36.745048 -58.431688 20
-0.654263 42.211301 -1.071177 20
-14.666849 58.303568 -26.985563 20
-30.603027 62.739234 -28.169210 20
-3.948238 48.367857 -27.191908 20
-32.365445 62.734903 -1.174028 20
-6.158889 51.229421 -8.279272 20
-22.533378 61.584196 -1.355789 20
-23.761801 61.904512 -38.480640 20
-21.461171 61.301200 -5.030270 20
-43.359871 60.424820 -45.878854 20
0.568929 36.388312 -55.887929 20
-39.861915 61.575480 -26.218755 20
-32.470641 62.734644 -45.740659 20
-6.692170 51.843779 -30.802371 20
-25.151648 62.184710 -5.391903 20
-5.280699 50.199076 -56.740332 20
0.892694 33.908016 -41.526317 20
-11.494747 56.245748 -33.359980 20
-4.865776 49.628841 -53.723203 20
-31.118565 62.737967 -60.990311 20
-8.741889 53.927933 -12.719221 20
0.242325 38.890350 -23.336125 20
0.560579 36.452276 -7.813974 20
-0.140365 40.892323 -23.082494 20
-3.283268 47.336796 -40.541023 20
-37.142007 62.195679 1.362639 20
-46.205875 59.146785 -33.441397 20
-0.363601 41.465284 -59.486103 20
-13.910986 57.878210 -9.281295 20
-12.966012 57.248885 -35.904189 20
-23.465982 61.827376 -27.469716 20
-24.888184 62.139687 -56.298089 20
-23.720103 61.893639 -20.649437 20
-5.753290 50.762158 -51.191222 20
0.659915 35.691285 -59.814732 20
-1.719676 44.553271 -34.130391 20
-3.916684 48.324492 -15.594897 20
-23.076994 61.725946 -42.819950 20
0.349311 38.070757 -7.049148 20
-22.663934 61.618239 -49.289286 20
-1.573977 44.257228 -45.076354 20
-30.071271 62.740541 -42.086554 20
-35.594077 62.467916 -23.170347 20
-25.813090 62.297742 -8.458876 20
-7.558366 52.780080 -42.951493 20
-1.371219 43.845248 -49.348951 20
-32.954542 62.709787 0.546820 20
-42.026066 60.905341 -39.443001 20
-8.755487 53.941121 -3.093375 20
-32.934393 62.711570 -39.564898 20
-22.439256 61.559654 -44.292400 20
-20.779710 61.059441 -8.923026 20
-34.202596 62.599332 -36.672546 20
-3.375505 47.489564 -17.252537 20
-7.406049 52.632354 -17.237257 20
-21.994672 61.443727 -32.272072 20
-5.323979 50.258556 -31.294082 20
-3.375935 47.490276 -54.084309 20
-27.579879 62.551437 -8.120318 20
-20.204713 60.855453 -25.106300 20
0.904291 33.819179 -57.646545 20
-12.327426 56.813485 -25.262470 20
0.578143 36.317723 -16.169130 20
-14.379476 58.141850 -17.102892 20
0.487671 37.010811 -10.614155 20
-40.546022 61.393527 2.278556 20
-19.025764 60.437203 -12.186325 20
-1.640310 44.392008 -36.531952 20
-7.688001 52.905808 -44.793113 20
-14.528714 58.225833 1.914281 20
-45.996719 59.243121 -1.546120 20
-42.444884 60.754456 -19.999977 20
-30.608105 62.739222 -56.244381 20
-0.374539 41.493357 -26.032071 20
0.245260 38.867868 -12.053425 20
-16.459347 59.289918 -30.191706 20
0.565134 36.417384 -53.000429 20
-35.200619 62.511005 -14.881942 20
0.083840 40.104468 -39.148940 20
-14.636353 58.286407 -30.559227 20
-11.140239 55.963063 -53.846352 20
-9.367405 54.516888 -39.832189 20
-11.190015 56.003668 -49.717760 20
-12.419242 56.876086 -44.544588 20
-20.172134 60.843895 -2.305894 20
-13.655439 57.718949 -2.915009 20
-15.779159 58.929515 -60.652266 20
0.633326 35.894981 -6.095213 20
-28.888240 62.660813 -48.977597 20
-14.414847 58.161755 -35.709153 20
0.083687 40.105643 -21.628737 20
-31.670919 62.736610 -11.777313 20
-1.451327 44.008019 3.173141 20
-19.405919 60.572069 -43.264574 20
-44.416619 59.970900 -15.780680 20
-16.519319 59.317187 -2.224384 20
-25.365439 62.221244 -39.571587 20
-5.677169 50.674463 -6.570836 20
0.880899 33.998375 -6.013574 20
-26.330510 62.386163 -47.588702 20
-43.004290 60.552922 -4.371845 20
-29.703652 62.728979 -23.899457 20
-16.524770 59.319665 -58.493381 20
-5.597648 50.582853 3.436116 20
-4.345153 48.913343 -34.004321 20
-45.332989 59.548829 -54.859284 20
-5.904893 50.936809 -27.592587 20
-10.607370 55.528380 -61.000757 20
-5.825222 50.845026 -21.188914 20
-22.966516 61.697138 -15.089255 20
-4.699619 49.400490 -1.727799 20
-38.107358 62.025901 -30.135237 20
-3.062949 46.971894 1.896022 20
0.020459 40.479549 -46.428334 20
-23.945164 61.952324 -45.729425 20
-1.212133 43.522003 -28.387382 20
-9.478343 54.607384 -52.564562 20
-14.942900 58.458914 -8.094293 20
-29.019939 62.671822 -16.059531 20
-18.161500 60.063855 -18.481797 20
0.081809 40.120031 -54.413011 20
-25.622902 62.265242 -57.953285 20
-19.530566 60.616289 -30.623584 20
-18.543735 60.237650 -58.870485 20
-7.382119 52.609146 -2.438037 20
-18.685237 60.301988 -56.943059 20
-2.678751 46.335568 -59.085467 20
-16.310223 59.222115 -51.110981 20
-34.248460 62.595273 -59.203007 20
-11.390813 56.167467 0.472159 20
-5.365144 50.315000 -39.996046 20
-33.207480 62.687401 -51.709904 20
-9.443868 54.579262 -49.088729 20
0.412264 37.588484 -18.726769 20
-40.525319 61.399034 -13.995797 20
-6.389956 51.495618 -42.872316 20
0.893978 33.898181 -31.860616 20
-36.392488 62.327498 -12.404066 20
0.276229 38.630621 -31.914308 20
0.558911 36.465053 -50.214489 20
-36.306032 62.342703 -6.388073 20
-1.519468 44.146472 -22.364660 20
0.419134 37.535856 -5.169529 20
-33.351613 62.674645 -55.258729 20
-4.649697 49.331882 -36.050119 20
-20.516720 60.966142 -51.141565 20
-34.644709 62.560204 -29.241196 20
-11.035362 55.877510 -29.572562 20
-42.480820 60.741510 -33.827225 20
-1.197251 43.491766 -17.986788 20
-37.569592 62.120479 -21.470242 20
-5.942305 50.979909 -37.993894 20
0.890723 33.923121 -16.219500 20
-45.764741 59.349968 -12.519223 20
-10.913590 55.778176 -26.059069 20
-0.468044 41.733348 -3.073834 20
-36.224955 62.356962 -39.466364 20
-41.864644 60.963496 -29.735712 20
-45.271835 59.576996 -41.302429 20
0.365415 37.947388 -8.931115 20
-29.504165 62.712302 -39.151298 20
-20.676955 61.022988 -47.520554 20
-6.597492 51.734706 -41.322911 20
-36.412069 62.324054 -16.225981 20
-13.412031 57.552989 -59.487622 20
-39.160816 61.761951 3.553741 20
-4.070194 48.535463 -18.939021 20
-35.405613 62.492863 -4.311376 20
-40.000078 61.538732 -17.006106 20
-21.315886 61.249658 -10.512411 20
-5.068781 49.907833 0.001370 20
-33.700002 62.643812 -57.568278 20
-28.056100 62.591248 -1.294960 20
-11.850459 56.488280 -13.485715 20
-26.242272 62.371084 -15.006515 20
-1.717839 44.549538 -52.773439 20
-23.047631 61.718289 -6.021804 20
-15.223345 58.616733 -40.978377 20
-6.757190 51.918683 -34.275307 20
-15.567556 58.810437 -28.951765 20
-38.786804 61.861427 -58.955674 20
-42.789740 60.630217 -31.085759 20
-40.742470 61.341278 -23.492330 20
-32.029943 62.735727 -18.394779 20
-37.023790 62.216470 -14.212341 20
0.819287 34.470375 -18.408678 20
-35.239851 62.507533 -45.569505 20
-33.377207 62.672380 -22.633276 20
0.434761 37.416140 -26.789127 20
-44.181799 60.079056 -23.858439 20
-5.452293 50.415399 -44.273776 20
-35.779992 62.435219 3.448373 20
-7.569785 52.791155 -23.945533 20
-10.502411 55.442760 -47.672309 20
-4.458617 49.069277 3.782126 20
-23.917636 61.945146 -2.688828 20
-33.291046 62.680006 -53.480045 20
-0.591510 42.050239 -16.201043 20
-10.004389 55.036503 -20.036600 20
-5.678513 50.676012 -23.372545 20
-43.883327 60.216529 -22.193759 20
-42.749744 60.644626 -9.771180 20
-36.834333 62.249790 -36.712552 20
-9.455994 54.589153 -35.526842 20
-16.473921 59.296545 -53.978946 20
-28.031070 62.589155 -21.167632 20
-14.061952 57.963165 -0.571634 20
-41.281792 61.173476 -41.221014 20
-17.359020 59.698983 -25.661669 20
-14.331820 58.115032 -48.141863 20
-6.439323 51.552491 1.898301 20
-2.722701 46.408360 -15.034561 20
-43.151922 60.499736 -6.840925 20
-1.237037 43.572606 -14.384814 20
-0.051335 40.663817 -0.902139 20
-16.490779 59.304210 -44.684522 20
-35.406702 62.492767 -55.533519 20
-37.821050 62.076254 -23.205588 20
-41.521763 61.087023 -51.983947 20
-34.232734 62.596665 -9.184747 20
-8.980584 54.159434 -44.099508 20
0.622352 35.979052 -46.149063 20
0.815376 34.500331 2.565357 20
-22.913542 61.683325 1.823770 20
-29.773822 62.734845 -45.818142 20
0.442352 37.357991 -13.786902 20
-5.332229 50.269894 -9.554190 20
0.381326 37.825496 -15.399565 20
-1.448625 44.002527 -24.571014 20
-32.772848 62.725867 -49.553678 20
-17.991686 59.986644 -53.701632 20
0.202995 39.191652 -50.224987 20
-7.767997 52.983393 -4.821859 20
-0.227209 41.115217 -50.111507 20
-3.616114 47.888071 -14.128432 20
-0.160022 40.942774 -36.617475 20
-29.533791 62.714779 -13.322314 20
-3.464377 47.636757 -48.371789 20
-26.550669 62.423786 -2.049130 20
-37.408785 62.148760 -4.427939 20
-28.286581 62.610516 -17.723587 20
-0.331818 41.383709 -55.547450 20
-5.626586 50.616190 -25.653128 20
0.392481 37.740037 -52.016491 20
-45.965750 59.257384 -56.661502 20
-30.461358 62.739583 -22.269046 20
-1.612491 44.335484 -42.755128 20
0.271542 38.666527 -20.442796 20
-19.009965 60.431598 -27.553923 20
-0.898467 42.838082 -37.808264 20
-38.844319 61.846130 -19.191922 20
0.043155 40.416148 -11.887806 20
-0.663822 42.235836 -8.657510 20
0.059296 40.292494 -15.665041 20
-1.072274 43.237826 -55.045329 20
0.030755 40.453123 1.665183 20
-8.371881 53.569076 -36.605145 20
-26.505193 62.416014 -22.265707 20
-37.720979 62.093854 -17.674106 20
-44.373156 59.990919 -11.466482 20
-32.751030 62.727798 -27.572360 20
-15.825510 58.955599 2.732944 20
-46.078085 59.205644 -10.509152 20
-32.419019 62.734771 -14.819420 20
-2.179112 45.486791 -21.017939 20
-29.520937 62.713705 -19.236918 20
-17.426715 59.729763 -8.281095 20
-0.525806 41.881602 -21.733345 20
-4.782859 49.514887 -13.357537 20
-22.616775 61.605942 -30.253571 20
-10.737429 55.634474 -52.280530 20
-25.995501 62.328914 -35.706080 20
-25.225500 62.197330 -53.510576 20
-25.032945 62.164425 -21.800043 20
-38.188367 62.011654 -15.668733 20
-32.805710 62.722959 -37.340940 20
-0.086762 40.754744 -29.131352 20
-44.173121 60.083053 1.360347 20
-1.764893 44.645146 -54.528077 20
-12.445918 56.894275 -11.247657 20
-12.499637 56.930901 -20.843643 20
-4.308440 48.862888 -23.500960 20
-13.995822 57.925951 -5.824878 20
-0.879645 42.789771 -23.065353 20
-13.091822 57.334664 -37.493099 20
-12.115203 56.668787 -60.857094 20
0.568409 36.392294 -35.668402 20
-16.207134 59.170356 -33.745355 20
-29.524002 62.713961 -57.407089 20
-6.850118 52.025741 -18.935242 20
-1.392532 43.888554 -6.798666 20
-41.500110 61.094824 -47.095992 20
-43.614711 60.333010 -51.581194 20
-25.503578 62.244850 -33.145286 20
-9.820674 54.886638 -28.416776 20
-29.461250 62.708715 -0.549543 20
-1.602422 44.315026 -59.272314 20
-3.316669 47.392117 -25.303232 20
0.088469 40.069011 -48.619372 20
0.657650 35.708642 -32.542935 20
-3.838818 48.217481 -42.331330 20
-20.635952 61.008441 -60.897031 20
-36.820920 62.252149 -8.675846 20
-24.559498 62.083519 -48.012630 20
-7.421822 52.647652 -40.149444 20
-35.783864 62.434538 -9.918266 20
-0.594257 42.057289 -46.492552 20
0.002744 40.525015 -27.218153 20
-12.795049 57.132319 -1.502313 20
-28.588830 62.635783 -34.601448 20
-9.514583 54.636947 -54.387791 20
-27.748060 62.565496 -3.272015 20
-6.063780 51.119853 -49.642160 20
0.349210 38.071527 -56.604767 20
0.844174 34.279721 -4.310637 20
-27.819268 62.571449 -50.768645 20
-30.276504 62.740037 -53.933929 20
-11.297762 56.091562 -42.791343 20
-2.262191 45.645642 -48.079643 20
-5.990850 51.035834 -47.861098 20
-24.465238 62.067411 -35.133585 20
-39.831720 61.583511 -46.893151 20
0.232219 38.967768 -28.089009 20
-11.183583 55.998421 -1.405401 20
-18.770801 60.340893 -32.826462 20
-28.885893 62.660616 -4.847005 20
-25.937208 62.318953 0.344970 20
-44.053014 60.138373 -53.365749 20
-22.196205 61.496277 -38.601164 20
0.153726 39.569088 -13.668176 20
-37.686621 62.099897 -27.094054 20
-10.272086 55.254874 3.836347 20
0.655588 35.724436 -39.962028 20
0.180114 39.366939 -45.096315 20
-39.336587 61.715201 -24.371152 20
-4.842741 49.597185 -5.124754 20
-30.857498 62.738609 -10.360952 20
-14.880854 58.423998 -3.575052 20
-2.747454 46.449356 -29.904832 20
-5.928844 50.964402 -60.826787 20
-30.680142 62.739045 -47.256634 20
-30.703448 62.738988 -14.578908 20
-10.492175 55.434410 -57.222593 20
-6.783523 51.949021 -28.995856 20
-36.005498 62.395559 -27.060641 20
-1.361480 43.825460 -1.161787 20
-20.403113 60.925838 -18.361548 20
-1.285763 43.671610 -3.697141 20
-4.026099 48.474863 -9.562274 20
-35.105253 62.519445 -43.392512 20
-45.372984 59.530407 -45.794536 20
-8.021699 53.229449 -34.625455 20
-8.300155 53.499513 -0.791889 20
-2.286029 45.685124 -24.860260 20
-34.552361 62.568377 -11.634755 20
-23.250355 61.771150 -55.483231 20
0.581015 36.295722 -20.080881 20
-6.561904 51.693708 -15.471648 20
0.639584 35.847036 -47.918848 20
-42.775728 60.635265 -15.000588 20
-34.812107 62.545389 -13.185290 20
-18.204762 60.083526 -50.421380 20
-2.205268 45.539937 -35.642662 20
-27.195959 62.519342 -58.911738 20
0.407294 37.626562 -33.066411 20
-44.896194 59.750012 -39.142029 20
-18.220289 60.090585 -16.873126 20
-45.764556 59.350053 -60.998768 20
-41.670112 61.033578 -53.681355 20
-8.937747 54.117888 -6.173225 20
-28.842973 62.657028 -54.973446 20
0.380933 37.828504 -38.050331 20
-7.375020 52.602260 -56.107886 20
0.836769 34.336450 -49.533844 20
0.644836 35.806806 -25.458549 20
-37.425686 62.145788 -34.862949 20
-0.669731 42.251004 -29.918585 20
-43.539999 60.359926 -42.157991 20
-41.962743 60.928154 -35.418943 20
-2.647257 46.283406 -42.390851 20
-45.995577 59.243647 -20.859012 20
-10.379250 55.342292 -2.841247 20
-23.044091 61.717366 -40.030160 20
-11.205356 56.016182 2.264867 20
-13.573357 57.662984 -39.882014 20
-39.634180 61.636050 -5.497293 20
-8.264422 53.464857 -21.462736 20
-37.464058 62.139039 -31.808535 20
-7.298262 52.527816 -7.561456 20
0.167322 39.464936 -51.926160 20
-15.985851 59.045830 -10.022136 20
-34.450247 62.577414 -25.971843 20
-2.381125 45.842627 3.802928 20
-4.637806 49.315540 -25.302556 20
-9.199935 54.372173 -16.220698 20
-37.269225 62.173305 -58.035555 20
0.408985 37.613603 3.489991 20
-42.290821 60.809960 -43.572044 20
-44.269315 60.038747 3.263244 20
-1.722855 44.559730 -10.482505 20
0.064802 40.250315 -32.578291 20
-26.039544 62.336441 -31.206886 20
-36.626734 62.286301 -48.365989 20
-10.211320 55.205305 -17.915106 20
-46.080875 59.204359 -30.988188 20
-20.623233 61.003929 -44.399340 20
-37.299619 62.167959 -60.201197 20
-4.232351 48.758318 -6.923894 20
-0.368405 41.477614 -31.646523 20
-11.151016 55.971854 -21.818368 20
-10.785246 55.673480 -40.732646 20
-19.692558 60.673758 -6.618581 20
-7.099189 52.312679 0.072477 20
0.220839 39.054952 -26.241832 20
-0.155734 40.931768 -17.665739 20
-17.750181 59.876836 -48.888126 20
-15.502714 58.773947 -57.224264 20
-32.615444 62.734288 -32.643856 20
-46.014820 59.234784 -6.052128 20
-21.875384 61.412622 -52.069283 20
-4.971452 49.774074 -46.018955 20
-28.942371 62.665338 -29.155601 20
-3.996574 48.434287 -49.999466 20
-39.764053 61.601508 -12.067466 20
-27.680002 62.559807 -33.170696 20
-12.667651 57.045456 -4.671018 20
0.357234 38.010062 -54.497131 20
-12.160603 56.699742 -23.358742 20
0.809105 34.548373 -45.038087 20
-13.213932 57.417921 -33.446656 20
-30.993157 62.738276 -29.976013 20
-24.452831 62.065290 -14.208791 20
-0.581844 42.025431 -27.650609 20
-12.444974 56.893631 -56.947779 20
-9.678448 54.770619 -4.712929 20
-3.517260 47.724344 -5.888997 20
-4.574822 49.228980 -10.983579 20
-9.124599 54.299108 -31.570446 20
-46.037887 59.224159 -16.182369 20
-2.303937 45.714783 -40.935344 20
-44.357423 59.998165 -0.553253 20
-7.961932 53.171483 -15.575831 20
-8.967125 54.146380 -58.066276 20
-37.097591 62.203490 -55.505929 20
-34.737453 62.551996 -21.361375 20
-42.051925 60.896025 -59.906784 20
-7.954720 53.164489 -26.049183 20
-0.894490 42.827873 1.137490 20
-20.549799 60.977877 -42.089549 20
-6.955956 52.147669 -26.769486 20
-22.162517 61.487493 -41.364944 20
-18.466779 60.202660 -46.859566 20
-33.178513 62.689965 -24.713754 20
-12.290879 56.788566 -9.360989 20
-42.327420 60.796774 -23.953789 20
-5.898490 50.929432 -17.918191 20
-25.003089 62.159323 -37.310263 20
-22.917831 61.684444 -24.211530 20
-2.832094 46.589542 -52.529077 20
-0.960579 42.997497 -35.631191 20
-31.430710 62.737200 -8.747580 20
-2.439993 45.940126 -45.953421 20
-21.943049 61.430266 -25.473575 20
0.879206 34.011348 -38.852647 20
-41.058154 61.254044 -7.759731 20
-6.682651 51.832813 -24.762554 20
0.485990 37.023687 -1.381945 20
-41.202525 61.202033 -45.377969 20
-15.832583 58.959579 -31.627695 20
-31.258757 62.737623 -44.247607 20
-23.145889 61.743911 -58.791974 20
-20.150955 60.836381 -39.348017 20
-44.832555 59.779324 -14.099425 20
