21.014510 1.681295 -28.083719
-6.471412 -1.089874 -7.918130
-4.131514 -4.284062 -31.236326
20.949003 1.480214 -44.464244
0.034877 19.538973 -30.093494
-7.363190 11.343399 -36.131064
18.256836 -3.434584 -6.385358
-7.536489 1.352019 -42.151767
21.216746 2.407778 -52.709890
-6.529146 -0.984666 -11.779375
-4.732457 15.817146 -27.454292
20.894498 10.885277 -29.940070
2.028951 -8.152462 0.821533
5.579382 21.051495 -22.059937
15.367980 18.322523 -14.741062
7.280538 -8.885825 -29.275610
-4.888665 -3.431130 -2.953203
11.964181 -7.936068 -40.198837
21.646979 7.064487 -19.497231
-4.994800 15.500514 -17.689856
-5.005715 -3.289425 -21.585061
8.469563 20.985157 -13.577015
7.030810 21.091049 -20.944435
2.853110 20.593708 -11.757970
-8.282460 6.962920 -35.226386
-7.324301 0.756763 -19.646335
-4.996265 -3.300865 -14.999446
0.535405 19.774040 -41.422206
-1.387065 -6.535139 -37.204979
16.766529 -5.001149 -41.444572
21.174960 9.952593 -29.152453
4.747625 -8.768222 -2.695431
1.954130 -8.128089 -41.868519
-2.405958 -5.827542 -31.482721
-7.813946 9.913247 -7.677235
-1.972974 18.339663 -34.678805
13.325227 -7.346675 -33.594040
-2.039657 18.291295 -33.073215
9.289203 -8.667394 -35.996807
20.173204 -0.450255 -4.706798
-0.337745 -7.149306 -6.390396
-1.106065 18.910640 -35.811710
16.213206 -5.477183 -38.109256
-7.558254 10.777976 -46.388526
21.169634 2.224868 -19.962901
-7.836834 2.373013 -45.986764
-7.995053 9.150786 -26.965200
14.674803 -6.587939 -41.795371
1.306411 -7.896663 -18.686923
5.049407 -8.806585 -24.801914
-3.340358 17.250321 -38.024691
18.933369 14.747631 -28.755102
-0.343259 19.343273 -44.367689
-8.011479 9.065033 -11.067977
5.831801 -8.869925 -7.469728
17.837578 16.124047 -37.335017
21.427676 3.368477 -44.899093
18.759040 14.987947 -36.395763
-5.626792 -2.461475 -15.182614
-6.075693 13.970865 -36.409367
5.534358 -8.850985 -32.602377
2.968875 20.623336 -40.963706
-4.390671 16.205525 -41.531673
-8.179848 8.048975 -9.935389
-4.374326 16.222904 -47.403326
-2.342408 18.071696 -12.495013
4.081017 20.864643 -38.506844
12.340488 -7.787395 -23.784843
-3.008645 -5.339398 -35.712915
8.762438 -8.750828 -21.495066
9.334289 20.856487 -12.594796
7.041783 21.091040 -22.265318
18.343087 15.527486 -3.459377
-7.772189 10.075384 -19.196674
-8.280457 6.994384 -28.884043
-5.345412 15.046320 -6.433823
7.551306 21.066538 -18.861572
-3.112465 17.451370 -25.297669
-2.875201 17.647363 -15.931212
19.363561 -1.904215 -41.674800
13.916451 19.232268 -7.278662
18.327145 -3.349721 -40.970997
21.161201 2.192131 -6.360096
-0.760580 -6.916432 -23.186425
-8.168260 4.055192 -40.770489
15.579089 -5.971704 -14.298002
5.082192 21.007711 -38.687725
20.552208 11.802695 -34.089495
21.659838 6.857632 -10.861188
-8.265449 4.962718 -30.567854
5.539892 21.049039 -11.878824
15.631635 -5.933586 -10.588474
17.177837 -4.615495 -24.049415
1.367639 -7.920961 -26.753388
-1.276917 18.802390 -51.688098
-4.169129 -4.243943 -44.846550
19.224347 -2.123226 -16.487802
21.518327 3.892865 -34.928703
16.870845 17.100973 -19.787596
-2.947567 17.587584 -17.097294
12.235051 -7.829051 -23.903581
10.256253 20.660922 -8.654709
11.358452 -8.147169 -17.266692
-7.199990 0.442090 -33.954178
16.349102 -5.364924 -12.699576
21.162689 10.000542 -43.517120
6.617407 -8.893851 -43.526073
-5.912360 -2.030792 -32.295329
21.440820 3.437099 -41.478561
-6.636715 -0.788644 -27.907228
17.085879 -4.701720 -11.651900
21.402636 3.237744 -17.880056
-3.037889 17.512974 -7.423137
4.048344 20.858437 -43.182320
21.263840 2.590613 -37.802876
-0.539287 19.235708 -53.201990
16.048177 17.811371 -13.236733
1.978855 -8.136143 -55.725279
13.844356 19.271975 -17.479289
18.073165 15.854268 -45.194508
21.650679 5.191733 -52.791638
-2.672926 -5.617553 -28.927177
5.088402 21.008490 -33.577753
-3.101230 -5.262690 -18.759662
19.438146 13.983795 -28.792306
20.596877 11.689621 -53.560867
-8.280506 5.205051 -5.159011
-7.213669 0.476717 -36.434393
4.534586 -8.741140 -30.985667
18.360662 15.506213 -16.875977
7.955107 21.040829 -39.021223
7.574512 -8.867567 -45.460875
21.251982 2.544574 -29.696130
-8.274407 5.106897 -39.333790
-0.408311 19.307578 -40.538795
-3.729777 16.885193 -14.088465
11.081089 -8.237062 -37.733654
6.820994 -8.893995 -15.206485
-2.899075 17.627642 -14.388268
-4.209217 -4.201186 -43.014106
12.035611 -7.907846 -39.494303
-4.290248 -4.114760 -8.701181
6.583255 21.091398 -10.079533
13.860035 19.263338 -43.745401
-8.059784 3.385277 -9.844533
2.186216 20.400851 -11.956518
19.872702 13.231956 -42.830379
-5.975688 14.128192 -14.317077
16.401397 17.518718 -43.843138
14.082818 19.140643 -40.415268
-3.466995 17.131586 -43.340509
21.647496 7.056174 -50.099167
-5.549578 -2.567916 -19.067564
-3.077000 17.480666 -32.231533
7.625309 21.061826 -50.875511
16.286510 17.613904 -1.010560
16.134406 17.739927 -21.310564
-3.486205 -4.916472 -13.740219
17.500813 -4.285442 -27.558554
14.635115 -6.613085 -39.208128
-7.831386 9.845534 -10.506724
21.581824 7.802757 -15.484157
21.017174 1.689471 -34.700467
-8.064168 3.408355 -46.042948
-1.386508 18.732956 -54.339455
4.990843 20.996237 -36.300823
-8.265858 4.969307 -42.630973
-7.379575 11.302109 -44.404916
-8.307226 5.959720 -29.890625
-6.131252 -1.685303 -13.479352
3.023398 20.637290 -36.134187
21.262506 2.585435 -41.693465
21.660925 5.352607 -33.869986
18.932544 -2.551877 -49.610128
7.459543 21.072380 -22.856757
18.199732 -3.503510 -10.484049
1.370428 20.119092 -47.139787
-8.075116 8.732791 -43.143264
3.656717 -8.586336 -23.701158
-8.095578 3.573692 -23.993331
14.885666 -6.454344 -10.064470
-8.284750 6.926951 -41.980505
-7.646473 1.691378 -13.502044
13.260264 19.574224 -37.557564
-6.608143 -0.840711 -29.389658
-2.100425 -6.049897 -21.107748
16.981873 16.996558 -5.484352
20.259529 12.464468 -6.184257
-7.389576 0.921994 -19.404074
17.979175 -3.769726 -28.941796
19.346388 -1.931234 -3.348363
13.743646 -7.129729 -32.987933
5.800718 -8.867945 -11.114050
21.124990 10.147834 -35.680363
-5.971282 14.135124 -44.538325
21.678090 6.112185 -46.551600
19.328671 -1.959103 -12.490182
20.308370 12.360464 -53.300436
21.442217 3.444386 -38.246995
21.244322 2.514840 -32.979406
20.556058 11.792946 -38.338166
14.784685 18.715568 -35.454722
18.940436 -2.541032 -40.272442
-2.016346 -6.111086 -53.750888
6.585554 21.091395 -31.039001
10.178174 -8.483257 -19.997234
1.253886 20.073049 -40.455036
-6.898558 -0.245847 -3.786335
19.307475 14.190051 -41.609404
19.478541 -1.723331 -33.494348
-7.768522 10.089621 -17.543126
20.865392 1.223558 -28.977497
1.435911 -7.948055 -24.974646
-8.307255 5.919048 -37.901599
7.874526 21.045959 -36.247189
5.956473 -8.877862 -3.896510
18.847324 14.866246 -40.530486
-2.782323 -5.526914 -23.068686
-5.940887 -1.985766 -32.778786
-7.561243 10.768804 -39.716322
-4.422947 -3.973228 -20.916561
7.753560 21.053661 -31.835371
20.878497 1.263788 -19.167103
21.654493 5.251629 -47.937945
-7.546036 1.381476 -37.871038
-5.469048 14.876421 -11.699655
5.988873 -8.879925 -30.759219
18.755071 -2.795743 -12.959976
-6.133008 -1.682530 -12.359661
4.683957 -8.760128 -38.534432
14.758704 -6.534781 -7.876389
12.154950 -7.860698 -45.409542
-5.915652 -2.025596 -39.297252
20.246154 -0.295523 -41.196345
20.711348 0.796569 -38.808451
20.875377 1.254205 -19.528429
-6.997773 -0.034584 -24.743089
-6.962623 12.307511 -53.162500
21.207530 2.371995 -45.869390
-7.255870 0.583542 -3.183852
1.976855 -8.135491 -31.327067
19.756081 13.444473 -34.322000
-0.541858 19.234299 -23.414309
5.960606 21.075195 -34.145777
3.768337 -8.607713 -45.912088
-1.122078 -6.703574 -11.262059
14.152424 -6.905422 -20.506963
18.183918 -3.522597 -13.370026
10.296387 -8.453002 -53.051625
-1.844860 18.432591 -38.327630
1.071694 20.001073 -8.998182
12.377225 19.969969 -31.048408
-3.390052 17.203727 -25.418023
-7.779714 10.046167 -18.114135
21.583308 4.404167 -46.880868
4.495666 -8.736193 -28.042423
-8.299791 5.515413 -11.522974
18.095592 -3.629207 -18.880681
-3.506342 17.094693 -39.996577
-4.728426 -3.625123 -45.826745
19.328872 14.156281 -47.746218
7.291943 -8.885116 -36.821936
4.542537 20.939929 -15.983929
-4.324481 -4.078249 -23.221896
20.528574 0.335957 -20.977099
3.664292 20.785489 -17.875613
21.636172 4.963868 -14.296355
-8.197288 4.286366 -51.622784
11.978102 -7.930567 -34.080194
18.946652 -2.532493 -36.659195
-7.833416 2.359659 -34.497861
4.737337 -8.766914 -37.588012
1.232688 -7.867406 -10.051243
11.118340 -8.224990 -15.663909
21.631967 7.305975 -38.639764
20.613918 0.551029 -40.672343
-7.831521 9.845006 -12.923802
19.986557 -0.828170 -25.596456
2.862207 20.596035 -15.424723
-8.261781 7.287693 -2.855856
-1.377808 -6.541023 -35.364516
11.564652 -8.080341 -6.576429
2.755025 20.568603 -21.952945
21.394935 9.000508 -36.380045
-7.007427 -0.014025 -24.610287
20.592824 11.699884 -49.049300
-8.264158 4.941940 -32.907090
-7.780592 2.153262 -43.918620
21.125119 10.147339 -19.146514
14.827051 -6.491479 -15.791161
-4.149916 -4.264436 -42.472236
19.875289 -1.030196 -2.525148
14.941558 -6.418932 -24.768521
18.019855 15.918806 -35.979288
10.191217 20.677676 -19.078235
5.670495 -8.859654 -54.281000
21.115002 10.186864 -48.989849
21.205916 9.831632 -34.953007
20.161663 12.672857 -30.231525
17.376394 -4.417726 -17.713874
-7.517330 10.903600 -13.803612
-7.879631 9.658197 -48.275150
21.558057 4.205460 -44.492771
21.433453 3.398636 -53.482289
13.110712 -7.447420 -43.190624
-8.270379 7.152660 -10.780472
21.552983 8.032448 -42.961449
21.006182 10.540665 -12.646332
20.708848 0.790274 -26.376746
10.350303 -8.439202 -3.686166
12.942201 19.724186 -14.797418
15.644971 18.120943 -34.619353
-5.827029 14.362059 -18.775758
-6.569115 13.109973 -14.778327
3.196349 20.681554 -39.421134
18.148116 -3.565813 -1.673772
19.191299 -2.175218 -25.913363
21.547703 8.074478 -41.810831
-1.908513 -6.189564 -31.395817
-6.066081 13.985985 -33.863711
21.677983 5.975723 -16.433709
-7.802171 9.958970 -6.587518
13.041954 19.677153 -46.285604
-7.858641 9.739701 -34.281347
1.139240 20.027757 -11.989439
0.903387 -7.736722 -45.936052
-7.611666 10.614026 -35.495877
-7.139793 11.906396 -17.827535
4.917474 -8.789813 -13.417192
1.534196 20.183792 -33.581940
1.041620 -7.791581 -50.852205
15.341337 18.341914 -17.880299
21.134698 2.089239 -29.988567
17.509926 -4.275753 -13.117637
16.952130 17.024530 -40.410808
-8.283034 5.245736 -21.344389
4.875495 -8.784477 -22.871577
-6.539676 -0.965476 -21.899772
18.760323 14.986178 -32.763128
-3.656048 -4.756740 -44.597344
10.545689 20.586374 -39.102066
6.871535 21.091173 -41.656851
19.925884 -0.938331 -39.037430
11.870635 -7.973025 -26.964750
-8.031129 3.234436 -36.961931
8.951866 20.923844 -33.339401
20.167544 12.660334 -49.447501
20.661952 0.672085 -37.746223
-8.027429 8.981761 -14.483123
12.106162 -7.879973 -31.380997
-8.220996 4.475171 -8.189428
20.656290 11.539228 -4.383394
-7.834670 9.832781 -9.140499
21.647780 5.146152 -13.301643
21.663997 5.400866 -39.898325
16.860222 -4.913300 -44.754757
21.654670 6.940775 -1.826398
19.343984 -1.935013 -38.828417
-8.002674 9.111002 -13.780762
19.712021 13.524763 -29.067765
13.643782 -7.184528 -32.209554
-8.178952 4.140349 -30.326797
14.034539 -6.970109 -23.755039
6.767218 -8.893957 -9.887497
-0.710276 19.141884 -10.965365
-8.171909 4.084259 -37.488388
-7.839846 2.384779 -52.658649
18.743376 15.009540 -43.312138
-4.241127 -4.167152 -44.573696
-0.830411 19.075963 -31.698426
21.588109 4.441948 -39.497558
0.509081 19.761679 -28.388492
16.855260 -4.917953 -37.898322
-6.324022 -1.358459 -35.936838
20.643333 0.625161 -33.315510
9.445981 20.835095 -48.717859
14.606762 18.828663 -45.720595
14.923696 18.627209 -22.224204
11.223322 20.388511 -15.632404
-7.880507 2.543653 -17.775655
-7.631778 1.646031 -0.266083
-0.676942 19.160175 -4.350826
-3.549184 -4.857243 -50.181445
11.192366 20.398595 -28.162885
8.575239 -8.774340 -2.013807
2.871685 -8.400945 -44.679950
20.542245 11.827912 -31.755287
2.788558 20.577186 -13.392873
14.139819 19.109249 -40.893928
18.751955 14.997716 -38.430554
21.258821 2.571131 -39.701237
-6.812167 12.626637 -18.918754
-1.576864 18.612345 -21.590444
-4.326598 16.273651 -42.567945
4.501434 -8.736926 -21.108327
-8.016647 9.038050 -10.600860
-5.482796 14.857529 -32.022048
-6.559403 13.127606 -40.881916
8.796450 -8.746557 -12.418058
19.956395 13.079447 -22.746771
20.855445 11.005767 -44.197860
8.892180 -8.734533 -3.571621
20.840396 1.146824 -14.552589
10.211364 -8.474762 -36.650278
21.562814 4.242895 -43.578245
15.376350 -6.118764 -47.192378
19.221253 14.326149 -33.071343
10.059833 -8.513544 -22.999649
12.297715 20.001523 -46.689931
14.706920 -6.567591 -43.511568
6.696859 21.091309 -42.036322
3.225938 20.689128 -25.663736
-4.094344 16.520595 -23.998562
3.986975 20.846781 -9.006717
18.671397 -2.910719 -24.396471
11.268995 20.373633 -3.419457
-4.839279 -3.490919 -11.353408
18.214695 15.682925 -35.518492
-6.072840 13.975354 -39.698002
9.744437 20.777939 -28.709415
17.576692 -4.204770 -17.629634
-8.079793 8.708375 -31.857097
-4.831188 15.697982 -19.655315
18.702090 15.066454 0.458295
14.565075 18.855161 -10.079949
12.372262 19.971939 -41.829427
20.981970 1.581408 -45.805189
-6.375979 -1.263780 -48.372695
5.471777 -8.847001 -35.839203
6.854994 21.091185 -41.407224
-1.917633 18.379805 -45.417542
4.611875 -8.750965 -27.596629
-6.070468 13.979083 -38.905375
1.930120 20.317853 -26.393664
-7.636952 1.661997 -6.618699
21.474495 3.612910 -29.590772
5.832766 21.067247 -50.862971
14.877330 18.656680 -31.122437
6.707553 21.091302 -33.121098
12.879375 19.753808 -16.117471
1.148684 20.031490 -16.582719
-0.337416 -7.149487 -7.077707
-3.522886 -4.881975 -9.242075
0.891678 -7.732076 -36.940778
18.394968 -3.267860 -45.065416
-2.940268 17.593613 -50.675431
6.689745 -8.893902 -10.704790
4.673652 20.956397 -25.794711
-6.447170 13.331370 -42.558343
2.208885 20.408199 -31.495769
12.359433 19.977031 -38.397793
10.573284 20.579265 -34.260727
-7.763217 10.110224 -10.961040
5.584085 -8.854152 -36.966734
4.168078 20.881180 -42.304819
-7.983349 9.211896 -26.321879
9.654597 20.795142 -49.201761
11.467608 20.308934 -36.000787
-2.082879 18.259946 -32.017419
-3.003428 -5.343722 -37.633562
-4.097314 -4.320539 -32.674660
-6.766215 12.724104 -14.754864
14.521091 -6.685327 -25.910748
21.634187 7.270267 -27.448187
16.162866 -5.518767 -36.645754
5.988505 21.076929 -40.822568
12.828890 19.777609 -19.652475
-8.256161 7.375963 -12.734789
1.968632 -8.132813 -38.581030
8.748393 -8.752592 -15.641499
-2.376562 18.046923 -12.068870
10.718569 -8.344952 -26.835696
21.450912 3.489782 -35.873294
19.767452 13.423753 -47.783172
-8.016027 3.154942 -48.012568
21.573429 4.326423 -37.595925
21.020854 10.495396 -13.280697
-0.618174 19.192422 -18.865252
18.290573 -3.393865 -36.793694
-2.022230 -6.106805 -27.473726
16.754983 -5.011975 -43.762485
-4.780551 -3.562018 -42.520446
21.364746 3.039925 -31.000683
-4.898933 -3.418700 -10.656452
15.672694 -5.903804 -22.209580
21.658471 5.314076 -22.846074
13.628159 19.391045 -20.752468
20.674738 11.492527 -5.800921
21.539081 4.056155 -23.646677
-3.000883 -5.345831 -50.066827
-5.250787 15.176348 -17.155049
18.646128 -2.945440 -24.666562
17.705686 -4.067621 -40.419668
8.559889 -8.776268 -3.088648
21.571985 4.315061 -43.850267
0.465283 -7.544017 -17.132144
-8.009613 3.121178 -53.916692
-8.282445 6.963159 -35.880837
-7.262456 0.600213 -45.701907
-8.285561 6.914215 -43.877124
-4.844440 15.681990 -6.305665
-3.567115 17.037709 -45.600591
20.382064 -0.007252 -34.813829
-6.794739 -0.466915 -30.589942
6.706939 -8.893914 -8.904568
16.369874 -5.347766 -18.067476
21.543635 8.106878 -35.775622
11.526079 20.289889 -30.464741
19.253349 14.275489 -37.482614
-8.193471 7.941806 -52.008395
1.845271 -8.092627 -26.105663
12.979371 -7.509103 -52.114478
19.447252 -1.772556 -19.070340
14.031868 -6.971574 -5.615000
20.710293 11.402529 -13.486464
-0.588546 -7.011179 -32.544042
21.171819 9.964860 -48.219207
2.998576 20.630937 -13.052727
12.312809 -7.798330 -1.941850
9.199605 -8.684413 -15.541788
-1.473801 18.677646 -32.391076
21.668470 5.471111 -18.758929
-2.784958 -5.524731 -18.218045
0.319321 19.672560 -46.604411
3.128414 -8.467072 -9.811677
-2.153587 18.208657 -11.649312
12.290416 -7.807178 -23.876322
21.677829 5.776316 -18.652263
14.197617 19.077415 -39.002084
20.384947 -0.001140 -31.522397
-4.236939 16.368979 -10.723565
16.823527 -4.947706 -27.095026
0.201591 -7.419695 -46.785184
21.655257 6.931339 -10.240362
13.935382 19.221841 -47.749975
13.776832 -7.111518 -38.861008
21.654160 5.246361 -37.282242
4.951921 -8.794192 -50.932479
-8.271287 7.138414 -4.163484
5.548698 -8.851899 -36.780860
4.794820 20.971617 -44.810700
-7.749428 2.031493 -41.136955
13.693699 -7.157136 -49.118540
-7.865407 9.713432 -34.115850
-7.204796 0.454254 -34.920453
21.663936 5.399918 -28.979708
6.590850 -8.893831 -36.299640
21.644839 5.100004 -50.470688
13.253486 -7.380368 -12.283916
18.031269 15.904990 -26.659778
-8.307250 5.926652 -32.888675
4.068946 20.862351 -27.605070
9.649493 20.796120 -41.973953
21.481950 8.542465 -29.470218
10.530383 -8.393115 -22.288753
21.432072 3.391429 -31.563664
12.211133 20.035884 -36.895535
18.120453 -3.599199 -12.717817
21.002412 10.552305 -13.642184
-6.437395 13.349118 -12.808888
16.971618 -4.808853 -4.209431
21.569550 7.900508 -18.621064
16.771331 -4.996645 -25.860540
-8.307304 5.853750 -46.382507
-7.652094 10.489923 -36.900113
-7.327934 0.765958 -19.293884
20.758718 0.915948 -20.670718
-6.495580 13.243479 -38.959420
5.924080 21.072923 -31.169134
13.723349 -7.140866 -31.341767
-0.336516 19.346974 -33.041627
9.266074 -8.671788 -42.314667
10.651322 -8.362162 -21.165163
16.375636 -5.343006 -20.310942
21.459316 8.661610 -20.652760
-2.893168 -5.435075 -46.875939
5.860634 21.068980 -41.018398
-7.562819 10.763967 -42.863182
9.653150 -8.598266 -17.255288
21.415061 8.894569 -7.934249
-4.240872 16.364800 -17.980913
-7.845867 9.789303 -8.028940
9.641098 -8.600555 -15.325223
-4.711480 15.842466 -15.898963
10.382507 -8.430961 -47.769315
14.597081 -6.637183 -33.169251
10.420714 -8.421182 -51.305362
-8.048112 3.323836 -17.583625
2.326095 20.446187 -41.997224
15.644187 18.121512 -30.288322
5.439470 21.042797 -21.451779
7.576945 -8.867417 -47.590177
20.344965 12.282544 -35.450323
-1.233852 18.829676 -47.300673
17.600020 16.377404 -50.908564
-6.522014 13.195487 -42.346085
6.631018 -8.893859 -48.782008
-3.507536 -4.896411 -12.335823
21.422372 8.856079 -46.212061
-4.168051 -4.245093 -47.133924
-1.428357 -6.508892 -53.034517
11.128985 20.419241 -14.661673
21.586926 7.762125 -29.956949
8.790194 20.944397 -38.751158
11.674561 20.241520 -33.618598
7.702487 21.056913 -3.812269
-3.383707 17.209676 -51.227944
6.681368 -8.893896 -10.668101
3.862442 -8.625735 -11.591016
10.656395 -8.360864 -22.025124
-8.028771 3.222025 -46.549728
19.999264 -0.805100 -9.872257
20.407823 0.047384 -23.372036
15.618213 -5.943322 -5.026494
2.337112 20.449757 -41.683256
17.583068 -4.197990 -10.519289
10.488909 -8.403728 -1.055677
20.160376 -0.477462 -17.943232
9.521988 20.820540 -5.575089
10.249507 -8.465001 -54.089409
13.134532 19.633505 -39.732255
-3.030363 -5.321406 -41.571845
0.145502 -7.393251 -34.150949
-5.028802 -3.261476 -15.799972
-6.899290 -0.244290 -9.544969
-8.196696 4.281650 0.544681
21.408915 8.926919 -43.719143
-8.306982 6.285756 -10.757963
21.173894 9.956757 -38.439528
5.751877 -8.864835 -8.583505
8.424197 -8.793312 -35.567605
5.050970 21.003791 -29.231250
19.981387 13.033901 -26.378603
-1.478974 18.674368 -13.682471
16.221234 17.667986 -8.351119
0.999454 19.972532 -13.241483
12.322897 19.991530 -46.281045
19.659969 -1.421142 -13.370589
21.642742 5.067054 -5.626420
8.815121 20.941228 -42.739055
20.735514 0.857474 -26.277260
16.036826 17.820774 -15.112878
6.574857 -8.893820 -32.864155
7.526637 -8.870541 -41.096392
0.421403 19.720503 -37.689833
-5.508842 -2.624071 -4.914994
16.193397 -5.493547 -49.187013
4.107440 20.869663 -33.761878
7.891069 -8.847908 -9.736169
6.854522 21.091187 -37.974702
-5.489686 14.848060 -46.008803
-1.343323 18.760317 -10.847026
10.456378 20.609377 -29.191206
-8.288058 6.874988 -38.041389
8.797302 -8.746449 -10.029135
21.634274 4.934051 -19.744249
20.155724 -0.487332 -16.137039
-7.339735 11.402511 -39.475341
5.867719 -8.872211 -16.337285
21.633780 7.276807 -44.594756
-6.822960 -0.406823 -30.262516
-2.203988 18.172101 -6.789425
9.454328 20.833497 -10.757086
3.660888 -8.587136 -46.196756
20.924159 1.403948 -43.847395
2.256257 -8.226510 -16.253676
18.317161 -3.361773 -43.728254
18.325307 15.549016 -47.093438
-0.654018 19.172753 -12.593570
-5.993008 -1.903500 -45.659867
19.331332 -1.954917 -53.412539
8.524733 -8.780684 -48.377572
7.506331 -8.871802 -34.943791
-2.197939 -5.978931 -36.138785
-7.999934 9.125306 -47.627196
2.160369 20.392476 -55.259448
4.943558 20.990297 -35.576768
6.931386 -8.894074 -28.977055
-8.020035 3.176038 -43.279173
12.145950 -7.864253 -48.724006
1.201868 20.052500 -13.946241
15.420936 18.283987 -0.494500
8.847746 -8.740113 -20.505152
3.132172 -8.468040 -24.028164
11.980201 -7.929737 -42.841683
4.030814 20.855108 -33.273752
20.514576 0.300677 -19.738738
-7.994036 9.156099 -16.180456
-4.143321 -4.271469 -28.190011
11.612924 20.261598 -36.294620
15.643635 -5.924883 -21.439775
20.913623 10.826260 -45.240403
-8.281009 6.985713 -42.063978
21.677955 5.937628 -7.748685
-6.543273 -0.958923 -4.172507
19.362404 14.103349 -2.219703
16.310782 -5.396578 -27.800566
-8.285996 5.293407 -19.083037
-6.931460 -0.175787 -8.040508
5.641949 -8.857837 -38.373837
16.714732 -5.049715 -44.256740
10.201854 20.674937 -26.544524
3.778949 20.807268 -8.480169
14.705135 18.766132 -16.055102
-5.383124 14.994496 -14.139192
-7.891164 9.613422 -39.754337
10.619246 -8.370372 -34.907266
19.676612 -1.390923 -23.839378
20.321176 -0.136401 -35.895138
21.118925 2.028002 -31.379292
-4.791442 15.745954 -13.067650
-7.655661 1.719725 -4.925910
14.480277 18.909061 -20.156632
18.611442 -2.993103 -46.462594
9.513811 -8.624732 -22.594659
1.092516 -7.811778 -40.767887
-7.777052 2.139429 -32.792839
9.784287 20.770306 -27.972976
-4.296555 -4.108035 -6.474349
4.594463 20.946452 -16.630490
18.743693 15.009104 -41.321200
7.355971 21.078975 -19.764442
-6.619025 -0.820882 -33.747585
20.904544 1.343737 -18.357725
-8.051431 8.856446 -1.438114
21.540627 4.068322 -8.853978
2.839636 -8.392690 -28.784978
15.641293 18.123619 -28.391790
-3.989126 16.632468 -25.923857
0.573963 -7.595256 -19.466506
14.927915 18.624527 -39.355416
11.255153 20.378141 -51.046739
-5.559895 14.751583 -26.612048
-7.380496 11.299786 -40.137856
12.345856 19.982416 -47.939611
-7.564952 10.757420 -6.346522
2.299435 -8.240575 -26.612624
6.490558 -8.893759 -41.042995
-2.704116 -5.591711 -13.146967
-1.945282 18.359750 -44.749616
-6.790050 -0.476899 -36.992746
1.060274 19.996560 -13.246171
0.358573 -7.493707 -24.399408
0.112868 19.575601 -17.079515
6.767882 -8.893957 -47.778876
16.175566 -5.508276 -6.190351
18.099626 15.822235 -36.596908
-7.173580 11.821247 -20.003625
-7.534502 1.345888 -39.590901
-5.081493 -3.197685 -14.292572
14.923530 -6.430353 -36.105246
16.102289 17.766537 -10.400438
10.491093 20.600435 -38.474663
10.160947 -8.487666 -36.793160
21.236845 9.710799 -22.850446
20.122488 -0.557828 -20.954457
3.974252 20.844363 -38.006435
20.716572 11.386633 -28.398967
-5.464410 -2.685321 -4.596782
-2.984384 -5.359501 -31.415436
2.752554 -8.370260 -44.357132
19.284855 14.225760 -41.149508
10.157641 20.686322 -20.053258
20.543821 11.823922 -46.586964
13.081821 -7.460988 -4.161152
-5.020217 15.469836 -35.454416
-4.120219 -4.296109 -27.869939
-7.261979 0.599004 -36.311913
6.860911 -8.894023 -16.042610
9.658264 20.794442 -48.065048
18.877716 -2.627218 -29.835485
20.329425 -0.118904 -34.136191
-7.656190 10.477351 -31.922496
21.677908 5.879246 -22.459071
-0.301681 -7.169168 -14.973907
-5.260673 15.162766 -11.203121
-5.565965 14.743240 -38.213480
-0.585907 -7.012633 -50.860202
-1.283054 18.798502 -44.222960
10.182759 -8.482083 -26.809312
2.157513 20.391550 -35.052433
-7.333631 0.780379 -27.392927
-0.381061 -7.125451 -16.251363
20.269575 -0.245851 -14.160057
-7.834134 9.834860 -49.420382
20.879244 1.266076 -27.099552
14.870784 18.660841 -31.196412
-6.527391 13.185726 -32.872865
13.987765 -6.995774 -45.827899
-6.482719 13.266829 -27.919401
-1.142888 18.887311 -40.902763
20.613130 0.549044 -13.675685
-1.864017 -6.221946 -11.764453
21.669141 5.481670 -25.033854
17.424027 16.565105 -36.814372
16.993400 -4.788428 -17.401800
21.661576 5.362843 -37.391913
-5.632346 14.652022 -29.027103
9.719183 -8.585725 -23.217768
-3.003533 -5.343635 -28.302232
-5.040822 -3.246922 -35.742002
1.336891 -7.908759 -11.052953
5.005542 20.998083 -29.956801
-4.834126 15.694439 -7.412259
1.210011 -7.858406 -11.278179
-7.849215 9.776300 -45.940744
1.054427 19.994250 -5.324929
18.723199 -2.839540 -46.660104
19.506244 13.876306 -19.264055
-8.234757 7.617026 -34.186490
0.088143 -7.366208 -25.866412
20.276872 -0.230373 -41.687993
18.795284 14.937986 -41.773453
5.443862 -8.845224 -36.241191
14.754758 -6.537282 -12.059246
-1.269165 18.807303 -47.096874
21.637903 7.210480 -28.246152
-6.459894 13.308269 -39.121566
-6.785226 12.683779 -23.872253
0.973333 19.962211 -21.499882
-2.278177 -5.920537 -30.110086
-8.211787 4.401827 -8.804248
16.808732 17.159392 -25.349229
-8.088426 3.536043 -0.473478
-8.075271 8.731981 -30.810113
-7.212948 11.722034 -8.022673
-6.385693 -1.246077 -36.856415
19.250067 -2.082765 -20.810478
13.174081 19.614858 -39.906817
-1.998062 18.321465 -9.416634
20.652311 0.647786 -35.150497
-7.317065 0.738447 -6.784641
2.823792 20.586204 -15.045590
21.629727 4.862643 -8.928381
17.721293 16.248065 -6.308174
7.407760 21.075677 -37.851899
4.052083 20.859147 -40.873678
21.658390 6.880924 -7.873137
9.345308 -8.656738 -39.785951
-8.006723 9.089863 -11.030527
21.209181 9.818883 -48.468064
19.409211 -1.832397 -37.273994
-0.463949 -7.079800 -10.863795
-6.865007 -0.317289 -49.393457
19.828817 13.311928 -48.661239
13.320761 -7.348773 -26.963829
14.864800 18.664644 -41.383576
17.623892 16.351947 -8.908359
21.678275 6.352801 -42.864479
9.347648 -8.656293 -33.898326
-7.998448 3.062408 -43.800263
14.431902 -6.741834 -36.515978
-7.487605 10.994845 -23.055471
-2.597800 17.876514 -38.332901
0.381624 19.701819 -36.710264
-8.170966 8.118837 -7.351751
0.539726 -7.579114 -22.447840
15.353592 18.332996 -20.064106
-2.236703 18.148370 -49.975033
17.627620 16.347971 -13.870644
21.591337 7.727003 -17.675610
6.766219 -8.893957 -9.775874
20.309410 -0.161354 -28.900363
17.562726 -4.219618 -24.045147
-6.840575 -0.369314 -40.908583
-7.978385 9.237810 -24.090754
14.571872 18.850841 -30.861535
20.322459 12.330465 -14.275283
6.496895 21.091463 -26.255299
17.140487 -4.650516 -25.290406
19.890967 -1.001727 -48.662081
-7.886201 9.632692 -44.049256
-2.199562 18.175309 -9.824133
1.383928 -7.927426 -18.948208
20.989415 1.604259 -39.464808
15.617935 -5.943524 -5.636283
19.752762 -1.252660 -12.656133
-8.067721 8.771401 -41.585256
-5.888724 -2.068098 -29.934408
2.902112 -8.408782 -36.180199
3.845470 20.819902 -11.784478
0.146929 19.591597 -23.984504
1.889475 20.304680 -25.115671
-4.301917 16.299892 -38.465752
-0.433847 -7.096379 -22.707010
-1.123698 18.899469 -27.003119
-8.306979 6.290025 -21.676579
-5.520888 14.805184 -33.283792
8.520983 20.978621 -48.290128
13.260389 19.574166 -34.810299
8.187626 21.020998 -20.321120
21.457591 3.524661 -41.708374
16.176239 -5.507720 -49.120183
-7.990896 9.172493 -12.301939
-3.526026 -4.879022 -14.205152
-7.874848 2.521542 -22.061617
17.037624 -4.746964 -25.082933
-6.503229 -1.031894 -19.656711
-1.919823 18.378217 -49.437125
2.080769 -8.169342 -2.252290
16.848629 -4.924168 -39.952016
15.378211 -6.117415 -48.031393
-3.493124 17.107086 -38.381143
-7.522245 1.308070 -25.262472
8.281696 -8.811209 -24.922530
-1.282740 18.798702 -38.635090
-7.583116 10.701662 -38.786751
-8.069247 8.763429 -40.086974
8.343101 -8.803496 -46.738848
20.120387 -0.562283 -15.287464
4.539274 20.939519 -24.907877
10.267986 -8.460271 -37.672320
-6.552543 -0.942028 -5.125689
3.982274 -8.648685 -2.319120
-8.040553 3.284045 -41.548327
-6.604243 -0.847818 -18.666299
7.640741 21.060843 -41.512608
-8.276635 5.142739 -9.368273
21.521584 3.918476 -16.822259
21.212353 2.390723 -40.689925
21.175307 2.246896 -21.588103
-7.308681 11.480773 -43.447775
16.850482 -4.922435 -41.545961
-6.447243 -1.133918 -42.201296
7.644303 21.060616 -31.938189
-5.883881 -2.075742 -29.619918
21.666115 5.434143 -40.894213
12.262701 -7.818126 -5.031466
1.067038 -7.801667 -31.307862
8.587545 20.970158 -11.677520
4.964173 -8.795749 -8.926084
1.943305 20.322125 -3.776460
-1.998587 -6.124012 -18.162243
-0.607200 -7.000905 -48.181261
-4.742899 -3.607600 -31.144612
21.651746 5.208460 -48.619954
16.733860 -5.031781 -32.582583
19.461712 13.946599 -23.908897
-8.167589 4.049858 -43.293952
21.678230 6.292177 -28.056336
3.017219 20.635709 -39.885017
-3.025346 17.523335 -8.349778
20.860748 1.209303 -10.068928
20.883991 10.917688 -24.637726
0.526098 19.769672 -47.667032
4.922266 -8.790423 -10.213044
-8.211416 7.800643 -37.832716
-6.499399 13.236549 -41.307942
-4.661571 -3.706059 -36.153440
-7.634988 1.655938 -6.352687
-0.007576 -7.321081 -35.407591
-8.202464 7.871062 -45.695477
6.770525 -8.893959 -8.942162
4.899736 -8.787558 -9.712075
13.318683 19.546682 -21.324986
12.416265 -7.757456 -7.556270
19.169358 -2.209733 -4.578223
-5.817307 -2.180820 -45.021439
14.847682 -6.478409 -2.474453
-8.307237 5.944799 -39.667946
-8.306853 6.459409 -19.187271
-5.412525 14.954093 -52.304269
19.764320 13.429458 -37.182625
16.488627 -5.249669 -29.887138
-6.376819 -1.262249 -34.566653
-3.734901 -4.682581 -46.231579
-3.065035 -5.292679 -40.125852
3.175544 20.676229 -30.147354
3.008386 -8.436156 -12.988429
2.233905 -8.219228 -25.575259
17.426328 16.562651 -36.969150
0.272738 -7.453239 -49.863100
15.578830 -5.971890 -19.649298
11.627769 -8.059885 -16.811368
6.355514 -8.893663 -40.978404
-2.384282 18.041324 -21.335742
-6.768502 12.719253 -24.955896
3.716027 20.795314 -27.104893
-8.185162 4.189798 -4.925501
-7.180321 0.392302 -27.255798
-4.873407 15.647028 -43.336345
-3.473148 -4.928752 -15.489398
9.365652 20.850481 -52.900559
15.380859 18.313152 -26.330581
0.139261 -7.390309 -46.299997
-5.905066 14.239294 -3.368055
18.879149 -2.625247 -6.737365
18.963056 14.706708 -33.953564
11.995905 -7.923534 -24.934949
18.378388 -3.287871 -33.234738
7.588795 21.064150 -20.073699
17.512219 16.471046 -54.372562
-3.414595 17.180713 -47.777046
19.443002 13.976131 -7.321678
-7.033684 0.041885 -21.210181
10.628238 -8.368071 -21.173323
-5.902399 -2.046515 -37.764751
-8.177221 4.126561 -40.762444
15.624601 -5.938688 -14.333699
3.709019 -8.596353 -40.569220
8.815158 20.941223 -39.783906
13.295756 -7.360515 -23.425748
2.853471 -8.396253 -35.463243
12.923166 -7.535500 -33.625042
-4.171446 -4.241472 -36.124976
19.947649 13.095383 -19.566583
3.174653 20.676000 -28.302562
21.378644 3.112483 -5.253296
8.378588 20.996722 -28.590931
1.095414 20.010443 -42.864487
17.652309 16.321639 -48.163326
-7.347631 11.382614 -34.225157
21.210988 9.811828 -9.128179
19.237197 -2.103010 -12.722257
7.520710 -8.870909 -32.121422
13.733628 19.332956 -18.946988
2.727693 20.561609 -8.956622
20.915436 1.377172 -18.992389
1.497801 -7.972616 -25.721809
4.095697 -8.670407 -14.065148
20.136976 -0.527100 -25.938470
-7.497731 1.232432 -39.374896
21.630354 7.331886 -29.961026
12.438077 -7.748838 -26.050684
3.736344 -8.601586 -34.438959
-6.552495 -0.942117 -22.357073
-8.217286 7.754465 -20.911383
19.880145 -1.021377 -34.606218
-8.070900 3.443791 -22.875952
-1.282070 18.799124 -14.465555
5.838163 -8.870330 -13.992837
11.464711 20.309879 -27.087035
-1.397816 18.725791 -11.850579
-8.079539 8.709699 -25.142598
1.929139 20.317534 -53.785593
3.935743 -8.639774 -54.760248
-3.667580 -4.745894 -43.685744
21.534293 4.018477 -23.794619
-2.255437 18.134780 -3.172976
3.602711 -8.575994 -28.255540
2.804441 20.581252 -21.147209
-6.388830 -1.240361 -28.346376
-0.369780 -7.131663 -27.585884
-7.828295 9.857530 -4.399998
2.105364 20.374649 -33.128577
-8.257709 7.351639 -21.089961
21.540198 4.064957 -17.182099
14.056024 -6.958319 -8.296080
18.679682 15.097347 -28.761227
-8.307072 6.166879 -17.474294
1.167164 -7.841403 -48.448310
13.871586 -7.059526 0.289328
9.320435 20.859139 -21.101533
17.733703 -4.037835 -50.785866
-8.162305 4.007772 -49.035236
19.928000 13.131191 -27.060689
4.091834 -8.669667 -19.430083
2.186512 -8.203790 -10.624680
-8.092940 3.559808 -12.223868
2.797565 -8.381853 -40.757469
7.721943 21.055673 -41.231726
13.655880 -7.177888 -32.247339
21.644605 7.102690 -6.876163
0.499449 -7.560125 -18.677415
-4.994536 15.500833 -29.129395
-2.970767 17.568421 -52.529428
3.016528 -8.438253 -15.408257
-7.165775 0.355480 -35.755591
14.077687 -6.946432 -8.517433
14.513878 18.887702 -11.675848
-4.974950 -3.326669 -16.199821
20.694116 0.753141 -41.750899
7.332797 -8.882579 -41.748235
10.675216 -8.356048 -10.896606
8.634209 -8.766934 -1.822843
1.909102 -8.113420 -27.104118
-5.604333 14.690515 -41.328933
-3.637013 -4.774642 -31.848058
13.869015 -7.060935 -36.224836
-3.764884 -4.654383 -25.145310
14.832647 -6.487934 -20.063887
21.162272 2.196289 -19.119764
4.144694 20.876739 -39.707490
7.737631 -8.857438 -13.006927
20.346148 12.280024 -30.041962
-4.662551 15.901519 -17.348242
7.345334 -8.881801 -31.246188
19.329212 14.155743 -36.819308
20.979308 10.623589 -10.607673
-7.670036 1.764078 -23.372230
20.108868 12.785280 -12.977323
14.676332 -6.586970 -44.429059
20.652211 0.647531 -4.178328
3.884562 -8.629971 -7.730237
-2.299711 -5.904866 -31.127705
-5.472864 14.871176 -34.803486
11.081808 -8.236829 -32.171213
8.375851 -8.799383 -5.696016
-8.181257 4.158699 -43.704740
-6.768561 12.719127 -21.204288
10.547984 -8.388610 -18.616239
-8.264088 7.251449 -17.025019
18.060255 -3.671860 -21.415116
-5.835877 14.348143 -13.203167
-6.819511 12.611061 -10.071776
10.371849 -8.433689 -40.931094
20.709599 11.404280 -17.295404
14.028745 -6.973288 -21.398478
2.711625 -8.359717 -20.163647
20.360322 12.249840 -18.079582
13.343623 19.534923 -41.043207
14.606415 -6.631268 -46.667390
7.839202 21.048207 -42.569344
12.156724 -7.859997 -42.307593
3.134773 20.665794 -32.451457
-7.767956 2.103889 -31.407572
-7.364126 11.341041 -35.028075
11.358676 -8.147097 -44.433536
21.564896 7.937567 -46.170114
2.273098 -8.231996 -23.707725
-8.307266 5.905261 -39.221344
10.501391 20.597783 -42.275241
-8.020069 9.020185 -15.857249
14.079837 19.142283 -38.838187
-8.289455 5.349072 -18.678147
2.112517 20.376966 -43.335354
21.252232 2.545547 -30.019555
21.637333 4.982099 -21.432204
11.949377 -7.941915 -28.049199
-3.566590 -4.840873 -9.297952
21.677842 5.792846 -13.530784
10.542121 20.587292 -28.997928
-3.743696 16.872144 -27.202102
21.633597 7.279729 -30.575325
13.212889 -7.399433 -15.307792
18.696228 15.074538 -46.475095
19.860088 -1.057798 -45.098284
18.829464 14.890866 -9.268889
-4.349843 -4.051198 -47.086537
-7.157340 11.862176 -24.413700
2.256774 20.423720 -45.035776
-7.171665 11.826074 -7.676257
9.238678 20.874796 -22.210555
20.003102 -0.798130 -28.912383
17.113973 -4.675379 -23.690738
11.558980 20.279172 -43.887713
18.848906 -2.666805 -52.807406
16.897331 -4.878506 -44.842864
20.202796 -0.387489 -15.158516
-7.206004 0.457313 -41.012768
-4.816743 15.715419 -14.594748
18.939077 -2.542899 -30.683107
-2.283520 -5.916649 -34.096620
-6.881353 -0.282483 -37.189341
4.765532 -8.770498 -46.773109
2.087257 -8.171456 -12.248910
0.930527 19.945300 -23.785093
0.539557 19.775992 -32.848406
-8.209487 7.815809 -34.634504
21.637856 7.211226 -31.053264
4.694391 20.959002 -28.558883
-3.465657 -4.935797 -20.975493
21.470595 3.592549 -20.167591
21.151622 10.043779 -35.788750
4.894239 -8.786860 -10.590255
16.373223 -5.345000 -13.769377
1.054072 19.994111 -16.228139
-8.295865 6.752399 -44.280552
-6.372424 -1.270258 -47.655177
-4.877202 15.642448 -53.764416
18.952602 14.721119 -17.751403
-3.630142 -4.781104 -2.966394
-5.351138 15.038451 -24.437898
6.414642 -8.893705 -35.357732
-7.513071 1.279764 -34.532379
-8.277057 5.149547 -43.453186
-8.003267 9.107908 -22.981242
21.590343 7.734907 -18.934282
3.261868 20.698322 -36.578868
-0.683683 -6.958783 -46.503374
13.681496 -7.163833 -43.338196
21.144760 2.128303 -8.540939
1.069185 20.000080 -19.539671
-7.215178 11.716415 -41.991279
-5.314108 15.089335 -8.354372
3.714542 -8.597411 -36.826147
-3.727722 16.887119 -19.884003
20.559861 0.414796 -27.055932
18.649523 -2.940779 -16.463815
20.878257 1.263044 -12.020168
10.782666 20.525334 -38.766883
2.196336 20.404131 -43.627221
12.317857 -7.796336 -11.883414
-8.307291 5.871605 -31.582027
17.055452 -4.730248 -17.237499
19.874514 -1.031604 -49.016259
-7.013104 12.200441 -17.059922
11.959374 -7.937966 -32.886617
4.033477 20.855612 -42.736393
13.034253 19.680786 -10.061593
-5.319346 15.082138 -27.653028
-7.210014 11.729427 -10.359937
1.145666 -7.832872 -12.298201
2.237051 20.417328 -34.287028
18.309676 -3.370806 -32.072203
16.371124 -5.346735 -20.022427
-8.307227 5.958120 -47.355524
9.848327 20.758042 -52.088591
-3.702373 16.910886 -20.160458
-2.314966 18.091602 -20.155746
18.719168 -2.845077 -30.888237
18.732816 15.024101 -39.513062
-6.603718 -0.848775 -21.258504
21.153884 2.163726 -29.192053
9.504910 -8.626423 -13.185232
10.554953 20.583986 -40.472362
21.552905 4.164926 -8.805348
12.885027 -7.553411 -34.991156
18.312739 -3.367110 -47.236348
-8.307313 5.843286 -42.575137
17.146573 -4.644810 -21.083896
16.695664 -5.067594 -27.270905
1.912346 -8.114477 -35.380376
1.780931 -8.071667 -27.434938
-2.807919 -5.505707 -18.583267
9.739282 -8.581907 -10.191945
18.454547 15.392550 -26.880920
-8.271936 5.067121 -51.421833
-8.019652 3.174024 -37.322098
21.677821 5.765102 -24.124601
-6.483012 13.266298 -35.164093
14.699781 -6.572114 -21.545625
-7.982569 2.978822 -29.886183
9.652628 -8.598366 -17.325316
20.659136 11.532022 -14.461090
-7.487304 10.995766 -26.768539
-3.507833 17.093293 -42.615030
-8.007165 3.108293 -37.059811
-7.756452 10.136491 -17.203264
11.129710 -8.221303 -33.399755
-3.335108 17.255246 -35.645568
-3.449899 17.147614 -33.919779
-6.800784 12.650780 -14.058891
-7.761319 10.117591 -11.244896
20.272858 -0.238884 -45.351690
-2.360038 -5.860961 -22.210777
18.894116 -2.604678 -33.823721
14.666670 18.790584 -23.303739
-1.974545 18.338525 -37.056133
1.883960 20.302891 -8.797466
7.408592 21.075626 -31.356550
15.497543 18.228234 -8.324505
-0.516600 19.248158 -42.002623
11.197018 20.397081 -24.519201
11.484342 -8.106369 -12.347007
-0.337022 -7.149704 -16.000415
20.534275 0.350323 -15.665539
-3.486032 -4.916635 -13.317029
8.523340 20.978322 -13.628248
-7.813649 2.282423 -27.158347
2.294630 -8.239011 -8.802778
19.817117 -1.135814 -12.495720
12.886538 19.750431 -9.643800
12.087059 20.085120 -11.014548
-4.798633 -3.540126 -36.788913
0.899795 -7.735297 -39.852184
5.945760 -8.877180 -17.112217
14.483583 -6.709091 -15.584107
-7.179595 11.806088 -15.567244
-7.147712 0.309756 -27.798120
20.662941 11.522388 -15.259098
3.609520 20.775085 -35.223940
7.787315 21.051512 -46.814713
6.819582 -8.893994 -9.330655
9.569997 -8.614061 -22.251377
-7.157780 11.861066 -16.214476
7.536490 21.067482 -18.383977
8.759183 20.948340 -41.319919
-8.007656 9.084990 2.162773
19.259824 -2.067413 -12.388623
2.364445 -8.261753 -22.914005
-8.307032 6.220735 -25.301819
20.687281 11.460778 -4.151149
12.917710 -7.538061 -44.491534
15.537828 -6.001632 -20.379963
-6.773663 12.708305 -22.660833
19.831327 13.307358 -43.991458
20.921363 1.395370 -14.011884
-2.147221 18.213276 -20.898883
-2.790714 17.717155 -41.267249
16.078673 -5.588316 -25.735049
-8.275238 5.120256 -41.066849
-7.585486 1.503199 -3.759276
-8.169770 4.067214 -35.728433
6.600545 -8.893838 -42.833471
3.868620 -8.626919 -41.917304
8.813694 20.941409 -48.744798
19.671464 -1.400269 -13.633134
18.472692 15.370584 -36.826473
0.399773 -7.513131 -26.041474
-4.353137 -4.047686 -5.324024
-1.275037 -6.606348 -7.122571
-6.092935 13.943739 -45.526486
3.899270 -8.632789 -35.302329
20.917021 10.815779 -39.489611
-3.673309 16.938139 -21.645692
-2.120194 -6.035511 -18.780277
-4.433350 16.160147 -23.334741
-5.578188 -2.528476 -23.047853
21.659130 6.869041 -16.201058
-8.291860 5.387783 -19.940196
21.550273 4.144223 -6.379714
13.870314 19.257677 -12.100394
10.678533 20.552155 -45.905212
7.254491 21.085436 -39.385943
16.998564 16.980860 -39.591612
14.963816 -6.404831 -32.609960
16.433185 17.492378 -42.745421
-8.220844 4.473949 -15.230847
-8.207580 7.830814 -31.658221
-5.075876 -3.204486 -18.864579
-8.306906 6.388518 -19.035226
21.024233 1.711143 -46.609692
-6.376492 -1.262845 -41.172311
-4.996862 -3.300142 -21.893931
-8.258854 7.333674 -19.893102
-7.517681 10.902521 -16.995731
11.471024 -8.110686 -18.472418
19.424392 14.005507 -11.111563
6.685914 -8.893899 -47.037012
-1.405336 -6.523525 -51.600869
20.361916 12.246445 -7.735345
21.432785 8.801264 -11.701907
20.514112 11.899127 -33.184924
9.652805 -8.598332 -18.028471
2.264328 20.426166 -37.277411
19.431824 -1.796826 -37.410817
12.883650 19.751791 -27.016474
-4.295231 16.307002 -28.424551
21.678297 6.380977 -29.603045
-7.753573 10.147668 -2.452237
1.798395 -8.077356 -29.457758
15.452718 18.260856 -13.852215
4.596204 20.946671 -33.151667
-6.811889 -0.430398 -29.913840
-8.266354 7.215860 -14.945152
-6.971154 -0.091264 -18.433932
12.415796 -7.757641 -16.269060
21.637513 7.216750 -41.493642
-6.024850 14.050850 -33.735042
11.057164 20.442637 -27.380691
-2.848221 17.669650 -8.994778
4.717191 -8.764353 -47.954394
21.168770 2.221520 -21.930397
13.798081 19.297462 -25.925754
9.437354 -8.639255 -9.527259
-4.685430 15.873905 -33.458549
12.296651 -7.804713 -16.476697
19.343704 14.132870 -39.928139
-8.174902 4.108091 -33.516188
3.684172 -8.591594 -37.276033
20.247182 -0.293346 -16.519076
-8.030038 3.228696 -36.500640
5.766528 21.063129 -8.133251
6.911760 21.091140 -38.356342
18.236195 -3.459499 -47.214372
-3.502468 -4.901177 -9.552253
2.279973 20.431237 -26.104987
2.361161 20.457551 -34.943718
8.744266 20.950235 -35.644137
-4.958762 15.544009 -41.596152
18.721902 15.039141 -27.243162
6.566448 -8.893813 -54.268036
18.363552 15.502712 -9.266872
15.594394 -5.960599 -13.950520
21.635617 7.247260 -40.940254
15.685519 18.091436 -22.281877
-6.522411 13.194766 -48.345143
17.533486 -4.250704 -14.725668
21.678309 6.396825 -44.159112
4.773069 -8.771456 -39.366011
11.148657 -8.215163 -34.179333
-0.741857 19.124553 -25.941241
17.127644 -4.662558 -22.246125
-5.338047 15.056439 -20.422093
-4.377696 16.219322 -22.022884
14.496152 -6.701128 -26.436105
1.871555 -8.101189 -28.451784
16.276893 -5.424573 -9.937021
-1.197680 18.852595 -38.562048
-8.086929 8.671122 -41.766597
14.931699 18.622122 -30.612074
0.933395 19.946434 -19.588642
-4.643720 -3.727669 -32.570450
18.111963 15.807299 -31.179182
20.990824 10.588057 -22.185247
5.557890 21.050158 -1.010522
15.690507 -5.890883 -16.073762
18.955002 14.717811 -7.950086
2.762836 -8.372908 -32.569021
21.677899 5.866045 -21.083273
18.242299 15.649509 -46.200505
1.389936 -7.929809 -22.752981
16.038407 -5.621577 -32.857319
-3.421585 -4.977245 -16.316917
18.137947 15.775840 -51.706005
19.861899 13.251641 -3.438163
19.157124 -2.228979 -19.673033
16.983977 16.994581 -40.663414
-3.589153 -4.819653 -7.655127
20.889360 10.901121 -33.716143
0.532616 19.772731 -40.185567
-8.282855 5.242850 -7.048216
-0.483791 -7.068872 -48.056685
-6.518431 -1.004193 -20.258914
20.147937 12.702086 -38.226989
11.925007 20.149433 -28.461357
-0.666273 19.166028 -13.282316
17.483628 16.501541 -30.562510
-8.047585 8.876527 -39.751330
17.016699 -4.766584 -2.826693
2.208501 20.408073 -41.903173
20.512272 0.294869 -18.268133
20.677209 11.486272 -17.302051
14.830756 -6.489132 -25.437293
19.780631 -1.202063 -9.908131
16.169826 -5.513016 -43.726131
-8.260314 4.880075 -23.069645
-3.374957 17.217881 -37.842602
-8.307118 6.103469 -8.605843
-7.822249 2.316026 -42.252509
-3.642346 16.967171 -8.823069
19.179046 14.392772 -40.703646
16.067494 -5.597549 -40.204632
4.048243 -8.661319 -20.830748
6.731467 -8.893931 -13.695866
-2.625951 17.853258 -36.524292
9.275832 20.867681 -19.532319
14.138498 -6.913064 -15.938923
19.726945 13.497571 -32.346708
20.274943 -0.234466 -14.726310
0.484191 19.749990 -40.265197
-4.192888 -4.218602 -48.359106
18.738163 15.016729 -29.287869
-5.328653 -2.872465 -37.650059
-6.726589 12.808151 -5.962656
19.410075 -1.831041 -43.834300
-7.323081 11.444481 -31.446118
0.129262 19.583300 -14.184933
1.928726 20.317400 -21.040256
-4.987586 -3.311373 -10.442274
16.904859 -4.871447 -37.902205
18.723443 -2.839205 -27.920480
13.045518 19.675472 -8.287959
20.167863 12.659655 -42.040436
21.649888 5.179302 -49.589326
12.376692 -7.773091 -10.992108
16.370917 17.543970 -39.509972
-7.559810 1.423976 -38.615102
17.739335 16.228822 -26.218458
-5.559462 -2.554290 -15.033186
16.816717 -4.954092 -34.572410
-4.864228 -3.460715 -46.829606
-8.285728 5.289094 -7.419082
-1.455371 18.689323 -9.930480
21.374214 9.109581 -41.376527
21.422811 8.853774 -41.292294
-4.801122 15.734272 -11.782228
4.784793 -8.772947 -43.816419
7.615629 21.062444 -15.777360
19.176539 14.396731 -20.650360
2.242324 20.419036 -33.409180
-0.361401 19.333320 -26.495562
1.149821 -7.834520 -8.163184
21.575311 4.341237 -47.190047
1.062301 19.997359 -19.222728
21.397205 8.988555 -3.848108
12.493170 19.923956 -26.974628
1.055525 -7.797099 -43.489988
20.893170 10.889364 -46.093240
14.823311 -6.493849 -25.386888
10.552572 20.584599 -33.055287
19.740780 13.472360 -38.216831
20.243147 -0.301901 -5.746427
-5.957750 -1.959150 -41.502450
10.180105 -8.482762 -46.986324
20.222874 -0.344903 -22.629430
13.231405 -7.390738 -18.731342
8.770968 20.946841 -36.898532
-8.195209 7.928131 -34.370160
18.327656 15.546169 -24.968356
-7.805948 2.252335 -25.867509
8.796874 20.943548 -38.549157
19.925905 13.135004 -12.978380
-4.949248 15.555493 -9.187764
20.382044 -0.007298 -36.396974
17.737475 16.230807 -24.577412
16.725899 17.237294 -17.443318
0.521910 -7.570714 -26.398834
-7.285496 0.658535 -16.644670
21.156096 2.172309 -11.631020
14.907584 -6.440457 -18.201415
-3.725676 16.889040 -16.785361
18.955769 14.716755 -28.508815
16.906221 17.067706 -11.040271
12.941649 19.724447 -6.557089
1.285411 -7.888329 -9.899827
7.886994 -8.848161 -16.500440
6.971910 21.091094 -33.709782
18.597249 15.210982 -37.354109
-2.827253 17.686971 -46.591062
18.332564 -3.343182 -34.869858
18.849969 14.862603 -54.947607
-8.033580 8.949646 -9.476874
21.678102 6.128269 -46.110761
-1.615002 -6.390254 -42.461467
3.730248 20.798016 -16.298633
4.025998 20.854192 -45.959260
0.535047 19.773874 -33.829376
-6.907259 -0.227321 -47.462273
21.586549 4.429653 -39.654476
19.218362 -2.132642 -17.653796
13.580749 -7.219114 -25.640508
19.748612 -1.260198 -11.836491
7.697007 -8.859961 -4.690860
18.775401 -2.767806 -8.345221
15.676855 18.097737 -30.524995
14.936505 -6.422134 -21.102574
-2.651923 -5.634955 -31.033302
13.720026 -7.142690 -39.220478
-5.604031 14.690931 -42.620312
18.078629 15.847652 -29.909355
3.831749 20.817297 -24.536919
19.760531 13.436364 -41.226503
19.483990 -1.714757 -47.933096
-3.778196 16.839795 -28.608542
-8.307215 5.973677 -36.415743
-8.032143 3.239775 -36.251228
12.815523 -7.586052 -29.192809
-6.898480 -0.246014 -42.093114
-7.907214 9.551100 -30.807975
-8.177155 8.070152 -12.001783
8.013861 -8.840282 -8.778507
-3.050274 -5.304908 -19.882795
-7.257599 11.609506 -16.387376
20.341463 -0.093368 -39.831302
16.272131 -5.428507 -14.942428
4.056216 -8.662845 -7.349846
14.097004 19.132830 -26.757979
-5.468599 14.877038 -39.002394
14.385854 -6.771008 -19.529933
15.580383 -5.970764 -16.967656
2.257110 -8.226787 -19.438767
-8.163439 8.178053 -30.915559
-8.004013 9.104011 -26.393382
0.944571 19.950850 -16.335419
-8.307086 6.147159 -14.711314
20.257110 12.469618 -37.704673
-8.083985 8.686488 -43.103577
-8.307085 6.148964 -40.697545
14.830302 -6.489420 -12.052382
4.965647 20.993072 -31.520920
20.481637 11.981332 -35.764632
-5.814483 -2.185277 -37.897073
-5.033651 15.453622 -39.690595
-8.307245 5.932895 -34.872118
8.799327 -8.746194 -20.013320
-6.120669 13.900108 -30.603137
11.933914 -7.948026 -33.711447
20.997251 10.568228 -15.657264
-2.879346 -5.446528 -10.066462
13.700213 19.351359 -32.365472
-4.663416 -3.703826 -25.275513
-8.004034 3.091814 -41.395808
20.885308 10.913634 -36.991986
19.367764 -1.897602 -9.235589
20.895683 1.316534 -11.752964
