61.527750 57.118774 -37.163815
66.821956 50.757639 -36.167903
61.188128 57.478080 -8.294084
61.113485 57.557042 -46.717483
61.573603 57.070268 -42.962924
65.628935 52.352529 -14.423833
69.067742 47.560082 -50.956031
68.109748 48.981899 -27.830724
64.220788 54.060964 -45.260583
63.481928 54.933777 -27.686296
66.282287 51.470948 -22.647040
64.038733 54.276028 -42.752476
64.146382 54.148856 -33.204833
65.916641 51.968541 -16.113094
66.342050 51.391958 -21.175036
64.422816 53.822315 -42.002456
69.541377 46.857137 -30.253190
69.238802 47.306198 -40.083743
69.691048 46.634998 -40.854105
69.573842 46.808941 -35.111693
63.834508 54.517269 -11.937112
64.086395 54.219729 -43.879679
68.959065 47.721379 -45.076009
61.928572 56.694720 -27.156167
66.979577 50.549317 -34.203529
67.389283 50.007780 -29.547761
62.021388 56.596536 -30.558664
65.935955 51.945240 -13.448334
63.958006 54.371382 -48.781851
64.421574 53.823774 -26.584950
68.419404 48.522325 -12.377564
60.481232 58.225931 -21.157941
66.361694 51.365993 -44.132998
60.551093 58.152029 -17.116507
61.376519 57.278772 -35.639136
67.000279 50.521953 -1.991175
61.894909 56.730338 -46.325026
69.041006 47.599762 -12.790927
67.183023 50.280410 -31.814464
67.171659 50.295424 -33.157085
60.882567 57.801349 -1.760925
63.710316 54.663988 -43.421068
62.009773 56.608812 -27.052563
61.303529 57.355995 -43.829828
60.456978 58.251602 -23.904427
65.897544 51.988622 -21.122103
63.635658 54.752175 -47.988260
69.484170 46.942049 -35.658648
61.316456 57.342315 -44.509575
63.746486 54.621258 -12.318706
60.349131 58.365693 -16.737895
64.043018 54.270962 -15.465723
69.274200 47.253673 -27.075837
61.061127 57.612442 -6.417774
60.936386 57.744404 -4.897324
60.842242 57.844011 -21.523440
69.211958 47.346051 -36.372802
66.805057 50.779978 -44.050557
68.764999 48.009400 -51.856406
69.169346 47.409294 -38.621403
69.105042 47.504720 -34.672370
68.857823 47.871623 -39.159099
61.598608 57.043818 -43.122528
63.822844 54.531054 -20.697129
67.884269 49.316543 -20.316351
66.354460 51.375555 -24.013898
64.226831 54.053826 -35.875662
61.336633 57.320964 -50.012763
69.511654 46.901247 -32.441269
69.621542 46.738147 -35.317339
64.083190 54.223509 -8.577175
62.775921 55.773548 -35.895810
67.288424 50.141095 -34.606705
60.646060 58.051563 -20.733888
69.013221 47.640989 -47.166162
60.832450 57.854363 -20.337226
60.754171 57.937183 -14.053240
65.855761 52.056709 -12.719374
66.694270 50.926414 -37.984878
66.515254 51.163027 -43.385281
60.683536 58.011905 -11.754613
66.564400 51.098070 -16.149338
69.062924 47.567231 -43.806344
61.398130 57.255909 -48.014514
60.564905 58.137420 -16.698993
69.165029 47.415682 -37.817493
61.574680 57.069129 -43.679920
64.263681 54.010286 -30.195458
69.198073 47.366645 -33.978168
61.550117 57.095118 -43.994506
61.481244 57.167983 -39.256897
61.166002 57.501488 -43.064048
64.674473 53.525033 -33.140551
68.392086 48.562869 -20.526092
66.338177 51.397076 -19.658454
63.076717 55.416416 -22.278730
60.251981 58.468467 -16.087561
69.499041 46.919974 -39.137563
64.366040 53.889381 -4.995700
65.268539 52.810859 -9.282448
69.187741 47.381984 -37.354653
60.791538 57.897653 -22.515647
61.534174 57.111982 -48.815480
64.070520 54.238470 -41.304214
67.124393 50.357900 -37.884267
62.046211 56.570270 -27.807142
61.450578 57.200433 -45.366473
60.619803 58.079341 -21.566629
68.084174 49.019846 -23.500051
68.183089 48.873036 -26.924884
68.390097 48.565809 -21.624678
61.096288 57.575242 -50.404759
60.295801 58.422113 -14.834121
60.532295 58.171924 -19.335682
68.886136 47.829618 -16.183011
66.975060 50.555282 -35.902668
65.596673 52.392666 -15.997982
66.917852 50.630902 -40.735274
64.226872 54.053773 -36.327936
60.638656 58.059399 -14.341656
60.899651 57.783273 -16.688405
65.457743 52.570597 -30.294763
66.532503 51.140221 -9.714722
63.686183 54.692486 -46.737538
68.809762 47.942962 -41.238111
68.347988 48.628308 -23.621150
64.764410 53.418785 -34.472181
60.849633 57.836195 -9.770481
62.231649 56.374087 -23.293010
68.673036 48.145887 -9.754816
61.920001 56.703792 -40.198969
63.032792 55.469438 -22.573305
60.924629 57.756848 -5.558581
66.634607 51.005271 -8.500464
60.610039 58.089671 -15.310249
66.038346 51.805039 -12.682390
60.775987 57.914098 -29.173513
61.868699 56.758070 -46.252613
66.622488 51.021284 -12.930789
62.083231 56.531102 -36.953961
63.894250 54.446690 -44.656088
66.823679 50.755369 -58.003441
66.161467 51.630637 -47.521551
69.504874 46.911322 -30.276251
66.165409 51.625412 -22.675652
66.175094 51.612632 -26.789597
68.972746 47.701057 -38.046893
61.546161 57.099300 -55.725869
66.806842 50.777624 -46.519169
68.320050 48.669788 -10.114046
60.736358 57.956031 -24.504640
61.488794 57.159995 -38.481769
61.727652 56.907298 -26.486877
66.007892 51.840848 -17.631793
66.539884 51.130473 -46.631032
60.317345 58.399328 -14.112247
63.826340 54.526922 -17.238743
64.325297 53.937505 -43.167003
66.574321 51.084951 -45.631609
60.344701 58.370374 -21.658958
65.349525 52.703805 -10.583980
64.786478 53.392716 -32.040636
60.676010 58.019870 -9.146948
60.417050 58.293847 -20.579629
64.531447 53.693986 -29.112504
69.419888 47.037446 -41.217262
60.892593 57.790734 -18.595497
66.894409 50.661886 -38.177880
69.208499 47.351187 -4.965779
66.434233 51.270115 -41.356346
61.560283 57.084356 -35.289058
65.930801 51.961828 -5.847225
66.271410 51.485322 -20.088298
66.933084 50.610765 -23.166335
68.632906 48.205454 -4.442323
65.246624 52.839819 -18.452775
60.493131 58.213352 -9.635971
61.956649 56.665034 -46.711855
69.171129 47.406629 -44.466377
67.740533 49.529856 -34.640509
65.541577 52.464653 -23.754246
65.299942 52.769354 -7.896279
69.153063 47.433446 -36.786388
61.776016 56.856126 -27.653554
63.189485 55.284949 -12.483307
63.999215 54.322700 -7.330227
63.398473 55.032355 -31.302775
62.617792 55.954574 -19.181206
60.402692 58.309028 -20.688410
67.821238 49.410083 -31.739358
64.149530 54.145135 -15.463335
63.417042 55.010424 -25.656786
64.851616 53.315765 -14.071813
60.635392 58.062849 -9.145950
66.863441 50.702816 -46.025599
68.891872 47.821098 -48.143935
61.496844 57.151464 -27.330847
63.614830 54.776773 -24.214730
61.746790 56.887043 -30.348096
61.589267 57.053698 -31.588612
69.443748 47.002037 -36.337308
64.092081 54.213016 -28.070349
69.339441 47.156844 -32.903497
64.208238 54.075786 -48.516442
63.000791 55.512098 -14.991989
65.848542 52.063259 -15.444066
66.679599 50.945801 -42.552913
67.735942 49.536667 -28.763546
62.037274 56.579732 -31.746003
60.268335 58.451163 -16.501224
68.683549 48.130282 -38.713274
68.767575 48.005572 -25.443294
69.088193 47.529731 -34.901870
64.073941 54.234425 -13.688296
68.248830 48.775473 -28.372393
65.464226 52.561107 -27.882065
64.783637 53.396078 -33.103823
60.529801 58.174555 -19.918414
67.068187 50.432192 -36.786610
68.752782 48.027534 -48.307171
66.019246 51.831591 -12.508719
60.786953 57.902499 -12.511239
62.618819 55.953367 -10.679058
69.139613 47.453408 -12.427941
65.715679 52.228971 -29.423743
69.217849 47.337302 -11.328344
65.693165 52.259988 -29.442308
62.937895 55.587295 -16.834086
69.014427 47.639213 -38.096374
61.446543 57.204683 -40.436250
66.419983 51.288951 -12.899829
67.019058 50.497129 -42.566951
60.388102 58.324473 -27.231019
59.897051 58.843967 -18.709820
61.711996 56.923860 -52.946303
69.130012 47.467672 -12.863707
67.900167 49.292940 -7.871384
60.930391 57.750752 -13.637624
60.406462 58.305034 -26.066590
68.846608 47.888265 -46.332878
66.004132 51.857139 -8.738023
66.643635 50.993343 -15.755203
69.178105 47.396296 -4.219904
60.544692 58.158792 -9.656007
68.458280 48.464639 -7.964311
62.589510 55.987991 -18.488885
68.966311 47.710620 -14.199247
64.724862 53.465500 -27.844481
63.947866 54.383359 -35.637851
66.404296 51.309681 -16.253783
66.661108 50.970245 -11.987610
61.147375 57.521189 -49.493930
60.608780 58.090999 -15.155134
60.466178 58.241862 -15.648939
67.076967 50.420584 -34.017580
66.734336 50.873449 -37.540860
61.186920 57.479353 -40.186727
66.900271 50.654138 -42.296089
60.717990 57.975463 -6.923299
66.637638 51.001260 -17.900255
68.971600 47.702773 -45.302910
67.099286 50.391082 -46.932020
68.859955 47.868467 -41.442953
69.006639 47.650775 -35.623555
64.052662 54.259574 -46.706747
60.867812 57.816963 -9.535065
64.166245 54.125390 -13.549455
63.034433 55.470606 -16.468929
61.383277 57.271623 -53.022939
68.840680 47.897074 -50.871122
61.624507 57.016417 -37.455168
66.524186 51.151222 -15.143410
60.827105 57.860026 -16.932735
65.654206 52.317128 -26.691521
60.016214 58.717897 -29.141329
62.253025 56.351470 -35.458920
61.895799 56.729400 -40.621384
69.199964 47.363847 -31.075778
63.785517 54.575146 -20.886519
64.361359 53.894921 -45.406264
68.803523 47.952232 -8.981270
60.648843 58.048623 -17.528769
63.903445 54.435827 -11.400816
60.185041 58.539293 -21.114147
69.163137 47.418498 -50.230528
64.181075 54.107872 -32.772944
61.545405 57.100096 -35.092879
65.342804 52.712679 -16.415390
66.286677 51.465139 -21.818699
61.237170 57.426192 -37.011346
69.334842 47.163664 -39.579012
69.039888 47.601409 -47.911710
65.791633 52.135287 -20.596837
61.823441 56.805955 -33.350374
60.543056 58.160529 -12.783858
60.351541 58.363143 -24.184950
60.554416 58.148518 -12.833708
61.681669 56.955943 -32.158097
67.790670 49.455442 -20.941966
60.683843 58.011590 -14.200742
63.938993 54.393852 -46.687967
67.933420 49.243588 -10.723857
66.406780 51.306403 -19.676404
68.897272 47.813072 -42.586769
64.381860 53.870692 -40.191687
63.748943 54.618358 -15.465591
60.486941 58.219892 -22.720059
68.455304 48.469046 -10.699348
66.702190 50.915942 -41.488952
61.106028 57.564936 -10.551147
66.300814 51.446461 -19.368848
68.294223 48.708126 -11.133914
63.145667 55.331000 -38.378114
67.043984 50.464179 -34.139574
60.206362 58.516734 -29.059136
65.539393 52.467136 -23.524378
68.021717 49.112544 -31.719886
69.166192 47.413963 -45.367403
60.953365 57.726456 -46.214262
67.869780 49.338031 -8.917510
65.851589 52.056031 -17.866483
61.650283 56.989150 -30.326920
60.384262 58.328531 -22.030183
65.533566 52.472702 -21.333268
68.800190 47.957169 -23.548240
65.951451 51.929477 -8.971403
62.182631 56.425954 -24.001516
61.194939 57.470874 -42.859184
66.499993 51.183192 -17.019698
63.108577 55.379218 -19.620410
64.319940 53.943837 -41.962246
60.762501 57.928379 -11.105462
61.691036 56.946029 -30.564715
66.592488 51.060944 -44.661186
65.502876 52.508927 -19.976038
67.820493 49.411186 -13.624577
63.824891 54.528630 -16.409660
61.541627 57.104097 -43.282151
62.579942 55.999285 -22.634821
62.617475 55.954946 -16.661527
60.781635 57.908121 -15.607320
68.733342 48.056391 -24.218848
60.884556 57.799243 -52.513602
68.928778 47.766325 -35.394823
66.650414 50.984389 -45.996220
69.268086 47.262735 -32.303054
63.850517 54.498358 -16.456413
63.850421 54.498474 -40.446497
68.584823 48.276810 -14.983355
68.300262 48.699148 -29.856258
64.119351 54.180799 -48.228499
61.763635 56.869220 -37.806372
65.875964 52.020170 -19.683530
64.238064 54.040560 -40.043632
64.345899 53.913176 -44.340911
66.620493 51.023930 -14.835742
67.158004 50.313470 -48.544287
63.904780 54.434253 -18.139658
68.304409 48.692994 -22.011453
65.357891 52.692745 -22.903226
60.594151 58.106478 -10.521826
60.350574 58.364162 -16.653300
68.358168 48.613213 -13.074041
61.784106 56.847570 -40.447352
62.040679 56.576126 -23.959423
64.804367 53.371590 -26.691082
62.096192 56.517391 -26.033462
60.723397 57.969740 -19.738418
61.722885 56.912333 -27.030453
61.673400 56.964684 -34.283357
63.169075 55.310576 -10.720360
60.182685 58.541785 -14.133653
66.522206 51.153844 -49.810439
69.256851 47.279410 -35.337454
63.470019 54.947840 -21.321194
63.673218 54.707804 -13.297011
61.131347 57.538153 -11.727019
61.678678 56.959112 -37.042028
68.962280 47.716605 -49.294091
60.621589 58.077447 -11.129540
66.295532 51.453440 -20.020376
61.957513 56.664111 -34.012655
69.142805 47.448685 -9.601110
63.665495 54.716927 -22.972447
64.414069 53.832647 -34.045430
67.125773 50.356081 -48.717064
68.493562 48.412250 -56.506649
67.890563 49.307193 -10.688530
61.292400 57.367771 -34.787786
67.285281 50.145262 -32.599175
64.061591 54.249022 -40.449659
66.668555 50.960399 -10.334981
67.281141 50.150730 -40.963778
63.845035 54.504839 -43.045056
64.272373 54.000023 -43.264244
61.161241 57.506523 -46.823333
66.686900 50.936152 -48.721222
69.080886 47.540574 -50.016062
69.327286 47.174872 -51.947264
60.714504 57.979138 -18.329904
60.730923 57.961781 -50.787457
66.563773 51.098900 -52.889252
67.277522 50.155501 -18.578627
68.338537 48.642333 -23.803893
65.465924 52.558863 -27.599481
69.100019 47.512169 -47.014790
64.025232 54.291972 -44.547198
60.195577 58.528140 -15.847360
68.278966 48.730740 -25.212617
64.241882 54.036050 -40.103564
60.862502 57.822577 -47.273343
66.866355 50.698957 -31.538066
69.005054 47.653122 -41.517874
60.516390 58.188743 -25.381792
61.517496 57.129628 -32.402624
63.808936 54.547484 -49.924249
60.392716 58.319584 -23.203814
63.866710 54.479238 -54.223534
63.297281 55.157606 -6.395132
67.881008 49.321376 -15.083624
63.017778 55.487556 -22.666697
61.784355 56.847295 -40.816470
67.258421 50.180753 -38.144740
66.716447 50.897099 -33.925607
61.773179 56.859123 -39.621953
68.187625 48.866313 -23.893688
66.704707 50.912628 -44.556314
69.055906 47.577652 -47.076801
66.393090 51.324490 -21.678341
63.858520 54.488906 -53.234098
68.968539 47.707311 -38.856137
60.970235 57.708601 -21.587027
68.781571 47.984810 -20.181120
68.280773 48.728064 -24.326674
65.856199 52.049270 -18.191760
61.564515 57.079880 -47.688833
62.268608 56.334988 -28.328054
65.922290 51.955703 -20.164482
62.558666 56.024418 -32.621711
68.628541 48.211928 -17.386087
68.308152 48.687448 -11.917220
60.565030 58.137288 -20.769220
66.983788 50.543748 -45.300467
69.437743 47.010944 -53.766935
66.338632 51.396483 -43.680817
64.070404 54.238613 -10.192011
63.298346 55.150634 -33.199606
64.005195 54.315646 -16.397716
63.040885 55.460408 -21.089873
66.677361 50.948770 -33.652245
67.884845 49.315682 -9.144178
68.791435 47.970166 -50.431517
68.182643 48.873718 -23.141383
68.928323 47.767002 -42.032726
62.589165 55.988386 -32.398621
64.383819 53.868377 -9.220576
64.688724 53.508194 -35.746957
60.600160 58.100123 -25.329535
65.856355 52.051352 -16.353686
60.643851 58.053896 -12.704696
63.727127 54.644122 -14.133779
63.036503 55.463084 -26.184173
66.932773 50.611182 -24.863517
69.309999 47.200531 -30.424945
69.102027 47.509209 -12.171847
67.240888 50.203921 -41.546239
61.996134 56.623252 -38.299795
66.849867 50.720759 -37.228692
61.974995 56.645621 -37.311378
68.227606 48.806982 -23.393072
63.015087 55.498395 -8.003803
66.847583 50.723778 -5.941378
63.819035 54.535562 -45.779852
60.712904 57.980846 -8.593959
63.101607 55.392469 -10.297239
60.961778 57.717546 -19.906888
65.683409 52.275584 -27.725028
68.077997 49.029010 -33.595145
61.877828 56.748412 -27.520049
60.872445 57.812059 -0.436554
67.057791 50.445936 -42.574017
69.132555 47.463888 -44.305010
61.741353 56.892790 -44.673979
64.007307 54.313149 -37.266706
62.584394 55.994028 -5.825429
63.593075 54.802480 -28.301958
63.661292 54.721896 -49.052887
61.622547 57.018495 -28.580803
63.189720 55.282366 -16.938305
61.173475 57.493585 -40.642928
67.018709 50.497588 -47.344742
66.552493 51.113816 -40.893608
66.786210 50.804889 -41.967008
63.257613 55.205627 -6.393146
64.291601 53.977313 -44.628004
67.824127 49.405791 -10.270111
66.968924 50.563393 -37.673018
60.512462 58.192896 -25.988285
68.386711 48.570846 -13.166145
63.728947 54.641971 -18.562643
69.515857 46.895015 -38.713204
64.579111 53.637682 -40.798946
66.692892 50.928241 -34.851415
62.723927 55.836955 -21.673680
64.082831 54.223927 -12.590038
61.438258 57.213463 -41.238067
67.134378 50.344706 -41.480738
69.261632 47.272318 -39.953279
67.031337 50.480899 -35.674161
67.431156 49.952442 -26.382140
61.580907 57.062542 -48.379287
69.304695 47.208403 -37.865930
68.986113 47.681238 -41.071614
66.441064 51.261078 -37.773456
63.735722 54.633970 -8.390532
64.063886 54.246315 -14.368780
60.386160 58.326524 -25.459090
64.625724 53.582612 -26.969431
60.083171 58.647071 -11.358243
66.987346 50.539054 -6.458521
63.479857 54.936209 -20.999966
60.393765 58.318469 -23.966662
69.434709 47.015447 -21.734373
69.389816 47.082070 -5.460597
68.543590 48.338016 -8.028344
63.901849 54.437720 -15.943572
61.150247 57.518158 -10.599994
66.909394 50.642084 -33.972421
63.977054 54.348887 -41.727238
63.927247 54.407717 -46.286537
61.115689 57.554722 -9.396210
69.337102 47.160306 -37.407141
66.151092 51.644340 -28.869284
63.493637 54.919943 -21.150930
69.081299 47.539958 -39.765860
69.068302 47.559250 -16.002723
63.857290 54.490349 -13.724959
65.884845 52.003967 -22.850736
66.940731 50.600656 -44.439008
63.945356 54.386328 -50.874344
68.889039 47.825301 -48.927124
66.360756 51.367222 -21.332244
63.812964 54.542723 -19.817484
67.353405 50.055208 -34.982079
69.450888 46.991432 -31.700133
66.667169 50.962237 -34.766286
63.839216 54.511703 -14.544775
69.570898 46.813321 -19.628712
68.669327 48.151386 -27.959650
66.027318 51.815115 -16.805059
60.948696 57.731386 -27.238549
62.869998 55.661747 -31.844332
60.052229 58.679794 -29.647480
62.077301 56.537378 -31.853587
60.753520 57.937871 -11.222992
69.582629 46.795922 -36.612498
63.564748 54.835935 -24.195872
67.843924 49.376408 -23.403019
66.744130 50.860512 -41.181309
65.584464 52.404471 -11.651813
61.207999 57.457063 -38.318786
65.684346 52.277905 -3.364007
64.799177 53.377716 -24.912489
64.465726 53.771614 -42.056855
68.832130 47.909759 -49.025141
60.806603 57.881713 -15.293596
62.020443 56.597532 -41.258455
65.296475 52.773931 -21.935536
61.614310 57.027209 -35.646520
60.437633 58.272060 -16.068611
66.546779 51.121353 -15.255496
61.086912 57.585169 -16.545206
63.695415 54.681591 -53.481545
68.562332 48.310202 -15.857589
60.262266 58.457594 -9.114727
66.748051 50.855338 -16.156848
68.204319 48.841527 -24.265825
61.647274 56.992338 -39.591751
66.558543 51.105817 -40.674135
61.391351 57.263077 -35.322751
62.989244 55.521776 -23.349811
65.277241 52.799339 -22.044908
61.672907 56.965211 -45.848173
66.815773 50.765810 -36.651255
60.839503 57.846911 -11.910809
60.489612 58.217077 -7.413045
65.539144 52.461308 -38.266565
66.771051 50.824943 -37.157292
62.100438 56.512904 -36.604856
66.589836 51.064445 -11.364918
64.191308 54.095793 -43.298505
67.004729 50.516056 -39.754577
68.223578 48.812950 -22.147751
69.002010 47.657640 -36.976642
64.054967 54.256851 -12.615552
64.115098 54.185823 -42.993915
64.181878 54.106932 -41.510218
64.392178 53.858501 -50.296730
69.220956 47.332687 -36.524549
60.606455 58.093454 -9.600322
64.506051 53.723985 -40.400372
63.974559 54.351830 -41.799670
66.298142 51.449992 -42.038603
61.064036 57.609362 -11.796021
68.883731 47.833176 -45.984440
65.809364 52.096033 -40.011876
64.402765 53.845997 -51.709372
65.406404 52.635141 -33.808956
67.917452 49.267283 -6.353411
66.535402 51.136395 -45.858004
66.950056 50.588327 -32.345032
68.249364 48.774690 -26.705228
64.734381 53.454259 -31.250610
69.058630 47.573608 -38.261333
60.329004 58.386986 -28.016123
68.517137 48.377250 -33.934763
63.932641 54.401340 -20.401133
63.500585 54.911726 -27.763451
65.496004 52.520397 -24.580714
61.584054 57.059208 -46.468619
64.698482 53.496672 -31.753831
60.799797 57.888912 -45.678071
64.341348 53.918543 -23.882984
69.078633 47.543920 -43.625292
69.311128 47.198860 -39.861509
64.547960 53.674475 -35.868969
63.928395 54.406354 -32.944749
66.523994 51.151479 -20.212167
66.739912 50.866096 -34.242049
63.984995 54.339508 -47.517406
68.951911 47.731996 -32.001520
61.927541 56.695824 -43.845849
68.923358 47.774362 -22.217345
60.234705 58.486748 -27.885406
64.180334 54.108748 -12.048335
61.705659 56.930567 -40.729252
64.030596 54.285636 -16.086642
61.367866 57.287932 -33.353949
66.561264 51.102212 -49.803909
69.413446 47.047008 -46.776177
62.018625 56.599459 -33.728784
67.809965 49.426808 -11.749265
63.992036 54.331191 -49.090797
66.744914 50.859476 -28.477413
69.195610 47.370322 -7.540918
69.629475 46.726378 -40.631062
66.331792 51.405526 -22.391810
67.786045 49.462306 -15.256110
66.783863 50.807996 -41.053852
63.027900 55.481170 -11.320786
60.224718 58.497320 -15.708882
63.913903 54.423488 -46.415369
61.158033 57.509921 -46.398343
65.865896 52.029188 -23.570540
66.771748 50.824007 -7.525912
65.569563 52.426257 -17.146157
63.988799 54.335010 -14.023485
67.750946 49.514398 -17.834148
60.120375 58.607702 -25.726531
62.591815 55.985251 -11.640768
61.184320 57.482112 -51.963321
69.005847 47.651947 -53.553048
61.616925 57.024437 -31.185053
66.620162 51.024355 -14.937982
69.093082 47.522466 -38.472045
63.139908 55.341033 -20.102048
67.895715 49.299550 -14.965739
64.639739 53.566058 -41.397621
64.260312 54.014278 -9.346203
61.093211 57.578493 -41.518213
67.889444 49.308852 -15.482747
62.768467 55.786823 -14.600791
64.541517 53.682087 -2.836148
63.245684 55.219710 -7.069980
60.998962 57.678211 -17.499333
61.721709 56.913572 -42.908433
69.276107 47.250836 -45.238933
66.970006 50.561972 -32.757585
64.519142 53.708520 -4.792518
64.304643 53.961907 -36.030167
60.528077 58.176379 -52.048020
63.629811 54.759080 -20.487309
64.486749 53.746795 -34.127505
69.106267 47.502898 -39.468318
66.878121 50.683407 -50.937747
67.748652 49.517797 -30.620212
65.231633 52.859636 -7.892333
60.932233 57.748804 -11.795392
62.599851 55.975773 -11.588676
61.513312 57.134048 -38.032964
67.088793 50.404955 -25.838172
65.372346 52.673630 -9.019781
63.167490 55.312666 -10.379840
60.474958 58.232572 -26.463807
66.738220 50.868328 -50.440565
61.032327 57.642902 -12.257137
63.805298 54.551788 -9.574022
64.208000 54.076071 -47.941228
68.638737 48.196776 -50.410071
65.357559 52.693171 -10.746975
60.879488 57.804605 -5.567754
69.279418 47.245921 -39.443950
63.851007 54.497786 -15.822397
60.765409 57.925294 -48.666596
63.935482 54.397994 -13.310705
63.839589 54.511272 -47.750543
69.617651 46.743939 -30.692971
68.997733 47.663984 -16.472097
69.399910 47.067087 -45.531594
61.256306 57.405951 -16.273843
63.941267 54.391167 -40.541063
64.287629 53.982009 -7.896534
64.423315 53.821717 -35.996102
64.553258 53.668219 -44.625754
66.613054 51.033758 -15.109167
68.887727 47.827247 -49.099330
69.501621 46.916138 -36.064686
66.390703 51.327647 -24.258533
62.058372 56.557405 -32.320759
65.667868 52.301612 -8.861322
67.144172 50.331753 -31.561768
69.389869 47.081990 -30.556216
62.017763 56.600370 -41.806129
65.259443 52.822876 -32.930749
68.913363 47.789202 -35.994972
68.758450 48.019111 -24.828460
64.007939 54.312399 -29.485207
61.522864 57.123943 -46.927523
62.718175 55.842104 -19.036609
68.985731 47.681794 -49.219812
66.311947 51.431740 -47.997934
68.749596 48.032255 -20.658133
67.298281 50.128069 -43.932036
66.012865 51.837144 -15.111769
66.533274 51.139213 -42.315526
62.757581 55.798319 -14.291457
61.402168 57.251635 -32.056308
67.265551 50.171333 -41.717667
65.738240 52.199781 -27.896252
66.191614 51.590801 -25.376296
64.064056 54.246114 -7.091784
59.972151 58.764516 -21.096113
60.071186 58.659751 -30.716178
61.815450 56.814402 -44.572079
65.365348 52.682888 -23.376052
66.488114 51.198896 -16.434587
66.751099 50.851288 -43.207837
63.613579 54.778260 -20.846100
64.283459 53.986924 -39.537832
69.505280 46.910714 -32.794892
61.596354 57.046198 -42.615155
63.608051 54.784792 -18.272835
61.657559 56.981443 -44.253863
61.663235 56.975443 -50.392758
63.511745 54.898554 -24.460087
61.356648 57.299796 -39.065848
61.944717 56.677645 -44.252804
65.509848 52.505324 -27.072144
66.928840 50.616374 -35.116227
61.964532 56.656680 -39.395232
64.000105 54.321646 -35.307474
60.741100 57.951008 -16.013141
68.165999 48.898408 -24.862449
69.703344 46.616754 -26.728045
63.767756 54.596122 -16.535058
67.176726 50.288729 -32.478091
62.680664 55.884005 -24.125296
61.099006 57.572368 -42.003669
64.202772 54.082247 -36.565253
64.419966 53.825674 -33.392527
68.433529 48.501339 -46.528993
67.857160 49.356763 -7.548608
65.341462 52.714455 -11.594520
66.869107 50.695328 -54.893113
68.641333 48.192934 -29.686695
60.653861 58.043305 -25.725841
68.643555 48.189650 -11.155102
63.723828 54.648015 -16.112191
61.074029 57.598780 -13.488009
61.107894 57.562970 -19.073196
69.071658 47.554277 -39.261079
63.040223 55.465711 -12.382732
69.094191 47.520825 -30.579733
66.958235 50.577521 -38.053827
69.052872 47.582152 -43.151473
66.722414 50.889217 -48.937011
68.580840 48.282710 -56.959100
65.971953 51.904181 -6.589507
62.917011 55.606333 -28.927754
60.739838 57.952340 -17.749475
63.687802 54.690579 -10.822718
64.129323 54.169012 -50.695754
62.971299 55.543733 -22.899972
66.438293 51.264738 -33.155878
65.910045 51.981172 -13.274161
65.952218 51.907212 -34.398710
69.496232 46.924139 -43.080478
68.885343 47.830787 -18.980585
66.926975 50.618841 -10.483972
60.589265 58.111644 -11.949772
67.224543 50.225530 -32.500776
65.368699 52.678455 -19.989164
63.851242 54.497513 -17.082078
63.671820 54.709447 -15.475663
60.685217 58.010130 -20.166358
66.486552 51.200967 -20.396896
64.441914 53.799746 -28.739084
66.876930 50.684981 -35.519933
63.920003 54.416278 -14.051882
66.975604 50.554561 -51.475233
66.675539 50.951176 -39.841657
68.659938 48.165329 -12.785627
63.956930 54.372663 -53.143340
67.038211 50.471822 -51.039461
66.749577 50.853313 -38.300739
64.187377 54.100431 -45.927162
65.984352 51.872188 -18.523386
68.979693 47.690766 -12.228528
67.010886 50.507921 -8.942015
61.301658 57.357971 -43.499463
66.168661 51.621135 -28.230732
64.692145 53.504146 -28.142639
61.575778 57.067967 -39.429218
61.984594 56.635461 -35.070956
69.409511 47.052838 -28.316739
64.349062 53.909440 -41.150040
63.833706 54.518225 -19.365264
69.224258 47.327790 -12.781634
67.030247 50.482344 -36.561975
61.894870 56.730376 -25.270270
65.945172 51.927101 -17.806208
69.062924 47.567230 -39.061946
66.495460 51.189191 -48.681485
61.810598 56.819539 -42.502429
66.520169 51.156523 -12.837649
66.662626 50.968229 -13.717181
60.827545 57.859555 -6.697717
69.394101 47.075730 -2.958567
69.019673 47.631421 -42.506652
69.401633 47.064536 -44.690853
63.793519 54.565688 -22.130979
63.035286 55.470484 -14.690224
68.430371 48.506048 -13.577354
63.042324 55.453063 -40.258325
62.721218 55.838319 -17.584172
68.605143 48.246653 -27.178623
68.321631 48.667435 -13.715930
61.622333 57.018714 -36.640095
69.349596 47.141773 -38.977868
63.957309 54.372210 -13.173113
67.895120 49.300442 -12.126859
68.428826 48.508336 -18.884981
69.051743 47.583824 -39.551162
65.276143 52.800795 -17.676629
64.662112 53.539627 -25.960094
61.193975 57.471888 -22.976986
61.647577 56.992011 -34.728090
60.127252 58.600434 -14.547763
66.381472 51.339850 -14.126073
65.735147 52.206740 -25.741402
60.749807 57.941812 -15.432032
66.875705 50.686610 -8.537297
69.107454 47.501147 -13.354074
66.299025 51.448832 -27.012774
69.230012 47.319241 -12.801174
64.149700 54.144946 -31.790541
61.332807 57.325019 -46.436542
60.587399 58.113616 -32.000064
66.528378 51.145686 -45.469537
66.373349 51.350583 -44.230746
64.152424 54.141732 -45.962443
66.529604 51.144053 -49.044372
69.163141 47.418496 -33.081294
66.911328 50.639528 -36.853942
68.272918 48.739723 -25.513528
64.484390 53.749570 -36.892941
60.318630 58.397959 -15.151012
62.892835 55.632113 -35.685455
63.843062 54.507164 -15.532747
66.944199 50.596068 -35.270252
69.168837 47.410037 -28.624285
66.213590 51.561741 -23.856774
67.437537 49.944018 -24.900689
69.066022 47.562637 -43.330353
60.565814 58.136456 -12.869490
68.370714 48.594574 -20.812981
68.942708 47.745647 -41.935343
62.888957 55.639758 -29.973498
63.653769 54.730786 -23.226930
69.387798 47.085075 -37.087873
69.204458 47.357174 -34.681374
69.274923 47.252588 -36.181991
61.569399 57.074716 -38.450256
65.552134 52.448492 -18.794053
63.581531 54.816112 -22.245639
69.486992 46.937855 -36.848603
64.653811 53.549440 -28.011603
65.587279 52.398470 -7.843472
69.357506 47.130030 -46.179151
63.693998 54.683260 -18.169610
67.896854 49.297860 -17.970481
60.169841 58.555369 -25.371176
63.425226 55.000753 -18.828152
64.345057 53.914171 -32.006968
69.047424 47.590229 -34.769774
66.600391 51.050499 -14.875171
66.923473 50.623459 -29.589571
62.323980 56.276402 -19.726714
64.775705 53.405447 -34.287898
60.229589 58.492165 -16.741099
66.971767 50.559631 -36.605540
68.397023 48.555539 -9.737799
66.503025 51.179179 -15.280274
68.954820 47.727674 -38.925812
65.299337 52.770140 -13.590927
69.106967 47.501864 -33.726608
60.467303 58.240676 -10.913053
63.737740 54.631588 -18.653342
61.556504 57.088354 -36.875817
66.719483 50.893091 -50.448802
61.065602 57.607711 -54.319456
63.432732 54.991886 -19.978514
68.220113 48.818097 -24.986262
61.699134 56.937464 -45.407250
68.756158 48.022517 -46.679870
65.328503 52.731588 -8.159769
60.454221 58.254515 -13.597452
60.493000 58.213486 -20.749651
69.183526 47.388253 -6.084163
65.840703 52.063926 -23.575342
60.691068 58.003947 -15.865818
63.060709 55.437888 -18.231955
64.031823 54.284186 -53.723674
61.281929 57.378844 -6.079886
60.652785 58.044448 -7.039130
66.473004 51.218870 -11.401259
67.807957 49.429797 -30.458068
68.852520 47.879505 -42.086489
61.436416 57.215404 -35.085558
66.924714 50.621823 -44.225513
62.666696 55.900089 -27.333642
60.626307 58.072461 -34.427992
66.485571 51.202266 -17.103377
60.592154 58.108589 -20.222965
67.085950 50.408715 -39.019447
62.878355 55.652846 -29.490024
62.368770 56.229025 -34.083610
68.248862 48.775436 -26.916441
67.754721 49.508800 -23.940117
66.143847 51.653917 -45.739132
69.046602 47.591455 -44.778320
66.857989 50.710033 -37.137619
60.800529 57.888147 -15.224856
60.503398 58.202489 -17.680509
68.971902 47.702324 -13.783166
60.424247 58.286229 -22.906851
64.233452 54.046003 -49.285915
69.360615 47.125414 -37.180569
69.055327 47.578497 -36.502079
68.406262 48.541825 -11.875009
60.928187 57.753087 -4.905461
69.371655 47.109025 -38.654875
64.693722 53.502283 -21.808333
69.076486 47.547093 -41.491017
69.147241 47.442092 -50.336697
63.803805 54.553546 -18.481441
60.474626 58.232931 -16.501921
69.181667 47.390993 -36.819409
63.912189 54.425513 -36.107240
66.907516 50.644552 -30.508637
63.015688 55.494075 -14.975657
60.366191 58.347648 -12.499420
69.094250 47.520739 -48.208535
68.428085 48.509441 -12.487844
61.526831 57.119751 -44.331467
62.583397 55.995200 -19.312113
69.549968 46.844376 -32.729656
65.377069 52.667386 -7.092292
63.768381 54.595389 -17.674455
67.333779 50.081148 -23.101768
68.657742 48.168574 -27.215743
64.013547 54.305778 -36.487712
62.736123 55.820496 -12.367082
63.854372 54.493815 -47.490369
68.907486 47.797917 -48.165461
62.110413 56.502353 -22.057246
66.659015 50.973003 -40.180763
61.461795 57.188551 -37.113255
65.327163 52.733352 -24.322978
63.535184 54.870864 -19.620765
69.516851 46.893534 -22.664332
66.685502 50.938001 -10.062525
63.844898 54.504990 -45.798348
69.421110 47.035619 -39.863912
66.697528 50.922106 -12.894791
60.375605 58.337687 -17.826033
69.233144 47.314594 -43.875414
69.435473 47.014313 -40.344818
66.589168 51.065332 -40.849380
69.567422 46.818480 -26.023639
63.420893 55.005871 -28.456816
68.091665 49.008717 -39.284926
60.605423 58.094551 -16.799091
68.956749 47.724815 -16.372556
63.964492 54.363726 -52.329427
61.528702 57.117769 -33.009350
60.389642 58.322828 -27.688768
60.112609 58.615921 -33.451351
61.650136 56.989307 -32.941037
66.583735 51.072508 -46.979715
61.912570 56.711664 -21.332920
66.770075 50.826224 -38.442776
61.217673 57.446821 -17.471473
66.792253 50.796906 -39.738868
60.425384 58.285023 -15.521862
68.224397 48.811734 -24.828268
60.428388 58.281849 -25.541855
69.337378 47.159910 -31.235728
60.717950 57.975504 -17.771698
64.566161 53.652983 -37.360852
69.149865 47.438192 -39.796335
64.556740 53.664114 -31.063357
69.004472 47.653991 -16.476261
66.718773 50.894029 -36.483295
69.287726 47.233598 -30.511812
64.115246 54.185636 -34.274012
66.417159 51.292686 -44.220881
68.940174 47.749412 -14.430996
65.613848 52.372252 -16.554113
62.071673 56.543338 -37.869102
63.568831 54.831110 -20.293045
67.795824 49.447801 -24.062423
60.817747 57.869923 -17.762549
67.903025 49.288697 -12.363241
68.662576 48.161415 -28.036434
64.297268 53.970622 -44.893301
66.351669 51.379238 -42.902200
66.239368 51.527671 -24.764842
66.277607 51.477137 -18.168316
60.474712 58.232840 -30.426419
68.272359 48.740552 -23.003687
66.284301 51.468288 -23.925149
65.322773 52.739158 -24.300738
63.613661 54.778150 -23.191130
64.444165 53.797079 -33.939091
62.043145 56.573526 -28.801108
61.183151 57.483347 -9.825382
68.899551 47.809700 -18.651000
67.194881 50.264731 -21.671866
64.353894 53.903731 -31.205274
61.009622 57.666922 -14.826462
63.804250 54.553017 -17.773254
66.666861 50.962638 -39.764309
69.245225 47.296670 -35.121347
69.302178 47.212139 -42.384724
64.733302 53.455529 -34.241352
61.843017 56.785236 -36.003753
60.860567 57.824619 -19.772368
62.617915 55.954427 -10.937678
61.261737 57.400214 -9.813977
68.918961 47.780895 -21.088242
61.759737 56.873348 -30.423386
64.029344 54.287113 -12.212084
61.784160 56.847506 -34.106303
63.068401 55.430129 -15.227291
62.908812 55.622393 -17.059419
64.350521 53.907705 -38.532114
60.261058 58.458869 -3.682486
66.567232 51.094321 -43.547578
60.719260 57.974118 -44.494697
64.040488 54.273951 -46.615847
64.100662 54.202866 -37.360784
69.059683 47.572043 -46.263731
60.605701 58.094256 -52.729281
61.598269 57.044176 -35.235087
63.928472 54.406267 -43.096776
61.320460 57.338081 -11.386979
68.993785 47.669847 -43.205880
62.784140 55.767757 -8.273093
66.870901 50.692954 -33.100527
61.083842 57.588411 -49.526703
65.771313 52.163590 -20.357911
63.997041 54.325278 -34.359525
68.965430 47.711927 -52.868203
61.299248 57.360521 -44.408178
66.305864 51.439782 -47.771383
60.370124 58.343485 -34.794439
68.410536 48.535482 -13.685749
65.620619 52.364425 -17.105041
69.444167 47.001406 -38.404351
69.026251 47.621665 -37.932797
69.013501 47.640587 -45.020345
66.882680 50.677377 -36.113556
61.136751 57.532436 -45.211387
68.982391 47.686754 -15.816716
63.030484 55.475448 -16.365878
64.082697 54.224086 -42.313700
60.872923 57.811549 -5.924341
69.018325 47.633417 -49.273744
68.166253 48.898028 -23.180286
67.884717 49.315872 -19.711015
67.064096 50.437598 -41.862703
64.661434 53.540437 -27.726792
62.004899 56.613984 -45.918028
61.021586 57.654266 -40.412195
66.881576 50.678848 -36.527918
65.765643 52.161387 -28.390518
61.279892 57.381002 -47.182992
64.455610 53.783571 -36.102766
67.029709 50.483055 -20.681859
62.773262 55.778152 -5.011106
61.393963 57.260314 -39.528030
64.018764 54.299605 -10.026703
64.245805 54.031415 -5.750828
66.151543 51.643749 -23.955615
63.837186 54.514110 -19.760643
66.819401 50.761019 -44.520741
62.612647 55.960653 -14.500263
68.863283 47.863536 -17.714062
67.282701 50.148661 -26.337617
66.746637 50.857195 -39.463607
64.244800 54.032591 -39.305260
66.828387 50.749145 -48.907169
69.253572 47.284281 -40.340611
64.213555 54.069516 -55.285506
61.458549 57.191985 -39.718663
69.213545 47.343692 -13.704876
68.194269 48.856452 -27.883277
66.889424 50.668467 -39.572381
68.944825 47.742500 -45.701076
67.031729 50.480377 -39.895891
68.994322 47.669052 -48.878100
67.949407 49.219865 -15.045422
68.358465 48.612764 -19.930571
69.148924 47.439597 -35.230439
63.093935 55.393966 -25.381302
68.767887 48.005113 -43.946817
67.827038 49.401475 -27.075011
65.876709 52.021124 -18.093120
63.203946 55.265878 -15.525364
64.240987 54.037103 -43.922725
61.994896 56.624560 -43.375659
66.286610 51.465233 -24.057749
60.417064 58.293825 -13.740148
67.855218 49.359642 -13.825615
69.653402 46.690876 -24.527415
64.113817 54.187338 -36.769933
61.787107 56.844388 -45.431194
64.894598 53.265000 -45.884002
62.975777 55.537294 -24.854741
60.530305 58.174025 -17.717663
64.358799 53.897933 -41.416785
68.494381 48.411054 -15.782238
63.743436 54.624861 -23.996481
61.593912 57.048778 -46.493647
62.915801 55.611503 -21.746805
69.148970 47.439539 -12.537776
61.457022 57.193600 -46.505571
63.992658 54.330444 -38.344974
68.428652 48.508598 -5.003581
69.521225 46.887031 -26.857035
64.093334 54.211513 -45.145121
62.882039 55.648006 -30.240608
66.486279 51.201322 -19.070050
63.954383 54.375666 -40.179021
67.877939 49.325931 -24.534883
68.879140 47.839996 -48.655045
64.126714 54.172085 -47.100007
63.906543 54.432175 -44.912175
65.261571 52.820063 -9.727188
60.853313 57.832296 -6.398977
68.536142 48.349074 -17.074734
63.152679 55.326434 -18.460330
69.718517 46.594241 -30.006246
69.556962 46.834009 -38.752293
68.324437 48.663264 -16.777506
62.986902 55.522248 -27.891233
69.541778 46.856539 -35.392847
69.713736 46.601332 -32.600703
65.357431 52.693344 -15.480570
62.126583 56.485246 -18.062097
66.909849 50.641464 -50.316605
67.817729 49.415284 -12.554770
60.632150 58.066276 -22.715536
66.199248 51.589289 -7.823808
65.492641 52.525724 -26.444596
64.082610 54.224196 -41.056471
69.225090 47.326558 -48.626133
61.904687 56.719993 -35.721762
63.202501 55.274834 -1.588313
66.578121 51.079929 -41.756941
67.794962 49.449074 -22.300726
66.465088 51.229333 -49.370656
60.483741 58.223286 -12.141542
61.809516 56.820684 -39.499614
69.293700 47.224716 -32.459097
68.486339 48.422977 -18.990261
69.220449 47.333444 -43.362562
69.520802 46.887677 -25.287776
64.346707 53.912214 -51.753971
66.078833 51.739862 -31.559021
64.029516 54.286916 -47.648871
61.730961 56.903791 -42.624866
63.682861 54.696408 -40.059917
66.479312 51.210526 -16.248995
65.526799 52.481360 -22.033932
66.403925 51.310181 -45.732271
61.116509 57.553852 -47.188036
63.376719 55.058052 -29.743996
61.595772 57.046826 -37.409333
69.155150 47.430344 -43.645857
64.094148 54.210567 -12.591241
64.547501 53.675021 -41.475183
63.713968 54.659668 -49.996714
63.604122 54.789429 -25.050514
64.083148 54.223557 -50.517319
63.978077 54.347677 -35.779434
63.990239 54.333312 -49.298481
65.618157 52.361890 -9.015078
66.664792 50.965370 -12.451596
60.648221 58.049273 -18.532688
62.075233 56.539566 -37.155493
68.780460 47.986441 -42.843771
66.460778 51.235027 -18.037626
61.419497 57.233297 -39.329209
69.028389 47.618501 -13.371390
61.530113 57.116274 -49.085670
65.700087 52.255956 -25.030139
69.496516 46.923718 -42.235418
64.365678 53.889811 -34.287281
64.351483 53.906576 -32.852459
66.356852 51.372389 -38.688773
66.201480 51.577749 -25.767849
62.980840 55.536835 -13.861896
65.581951 52.408478 -13.057263
66.418930 51.290336 -19.140551
65.491233 52.525019 -22.899195
67.139220 50.338307 -18.507963
67.209260 50.245731 -41.955887
64.284033 53.986257 -43.463751
66.843846 50.728714 -36.744466
65.984917 51.873828 -16.589587
65.678867 52.275145 -33.090940
67.884824 49.315705 -7.212219
66.406928 51.306201 -48.304899
61.613809 57.027732 -46.036710
66.970377 50.561468 -33.905330
68.479748 48.432760 -12.980149
60.978437 57.699924 -11.835513
60.971004 57.707782 -46.482518
65.970875 51.900598 -10.648192
65.759478 52.171300 -27.253335
66.921749 50.625747 -44.513790
63.011670 55.495115 -22.372579
63.793664 54.565511 -43.582544
60.582129 58.119195 -22.301656
68.853414 47.878166 -36.941826
62.599116 55.976632 -22.075222
61.221181 57.443112 -6.140329
68.272581 48.740242 -13.311507
68.985642 47.681932 -42.274689
66.561804 51.101485 -15.805475
66.787644 50.802998 -43.794191
61.459392 57.191099 -30.723732
61.784599 56.847041 -34.092656
62.757631 55.799360 -17.259895
61.366438 57.289432 -46.083138
69.067071 47.561080 -14.050555
60.317936 58.398694 -39.036579
60.928249 57.753021 -13.766848
68.302292 48.696136 -5.453869
63.817735 54.537088 -51.114673
69.573189 46.809931 -42.572492
64.558071 53.662533 -36.362510
65.987454 51.875915 -12.113063
68.971573 47.702803 -43.196177
66.677206 50.948960 -5.762740
61.683641 56.953859 -27.203631
63.858779 54.488598 -48.628430
65.803172 52.108655 -29.183195
68.541241 48.341506 -16.614711
63.930702 54.403637 -17.877112
66.740440 50.865393 -35.935613
63.030714 55.479033 -8.895306
65.568139 52.427790 -16.865914
63.722338 54.649778 -19.540162
61.330468 57.327488 -41.321778
69.041299 47.599320 -40.472407
63.822938 54.530945 -20.107952
69.435290 47.014571 -19.119175
61.625567 57.015289 -36.359558
69.175652 47.399930 -35.365492
67.017411 50.499310 -51.775683
62.706842 55.856798 -26.038277
66.892319 50.664632 -8.063199
61.190926 57.475121 -17.308281
69.089545 47.527719 -49.463991
63.786023 54.574544 -42.098312
68.960714 47.718916 -42.946153
69.491974 46.930454 -33.043400
61.768271 56.864319 -28.805743
68.275639 48.735681 -41.654731
67.795266 49.448630 -31.653632
69.241459 47.302246 -23.255713
69.222223 47.330803 -36.544818
61.531230 57.115096 -35.678212
60.838762 57.847691 -47.065920
61.499703 57.148455 -28.348867
64.051294 54.261190 -9.782008
67.804733 49.434575 -25.128157
61.792549 56.838634 -39.701688
63.760297 54.604938 -17.006124
66.871874 50.691667 -36.506379
67.252914 50.188033 -30.008431
60.235554 58.485855 -11.955665
61.301012 57.358651 -40.628229
63.548582 54.855032 -18.501963
67.160872 50.309686 -27.477699
61.907237 56.717299 -36.911440
68.443420 48.486687 -11.829710
63.852299 54.496259 -22.193201
64.000380 54.321338 -35.050616
69.151148 47.436288 -36.585614
61.687511 56.949759 -47.234224
63.014499 55.494115 -17.684708
67.852834 49.363190 -14.396674
68.289391 48.715283 -9.485401
64.124731 54.174432 -38.938046
61.799581 56.831202 -29.012903
63.761053 54.604047 -11.791584
63.691151 54.686623 -47.281796
68.599439 48.255119 -26.282115
69.118990 47.484025 -36.821747
69.418693 47.039223 -36.515336
61.174131 57.492892 -47.691002
60.521197 58.183654 -24.066697
60.571358 58.130583 -15.573212
63.688208 54.690092 -18.570060
63.957253 54.372278 -35.255075
66.787891 50.802663 -11.332569
66.662851 50.967936 -37.581160
68.164321 48.900893 -27.121429
66.006192 51.850780 -11.556953
68.486770 48.422345 -10.383701
66.284909 51.467485 -46.464654
67.833259 49.392244 -26.010777
60.727534 57.965361 -7.215488
60.783481 57.906178 -13.937311
67.175513 50.290343 -25.484332
68.359832 48.610742 -15.047845
63.158272 55.320993 -15.863223
63.900236 54.439629 -16.167528
65.467071 52.556015 -25.469642
68.099068 48.997744 -31.004221
67.914425 49.271778 -14.868101
61.406260 57.247309 -6.345761
67.039583 50.469992 -28.038079
65.915647 51.955547 -37.081606
61.775438 56.856734 -23.301344
69.187994 47.381613 -43.215327
61.410833 57.242470 -40.831502
67.134560 50.344466 -29.519676
63.707620 54.667157 -27.156406
63.884639 54.458054 -18.131264
68.923290 47.774484 -16.110165
69.118105 47.485327 -32.206633
61.196460 57.469269 -36.139285
64.318916 53.945054 -25.562256
67.107007 50.380888 -42.817576
69.199300 47.364824 -35.077939
60.828455 57.858594 -42.454786
60.648612 58.048859 -29.315332
61.105068 57.565950 -9.095831
60.156350 58.569648 -32.273481
63.580901 54.816864 -17.947622
61.925717 56.697750 -37.920001
60.502707 58.203215 -32.622556
68.598758 48.256117 -42.966257
68.475219 48.439490 -14.099704
66.899289 50.655423 -3.627785
63.903509 54.435774 -11.764416
68.901344 47.807043 -44.215290
68.652557 48.176286 -1.933670
62.734014 55.823794 -15.200459
61.763610 56.869250 -34.607033
69.034039 47.610093 -51.741546
62.974719 55.538137 -25.684485
61.870009 56.756691 -37.156139
69.685049 46.643913 -25.070796
63.887770 54.454355 -44.401453
61.647020 56.992592 -44.080382
69.323951 47.179832 -5.091355
65.538052 52.464234 -16.891434
68.181707 48.875094 -22.531549
63.905456 54.433463 -41.620980
67.774287 49.479761 -30.807209
60.505567 58.200186 -23.042750
64.265661 54.007952 -41.730827
69.118945 47.484087 -39.969292
64.340635 53.919380 -24.807235
65.351436 52.701273 -11.873155
63.757799 54.607885 -19.590307
66.758038 50.842133 -52.213899
64.095001 54.209553 -47.665831
60.744211 57.947716 -8.081493
64.116556 54.184101 -44.892396
67.875280 49.329872 -17.163078
61.709563 56.926429 -43.989593
64.036904 54.278191 -45.249361
60.348677 58.366175 -9.975353
66.729112 50.880362 -45.909862
67.329526 50.086769 -38.455985
68.973880 47.699392 -13.933962
68.962118 47.716847 -39.726264
68.921863 47.776572 -44.056495
63.060654 55.439811 -14.630343
66.801271 50.784989 -14.784113
60.859815 57.825410 -19.390812
61.393286 57.261041 -31.687435
68.873946 47.847690 -50.149989
67.893187 49.303302 -16.216646
62.599299 55.976417 -34.948462
69.375500 47.103327 -31.033763
63.733284 54.636855 -39.520405
60.716247 57.977313 -18.877110
67.111685 50.374698 -29.338617
67.846293 49.372900 -15.873677
66.065911 51.773900 -7.184398
61.029354 57.646051 -13.992855
65.731852 52.210252 -26.560312
63.010663 55.503077 -9.307143
60.320932 58.395520 -3.129932
69.611335 46.753316 -32.443692
66.933753 50.609876 -33.340410
68.549916 48.328607 -49.442545
61.913063 56.711132 -29.598238
67.743820 49.524980 -23.461017
60.682671 58.012832 -29.725527
62.627109 55.943575 -9.239245
60.078002 58.652537 -4.967843
66.880387 50.680420 -43.817219
64.177683 54.111882 -50.218072
64.638993 53.566941 -45.953908
65.613507 52.370077 -12.757898
64.004398 54.316584 -21.842582
61.563261 57.081202 -8.745918
61.155659 57.512433 -46.126795
62.570138 56.010860 -17.328734
65.271679 52.806698 -25.547935
64.117403 54.183094 -17.638844
69.379898 47.096799 -42.443448
68.338027 48.643096 -24.045721
64.089463 54.216093 -48.232486
61.326309 57.331888 -42.602971
66.548578 51.118983 -11.318146
63.658909 54.724714 -22.945497
63.023582 55.486594 -10.952895
61.658730 56.980208 -41.846569
61.272601 57.388716 -5.249280
60.496484 58.209806 -10.898190
68.842628 47.894186 -46.008184
69.593158 46.780281 -52.115631
63.933483 54.400354 -13.781539
65.484422 52.537035 -28.427233
61.870896 56.755746 -37.051378
65.788999 52.143655 -16.798483
63.602770 54.791018 -16.634670
69.160231 47.422808 -12.421036
64.642189 53.563160 -39.851273
60.533318 58.170832 -27.029823
61.953692 56.668155 -40.754238
63.851662 54.497013 -14.874392
67.873772 49.332110 -12.503111
65.982832 51.880563 -13.492102
65.348183 52.705573 -14.626381
69.107171 47.501561 -50.100806
66.784706 50.806885 -36.936188
61.326726 57.331449 -52.254707
69.076447 47.547157 -52.820630
64.196321 54.089871 -40.062647
61.352984 57.303675 -39.847530
64.471381 53.764945 -44.172198
63.880315 54.463162 -45.853144
61.590659 57.052229 -48.877341
66.650469 50.984308 -30.065612
60.494282 58.212137 -20.417575
61.442537 57.208923 -47.650778
66.316317 51.425959 -40.165713
60.234547 58.486908 -29.718531
67.749696 49.516257 -5.634232
69.300677 47.214375 -39.436657
61.274731 57.386451 -42.802222
66.365570 51.360866 -23.800734
66.673653 50.953665 -47.083029
61.784845 56.846787 -26.073813
66.665411 50.964571 -29.298140
60.974487 57.704100 -53.750777
66.894171 50.662203 -22.943355
64.430718 53.812972 -29.952565
66.236602 51.531320 -20.038500
68.716947 48.080710 -51.465659
69.239529 47.305118 -29.195965
61.541539 57.104197 -28.489253
62.991674 55.523046 -15.172450
68.604875 48.247049 -11.153837
64.089318 54.216263 -14.722518
68.597853 48.257481 -6.813741
63.307347 55.140012 -28.047271
67.937411 49.237669 -8.522393
65.512706 52.499373 -23.441224
63.528489 54.878776 -24.028655
61.932284 56.690804 -41.467115
63.915778 54.421258 -12.585180
60.918420 57.763407 -21.031350
61.269410 57.392095 -35.776073
61.430263 57.221921 -44.462597
67.787043 49.460831 -16.060758
62.983566 55.529706 -21.290101
66.666746 50.962806 -39.249123
61.469721 57.180173 -42.006880
62.876836 55.655186 -28.498871
60.417273 58.293604 -19.624149
64.393243 53.857241 -42.412611
64.069498 54.239678 -7.314611
61.653509 56.985735 -42.324259
68.643497 48.189716 -48.409385
60.720690 57.972608 -15.146101
67.237413 50.208516 -45.363696
69.342911 47.151687 -8.020715
65.759330 52.170017 -28.450615
64.080964 54.226141 -11.443595
60.550664 58.152485 -5.478661
66.990953 50.534276 -37.736975
64.228031 54.052401 -10.850784
65.436703 52.597658 -32.626345
66.981082 50.547327 -37.613277
66.004840 51.849344 -14.200816
64.214828 54.068008 -4.967872
65.257151 52.825907 -28.301456
61.766787 56.865890 -37.969259
61.428492 57.223784 -39.117370
63.824504 54.529095 -35.563332
68.118418 48.969027 -26.088387
69.608662 46.757276 -53.948652
61.114182 57.556313 -7.737228
61.347715 57.309242 -43.598418
64.320980 53.942612 -32.819862
69.138329 47.455318 -53.322513
66.980672 50.547868 -6.453820
62.603867 55.971026 -7.728697
64.473386 53.762565 -42.432552
66.943703 50.596728 -39.152066
