-2.402342 45.877771 -24.268257
-8.016158 53.224075 -49.929659
-2.712421 46.391332 -26.897903
-1.123201 43.341304 -18.260199
-4.863665 49.625941 -38.451695
-37.540493 62.125598 -21.465833
-39.988618 61.541776 -19.260335
-25.674993 62.274148 -19.374388
-24.958774 62.151748 -31.440532
-29.269269 62.692663 -22.680106
-27.659078 62.558057 -50.423016
-2.657815 46.300893 -16.352962
-42.201119 60.842275 -35.000958
0.357874 38.005155 -44.259845
-20.613112 61.000338 -24.210860
-8.467138 53.661462 -14.608038
-6.516045 51.640877 -34.975975
0.597677 36.168079 -19.290821
-41.723734 61.014267 -41.776427
0.754245 34.968643 -32.440948
-31.749788 62.736414 -19.009226
-11.079991 55.913916 -21.868224
-4.533236 49.171827 -4.613050
-5.002137 49.816247 -28.892125
-43.157266 60.497806 -26.987795
0.595394 36.185568 -10.273904
-0.313043 41.335520 -16.398849
-20.542559 60.975310 -12.562128
-39.539436 61.661249 -6.353239
-10.108699 55.121593 -45.207273
-19.748949 60.693767 -35.711506
-2.570250 46.155862 -13.700154
-1.599398 44.308879 -48.320096
-45.524522 59.460614 -30.251506
-42.756275 60.642276 -19.004869
-12.714143 57.077155 -48.533913
-20.482252 60.953913 -11.783801
-14.960451 58.468788 -16.302534
-25.058421 62.168780 -42.071035
-12.818917 57.148594 -17.590669
-40.254460 61.471074 -22.085191
-1.321003 43.743213 -8.931609
-16.723283 59.409923 -28.293029
-15.056201 58.522671 -25.827833
-20.724214 61.039753 -16.888832
-41.884496 60.956346 -42.737893
0.282808 38.580225 -33.861096
-4.759932 49.483380 -38.611533
-42.130007 60.867899 -43.608319
-17.175710 59.615637 -8.464414
-19.597257 60.639951 -26.499914
-17.886949 59.939025 -16.329270
-28.762289 62.650285 -25.506844
-35.895060 62.414983 -35.774241
-2.684294 46.344746 -15.163505
-37.629375 62.109965 -32.924368
-30.409187 62.739714 -38.274601
-36.505342 62.307648 -4.815161
-39.216892 61.747037 -39.198089
-25.379168 62.223592 -43.804870
-1.259179 43.617595 -23.996122
-26.044997 62.337373 -25.057381
-44.738144 59.822811 -51.210780
-39.407131 61.696439 -33.470160
-0.434717 41.647813 -17.900584
-34.783133 62.547959 -23.405074
-6.493349 51.614727 -34.619658
-42.038071 60.901020 -51.863621
-6.697905 51.850383 -36.684303
-2.946032 46.778251 -15.639404
-39.077827 61.784026 -51.600109
-31.884827 62.736082 -20.337094
-38.958602 61.815735 -43.840230
-33.343924 62.675324 -43.594316
-7.873680 53.085889 -31.476684
-28.281349 62.610079 -45.222640
-31.525481 62.736965 -22.163611
-25.935760 62.318706 -24.300352
-0.544214 41.928851 -34.675986
-45.509080 59.467723 -20.487983
-1.860537 44.839486 -46.350060
-36.254531 62.351763 -35.775219
-31.358828 62.737377 -7.082755
-3.918096 48.326433 -37.792084
-17.097853 59.580233 -46.293367
-6.938138 52.127142 -32.217473
0.588048 36.241843 -14.116186
-10.268350 55.251824 -39.038121
-8.545812 53.737764 -16.673407
-1.746138 44.607040 -37.936705
0.523490 36.736406 -18.331971
-14.686436 58.314588 -47.200789
-19.658289 60.661598 -43.564741
-0.338197 41.400080 -23.797346
-28.507684 62.628998 -15.264298
-36.783665 62.258703 -33.485391
-4.174976 48.679468 -19.946163
0.527897 36.702652 -24.169311
-17.594430 59.806019 -12.375625
-4.408621 49.000569 -11.858864
-27.725582 62.563619 -44.992350
-36.249515 62.352643 -34.228625
-3.179505 47.164938 -3.514583
-13.194484 57.404662 -20.844478
-11.962662 56.564779 -34.358095
0.590569 36.222528 -19.145173
-20.676367 61.022779 -23.237172
-39.338871 61.714597 -27.308678
-22.355221 61.537741 -35.791599
-14.671496 58.306183 -47.575620
-6.852861 52.028899 -39.331044
-0.233466 41.131280 -19.174360
-3.337642 47.426854 -40.951559
-1.428209 43.961044 -19.558342
-5.695918 50.696064 -24.651751
-44.526646 59.920221 -39.820928
0.548460 36.545120 -7.520806
-31.447202 62.737160 -43.945370
-12.757476 57.106699 -46.425623
-15.639387 58.850861 -21.956047
-22.272481 61.516165 -22.736405
-34.084349 62.609794 -16.930388
-30.254842 62.740089 -36.414869
-45.915533 59.280513 -16.358424
-34.598023 62.564338 -24.618455
-20.518834 60.966892 -25.039486
-1.505670 44.118438 -12.249837
0.502475 36.897399 -51.962362
-20.450164 60.942532 -13.372694
-22.447960 61.561922 -53.946884
0.469117 37.152950 -42.984153
-34.786271 62.547678 -21.466207
-17.138411 59.598677 -47.585145
-18.038114 60.007752 -20.636136
0.245008 38.869799 -25.306411
-17.103244 59.582686 -37.691909
-1.480873 44.068049 -11.304390
-14.609364 58.271216 -29.783350
-1.951455 45.024221 -36.521101
0.462950 37.200191 -13.454610
-7.874543 53.086728 -35.725794
-19.449466 60.587515 -47.360471
-31.997424 62.735807 -7.494151
-0.692058 42.308307 -28.831088
0.420004 37.529196 -36.467510
-1.910246 44.940487 -40.264117
-31.997518 62.735803 -27.339047
-10.437665 55.389945 -16.518966
-40.186131 61.489249 -10.491068
0.599964 36.150562 -14.390725
-4.496951 49.121961 -18.200484
-9.901627 54.952672 -26.439944
-0.813032 42.618803 -24.668462
-39.761432 61.602206 -6.464032
-8.292859 53.492437 -49.374477
-22.167095 61.488684 -41.160331
-8.753351 53.939049 -18.695704
-2.866738 46.646919 -16.132495
-42.332602 60.794908 -40.224886
-2.662552 46.308737 -19.802133
0.435649 37.409344 -42.874311
-29.175111 62.684798 -28.732462
-18.056273 60.016007 -12.065732
-1.407402 43.918770 -14.191723
0.745617 35.034746 -20.329212
-18.489420 60.212956 -19.330758
-28.009117 62.587322 -43.166691
-41.996903 60.915846 -35.285190
-22.146420 61.483296 -24.286147
-8.707468 53.894549 -22.046715
-25.283194 62.207190 -46.734852
-4.064409 48.527512 -25.444383
-22.159134 61.486612 -40.321780
-23.571062 61.854772 -18.128950
-6.361390 51.462707 -40.064051
-38.779814 61.863292 -23.866812
-40.217563 61.480890 -15.802522
-23.401824 61.810645 -18.137963
-0.661251 42.229239 -31.969512
-2.670156 46.321332 -15.720228
-31.682541 62.736583 -50.339267
0.266843 38.702526 -52.680134
-10.521297 55.458165 -47.389389
-39.584494 61.649264 -41.955066
-10.905998 55.771982 -8.615179
-1.992670 45.107963 -31.626018
-28.357661 62.616456 -19.280704
-17.975728 59.979390 -14.841718
-37.486078 62.135166 -14.947305
-34.354528 62.585888 -17.109930
-0.843697 42.697506 -42.694464
-36.271333 62.348810 -31.760553
-12.684334 57.056833 -11.166669
-33.366974 62.673286 -33.071142
-16.605865 59.356539 -35.395944
-19.531505 60.616621 -27.766492
0.649920 35.767850 -8.959400
-0.242382 41.154159 -11.719929
-19.954860 60.766815 -50.792596
-20.302678 60.890209 -15.699938
-1.889325 44.897979 -33.687355
-40.402224 61.431770 -29.263250
-28.172996 62.601022 -41.448018
-1.497393 44.101616 -9.610683
-34.449228 62.577500 -6.990197
-0.570430 41.996133 -41.242680
-0.642675 42.181561 -30.292903
-20.700075 61.031190 -15.278106
-8.319624 53.518397 -44.879930
-0.250795 41.175756 -27.647946
-7.590005 52.810766 -49.314188
-10.562394 55.491688 -14.166486
-34.587210 62.565295 -15.643422
-8.834169 54.017432 -25.187199
-2.399720 45.873423 -20.894920
-44.333455 60.009200 -45.208460
0.415206 37.565950 -50.362517
-10.749424 55.644259 -26.113177
-0.568270 41.990591 -37.824333
-22.031149 61.453238 -49.687978
-1.998972 45.120766 -20.938303
-8.252373 53.453174 -12.202981
0.719257 35.236682 -22.682474
-1.515965 44.139353 -24.740134
-3.154141 47.122928 -42.998241
-0.219971 41.096639 -27.290618
-13.487045 57.604134 -18.660897
0.671872 35.599684 -29.129590
-10.889459 55.758491 -13.768841
-37.560579 62.122066 -21.837129
-23.124684 61.738381 -10.227456
-27.406575 62.536949 -24.613095
-5.843468 50.866045 -16.428340
-29.119362 62.680137 -21.013735
-1.445437 43.996053 -14.052755
-45.271583 59.577112 -12.550141
0.714697 35.271615 -10.426258
-26.515556 62.417787 -38.369319
-30.747130 62.738882 -41.765786
-10.382480 55.344928 -17.485253
-40.065332 61.521374 -22.727777
0.635661 35.877090 -19.969008
-30.891050 62.738526 -44.852185
-36.989312 62.222533 -50.572770
-3.063267 46.972421 -47.989198
-6.614995 51.754870 -39.243209
-19.843830 60.727422 -35.360174
-14.627247 58.281280 -9.350497
-8.540645 53.732755 -21.374985
-42.730069 60.651714 -17.678703
-10.783232 55.671836 -24.067357
-4.346275 48.914887 -17.039767
-24.870122 62.136601 -32.524588
-4.550525 49.195586 -7.034756
-3.354348 47.454521 -42.687120
-17.942605 59.964332 -7.352372
-23.209400 61.760471 -25.944854
-37.442215 62.142881 -17.626418
-0.562987 41.977033 -4.996907
-34.533368 62.570052 -17.568491
-36.270781 62.348900 -29.373186
-11.154105 55.974374 -16.333582
-0.109073 40.812007 -18.340543
0.516880 36.787045 -3.526374
-31.757917 62.736398 -9.777458
-26.292229 62.379625 -17.813490
-34.968698 62.531534 -28.090285
-28.977203 62.668252 -17.369077
-44.367010 59.993752 -30.787717
-2.823515 46.575332 -14.325547
-7.519604 52.742485 -31.235716
-38.791140 61.860277 -43.294379
-37.227619 62.180619 -27.692982
-25.656515 62.270984 -6.480206
-0.217170 41.089454 -22.590851
-14.157199 58.016767 -29.179128
-28.125931 62.597087 -39.246446
-22.599621 61.601469 -49.831630
-30.483649 62.739528 -25.008952
-14.380911 58.142656 -45.573824
-2.721221 46.405911 -16.995886
-8.405973 53.602142 -17.236513
0.582324 36.285697 -17.063665
-36.713317 62.271070 -47.771972
-19.953322 60.766270 -35.408146
-7.987170 53.195962 -38.176982
-30.738827 62.738899 -36.968835
-45.087189 59.662038 -6.179100
-37.333602 62.161985 -17.274135
-8.761967 53.947407 -12.881157
-42.672476 60.672463 -17.024425
-36.273471 62.348430 -35.315310
-43.147120 60.501464 -10.652669
-6.081740 51.140544 -10.683698
-6.022766 51.072604 -24.101571
-5.645424 50.637891 -25.522590
-12.983533 57.260828 -23.197583
-39.521894 61.665917 -37.139200
0.738074 35.092527 -15.579256
0.624046 35.966071 -8.029993
0.614705 36.037634 -8.814575
-1.442852 43.990797 -15.561930
-14.337814 58.118405 -31.555709
-1.588817 44.287381 -11.183640
-8.090805 53.296472 -45.774991
-40.330885 61.450745 -24.383392
-1.300271 43.701088 -13.372237
-31.744483 62.736425 -27.099537
0.460942 37.215577 -44.784265
-7.944627 53.154702 -48.321593
-1.671675 44.455739 -41.305550
-25.284162 62.207357 -41.474762
-14.401047 58.153988 -31.497178
0.414176 37.573839 -47.214744
-25.468838 62.238915 -7.806962
-17.194851 59.624337 -41.352120
-22.394649 61.548021 -49.463831
-28.329937 62.614138 -45.138947
-42.848481 60.609062 -5.197337
-40.146569 61.499769 -8.650380
-11.946263 56.553599 -41.455087
-41.667741 61.034436 -31.953412
-7.950233 53.160137 -39.787812
-20.080367 60.811341 -12.692215
-42.354592 60.786985 -17.959125
-39.919643 61.560125 -11.577210
0.438550 37.387117 -15.077999
-27.888109 62.577206 -36.039551
-32.157853 62.735411 -13.362227
-31.400515 62.737275 -45.837749
-8.577534 53.768532 -7.551540
-22.235699 61.506577 -31.790418
-27.967494 62.583844 -40.449529
-19.301990 60.535199 -46.979042
-15.346270 58.685907 -26.214358
-23.713599 61.891943 -30.293856
-30.945781 62.738390 -42.388470
-18.329061 60.140042 -18.988010
-26.170628 62.358840 -25.514177
-31.766687 62.736376 -23.462358
-29.034923 62.673074 -30.086810
-1.752025 44.619000 -46.598155
-0.634182 42.159762 -33.478864
-26.201351 62.364095 -20.212111
-38.693129 61.886343 -47.264970
-23.431459 61.818377 -19.351720
-6.400637 51.507924 -38.077341
-19.964751 60.770323 -15.328709
-18.077299 60.025571 -24.360838
-23.103903 61.732957 -53.174802
-8.735375 53.921616 -33.175899
-1.761954 44.639174 -36.776618
-4.202891 48.717830 -21.341277
-40.461676 61.415960 -24.556560
-28.565953 62.633871 -6.856952
-12.688230 57.059487 -14.420117
0.317062 38.317811 -40.829654
-41.921631 60.942967 -35.603140
-0.687212 42.295866 -41.599759
0.659618 35.693558 -22.619099
-25.117184 62.178819 -45.177528
-10.707027 55.609673 -6.753262
-41.738744 61.008850 -39.238610
0.732663 35.133979 -17.006058
-22.191577 61.495070 -38.187338
-3.315312 47.389869 -48.995395
-19.864965 60.734924 -30.767468
-4.390759 48.976019 -9.519524
-13.263253 57.451550 -21.997478
0.232310 38.967076 -34.266378
-42.872586 60.600373 -27.191776
-22.518491 61.580317 -29.741614
-25.687479 62.276281 -6.288089
-30.800291 62.738748 -36.098301
-33.441638 62.666681 -45.597765
-6.467838 51.585341 -36.615002
-0.729461 42.404304 -30.686331
-6.240809 51.323792 -15.675571
-37.688226 62.099610 -2.086759
-22.778215 61.648040 -12.221821
-4.102488 48.579845 -16.363310
0.465683 37.179254 -12.605425
-4.292332 48.840749 -14.385227
-19.679549 60.669142 -41.450074
0.520964 36.755758 -14.782182
-28.858551 62.658331 -15.414782
-34.549822 62.568598 -30.312244
-14.596793 58.264146 -42.512211
-8.838509 54.021641 -31.657254
-2.718273 46.401025 -25.422960
-45.618211 59.417459 -23.427108
-0.690689 42.304791 -44.504668
-12.350190 56.829004 -46.346261
-10.043494 55.068402 -50.554047
-6.618386 51.758776 -24.769543
-18.300338 60.126985 -4.448274
-14.440384 58.176126 -35.217527
-11.091198 55.923061 -34.751969
-23.086480 61.728419 -6.631144
-33.198467 62.688201 -36.772138
-34.440986 62.578231 -23.366132
-9.831315 54.895315 -42.415573
-5.992772 51.038048 -6.147227
-44.858879 59.767201 -31.120006
-7.863319 53.075843 -44.787808
-39.332016 61.716416 -48.241306
-8.685298 53.873047 -14.942551
-42.234522 60.830241 -46.007496
-12.102641 56.660221 -43.074927
-41.827261 60.976967 -28.462295
-37.412151 62.148170 -20.597966
-22.151362 61.484583 -46.546076
-37.494312 62.133719 -48.697301
-44.574489 59.898192 -41.017383
-8.521799 53.714476 -23.204798
-18.009388 59.994691 -14.272667
-34.267035 62.593632 -16.764569
-8.404912 53.601113 -26.969047
-6.037827 51.089954 -13.485422
0.247190 38.853086 -41.514260
-2.696434 46.364854 -17.848287
-25.639951 62.268152 -16.538795
-44.446861 59.956973 -42.729961
-2.775047 46.495057 -15.285992
-17.084371 59.574104 -33.810574
-1.130483 43.356101 -23.020430
-45.003842 59.700428 -23.232928
0.384865 37.798383 -41.321881
-10.123687 55.133820 -41.585815
-24.667885 62.102041 -33.210141
-2.480490 46.007201 -19.171266
-19.991906 60.779955 -11.926062
-12.221482 56.741249 -7.719110
-26.211501 62.365824 -50.648755
-42.899174 60.590790 -20.553867
-12.861739 57.177789 -16.075509
0.514755 36.803324 -42.380746
-1.836149 44.789929 -42.181610
0.479960 37.069880 -12.414780
-0.595387 42.060189 -32.507594
-1.458326 44.022240 -18.061624
-21.097761 61.172276 -34.460424
0.270250 38.676431 -32.077943
-3.201626 47.201576 -40.452735
-28.600746 62.636774 -52.570312
-34.083295 62.609893 -41.281124
-9.941612 54.985289 -44.361292
-3.477984 47.659292 -37.052001
-1.120151 43.335111 -24.738123
-13.449781 57.578727 -23.246846
-2.747051 46.448689 -21.807215
-0.785925 42.549227 -32.224447
-29.249745 62.691037 -23.171227
-33.726290 62.641484 -5.467906
-8.088293 53.294036 -4.481027
-36.548593 62.300039 -40.766550
-23.157071 61.746826 -23.813325
-11.888259 56.514048 -35.338518
-36.719105 62.270054 -46.866646
-2.939748 46.767841 -14.892559
-36.471940 62.313527 -38.828868
-41.899339 60.950999 -43.759733
-3.388690 47.511404 -45.738357
-4.398700 48.986934 -45.757996
-12.756732 57.106192 -15.612865
-4.171902 48.675243 -12.895575
-36.468900 62.314060 -30.455352
-15.558353 58.805255 -18.478745
-7.729908 52.946451 -42.548002
-34.241043 62.595925 -49.813171
-33.790071 62.635843 -30.589115
-8.190522 53.393184 -42.714290
-44.436607 59.961697 -23.362167
-14.590684 58.260707 -50.097397
-3.224271 47.239083 -36.214166
-11.987518 56.581733 -26.471042
-1.861467 44.841377 -32.686416
-4.256560 48.791585 -20.985157
-36.336685 62.337312 -39.928341
-27.996196 62.586238 -30.703211
-41.835887 60.973853 -38.575671
-0.676906 42.269420 -43.370528
-2.974271 46.825021 -38.228495
-25.338129 62.216575 -43.945908
-9.915112 54.963675 -21.140237
0.585067 36.264680 -25.784055
-31.417189 62.737235 -41.401786
-6.892333 52.074373 -39.270308
-16.845967 59.465706 -43.550626
-8.353797 53.551535 -24.007211
-31.409940 62.737251 -15.459154
-0.556296 41.959861 -44.299595
-5.107188 49.960620 -39.783111
-6.395820 51.502372 -46.150198
-6.583654 51.718766 -37.179649
0.233929 38.954669 -37.097045
-24.739584 62.114291 -33.832710
-14.367848 58.135307 -25.389646
-45.279086 59.573657 -8.551899
-45.565154 59.441896 -8.761298
0.254641 38.796003 -46.145939
0.413020 37.582699 -10.798031
-20.926146 61.111393 -20.696610
-2.045495 45.215297 -42.311232
0.535019 36.648088 -17.785384
-37.308185 62.166459 -15.840414
-25.455380 62.236609 -7.725234
-45.082480 59.664213 -13.392592
-1.367039 43.836755 -21.733358
-13.613673 57.690471 -27.645250
-15.316223 58.668997 -44.079773
-13.151977 57.375679 -5.719051
-15.930908 59.014911 -29.263873
-23.371725 61.802796 -49.895455
-26.165706 62.357997 -15.995034
-1.575516 44.260354 -10.577468
-28.619363 62.638338 -11.618263
0.408935 37.613990 -45.639261
-20.210702 60.857577 -53.852363
-30.756571 62.738858 -45.766689
0.352284 38.047982 -47.656314
0.692468 35.441902 -4.134385
-2.644294 46.278501 -30.482275
-23.197859 61.757462 -14.385922
-37.610814 62.113229 -9.649543
-45.041798 59.682944 -11.108298
-2.072737 45.270648 -41.978051
-17.883381 59.937402 -21.453616
-36.531436 62.303065 -43.688800
-37.366770 62.156145 -17.498866
0.801796 34.604371 -20.091411
-42.656022 60.678392 -49.002848
-7.725330 52.942011 -25.931445
-14.610213 58.271699 -41.033154
-37.475008 62.137115 -31.028614
-22.613230 61.605018 -34.939993
-6.803585 51.972136 -36.313308
-5.882900 50.911472 -15.765331
-40.246757 61.473125 -20.602608
-15.502280 58.773706 -28.082277
-15.754250 58.915495 -23.946842
-19.760492 60.697860 -37.921448
-34.343994 62.586819 -21.182178
-20.051195 60.800987 -14.080635
-15.833802 58.960266 -32.825372
-5.894048 50.924314 -28.752516
-0.627326 42.142164 -40.473554
0.287376 38.545225 -27.611763
0.225875 39.016370 -43.676900
-23.776796 61.908419 -10.028459
-8.526322 53.718862 -3.892075
-6.628820 51.770797 -43.150249
-5.785891 50.799716 -18.055363
-0.268539 41.221296 -5.935586
-42.260258 60.820967 -45.549321
-15.371918 58.700343 -15.688081
-19.313945 60.539441 -28.338909
-6.622158 51.763119 -37.828930
-10.706842 55.609521 -21.044768
-33.947640 62.621897 -35.888485
-22.085358 61.467372 -28.891950
-11.297248 56.091141 -21.650037
-28.042198 62.590086 -35.942277
-4.014078 48.458341 -29.081812
-24.862805 62.135347 -32.164120
-30.800914 62.738746 -37.062002
-14.587800 58.259085 -40.721187
-25.734899 62.284384 -14.513168
-4.485968 49.106868 -6.655685
-10.479705 55.424235 -9.453454
0.679084 35.544431 -33.924016
-23.385345 61.806346 -24.489881
-23.006540 61.707576 -13.957204
-2.951012 46.786501 -39.003608
-33.316405 62.677761 -50.761452
-44.527273 59.919936 -29.094367
-17.529406 59.776454 -52.982322
-4.803060 49.542652 -37.323659
-6.753392 51.914306 -28.073328
-9.685192 54.776122 -48.334963
-1.880970 44.881001 -36.222449
-41.854171 60.967271 -36.654150
-22.617066 61.606018 -38.453719
-23.365229 61.801103 -32.534571
-2.701536 46.373304 -24.048645
-2.347102 45.786279 -26.018959
-10.895628 55.763521 -17.508465
-43.038662 60.540540 -26.590983
-33.195440 62.688463 -32.721031
-20.851689 61.084974 -16.539122
-4.267453 48.806557 -13.115411
-40.320047 61.453632 -20.317502
0.278630 38.612228 -25.998573
-28.791515 62.652727 -9.163445
0.452150 37.282935 -8.609820
-18.229847 60.094930 -25.984569
-25.220821 62.196533 -44.731204
-25.910142 62.314329 -22.426972
-7.807282 53.021495 -40.929528
-15.152037 58.576603 -19.567869
-28.830695 62.655997 -16.439433
-31.582905 62.736822 -14.476736
-8.674337 53.862419 -28.601561
-8.924119 54.104668 -31.248194
-5.285195 50.205257 -45.008515
-6.124158 51.189408 -4.670982
-2.649832 46.287670 -15.591049
-39.757622 61.603224 -16.120445
0.152109 39.581479 -22.252593
-1.739871 44.594306 -31.672725
-10.027892 55.055674 -30.432341
-39.791459 61.594215 -11.129026
-40.080242 61.517410 -30.240360
-19.736621 60.689387 -40.824777
-45.492950 59.475158 -37.955772
-20.090745 60.815019 -4.911776
-36.528340 62.303610 -39.889760
-3.087573 47.012678 -51.366250
-37.745920 62.089464 -17.809333
-2.575592 46.164712 -17.946570
0.692534 35.441395 -34.751780
-1.343347 43.788616 -50.307929
-27.773835 62.567651 -34.860843
0.336569 38.168369 -54.107501
-19.106788 60.465947 -28.611796
0.596295 36.178663 -7.249405
-10.188345 55.186564 -53.515171
-15.675761 58.871329 -5.444902
-23.694420 61.886940 -22.975978
-30.838926 62.738653 -40.667916
-8.347154 53.545095 -9.790931
-4.891087 49.663626 -50.690702
-42.817873 60.620084 -13.224992
-43.291871 60.449313 -20.489314
-36.076841 62.383013 -28.607692
-0.027370 40.602304 -33.081196
-2.742184 46.440631 -3.858597
-30.749550 62.738872 -46.437842
-4.286686 48.832994 -22.519835
-24.834219 62.130463 -27.935428
-0.050070 40.660568 -31.603572
0.593140 36.202836 -12.272748
0.147209 39.619019 -53.422012
-28.710453 62.645950 -12.428445
-4.480087 49.098782 -46.433053
-1.778702 44.673207 -38.173179
-26.228282 62.368694 -21.811834
-16.995568 59.533726 -44.540205
0.238388 38.920512 -37.932404
-9.818058 54.884501 -38.769390
-17.977635 59.980257 -14.102806
-0.126283 40.856179 -29.296359
-33.287856 62.680286 -34.278553
-15.871000 58.981199 -14.301309
-42.302311 60.805821 -17.041898
-28.423651 62.621971 -49.143019
-0.239156 41.145882 -2.928494
-12.459676 56.903655 -51.840508
-13.383297 57.533397 -15.569266
-5.861434 50.886743 -27.668653
-6.143393 51.211569 -13.324110
-33.481874 62.663119 -36.436839
-34.250446 62.595096 -47.157868
-6.542767 51.671660 -37.557789
-30.910012 62.738476 -46.323891
-36.777402 62.259805 -6.173398
-2.002696 45.128334 -31.457706
-0.282512 41.257160 -12.128235
-37.373764 62.154913 -12.908438
-10.439256 55.391242 -43.281962
-12.925528 57.221279 -17.063484
-39.063494 61.787833 -47.858727
0.714486 35.273231 -17.633587
-31.350596 62.737399 -46.139345
-43.117785 60.512034 -17.185536
-45.233175 59.594795 -47.624409
0.199969 39.214833 -24.646228
-34.669522 62.558010 -21.147772
-17.674411 59.842385 -47.285587
-12.636703 57.024356 -52.047393
-6.748558 51.908738 -36.359568
-0.213634 41.080376 -31.479172
-36.660166 62.280420 -10.388209
-27.997800 62.586374 -43.991840
0.359577 37.992106 -41.650015
-9.989320 55.024213 -45.399240
-22.282532 61.518786 -42.836977
-30.489827 62.739509 -34.340181
-0.809912 42.610795 -37.614177
-4.747172 49.465844 -2.382086
-12.826440 57.153724 -52.848527
-39.229114 61.743784 -41.852044
0.221785 39.047704 -30.762839
-10.555624 55.486170 -23.174970
-36.829412 62.250652 -48.078545
-15.166971 58.585010 -20.499393
-32.111265 62.735526 -31.278421
-31.178570 62.737821 -38.577150
0.236389 38.935830 -30.559293
-5.568658 50.549456 -31.890088
-12.300542 56.795153 -39.757918
-8.785144 53.969887 -15.802423
-5.864310 50.890057 -24.108671
-2.565573 46.148120 -23.718019
-25.974841 62.325380 -19.280479
-28.198430 62.603146 -51.803903
-24.993678 62.157718 -39.068350
-23.496162 61.835241 -11.917110
-6.767310 51.930343 -31.924059
-7.933100 53.143519 -38.720417
-3.140348 47.100084 -28.509253
0.814202 34.509326 -16.844855
-17.477031 59.752636 -46.386469
0.326131 38.248332 -32.107214
-30.338890 62.739885 -28.508626
0.552407 36.514878 -15.393330
-31.523999 62.736969 -21.840573
-1.941063 45.003104 -30.996416
0.325735 38.251369 -36.852399
-16.937535 59.507342 -38.760020
-8.656983 53.845583 -19.256494
-30.424632 62.739673 -22.171309
-8.021412 53.229172 -35.145397
-23.693765 61.886770 -25.574755
-12.548978 56.964543 -39.773266
-8.719534 53.906251 -16.507039
-28.849187 62.657546 -7.282305
-1.546462 44.201320 -39.706599
0.378374 37.848113 -35.711728
-30.795900 62.738758 -43.614743
-43.048911 60.536850 -26.787125
-2.736690 46.431528 -23.666855
-44.655300 59.860968 -47.464799
-27.958874 62.583124 -41.102070
-22.999137 61.705643 -12.306319
-22.390770 61.547012 -31.426851
-23.658145 61.877482 -28.920525
-0.353780 41.440080 -17.993145
-26.729632 62.454366 -17.697689
-38.988848 61.807685 -32.108084
-10.532099 55.466981 -8.320181
-31.892802 62.736062 -29.132705
-8.918435 54.099160 -16.610010
-40.328651 61.451342 -27.627064
0.508579 36.850642 -16.643375
-6.528435 51.655148 -50.072007
-15.312169 58.666720 -19.057639
-9.997639 55.030995 -42.007355
-31.645908 62.736673 -14.437615
-14.751729 58.351337 -48.162286
-17.844296 59.919626 -21.351286
-12.781130 57.122831 -56.188714
-39.439667 61.687783 -37.709092
-42.123112 60.870383 -46.366175
-22.296268 61.522369 -39.142049
-18.326849 60.139037 -35.825263
-23.919298 61.945579 -32.917394
-42.545322 60.718277 -44.804324
-36.977789 62.224555 -44.953137
-15.154945 58.578244 -45.348295
-0.271967 41.230094 -14.131185
-8.454086 53.648804 -14.473724
-22.511222 61.578422 -36.958167
-4.349473 48.919279 -4.709692
-34.064241 62.611576 -50.408957
-10.265530 55.249526 -36.730892
-42.018563 60.908045 -52.690260
-17.082165 59.573102 -39.879333
-28.086301 62.593771 -50.026707
-28.739378 62.648369 -28.638638
-1.468578 44.043072 -25.606129
-5.962238 51.002873 -29.096883
0.515835 36.795052 -57.163874
-39.633167 61.636319 -8.462315
-29.246753 62.690783 -20.605163
-6.744430 51.903984 -50.622677
-1.683996 44.480774 -48.522519
-12.486569 56.921990 -38.575646
-17.618776 59.817087 -11.889463
-0.235214 41.135765 -24.933333
0.494513 36.958393 -9.738086
-42.216557 60.836718 -47.186128
0.533831 36.657185 -9.063243
-17.233308 59.641821 -38.025073
-4.930186 49.717362 -48.715391
-31.813609 62.736259 -10.765459
-13.084474 57.329651 -20.641566
-5.853363 50.877447 -10.413771
0.601036 36.142351 -8.445036
-2.947396 46.780513 -7.208387
-9.577767 54.688486 -26.368104
-1.709972 44.533554 -34.342830
-12.615569 57.009944 -42.207998
-36.915999 62.235423 -4.052489
-22.544981 61.587222 -50.043085
-44.994889 59.704550 -46.327006
-9.614670 54.718592 -28.712766
-0.267235 41.217951 -18.972811
-19.719210 60.683213 -33.019010
-2.875041 46.660673 -10.354725
-24.559729 62.083559 -28.659708
-21.005973 61.139715 -13.753105
-42.437452 60.757136 -7.142398
-22.677769 61.621844 -4.768444
-0.476286 41.754502 -14.965154
-41.584154 61.064547 -47.140857
-32.231534 62.735232 -6.663948
-4.895926 49.670280 -26.319609
-20.490028 60.956676 -18.661780
-30.708692 62.738972 -23.779200
0.505691 36.872762 -8.390191
-34.860244 62.541125 -14.061523
-29.193388 62.686324 -25.072783
-2.766529 46.480950 -27.586186
-5.613121 50.600678 -16.818159
0.676312 35.565671 -23.246745
-15.088434 58.540811 -20.429977
-4.225655 48.749115 -28.915322
0.655060 35.728482 -16.191916
-31.443148 62.737168 -14.552864
-36.092145 62.380322 -46.101643
-41.730208 61.011926 -34.438656
-0.741035 42.434011 -37.952833
-3.228687 47.246396 -35.992488
-0.592527 42.052850 -51.182209
-10.725268 55.624556 -29.678919
-0.635381 42.162838 -46.280272
-35.117746 62.518340 -24.187447
0.808888 34.550039 -41.558808
-22.203938 61.498293 -49.114283
-23.944155 61.952063 -20.470599
-20.028408 60.792907 -33.079711
-3.183253 47.171149 -43.824445
-20.127437 60.828037 -43.566745
-36.597241 62.291491 -50.309255
-10.995156 55.844713 -23.377757
-31.589936 62.736809 -18.465500
-7.998474 53.206926 -41.910092
-11.869457 56.501234 -37.056038
-14.440803 58.176365 -33.310196
-3.080512 47.000984 -12.908324
-0.569186 41.992943 -47.755558
0.141041 39.666263 -35.214683
0.157614 39.539308 -30.576074
-19.623643 60.649311 -44.616285
-8.126361 53.330959 -46.149074
0.430375 37.449744 -37.362876
0.462446 37.204051 -54.312386
-6.116235 51.180283 -15.198059
-24.956936 62.151433 -34.040599
0.543075 36.586369 -9.385530
-19.743775 60.691930 -42.492353
0.306787 38.396521 -30.916071
-3.302257 47.368245 -32.385028
-41.517394 61.088598 -48.114243
-6.887886 52.069251 -23.936054
0.518943 36.771240 -14.080294
-40.233074 61.476762 -13.372097
-22.899058 61.679548 -51.246190
-22.282338 61.518738 -44.064425
-45.958300 59.260814 -17.440573
-30.810536 62.738723 -46.920146
-4.601298 49.265363 -38.100282
-45.474606 59.483600 -4.411636
-14.637598 58.287105 -29.799037
-17.504949 59.765336 -39.386037
0.688150 35.474986 -22.345135
-22.673448 61.620719 -34.734609
-28.476061 62.626353 -17.331825
-34.721509 62.553409 -20.956136
-36.576416 62.295150 -52.057823
-37.286328 62.170295 -13.889270
-19.674622 60.667397 -46.980500
-39.202940 61.750741 -41.727908
-37.295070 62.168759 -17.910890
-7.843167 53.056300 -36.028755
-18.209032 60.085468 -24.632817
-7.782829 52.997776 -33.764875
-29.235694 62.689859 -19.115721
-11.079813 55.913770 -33.350971
-42.887419 60.595028 -8.831279
-1.352982 43.808193 -6.436356
0.457507 37.241887 -10.730416
-4.031533 48.482329 -28.126433
0.496640 36.942099 -49.477869
-1.342191 43.786266 -18.446973
-12.295678 56.791838 -11.181740
-12.370371 56.842767 -35.777125
-43.128783 60.508076 -14.014985
-20.244359 60.869517 -42.782455
-7.665715 52.884194 -28.578536
-26.488218 62.413117 -20.803018
0.394857 37.721838 -41.692547
-18.146805 60.057174 -12.949275
-15.847185 58.967797 -23.201830
-6.366224 51.468279 -42.615206
-44.552986 59.908088 -37.554000
-3.202171 47.202477 -38.987951
-43.101843 60.517777 -35.565797
-30.789955 62.738775 -40.771451
-10.262837 55.247330 -40.158803
-23.459302 61.825635 -11.385222
-36.236512 62.354934 -41.404939
-0.480570 41.765500 -45.790469
-30.766881 62.738834 -45.261261
-17.019428 59.544578 -41.000829
0.612164 36.057096 -5.916829
-20.790538 61.063283 -13.317033
-2.804884 46.544476 -47.630121
-6.507698 51.631263 -8.880471
-37.214586 62.182916 -22.304025
-2.949471 46.783945 -39.092016
-6.791779 51.958530 -51.995677
-11.882693 56.510257 -34.699394
-33.873033 62.628498 -38.982435
-4.242442 48.772187 -23.296119
-25.126749 62.180457 -36.169934
0.535785 36.642225 -15.333722
-20.728273 61.041197 -12.792728
-10.369122 55.334030 -21.665114
-19.214633 60.504209 -23.450791
-4.616177 49.285815 -14.642349
-27.749791 62.565642 -28.460956
-33.766650 62.637908 -4.708411
-1.910136 44.940266 -35.240954
-11.013760 55.859889 -24.717922
-17.310858 59.677083 -42.459800
-39.725857 61.611665 -37.789138
-42.808083 60.623609 -24.349949
0.595317 36.186161 -24.051653
-45.900614 59.287386 -28.888663
-34.214717 62.598259 -10.571569
-3.288338 47.345196 -26.279754
-4.867631 49.631390 -45.254725
-12.749810 57.101473 -11.224493
0.605806 36.105799 -27.323421
-1.229205 43.556691 -16.221900
-0.748452 42.453049 -32.280565
-37.196076 62.186168 -16.838695
-28.328740 62.614036 -52.110715
-5.979959 51.023290 -8.195037
-28.492526 62.627729 -45.740297
-30.874980 62.738570 -45.906712
-11.812201 56.462194 -34.674763
-8.149909 53.353792 -12.725867
-27.733172 62.564254 -30.102167
0.229413 38.989267 -42.587083
-35.866629 62.419986 -25.802723
-10.771977 55.662658 -20.559105
-26.325710 62.385343 -21.383929
-10.161310 55.164511 -49.583411
-16.982057 59.527588 -38.126048
-17.945690 59.965732 -19.624523
0.313842 38.342475 -27.997901
-8.208155 53.410285 -41.474318
-27.872219 62.575876 -44.592462
-28.008851 62.587298 -38.312123
-8.871443 54.053583 -28.470532
-13.102997 57.342283 -22.541636
-10.111633 55.123984 -41.140292
-21.853177 61.406831 -35.843256
-8.793964 53.978437 -5.525793
-0.801127 42.588248 -31.031581
-29.647507 62.724285 -33.528530
-1.508731 44.124655 -15.971440
-0.142970 40.899011 -15.252245
-15.589081 58.822550 -24.521664
-5.217611 50.112372 -41.954078
-37.349403 62.159202 -18.989029
-33.590493 62.653505 -45.002953
-34.891028 62.538404 -21.025178
-3.085060 47.008515 -45.573828
0.247216 38.852884 -27.568584
-30.980750 62.738304 -39.555617
-4.413980 49.007934 -22.791759
-39.032602 61.796050 -31.562896
-23.463230 61.826662 -20.152104
-42.514864 60.729246 -19.149140
-17.897352 59.943751 -23.492549
-37.451520 62.141240 -14.110099
0.687476 35.480144 -29.486297
-11.000674 55.849216 -18.861988
-25.366581 62.221442 -49.129575
-0.644011 42.184988 -48.681326
-26.149515 62.355235 -25.175758
-11.836934 56.479058 -37.659042
-1.644945 44.401426 -47.089556
-42.680338 60.669635 -21.515287
-16.816373 59.452249 -18.768604
-30.746686 62.738883 -35.378806
-44.785195 59.801136 -37.187225
-43.076473 60.526917 -36.325726
-0.156797 40.934498 -16.011002
-0.514217 41.851858 -39.660066
-19.427626 60.579771 -50.308268
-44.656827 59.860263 -38.464112
0.428540 37.463800 -51.683054
-33.380326 62.672101 -35.750386
-6.145883 51.214438 -19.269941
-30.393951 62.739744 -32.454691
-17.936351 59.961483 -8.905813
-0.352379 41.436479 -13.894558
0.414205 37.573618 -15.179984
-5.057555 49.892405 -38.240959
-44.669911 59.854244 -40.259548
-12.328157 56.813982 -50.137517
-20.044338 60.798558 -49.950561
-22.348338 61.535948 -38.541904
-44.333433 60.009211 -26.997939
-36.778119 62.259672 -39.909913
0.585621 36.260435 -16.292441
-0.796404 42.576128 -44.194309
-6.375466 51.478927 -20.841141
-12.181626 56.714071 -28.514252
-3.249684 47.281176 -32.474867
0.552953 36.510698 -12.234641
-12.416201 56.874013 -34.302728
-41.788766 60.990832 -52.707259
-42.120956 60.871153 -38.280643
-23.424335 61.816518 -22.495659
-40.129438 61.504326 -20.424250
-22.123921 61.477427 -32.965317
-25.310688 62.211892 -47.321676
-16.914926 59.497063 -39.103872
-19.362914 60.556813 -30.441493
-44.550237 59.909357 -38.367681
-19.853728 60.730932 -45.738401
-41.392861 61.133463 -20.599738
-45.103442 59.654551 -16.341513
-9.894966 54.947243 -27.315326
-3.324997 47.405909 -40.080397
-9.607289 54.712570 -51.448687
-1.678290 44.469180 -45.703220
-6.614529 51.754331 -33.669888
0.532372 36.668367 -9.812403
-1.952122 45.025572 -29.286192
-14.344735 58.122301 -33.336843
-10.298533 55.276445 -35.074529
-41.816807 60.980732 -53.229869
-40.119849 61.506875 -6.126455
-1.349542 43.801201 -20.762651
-28.278367 62.609829 -16.095809
-10.858883 55.733550 -28.020251
-23.577758 61.856523 -19.379419
0.548753 36.542871 -17.778472
-45.071339 59.669346 -10.276000
-42.313797 60.801685 -48.739464
-23.881312 61.935675 -23.927096
-21.976567 61.439001 -21.949980
-28.232963 62.606039 -42.807351
-4.287960 48.834740 -7.377766
-20.151207 60.836469 -40.136214
-18.090041 60.031364 -21.107933
-15.540777 58.795365 -16.097531
-1.393196 43.889900 -18.955026
-42.770775 60.637045 -21.537578
-26.243751 62.371336 -23.203448
-4.472297 49.088078 -5.332079
0.317766 38.312420 -54.968923
-42.479476 60.741989 -9.934288
-26.408834 62.399549 -22.178252
0.348620 38.076047 -48.948971
-25.344330 62.217637 -39.537749
-20.568099 60.984369 -17.962910
0.367974 37.927782 -29.507834
-11.017164 55.862669 -21.915037
-1.211735 43.521196 -16.291463
-13.323284 57.492482 -19.736746
-3.213842 47.221807 -32.327374
-17.231049 59.640797 -41.576722
-22.824494 61.660102 -12.915641
-33.705429 62.643334 -41.100547
-19.383585 60.564144 -35.931762
-25.456535 62.236811 -52.725774
-36.508887 62.307027 -10.544830
-4.805170 49.545550 -41.522612
0.505071 36.877515 -41.038199
0.253132 38.807563 -26.073322
-0.097042 40.781128 -23.647123
0.692927 35.438393 -26.497465
-4.241836 48.771355 -19.845918
-3.242785 47.269746 -43.293317
-21.007193 61.140140 -30.310195
-9.632027 54.732748 -34.483831
-10.730207 55.628583 -15.867975
-45.571440 59.438993 -21.183550
-17.595824 59.806652 -51.753208
-42.072022 60.888787 -41.135261
-12.829319 57.155684 -26.543304
-10.920916 55.784153 -11.624480
-9.989315 55.024206 -41.294501
0.688471 35.472530 -18.194839
-4.664685 49.352480 -1.308749
0.689862 35.461866 -28.779155
-0.851991 42.718797 -38.981213
0.326861 38.242740 -33.802207
-19.857170 60.732155 -34.453578
0.602602 36.130350 -16.331279
-10.682239 55.589456 -22.737885
-36.724998 62.269019 -47.645458
0.696369 35.412021 -19.807452
-28.399751 62.619978 -39.628005
-37.277859 62.171788 -15.374590
-12.756497 57.106033 -15.805457
-4.208246 48.725190 -2.549063
-12.080222 56.644935 -38.939392
-37.225191 62.181048 -12.000308
-14.523640 58.222981 -52.099863
-10.694410 55.599383 -18.389709
-11.044301 55.884799 -9.508054
-20.546495 60.976704 -9.469200
-1.906669 44.933222 -38.442261
-1.512906 44.133139 -12.563431
-43.164889 60.495062 -6.072762
-15.800915 58.941759 -29.323437
-6.854160 52.030400 -32.488735
-37.716344 62.094664 -29.100746
-3.001883 46.870755 -38.947293
-1.829997 44.777430 -26.763479
-10.002323 55.034820 -47.452392
-5.989742 51.034555 -28.836360
-44.996485 59.703827 -9.122791
-14.471476 58.193625 -30.442842
-4.254689 48.789017 -9.209619
-19.667537 60.664880 -53.667348
-15.344066 58.684667 -14.874921
0.285505 38.559562 -44.020725
-2.166756 45.461684 -27.109150
-1.775133 44.665954 -47.840206
-23.040897 61.716533 -51.611703
-12.152003 56.693877 -50.900461
-0.108851 40.811436 -14.447609
0.643146 35.819752 -17.384175
0.640094 35.843128 -20.905662
-15.566592 58.809891 -12.455922
-8.500125 53.693453 -24.841734
-36.772315 62.260697 -5.165692
0.570724 36.374557 -19.321599
-28.927242 62.664073 -21.788369
-23.393842 61.808563 -23.056137
-6.474348 51.592839 -44.331078
-17.519996 59.772177 -46.268982
-26.028203 62.334503 -4.781300
-4.771788 49.499672 -31.244629
0.463354 37.197094 -16.837308
-3.198020 47.195606 -39.735148
-10.834946 55.714018 -13.129051
-33.587988 62.653728 -33.316062
-4.500599 49.126974 -18.620401
-34.076604 62.610482 -10.661900
-27.709290 62.562255 -33.683039
-8.444022 53.639044 -26.354875
-20.343335 60.904628 -4.472093
-44.948053 59.726129 -48.788658
-43.149583 60.500580 -15.840945
-25.984340 62.327010 -24.711429
-17.952711 59.968921 -14.755372
-36.559616 62.298105 -43.832688
0.784005 34.740659 -34.160592
-8.829507 54.012910 -15.161370
-39.907171 61.563443 -10.459656
0.296921 38.472100 -42.772900
-45.376811 59.528645 -20.054189
-32.199657 62.735311 -34.475917
-7.970090 53.179396 -39.786535
-25.669232 62.273158 -8.932142
0.411350 37.595490 -36.195580
-44.223229 60.059974 -31.792068
0.505472 36.874439 -6.272067
-22.052403 61.458781 -35.034732
-1.672462 44.457340 -36.794960
-8.049146 53.256067 -6.497661
-40.110816 61.509281 -23.202466
-8.436083 53.631343 -17.419516
-20.954769 61.121545 -7.776590
-39.922828 61.559275 -9.059287
-6.333768 51.430887 -46.298352
-12.128756 56.678027 -28.884725
-5.866857 50.892989 -17.973890
-1.364981 43.832572 -24.264635
-31.047009 62.738144 -45.449939
-39.777227 61.597999 -45.796138
-36.418975 62.322842 -42.599559
-22.942212 61.690800 -22.056889
-33.846365 62.630859 -42.325714
-34.765137 62.549549 -31.939970
-33.096359 62.697240 -36.288168
-1.102912 43.300079 -30.098200
-9.837805 54.900611 -47.987059
0.459595 37.225897 -45.917473
-36.180900 62.364711 -35.964173
-14.766686 58.359749 -47.373835
0.557286 36.477510 -21.758128
-25.407039 62.228353 -45.216414
-12.873929 57.186102 -17.659144
-42.674354 60.671782 -14.494461
-10.130075 55.139029 -36.753237
-37.015103 62.217993 -53.939837
-39.803469 61.591024 -16.379772
-27.753973 62.565991 -38.727218
-42.091976 60.881594 -41.316141
-22.307348 61.525258 -48.070643
-26.459155 62.408146 -25.174453
-41.648002 61.041544 -48.956723
-31.991222 62.735823 -28.494780
-3.134795 47.090887 -50.699888
0.220540 39.057240 -38.366332
-32.096857 62.735564 -25.693654
-25.010895 62.160656 -51.332587
-20.075877 60.809745 -43.058112
-25.965234 62.323744 -14.118303
-2.470829 45.991197 -24.483696
-39.593129 61.646973 -50.903738
-29.307690 62.695876 -17.626145
-39.665918 61.627610 -42.549227
-8.184263 53.387114 -44.677464
-21.998853 61.444816 -22.903497
-0.230570 41.123845 -27.212872
-2.542655 46.110159 -30.958353
-9.642896 54.741617 -37.189181
-40.321590 61.453218 -33.045827
-2.716117 46.397455 -16.186661
-36.796670 62.256411 -13.641198
0.708626 35.318117 -23.630821
0.726210 35.183415 -23.330719
0.270163 38.677089 -37.694048
-45.007140 59.698913 -36.442398
-44.779857 59.803594 -13.073997
-6.648334 51.793277 -34.796948
-33.898103 62.626277 -37.522929
-8.892281 54.073792 -35.260762
-0.422229 41.615757 -16.031174
-39.304196 61.723818 -34.171736
-23.921077 61.946045 -24.202342
-32.213800 62.735274 -25.274092
-10.931929 55.793133 -9.940410
0.433401 37.426564 -49.036206
-12.098579 56.657455 -46.538188
-4.318903 48.877265 -23.109523
0.115199 39.864239 -37.690415
-7.617319 52.837258 -36.529170
-0.478402 41.759934 -47.596218
-45.580921 59.434638 -26.648043
-17.267564 59.657400 -36.732368
-6.085325 51.144673 -14.239652
-33.974595 62.619507 -44.715417
-42.899325 60.590738 -13.590298
-11.050095 55.889529 -18.153942
-23.039633 61.716202 -20.637595
-12.043092 56.619620 -31.958419
-6.764114 51.926661 -30.279699
-37.420878 62.146633 -21.760030
-21.020739 61.144949 -21.735144
-27.938567 62.581422 -39.988859
-20.065490 60.806063 -41.014753
-0.675529 42.265883 -34.442854
-0.425867 41.625096 -17.542889
-1.970523 45.062961 -28.177605
-38.824437 61.851419 -43.898153
-17.795978 59.897659 -20.678738
-1.880256 44.879549 -27.902492
-16.951254 59.513579 -37.733707
-10.592171 55.515984 -26.074431
-31.599464 62.736783 -16.586472
0.764495 34.890123 -14.093872
-20.653472 61.014657 -9.673432
-38.000037 62.044782 -18.055459
0.482064 37.053769 -41.185250
-31.879406 62.736101 -21.887462
-4.848476 49.605065 -35.978077
-14.689719 58.316438 -44.742132
0.276507 38.628495 -35.308733
-10.809795 55.693509 -6.527565
-17.458174 59.744067 -41.861058
-1.896985 44.913545 -38.878891
-0.764906 42.495280 -35.542668
-0.133729 40.875290 -31.383027
-36.094887 62.379839 -33.613898
-1.674841 44.462174 -38.476991
-45.822189 59.323504 -30.580721
-12.243093 56.755986 -38.568956
-37.214232 62.182976 -14.903630
0.741716 35.064630 -21.595721
-4.074646 48.541583 -14.519681
-26.438532 62.404620 -29.147869
0.357115 38.010971 -53.213678
0.386800 37.783563 -43.729333
-31.090742 62.738039 -9.732550
-35.971372 62.401559 -37.268250
0.481802 37.055776 -48.454805
-37.510740 62.130829 -26.675148
0.223043 39.038067 -25.548704
-37.696356 62.098187 -7.569788
-35.826633 62.427011 -19.060143
-12.080497 56.645127 -41.261030
-26.449780 62.406545 -13.169566
-0.616994 42.115647 -33.622889
-39.451834 61.684551 -50.135460
-6.208712 51.286819 -49.870024
-20.246811 60.870388 -8.809962
-22.434911 61.558519 -30.090862
-4.233628 48.760071 -22.172971
-7.745429 52.961507 -35.699577
-39.728748 61.610899 -7.403310
-23.390030 61.807571 -16.292803
-5.800414 50.816442 -20.183850
-23.401527 61.810572 -32.305882
-1.970369 45.062649 -32.158357
-39.250530 61.738089 -30.027935
-28.585779 62.635533 -18.744924
0.768304 34.860942 -23.771113
-41.846655 60.969976 -34.277423
-5.145284 50.012972 -33.716399
-7.816529 53.030463 -46.536292
-6.067832 51.124519 -24.182418
-10.405125 55.363401 -17.161693
-15.269361 58.642626 -45.787809
-36.585477 62.293558 -53.969729
-33.453509 62.665629 -38.553126
-10.691261 55.596816 -18.578601
-1.214752 43.527326 -24.923719
-4.041224 48.495651 -17.950168
-37.569308 62.120531 -9.220207
-44.442108 59.959158 -33.795255
-41.690673 61.026173 -34.940421
-12.699146 57.066931 -46.148225
-45.288531 59.569304 -20.951103
-20.021614 60.790498 -53.979788
-24.589327 62.088615 -18.433521
-11.990030 56.583442 -21.517958
-25.244004 62.200490 -51.214837
-22.659419 61.617058 -41.563505
0.761098 34.916149 -22.770053
-1.350265 43.802671 -16.000464
-3.011448 46.886595 -53.547012
0.089446 40.061526 -29.074076
-2.808811 46.550977 -8.807492
-40.399098 61.432605 -21.023433
-26.152656 62.355775 -6.787106
0.589125 36.233596 -8.547097
-12.548688 56.964345 -11.423396
-12.127136 56.676922 -36.898210
-36.707544 62.272088 -3.164138
-4.231250 48.756803 -15.694751
-41.941908 60.935662 -42.091100
-0.775813 42.523274 -24.513898
-15.185992 58.595711 -20.878669
-4.020905 48.467725 -23.612919
-22.348444 61.535972 -34.234178
-1.389180 43.881741 -24.828911
-31.526507 62.736962 -47.638414
-15.139568 58.569589 -44.694889
-0.408691 41.581013 -8.300767
-18.132357 60.050605 -16.729652
-21.053226 61.156475 -14.612885
-4.988263 49.797175 -38.305373
-33.599124 62.652738 -35.665652
0.554832 36.496306 -15.745758
-34.025218 62.615033 -47.937412
-1.845816 44.809574 -38.719527
-17.757693 59.880250 -10.058236
-25.783151 62.292621 -10.845888
-36.431908 62.320566 -56.505597
-20.321262 60.896799 -14.770581
0.233586 38.957299 -35.992930
-18.313273 60.132862 -22.594917
-30.879634 62.738555 -30.001799
-2.624893 46.246364 -35.403212
-5.670624 50.666924 -21.638794
-25.370006 62.222025 -54.952417
-0.614148 42.108344 -48.918371
-20.447968 60.941751 -8.089785
-1.417587 43.939462 -19.613363
0.366810 37.936703 -40.268001
0.173016 39.421311 -45.471648
-14.895827 58.432423 -18.121420
-31.396359 62.737285 -10.198380
-36.790667 62.257470 -20.974084
-20.189178 60.849940 -20.794936
0.350597 38.060904 -37.328368
0.446193 37.328570 -8.685833
-28.679033 62.643320 -16.164624
-43.045023 60.538248 -13.276272
-1.591832 44.293508 -47.744853
-42.991261 60.557614 -4.735408
-33.197035 62.688327 -27.457822
-8.526131 53.718678 -9.536217
-39.999300 61.538944 -12.898769
-19.639402 60.654902 -30.901885
-10.897626 55.765151 -19.447896
-5.630079 50.620215 -24.789506
-0.730076 42.405889 -50.807422
-7.358590 52.586327 -32.170113
-1.238028 43.574620 -10.810815
-3.230956 47.250155 -39.497274
-28.913744 62.662948 -20.035259
-20.095010 60.816533 -33.048794
-27.881508 62.576651 -28.422059
-19.831206 60.722945 -36.710470
-26.703898 62.449972 -28.290234
0.315618 38.328872 -37.622769
-34.632541 62.561283 -16.933781
-0.513158 41.849137 -12.020151
0.687150 35.482647 -18.181409
-25.239696 62.199752 -49.392687
0.747957 35.016816 -26.417375
-21.083710 61.167285 -21.562201
-36.002349 62.396113 -44.626155
-4.069338 48.534286 -17.309771
0.666439 35.641307 -20.180609
-32.988417 62.706791 -34.338360
-22.755322 61.642065 -44.408899
-0.816767 42.628387 -35.296942
-27.951825 62.582531 -45.850292
-31.827344 62.736229 -21.654240
-20.663565 61.018235 -14.966702
-20.519513 60.967133 -17.317287
-15.090256 58.541840 -8.107191
-21.011438 61.141649 -27.470201
0.571510 36.368539 -11.133969
-0.664751 42.238222 -46.079606
-8.518784 53.711552 -12.189841
0.758029 34.939660 -22.988366
-7.572151 52.793451 -44.958921
-34.764749 62.549575 -24.720714
-34.609264 62.563342 -26.935683
-6.209055 51.287212 -7.311479
-31.843068 62.736188 -22.129265
-39.180479 61.756721 -39.710446
-33.367428 62.673245 -30.014036
-26.453292 62.407142 -8.527675
-42.468336 60.746011 -21.516007
-27.971238 62.584155 -30.119440
0.447884 37.315613 -34.229547
-1.738225 44.590961 -38.236003
-41.667929 61.034368 -38.371769
-23.066139 61.723115 -45.677567
-13.298907 57.475858 -13.858268
-8.821084 54.004745 -26.220438
-40.603229 61.378312 -19.963770
-39.371887 61.705809 -47.967593
-22.212971 61.500647 -38.406552
-24.704022 62.108215 -32.384425
-20.175739 60.845174 -44.948260
-22.604459 61.602729 -42.695776
-23.556996 61.851111 -16.302491
-39.041830 61.793598 -34.173555
-5.870606 50.897310 -13.288954
-0.442763 41.668463 -14.103358
-15.379530 58.704623 -11.115876
-31.512133 62.736999 -3.232750
-10.319099 55.293226 -21.133159
-28.938163 62.664986 -27.606958
-3.259521 47.297465 -37.757536
-11.025521 55.869483 -22.935364
-6.558669 51.689981 -46.668030
-17.684447 59.846951 -9.106609
-23.176043 61.751772 -10.018852
-3.397728 47.526372 -37.160009
-3.033494 46.923106 -48.619291
0.292267 38.507757 -51.818771
-31.003812 62.738247 -43.044678
-26.086140 62.344400 -15.376601
-19.748077 60.693456 -39.701239
-13.188512 57.400586 -15.468081
-30.569487 62.739319 -34.629152
-8.221366 53.423097 -51.395104
-22.259023 61.512659 -45.321810
0.694996 35.422541 -21.386145
-39.941282 61.554372 -19.517749
-5.751053 50.759579 -28.049626
-7.824386 53.038081 -29.441266
-0.692445 42.309300 -33.730153
-39.357147 61.709729 -47.173018
-39.354561 61.710423 -39.684064
-10.682283 55.589490 -15.185495
0.116060 39.857644 -41.815883
-24.929593 62.146767 -32.559279
-0.575483 42.009104 -36.272524
-6.328720 51.425072 -44.050586
-6.540393 51.668928 -35.391844
-4.395095 48.981980 -48.660588
-3.358483 47.461370 -30.699761
-12.986158 57.262618 -2.832898
-2.432788 45.928191 -24.152393
-20.824679 61.075392 -12.833300
-19.836640 60.724873 -40.805593
-41.965565 60.927143 -29.962585
-17.463514 59.746497 -12.020007
-9.807064 54.875535 -30.443509
-9.967768 55.006628 -46.347422
-10.750005 55.644733 -11.608315
0.510122 36.838818 -9.646591
-39.632307 61.636552 -42.647478
-33.621429 62.650764 -34.368315
-37.410854 62.148394 -22.848221
-0.172379 40.974493 -34.065803
0.664351 35.657304 -28.521187
-34.660763 62.558783 -20.044687
-27.509721 62.545571 -20.056710
-3.222502 47.236151 -29.272401
-13.033614 57.294979 -17.193617
-10.302497 55.279682 -49.017420
-34.324147 62.588574 -6.402807
-12.305568 56.798584 -36.826652
-36.242867 62.353814 -31.788589
-44.239145 60.052646 -36.004170
-13.290594 57.470190 -22.757824
0.675819 35.569453 -21.140297
-29.017179 62.671592 -16.595018
-26.491953 62.413749 -25.603640
-3.089545 47.015942 -46.448343
0.588741 36.236536 -17.454133
-1.638047 44.387408 -42.493504
-13.065306 57.316586 -33.121756
-12.104501 56.661489 -10.319571
-15.569679 58.811634 -23.580406
-24.946354 62.149629 -34.908752
-44.291316 60.028611 -41.929757
-11.012335 55.858725 -21.481168
0.406018 37.636330 -33.265991
-1.773812 44.663271 -38.793604
-15.451626 58.745199 -13.343026
-28.170104 62.600778 -40.011754
-3.198319 47.196101 -31.283404
-12.971555 57.252666 -22.465585
-1.701856 44.517062 -49.363864
-30.347171 62.739862 -26.010373
