34.710218 7.396781 -34.811147
34.844146 5.265045 -49.004517
34.621817 8.803860 -32.757147
34.551210 9.927702 -4.887610
34.631856 8.644064 -8.420232
34.761363 6.582707 -57.614535
34.866504 4.909178 -60.360060
34.512364 10.546005 -39.691973
34.739565 6.929664 0.149248
34.584586 9.396465 -25.607934
34.782211 6.250862 -58.190970
34.792511 6.086927 -51.911101
34.698856 7.577622 -51.914541
34.662174 8.161487 -49.822391
34.579125 9.483380 -29.793438
34.693953 7.655674 -52.661808
34.906782 4.268075 -45.380322
34.788347 6.153208 -11.452508
34.645103 8.433214 -36.351457
34.642676 8.471835 -48.361629
34.568883 9.646398 -10.225521
34.859253 5.024587 -56.316821
34.523186 10.373752 -50.412955
34.529352 10.275612 -1.703641
34.794962 6.047911 1.138557
34.817689 5.686161 2.339181
34.780777 6.273699 2.311027
34.465691 11.288904 -43.013408
34.573609 9.571174 -24.985272
34.458285 11.406780 -32.536481
34.680888 7.863619 -14.403279
34.600199 9.147941 -36.690624
34.869429 4.862629 -29.503482
34.687876 7.752402 -43.599753
34.488250 10.929826 -55.809481
34.714673 7.325876 -40.749662
34.895277 4.451196 -9.022616
34.877284 4.737601 -61.025471
34.834681 5.415699 -40.106250
34.519652 10.430006 -21.838247
34.569030 9.644067 -57.859533
34.462865 11.333886 -8.135852
34.903790 4.315699 -32.996748
34.491186 10.883105 -13.848036
34.822322 5.612425 -17.920249
34.539691 10.111054 -56.409490
34.559151 9.801313 -36.622283
34.691118 7.700790 -58.793611
34.594498 9.238695 -6.019207
34.523040 10.376078 -0.683627
34.629608 8.679841 -29.339486
34.553066 9.898161 -1.268845
34.840457 5.323766 -13.230152
34.724048 7.176648 -53.072054
34.861167 4.994124 -52.991667
34.637822 8.549108 2.371340
34.740194 6.919647 -12.378177
34.636952 8.562957 -47.730958
34.609902 8.993496 -10.143550
34.723926 7.178589 -4.446413
34.633763 8.613712 -41.522365
34.776920 6.335089 1.785891
34.539551 10.113284 -42.015783
34.465144 11.297607 0.303530
34.467542 11.259447 -2.201345
34.863518 4.956700 -40.868782
34.750205 6.760304 -38.467440
34.705310 7.474901 -44.196684
34.608739 9.012012 -7.815962
34.847850 5.206090 -54.630558
34.572590 9.587390 -34.257794
34.511188 10.564732 -36.482192
34.604312 9.082473 -16.617565
34.687047 7.765586 -1.135713
34.846291 5.230910 -28.905175
34.647219 8.399535 -43.532252
34.871887 4.823496 -19.502572
34.457032 11.426736 -25.108044
34.782437 6.247269 -33.056312
34.849757 5.175747 1.613851
34.721632 7.215104 -2.634462
34.746745 6.815375 -56.973568
34.634979 8.594351 -23.596496
34.897326 4.418592 -56.417814
34.595960 9.215424 -1.022863
34.669283 8.048340 1.267049
34.549311 9.957933 -21.421771
34.588841 9.328731 -6.579571
34.907378 4.258583 -22.705358
34.675387 7.951177 -15.776959
34.616803 8.883666 -40.680072
34.731353 7.060380 -29.972255
34.661825 8.167052 -55.411496
34.743057 6.874083 -20.110081
34.454807 11.462146 -0.519469
34.640852 8.500880 -24.149967
34.877858 4.728461 1.000661
34.798015 5.999313 -35.656012
34.585500 9.381915 -30.813977
34.878793 4.713581 -46.747667
34.492313 10.865160 -18.764977
34.650530 8.346823 -14.914046
34.907950 4.249481 -43.210446
34.555777 9.855013 -50.331000
34.483439 11.006411 -19.304306
34.656305 8.254902 -44.095290
34.505407 10.656753 -30.184380
34.644332 8.445483 -16.203438
34.632845 8.628315 -57.683857
34.812347 5.771201 -41.360643
34.853412 5.117566 -3.520863
34.584183 9.402870 -47.566428
34.597157 9.196369 -23.391577
34.684162 7.811511 -13.806241
34.905575 4.287286 2.536055
34.456411 11.436616 -8.934412
34.534037 10.201048 -15.183039
34.492869 10.856307 -28.236634
34.670771 8.024654 -35.288361
34.910316 4.211829 -52.824168
34.853899 5.109816 -46.324205
34.819901 5.650960 0.155481
34.704770 7.483497 -13.120575
34.829741 5.494341 -44.854563
34.717807 7.275981 -37.096569
34.817787 5.684613 -38.212509
34.653340 8.302099 -46.077555
34.496585 10.797168 -37.081113
34.795095 6.045794 -57.377894
34.738520 6.946300 -24.660875
34.495863 10.808665 -26.284472
34.857349 5.054896 -0.616308
34.805662 5.877596 -5.704940
34.585320 9.384770 -38.765974
34.586371 9.368040 -34.763161
34.488818 10.920787 -34.033145
34.765694 6.513772 -13.344011
34.686260 7.778109 -20.863167
34.836147 5.392366 -14.565418
34.905277 4.292025 -18.250828
34.643490 8.458886 -28.661575
34.552918 9.900519 -22.167996
34.792583 6.085771 -1.311055
34.599434 9.160129 -55.452988
34.590960 9.295005 -19.487471
34.806442 5.865185 -54.676576
34.770091 6.443774 -24.878716
34.830943 5.475204 -42.091890
34.545927 10.011786 -43.771863
34.875210 4.770610 -50.360015
34.757242 6.648294 -53.747623
34.822157 5.615052 -28.408807
34.804087 5.902675 -60.992328
34.500257 10.738724 -49.091569
34.844564 5.258403 -37.264571
34.522521 10.384345 -8.104554
34.755152 6.681573 -37.462150
34.788910 6.144246 -48.124287
34.592990 9.262697 -39.845126
34.484588 10.988115 -5.495462
34.764273 6.536385 -31.463555
34.761539 6.579896 -33.548429
34.683870 7.816153 -53.495350
34.905086 4.295067 -38.506434
34.665012 8.116322 -34.689200
34.610199 8.988777 -25.113699
34.826540 5.545291 -23.669642
34.554800 9.870567 -14.679199
34.497426 10.783780 -22.291845
34.564534 9.715623 -54.268049
34.906688 4.269573 -57.050858
34.794446 6.056122 -44.067682
34.680288 7.873168 -57.306194
34.455220 11.455565 -13.844317
34.895233 4.451899 -2.877132
34.790851 6.113352 -51.288527
34.454743 11.463156 -48.018353
34.648206 8.383826 -3.710365
34.820150 5.646999 -54.137476
34.802033 5.935365 -25.280865
34.682902 7.831573 -49.314091
34.585941 9.374886 -53.086039
34.460274 11.375122 -48.844710
34.910392 4.210614 -7.411989
34.540178 10.103306 -49.800693
34.848260 5.199575 -59.519288
34.743841 6.861609 -47.286159
34.679459 7.886370 -36.026831
34.642437 8.475644 -20.237390
34.866154 4.914745 -24.075935
34.455449 11.451930 -21.239482
34.614851 8.914736 -51.626945
34.795911 6.032812 -52.987926
34.586027 9.373521 -14.320790
34.757570 6.643079 -22.192486
34.630389 8.667417 -34.721985
34.512633 10.541729 -48.560627
34.794605 6.053592 -13.640886
34.662284 8.159740 -32.394027
34.537842 10.140486 -20.634662
34.815472 5.721455 -12.667541
34.676367 7.935579 -27.457799
34.547992 9.978922 -54.872380
34.837498 5.370862 -21.267362
34.753908 6.701361 -7.390469
34.680971 7.862295 -7.360704
34.773254 6.393438 -12.783157
34.780503 6.278051 -34.919472
34.558438 9.812657 -31.351737
34.723437 7.186377 -22.444020
34.508387 10.609318 -55.292580
34.543173 10.055623 -53.673046
34.716854 7.291157 -54.784856
34.736051 6.985590 -0.846086
34.610518 8.983695 -48.874588
34.894521 4.463230 -44.027543
34.814381 5.738813 -2.967609
34.489240 10.914079 -46.489720
34.905744 4.284594 -30.771359
34.651310 8.334416 -6.945804
34.904013 4.312152 -60.451233
34.524417 10.354168 -27.851379
34.454060 11.474030 -27.305066
34.808418 5.833738 -6.794716
34.606060 9.054650 -45.247856
34.847427 5.212829 -39.405038
34.657534 8.235350 -1.397413
34.660787 8.183568 -19.621053
34.473911 11.158067 1.479738
34.492784 10.857663 -0.278450
34.680909 7.863295 -23.611113
34.463484 11.324030 -52.552531
34.522348 10.387095 1.006270
34.703736 7.499959 -24.676960
34.619092 8.847221 1.861473
34.740617 6.912915 -48.528054
34.829122 5.504186 -27.246963
34.852092 5.138569 -26.514159
34.842685 5.288304 -8.257122
34.830110 5.488454 -5.231319
34.808371 5.834486 -47.572399
34.583749 9.409784 -59.119452
34.467046 11.267329 -54.280654
34.631514 8.649504 -25.734065
34.757932 6.637318 -3.872237
34.855557 5.083416 -22.309330
34.872778 4.809309 -11.934553
34.878879 4.712201 -3.932253
34.814074 5.743699 -25.810774
34.876903 4.743665 -36.129475
34.910215 4.213440 -47.610543
34.734385 7.012112 -49.238481
34.733699 7.023032 -19.404633
34.876770 4.745776 -4.458403
34.494443 10.831256 -51.933588
34.556568 9.842420 -39.480550
34.467650 11.257730 -43.879640
34.453686 11.479987 -2.918231
34.607806 9.026858 -1.583084
34.761634 6.578386 -60.601321
34.607478 9.032084 -37.213642
34.803841 5.906579 -16.250538
34.489588 10.908542 -47.591634
34.527452 10.305856 -16.970241
34.896160 4.437144 -46.127451
34.875663 4.763388 -2.439616
34.715380 7.314611 -46.578073
34.743811 6.862086 2.750805
34.867979 4.885699 -7.527341
34.498038 10.774034 -24.965228
34.584405 9.399344 -35.911309
34.687092 7.764877 -20.305607
34.786517 6.182335 2.898009
34.644621 8.440883 -59.117964
34.627088 8.719950 1.317229
34.623947 8.769943 -39.614987
34.853607 5.114459 -1.673207
34.596742 9.202969 -22.748045
34.838092 5.361417 -44.104420
34.608137 9.021600 -42.300399
34.680220 7.874258 -48.441648
34.792752 6.083089 -3.462511
34.454647 11.464696 -26.340265
34.580138 9.467257 -12.935324
34.771509 6.421209 -10.242041
34.790866 6.113109 -14.492917
34.497210 10.787219 -3.770520
34.803359 5.914249 -32.577568
34.578084 9.499954 -56.659936
34.864607 4.939369 -45.146843
34.836955 5.379516 -9.018227
34.688269 7.746135 -54.165243
34.782427 6.247433 -27.656789
34.629195 8.686425 -6.121618
34.814694 5.733836 1.602851
34.680380 7.871706 -18.428075
34.839868 5.333152 -45.683226
34.742914 6.876363 -4.995037
34.734908 7.003790 -14.191003
34.685337 7.792815 -42.799921
34.505416 10.656606 -12.807246
34.494054 10.837446 -31.548494
34.726740 7.133801 -58.545306
34.487026 10.949316 -35.231867
34.752439 6.724745 -14.828907
34.550905 9.932550 -13.969483
34.783336 6.232962 -36.723579
34.909773 4.220465 3.290993
34.721501 7.217180 -56.195407
34.567608 9.666690 -40.928361
34.508709 10.604185 -6.465208
34.514924 10.505260 -47.005487
34.875194 4.770868 -9.530392
34.643221 8.463173 -13.642573
34.797289 6.010877 -42.530995
34.783635 6.228197 -58.807130
34.900358 4.370331 -28.949721
34.851996 5.140108 -41.476424
34.781883 6.256095 -39.391652
34.503117 10.693203 -14.753535
34.768760 6.464962 -49.257255
34.666859 8.086928 -0.643260
34.858009 5.044387 -10.024050
34.559372 9.797787 -8.301863
34.523349 10.371163 3.550781
34.500862 10.729092 -59.124291
34.871467 4.830186 -14.264192
34.740840 6.909367 -1.996124
34.485609 10.971868 -6.974699
34.900118 4.374140 -8.089129
34.622648 8.790627 -50.429260
34.488331 10.928548 0.955989
34.630499 8.665670 -2.019954
34.818094 5.679717 -53.610660
34.827860 5.524273 -60.156349
34.726712 7.134240 -26.339022
34.501544 10.718232 -25.662115
34.599394 9.160765 -44.692730
34.503848 10.681563 -34.753287
34.831086 5.472923 -23.023755
34.640035 8.513880 -10.706296
34.543869 10.044552 -34.729269
34.910421 4.210156 -27.206601
34.516991 10.472366 -7.474314
34.867917 4.886689 3.210051
34.526807 10.316123 -33.527950
34.765675 6.514076 -47.687084
34.851549 5.147216 -36.641247
34.828934 5.507177 -40.748688
34.553353 9.893595 -19.745873
34.516794 10.475507 -27.256695
34.654519 8.283333 -60.653307
34.651400 8.332987 -4.445768
34.851711 5.144644 -7.050439
34.684029 7.813627 -4.013054
34.750828 6.750386 -32.547996
34.754075 6.698703 -23.038810
34.817585 5.687825 -59.082608
34.808051 5.839580 -49.392044
34.612529 8.951691 -35.196442
34.596738 9.203034 -8.382784
34.905095 4.294930 -3.554114
34.505948 10.648136 0.302615
34.569175 9.641757 -51.301476
34.900683 4.365148 0.346027
34.691263 7.698490 -32.734465
34.805704 5.876926 -18.476881
34.599916 9.152449 -0.254278
34.715779 7.308262 -32.232863
34.823493 5.593789 -0.495751
34.472850 11.174954 -10.357953
34.488779 10.921421 -2.645264
34.897040 4.423141 -28.208590
34.575968 9.533623 -2.655849
34.518224 10.452743 -10.634854
34.858669 5.033896 -47.659061
34.754897 6.685616 -9.713398
34.518181 10.453418 -21.242002
34.706789 7.451362 -39.551242
34.584403 9.399363 -50.679951
34.516233 10.484430 -51.129358
34.601338 9.129812 -48.158333
34.483243 11.009533 -1.738710
34.907737 4.252874 -51.912936
34.727228 7.126024 -47.908520
34.589536 9.317674 2.636955
34.874681 4.779029 -43.454080
34.662177 8.161447 -42.333728
34.905676 4.285683 -14.145496
34.675373 7.951406 -10.245524
34.732300 7.045296 1.379491
34.708894 7.417853 3.188790
34.751418 6.741006 -18.330120
34.539909 10.107582 -38.297994
34.792900 6.080729 -26.877603
34.526689 10.318002 -60.324027
34.713135 7.350351 -24.089417
34.601592 9.125778 -26.242452
34.669293 8.048175 -31.006632
34.463868 11.317914 -9.661587
34.694097 7.653371 -1.671882
34.554823 9.870193 -6.259070
34.902901 4.329852 -57.727215
34.656844 8.246328 -52.864074
34.659573 8.202885 -56.752370
34.561412 9.765312 -8.982355
34.630564 8.664628 -49.408317
34.601059 9.134262 -13.397228
34.675951 7.942198 2.817624
34.593437 9.255582 -52.484420
34.497411 10.784013 -38.503572
34.844039 5.266749 -32.191526
34.457313 11.422255 -45.063787
34.791340 6.105563 -23.016707
34.777963 6.318481 -24.157627
34.833942 5.427461 -43.488408
34.785075 6.205277 -28.236175
34.597470 9.191382 -50.085146
34.754918 6.685284 -52.211909
34.668283 8.064250 -23.063991
34.708711 7.420771 -49.664603
34.717519 7.280575 -36.194711
34.560562 9.778841 -55.905603
34.523145 10.374419 -46.404045
34.594333 9.241309 -28.154927
34.461457 11.356296 -38.216484
34.828499 5.514102 -52.066869
34.688732 7.738769 -2.677557
34.692033 7.686224 -28.917206
34.746811 6.814334 -25.895718
34.707170 7.445295 -59.799939
34.771384 6.423198 -6.363250
34.690990 7.702822 -34.286153
34.871126 4.835613 -6.603057
34.850200 5.168695 -33.583041
34.894392 4.465294 -5.126710
34.458981 11.395704 -56.774882
34.861800 4.984052 -55.679461
34.696147 7.620745 -12.453215
34.634738 8.598198 -15.480803
34.823258 5.597522 -4.004534
34.673844 7.975746 -28.266085
34.814521 5.736584 -26.368951
34.841510 5.307016 2.771860
34.584088 9.404391 -20.538803
34.654000 8.291601 -54.793053
34.507207 10.628090 -23.077122
34.507874 10.617484 -17.813116
34.827472 5.530452 -55.647102
34.901730 4.348487 -34.369204
34.549310 9.957945 -58.779763
34.512851 10.538259 -52.483167
34.823452 5.594436 -7.621072
34.686748 7.770350 -41.785105
34.458810 11.398423 3.629669
34.708487 7.424329 -37.974635
34.620125 8.830779 -11.691754
34.458647 11.401017 -23.652846
34.627650 8.711014 -21.884313
34.601573 9.126072 -21.056003
34.527315 10.308031 -26.623296
34.862618 4.971027 -35.484408
34.907855 4.250998 -5.642583
34.725830 7.148274 -57.619102
34.536877 10.155836 -47.501484
34.514678 10.509183 -54.412106
34.459511 11.387270 -57.482902
34.759517 6.612087 -27.248221
34.792215 6.091638 -29.775680
34.746200 6.824046 -31.962785
34.747874 6.797407 -43.106652
34.662529 8.155834 -24.573939
34.549028 9.962432 -48.226854
34.632120 8.639856 -58.437815
34.754010 6.699743 -29.489555
34.543154 10.055932 -24.498274
34.743149 6.872612 -36.607828
34.637922 8.547510 -36.867372
34.849806 5.174962 3.704992
34.776081 6.348447 -26.153614
34.683321 7.824895 -25.362045
34.703536 7.503142 -5.847475
34.899890 4.377782 -1.549997
34.890264 4.530986 -18.877806
34.792405 6.088615 -15.740616
34.898716 4.396466 -33.734119
34.521030 10.408077 -12.242270
34.667697 8.073577 -26.691447
34.649950 8.356062 -59.887760
34.722176 7.206437 -3.783353
34.782186 6.251273 -20.825988
34.907377 4.258612 -53.454207
34.470146 11.217998 -37.564852
34.564562 9.715174 -44.791722
34.906224 4.276951 -41.312207
34.540836 10.092817 -2.838148
34.552493 9.907280 -52.474480
34.457877 11.413280 -22.702968
34.460368 11.373629 -45.766206
34.860168 5.010030 -56.953809
34.857153 5.058017 -25.633835
34.707738 7.436258 -19.761820
34.503990 10.679308 -11.741097
34.461429 11.356738 -50.662369
34.677937 7.910588 3.728563
34.699771 7.563070 2.130857
34.551778 9.918658 -27.032148
34.464800 11.303085 -29.307220
34.775300 6.360871 -48.643213
34.545421 10.019850 -17.556244
34.826456 5.546626 -34.179603
34.612844 8.946673 -56.264838
34.800167 5.965065 -43.144210
34.823623 5.591718 3.285721
34.569697 9.633441 -9.608816
34.729812 7.084902 -26.914166
34.759111 6.618555 -52.872305
34.831305 5.469446 -46.895311
34.863580 4.955725 -5.811269
34.799160 5.981092 -2.360319
34.815449 5.721826 -58.374042
34.704642 7.485533 -35.506565
34.789114 6.140995 -46.570838
34.522307 10.387747 -35.337168
34.895325 4.450438 -39.636917
34.836587 5.385360 -57.483030
34.629141 8.687276 -0.599444
34.908572 4.239589 -23.381496
34.456079 11.441898 -1.282505
34.908440 4.241678 -0.593925
34.778104 6.316234 -41.479920
34.807176 5.853501 -30.320813
34.673980 7.973571 0.716977
34.859225 5.025046 -18.222797
34.517603 10.462620 -58.341152
34.458992 11.395534 -44.424479
34.688940 7.735452 -36.597840
34.496394 10.800201 -40.889639
34.500567 10.733781 -61.103946
34.745913 6.828628 -28.623181
34.640781 8.502002 -42.874433
34.804458 5.896771 -31.819518
34.628469 8.697973 -26.796720
34.828556 5.513202 -11.999991
34.688263 7.746235 -51.398090
34.644845 8.437323 -8.991085
34.568286 9.655905 -48.677996
34.491181 10.883179 -7.819714
34.482229 11.025669 -27.657068
34.768638 6.466914 -50.129857
34.669271 8.048526 -17.813444
34.762259 6.568449 -30.202254
34.583379 9.415671 -49.388952
34.764848 6.527226 -5.509166
34.580769 9.457216 1.401401
34.593788 9.249996 -57.342169
34.707724 7.436477 -11.916056
34.531441 10.242363 -37.072696
34.528631 10.287090 1.605528
34.689736 7.722787 -21.692953
34.791501 6.102998 3.840600
34.664667 8.121818 -22.135202
34.819572 5.656191 -22.047748
34.837039 5.378166 -27.902975
34.864895 4.934784 -34.351223
34.561625 9.761928 -46.568946
34.777179 6.330962 -45.193868
34.725345 7.156003 -33.644234
34.455676 11.448319 -60.682430
34.830883 5.476165 0.707664
34.908331 4.243414 -55.790701
34.631887 8.643562 -46.887752
34.865360 4.927383 -30.785582
34.788347 6.153207 -60.031405
34.795197 6.044176 -56.207454
34.783785 6.225816 -38.790495
34.468424 11.245410 -53.135603
34.810429 5.801717 -31.077531
34.903677 4.317491 -50.951344
34.732994 7.034245 -15.304453
34.673614 7.979402 -47.738597
34.896129 4.437642 -13.619026
34.664083 8.131113 -2.221848
34.650375 8.349294 -9.909307
34.874897 4.775581 -52.446178
34.827090 5.536536 -24.292655
34.715386 7.314524 -18.457669
34.771114 6.427499 -55.053081
34.529472 10.273698 -45.702826
34.477398 11.102567 -58.378603
34.703777 7.499300 -29.669557
34.781195 6.267038 -37.863684
34.577840 9.503841 -17.364208
34.723323 7.188193 -59.323734
34.527280 10.308600 -11.334706
34.720896 7.226818 -17.776023
34.580743 9.457633 -38.189587
34.709156 7.413687 -9.481061
34.494580 10.829072 -35.801921
34.505971 10.647763 -4.363096
34.528407 10.290656 -19.314549
34.617340 8.875118 -59.560174
34.790785 6.114393 -9.287587
34.693125 7.668850 -60.354496
34.706647 7.453611 -14.874104
34.698252 7.587241 -44.928583
34.548602 9.969207 -23.039145
34.541734 10.078526 -42.721729
34.776249 6.345763 -0.041349
34.487660 10.939217 -41.408826
34.515721 10.492584 -14.239668
34.701187 7.540519 -50.516433
34.774559 6.372667 -30.802611
34.508261 10.611314 -59.772569
34.855119 5.090399 -48.487567
34.888505 4.558992 -36.647312
34.847420 5.212935 -18.924703
34.893499 4.479495 -55.281244
34.843032 5.282784 -50.165933
34.685156 7.795694 -41.209637
34.758716 6.624839 0.889060
34.455487 11.451314 -41.722293
34.567775 9.664037 -3.285570
34.462480 11.340021 -3.973524
34.786016 6.190301 -34.137244
34.770103 6.443597 -8.294004
34.636109 8.576375 -52.175902
34.908310 4.243749 -20.334849
34.592087 9.277071 -3.679787
34.584043 9.405098 -29.204175
34.894895 4.457284 -25.956732
34.784189 6.219387 -12.144274
34.474354 11.151018 -20.548768
34.650368 8.349413 -2.832358
34.860818 4.999681 2.260949
34.808268 5.836120 -15.250494
34.460051 11.378682 -14.564371
34.705460 7.472506 -45.973640
34.625337 8.747833 -27.711222
34.702829 7.514390 -47.256860
34.563932 9.725205 -13.396028
34.569693 9.633516 -33.637152
34.612097 8.958564 -14.772070
34.506983 10.631664 -53.247292
34.737355 6.964837 -7.992539
34.769706 6.449906 -16.943207
34.835233 5.406918 -11.344982
34.654799 8.278873 -12.492752
34.689717 7.723097 -3.369213
34.503574 10.685929 -40.237177
34.469088 11.234830 -13.126681
34.634008 8.609813 -22.566841
34.831893 5.460080 -48.068997
34.548683 9.967931 -30.667359
34.454742 11.463183 -20.015997
34.514384 10.513861 -33.017216
34.524167 10.358143 -34.122825
34.680618 7.867923 -8.549988
34.877096 4.740588 -59.083079
34.650720 8.343809 -7.828743
34.461518 11.355329 -31.310219
34.905562 4.287496 -49.548351
34.761897 6.574210 -2.446379
34.455193 11.456006 -58.817569
34.518752 10.444330 -19.852394
34.536847 10.156318 -30.026064
34.873625 4.795830 -40.134723
34.509803 10.586777 -56.911273
34.610301 8.987146 -34.122470
34.556098 9.849898 -32.685328
34.740722 6.911246 -50.478559
34.722181 7.206356 -53.805147
34.901776 4.347758 -15.268078
34.804361 5.898301 -45.535189
34.456913 11.428618 -4.976236
34.867090 4.899853 -51.881503
34.760246 6.600490 -45.816387
34.741873 6.892926 -9.159629
34.650741 8.343468 -56.174359
34.541989 10.074471 -49.178544
34.504926 10.664397 -32.053983
34.678331 7.904327 -39.981734
34.905395 4.290157 -21.117816
34.696720 7.611631 -6.627288
34.657807 8.231003 -11.283820
34.687235 7.762598 -37.316538
34.702848 7.514084 -16.785383
34.854070 5.107097 -17.209343
34.727301 7.124865 -43.692318
34.632277 8.637363 -53.298496
34.814609 5.735188 -17.158061
34.605902 9.057165 -28.742724
34.792964 6.079719 -21.323001
34.596231 9.211099 -24.506118
34.626199 8.734110 2.995221
34.619390 8.842489 -33.445312
34.877120 4.740209 -1.142374
34.465504 11.291882 -17.030695
34.621395 8.810574 -12.872543
34.707341 7.442577 -23.099129
34.658090 8.226491 -47.270994
34.501464 10.719512 -8.740825
34.578389 9.495099 -60.881719
34.737374 6.964536 -51.518228
34.603566 9.094358 0.744718
34.661460 8.172862 -33.307328
34.831281 5.469822 -38.864360
34.582811 9.424717 -59.771864
34.464217 11.312359 -21.755746
34.864349 4.943485 -10.726901
34.829731 5.494502 -20.167306
34.748650 6.785060 -55.809916
34.895332 4.450321 -42.264779
34.821273 5.629113 -56.669852
34.764126 6.538731 -43.857797
34.497860 10.776870 -49.905382
34.894712 4.460197 -10.297998
34.903152 4.325855 -22.051126
34.558960 9.804353 -10.880102
34.707155 7.445538 -28.022855
34.531021 10.249049 -25.082575
34.792773 6.082756 -55.590673
34.459407 11.388927 -36.645200
34.742911 6.876407 -20.659220
34.784398 6.216063 -20.086967
34.882102 4.660905 -37.940227
34.553401 9.892824 -2.208150
34.744111 6.857307 -39.719677
34.842925 5.284481 -16.600288
34.489880 10.903896 -57.804622
34.519933 10.425542 -5.265637
34.467109 11.266333 -33.337917
34.544827 10.029306 -53.042112
34.727014 7.129439 -34.177067
34.709376 7.410175 -10.641455
34.533827 10.204394 -51.748355
34.594299 9.241855 -31.613422
34.655755 8.263671 -18.793883
34.784075 6.221196 -44.661254
34.583807 9.408862 0.299177
34.592036 9.277876 -32.393038
34.821446 5.626361 -50.939951
34.851355 5.150304 -15.895023
34.575805 9.536229 -5.374948
34.742017 6.890629 -35.790905
34.557836 9.822229 -37.683458
34.720960 7.225792 -41.493489
34.757843 6.638732 -21.620815
34.538332 10.132686 -16.001849
34.754204 6.696649 -54.498590
34.773688 6.386534 -40.684442
34.648342 8.381656 -44.874018
34.580132 9.467345 -35.329440
34.662712 8.152921 -6.294212
34.622859 8.787260 -19.669760
34.654028 8.291156 -50.948683
34.728794 7.101108 -33.080936
34.745979 6.827571 -10.720307
34.691677 7.691891 -30.236269
34.557499 9.827597 2.062564
34.462373 11.341711 -17.780835
34.459281 11.390935 -28.279032
34.506844 10.633876 -24.158423
34.597433 9.191972 -7.289487
34.464370 11.309938 -15.285571
34.500595 10.733338 -45.239327
34.710588 7.390894 -15.918222
34.755297 6.679250 -1.437963
34.499619 10.748868 -42.427668
34.670676 8.026170 -39.370902
34.531624 10.239451 -35.977521
34.575558 9.540163 -11.513722
34.528675 10.286395 -38.908932
34.595524 9.222350 -15.477275
34.479654 11.066653 -26.962355
34.505290 10.658606 -16.531882
34.906125 4.278536 -35.459904
34.601143 9.132925 -30.264204
34.771549 6.420568 -17.725096
34.879770 4.698022 -30.074368
34.527949 10.297952 -41.319274
34.582512 9.429471 -12.142144
34.862977 4.965323 -53.646460
34.896445 4.432615 1.498886
34.801816 5.938813 -37.182706
34.720764 7.228921 -38.996781
34.504349 10.673593 -37.817619
34.587064 9.357020 -21.734529
34.635932 8.579187 -35.654967
34.528742 10.285331 -18.416230
34.678069 7.908495 -9.235304
34.904384 4.306251 -10.942994
34.690030 7.718111 -57.997204
34.616714 8.885082 -39.009347
34.588525 9.333754 -16.050403
34.871931 4.822796 -27.853987
34.887681 4.572113 -37.404936
34.670648 8.026608 -45.406630
34.680196 7.874642 -40.582411
34.903032 4.327767 -15.998433
34.577944 9.502179 -42.023333
34.897121 4.421849 -48.156509
34.783594 6.228853 -40.038944
34.747287 6.806760 -23.961128
34.622400 8.794569 -53.914488
34.453989 11.475157 -49.920165
34.743693 6.863962 2.109403
34.549921 9.948213 -4.243148
34.621882 8.802819 -17.244529
34.556562 9.842507 -16.579975
34.455415 11.452463 -6.355439
34.455538 11.450511 -40.838323
34.860245 5.008801 -51.190258
34.560120 9.785888 -43.164968
34.568653 9.650069 -7.666301
34.722569 7.200188 -25.191875
34.557614 9.825772 0.676679
34.830194 5.487131 -1.202958
34.906064 4.279506 -12.343388
34.544846 10.029002 2.909576
34.749148 6.777138 -46.330515
34.622976 8.785407 -55.084109
34.565372 9.702281 3.487435
34.898332 4.402573 -59.803413
34.738807 6.941735 -6.180467
34.454081 11.473694 -59.525945
34.739091 6.937202 -45.187012
34.551954 9.915864 -32.122536
34.473428 11.165761 -3.371591
34.822890 5.603385 -14.031424
34.570805 9.615813 -45.901626
34.456091 11.441702 -30.197017
34.517034 10.471675 2.177512
34.851202 5.152737 -0.090164
34.650938 8.340331 -38.479577
34.665228 8.112882 -37.840169
34.711785 7.371842 -5.253410
34.702844 7.514156 -19.004350
34.613375 8.938224 -9.512393
34.870435 4.846611 -44.437849
34.873479 4.798152 -42.807010
34.700392 7.553185 0.208464
34.842729 5.287605 -2.252422
34.898115 4.406028 -24.443248
34.737397 6.964174 -35.179185
34.454180 11.472124 -46.759676
34.707534 7.439498 -25.841048
34.867350 4.895710 -24.670757
34.591956 9.279143 -27.519482
34.541121 10.088293 -6.960536
34.890134 4.533061 -26.699457
34.893602 4.477860 -31.863233
34.806925 5.857491 -8.126147
34.821292 5.628816 -4.630020
34.769649 6.450822 -16.378235
34.867391 4.895060 0.450887
34.607827 9.026525 -11.077815
34.807357 5.850619 -50.178094
34.675131 7.955253 -59.397376
34.484817 10.984479 -6.063805
34.662473 8.156736 -0.012101
34.773665 6.386894 -23.547030
34.583429 9.414880 -58.560312
34.871680 4.826791 -38.955585
34.559871 9.789846 -26.068795
34.523940 10.361765 -55.798425
34.453586 11.481574 -24.313928
34.475359 11.135022 -54.882357
34.789799 6.130088 0.537669
34.479929 11.062283 2.083131
34.462106 11.345969 -53.683322
34.789341 6.137388 -50.719781
34.456007 11.443050 -33.959641
34.748494 6.787541 -28.055835
34.752611 6.722016 -59.778380
34.758401 6.629846 3.458323
34.901048 4.359344 -58.337890
34.732190 7.047044 -21.282442
34.846958 5.220298 -58.660934
34.896189 4.436686 -48.923457
34.857694 5.049409 -15.169990
34.566926 9.677555 -60.347561
34.907554 4.255790 -39.077069
34.906020 4.280203 -16.667940
34.772638 6.403241 -19.419816
34.739908 6.924206 -55.298012
34.454767 11.462785 -55.463921
34.729313 7.092844 -30.718241
34.660959 8.180827 -50.411488
34.834831 5.413316 -29.880768
34.548923 9.964105 -0.081223
34.523471 10.369228 -9.955683
34.613462 8.936838 -5.549465
34.812012 5.776531 -34.766643
34.603135 9.101207 -4.418439
34.877127 4.740098 -11.304177
34.639307 8.525462 -21.292051
34.856653 5.065970 -38.341840
34.624599 8.759573 -56.848216
34.607330 9.034438 -3.124435
34.862798 4.968167 -20.656089
34.593717 9.251118 -44.057301
34.456514 11.434967 -18.792878
34.618436 8.857666 3.742464
34.713220 7.348994 -60.969416
34.503003 10.695010 -53.810920
34.604064 9.086427 -54.417050
34.898088 4.406462 -17.346279
34.560829 9.774603 -23.847182
34.740155 6.920278 -3.167570
34.493508 10.846137 -44.304291
34.545291 10.021920 -40.136161
34.646253 8.414902 -25.091439
34.808587 5.831047 -19.107130
34.909564 4.223790 -6.623131
34.834309 5.421627 -6.200239
34.742732 6.879253 -40.314674
34.454384 11.468877 -39.479181
34.619312 8.843719 -18.372770
34.898867 4.394060 -25.309096
34.871562 4.828666 -8.543635
34.843732 5.271640 -32.892699
34.810079 5.807288 -10.234281
34.775304 6.360801 -0.701490
34.618294 8.859931 -61.097410
34.779767 6.289777 -10.808198
34.722361 7.203500 -8.473183
34.690504 7.710558 -38.580491
34.783044 6.237602 -7.691652
34.678119 7.907691 -5.267849
34.742427 6.884112 -44.364899
34.650870 8.341418 -29.881660
34.658994 8.212108 -33.897056
34.639281 8.525880 0.774739
34.532128 10.231425 -3.527000
34.708345 7.426596 0.901637
34.897939 4.408827 -54.572712
34.461204 11.360320 -31.900027
34.773062 6.396499 -42.058570
34.648109 8.385371 -14.250664
34.619722 8.837207 -45.760202
34.539387 10.115895 -12.851011
34.860040 5.012061 -23.507745
34.543446 10.051286 -59.321927
34.813521 5.752506 -33.416311
34.819496 5.657401 -20.682065
34.608927 9.009017 -51.060284
34.835616 5.400818 -36.161334
34.486105 10.963977 2.680707
34.593701 9.251373 -46.812989
34.751695 6.736595 -6.847094
34.598633 9.172879 -41.322573
34.662133 8.162144 -17.058747
34.595816 9.217712 -43.299553
34.746528 6.818833 -15.928322
34.633192 8.622792 -5.015902
34.908019 4.248385 -40.654587
34.457708 11.415967 -16.236938
34.500108 10.741097 -1.242280
34.693004 7.670769 -55.812397
34.616768 8.884225 -38.029608
34.724147 7.175065 3.852270
34.456192 11.440107 -12.406045
34.531191 10.246345 -44.894927
34.697830 7.593965 -31.438293
34.500586 10.733489 -9.341552
34.463406 11.325274 -51.478677
34.771875 6.415380 -4.466298
34.637603 8.552595 -31.935952
34.515465 10.496651 -30.832515
34.686302 7.777449 -22.557234
34.583519 9.413444 -17.981574
34.820295 5.644690 -9.536901
34.605593 9.062095 -19.005699
34.493301 10.849434 -28.878971
34.724126 7.175412 -13.639487
34.523797 10.364029 -5.959772
34.737480 6.962853 -17.280731
34.566100 9.690693 -18.486819
34.461752 11.351600 -40.226621
34.795066 6.046261 -36.181619
34.622066 8.799896 -46.332629
34.544393 10.036213 -28.829081
34.816457 5.705777 -19.675061
34.509881 10.585532 -43.492347
34.484768 10.985264 -60.144441
34.856694 5.065322 -49.572758
34.541187 10.087241 -57.174606
34.722398 7.202914 -11.330543
34.791883 6.096914 -5.144214
34.498839 10.761284 -15.824506
34.858229 5.040894 -12.537090
34.498103 10.772999 -45.919897
34.738003 6.954522 -42.228186
34.464256 11.311746 -11.211373
34.885087 4.613394 -13.077605
34.508839 10.602121 -2.189252
34.670030 8.036446 -11.906871
34.633789 8.613299 -30.603258
34.861127 4.994773 -31.449818
