-21.190161 3.421046 -14.421213
-21.212990 3.719546 -44.980463
-21.217630 3.780206 -7.135848
-21.061440 1.738120 -43.221694
-21.213264 3.723097 -42.526001
-21.279649 4.591063 -17.995278
-21.079447 1.973542 -31.992003
-21.252147 4.231467 -22.275233
-21.103765 2.291485 -46.637233
-21.184141 3.342347 -33.975332
-21.300086 4.858229 -16.385502
-21.049013 1.575633 -28.699153
-21.140374 2.770127 -54.234214
-21.114955 2.437779 -39.113538
-21.340818 5.390769 -19.736765
-21.173510 3.203340 -48.663454
-21.229225 3.931785 -49.872542
-21.149881 2.894421 -40.527432
-21.411004 6.308418 -20.339553
-21.351476 5.530120 -18.991590
-21.372133 5.800204 -18.354606
-21.421664 6.447800 -26.693013
-21.094391 2.168932 -26.311573
-21.085441 2.051919 -39.306467
-21.131036 2.648040 -41.952650
-21.138873 2.750495 -39.362336
-21.224384 3.868494 -17.538638
-21.377845 5.874879 -28.064721
-21.407064 6.256900 -11.667071
-21.127919 2.607280 -45.491542
-21.101112 2.256794 -24.028424
-21.359351 5.633063 -6.107737
-21.193067 3.459044 -9.585307
-21.000712 0.944143 -33.902971
-21.392240 6.063077 -23.329547
-21.306354 4.940195 -46.821571
-21.286155 4.676123 -11.084980
-21.025983 1.274547 -23.988656
-21.066120 1.799311 -33.694819
-21.408351 6.273731 -22.540017
-21.183384 3.332456 -51.205767
-21.141166 2.780472 -41.533650
-21.159769 3.023710 -40.471497
-21.098519 2.222907 -48.445821
-21.300098 4.858380 -42.093535
-21.291152 4.741420 -39.394512
-21.230942 3.954230 -19.906016
-21.339140 5.368827 -28.597667
-21.307317 4.952778 -23.072136
-21.083035 2.020468 -31.544336
-21.003812 0.984659 -32.398271
-21.066484 1.804071 -36.778705
-21.118928 2.489731 -6.717625
-21.169564 3.151779 -49.917729
-21.279035 4.582995 -7.402681
-21.148497 2.876318 -3.079903
-21.252643 4.237954 -19.050074
-21.128078 2.609368 -51.994922
-21.041270 1.474425 -37.829344
-21.201300 3.566697 -11.526866
-21.327921 5.222144 -19.921263
-21.165893 3.103748 -34.366609
-21.117062 2.465332 -42.532997
-21.131428 2.653159 -46.530476
-21.315846 5.064295 -9.735488
-21.173150 3.198644 -47.333087
-21.362082 5.668778 -11.422146
-21.385866 5.979742 -11.092473
-21.191206 3.434700 -42.350424
-21.137178 2.728317 -36.393359
-21.229041 3.929358 -44.052358
-21.150315 2.900102 -34.424103
-21.373948 5.823947 -25.866920
-21.202259 3.579215 -41.526698
-21.376383 5.855750 -12.935974
-21.388285 6.011362 -12.894130
-21.303062 4.897121 -50.191966
-21.312527 5.020887 -10.283255
-21.310382 4.992864 -23.111341
-21.146720 2.853087 -48.266125
-21.182481 3.320632 -47.565326
-21.120596 2.511547 -43.024381
-21.315062 5.054030 -19.942109
-21.152400 2.927345 -46.655219
-21.069403 1.842234 -31.939951
-21.167072 3.119178 -41.403940
-21.406281 6.246640 -17.971095
-21.307146 4.950540 -24.083788
-21.156283 2.978110 -36.191847
-21.251977 4.229257 -48.552607
-21.056146 1.668913 -22.801222
-21.150719 2.905366 -48.126144
-21.131697 2.656687 -37.440280
-21.065443 1.790440 -41.620142
-21.328959 5.235723 -18.811656
-21.036537 1.412525 -37.987629
-21.245394 4.143184 -51.802297
-21.136476 2.719172 -36.403189
-21.337390 5.345968 -22.305577
-21.005744 1.009934 -40.119653
-21.080631 1.989025 -33.628976
-21.180522 3.295033 -45.383867
-21.211680 3.702392 -37.930336
-21.216599 3.766728 -10.758069
-21.266490 4.419001 -44.029945
-21.399621 6.159575 -8.175261
-21.034343 1.383856 -39.857962
-21.449599 6.813011 -18.640324
-21.404970 6.229514 -4.058126
-21.037386 1.423633 -31.662352
-21.159011 3.013772 -35.934777
-21.318502 5.099016 -27.004688
-21.244181 4.127319 -32.047556
-21.154606 2.956196 -40.675455
-21.161590 3.047487 -45.493552
-21.020013 1.196505 -41.380508
-21.327373 5.214990 -14.094211
-21.127524 2.602108 -34.200495
-21.298069 4.831853 -16.374196
-21.383311 5.946336 -19.698526
-21.228368 3.920581 -50.820981
-21.135799 2.710309 -33.240120
-21.066860 1.809006 -46.014704
-21.290205 4.729045 -13.911377
-21.356699 5.598411 -45.930797
-21.125483 2.575435 -46.964245
-21.205584 3.622669 -12.239872
-21.311189 5.003408 -13.832025
-21.066869 1.809105 -38.143769
-21.203022 3.589207 -12.243123
-21.022416 1.227919 -30.803854
-21.381299 5.920047 -8.547752
-21.000347 0.939366 -13.895352
-21.450993 6.831233 -24.799366
-21.038586 1.439321 -38.753095
-21.501532 7.492002 -28.973402
-21.044642 1.518484 -34.043160
-21.380130 5.904742 -11.000194
-21.113622 2.420365 -44.624142
-21.367414 5.738495 -15.958102
-21.299275 4.847653 -2.559213
-21.415527 6.367530 -17.124535
-21.424338 6.482750 -23.391106
-21.357028 5.602711 -11.286404
-21.342316 5.410351 -26.343932
-21.375942 5.849991 -36.470311
-21.040955 1.470301 -30.931107
-21.250856 4.214604 -46.971629
-21.391250 6.050137 -12.949108
-21.111935 2.398315 -22.445635
-21.118128 2.479282 -4.882846
-21.315953 5.065685 -27.235998
-21.169665 3.153072 -43.908579
-21.129606 2.629346 -49.270174
-21.218900 3.796775 -46.807479
-21.445071 6.753786 -17.405317
-21.075365 1.920192 -31.583083
-21.026363 1.279517 -46.729323
-21.233135 3.982906 -43.781504
-21.381624 5.924262 -18.060085
-21.015693 1.140012 -42.877722
-21.188958 3.405308 -44.429741
-21.401271 6.181140 -18.623605
-21.181292 3.305092 -42.466291
-21.131990 2.660504 -39.126100
-21.290776 4.736526 -48.280548
-21.151429 2.914642 -38.889470
-21.237384 4.038435 -32.647721
-21.257698 4.304024 -43.132474
-21.146331 2.848015 -35.592432
-20.964676 0.473021 -14.545064
-21.205684 3.624009 -33.360317
-21.072914 1.888124 -49.947189
-21.230825 3.952723 -41.671615
-21.266439 4.418313 -38.786325
-21.068379 1.828854 -32.682841
-21.045534 1.530162 -27.928699
-21.421731 6.448652 -21.351127
-21.043905 1.508871 -38.900232
-21.391470 6.053004 -22.028732
-21.067195 1.813361 -31.694871
-21.021122 1.211007 -39.432683
-21.357418 5.607811 -30.928599
-21.401449 6.183492 -11.131017
-21.411223 6.311292 -34.679113
-21.116904 2.463271 -39.225221
-21.364264 5.697305 -18.875326
-21.332245 5.278697 -17.734009
-21.333883 5.300124 -26.155385
-21.425393 6.496539 -25.784977
-21.265487 4.405877 -56.126305
-21.057441 1.685841 -44.346072
-21.141263 2.781740 -47.814775
-21.435387 6.627205 -24.636568
-21.284835 4.658830 -14.195614
-21.371917 5.797385 -21.848274
-21.237917 4.045427 -16.370512
-21.273057 4.504878 -12.265658
-21.085095 2.047401 -34.514937
-20.985101 0.740037 -26.092366
-21.182282 3.318042 -44.206688
-21.398073 6.139349 -25.944261
-20.993371 0.848171 -23.308846
-21.229347 3.933397 -53.283683
-21.145135 2.832360 -53.407721
-21.131407 2.652888 -37.307687
-21.068050 1.824533 -46.711985
-21.141212 2.781081 -42.950966
-21.222967 3.849974 -7.273236
-21.121756 2.526695 -36.879023
-21.114924 2.437382 -47.309021
-21.164497 3.085513 -43.981184
-21.377708 5.873097 -21.484004
-21.338979 5.366726 -21.993484
-21.401847 6.188696 -25.230915
-21.102585 2.276047 -39.208753
-21.173582 3.204281 -48.201606
-21.437780 6.658477 -24.149250
-21.116875 2.462911 -32.860536
-21.141768 2.788352 -29.195626
-21.328878 5.234677 -4.646778
-21.208693 3.663353 -51.181902
-21.196677 3.506234 -50.070238
-21.131291 2.651367 -27.572352
-21.223580 3.857984 -16.840103
-21.215953 3.758260 -13.006764
-21.280338 4.600049 -15.582942
-21.412063 6.322259 -20.485575
-21.379738 5.899653 -25.224972
-21.147900 2.868514 -43.636915
-21.147795 2.867149 -40.269779
-21.094957 2.176349 -32.751584
-21.233181 3.983499 -47.362812
-21.158932 3.012759 -32.410854
-21.150718 2.905347 -38.932133
-21.115376 2.443279 -42.748307
-21.002482 0.967274 -44.730564
-21.392296 6.063787 -17.424010
-21.259890 4.332707 -45.635285
-21.338106 5.355325 -24.181527
-21.044000 1.510097 -33.394643
-21.159180 3.015996 -45.289485
-21.405443 6.235693 -19.930048
-21.412492 6.327863 -29.909127
-21.227322 3.906907 -14.767868
-21.229989 3.941771 -8.936125
-21.374421 5.830128 -21.006060
-21.029927 1.326113 -34.552960
-21.152582 2.929728 -35.796304
-21.146001 2.843686 -38.072112
-21.314319 5.044332 -23.413083
-21.210561 3.687773 -7.883566
-21.096407 2.195296 -46.730383
-21.161470 3.045949 -43.903688
-20.992416 0.835677 -33.524375
-21.004412 0.992516 -25.408422
-21.299072 4.844974 -15.909311
-20.942222 0.179438 -29.795867
-21.333098 5.289862 -17.807505
-21.306984 4.948430 -42.839045
-21.344628 5.440585 -13.774120
-21.364790 5.704188 -14.495521
-21.093370 2.155562 -27.969546
-21.032601 1.361070 -45.594684
-21.053833 1.638664 -33.621846
-21.409975 6.294952 -7.701699
-21.272232 4.494092 -19.089784
-21.240534 4.079639 -40.566036
-21.207605 3.649124 -40.067022
-21.184298 3.344401 -10.887283
-21.170134 3.159213 -44.319645
-21.177645 3.257418 -36.157987
-21.037350 1.423181 -23.100657
-21.127234 2.598331 -48.422209
-21.347771 5.481685 -8.206512
-21.175352 3.227423 -46.713711
-21.253414 4.248038 -13.388224
-21.311868 5.012282 -11.900764
-21.009037 1.052974 -32.853276
-21.082638 2.015253 -49.576873
-21.349290 5.501551 -27.192983
-21.281363 4.613441 -21.431251
-21.065244 1.787861 -37.287732
-21.287937 4.699403 -11.624469
-21.180995 3.301205 -52.997636
-21.265883 4.411053 -13.400104
-21.099578 2.236736 -50.886497
-21.097341 2.207480 -41.991815
-21.461962 6.974643 -20.728356
-21.319674 5.114334 -50.270098
-21.380871 5.914440 -19.022280
-21.486028 7.289292 -26.747007
-21.091345 2.129085 -27.100575
-21.409165 6.284339 -21.309375
-21.238702 4.055689 -15.910274
-21.057076 1.681093 -23.087746
-21.330857 5.260531 -13.500638
-21.101718 2.264702 -38.885909
-21.268929 4.450859 -15.821031
-21.367542 5.740173 -31.845073
-21.431526 6.576715 -15.171005
-21.101366 2.260110 -38.213431
-21.166725 3.114647 -33.889588
-21.297401 4.823147 -15.382959
-21.051640 1.609982 -50.873560
-21.426247 6.507688 -4.160580
-21.127159 2.597334 -37.996224
-21.143993 2.817437 -33.159879
-21.345593 5.453198 -27.097563
-21.318021 5.092727 -21.234104
-21.293490 4.772018 -14.659592
-21.368324 5.750392 -23.828766
-20.999293 0.925604 -51.968960
-21.329644 5.244688 -17.239458
-21.233349 3.985699 -44.704790
-21.386652 5.990050 -32.795226
-21.097226 2.206008 -56.057120
-21.111521 2.392879 -49.674463
-21.085191 2.048651 -25.557762
-21.111233 2.389136 -37.626047
-21.107521 2.340590 -47.657931
-21.105324 2.311868 -29.896037
-21.201936 3.575000 -42.189943
-21.360464 5.647632 -13.352975
-21.230281 3.945591 -10.082481
-21.393152 6.075010 -13.764469
-21.340995 5.393077 -34.165725
-21.366024 5.720323 -32.355690
-21.045013 1.523366 -37.501646
-21.415335 6.365035 -22.108280
-21.230306 3.945912 -12.252544
-21.047094 1.550550 -34.820911
-21.228844 3.926802 -22.422619
-21.306153 4.937573 -30.861736
-21.208297 3.658170 -42.317824
-21.336127 5.329446 -21.071025
-21.318577 5.100008 -52.912881
-21.456909 6.908586 -34.522126
-21.295771 4.801837 -23.912798
-21.143800 2.814913 -41.382715
-21.215347 3.750333 -44.202833
-21.404012 6.216992 -29.692239
-21.294907 4.790518 -13.057970
-21.052644 1.623118 -34.380421
-21.216872 3.770282 -37.206435
-21.110822 2.383758 -52.152877
-21.394840 6.097060 -26.300168
-21.336745 5.337494 -19.859286
-21.384363 5.960096 -24.370479
-21.329256 5.239628 -24.660806
-21.180823 3.298959 -32.530362
-20.970251 0.545884 -20.900345
-21.133539 2.680763 -35.598144
-21.298395 4.836113 -10.711132
-21.402684 6.199649 -29.077070
-21.270160 4.466982 -18.555818
-21.425465 6.497474 -25.338260
-21.304367 4.914209 -19.266293
-21.105906 2.319471 -36.327169
-21.061712 1.741680 -42.732394
-21.150509 2.902645 -33.520175
-21.351623 5.532055 -18.963089
-21.091933 2.136784 -43.104824
-21.368729 5.755694 -26.497347
-21.107858 2.345004 -40.328736
-20.953688 0.329340 -29.542743
-21.038082 1.432733 -35.979955
-21.117079 2.465570 -38.348230
-21.254258 4.259072 -44.462599
-21.077040 1.942073 -31.831111
-21.367094 5.734318 -15.480360
-21.051203 1.604290 -37.998850
-21.351114 5.525407 -23.495117
-21.279612 4.590565 -19.082346
-21.136223 2.715846 -45.238912
-21.169838 3.155336 -35.206012
-21.038474 1.437841 -32.733850
-21.216792 3.769219 -40.838634
-21.141695 2.787393 -47.511146
-21.175080 3.223872 -33.192613
-21.122855 2.541095 -38.657396
-21.318665 5.101147 -6.004296
-21.031388 1.345221 -40.351351
-21.141836 2.789236 -39.087869
-21.336258 5.331166 -19.988078
-21.296390 4.809926 -12.845498
-21.341631 5.401417 -16.687287
-21.136359 2.717624 -44.801916
-21.202191 3.578318 -40.940964
-21.391763 6.056833 -17.541326
-21.446136 6.767721 -33.191598
-21.045594 1.530945 -26.429282
-21.183256 3.330775 -36.835596
-21.111950 2.398530 -35.652334
-21.000725 0.944309 -35.643805
-21.007406 1.031667 -24.985157
-21.066680 1.806616 -48.117282
-21.264043 4.387007 -18.714089
-21.250448 4.209258 -3.603213
-21.445395 6.758036 -7.543590
-21.013971 1.117519 -32.858568
-21.164787 3.089313 -42.709632
-21.225670 3.885316 -14.328312
-21.176809 3.246477 -50.753969
-21.102124 2.270017 -31.994967
-21.037744 1.428333 -34.608720
-21.407190 6.258552 -37.311070
-21.353384 5.555063 -10.567895
-21.088119 2.086922 -36.998733
-21.034404 1.384640 -40.495966
-21.198146 3.525443 -39.851335
-21.239917 4.071578 -7.146429
-21.191859 3.443243 -51.721586
-21.064194 1.774120 -39.359055
-20.986987 0.764701 -43.934058
-21.194989 3.484173 -49.558096
-21.218380 3.789985 -8.173340
-21.149301 2.886829 -39.999302
-21.060593 1.727032 -32.490615
-21.201213 3.565537 -42.712216
-21.190804 3.429451 -33.490371
-21.157981 3.000334 -35.827643
-21.107159 2.335842 -44.041045
-21.348187 5.487123 -28.844500
-21.043944 1.509377 -36.693837
-21.419112 6.414431 -6.908289
-21.281840 4.619699 -8.671017
-21.283258 4.638206 -8.244502
-21.154105 2.949631 -41.762853
-21.162559 3.060156 -39.121259
-21.224469 3.869596 -44.899957
-21.304349 4.913961 -53.597881
-21.254883 4.267254 -44.608945
-21.369354 5.763858 -13.294014
-21.024519 1.255396 -26.588766
-21.113073 2.413197 -43.020526
-21.412688 6.330422 -5.373120
-21.400438 6.170251 -18.466498
-21.085993 2.059126 -40.585017
-21.229480 3.935114 -42.605751
-21.195771 3.494368 -40.947078
-21.305147 4.924397 -12.608823
-21.413988 6.347433 -18.163934
-21.363842 5.691789 -24.009121
-21.007854 1.037528 -30.322319
-21.361037 5.655137 -25.206344
-21.104120 2.296127 -29.709280
-21.364885 5.705415 -30.729645
-21.462747 6.984916 -29.609407
-21.375982 5.850508 -20.571948
-21.039218 1.447594 -42.116388
-21.103301 2.285431 -42.746644
-21.225703 3.885725 -2.239375
-21.178255 3.265392 -48.051281
-21.041330 1.475215 -31.069935
-21.445701 6.762048 -13.397340
-21.476532 7.165138 -31.184031
-21.268858 4.449944 -8.215057
-21.079829 1.978534 -43.644100
-20.987614 0.772892 -30.417711
-21.069789 1.847267 -33.402014
-21.255859 4.280009 -38.119238
-21.304105 4.910757 -7.025673
-21.096788 2.200261 -39.168108
-21.153597 2.943007 -14.992061
-21.136147 2.714841 -46.746451
-21.224687 3.872452 -45.975002
-21.248755 4.187111 -17.043930
-21.242345 4.103309 -38.116840
-21.404202 6.219481 -19.622148
-21.299954 4.856522 -20.612668
-21.341555 5.400414 -20.072096
-21.330122 5.250919 -19.814619
-21.174491 3.216180 -48.102356
-21.230833 3.952794 -49.754682
-21.359296 5.632338 -29.178693
-21.226116 3.891135 -44.539866
-21.083409 2.025335 -36.038357
-21.036260 1.408916 -39.910045
-21.172313 3.187693 -40.233581
-21.135557 2.707145 -44.030672
-21.444322 6.744009 -26.668591
-21.054267 1.644340 -46.514939
-21.058343 1.697647 -30.546022
-21.217445 3.777758 -50.624263
-21.456745 6.906430 -28.101929
-21.226418 3.895086 -48.724918
-21.503626 7.519365 -49.984546
-21.251683 4.225416 -19.026734
-21.314422 5.045666 -11.663581
-21.443969 6.739406 -11.888451
-20.992258 0.833609 -27.856179
-21.298444 4.836764 -19.002234
-21.157369 2.992333 -47.304082
-21.330705 5.258543 -14.186378
-21.295740 4.801410 -10.230643
-21.221455 3.830183 -10.960332
-21.168245 3.134499 -41.338389
-21.183574 3.334925 -49.740684
-21.078185 1.957042 -32.518883
-21.349924 5.509823 -23.901764
-21.390905 6.045616 -18.586167
-21.091311 2.128649 -34.609647
-21.028007 1.301012 -22.945491
-21.345000 5.445443 -22.778301
-21.087225 2.075222 -39.964090
-21.292593 4.760264 -14.929239
-21.322098 5.146047 -17.428693
-21.063193 1.761031 -32.107754
-21.197194 3.512976 -15.018119
-21.238593 4.054241 -50.573403
-21.113916 2.424209 -28.781383
-21.187751 3.389547 -45.521597
-21.138664 2.747783 -39.497885
-21.074937 1.914603 -33.771684
-21.172758 3.193507 -50.527326
-21.105767 2.317661 -36.517777
-21.230524 3.948771 -54.248307
-21.072209 1.878921 -31.257733
-21.282133 4.623524 -8.404768
-21.151417 2.914486 -32.248498
-21.280455 4.601582 -8.382316
-21.291895 4.751144 -20.568072
-21.049716 1.584826 -46.265733
-21.031584 1.347778 -36.333848
-21.344287 5.436128 -22.085160
-21.199315 3.540733 -42.659879
-21.402464 6.196749 -8.432990
-21.283934 4.647062 -24.761485
-21.086652 2.067757 -41.280854
-21.090351 2.116110 -46.870158
-21.084107 2.034465 -48.894616
-21.132924 2.672715 -35.749695
-21.025877 1.273158 -16.046021
-21.376682 5.859664 -27.472615
-21.102984 2.281265 -28.081758
-21.087444 2.078109 -21.178289
-21.425999 6.504460 -14.738246
-21.186653 3.375178 -11.614889
-21.384288 5.959120 -18.953540
-21.155973 2.974066 -32.638525
-21.254559 4.262987 -54.251503
-21.132182 2.663023 -42.934836
-21.271341 4.482445 -16.762451
-21.315549 5.060420 -11.265044
-21.289473 4.719479 -12.338532
-21.162462 3.058898 -35.733309
-21.188440 3.398548 -35.998513
-21.373962 5.824131 -15.345512
-21.376869 5.862091 -7.027351
-21.310685 4.996809 -14.495722
-21.114908 2.437171 -42.336878
-21.121032 2.517241 -43.670810
-21.053823 1.638535 -46.533002
-21.304003 4.909443 -18.573574
-21.428027 6.530965 -20.270557
-21.234740 4.003874 -47.762524
-21.386161 5.983616 -19.366839
-21.191709 3.441287 -46.617362
-21.107796 2.344195 -36.441616
-21.305909 4.934361 -19.365297
-21.380126 5.904708 -13.112594
-21.184394 3.345667 -44.623698
-21.124530 2.562976 -35.852827
-21.293129 4.767271 -20.980389
-21.351171 5.526143 -19.362857
-21.084082 2.034163 -41.820724
-21.277466 4.562502 -17.242255
-21.069921 1.848999 -43.402731
-21.288307 4.704232 -22.206919
-21.332649 5.283979 -7.030999
-21.364988 5.706774 -15.581842
-21.082776 2.017065 -34.091587
-20.965361 0.481940 -31.144135
-21.163207 3.068648 -43.604468
-21.089383 2.103450 -40.898818
-21.072979 1.888979 -39.514310
-21.391542 6.053943 -21.912253
-21.415505 6.367252 -21.216123
-21.173447 3.202524 -50.072381
-21.128090 2.609515 -43.577449
-21.088250 2.088660 -32.247671
-21.081476 2.000062 -35.495105
-21.159788 3.023929 -30.516644
-21.417207 6.389505 -23.054160
-21.065287 1.788412 -31.152623
-21.201267 3.566251 -38.005800
-21.335217 5.317552 -22.276374
-21.282747 4.631552 -11.926085
-21.192340 3.449545 -16.896641
-21.264374 4.391317 -5.802995
-21.316948 5.078689 -27.358778
-21.288433 4.705899 -57.713645
-21.449935 6.817415 -31.605990
-21.107344 2.338267 -31.219796
-21.346754 5.468381 -33.462148
-21.105327 2.311905 -34.230622
-21.380659 5.911677 -4.416294
-21.280205 4.598304 -17.029951
-21.094135 2.165586 -37.215465
-21.447831 6.789899 -21.944598
-21.097931 2.215194 -36.297839
-21.241120 4.087288 -17.084114
-21.123695 2.552070 -31.683207
-21.313698 5.036202 -12.927029
-21.061594 1.740132 -43.402753
-21.048478 1.568657 -30.120241
-21.353121 5.551637 -56.249911
-21.352434 5.542650 -13.656719
-21.391960 6.059423 -17.788850
-21.283782 4.645070 -16.390744
-21.435645 6.630566 -23.879857
-21.097196 2.205584 -41.467058
-21.042337 1.488354 -35.428360
-21.307882 4.960173 -19.382800
-21.132319 2.664805 -30.286753
-21.161875 3.051232 -41.593182
-21.158008 3.000657 -46.505382
-21.202382 3.580847 -38.659750
-21.089629 2.106670 -46.454724
-21.263107 4.374774 -18.437559
-21.196654 3.505936 -43.525026
-21.236822 4.031109 -14.934985
-21.365874 5.718376 -24.156402
-21.292606 4.760456 -17.466072
-21.280489 4.602038 -18.674033
-21.456407 6.902011 -28.430207
-21.013223 1.107725 -40.319577
-21.216534 3.765859 -14.613450
-21.086621 2.067356 -40.011615
-21.423519 6.472014 -9.784770
-21.080595 1.988533 -48.568642
-21.106121 2.322282 -2.706403
-21.327645 5.218527 -16.161803
-21.174710 3.219036 -39.882068
-21.101659 2.263951 -40.387637
-21.322966 5.157379 -15.637252
-21.188155 3.394812 -42.265759
-21.478053 7.185014 -30.878182
-21.143665 2.813143 -44.611366
-21.015791 1.141307 -44.231853
-21.329115 5.237787 -21.402673
-21.463700 6.997347 -24.010012
-21.251052 4.217145 -6.412435
-21.121804 2.527331 -42.676112
-20.990697 0.813215 -35.114099
-21.267669 4.434414 -9.387833
-21.112295 2.403013 -42.124862
-21.225952 3.888998 -4.657530
-21.185869 3.364939 -43.720856
-21.487193 7.304517 -35.041019
-21.201624 3.570926 -46.269777
-21.123094 2.544211 -40.189990
-21.254693 4.264760 -14.480118
-21.440656 6.696065 -29.443447
-21.209074 3.668317 -40.540454
-21.302914 4.895211 -9.672747
-21.155875 2.972779 -31.779636
-21.323444 5.163627 -18.475172
-21.478087 7.185466 -18.886517
-21.088877 2.096843 -35.893594
-21.112516 2.405890 -41.768651
-21.147113 2.858221 -25.781311
-21.359050 5.629145 -34.479656
-21.252783 4.239803 -43.914599
-21.259715 4.330404 -9.718975
-21.248825 4.188049 -21.232062
-21.097760 2.212987 -31.799672
-21.213005 3.719730 -19.641212
-21.333780 5.298752 -16.669335
-21.352320 5.541163 -17.166736
-21.241585 4.093389 -22.692354
-21.337281 5.344532 -22.374669
-21.211491 3.699928 -9.797123
-21.088231 2.088391 -33.701375
-21.097078 2.204038 -35.759258
-21.130807 2.645047 -30.934429
-21.092097 2.138930 -35.759024
-21.426033 6.504892 -26.439893
-21.198727 3.533043 -46.069973
-21.133373 2.678580 -38.362102
-21.292171 4.754757 -9.417330
-21.422763 6.462153 -15.335417
-21.323490 5.164228 -15.213464
-21.432448 6.588759 -31.570691
-21.087697 2.081407 -27.795580
-21.048466 1.568485 -46.457753
-21.133522 2.680520 -27.952716
-21.423948 6.477632 -22.060031
-21.375071 5.838597 -20.439391
-21.321455 5.137635 -25.176148
-21.334683 5.310573 -9.162204
-21.153930 2.947351 -44.044461
-21.073485 1.895619 -39.881760
-21.393276 6.076614 -9.776574
-21.307397 4.953819 -13.951853
-21.104635 2.302871 -36.843990
-21.375958 5.850202 -33.203341
-21.135178 2.702183 -36.426661
-21.310135 4.989630 -29.924019
-21.073899 1.901024 -33.615137
-21.404551 6.224043 -26.552034
-21.340907 5.391953 -37.460684
-21.190480 3.425217 -51.863346
-21.041046 1.471494 -30.739812
-21.151732 2.918616 -47.999751
-21.121898 2.528536 -43.199266
-21.012379 1.096684 -32.895765
-21.352784 5.547211 -27.188346
-21.150169 2.898186 -44.922438
-21.385313 5.972521 -18.701480
-21.426903 6.516283 -10.920419
-21.064790 1.781913 -42.897547
-21.317357 5.084032 -28.911726
-21.261946 4.359586 -11.003212
-21.374489 5.831012 -17.129783
-21.443310 6.730774 -19.557244
-21.305462 4.928508 -27.008063
-21.164031 3.079448 -35.432059
-21.308100 4.963027 -20.268442
-21.219958 3.810636 -6.798399
-21.112219 2.402019 -41.986982
-21.247340 4.168630 -49.071445
-21.217225 3.774874 -45.601035
-21.350660 5.519436 -22.167754
-21.131249 2.650809 -49.739995
-21.390410 6.039144 -6.482382
-21.084338 2.037519 -49.237238
-21.162611 3.060852 -35.987635
-21.104736 2.304171 -50.648999
-21.232598 3.975882 -13.887189
-21.448729 6.801631 -20.097908
-21.334358 5.306333 -29.414270
-21.382945 5.941558 -21.043378
-21.216388 3.763938 -3.548634
-21.128584 2.615973 -37.801862
-21.127717 2.604624 -10.016600
-21.310657 4.996438 -17.843954
-21.368823 5.756902 -15.363356
-21.112927 2.411277 -47.080660
-21.059905 1.718065 -37.968523
-21.209655 3.675911 -47.166869
-21.233308 3.985161 -44.222196
-21.372513 5.805158 -18.066414
-21.273771 4.514168 -18.703946
-21.229523 3.935675 -54.628883
-21.435291 6.625916 -34.104453
-21.340930 5.392248 -10.822575
-21.257812 4.305536 -15.801368
-20.993899 0.855058 -30.459796
-21.160729 3.036245 -43.941751
-21.247824 4.174942 -18.308868
-21.230347 3.946437 -17.913763
-21.158247 3.003818 -32.451370
-21.461518 6.968835 -38.505137
-21.297953 4.830341 -14.456035
-21.331585 5.270051 -17.687722
-21.219350 3.802687 -49.455276
-21.171282 3.174214 -46.272171
-21.270223 4.467790 -16.576772
-21.333661 5.297217 -17.219740
-21.158587 3.008234 -51.441357
-21.461996 6.975101 -28.114721
-21.449020 6.805421 -14.550059
-21.319954 5.118006 -14.460390
-21.433961 6.608556 -27.024157
-21.442791 6.723997 -31.967907
-21.133736 2.683330 -36.450655
-21.030882 1.338593 -17.937803
-21.423587 6.472905 -22.925085
-21.326818 5.207729 -17.818337
-21.074616 1.910377 -34.921067
-21.238965 4.059134 -46.055135
-21.314123 5.041740 -21.998195
-21.196825 3.508181 -41.999732
-21.388563 6.015000 -12.737552
-21.131246 2.650795 -44.950546
-21.058979 1.705933 -25.522430
-21.140218 2.768091 -43.577590
-21.015411 1.136320 -23.898935
-21.127039 2.595771 -30.212560
-21.122001 2.529897 -39.013343
-21.399954 6.163935 -16.773072
-21.036388 1.410574 -41.838725
-21.266927 4.424708 -21.925575
-21.149274 2.886461 -30.099663
-21.377199 5.866418 -30.544454
-21.300687 4.866096 -13.519904
-21.141692 2.787356 -38.694381
-21.275080 4.531289 -14.731192
-21.203045 3.589520 -37.942263
-21.221030 3.824636 -5.873186
-21.304839 4.920388 -14.810536
-21.358770 5.625499 -20.281248
-21.058639 1.701520 -41.691451
-21.395964 6.111761 -31.606098
-21.131074 2.648516 -35.769314
-21.145659 2.839223 -11.819519
-21.306255 4.938866 -6.026373
-21.264369 4.391265 -11.249657
-21.332137 5.277275 -25.257713
-21.070838 1.861004 -38.191036
-21.119366 2.495452 -45.856144
-21.220999 3.824235 -13.149164
-20.972058 0.569537 -33.191661
-21.341793 5.403533 -24.582653
-21.168493 3.137760 -7.134363
-21.376706 5.859997 -23.237561
-21.253637 4.250925 -19.219032
-21.277285 4.560134 -7.209809
-21.374034 5.825037 -21.463071
-21.307637 4.956957 -9.775978
-21.343503 5.425877 -19.173750
-21.154920 2.960271 -49.129149
-21.218316 3.789140 -46.334659
-21.164167 3.081203 -32.108733
-21.293958 4.778096 -15.337108
-21.057047 1.680698 -34.280371
-21.178236 3.265143 -35.939843
-21.106642 2.329104 -38.163606
-21.380873 5.914475 -28.388616
-21.085204 2.048817 -36.063515
-21.368541 5.753243 -15.381870
-21.176229 3.238910 -29.992607
-21.362164 5.669853 -10.585637
-21.306423 4.941091 -12.012620
-21.296314 4.808912 -8.744289
-21.005629 1.008443 -26.971280
-21.270383 4.469880 -15.634945
-21.389608 6.028654 -4.550911
-21.456321 6.900892 -20.176022
-21.353638 5.558407 -20.123574
-21.083466 2.026097 -39.545037
-21.207873 3.652623 -42.490749
-21.413437 6.340196 -28.090886
-21.337581 5.348442 -12.624806
-21.315053 5.053933 -49.213161
-21.380677 5.911907 -18.369389
-21.403211 6.206518 -30.833008
-21.439678 6.683301 -17.259944
-21.450534 6.825243 -22.621875
-21.229118 3.930393 -45.688885
-21.355712 5.585485 -11.899632
-21.102632 2.276679 -32.525698
-21.188694 3.401857 -44.283581
-21.314936 5.052394 -25.626518
-21.048676 1.571242 -45.947687
-21.403386 6.208821 -27.629059
-21.422412 6.457547 -12.061813
-21.380835 5.913963 -27.148415
-21.037722 1.428036 -37.982379
-21.358768 5.625476 -30.190676
-21.236079 4.021379 -9.264034
-21.147051 2.857434 -39.533265
-21.112716 2.408510 -47.524801
-21.377982 5.876664 -32.728367
-21.338622 5.362051 -14.776576
-21.408150 6.271079 -26.527611
-21.131709 2.656804 -42.474543
-21.224653 3.871996 -6.905638
-21.042172 1.486221 -33.245135
-21.079541 1.974790 -44.085970
-21.074371 1.907193 -37.708790
-21.144985 2.830412 -42.619894
-21.312131 5.015720 -18.139701
-21.198227 3.526500 -15.123368
-21.059908 1.718096 -26.656133
-21.456443 6.902479 -37.173001
-21.181775 3.311389 -40.666286
-21.008362 1.044195 -41.274152
-21.356829 5.600118 -10.562306
-21.226279 3.893245 -14.030649
-21.235009 4.007388 -14.447355
-21.245982 4.150846 -48.379167
-21.343957 5.431807 -3.724116
-21.159129 3.015332 -10.591232
-21.137852 2.737144 -40.851223
-21.098000 2.216108 -40.835764
-21.120211 2.506510 -34.343161
-21.295729 4.801268 -9.822570
-21.130554 2.641725 -41.245808
-21.340390 5.385167 -12.763795
-21.066387 1.802789 -35.747098
-21.300957 4.869621 -12.871355
-21.294366 4.783465 -15.117528
-21.327339 5.214553 -46.482002
-21.011611 1.086621 -30.422913
-21.157693 2.996553 -47.233029
-21.010309 1.069625 -30.367956
-21.388775 6.017779 -27.960498
-21.171312 3.174629 -46.295892
-21.150745 2.905710 -34.463890
-21.269188 4.454262 -45.896988
-21.112061 2.399949 -41.690792
-21.307282 4.952324 -16.401329
-21.262526 4.367177 -51.466880
-21.113410 2.417584 -32.383347
-21.437163 6.650430 -23.919663
-20.996007 0.882614 -35.800527
-21.341968 5.405821 -21.894821
-21.294656 4.787224 -22.340129
-21.308492 4.968130 -20.999919
-21.357793 5.612725 -15.102413
-21.089139 2.100277 -40.347734
-21.284959 4.660447 -16.889043
-21.081987 2.006758 -43.590739
-21.118762 2.487557 -48.870082
-21.103679 2.290367 -43.445845
-21.067721 1.820237 -35.998740
-21.003384 0.979078 -31.937222
-21.148308 2.873857 -12.120884
-21.445601 6.760721 -22.151408
-21.373897 5.823245 -15.061695
-21.249696 4.199411 -54.262953
-21.137021 2.726280 -49.648639
-21.075457 1.921372 -53.411731
-21.159970 3.026342 -49.830175
-21.412647 6.329870 -7.304706
-21.118456 2.483556 -33.125997
-21.291841 4.750453 -6.810010
-21.164885 3.090589 -7.066565
-21.209679 3.676223 -13.469708
-21.239542 4.066681 -43.727286
-21.315319 5.057391 -20.876868
-21.134355 2.691418 -45.290729
-21.159794 3.024030 -41.618805
-21.058243 1.696320 -29.452184
-21.294161 4.780782 -13.106688
-20.977959 0.646688 -25.540270
-21.376467 5.856858 -5.407252
-21.319751 5.115349 -27.624397
-21.396588 6.119932 -25.778144
-21.230472 3.948099 -14.208022
-21.235907 4.019132 -10.178548
-21.122436 2.535583 -29.914187
-21.280925 4.607729 -12.575422
-21.135877 2.711323 -37.838753
-21.418589 6.407562 -25.804891
-21.043319 1.501190 -34.262517
-21.079905 1.979526 -33.372388
-21.183571 3.334894 -53.665835
-21.315065 5.054073 -14.646605
-21.348755 5.494560 -25.862872
-21.005865 1.011545 -40.132387
-21.369835 5.770166 -4.894383
-21.150255 2.899309 -35.186169
-21.410643 6.303693 -24.488659
-21.191418 3.437504 -39.724943
-20.983531 0.719514 -27.267514
-21.282319 4.625945 -8.192015
-21.247185 4.166598 -7.119408
-21.209571 3.674824 -39.997584
-21.188053 3.393477 -40.503901
-21.398919 6.150382 -5.934754
-21.251801 4.226941 -20.867788
-21.446726 6.775434 -20.014832
-21.368955 5.758650 -13.897950
-21.412088 6.322585 -17.464590
-21.133396 2.678886 -40.020810
-21.399209 6.154178 -17.353014
-21.005101 1.001519 -17.256229
-21.189833 3.416745 -17.438320
-21.189327 3.410139 -48.289284
-21.277267 4.559899 -13.483958
-21.348138 5.486453 -31.699495
-21.066486 1.804075 -36.414380
-21.206176 3.630447 -40.688798
-21.375024 5.837999 -17.564132
-21.112225 2.402101 -28.105983
-21.202616 3.583891 -52.782627
-21.094833 2.174721 -32.500506
-20.984304 0.729635 -32.759290
-21.103715 2.290831 -39.744890
-21.281420 4.614196 -21.355044
-21.062756 1.755316 -37.644078
-21.001779 0.958096 -31.865015
-21.356640 5.597632 -16.076811
-21.130993 2.647479 -35.228636
-21.133640 2.682059 -41.013871
-21.027973 1.300573 -34.815030
-21.107245 2.336965 -32.465983
-21.098987 2.229024 -45.253944
-21.421425 6.444634 -29.700887
-21.131891 2.659211 -45.839905
-21.077627 1.949744 -47.111112
-21.001234 0.950977 -32.087650
-21.163573 3.073444 -35.936478
-21.112855 2.410335 -50.374071
-21.309024 4.975107 -17.616947
-21.152023 2.922411 -36.330878
-21.317184 5.081768 -15.025901
-21.274538 4.524222 -10.963263
-21.206995 3.641117 -33.945781
-21.327304 5.214120 -25.213188
-21.296570 4.812275 -9.942483
-21.418398 6.405091 -20.020167
-21.386321 5.985693 -26.199647
-21.375843 5.848695 -12.041540
-21.173090 3.197859 -44.899990
-21.329029 5.236646 -21.039738
-21.176952 3.248349 -32.776386
-21.295776 4.801877 -21.391964
-21.256920 4.293868 -13.987714
-21.131816 2.658233 -25.644735
-21.381189 5.918581 -3.529375
-21.177467 3.255068 -46.933165
-21.241454 4.091658 -14.480575
-21.284965 4.660526 -15.687068
-21.342392 5.411356 -35.051619
-21.181205 3.303962 -42.539510
-21.222549 3.844523 -8.902891
-21.043856 1.508217 -32.335277
-21.301594 4.877949 -22.476203
-21.254986 4.268576 -16.988643
-21.353262 5.553450 -21.839591
-21.171556 3.177801 -33.040579
-21.082724 2.016397 -32.917900
-21.429505 6.550272 -28.815442
-21.052238 1.617803 -44.446363
-21.369169 5.761448 -16.757602
-21.126656 2.590764 -38.877368
-21.056093 1.668216 -28.636683
-21.275183 4.532656 -44.516749
-21.076696 1.937566 -33.350816
-21.061303 1.736342 -48.886752
-21.390920 6.045830 -33.567917
-21.357315 5.606477 -26.702541
-21.076749 1.938276 -21.265367
-21.442421 6.719162 -29.683127
-21.052650 1.623172 -29.725158
-21.271840 4.488946 -17.819685
-21.418325 6.404095 -39.694431
-21.312066 5.014882 -16.230890
-21.292641 4.760879 -9.851482
-21.138274 2.742682 -39.230184
-21.121004 2.516862 -39.781991
-21.182878 3.325827 -46.395265
-21.442194 6.716191 -30.004593
-21.310399 4.993065 -16.212962
-21.262196 4.362849 -51.025250
-21.363257 5.684138 -25.524533
-21.306632 4.943810 -9.355441
-21.061090 1.733556 -36.435937
-21.156598 2.982245 -38.352511
-21.363962 5.693361 -12.555105
-21.276086 4.544473 -53.164709
-21.309174 4.977050 -8.160709
-21.080078 1.981809 -43.571684
-21.248457 4.183234 -9.654006
-21.196592 3.505145 -45.969517
-21.480301 7.214428 -13.399429
-21.329832 5.247136 -11.395922
-21.375132 5.839383 -26.800720
-21.186688 3.375640 -47.129800
-21.276414 4.548739 -54.336118
-21.448414 6.797520 -13.166358
-21.193055 3.458888 -49.489056
-21.272568 4.498456 -44.072407
-21.257546 4.302057 -11.437436
-21.361346 5.659173 -24.714130
-21.111200 2.388673 -41.138868
-21.092966 2.150312 -38.100755
-20.988962 0.790532 -20.610804
-21.441052 6.701254 -31.901219
-21.029294 1.317842 -33.902136
-21.082427 2.012485 -22.732235
-21.337355 5.345497 -16.571372
-21.156840 2.985410 -35.034868
-21.104197 2.297147 -39.691689
-21.272967 4.503672 -13.078913
-21.352771 5.547022 -16.615871
-21.397417 6.130777 -8.889391
-21.391855 6.058035 -17.651364
-21.151089 2.910228 -50.043651
-21.191665 3.440709 -38.896262
-21.046735 1.545857 -24.890171
-21.409521 6.289005 -10.021019
-21.386691 5.990514 -8.654805
-21.327458 5.216111 -16.453171
-21.246114 4.152588 -20.462302
-21.393579 6.080576 -29.692235
-21.110961 2.385578 -46.136164
-21.269630 4.460034 -5.883671
-21.433428 6.601577 -22.449997
-21.139655 2.760728 -38.318347
-21.334432 5.307286 -24.961035
-21.326599 5.204872 -31.423343
-21.109250 2.363204 -27.584137
-21.092299 2.141589 -37.964244
-21.370501 5.778864 -11.949552
-21.125766 2.579139 -31.382799
-21.311187 5.003360 -17.081344
-21.356272 5.592811 -24.842189
-21.170728 3.166981 -44.477920
-21.045829 1.534020 -38.975057
-21.197331 3.514806 -11.899202
-21.084591 2.040795 -24.246120
-21.265455 4.405472 -18.829445
-21.346687 5.467532 -11.661954
-21.101763 2.265314 -36.320281
-21.363600 5.688626 -20.771055
-21.212577 3.714127 -13.617088
-21.357227 5.605298 -19.075978
-21.345232 5.448483 -16.442042
-21.406489 6.249375 -28.931764
-21.278298 4.573377 -9.768744
-21.141491 2.784729 -40.056105
-21.473787 7.129258 -30.619833
-21.267947 4.438030 -16.071280
-21.417164 6.388942 -35.993156
-21.378439 5.882637 -20.173651
-21.244606 4.132889 -6.049746
-21.360079 5.642596 -13.500604
-21.208348 3.658825 -13.849378
-21.412501 6.327979 -29.329213
-21.359001 5.628522 -12.017064
-21.165943 3.104426 -6.024277
-20.993664 0.851993 -28.441492
-21.412637 6.329738 -31.987015
-21.282352 4.626383 -45.983905
-21.277093 4.557626 -41.849120
-21.164463 3.085086 -36.375018
-21.282653 4.630303 -16.015016
-21.100480 2.248550 -36.186065
-21.180888 3.299812 -46.262094
-21.227271 3.906216 -17.370045
-21.189331 3.410200 -12.427790
-21.377353 5.868422 -14.158520
-21.396541 6.119297 -20.262448
-21.152248 2.925359 -33.340513
-21.383993 5.955267 -30.908139
-21.445858 6.764095 -18.495530
-21.401370 6.182447 -22.638333
-21.229039 3.929352 -39.897096
-21.222375 3.842211 -45.196087
-21.404684 6.225775 -11.060940
-21.418433 6.405546 -10.609543
-21.095733 2.186476 -40.091885
-21.074993 1.915318 -29.006980
-21.168650 3.139827 -31.114626
-20.998961 0.921233 -33.960216
-21.291891 4.751085 -11.737301
-21.369216 5.762043 -18.646548
-21.498178 7.448134 -14.120254
-21.351996 5.536909 -17.995592
-21.237877 4.044914 -35.703628
-21.304669 4.918169 -15.612933
-21.107248 2.337034 -39.680097
-21.247870 4.175544 -17.963712
-21.342954 5.418691 -22.813300
-21.148117 2.871353 -48.116228
-21.026265 1.278231 -26.600815
-21.173604 3.204566 -44.429832
-21.292914 4.764473 -20.304583
-21.064723 1.781027 -41.524970
-21.150690 2.904994 -37.329052
-21.251549 4.223640 -47.093469
-21.283631 4.643089 -18.721913
-21.055587 1.661608 -27.821952
-21.394334 6.090453 -12.566854
-21.157141 2.989342 -6.595899
-21.095691 2.185932 -24.023629
-21.170832 3.168327 -38.582076
-21.177400 3.254203 -42.747817
-21.118694 2.486685 -41.266009
-21.252801 4.240028 -16.764858
-21.147120 2.858307 -43.209977
-21.117432 2.470167 -39.704263
-21.138069 2.739986 -51.534749
-21.341350 5.397724 -6.019339
-21.032704 1.362410 -43.787647
-21.357013 5.602504 -16.393061
-21.349749 5.507538 -12.816261
-21.333498 5.295070 -17.034618
-21.133927 2.685837 -43.879745
-21.324332 5.175237 -15.185867
-21.189939 3.418143 -13.091888
-21.406352 6.247593 -22.602734
-21.095804 2.187408 -48.315484
-21.174155 3.211796 -51.057242
-21.373416 5.816966 -11.299738
-21.433965 6.608584 -27.861897
-21.326090 5.198198 -26.102437
-21.276192 4.545840 -8.188396
-21.162374 3.057753 -40.403655
-21.305940 4.934766 -21.765261
-21.154796 2.958690 -41.039380
-21.334275 5.305209 -16.168591
-21.080364 1.985532 -41.448175
-21.126012 2.582354 -40.928978
-21.269032 4.452230 -20.466567
-21.109965 2.372552 -41.483660
-21.365204 5.709602 -16.529461
-21.222258 3.840674 -33.051164
-21.206828 3.638950 -17.752725
-21.223655 3.858975 -11.768693
-21.197514 3.517192 -42.108135
-21.425228 6.494376 -38.942875
-21.131943 2.659881 -38.176647
-21.129548 2.628569 -41.551063
-21.084250 2.036332 -33.922615
-21.145540 2.837677 -44.122180
-21.181730 3.310803 -39.423893
-21.363358 5.685473 -13.791481
-21.031037 1.340610 -39.719907
-21.262840 4.371275 -15.378763
-21.274279 4.520823 -20.024938
-21.461792 6.972418 -38.072567
-21.337112 5.342303 -15.227858
-21.255871 4.280164 -10.815578
-21.338782 5.364160 -9.708868
-21.250085 4.204530 -48.590736
-21.134183 2.689185 -50.376529
-21.071649 1.871591 -39.202166
-21.255358 4.273450 -12.255473
-21.091404 2.129871 -30.590609
-21.042843 1.494970 -26.662803
-21.372910 5.810348 -18.279698
-21.283255 4.638175 -2.799300
-21.176218 3.238751 -48.266481
-21.337798 5.351301 -27.365795
-21.183567 3.334842 -35.250153
-21.376314 5.854855 -15.821886
-21.273473 4.510302 -9.815759
-21.355496 5.582688 -7.063520
-21.175341 3.227296 -37.938334
-21.217743 3.781675 -43.851643
-21.087321 2.076497 -32.656214
-21.384666 5.964049 -14.425012
-21.073281 1.892929 -47.616577
-21.066396 1.802915 -25.678710
-21.164865 3.090321 -44.507736
-21.258608 4.315943 -47.843952
-21.276350 4.547920 -9.018853
-21.119723 2.500130 -34.414918
-21.252574 4.237029 -39.560562
-21.215656 3.754373 -4.849551
-21.125834 2.580015 -48.823563
-21.265206 4.402203 -13.271534
-21.254412 4.261078 -49.411917
-21.330998 5.262376 -13.342185
-21.296624 4.812987 -22.563782
-21.401808 6.188179 -11.008083
-21.122692 2.538945 -45.616604
-21.059130 1.707913 -45.233938
-21.121909 2.528712 -32.542566
-21.229208 3.931549 -45.997514
-21.135219 2.702726 -37.517457
-21.385887 5.980029 -6.942781
-21.214775 3.742863 -17.594110
-21.054091 1.642031 -36.942384
-21.079894 1.979388 -31.935138
-21.091868 2.135959 -47.754097
-21.371510 5.792045 -11.200875
-21.359879 5.639997 -9.909194
-21.375234 5.840737 -20.631737
-21.369038 5.759732 -6.138647
-21.276211 4.546085 -20.479192
-21.290066 4.727233 -16.972784
-21.290939 4.738645 -16.832474
-20.994078 0.857413 -29.376748
-21.464224 7.004232 -10.458980
-21.284776 4.658060 -21.777494
-21.091618 2.132669 -34.145075
-21.370517 5.779068 -30.986953
-21.271713 4.487278 -18.446828
-21.245381 4.143002 -43.326512
-21.163438 3.071665 -30.700077
-21.356151 5.591245 -23.248355
-21.446588 6.773660 -31.661233
-21.415097 6.361928 -20.359129
-21.418134 6.401623 -27.440040
-21.025596 1.269459 -24.504407
-21.314807 5.050701 -22.587161
-21.409533 6.289183 -24.355824
-21.384462 5.961386 -32.272830
-21.067826 1.821597 -37.188831
-21.208598 3.662104 -14.128411
-21.117952 2.476966 -48.826655
-21.003416 0.979513 -43.794644
-21.045008 1.523300 -26.651572
-21.167294 3.122078 -40.301507
-21.237218 4.036286 -19.132581
-21.274241 4.520346 -17.208293
-21.230895 3.953616 -42.294984
-21.290455 4.732330 -14.070498
-21.023160 1.237633 -21.675960
-21.383161 5.944376 -11.440363
-21.350604 5.518712 -18.926100
-21.459662 6.944580 -23.980157
-21.165340 3.096518 -41.118123
-21.088835 2.096294 -40.845624
-21.322492 5.151180 -19.665563
-21.045305 1.527144 -47.902689
-21.206995 3.641130 -44.408688
-21.174064 3.210580 -40.040323
-21.070971 1.862732 -41.500370
-21.081273 1.997422 -32.109916
-21.330010 5.249491 -18.754386
-21.079137 1.969487 -46.619975
-21.163430 3.071581 -35.656233
-21.215505 3.752402 -38.542417
-21.194502 3.477803 -2.070941
-21.232582 3.975667 -5.859018
-21.197748 3.520226 -50.031063
-21.085266 2.049630 -51.164903
-21.108782 2.357091 -28.914021
-21.095170 2.179111 -42.069471
-21.448360 6.796804 -11.503115
-21.469915 7.078624 -32.391791
-21.132459 2.666629 -34.345042
-21.324975 5.183648 -27.409377
-21.076268 1.931976 -48.145020
-21.064416 1.777020 -25.457435
-21.277648 4.564874 -18.125335
-21.268845 4.449771 -19.168725
-21.331396 5.267593 -15.830644
-21.317102 5.080701 -11.708057
-21.103604 2.289386 -32.540229
-21.386209 5.984237 -19.635917
-20.995554 0.876689 -38.392261
-21.188138 3.394594 -36.715441
-21.167106 3.119616 -35.913091
-21.264467 4.392541 -19.411115
-21.122808 2.540465 -36.859686
-21.189237 3.408984 -39.983168
-21.358249 5.618659 -24.079832
-21.313692 5.036118 -21.706970
-21.345113 5.446933 -15.623917
-21.188713 3.402115 -13.005811
-21.379439 5.895722 -22.461138
-21.326513 5.203745 -13.366049
-21.224998 3.876514 -14.295345
-21.099498 2.235705 -38.318965
-21.303247 4.899571 -20.630352
-21.044759 1.520010 -53.332156
-21.139717 2.761542 -7.178641
-21.109830 2.370780 -45.335456
-21.258209 4.310723 -4.568222
-21.163826 3.076746 -37.047073
-21.202147 3.577743 -11.887153
-21.099169 2.231401 -29.416310
-21.119191 2.493176 -27.771298
-21.223913 3.862331 -36.400112
-21.289473 4.719495 -41.256263
-21.191369 3.436853 -46.703528
-21.200252 3.552960 -36.551296
-21.404872 6.228219 -22.459322
-21.311435 5.006593 -21.591949
-21.223223 3.853331 -47.226999
-21.116179 2.453803 -48.099891
-21.124744 2.565783 -41.278419
-21.368355 5.750806 -19.792098
-21.345968 5.458117 -22.202743
-21.351186 5.526331 -21.939281
-21.341530 5.400085 -11.523258
-21.260543 4.341223 -46.120709
-21.085478 2.052394 -39.803386
-21.420180 6.428378 -19.183424
-21.093705 2.159960 -33.987054
-21.099739 2.238859 -39.829937
-21.031425 1.345705 -20.068693
-21.080314 1.984884 -45.296736
-21.033583 1.373913 -18.189746
-21.014874 1.129312 -34.014528
-21.210611 3.688423 -44.544374
-21.357667 5.611074 -26.953755
-21.408208 6.271847 -32.015034
-21.167388 3.123302 -46.172280
-21.248359 4.181962 -9.189588
-21.133033 2.674139 -37.851031
-21.327271 5.213655 -12.702466
-21.044420 1.515583 -38.620204
-21.348126 5.486342 -24.925715
-21.443027 6.727095 -18.128240
-21.165108 3.093489 -36.454938
-21.031243 1.343318 -17.950276
-21.374661 5.833253 -22.082634
-21.393905 6.084842 -28.076688
-21.180560 3.295513 -40.275263
-21.182953 3.326835 -1.389935
-21.434893 6.620741 -6.100526
-21.123304 2.546946 -49.054749
-21.447863 6.790303 -19.590952
-21.361708 5.663903 -16.530155
-21.386434 5.987154 -15.003744
-21.192777 3.455242 -45.709924
-21.353157 5.552109 -26.127514
-21.387417 6.000039 -17.858692
-21.222958 3.849875 -17.942817
-21.305172 4.924730 -19.123105
-21.040533 1.464779 -36.629278
-21.161144 3.041656 -37.434370
-21.414564 6.354963 -21.403974
-21.186507 3.373265 -50.407895
-20.981247 0.689657 -18.744373
-21.403103 6.205082 -17.908124
-21.461388 6.967131 -22.960014
-21.078630 1.962854 -38.367187
-21.130824 2.645269 -48.652505
-21.320826 5.129373 -16.888663
-21.107521 2.340579 -39.918992
-21.065360 1.789370 -28.699432
-21.236097 4.021631 -14.044099
-21.188883 3.404360 -11.749112
-21.385627 5.976628 -24.416773
-21.036224 1.408456 -44.375522
-21.319490 5.111919 -13.891687
-21.098511 2.222799 -37.847684
-21.374635 5.832911 -21.435412
-21.369192 5.761728 -12.322720
-21.257362 4.299660 -14.890012
-21.014056 1.118637 -34.258263
-21.288274 4.703806 -19.655953
-21.289648 4.721778 -16.914282
-21.424503 6.484887 -35.631129
-21.075963 1.928000 -37.705346
-21.081175 1.996140 -39.785958
-21.086924 2.071287 -38.901470
-21.409967 6.294836 -24.792005
-21.182706 3.323580 -45.801668
-21.136167 2.715131 -39.341041
-21.333564 5.295934 -10.238725
-21.015492 1.137378 -35.223863
-21.373226 5.814499 -24.598185
-21.229587 3.936508 -40.056481
-21.205869 3.626438 -35.042164
-21.356257 5.592638 -21.505956
-21.343745 5.429035 -17.111529
-21.176043 3.236469 -32.423713
-21.222688 3.846314 -14.576379
-21.012849 1.102834 -17.998290
-21.186162 3.368767 -42.253294
-21.264415 4.391863 -19.559334
-21.020751 1.206146 -32.062280
-21.249745 4.200076 -43.264610
-21.056674 1.675806 -36.707138
-21.159056 3.014402 -34.218385
-21.087289 2.076071 -25.437527
-21.235474 4.013474 -4.547205
-21.155071 2.962280 -43.323765
-21.062110 1.746887 -15.679311
-21.276005 4.543407 -42.211603
-21.354198 5.565720 -27.511581
-21.122266 2.533369 -41.714665
-21.142282 2.795081 -46.949637
-21.347540 5.478655 -13.416417
-21.087562 2.079658 -43.779040
-21.201150 3.564722 -46.638558
-21.345940 5.457737 -19.936919
-20.991625 0.825338 -35.143625
-21.106347 2.325237 -32.753263
-21.424606 6.486237 -27.960339
-21.251644 4.224879 -39.880753
-21.054199 1.643454 -28.002551
-21.137572 2.733486 -35.487835
-21.354601 5.570986 -19.820098
-21.422029 6.452533 -37.272830
-21.038155 1.433699 -29.912214
-21.189395 3.411064 -7.423454
-21.377460 5.869839 -6.291574
-21.072730 1.885726 -37.426166
-21.043286 1.500787 -28.948212
-21.005128 1.001871 -32.400637
-21.441476 6.706807 -13.017986
-21.355523 5.583026 -17.327736
-21.290784 4.736627 -17.730939
-21.229781 3.939044 -41.090412
-21.149511 2.889571 -38.530461
-21.393506 6.079636 -17.358692
-21.108285 2.350599 -48.687653
-21.094056 2.164529 -38.757032
-21.043179 1.499370 -17.733508
-20.980074 0.674331 -33.520430
-21.119671 2.499449 -31.857426
-21.333690 5.297590 -20.586216
-21.167855 3.129406 -37.622580
-21.285438 4.666730 -21.439967
-21.100081 2.243325 -36.501385
-21.085316 2.050283 -40.602829
-21.373850 5.822636 -13.533163
-21.305905 4.934318 -21.219713
-21.176775 3.246024 -39.554819
-21.095227 2.179869 -37.334368
-21.134310 2.690856 -50.048409
-21.266787 4.422870 -2.139127
-21.000272 0.938394 -37.383297
-21.051356 1.606283 -16.169530
-21.046363 1.540982 -38.952134
-21.105388 2.312675 -43.013985
-21.064322 1.775807 -42.226585
-21.210305 3.684427 -12.426374
-21.126825 2.592974 -35.854293
-21.151006 2.909122 -7.974175
-21.168137 3.133108 -39.290809
-21.357204 5.605021 -26.962943
-21.283217 4.637675 -19.595035
-21.319857 5.116725 -23.945809
-21.123300 2.546889 -39.539808
-21.398470 6.144533 -25.533806
-21.147558 2.864021 -38.458802
-21.162240 3.056020 -8.458153
-21.205490 3.621469 -11.120812
-21.135681 2.708764 -34.519007
-21.181631 3.309524 -9.451167
-21.339903 5.378810 -14.867727
-21.115059 2.439134 -44.146035
-21.349664 5.506446 -14.054840
-21.420968 6.438687 -26.726860
-21.013897 1.116523 -41.852151
-21.138727 2.748582 -45.890201
-21.388510 6.014305 -13.320489
-21.390806 6.044337 -19.387580
-21.056096 1.668247 -38.216641
-21.072441 1.881943 -38.357865
-21.358924 5.627502 -20.743582
-20.977248 0.637387 -26.198140
-21.026432 1.280411 -40.988489
-21.039037 1.445214 -32.311247
-21.054930 1.652997 -37.746625
-21.389988 6.033651 -24.287371
-21.195035 3.484785 -32.172190
-21.053074 1.628722 -27.895085
-21.391337 6.051276 -7.950778
-21.154069 2.949169 -43.783087
-21.392154 6.061947 -27.765855
-21.180049 3.288840 -46.251532
-21.225685 3.885516 -13.100590
-21.323565 5.165183 -13.239437
-21.181470 3.307405 -45.958106
-21.006536 1.020282 -45.760532
-21.292548 4.759686 -18.666389
-21.230076 3.942926 -40.693137
-21.290789 4.736705 -13.687886
-21.292219 4.755390 -15.176879
-21.134714 2.696120 -31.565279
-21.101568 2.262772 -7.787735
-21.386869 5.992868 -10.281212
-21.033964 1.378880 -28.088529
-21.009163 1.054626 -28.385731
-21.306212 4.938323 -23.717564
-21.094319 2.167988 -43.845783
-21.355911 5.588125 -16.816009
-21.283055 4.635576 -22.811731
-21.011412 1.084027 -34.422481
-21.440747 6.697268 -14.238794
-21.423363 6.469972 -32.560954
-21.482068 7.237511 -33.076233
-21.373749 5.821320 -21.937343
-21.048952 1.574853 -32.922249
-21.419114 6.414436 -22.490466
-21.119357 2.495327 -34.889420
