5.141531 34.085180 -44.804122
4.543954 34.043667 -5.330744
1.074083 33.802617 -15.815758
2.395021 33.894382 3.303493
4.196870 34.019555 -6.224657
2.378280 33.893219 -24.153483
7.795846 34.269573 -12.841445
5.503510 34.110326 -18.888690
6.406569 34.173061 -50.875268
6.180828 34.157379 -26.230301
1.255279 33.815205 -61.040256
4.995771 34.075054 -57.175384
8.378251 34.310032 -43.290528
3.377294 33.962619 -13.347991
4.194856 34.019415 -58.081463
7.846555 34.273096 -61.066311
0.924007 33.792192 -3.100820
7.059733 34.218436 -32.397677
6.842252 34.203328 -18.737095
1.733775 33.848445 -35.822245
1.663232 33.843545 -39.321477
3.509181 33.971782 -24.709065
4.632508 34.049818 -28.453889
5.115087 34.083343 -4.459048
2.825047 33.924255 -33.389758
3.629660 33.980151 -4.354693
5.713423 34.124909 -7.151200
8.493666 34.318050 -20.700997
4.854021 34.065207 -34.846707
4.902500 34.068574 -21.070964
7.564560 34.253506 -30.996533
3.643062 33.981082 -46.788029
6.307110 34.166152 1.925681
4.821930 34.062977 -25.774255
5.032746 34.077623 -32.107346
3.477605 33.969588 -40.624154
5.421742 34.104646 -15.061454
4.849234 34.064874 -42.375386
2.829672 33.924577 2.899009
2.291398 33.887183 -45.808384
7.613574 34.256911 -6.445550
2.316369 33.888918 -27.517884
6.357282 34.169637 -11.612876
7.309545 34.235790 -5.363539
6.266450 34.163327 -58.195673
7.916903 34.277983 -39.471921
4.534132 34.042984 -12.266293
2.910322 33.930179 -20.015491
5.022065 34.076881 0.177003
6.652760 34.190164 -8.893709
1.047522 33.800772 -49.263721
7.754237 34.266682 -15.360973
7.748462 34.266281 -43.423450
7.723194 34.264526 -54.252944
3.754426 33.988819 -29.185291
3.109995 33.944050 -25.997441
7.981372 34.282461 -19.762441
2.923622 33.931103 -52.444520
6.690879 34.192812 -57.813669
1.834435 33.855438 -4.512436
6.977513 34.212724 -21.358263
2.529940 33.903754 -56.172707
1.572005 33.837207 -56.553595
6.642821 34.189473 -2.548947
6.656684 34.190436 -36.131967
1.377573 33.823700 -29.200509
2.375587 33.893032 -46.454010
3.507561 33.971669 -17.364825
8.528699 34.320484 -19.049918
4.543641 34.043645 -50.961287
3.153050 33.947041 -14.106438
8.304994 34.304943 -1.692023
3.021556 33.937907 -53.030395
8.397984 34.311403 -25.960159
4.227177 34.021660 -30.253311
1.364827 33.822815 -28.545642
7.982595 34.282546 -4.531918
7.733956 34.265274 -44.156521
3.798183 33.991858 -49.398271
2.518098 33.902932 -14.339959
8.489245 34.317743 -34.257296
1.733916 33.848455 -29.694100
4.677090 34.052915 -61.045616
4.237863 34.022403 -35.666378
6.333340 34.167974 -58.766834
4.822492 34.063016 -26.614145
5.120580 34.083724 -46.563930
8.539535 34.321237 -41.360124
7.876400 34.275169 -26.794861
2.554730 33.905477 -57.347812
4.026511 34.007720 -22.193469
2.455847 33.898607 -5.702813
5.552271 34.113714 -57.008752
2.596563 33.908383 -32.828928
3.864747 33.996483 3.164948
3.655885 33.981973 -38.701780
6.018705 34.146116 1.341946
1.849551 33.856488 2.437078
2.993462 33.935955 -29.114024
1.044025 33.800529 -50.272185
5.445515 34.106297 -49.209999
7.610304 34.256684 -7.651764
7.043083 34.217279 -30.561401
7.220122 34.229578 -24.993661
2.206672 33.881297 -33.939290
2.998082 33.936276 -4.504309
1.870668 33.857955 3.712535
2.790144 33.921831 -34.142682
7.522565 34.250588 -27.783845
4.125620 34.014605 -51.530799
4.367908 34.031437 -13.945951
3.824744 33.993704 -5.743216
7.421393 34.243560 -54.782744
5.499923 34.110077 -20.953916
1.436043 33.827762 -2.630087
8.547988 34.321824 -39.080333
3.966742 34.003568 -59.953410
8.510858 34.319244 -31.412590
6.922679 34.208915 -34.071038
6.573842 34.184681 -38.596513
7.245281 34.231326 -2.681832
4.594494 34.047178 -3.831929
5.913768 34.138826 -55.337549
3.600769 33.978144 -31.996031
4.512844 34.041505 -17.860691
8.574910 34.323694 -47.804758
3.109939 33.944047 -18.098468
1.747053 33.849368 -40.722913
5.590819 34.116391 -44.202980
6.352364 34.169295 -3.624802
6.746818 34.196698 -47.561062
1.677203 33.844515 -3.259875
5.982344 34.143590 -8.868323
8.421799 34.313058 2.928332
3.766938 33.989688 -14.037572
5.316353 34.097324 -10.552425
6.137467 34.154367 -8.259483
8.439254 34.314270 -50.170979
1.145282 33.807563 -36.110011
6.591640 34.185918 -13.035606
4.773940 34.059643 -37.429610
2.117340 33.875091 -20.804235
4.408844 34.034281 -1.063123
4.023763 34.007529 -60.966297
6.105781 34.152165 -13.541947
5.167420 34.086978 -23.399189
2.096057 33.873613 -10.699297
2.254664 33.884631 -3.001903
4.100070 34.012830 -20.338378
2.493095 33.901195 -37.950580
4.506652 34.041075 -13.241162
7.883090 34.275634 -44.774455
7.306457 34.235576 -4.642428
7.982186 34.282518 -5.835231
1.025755 33.799260 -17.670715
1.404984 33.825605 -18.111204
1.752098 33.849718 -27.807271
7.916200 34.277934 -56.131976
2.117368 33.875093 -47.676163
1.846172 33.856254 -1.038279
1.441606 33.828149 -10.669819
2.450259 33.898219 -53.503754
4.123074 34.014428 -44.626393
8.322851 34.306184 -49.523862
3.974413 34.004101 -4.925639
3.109066 33.943986 -29.647136
4.274293 34.024933 -21.007769
4.886203 34.067442 -1.931078
6.584410 34.185416 -25.138804
8.296510 34.304354 -8.573797
2.379792 33.893324 -39.608318
0.936868 33.793085 -10.143170
3.082376 33.942132 -22.426589
2.682289 33.914338 -20.573919
6.793115 34.199914 -42.246542
6.731315 34.195621 -39.914710
2.086924 33.872979 -49.200126
7.611045 34.256735 -15.987787
6.043637 34.147848 -45.902218
7.995049 34.283411 -18.576332
8.519702 34.319859 -39.805297
7.842007 34.272780 -37.828326
4.656734 34.051501 -60.346022
1.111490 33.805216 -53.995312
4.095832 34.012536 -7.355644
3.143552 33.946382 -12.096185
1.358119 33.822349 -1.638655
6.747163 34.196722 -57.211778
1.655847 33.843032 -43.494640
7.620203 34.257371 -55.615745
2.814913 33.923551 -26.515461
5.571752 34.115067 -14.388095
7.986063 34.282787 -37.184977
0.908281 33.791099 -2.024876
2.263728 33.885261 -11.970055
7.856484 34.273786 -11.362538
8.456136 34.315443 -9.277466
8.509062 34.319120 -27.914596
6.417538 34.173823 -39.248846
6.506385 34.179995 -46.901460
2.522229 33.903219 -60.489947
4.745082 34.057639 -44.335317
7.470631 34.246981 -46.045110
3.388200 33.963377 -9.186436
1.487217 33.831317 -24.970386
1.937664 33.862609 -32.908182
1.972374 33.865021 -17.873277
0.954696 33.794323 -47.164081
3.634942 33.980518 -41.471320
3.504309 33.971443 -57.210266
1.052857 33.801143 -24.519548
1.373362 33.823408 -13.231114
1.736051 33.848604 -58.171674
7.226541 34.230024 -3.699075
5.774158 34.129128 -47.085526
4.773273 34.059597 -20.336474
3.643483 33.981111 -15.864896
3.509314 33.971791 -16.574268
1.359014 33.822411 -34.961081
7.559313 34.253141 -9.008012
1.048300 33.800826 -40.921033
5.425512 34.104908 -40.399047
1.976693 33.865321 -28.406611
2.263550 33.885249 -30.679868
5.450804 34.106665 -56.422706
3.595274 33.977762 -39.657786
7.924111 34.278483 -41.803442
3.722899 33.986628 -2.347583
7.605364 34.256340 -47.302622
6.103898 34.152035 -27.438377
0.971798 33.795512 -20.229674
2.481042 33.900358 -4.215128
2.059645 33.871083 -2.460124
4.815581 34.062536 -55.375395
7.526332 34.250850 -59.989313
8.436962 34.314111 -0.843313
1.032968 33.799761 -41.752392
4.844251 34.064528 -24.538995
6.158211 34.155808 -20.740326
6.296275 34.165399 -42.691703
7.084508 34.220157 -8.489914
6.357933 34.169682 -61.091235
6.061353 34.149079 -18.163071
7.226994 34.230055 -20.175046
1.001884 33.797602 -53.336831
4.746130 34.057712 -52.628282
1.179087 33.809912 -32.271306
4.245464 34.022931 -8.858139
4.993033 34.074864 -0.881784
5.968556 34.142633 -48.092232
3.898205 33.998807 -50.187506
5.897739 34.137713 -53.864331
2.911337 33.930250 -2.983998
5.423490 34.104767 -27.665579
8.402060 34.311686 -17.724056
3.399770 33.964181 -12.618935
7.360383 34.239322 -18.385632
5.595833 34.116740 -29.170615
2.253264 33.884534 -3.678830
8.550523 34.322000 -22.446377
4.503070 34.040826 -10.689413
4.124558 34.014531 -48.893157
4.384442 34.032585 -54.905820
6.099180 34.151707 -17.348587
8.427282 34.313438 -60.942057
6.690123 34.192759 -27.602190
5.639894 34.119801 -32.864653
2.055854 33.870820 -5.280382
2.071444 33.871903 -50.891589
7.885455 34.275798 -13.694686
6.403685 34.172861 -6.241409
4.953845 34.072141 -28.916948
7.469099 34.246874 -19.106782
1.562775 33.836566 -57.579737
6.673512 34.191605 -45.146650
7.249029 34.231586 -32.999653
1.996456 33.866694 -54.959376
7.018696 34.215585 -52.418615
1.037605 33.800083 -38.211049
0.965372 33.795065 -7.375460
3.813285 33.992908 -30.779034
3.823815 33.993639 -36.046241
3.414449 33.965201 -11.420296
2.297449 33.887603 -61.106709
5.261557 34.093518 -39.584754
5.985176 34.143787 -14.885500
2.742316 33.918508 -15.275292
7.033783 34.216633 -6.037138
1.452415 33.828900 -51.888654
6.343027 34.168647 -23.978842
3.767003 33.989692 -33.063179
3.801751 33.992106 0.983933
3.571130 33.976085 -6.246920
1.018302 33.798742 -23.067092
6.574024 34.184694 -20.140274
5.797664 34.130761 -54.480670
0.993524 33.797021 3.770381
4.969185 34.073207 -19.288046
8.549901 34.321957 -32.816112
1.220762 33.812807 -59.257201
4.865767 34.066023 -40.303431
1.883887 33.858874 -5.936728
2.690127 33.914883 -0.005643
3.154834 33.947165 -21.606308
2.759581 33.919707 -19.257465
4.180277 34.018402 -15.632103
4.662084 34.051873 -39.706850
6.197100 34.158509 -15.438109
5.912403 34.138732 -49.585357
5.981074 34.143502 3.756478
6.681213 34.192140 -14.811421
4.577506 34.045997 -43.306587
7.262452 34.232519 -28.915210
8.074792 34.288951 2.446158
1.567646 33.836905 -30.213137
4.471402 34.038626 -34.226000
7.394265 34.241676 0.115201
7.771771 34.267901 -33.287686
6.743957 34.196499 -16.742672
6.838204 34.203046 -45.906475
5.427266 34.105030 -52.471071
8.534842 34.320911 -53.195901
5.463327 34.107535 -38.809224
3.393406 33.963739 -47.646439
3.879359 33.997498 -12.338012
3.259678 33.954449 -10.528630
8.284484 34.303518 -7.347256
4.390250 34.032989 -43.845109
7.638496 34.258642 -52.327534
8.562110 34.322805 -51.601459
5.275840 34.094510 -47.919284
5.750051 34.127453 -34.233314
7.620041 34.257360 -52.916221
2.259529 33.884969 -43.996499
3.326009 33.959057 -8.193996
7.832444 34.272115 -9.856993
3.987066 34.004980 -57.559309
1.650487 33.842660 -7.864944
3.009654 33.937080 -35.310185
5.671433 34.121992 -24.069667
7.917157 34.278000 1.288002
5.220933 34.090696 -33.319470
6.359299 34.169777 -59.853034
6.455771 34.176479 -32.149652
5.224888 34.090970 -54.711226
6.950018 34.210814 -15.960679
4.597437 34.047382 1.861284
7.084391 34.220149 -53.759945
8.472884 34.316606 1.120053
5.192037 34.088688 -47.285872
6.395042 34.172260 -4.569409
5.702883 34.124176 -42.373321
7.113137 34.222146 -58.558466
3.868834 33.996766 -50.731570
5.327930 34.098129 -6.553610
6.684339 34.192357 -50.385472
5.854443 34.134705 -25.445401
7.280165 34.233749 -43.782814
7.250331 34.231677 -25.559639
2.661506 33.912894 -21.955303
7.506358 34.249463 -20.934405
2.930403 33.931574 -50.236936
6.960381 34.211534 -23.681543
4.877513 34.066839 -49.388407
1.943344 33.863004 -35.245369
3.863242 33.996378 -6.796182
3.182487 33.949086 -60.401750
2.992147 33.935864 -32.298105
6.295603 34.165352 -12.350942
1.417432 33.826469 -54.784400
4.340173 34.029510 -29.067821
3.686471 33.984098 -38.070589
1.567525 33.836896 -21.998416
5.138266 34.084953 -29.670917
2.114040 33.874862 -26.267246
6.425842 34.174400 3.160508
6.449196 34.176022 -52.494038
5.697287 34.123788 1.910196
6.038070 34.147462 -16.474047
7.556375 34.252937 -17.310756
7.896734 34.276582 -3.475009
2.264710 33.885329 -8.131138
3.738719 33.987727 -19.206151
6.864503 34.204873 -48.713064
1.232057 33.813592 -3.785058
8.532290 34.320733 -4.699091
0.974003 33.795665 -8.648819
8.135343 34.293158 1.851417
8.257520 34.301645 -48.922562
7.410773 34.242822 1.502941
6.398218 34.172481 -34.275337
6.638384 34.189165 -33.026895
3.125949 33.945159 -2.182102
6.900873 34.207400 -56.630671
6.580468 34.185142 -48.133093
2.235037 33.883268 -36.254437
1.361951 33.822615 -27.057176
7.885545 34.275804 3.700298
5.580155 34.115651 -60.608226
5.093427 34.081838 -11.652943
7.207114 34.228674 3.299584
6.235365 34.161168 -5.683333
3.328622 33.959238 -20.668941
6.649706 34.189952 -29.288750
8.515581 34.319572 -35.786546
5.124292 34.083982 -5.146767
2.294864 33.887424 -49.805340
4.404017 34.033945 -38.059451
7.906316 34.277247 -5.108943
7.800034 34.269864 -46.616537
6.037091 34.147394 -6.682412
5.515902 34.111187 -5.847323
2.084120 33.872784 -11.290739
0.942284 33.793461 -31.545580
8.529043 34.320508 -35.049621
1.911023 33.860759 -40.132115
8.556111 34.322388 -55.260381
4.017481 34.007093 -24.900924
1.729332 33.848137 -53.083740
2.748996 33.918972 -7.800723
7.771468 34.267879 -51.692922
3.048396 33.939771 3.464157
6.431621 34.174801 -30.854703
5.856292 34.134834 -23.532788
1.063395 33.801875 -5.004925
2.130418 33.876000 -19.031770
5.683699 34.122844 -7.903192
6.230548 34.160833 -41.892359
0.908993 33.791148 -1.244933
7.992233 34.283216 -24.743676
1.665221 33.843683 -36.401953
3.233216 33.952611 -58.591677
7.800654 34.269907 -38.925881
1.972672 33.865041 -16.246924
4.515713 34.041705 -25.253827
3.749011 33.988442 -45.444297
4.001563 34.005987 -14.930714
3.921638 34.000435 -48.059315
1.170332 33.809304 -46.110854
7.343076 34.238119 -49.919928
4.481338 34.039317 -47.797326
2.292135 33.887234 -1.548709
6.959485 34.211472 -11.488248
7.618625 34.257262 -50.691487
5.297281 34.096000 -58.491135
5.496071 34.109809 -13.734425
7.579254 34.254527 -59.288662
4.939859 34.071170 -16.862577
8.459807 34.315698 -13.102224
3.829060 33.994003 -25.693306
7.195905 34.227896 -26.634948
4.104623 34.013147 -56.954059
0.941856 33.793431 -21.917012
8.133713 34.293044 -33.804040
4.655937 34.051446 -23.111043
6.920156 34.208739 -36.680102
0.997350 33.797287 -11.833943
6.461370 34.176868 -60.497506
0.927988 33.792468 -29.735434
2.673945 33.913758 -27.974579
5.378269 34.101626 -21.678772
6.091581 34.151179 -2.880256
4.273577 34.024884 -52.173451
1.594473 33.838768 -11.857956
5.683662 34.122841 -51.600708
3.027164 33.938296 -0.541387
3.863535 33.996398 -28.570712
3.038967 33.939116 -44.183211
6.761967 34.197750 1.296894
1.275899 33.816637 -14.369120
7.075140 34.219506 -17.831042
2.714317 33.916563 -35.778052
1.217337 33.812569 -22.491771
3.440099 33.966983 -14.864186
5.541828 34.112988 -20.230207
8.382570 34.310332 -11.726134
2.293350 33.887319 -23.599666
4.619254 34.048898 -21.878506
7.953058 34.280494 -22.529433
6.413217 34.173523 -23.129999
3.199796 33.950289 -53.847744
3.414102 33.965177 -7.392453
6.274484 34.163885 0.580859
1.556900 33.836158 0.457430
3.074560 33.941589 -30.890078
5.437285 34.105726 -45.483352
4.512436 34.041477 -50.361964
1.099685 33.804396 -25.524530
2.741578 33.918457 -16.239528
8.040029 34.286536 -46.003153
0.938639 33.793208 -28.048073
3.109454 33.944013 -39.087243
1.649748 33.842608 -20.311823
3.044630 33.939510 -6.607418
6.946955 34.210601 -59.991947
8.045129 34.286891 -54.958184
6.789313 34.199650 -55.997900
0.980899 33.796144 -48.258388
7.108727 34.221839 -14.462095
5.706886 34.124455 -13.139770
3.082347 33.942130 -56.780480
4.559216 34.044727 -14.519924
1.530033 33.834292 -19.113890
7.632168 34.258202 -40.220035
5.193670 34.088802 -59.129466
2.464453 33.899205 -31.335268
2.600414 33.908650 2.343024
3.536176 33.973657 -9.848092
1.021651 33.798975 -15.088751
1.667263 33.843825 -48.286681
3.717757 33.986271 -0.424121
3.756111 33.988936 -42.496895
6.835643 34.202868 -34.954731
8.378896 34.310077 -46.553675
4.459457 34.037797 -39.119143
4.738114 34.057155 -15.820298
1.310962 33.819073 -6.877277
6.808250 34.200965 -54.821403
5.116111 34.083414 -33.993274
4.675318 34.052792 -22.448016
3.496308 33.970887 -36.666092
3.251369 33.953872 -54.473704
4.499874 34.040604 -33.169749
8.472122 34.316553 -2.628154
4.092677 34.012317 -52.834169
6.037162 34.147399 -0.072507
8.373219 34.309683 -15.496489
1.586454 33.838211 -50.621734
1.100729 33.804468 -39.579907
0.949676 33.793975 -30.360072
8.290863 34.303961 -47.225975
0.918859 33.791834 -52.454920
2.518448 33.902956 -12.895831
4.444914 34.036786 -29.714307
7.518610 34.250314 -48.753792
2.100651 33.873932 -52.660788
2.524113 33.903350 -40.210283
6.836792 34.202948 -37.310360
3.447959 33.967529 -51.319372
3.873086 33.997062 -34.542880
7.267973 34.232902 -44.896876
4.647190 34.050838 -41.525696
4.576470 34.045925 -6.800051
2.414084 33.895706 0.596847
2.986428 33.935466 -41.255149
3.873176 33.997068 -10.759734
2.116918 33.875062 -21.760052
1.561524 33.836479 -20.991848
6.286116 34.164693 -49.082549
4.022544 34.007445 -37.557316
2.977065 33.934816 -8.711650
3.952005 34.002544 -3.509082
3.765616 33.989596 -27.961653
4.538006 34.043253 -45.044475
7.388463 34.241272 -27.206576
1.032486 33.799727 -4.432974
4.417496 34.034882 -0.446560
2.571255 33.906625 -40.821646
1.962434 33.864330 -57.065167
8.492690 34.317982 3.466264
3.040386 33.939215 -48.399972
5.278342 34.094684 -55.771503
1.221210 33.812838 -47.686780
6.880306 34.205971 -43.004240
2.052807 33.870608 -0.412144
2.353639 33.891507 -19.696731
4.178555 34.018283 -16.879899
7.193963 34.227761 -40.614103
5.054521 34.079135 -38.400649
5.954792 34.141676 2.592694
5.164535 34.086778 -41.057896
7.335740 34.237610 -22.439380
6.924576 34.209047 -26.105979
1.334374 33.820699 1.039322
0.938735 33.793215 -60.060108
6.835386 34.202851 -1.421714
2.280755 33.886444 -18.367693
6.989084 34.213528 2.768125
5.313607 34.097134 -26.202716
1.764153 33.850556 1.568450
5.255061 34.093067 -41.824354
4.073606 34.010992 -26.727433
7.701961 34.263051 -26.252711
7.650863 34.259501 -16.555913
2.479795 33.900271 -48.668806
1.909575 33.860658 -41.852370
5.198297 34.089123 -53.916226
7.902693 34.276996 -14.646244
2.449174 33.898144 -31.980004
8.036560 34.286295 -51.199424
3.466284 33.968802 -43.806035
0.911232 33.791304 -57.011021
3.238142 33.952953 -5.402257
5.799160 34.130865 -50.803730
2.346838 33.891035 -52.004464
1.666220 33.843752 -44.086020
6.351487 34.169235 -36.591183
2.510711 33.902419 -38.875746
2.838761 33.925208 -51.672298
4.772579 34.059549 1.088542
3.986973 34.004973 -53.825227
5.713214 34.124894 -59.348378
5.394323 34.102741 -57.930301
3.280574 33.955900 -37.436421
3.658335 33.982143 -55.488895
7.992287 34.283220 -12.260375
3.537983 33.973782 0.453572
6.064247 34.149280 -57.315773
3.601733 33.978211 -48.712261
6.649845 34.189961 -43.799376
6.751569 34.197028 -22.570585
8.352276 34.308228 -56.473361
5.917341 34.139075 -32.129358
5.441740 34.106035 -36.138814
8.283521 34.303451 -10.300809
8.360166 34.308776 -42.382401
1.073314 33.802564 -40.240218
7.348656 34.238507 -60.684863
5.583828 34.115906 0.326421
0.978460 33.795974 -21.135302
4.515953 34.041721 -48.363909
8.566793 34.323130 -36.653105
5.808577 34.131519 -48.725781
5.034534 34.077747 -12.962418
1.063697 33.801896 -43.308478
1.896960 33.859782 -38.682806
7.106851 34.221709 -38.905513
3.789305 33.991242 -1.617458
8.474024 34.316686 -23.327339
4.858405 34.065511 -57.740154
5.883528 34.136726 -9.878173
0.992757 33.796968 -56.343899
3.955344 34.002776 -47.494173
0.927453 33.792431 2.973838
5.090307 34.081621 -23.999599
5.387392 34.102260 -60.001282
6.768219 34.198185 -10.006910
1.797806 33.852894 -14.951310
2.647922 33.911951 -47.957016
2.922715 33.931040 -45.870914
4.864163 34.065911 -35.680603
4.765083 34.059028 2.677380
7.082475 34.220016 2.142679
3.907237 33.999434 -13.011869
4.699793 34.054493 -32.605638
0.914055 33.791500 -13.802204
8.445585 34.314710 -24.254637
4.747269 34.057791 3.633780
8.406474 34.311993 -43.894711
4.425133 34.035412 -8.193285
4.816554 34.062604 -45.854753
2.189195 33.880083 -43.194798
5.968630 34.142638 -29.630670
1.210304 33.812080 -38.948665
3.161627 33.947637 -44.841135
5.649423 34.120463 3.174146
4.468169 34.038402 -31.763542
5.342246 34.099123 0.996957
1.520093 33.833601 -45.593605
7.745246 34.266058 -1.650733
7.255752 34.232053 -51.339328
5.278351 34.094685 -28.382872
7.259406 34.232307 -46.710728
1.845325 33.856195 -53.806009
4.243349 34.022784 0.119075
2.396796 33.894505 -15.776413
2.678705 33.914089 -28.571362
4.298730 34.026631 -45.622283
6.708409 34.194030 -44.564759
2.036331 33.869464 -54.372396
2.756862 33.919519 -57.988933
3.607795 33.978632 -35.398804
5.257357 34.093226 -37.137807
5.392145 34.102590 -30.594498
5.166920 34.086944 -43.617179
1.781177 33.851738 -59.430280
7.019249 34.215623 -31.417659
3.466097 33.968789 -19.818624
8.058617 34.287828 -34.594070
1.428477 33.827237 -23.459162
3.009774 33.937088 -9.614800
0.918089 33.791780 -23.848147
7.995365 34.283433 -21.883907
7.231375 34.230360 -35.503812
4.075623 34.011132 3.772738
3.602372 33.978256 -21.171873
7.850099 34.273342 -35.152745
6.563657 34.183974 -1.908319
8.511269 34.319273 -29.832458
8.353382 34.308305 -58.449857
6.850958 34.203932 -28.490339
7.953771 34.280544 -40.868846
3.137397 33.945954 -25.375567
7.801072 34.269936 -35.720191
5.708629 34.124576 -2.436431
6.974585 34.212521 -53.070266
5.729257 34.126009 -3.617705
2.705501 33.915951 -45.284574
1.576174 33.837497 -42.677640
2.788833 33.921740 -59.165512
7.564921 34.253531 -24.223409
5.956749 34.141812 -28.764018
2.707737 33.916106 -24.860500
8.305535 34.304981 -16.250572
3.893452 33.998477 -31.521868
4.300815 34.026776 -40.914174
7.778174 34.268345 -20.337676
5.717243 34.125174 -4.748876
1.773542 33.851208 -31.425575
1.601635 33.839266 -34.272055
8.555100 34.322318 -26.638625
8.405219 34.311906 -45.107963
5.067723 34.080052 3.166888
5.005331 34.075718 -48.814894
6.204011 34.158989 -38.047935
3.820642 33.993419 -27.356040
7.092778 34.220731 -15.348729
1.991947 33.866380 -13.127951
4.954343 34.072176 -7.198864
7.879005 34.275350 -28.655957
6.948238 34.210690 -0.586251
8.430830 34.313685 -0.210331
5.077040 34.080700 -8.129627
7.828197 34.271820 -2.904126
8.499427 34.318450 -8.000418
8.578840 34.323967 -3.196522
6.226095 34.160524 -37.422458
7.236847 34.230740 -1.941371
8.096388 34.290451 -57.762438
7.943103 34.279803 -58.879996
1.696464 33.845854 -60.069584
4.178510 34.018279 -59.350370
7.438541 34.244751 -37.339386
3.621946 33.979615 -2.949052
7.977194 34.282171 -23.625107
4.119707 34.014194 -9.472188
6.658004 34.190528 -41.314717
4.311855 34.027543 -46.222490
1.194359 33.810973 -36.773251
4.051703 34.009470 -33.601167
1.027567 33.799386 -50.960457
6.711616 34.194252 -5.075417
7.769740 34.267759 -17.872367
2.566972 33.906327 -25.724834
8.473860 34.316674 -54.372036
7.797088 34.269659 -0.414394
5.994449 34.144431 -34.882449
7.558037 34.253053 -23.219067
0.951352 33.794091 -44.442878
6.673209 34.191584 -6.926342
8.550315 34.321985 -12.393154
6.126437 34.153600 -24.584924
1.378967 33.823797 -19.791530
4.667654 34.052260 -15.237014
7.441708 34.244971 0.929240
5.206775 34.089712 -16.326274
8.571153 34.323433 -45.695306
4.895352 34.068078 -27.861291
3.498970 33.971072 -33.957313
2.426248 33.896551 -10.144911
6.393481 34.172152 -7.567041
6.597876 34.186351 -0.087667
4.941028 34.071251 -36.372582
8.031142 34.285919 -25.454105
6.111777 34.152582 -56.015300
7.567816 34.253732 -10.434725
4.492969 34.040125 -36.901409
3.795884 33.991699 -54.445476
1.919536 33.861350 -14.127991
2.752494 33.919215 -49.369316
4.649085 34.050970 -56.586763
1.235827 33.813853 -9.638835
8.048438 34.287120 -32.014374
8.482375 34.317266 -14.894780
2.697841 33.915418 -43.591754
3.560063 33.975316 -58.102816
8.558586 34.322560 -59.620893
2.374041 33.892924 -55.457346
2.031651 33.869139 -12.520506
0.942020 33.793443 2.197391
2.944375 33.932545 -31.654867
8.541810 34.321395 -50.717028
2.478204 33.900160 -44.656799
5.563547 34.114497 -16.934041
4.305053 34.027070 -58.739145
6.715348 34.194512 -3.120292
1.066731 33.802106 -55.349633
7.353274 34.238828 -47.997132
1.541511 33.835089 -33.595651
2.997152 33.936211 -36.364243
7.766711 34.267549 3.017564
8.189411 34.296914 -30.945184
2.338143 33.890430 -59.651644
7.641393 34.258843 -34.131157
3.548782 33.974533 -53.308782
2.405881 33.895136 -42.611095
4.386550 34.032732 -19.455529
2.827435 33.924421 -11.101066
4.287012 34.025817 -42.122432
4.374671 34.031907 -31.184844
3.951686 34.002522 -24.107277
7.436592 34.244616 -1.070079
7.706968 34.263399 -8.401573
7.837113 34.272440 -29.257557
1.492602 33.831691 -58.667178
1.715849 33.847200 -15.673820
0.979163 33.796023 1.605895
8.381855 34.310283 -5.400692
4.445677 34.036839 -4.491303
8.312646 34.305475 -21.308189
5.756820 34.127923 -46.512340
6.669695 34.191340 -55.360438
0.916920 33.791699 -45.139859
2.639123 33.911339 -5.041158
4.764881 34.059014 -9.594877
7.104264 34.221529 -38.304416
3.266952 33.954954 -32.827127
3.469479 33.969024 -26.429689
6.247166 34.161987 -22.087115
6.310616 34.166395 -56.727238
5.025159 34.077095 -14.142481
8.470315 34.316428 -29.002907
6.345876 34.168845 -9.348183
1.002914 33.797673 -57.717583
1.408363 33.825839 -46.791168
6.197727 34.158553 -18.893288
4.624561 34.049266 -53.730021
2.718829 33.916876 -13.570245
4.386859 34.032753 -55.977604
4.798632 34.061359 -8.677385
1.817730 33.854278 -25.436573
7.341146 34.237985 -57.044725
6.740148 34.196234 -49.659361
2.273888 33.885967 -41.321218
3.214529 33.951312 -42.382196
4.051298 34.009442 -18.724709
2.428747 33.896725 -6.357694
1.411010 33.826023 -30.828729
3.123602 33.944996 -38.007646
4.965435 34.072947 -49.993235
4.464456 34.038144 -46.805565
4.848940 34.064854 -59.577898
4.369394 34.031540 -49.813223
1.040193 33.800263 -43.894568
3.012151 33.937253 -24.183082
1.610957 33.839913 -48.943347
5.462154 34.107453 -24.795876
4.132258 34.015066 -40.357898
7.460400 34.246270 -11.782580
6.982855 34.213095 -59.310401
3.585528 33.977085 1.782558
6.463508 34.177016 -19.414798
7.237547 34.230788 -39.657359
5.499306 34.110034 -53.200390
1.971834 33.864983 0.923951
8.520300 34.319900 -27.331341
6.798531 34.200290 -13.900360
7.018299 34.215557 -21.918662
7.646618 34.259206 -49.280229
1.716488 33.847245 -51.350102
5.221090 34.090707 2.263404
6.224274 34.160397 -0.645582
2.733227 33.917877 -36.880861
4.343663 34.029752 -1.784297
3.222926 33.951896 -23.277903
0.972746 33.795577 -26.231272
5.442232 34.106069 -17.653091
8.494321 34.318096 -11.030911
8.530777 34.320628 -16.948982
8.352935 34.308274 -53.795494
2.193286 33.880367 -47.071534
5.028737 34.077344 -31.130628
5.593329 34.116566 -35.413013
5.544769 34.113192 -9.404388
4.302745 34.026910 -2.548471
7.595703 34.255669 -42.353205
7.927300 34.278705 -53.364509
3.443914 33.967248 -51.985131
3.105806 33.943759 -27.058867
1.196517 33.811123 -18.654185
6.017710 34.146047 -10.609421
8.361859 34.308894 0.491736
5.890754 34.137228 -22.699264
5.788409 34.130118 -11.255062
3.850577 33.995498 -23.461577
7.926599 34.278656 -48.003356
1.450058 33.828736 -9.096126
3.018631 33.937703 0.926373
2.845770 33.925695 -17.142613
4.912638 34.069279 -6.031756
6.908974 34.207963 -10.728548
6.335080 34.168095 -35.351601
5.104250 34.082590 -51.618996
2.613165 33.909536 -41.878551
6.687883 34.192604 -51.509732
4.047698 34.009192 -42.977681
6.867523 34.205083 -24.553636
4.886237 34.067445 -53.211173
2.037494 33.869545 -16.805318
5.531426 34.112265 -12.082180
5.891161 34.137256 -28.096335
3.118474 33.944640 -34.712761
5.045331 34.078497 -18.306924
7.466496 34.246693 -41.207152
2.673042 33.913696 -50.872916
8.262360 34.301981 -38.527622
1.484180 33.831106 -41.296235
5.939429 34.140609 -52.160752
4.887920 34.067562 -10.169039
3.888298 33.998119 -18.072140
2.723070 33.917171 -46.943910
8.436884 34.314105 -6.714551
1.789742 33.852333 -46.206016
6.916247 34.208468 -12.072509
2.480340 33.900309 -26.944270
7.346161 34.238334 -29.755574
3.456902 33.968150 2.478955
5.555703 34.113952 -1.880088
5.182197 34.088005 1.569837
0.916984 33.791704 -35.467278
5.188685 34.088455 -25.321084
8.483087 34.317315 -13.827059
7.555487 34.252875 -7.090448
5.664270 34.121494 -0.504956
7.402742 34.242264 -11.058050
1.622986 33.840749 -37.330325
3.083382 33.942202 -55.803026
0.973897 33.795657 -58.350503
2.138372 33.876553 -57.761872
1.004069 33.797753 -33.739291
8.506772 34.318961 -37.763678
8.212909 34.298546 -60.297487
6.684534 34.192371 -54.249727
3.288258 33.956434 -3.458458
3.643285 33.981098 -22.614776
5.652556 34.120680 -19.566396
2.102786 33.874080 -7.036985
8.516224 34.319617 -52.276892
5.639291 34.119759 -50.247844
1.785415 33.852033 -45.041562
2.629407 33.910664 -54.774196
3.128912 33.945365 -1.171509
6.467669 34.177306 -53.495604
3.553214 33.974841 -44.440677
1.437379 33.827855 -55.863027
3.428628 33.966186 -46.145886
7.494582 34.248644 -31.745440
8.564824 34.322993 -25.254354
6.357815 34.169674 -31.478277
0.921931 33.792047 -12.662747
8.009950 34.284447 -2.162941
7.905698 34.277204 -30.039109
5.278083 34.094666 -3.141272
1.021285 33.798949 -0.153267
2.427482 33.896637 -29.255200
1.861964 33.857351 -24.483479
2.645003 33.911748 1.638002
4.704255 34.054803 -2.942011
1.846192 33.856255 -22.924703
1.835056 33.855481 -32.174957
6.108034 34.152322 -33.654312
5.827869 34.132859 -43.130888
5.151515 34.085873 -42.946172
1.771693 33.851080 -10.066151
6.467968 34.177326 -29.939705
3.127128 33.945241 -18.750180
3.629487 33.980139 -56.411358
2.438267 33.897386 -58.662960
6.393323 34.172141 -21.291495
6.843655 34.203425 -20.806082
2.385857 33.893745 -29.998793
6.509476 34.180210 -26.818130
1.228660 33.813356 -5.564431
5.203442 34.089481 -22.786800
8.556676 34.322427 -57.191360
1.151144 33.807971 -6.200789
2.531464 33.903860 -34.744928
7.051921 34.217893 -19.636873
2.448566 33.898102 -56.722945
4.941084 34.071255 -30.226558
1.226780 33.813225 -16.747905
1.905755 33.860393 -8.624089
0.975432 33.795764 -11.120306
7.355752 34.239000 -34.633109
8.496373 34.318238 -3.957545
4.084646 34.011759 -32.446996
5.208118 34.089806 -27.124574
6.765348 34.197985 -17.367128
6.057711 34.148826 -40.411655
6.906838 34.207814 3.812610
6.151706 34.155356 -44.187382
2.350894 33.891316 -9.576661
3.021856 33.937928 -42.953692
4.083465 34.011677 -11.377968
7.071422 34.219248 -7.378214
5.701680 34.124093 -37.781260
7.603710 34.256225 -36.636020
5.763224 34.128368 -41.110090
2.194647 33.880462 -17.354238
4.691935 34.053947 -54.303826
