63.325049 43.781728 -16.435930
63.323121 44.573093 -44.721212
63.322238 44.936015 -28.005689
60.390986 30.374534 -53.977908
62.162777 35.286037 -4.959971
62.378352 36.112766 -41.553184
63.325830 43.461964 -26.762209
62.212429 35.476449 -13.121288
47.687758 15.925055 -14.140483
60.008924 58.392272 -42.514396
60.530787 30.681995 -40.764309
60.429149 57.479904 -47.519136
63.247534 46.293285 -18.585799
46.841279 15.413968 -43.701471
62.753232 37.828873 -25.615067
62.961950 48.905767 -11.407037
62.250417 52.314554 -13.253840
61.233567 55.527911 -41.580016
44.667067 14.271063 -43.557078
60.029430 29.579365 -16.447113
49.275750 16.966062 -41.391416
57.308404 24.976882 -28.632079
44.435898 14.157293 -39.349791
52.037744 19.135332 -6.246306
62.381608 36.125227 -37.500637
62.666766 50.583960 -37.949526
46.945113 15.476661 -34.917344
54.481042 21.491321 -34.545569
50.262778 17.684260 -21.803180
63.235681 41.530162 -49.189305
51.502166 18.670450 -36.000509
61.393664 32.851895 -45.831634
58.888483 27.447719 -18.609561
62.466437 36.450541 -34.145685
44.274406 14.077814 -23.746840
63.324886 43.849561 -18.200351
62.162233 52.646107 -43.104898
60.228156 57.916279 -42.301943
57.526707 25.297065 -5.988704
35.830299 11.746646 -36.185695
61.721627 33.776383 -34.220834
39.472099 12.446385 -8.288872
60.173482 29.896179 -29.384136
60.425580 57.487648 -28.132784
60.373136 30.335268 -48.842501
36.033584 11.785705 -35.034273
59.189712 27.982989 -12.376531
58.942583 27.543848 -19.415837
47.254637 15.663545 -6.576525
60.650387 56.999549 -26.056993
46.997652 15.508382 -38.160332
37.218478 12.013372 -6.200000
62.439838 36.348548 -32.972722
53.487730 20.467111 -21.220156
63.163036 40.661231 -16.151070
47.207134 15.634863 -43.232200
60.551887 57.213423 -15.006949
54.451371 21.460728 -40.106622
63.167510 40.714731 -19.983882
60.581901 57.148253 -31.931090
63.323242 44.522772 -34.930520
58.117222 26.163164 -34.342709
44.403909 14.141549 -44.663452
62.867212 38.495946 -41.239890
60.369283 30.326800 -8.123663
60.541920 57.235044 -16.910786
62.449225 51.567092 -34.567153
62.133786 35.174845 -15.463470
41.473654 12.922402 -28.495942
52.740901 19.745676 -35.763034
51.293910 18.489682 -38.078442
49.687565 17.265714 -37.711939
52.345188 19.402197 -27.591052
61.537373 33.256996 -41.748290
53.923891 20.916841 -14.970436
63.266996 46.073383 -11.738493
53.606692 20.589774 -25.762655
57.730343 25.595733 -41.035476
63.165078 47.224948 -50.128794
61.165357 55.717267 -39.119504
62.726660 50.243468 -23.468423
39.273089 12.408147 -27.974974
60.746080 31.155484 -30.650385
63.323039 44.607689 -31.945971
63.168446 40.725902 -22.826690
57.191243 24.805049 -9.180979
52.611352 19.633228 -25.557532
42.794677 13.437105 -17.143437
55.592583 22.750926 -11.887793
51.674262 18.819832 -35.044804
63.323639 44.362125 -40.631989
61.145980 32.153696 -25.870837
35.808738 11.742504 -35.982209
47.827425 16.009384 -24.748191
63.323108 44.577729 -39.186536
60.107655 29.751397 -31.381760
63.324278 44.099020 -12.445410
41.709992 13.014485 -33.033182
54.348712 21.354876 -43.508199
63.251370 41.717854 -42.572829
41.249902 12.835223 -14.366087
63.129929 47.622117 -42.800671
63.325196 43.722542 -33.135575
63.322954 44.643131 -42.367045
36.693681 11.912537 -38.886919
57.848087 25.768428 -53.109326
49.555075 17.169309 -53.381804
53.887305 20.879118 -21.082810
36.803349 11.933609 -46.325615
44.540947 14.208993 -41.827355
47.515640 15.821133 -44.486459
58.187629 26.266426 -21.133998
63.227961 46.514391 -17.019595
63.323609 44.373500 -43.579539
61.460711 33.040888 -9.951370
63.189246 40.974740 -21.023594
35.350645 11.654485 -30.397839
60.137321 58.113504 -5.733120
58.953171 27.562662 -13.598203
55.667146 22.842325 -23.127413
36.295401 11.836012 -44.488649
49.574025 17.183097 -46.509571
57.453366 25.189498 -15.582505
47.821243 16.005650 -29.166473
56.083308 23.352495 -37.108270
62.499125 36.575889 -11.609955
45.539422 14.700390 -19.195857
62.432716 36.321234 -22.740365
42.310658 13.248520 -17.787778
41.379253 12.885621 -27.227588
43.018945 13.524486 -12.236682
63.250253 46.262535 -19.129858
62.071246 34.935020 -10.964016
39.629227 12.476576 -12.290375
63.159424 40.617986 -18.255064
39.571668 12.465517 -23.659052
60.269446 57.826636 -13.573287
52.147050 19.230212 -20.146943
58.954370 27.564791 -14.593848
57.085957 24.650618 -15.653255
60.316097 57.725334 -22.690965
59.530717 28.588931 -42.251245
63.321890 45.079541 -16.036775
62.910224 49.199854 -25.152830
55.544215 22.691630 -17.751263
57.157285 24.755237 -19.823484
49.278262 16.967890 -44.085554
55.458895 22.587037 -20.895249
43.275109 13.624294 -32.299857
63.325530 43.584070 -9.728147
54.425282 21.433829 -32.975867
60.584582 30.800307 -41.223776
49.860642 17.391651 -16.320999
61.079267 55.956240 -41.675050
63.322373 44.880455 -28.230693
54.372255 21.379151 -42.647909
54.443796 21.452918 -27.127192
59.231613 28.057441 -52.718887
62.331720 52.008875 -19.789074
63.210194 46.715131 -23.025978
60.503285 57.318928 -12.945631
61.244937 55.496349 -41.150377
55.496637 22.633305 -15.658499
60.477484 30.564765 -31.274359
52.424429 19.470978 -20.420723
55.326716 22.425000 -21.017212
57.384926 25.089119 -18.074337
61.676255 33.648486 -43.251390
57.647138 25.473698 -39.938878
62.787741 38.030846 -7.261418
47.444823 15.778375 -19.385413
50.414087 17.794358 -33.509508
36.357506 11.847944 -45.491522
63.129039 47.632162 -32.644109
58.876188 27.425869 -10.983650
62.390298 36.158561 -44.283038
43.259330 13.618146 -41.007425
60.648021 57.004698 -25.800842
62.247201 35.609793 -1.940330
62.110084 52.842157 -35.750104
42.922755 13.487007 -12.490387
44.443683 14.161124 -35.204904
62.100561 52.877994 -33.265061
63.324906 43.839761 -8.436713
50.540279 17.886179 -36.407710
38.323049 12.225606 -15.210573
60.184431 29.920257 -18.842191
62.834570 38.304922 -43.809968
47.686064 15.924032 -13.465150
62.196981 52.515458 -2.062224
47.707413 15.936921 -15.065901
61.279498 32.530075 -18.771954
41.769212 13.037559 -37.997759
60.238835 30.039903 -20.765272
47.147964 15.599137 -35.398699
55.857961 23.076243 -13.288908
59.049402 27.733659 -47.321638
47.589252 15.865578 -20.744930
45.256901 14.561348 -10.151152
63.232448 41.491467 -50.076181
36.492223 11.873829 -36.059980
62.937827 49.042927 -28.014639
62.365057 51.883529 -11.305204
62.858884 38.447221 -38.843037
62.935984 38.898415 -27.540080
60.199176 29.952675 -13.214883
60.482169 30.575070 -46.880872
62.868882 49.434871 -24.794626
63.123236 47.697698 -27.732826
44.390393 14.134897 -35.783967
57.128120 24.712462 -28.786458
46.809346 15.394686 -43.176100
62.687370 50.466817 -27.128794
52.198006 19.274442 -48.998856
61.501552 54.784029 -19.372387
36.485105 11.872461 -48.109966
55.699928 22.882516 -16.060163
52.172296 19.252127 -22.947812
63.324518 43.999871 -53.120139
62.136173 52.744077 -44.350978
62.896395 49.278470 -19.357270
62.736852 50.185524 -38.552494
61.628195 33.513011 -35.888451
61.349147 32.726399 -13.320073
56.088582 23.358958 -42.689282
58.829993 27.343787 -16.889967
56.587045 23.970015 -35.613422
62.452197 36.395931 -41.366308
62.802883 38.119448 -23.141343
37.208302 12.011417 -5.379840
62.346545 51.953146 -17.862068
38.795380 12.316360 -28.231788
62.420695 51.674346 -15.640590
62.685641 37.433285 -23.026944
53.692827 20.678590 -15.230867
44.359576 14.119731 -37.481969
50.027086 17.512762 -18.534980
62.171105 52.612752 -42.480843
42.655873 13.383024 -17.356009
63.325742 43.498094 -14.379175
62.243824 35.596840 -9.148100
60.062180 29.651389 -21.677182
52.072778 19.165743 -44.858351
61.277272 55.406589 -35.381238
62.252490 52.306771 -14.721199
42.908685 13.481526 -30.585398
41.725793 13.020642 -49.321675
57.760811 25.640418 -40.483725
37.501818 12.067814 -18.852570
61.575316 54.579263 -22.223221
56.178179 23.468795 -32.451204
57.193300 24.808062 -14.464026
62.127941 35.152445 -54.360400
44.771371 14.322396 -2.914852
42.677713 13.391533 -16.644353
54.646307 21.661727 -18.964516
50.029034 17.514178 -42.459431
63.325199 43.721836 -14.399575
62.749321 50.114622 -51.517400
47.018905 15.521214 -37.549366
39.024151 12.360316 -8.738515
62.719265 50.285525 -30.481780
60.532021 30.684708 -5.330253
62.351949 36.011503 -39.843581
63.241695 46.359249 -20.845385
47.733656 15.952768 -54.348647
47.756819 15.966753 -18.039469
42.322528 13.253144 -23.128970
62.903850 38.710350 -43.944810
62.065727 53.008956 -40.419236
63.192420 41.012686 -10.514392
44.964254 14.417322 -41.275839
61.119125 32.077993 -6.075126
63.323016 44.617092 -33.434906
45.072123 14.470410 -52.114584
53.989208 20.984188 -19.796176
53.328212 20.302631 -13.502911
61.234216 55.526118 -40.922641
59.208966 28.017200 -9.594744
59.130773 27.878255 -45.121746
56.296527 23.613875 -34.531980
56.018139 23.272605 -49.093657
54.146771 21.146654 -47.801323
62.331046 52.011419 -18.970597
55.354827 22.459463 -11.677444
55.695542 22.877138 -15.706213
63.158533 47.298909 -33.024336
51.251090 18.452515 -34.713865
41.455935 12.915498 -37.611928
60.072179 58.254936 -29.851099
43.139259 13.571363 -26.537763
37.233545 12.016268 -37.586408
38.809258 12.319027 -23.490485
61.409495 32.896517 -14.283401
43.033763 13.530259 -22.586826
61.673477 33.640655 -45.410258
60.316344 57.724807 -48.642027
61.584688 33.390368 -39.943877
58.941735 27.542345 -11.944911
42.129826 13.178063 -46.956735
61.129987 55.815437 -33.990992
57.949274 25.916832 -34.435617
61.533237 54.696087 -16.134842
60.114814 29.767145 -17.361043
62.294721 52.147967 -15.834361
63.204559 41.157870 -10.176103
43.034491 13.530543 -18.441941
63.321899 45.075838 -29.417988
52.340138 19.397812 -20.469954
62.040384 53.104233 -33.963570
63.324750 43.904119 -20.541189
60.404510 57.533401 -46.556243
49.891389 17.414022 -50.500681
42.386245 13.277970 -10.509308
60.271106 30.110876 -56.652510
57.072133 24.630348 -12.244627
50.212500 17.647676 -21.984347
38.439553 12.247991 -25.846658
61.343725 32.711120 -21.247619
61.209962 32.334068 -34.812006
62.309357 52.092964 -20.261890
44.467005 14.172603 -41.230623
50.134059 17.590599 -24.101759
63.226218 46.534113 -20.807843
63.133820 47.578124 -36.537127
62.804872 49.798793 -11.152026
57.641801 25.465869 -50.968733
60.178131 29.906406 -11.784646
60.213679 29.984583 -16.834572
36.331137 11.842878 -21.462661
47.859455 16.028721 -11.154576
59.140363 27.895290 -44.502899
57.447904 25.181484 -14.769248
61.316541 32.634492 -6.467231
62.810861 38.166148 -3.204969
60.161826 58.060304 -52.577471
57.833510 25.747046 -42.347040
37.691071 12.104177 -14.607761
44.441754 14.160175 -38.625415
50.132788 17.589674 -51.014955
63.286996 42.144013 -35.167581
63.224955 41.401864 -42.946927
63.322971 44.635658 -44.392044
60.293160 30.159382 -17.683910
63.260854 41.831281 -47.647254
60.402555 30.399983 -44.646011
51.620366 18.773047 -41.985409
62.975909 39.132094 -35.815796
63.284448 45.876180 -25.764958
52.632625 19.651691 -15.139935
44.670660 14.272831 -11.908199
57.739118 25.608602 -44.781537
58.069837 26.093665 -30.386690
59.165954 27.940768 -41.462121
50.419779 17.798500 -10.898236
59.217268 28.031950 -46.644092
53.417856 20.395065 -16.284513
60.578230 57.156223 -20.478440
52.551174 19.580994 -15.088789
55.782655 22.983929 -15.083944
60.622171 30.882970 -44.386252
50.246449 17.672378 -5.389142
60.134570 58.119470 -39.097632
46.891952 15.444562 -39.832461
62.829414 49.659266 -17.555628
38.377621 12.236092 -10.629342
63.113701 47.805434 -32.142409
52.273893 19.340312 -19.658047
56.099878 23.372807 -51.662193
59.422986 28.397495 -41.303855
63.228831 46.504596 -9.681701
63.325200 43.718737 -12.226165
61.326649 32.662989 -11.489916
36.431693 11.862198 -42.306521
61.499539 33.150346 -42.838265
57.312792 24.983319 -23.687250
63.255283 41.764666 -46.121025
63.145841 47.442269 -40.253991
63.325593 43.558406 -17.337368
63.209298 46.725305 -41.422925
62.024799 53.162835 -34.531690
51.986412 19.090778 -44.245428
61.528639 33.232368 -32.467652
63.172988 47.135584 -33.334583
63.098959 47.972020 -33.054959
35.180540 11.621801 -33.251630
51.941636 19.051913 -41.441335
36.288591 11.834703 -56.432597
61.613209 54.474090 -23.672211
60.330237 57.694650 -10.554221
55.244128 22.323759 -19.515642
62.275384 35.717861 -18.562363
55.665902 22.840801 -18.819689
37.539608 12.075075 -17.417602
59.225862 28.047223 -44.272254
40.525147 12.648719 -26.408811
60.214194 29.985717 -18.676782
62.939630 38.919764 -26.777232
49.116354 16.850081 -40.179024
60.228518 57.915487 -42.894985
62.762010 50.042453 -45.921272
61.204931 32.319868 -10.708893
59.222173 28.040666 -7.535074
60.652563 30.949818 -26.155292
63.010467 48.629954 -12.713576
62.028203 53.150038 -33.085802
42.218479 13.212604 -15.461316
57.180321 24.789027 -15.028377
62.764673 37.895858 -30.241220
62.224601 52.411615 -46.116184
47.437761 15.774111 -10.675849
55.571534 22.725117 -21.522009
62.178903 52.583439 -43.449091
61.215458 32.349549 -17.563563
53.578022 20.560212 -4.676854
62.034415 53.126683 -33.648769
36.915269 11.955114 -38.484607
61.236580 32.409085 -24.907850
60.127944 29.796031 -33.786617
62.411200 36.238723 -32.529582
55.511820 22.651917 -16.669732
62.532149 36.702556 -31.513990
46.868264 15.430260 -36.883947
42.179649 13.197475 -45.586817
42.511173 13.326645 -46.250341
51.719774 18.859334 -46.390339
63.246393 46.306146 -22.835217
63.149699 47.398656 -42.648227
42.179482 13.197410 -7.902598
35.760877 11.733307 -31.523893
62.667791 50.578133 -30.068497
62.972594 48.845248 -18.508116
61.469325 54.873471 -13.751475
62.877089 38.553738 -37.466758
56.495393 23.857661 -24.668320
62.101546 52.874278 -40.156006
63.260024 41.821359 -27.490175
49.900057 17.420330 -5.178416
60.377140 30.344079 -35.366935
53.490277 20.469741 -13.448938
63.250260 41.704521 -32.212503
63.161757 47.262417 -40.981800
62.838230 49.609132 -46.205612
54.585226 21.598748 -34.486988
56.140309 23.422370 -31.757157
63.146622 47.433452 -29.406500
35.749576 11.731136 -34.191293
63.322843 44.687262 -41.291281
62.675073 50.536741 -47.443462
38.296333 12.220473 -16.043190
54.261260 21.264702 -32.464112
60.700807 56.890072 -22.941968
60.763491 31.193775 -33.945814
57.969569 25.946604 -30.893711
36.086433 11.795860 -31.051298
45.236964 14.551536 -19.027915
57.928604 25.886523 -38.460988
61.779332 33.939042 -45.874899
62.883301 49.352910 -21.520893
44.763527 14.318535 -37.621968
54.226705 21.229073 -44.434119
61.104067 55.887393 -23.539515
63.159469 40.618523 -29.259197
57.423296 25.145392 -19.947483
61.608024 33.456151 -33.363783
54.263556 21.267070 -43.258679
36.163713 11.810709 -33.027628
61.441099 32.985611 -39.537621
61.126125 55.826170 -40.153918
60.117084 29.772140 -18.765689
59.640571 28.784135 -44.117896
59.099891 27.823381 -51.833621
57.999879 25.991059 -34.947747
63.324830 43.873037 -14.006370
62.235163 35.563635 -14.594062
60.353854 57.643362 -21.133062
42.486520 13.317040 -45.379174
42.131336 13.178651 -45.992723
56.063278 23.327939 -45.143943
48.080928 16.162442 -37.148384
55.722201 22.909818 -8.881666
62.765522 37.900797 -27.908640
57.249947 24.891144 -22.057906
60.345584 57.661333 -13.186584
62.900272 38.689428 -38.636309
62.896965 49.275260 -22.254507
63.161975 40.648525 -26.044716
62.278547 52.208807 -18.716536
61.619963 33.489813 -33.730740
45.106005 14.487085 -15.113437
57.584230 25.381433 -50.086580
35.982775 11.775944 -32.034992
51.819219 18.945652 -37.169849
63.323619 44.368706 -43.926597
51.179650 18.390505 -37.939406
60.267540 30.103035 -5.719350
60.451210 57.431986 -18.114979
51.045243 18.273839 -30.640386
36.770555 11.927308 -43.738682
37.500136 12.067490 -48.197335
61.376595 55.130874 -35.848878
59.042862 27.722045 -42.301523
61.670562 33.632434 -35.911836
63.324283 44.098077 -38.307496
63.322763 44.721536 -33.819231
37.126425 11.995685 -53.791509
59.467473 28.476553 -44.199860
36.765385 11.926315 -41.296529
63.176760 47.092946 -48.738335
63.280270 42.063513 -40.104311
62.781843 37.996324 -8.850596
61.190310 32.278665 -16.625596
63.324732 43.911948 -15.344500
37.811781 12.127370 -53.304256
60.535470 57.249061 -23.019118
57.939222 25.902096 -29.333270
54.240468 21.243265 -41.605253
61.670643 33.632662 -34.062473
61.475101 33.081449 -44.917506
62.720188 37.635463 -23.576198
41.928461 13.099606 -35.306479
45.644210 14.751962 -18.620283
42.989890 13.513165 -28.245900
56.229663 23.531908 -39.274337
57.888859 25.828229 -33.248070
62.130844 52.764112 -44.159921
62.115540 35.104886 -28.730525
41.765728 13.036201 -35.933174
55.648683 22.819695 -17.715747
59.515849 28.562505 -33.769963
63.211347 41.239103 -11.846961
61.596042 33.422369 -44.081075
61.648852 54.375139 -22.433210
61.312847 55.307861 -44.258913
58.734083 27.173358 -19.321062
61.161859 32.198464 -16.997622
49.166347 16.886455 -27.529610
58.545621 26.838468 -12.596130
63.226868 41.424711 -36.071325
44.547422 14.212179 -36.849640
63.326802 43.062535 -20.452177
53.632453 20.616337 -16.031834
59.874275 58.684612 -26.437830
36.838638 11.940390 -30.814085
63.252860 46.233105 -17.120507
42.283259 13.237844 -17.403744
54.228825 21.231263 -49.375096
59.047881 27.730955 -15.221334
39.125734 12.379835 -11.481391
57.330784 25.009706 -22.866236
63.205989 46.762684 -44.014205
58.755507 27.211428 -27.626905
37.016179 11.974503 -12.514018
59.973270 58.469667 -38.431794
46.967059 15.489911 -47.264145
61.626992 33.509618 -39.167040
61.137497 55.794602 -33.730523
43.079422 13.548049 -20.494980
54.054068 21.051069 -52.807371
60.685952 56.922333 -30.956261
60.372248 57.603444 -49.764399
60.161494 58.061020 -9.586021
61.613542 33.471712 -25.523523
36.138188 11.805804 -37.972733
49.485092 17.118387 -38.050131
63.323827 44.283634 -50.623492
59.018361 27.678505 -17.741184
55.796877 23.001363 -50.540090
63.268558 46.055714 -14.009584
63.182428 40.893128 -12.353411
61.985153 34.604870 -16.126581
44.826084 14.349322 -10.726454
38.345110 12.229845 -17.958550
62.114494 52.825600 -31.131968
45.614196 14.737190 -16.662848
45.547585 14.704408 -5.803255
35.187352 11.623110 -35.087347
63.140144 47.506616 -33.028137
47.302192 15.692258 -37.949770
63.324995 43.804956 -25.168664
57.271698 24.923050 -21.386219
63.187990 46.965989 -13.444800
39.449499 12.442043 -14.302906
63.233333 41.502054 -12.389310
47.479953 15.799586 -48.599019
54.650002 21.665540 -31.380815
49.485788 17.118894 -46.323114
63.205180 41.165322 -51.217202
51.979509 19.084787 -14.156792
53.343650 20.318552 -13.293277
61.542200 33.270593 -30.370805
62.961854 39.049856 -28.150670
42.012744 13.132445 -35.861250
63.192963 41.019164 -12.189744
63.284324 45.877590 -25.911713
38.010617 12.165575 -20.280401
51.144941 18.360377 -29.883271
57.243918 24.882305 -13.101799
60.010542 58.388759 -29.091540
62.288127 35.766742 -11.378256
63.118993 47.745589 -31.656596
57.568775 25.358765 -43.569861
63.166289 40.700085 -17.487582
37.166007 12.003291 -37.188400
36.600083 11.894553 -42.965991
61.004270 56.164402 -50.728752
63.325943 43.414787 -23.194791
54.395844 21.403475 -50.028125
39.997791 12.547392 -19.026300
35.944597 11.768608 -40.889451
62.744099 37.775410 -14.845442
49.317930 16.996753 -33.350440
55.867276 23.087664 -47.471994
60.709366 56.871502 -27.235870
61.537227 54.685000 -14.797867
38.855195 12.327853 -24.554359
62.450805 51.561127 -20.807795
60.564296 57.186480 -15.981745
57.297774 24.961293 -13.936612
47.628576 15.889321 -7.641575
52.262087 19.330066 -29.120823
62.649034 50.684759 -37.780839
57.099543 24.670555 -28.334595
43.014418 13.522722 -9.869528
53.610297 20.593488 -26.392975
47.547051 15.840098 -50.904292
63.252559 46.236499 -19.086622
62.713751 50.316833 -32.264543
53.520501 20.500902 -15.712520
38.456539 12.251255 -17.898504
51.586435 18.743596 -43.814196
62.834522 38.304624 -14.053197
53.588836 20.571361 -11.255099
58.507465 26.770668 -7.717840
36.329905 11.842641 -28.927876
40.192311 12.584768 -31.353095
63.157093 47.315174 -46.530161
60.543505 57.231616 -11.180538
61.338951 32.697668 -24.010440
38.934259 12.343044 -23.013249
55.894075 23.120513 -12.637277
62.411846 51.707599 -20.226493
41.449961 12.913171 -27.031188
41.632815 12.984415 -29.938399
62.356553 51.915503 -1.663535
57.210047 24.832629 -18.540860
55.504425 22.642850 -27.033178
42.994065 13.514792 -28.652303
63.264649 41.876683 -44.667402
37.990006 12.161614 -10.108479
48.167030 16.214429 -27.345896
60.058522 29.643351 -15.203356
62.464214 36.442028 -25.133257
52.269527 19.336524 -18.905689
63.165338 40.688741 -25.770431
59.122783 27.864053 -51.170555
62.316513 35.875603 -32.826208
61.261278 32.478710 -20.895860
62.160237 52.653594 -33.806297
62.752211 37.822908 -27.087182
46.604065 15.270742 -47.013737
62.090546 35.009029 -28.081599
63.186732 40.944615 -8.540176
41.916133 13.094803 -39.590066
55.914423 23.145462 -44.320549
47.686105 15.924055 -10.522883
58.113999 26.158438 -36.267902
44.248661 14.065145 -29.650836
61.165489 32.208688 -5.320159
62.738400 37.742069 -17.765195
62.721171 37.641229 -28.800480
63.323423 44.451635 -43.298888
53.776444 20.764806 -25.211435
61.218622 32.358460 -10.842334
57.183611 24.793851 -17.610977
63.270565 41.947459 -27.124921
63.327245 42.881917 -19.720677
45.192846 14.529824 -10.831894
62.911021 49.195347 -27.728276
57.637669 25.459811 -9.559778
55.592766 22.751148 -10.315024
51.828511 18.953720 -36.933950
47.592806 15.867724 -14.436459
62.872657 49.413426 -20.166900
60.049236 58.304741 -33.548477
62.915522 49.169724 -19.692776
53.814179 20.803718 -10.063164
42.434801 13.296889 -41.893359
60.292875 30.158762 -9.572223
44.323761 14.102105 -31.193062
62.909941 38.746019 -32.107920
53.954701 20.948607 -5.795328
48.369270 16.336538 -18.637136
52.286277 19.351062 -9.601165
47.825953 16.008494 -17.626644
60.570203 30.768682 -43.591615
51.302394 18.497048 -27.416693
62.689401 50.455260 -22.977827
57.518525 25.285065 -44.585091
55.622447 22.787531 -22.712771
35.926603 11.765150 -33.049690
63.011572 39.340822 -32.118193
62.725001 50.252886 -45.817626
61.209137 32.331723 -33.112155
62.369852 51.865490 -20.242711
62.821151 38.226343 -13.928012
44.147932 14.015570 -40.208156
58.124507 26.173848 -43.970017
44.564749 14.220707 -40.369475
62.748600 50.118717 -39.785125
59.930207 58.563177 -42.611608
39.427971 12.437906 -11.864334
61.550522 33.294046 -34.457710
57.551830 25.333913 -16.994316
44.407181 14.143160 -42.234606
62.955122 48.944594 -20.059915
47.492541 15.807187 -19.323604
63.250330 41.705393 -41.393447
61.509704 33.179000 -47.128173
56.544390 23.917727 -49.521071
63.326575 43.157464 -38.387769
61.392516 32.848661 -14.697354
60.464493 30.536194 -46.778079
50.290441 17.704389 -21.607850
60.360755 30.308039 -51.342741
62.937311 49.045849 -14.582706
50.104103 17.568802 -14.668717
62.772956 49.980241 -51.132039
51.689423 18.832991 -12.737969
60.646684 30.936884 -30.698283
61.662557 54.337100 -10.591634
60.553000 57.210988 -16.725143
61.497517 33.144638 -6.932756
57.338364 25.020825 -29.437554
61.107370 55.878211 -26.779822
46.960883 15.486182 -32.635967
37.344384 12.037564 -47.341480
59.292600 28.165804 -30.686895
52.521431 19.555176 -10.913805
62.413434 51.701650 -38.085291
36.399569 11.856027 -35.249702
57.659600 25.491978 -17.645293
60.019880 29.558357 -24.517547
63.176609 47.094600 -53.260017
63.156799 47.318439 -43.189438
36.070027 11.792708 -44.591576
62.063507 53.017298 -30.858531
55.441674 22.565924 -18.494433
39.422814 12.436916 -18.592174
63.326536 43.172862 -32.051499
41.866910 13.075624 -34.527519
38.467215 12.253306 -11.420182
61.490736 33.125522 -10.816133
46.718958 15.340112 -32.508617
36.148021 11.807694 -50.422672
49.624216 17.219619 -52.731640
45.228459 14.547350 -23.824696
63.168417 47.187185 -43.517198
59.982476 29.476099 -22.186128
60.093056 58.209598 -6.149968
61.445589 54.939387 -16.792420
61.218067 55.570946 -37.216316
60.224804 30.009040 -26.130649
62.253335 52.303594 -15.241787
52.064721 19.158748 -48.320200
63.322156 44.969530 -17.672488
58.922221 27.507669 -11.963599
44.513517 14.195493 -33.022095
62.287869 35.765754 -42.458903
61.500275 54.787570 -10.923307
52.544160 19.574904 -25.622231
47.075270 15.555246 -34.433661
60.795337 31.263812 -20.508665
61.225920 55.549140 -39.430913
57.750716 25.625616 -33.959794
63.228555 46.507688 -9.029728
36.894965 11.951212 -44.451672
63.233683 41.506235 -7.773618
39.727169 12.495395 -9.078839
50.351308 17.748677 -24.694585
62.411895 36.241404 -39.241367
42.429199 13.294706 -21.710486
36.409317 11.857900 -50.331697
61.243731 55.499701 -46.707437
63.208533 41.205405 -16.153485
62.942839 38.938532 -50.278666
60.072457 29.673987 -13.337321
38.301987 12.221559 -11.468691
57.871895 25.803345 -49.088707
61.371819 55.144144 -51.785198
57.704430 25.557721 -6.832122
50.023368 17.510055 -30.508613
56.202697 23.498849 -30.523715
62.394460 51.772979 -19.110393
41.638810 12.986751 -51.665869
57.101600 24.673567 -15.305172
62.660334 50.620540 -31.892131
62.039672 34.813940 -24.166109
54.040285 21.036852 -15.959447
53.466570 20.445293 -33.679020
62.757729 37.855171 -23.200106
63.322054 45.013262 -24.103314
53.690039 20.675716 -17.953173
50.038055 17.520744 -14.531931
61.282063 32.537305 -14.531226
55.858418 23.076807 -45.579160
57.251472 24.893382 -33.646999
60.292972 30.158977 -21.797921
56.384497 23.721715 -45.320054
53.981155 20.975888 -9.535213
60.452646 30.510134 -45.611934
62.936532 38.901633 -34.851085
49.236027 16.937158 -36.866333
58.150160 26.211472 -53.339138
36.961010 11.963902 -33.602857
51.619818 18.772573 -4.983410
49.722076 17.290825 -46.555828
44.747782 14.310786 -50.537913
56.496734 23.859304 -20.938669
60.104851 58.183981 -36.756663
62.053793 53.053818 -35.488034
42.764127 13.425202 -32.794443
51.499886 18.668472 -35.958247
61.964552 53.389334 -33.903053
53.297868 20.271341 -31.937920
63.164468 40.678364 -26.780983
63.150245 47.392560 -47.034027
50.083828 17.554049 -18.163059
61.211060 55.590402 -40.047369
60.629773 57.044310 -10.317082
55.834161 23.047069 -41.562549
45.531987 14.696731 -27.512323
58.997219 27.640935 -15.703075
62.315598 35.872088 -52.606017
61.762531 33.891687 -26.405310
61.226715 55.546949 -34.245217
62.879531 38.568049 -46.948299
60.478657 57.372399 -13.674560
58.820291 27.326550 -13.760686
58.747633 27.197429 -33.544663
61.114794 55.857612 -31.306546
59.223968 28.043856 -6.961525
61.136417 32.126744 -21.308300
63.224977 41.402147 -43.833567
61.395774 55.077661 -12.436904
38.911229 12.338619 -17.588577
62.843729 49.577881 -49.852855
54.536372 21.548371 -45.425205
58.819805 27.325677 -14.550617
55.305694 22.399234 -14.791847
61.334596 55.247489 -9.774248
49.785060 17.336655 -11.404108
63.258930 41.808254 -25.596293
57.231775 24.864491 -17.783042
62.730604 50.221037 -49.338681
57.736376 25.604583 -39.866582
62.230385 52.389853 -17.725890
62.407373 36.224049 -52.405681
44.808882 14.340856 -54.786377
50.557718 17.898868 -30.430049
57.357574 25.048998 -21.199651
62.935104 49.058384 -27.383105
39.154271 12.385318 -22.308128
60.117256 29.772517 -21.931381
60.305994 30.187614 -22.569744
35.294866 11.643768 -11.844753
51.946204 19.055876 -40.767407
63.152368 47.368523 -37.849524
57.613966 25.425047 -54.367554
57.648665 25.475942 -42.756944
39.310584 12.415351 -3.756752
63.323107 44.581291 -47.835372
61.120185 55.842642 -29.392807
36.608021 11.896079 -41.633967
52.389181 19.440381 -22.531780
63.325421 43.630445 -15.925192
61.063304 56.000541 -26.969615
55.500922 22.638558 -17.312245
61.477970 54.849485 -11.530958
51.666959 18.813491 -46.221573
49.703001 17.276945 -8.492604
51.898764 19.014698 -38.189673
62.712540 50.323741 -25.798327
62.346401 35.990227 -41.525903
61.409579 32.896751 -12.760722
61.661462 33.606790 -32.496434
38.861251 12.329016 -12.682950
62.425215 51.657372 -22.778208
38.004489 12.164398 -19.810725
63.325271 43.692294 -12.582442
38.931944 12.342600 -19.609690
63.226203 46.534242 -21.937658
60.500941 30.616350 -8.594058
61.013529 56.138708 -36.578569
63.255132 46.207404 -17.342344
61.408405 55.042584 -24.340819
63.326871 43.035329 -22.891609
37.315516 12.032017 -39.601200
63.326796 43.064628 -26.150012
61.154361 55.747783 -47.096001
62.821715 38.229681 -19.263196
59.318278 28.211439 -28.913874
39.492845 12.450371 -24.280489
57.431453 25.157360 -14.255405
37.526269 12.072512 -43.287269
60.663405 30.973658 -37.527918
59.906085 58.615548 -47.018395
63.325733 43.501871 -26.273329
38.399749 12.240343 -19.070010
62.204034 52.488941 -5.765011
63.326218 43.302635 -6.289028
62.798971 49.832347 -36.811722
38.801635 12.317562 -19.928175
61.348211 32.723757 -24.787671
63.125694 40.214468 -13.654597
55.633649 22.801267 -16.854182
60.135097 29.811758 -25.147677
37.121976 11.994830 -16.192883
39.385612 12.429768 -22.390786
53.778821 20.767260 -22.985428
49.740477 17.304215 -3.988355
38.739836 12.305688 -10.135936
56.130039 23.409780 -41.980413
42.267474 13.231694 -45.164126
60.621887 30.882354 -37.341675
54.304347 21.309130 -39.679240
47.618356 15.883152 -7.902308
62.163033 35.287031 -18.299725
41.776777 13.040506 -39.170692
45.380885 14.622367 -15.329919
63.125907 40.217099 -14.897937
62.446422 51.577623 -11.055758
47.002051 15.511038 -5.906263
62.214980 52.447765 -13.045732
54.166684 21.167185 -7.833264
36.848022 11.942192 -45.777688
62.331582 35.933391 -45.428660
62.189675 52.542928 -19.954007
58.819520 27.325176 -24.172465
45.087437 14.477947 -9.562247
47.023029 15.523704 -50.515591
60.657183 30.959969 -22.425260
62.071250 34.935032 -28.203308
63.240901 46.368169 -2.863947
57.946643 25.912973 -42.512252
49.526612 17.148599 -45.260742
49.827308 17.367396 -23.227261
53.557651 20.539208 -18.442634
61.603810 33.444272 -42.343067
53.341482 20.316315 -22.127093
62.014037 53.203306 -36.634506
63.189012 40.971896 -25.406556
38.258915 12.213283 -9.375961
51.348197 18.536805 -34.311511
50.286367 17.701424 -20.140309
56.107372 23.381992 -33.498662
55.656363 22.829108 -16.374599
57.630674 25.449553 -39.136822
54.584504 21.598004 -42.748823
61.601601 33.438039 -40.601161
53.726971 20.713795 -26.339914
52.468688 19.509396 -24.962339
60.603701 30.842341 -33.803669
39.425404 12.437414 -17.120437
61.683292 33.668326 -41.780461
36.854112 11.943363 -39.416199
62.828596 49.663901 -42.183482
60.743183 31.149112 -27.495293
62.894971 38.658416 -37.854723
63.324536 43.993819 -9.601539
63.132556 40.296578 -16.311319
50.016383 17.504974 -18.998161
60.677018 31.003600 -34.924214
47.497424 15.810135 -13.402596
60.596799 30.827179 -30.502197
61.244015 55.498931 -31.616103
38.463892 12.252668 -15.093199
60.639286 30.920615 -38.841324
38.525643 12.264532 -19.647904
61.196948 55.629561 -43.884534
63.177131 47.088717 -10.671084
61.173625 55.694310 -39.574725
63.243198 46.342254 -13.108842
62.324182 35.905019 -42.487187
62.771699 37.936936 -52.696798
45.364675 14.614389 -14.019007
62.120137 52.804373 -35.257020
61.556863 33.311930 -36.874858
50.398668 17.783139 -27.391704
49.277161 16.967090 -39.392079
56.034731 23.292946 -36.376574
47.905984 16.056815 -30.074745
42.391347 13.279958 -21.750217
62.979207 39.151387 -42.293842
57.263644 24.911236 -19.721801
49.471340 17.108382 -10.438384
62.311561 35.856605 -42.883584
63.152295 40.532712 -12.267782
62.316355 35.875002 -7.736865
63.323493 44.421236 -13.291085
50.573573 17.910405 -22.984833
60.162210 58.059447 -42.751744
62.201827 52.497226 -6.132129
52.361568 19.416416 -32.626458
62.430991 51.635648 -13.522410
62.797698 38.089118 -46.025425
61.806092 34.014488 -35.479887
53.658686 20.643383 -49.622242
48.278034 16.281452 -24.793045
56.994583 24.516607 -19.690496
63.231692 46.472281 -13.868883
38.369030 12.234441 -8.767331
60.393541 57.557203 -16.860759
62.765784 37.902315 -26.206408
42.748986 13.419303 -22.276407
61.319079 32.641645 -14.324431
63.323587 44.384218 -39.761759
50.298426 17.710198 -27.380637
61.525855 33.224526 -30.528849
61.217663 32.355759 -21.519614
62.966712 48.878688 -27.419795
51.849191 18.971670 -40.800931
61.622861 54.447281 -21.717111
53.965800 20.960052 -16.273904
62.927252 49.103016 -15.755632
41.779664 13.041631 -24.814859
60.567553 30.762850 -30.436663
62.749446 50.113907 -44.852915
63.187198 46.974984 -32.984472
47.399633 15.751091 -50.946292
61.267582 32.496475 -17.112898
62.116280 52.818897 -42.976480
62.394516 51.772766 -28.571419
55.487864 22.622554 -16.867299
54.114129 21.112998 -17.705053
62.948845 48.980268 -6.794643
44.189625 14.036090 -25.234963
36.571129 11.888990 -48.757915
62.446705 36.374878 -33.780845
62.206943 52.478014 -0.663532
62.817040 49.729613 -8.353294
44.429296 14.154044 -41.469598
41.801746 13.050235 -32.587788
50.604052 17.932584 -29.375713
63.251737 41.722252 -31.437775
38.615576 12.281812 -24.776616
62.285639 52.182138 -11.052113
57.288433 24.947593 -25.375951
53.538955 20.519929 -8.895865
62.218045 52.436283 -16.155194
36.100439 11.798551 -36.247411
44.937232 14.404024 -7.296752
62.249033 35.616828 -11.213076
62.752527 50.096378 -33.341482
37.333170 12.035410 -40.845184
41.399129 12.893365 -38.172699
62.938440 38.912780 -36.681389
62.292568 35.783756 -44.040914
36.730820 11.919673 -27.083756
36.778469 11.928829 -31.651303
61.629615 54.428555 -26.752208
60.648835 30.941616 -40.777551
57.175621 24.782134 -17.745000
42.495586 13.320572 -41.771893
55.761357 22.957817 -12.521042
39.316039 12.416400 -27.755044
62.959769 48.918181 -20.151027
54.178666 21.179542 -43.111473
45.001399 14.435603 -54.527867
54.012039 21.007732 -14.327285
60.173818 29.896915 -15.123340
52.133947 19.218837 -14.343661
63.326608 43.140995 -29.374318
63.266470 41.898501 -22.640983
63.324152 44.151119 -47.567956
51.144768 18.360227 -27.234720
42.217721 13.212309 -10.319510
62.849800 49.543374 -8.680215
43.290122 13.630143 -10.895314
57.777952 25.665562 -38.486599
62.674217 50.541583 -28.576100
51.387746 18.571132 -30.724173
36.913569 11.954787 -46.354566
63.150651 40.512997 -27.262753
38.855396 12.327891 -9.419758
61.208731 32.330585 -12.604342
56.092354 23.363583 -44.575761
57.846744 25.766458 -36.529501
61.576332 54.576457 -25.662239
63.276763 45.962956 -38.785951
61.285993 55.382380 -2.035523
63.325560 43.572714 -26.199054
57.640935 25.464601 -41.916184
50.223699 17.655823 -11.273434
60.098969 58.196754 -34.699073
62.387741 51.798261 -28.064188
58.225715 26.322292 -25.959125
60.117399 58.156744 -35.895663
60.415591 57.509320 -9.706128
61.402649 55.058575 -51.483603
43.165049 13.581412 -14.547665
42.704179 13.401845 -13.029854
45.273860 14.569695 -22.829282
38.318881 12.224805 -8.022873
36.612544 11.896948 -50.341213
57.877083 25.810954 -50.790889
63.239489 46.384152 -12.437420
63.326028 43.381517 -22.430193
62.141236 52.725039 -47.232159
61.217682 55.571995 -32.075854
62.099203 35.042233 -16.348140
37.371185 12.042714 -45.151756
46.833895 15.409509 -31.084543
57.611873 25.421978 -41.474566
60.207901 57.960256 -8.946629
62.182441 35.361446 -14.799427
61.394956 55.079927 -10.726591
35.869522 11.754183 -30.246306
35.977461 11.774922 -43.190595
63.127445 40.235469 -30.741292
62.340235 51.976852 -7.412783
36.968413 11.965324 -44.580953
36.164064 11.810776 -46.148568
46.672696 15.312180 -33.199569
36.895111 11.951240 -7.165075
42.912306 13.482937 -24.675991
61.734983 54.136056 -41.800820
62.125334 52.784844 -48.392294
60.349287 30.282821 -56.698516
60.295054 57.771034 -0.616305
63.326090 43.354437 -17.610407
54.223588 21.225858 -52.571013
44.226380 14.054179 -47.148740
52.415316 19.463068 -18.399848
36.675123 11.908972 -4.827487
57.302976 24.968919 -27.249420
36.684287 11.910733 -46.112127
36.681764 11.910248 -47.324377
38.608836 12.280518 -9.535819
61.652500 33.581522 -34.653366
41.925752 13.098551 -40.868031
42.910057 13.482060 -19.078155
62.124727 35.140105 -12.601645
61.107841 32.046180 -28.075322
61.091340 31.999675 -33.543315
59.038616 27.714495 -17.395645
52.226480 19.299158 -25.009378
46.980732 15.498167 -28.467342
54.294750 21.299234 -45.374092
63.283119 42.097641 -31.976621
54.020528 21.016484 -55.606362
51.559094 18.719864 -32.733750
62.714879 37.604423 -27.046428
42.320189 13.252233 -48.546157
47.482358 15.801038 -17.655804
59.904747 58.618451 -36.074391
59.308195 28.193516 -42.611120
37.864927 12.137582 -10.588244
38.087676 12.180381 -10.284631
47.666837 15.912423 -20.163959
45.789732 14.823580 -10.207933
57.741208 25.611671 -38.293500
63.220006 46.604285 -10.764925
56.089691 23.360319 -44.895267
58.723457 27.154473 -11.663331
63.324987 43.809113 -25.631397
62.349802 51.940887 -9.835823
61.678344 54.293282 -12.497409
57.150560 24.745375 -34.945487
51.474416 18.646363 -35.786801
46.874259 15.433880 -39.934125
62.901370 49.250205 -16.872308
62.338730 51.982526 -20.540354
61.966508 34.533352 -26.127579
45.287877 14.576592 -19.289248
55.674664 22.851541 -21.963317
49.788519 17.339172 -53.155068
60.207742 57.960602 -46.255620
62.676647 50.527790 -18.593926
60.482818 57.363370 -11.692331
35.383177 11.660736 -48.156431
62.644872 50.708419 -29.697918
35.913684 11.762668 -30.471008
62.693889 50.429779 -45.847087
61.061997 56.004173 -45.517376
51.236524 18.439873 -22.404064
61.345326 55.217704 -3.390326
45.094208 14.481279 -11.525041
63.201699 41.123737 -9.456449
45.458214 14.660424 -21.664965
62.395670 36.179155 -40.980289
47.093824 15.566449 -25.126194
61.638442 33.541891 -46.549354
35.913268 11.762588 -24.993107
41.601591 12.972249 -35.730485
62.109939 35.083413 -8.210615
35.110726 11.608387 -19.614205
44.034931 13.959958 -31.025750
63.156631 47.320403 -36.029501
45.627564 14.743769 -13.708944
62.684250 50.484539 -32.791470
59.323590 28.220876 -42.792895
62.713147 50.320268 -41.327864
49.723596 17.291931 -42.941017
62.376452 51.840700 -14.972269
60.166389 58.050392 -44.218297
63.324240 44.114595 -46.636692
50.057358 17.534788 -15.606465
60.121023 29.780810 -17.133310
41.791096 13.046085 -32.792430
54.269780 21.273489 -34.019866
62.931259 38.870764 -46.049019
59.479316 28.497592 -42.779634
56.155127 23.440533 -37.687545
61.164990 55.718285 -42.162904
63.243046 41.618286 -43.505732
58.668569 27.056942 -28.752554
51.877185 18.995969 -44.504168
63.290541 42.186383 -34.296492
53.522795 20.503268 -35.251165
63.279457 45.932530 -11.355278
57.736065 25.604130 -37.625224
63.226442 41.419646 -9.139574
36.315206 11.839817 -7.085174
62.197691 52.512805 -12.459342
55.587311 22.744463 -12.023397
36.373531 11.851024 -42.171385
60.167167 29.882287 -25.519513
43.271142 13.622748 -17.778780
50.035836 17.519127 -16.492078
60.331041 30.242697 -13.628227
63.223878 41.388965 -38.988393
60.016965 29.551944 -26.908363
58.881323 27.434990 -24.789665
63.128173 47.641894 -31.241793
58.792109 27.276466 -18.684462
60.033651 29.588653 -27.425413
37.334396 12.035645 -50.588300
59.929284 58.565170 -25.060498
61.515397 33.195042 -35.765824
60.166494 29.880808 -14.466033
62.233666 52.377529 -20.674314
41.964950 13.113823 -41.769696
62.731567 50.215544 -38.818758
42.869281 13.466173 -25.534141
62.029333 34.774290 -24.806251
37.712850 12.108362 -18.964290
60.508657 57.307274 -29.359615
63.207160 46.749429 -17.178494
61.395915 32.858235 -47.235427
60.554473 30.734090 -31.181016
55.400051 22.514899 -14.345738
62.997353 39.257605 -50.062866
62.349930 51.940400 -7.621027
63.226771 41.423626 -12.790100
44.432516 14.155628 -49.548197
63.322308 44.907239 -32.182473
51.766721 18.900085 -45.493849
62.066853 53.004720 -28.638940
49.866058 17.395592 -42.883817
58.983045 27.615749 -12.630776
58.890335 27.451005 -19.187660
42.858764 13.462075 -22.389502
55.459267 22.587490 -8.412425
63.256736 41.782015 -51.026218
35.277364 11.640405 -28.408049
47.631229 15.890923 -7.655270
57.363502 25.057697 -20.508780
62.748640 37.801992 -30.811940
45.509475 14.685652 -22.615935
54.011227 21.006893 -10.495874
61.535361 33.251328 -41.215184
62.799476 49.829499 -7.629145
49.246659 16.944895 -38.842517
52.329705 19.388757 -10.645398
60.531004 57.258751 -23.751637
59.224161 28.044199 -48.359767
60.582887 57.146101 -15.281001
41.786960 13.044474 -41.417072
41.583839 12.965333 -24.317175
52.565685 19.593588 -15.894413
63.178633 40.847759 -23.513907
62.856481 38.433143 -37.306039
60.596783 30.827136 -44.868800
55.317221 22.413363 -18.068286
62.050430 53.066479 -30.596749
62.690872 50.446942 -37.214942
49.325993 17.002620 -54.772808
52.426434 19.472717 -22.844474
41.393473 12.891162 -30.568830
54.504727 21.515743 -23.862024
63.323775 44.303633 -32.108521
61.140102 32.137121 -16.191775
54.187598 21.188751 -37.074759
49.266479 16.959316 -45.051764
52.011099 19.112206 -13.553939
63.119130 40.135938 -36.366425
62.452846 36.398435 -27.927748
60.462249 57.408026 -26.040694
36.788322 11.930722 -34.301419
38.082559 12.179398 -45.524410
53.657114 20.641766 -10.858228
62.091710 52.911259 -40.225839
60.233932 57.903736 -48.854138
52.355515 19.411159 -21.628707
47.860668 16.029455 -10.256097
61.288062 55.376645 -15.842410
63.325067 43.774202 -1.588878
47.466224 15.791296 -23.850567
42.597572 13.360309 -15.603116
60.663417 56.971280 -40.091749
63.123502 47.694686 -24.418007
36.962712 11.964229 -39.375950
62.078328 34.962173 -33.446771
43.199667 13.594899 -12.395128
57.103317 24.676089 -16.522093
47.310319 15.697164 -39.661816
60.488654 57.350711 -7.510429
48.119858 16.185948 -25.292966
57.490350 25.243743 -49.977023
61.439734 54.955628 -17.933933
61.992569 53.284018 -47.957857
42.293530 13.241846 -37.873414
60.055757 58.290584 -38.355891
63.323463 44.434375 -39.780460
60.200707 29.956058 -19.809023
61.757613 33.877826 -41.386944
63.157772 40.598247 -29.042906
44.421504 14.150209 -42.445852
62.157842 35.267105 -6.900465
61.253014 32.455420 -23.133928
57.910857 25.860490 -40.329691
53.623723 20.607334 -21.020304
54.032656 21.028988 -17.917044
44.309472 14.095072 -36.199009
56.111150 23.386623 -41.562581
56.523672 23.892326 -29.327986
39.294273 12.412218 -23.275438
63.212288 41.250344 -46.721664
56.339938 23.667093 -41.885394
46.961919 15.486807 -25.271808
60.347346 30.278551 -48.598172
62.740348 37.753476 -21.266342
35.724164 11.726253 -20.536695
38.300108 12.221198 -3.086316
55.457359 22.585155 -15.985430
61.656127 54.354937 -34.728119
62.774418 49.971928 -37.569067
61.645068 54.385650 -28.455363
51.739152 18.876154 -38.085042
62.732604 50.209642 -45.472715
36.659300 11.905931 -47.809107
62.851723 38.405288 -12.187834
63.229970 41.461871 -43.967608
61.166167 55.715025 -45.952872
36.958659 11.963450 -51.405209
58.747622 27.197414 -13.240921
62.312090 35.858641 -36.322587
53.731563 20.718531 -13.174643
55.702904 22.886162 -23.428119
61.262395 55.447903 -42.359759
58.863073 27.402564 -11.519702
60.070908 29.670592 -16.364081
60.336207 30.254056 -41.166160
62.029967 34.776737 -6.150889
59.315896 28.207201 -31.353707
58.597896 26.931360 -15.738697
44.739756 14.306836 -38.826365
58.778373 27.252061 -17.134453
54.194430 21.195794 -14.020702
63.224852 46.549553 -22.071048
57.699064 25.549860 -38.987448
58.769380 27.236082 0.015220
38.986440 12.353070 -9.171328
46.611737 15.275375 -48.661840
62.958954 48.922813 -13.844622
47.372127 15.734482 -6.276336
62.284337 52.187025 -8.664235
42.184251 13.199268 -49.635902
63.229555 41.456901 -47.200545
37.280869 12.025360 -33.585110
57.813905 25.718295 -34.494497
62.345877 51.955656 -12.730156
45.440910 14.651908 -13.987094
44.315346 14.097963 -29.010291
61.700823 33.717740 -36.132706
47.904424 16.055873 -28.768962
60.675670 31.000631 -35.565980
62.984670 48.776586 -14.359281
38.326047 12.226182 -23.410783
48.769157 16.597446 -36.515788
36.129592 11.804153 -31.609348
54.287404 21.291663 -40.625444
60.175135 29.899814 -15.355773
36.511383 11.877510 -45.219109
63.203192 46.794288 -48.337499
53.935249 20.928553 -48.528851
38.670831 12.292429 -10.466909
59.891266 58.647710 -39.615273
62.084376 34.985382 -15.188184
59.365588 28.295502 -50.811357
43.005810 13.519368 -22.304058
47.285184 15.681988 -41.194402
62.366926 51.876516 -14.297296
38.188483 12.199750 -11.710621
52.331607 19.390408 -17.289216
54.600868 21.614876 -57.215699
41.477317 12.923829 -24.993865
37.008161 11.972962 -41.730503
60.140069 58.107529 -36.816253
58.669163 27.057995 -40.973796
55.933091 23.168344 -42.108911
60.079125 29.688667 -22.227490
61.630996 33.520911 -36.713470
61.069262 55.984008 -47.328374
57.591224 25.391694 -8.608074
62.787439 38.029061 -21.955863
51.638929 18.789161 -38.097433
60.618208 57.069409 -14.833691
60.711984 56.865806 -44.788480
60.156799 58.071196 -44.236363
62.702348 37.531050 -33.555147
62.989768 48.747625 -26.582579
42.420611 13.291360 -9.568092
34.966001 11.580579 -25.355178
63.326591 43.149773 -15.768397
60.307509 57.743981 -48.872959
55.877368 23.100036 -45.487122
62.220689 35.508130 -16.733441
41.688404 13.006074 -30.768720
50.519092 17.870764 -9.190239
62.914047 38.770049 -40.727592
56.579728 23.961045 -22.965068
44.607097 14.241548 -33.456937
42.444479 13.300660 -44.916639
58.851107 27.381303 -28.499171
50.174912 17.620326 -17.791926
50.323061 17.728124 -14.010892
62.641908 50.725315 -33.986713
61.601680 33.438266 -40.107405
43.875500 13.881494 -25.659842
60.078023 58.242240 -45.034876
42.130528 13.178336 -37.816483
62.489477 36.538915 -25.836090
41.893063 13.085814 -39.783597
46.567733 15.248806 -38.617166
60.470022 30.548352 -45.653269
63.202788 41.136738 -19.267495
35.559552 11.694625 -28.564286
62.984516 48.777477 -8.172834
61.497824 33.145504 -47.685348
62.308517 35.844943 -10.952758
62.732180 50.212084 -33.493997
45.487379 14.674777 -21.778978
52.156231 19.238182 -11.134926
63.196033 46.875153 -17.223940
56.216537 23.515815 -37.351451
52.021962 19.121636 -5.253941
36.226616 11.822795 -45.093378
61.589558 54.539716 -24.314048
60.455547 57.422586 -16.633490
61.328164 55.265316 -38.919918
48.079567 16.161621 -30.681364
55.843943 23.059060 -14.452855
59.856533 58.723123 -17.989621
52.221357 19.294709 -17.935267
61.413150 32.906825 -24.418977
57.917099 25.869647 -35.006908
63.196323 41.059406 -45.318555
61.675066 54.302367 -34.203074
63.323581 44.384546 -7.951943
60.011077 58.387596 -39.649495
52.198991 19.275297 -22.702296
55.708240 22.892707 -26.129013
63.186317 46.984930 -49.099358
60.489461 57.348945 -29.948997
58.754467 27.209584 -19.590040
41.276219 12.845476 -26.888164
55.364244 22.471008 -26.122680
59.003142 27.651461 -43.678281
61.412863 32.906018 -17.037652
63.259149 41.810914 -36.039564
44.404252 14.141718 -42.391242
53.909604 20.902108 -6.054020
38.296592 12.220522 -2.314952
63.232184 46.466701 -15.117656
50.416828 17.796353 -14.932598
62.450231 36.388408 -32.622511
60.205680 57.965076 -36.109318
60.651308 30.947059 -23.398498
47.776597 15.978693 -10.384379
63.221875 46.583199 -12.574053
44.833565 14.353004 -51.436724
62.343254 51.965506 -26.527001
63.289599 45.817962 -18.012908
62.772751 37.943105 -16.017852
63.324359 44.065976 -11.443757
62.854548 49.516370 -17.203530
59.977067 58.461436 -46.753854
50.021903 17.508991 -13.078049
60.104947 58.183786 -39.528813
60.578050 30.785934 -46.166263
61.431665 32.959008 -45.028816
36.559381 11.886733 -49.804885
60.605945 30.847280 -38.224645
62.982508 39.170695 -37.811045
52.095118 19.185135 -9.578755
58.724962 27.157151 -22.980362
37.999543 12.163447 -43.629882
52.281190 19.346647 -13.784885
52.364500 19.418959 -19.977125
54.173327 21.174035 -49.153197
39.167517 12.387862 -9.233154
61.320930 55.285399 -37.976914
49.632819 17.225879 -19.057982
50.572781 17.909829 -26.413127
39.004182 12.356479 -24.362403
60.757368 31.180310 -45.469064
44.794012 14.333538 -41.814535
62.810220 38.162383 -19.995625
47.001354 15.510617 -39.093516
61.121276 55.839613 -38.116400
63.180090 40.865240 -9.878987
52.379346 19.431844 -7.168157
57.665363 25.500429 -45.544025
62.887217 49.330632 -17.786812
61.967985 53.376417 -42.043003
36.384030 11.853040 -46.606477
59.055144 27.743866 -42.566445
34.870375 11.562206 -32.149070
52.127972 19.213653 -11.395553
54.395006 21.402611 -28.982000
62.959711 48.918516 -19.833282
58.856017 27.390026 -20.715981
39.877925 12.524361 -25.924938
63.002456 39.287472 -42.149222
60.278387 57.807216 -51.164554
53.485990 20.465317 -20.082508
60.326431 30.232557 -18.934971
37.362537 12.041052 -46.127658
36.728142 11.919159 -45.372655
62.937748 38.908756 -55.196298
38.566469 12.272377 -8.662174
62.189751 52.542649 -50.138581
47.706411 15.936318 -2.613967
55.934588 23.170177 -48.840781
62.083324 52.942805 -40.739396
63.023607 48.555236 -19.376451
61.755429 33.871670 -34.460081
62.390919 36.160931 -40.871409
55.681658 22.860120 -21.387908
63.224819 46.549873 -12.845783
