-31.504538 69.398263 -13.508757
7.892322 36.975434 -33.315601
-25.585510 69.000164 -18.763461
8.100314 36.172264 -39.976678
-8.084514 61.968878 -17.142556
-2.095116 56.700044 -17.392969
6.475441 42.092383 -13.553139
-23.238713 68.598858 -40.026709
-24.650859 68.868383 -22.632632
2.453575 50.713801 -38.120216
-6.262465 60.582926 -46.108937
6.590806 41.748499 -35.165725
6.384534 42.363364 -7.114599
-20.417007 67.917594 -42.026435
5.216274 45.424607 -6.872645
-3.436833 58.059824 -48.984903
-31.459799 69.399067 -7.123520
-20.174472 67.843042 -48.901208
-26.437833 69.120330 -33.780357
-8.432422 62.214383 -11.740613
7.656883 37.884596 -18.552314
-0.862719 55.292230 -31.145426
1.854777 51.666986 -24.998633
-3.114031 57.745143 -7.631009
-2.682532 57.324491 -23.647761
5.661922 44.378582 -40.078459
5.040010 45.838334 -21.512191
-13.224747 65.098011 -17.431891
-16.054877 66.399898 -16.353457
2.511159 50.622139 -45.102535
-25.716931 69.018692 -13.119862
6.138700 43.096144 -18.256749
5.160387 45.555781 -39.586064
7.291467 39.295677 -31.457554
-25.848031 69.037177 -35.721432
8.101983 36.165815 -34.549940
-3.639959 58.257840 -38.951827
-3.097055 57.728592 -17.366574
7.778503 37.414956 -37.876985
-0.747221 55.160292 -25.583528
7.330500 39.144949 -23.896675
-0.815802 55.238632 -41.161949
8.190995 35.822086 -41.039952
-3.669520 58.286658 -36.451171
-0.075137 54.339402 -2.312653
5.319433 45.182474 -36.665546
-31.183968 69.404058 -20.866364
-2.826487 57.464825 -25.500692
-5.279019 59.765296 -20.745327
1.093345 52.769935 -43.354014
-26.378358 69.111948 -34.669644
-21.715226 68.259543 -30.253010
-26.427618 69.118891 -50.084285
-8.066276 61.956006 -27.368666
-3.254299 57.881879 -16.609433
-19.667589 67.687231 -47.883728
2.887173 50.023586 -20.576195
-5.173223 59.677335 -20.966202
-3.129575 57.760296 -17.862492
8.066143 36.304215 -36.632511
-10.951002 63.842062 -45.915875
-32.453292 69.381110 -37.407278
-14.126046 65.540493 -42.689060
-20.072101 67.811570 -5.302950
-8.345260 62.152873 -48.400593
-10.562509 63.611598 -23.891332
-25.117462 68.934170 -27.655279
-14.879545 65.910412 -22.652345
-8.554924 62.300824 -39.414173
4.999033 45.934512 -20.865752
-13.154786 65.063665 -18.435236
7.925186 36.848529 -50.349608
4.264906 47.489169 -24.180171
-5.389229 59.856926 -16.041712
-32.842936 69.374073 -50.779008
8.000349 36.558285 -45.782128
7.794206 37.354315 -51.475570
-14.373154 65.661806 -42.672243
-6.412993 60.708073 -35.686389
-3.908487 58.519610 -39.838143
2.069579 51.325058 -11.676104
0.435997 53.652865 -19.644791
6.165815 43.015318 -9.500646
-5.531855 59.975504 -27.143216
-32.098749 69.387527 -13.443357
-5.347997 59.822642 -21.036966
4.047553 47.904797 -41.863957
-19.103847 67.513945 -14.716015
2.732946 50.269092 -42.540992
-10.217110 63.406696 -17.038211
-10.647681 63.662120 -20.146165
4.289728 47.441702 -28.850548
6.148035 43.068314 -14.475787
7.851729 37.132189 -36.742281
7.094420 40.056595 -16.989916
-24.949693 68.910518 -21.946820
5.161372 45.553468 -45.835812
-26.339886 69.106523 -25.898455
-2.771240 57.410970 -15.788505
7.339963 39.108413 -15.051504
-28.210088 69.289811 -6.109158
5.035418 45.849111 -19.639879
-6.679592 60.929725 -32.812192
7.836968 37.189189 -40.590916
-3.935261 58.545714 -44.410112
-19.008097 67.484510 -20.633091
8.055630 36.344807 -36.733444
-19.723634 67.704463 -45.308363
-25.084435 68.929511 -17.773519
-20.250779 67.866496 -49.851309
1.032175 52.852094 -42.884698
-13.014905 64.994991 -21.228873
-26.558296 69.137314 -34.090995
-26.496671 69.128626 -39.387685
-2.948689 57.583955 -13.775815
-25.313706 68.961843 -10.447567
0.135987 54.055828 -6.714616
-29.352947 69.359586 -36.068980
-31.768902 69.393482 -28.845898
-21.987509 68.320187 -10.861519
8.226795 35.683845 -28.752035
-13.178114 65.075120 -18.961281
2.620897 50.447457 -33.984316
2.444405 50.728401 -43.179695
-8.731755 62.425610 -36.602456
-25.875199 69.041004 -46.447342
-29.344357 69.359061 -32.529213
7.599114 38.107677 -15.487884
-22.329604 68.396380 -48.843178
-14.281777 65.616948 -34.616971
-6.673101 60.924327 -28.484739
8.049474 36.368586 -11.384239
-8.500946 62.262739 -42.969760
-8.151912 62.016436 -7.641093
6.283641 42.664099 -19.300670
-19.480073 67.629597 -2.014270
8.236952 35.644620 -37.823862
2.034805 51.380413 -21.229094
-18.636177 67.370189 -20.726766
-5.841575 60.233003 -54.208514
-15.852486 66.319698 -32.927824
4.378130 47.272658 -36.581116
-23.160504 68.581443 -40.910579
-9.954750 63.251052 -32.248570
7.900323 36.944542 -43.152455
-22.585270 68.453322 -47.391501
-31.723697 69.394302 -50.662799
-28.750706 69.322819 -12.369128
-3.426939 58.050178 -6.003632
-25.739718 69.021907 -11.597507
-29.770241 69.385066 -31.392934
-5.628533 60.055879 -47.649934
-5.452956 59.909906 -27.755137
-14.242419 65.597628 -32.069413
-18.661267 67.377901 -33.746413
-29.037400 69.340324 -36.183241
7.731368 37.596970 -40.369170
-11.735257 64.307306 -34.595033
-16.895137 66.732868 -39.976618
-6.309343 60.621901 -37.161091
-23.366419 68.627305 -39.960695
8.182870 35.853460 -27.140618
5.053382 45.806945 -16.289390
-1.124842 55.591666 -34.351027
6.156571 43.042869 -21.900518
-22.950091 68.534579 -44.316193
-20.462097 67.931454 -34.664283
-3.004352 57.638217 -26.506401
-10.093748 63.333515 -35.633721
-28.999990 69.338033 -40.416152
-22.365454 68.404367 -15.802764
-16.225672 66.467577 -13.571823
7.776158 37.424012 -10.531032
-14.736963 65.840416 -43.242548
-19.298857 67.573887 -47.613596
8.064089 36.312148 -34.131279
8.239056 35.636497 -40.017138
-1.068978 55.527844 -41.105848
-1.499261 56.019372 -14.812078
-22.997216 68.545076 -44.879661
-11.502928 64.169487 -23.961334
-21.854055 68.290463 -19.221104
-18.890949 67.448502 -29.854875
-18.876380 67.444026 -17.948134
-21.962463 68.314610 -10.169870
-14.261050 65.606772 -38.848088
-25.516930 68.990495 -19.064192
-1.619778 56.157047 -17.658745
7.428454 38.766695 -12.423375
-14.626531 65.786200 -50.228261
7.935010 36.810594 -48.435474
1.014823 52.875398 -38.585641
-5.971829 60.341294 -1.682228
-6.111840 60.457698 -39.096747
3.761325 48.452129 -47.603713
-6.869681 61.087768 -26.554413
0.651783 53.363024 -19.350951
-18.804358 67.421882 -23.931350
-25.393136 68.973037 -12.582119
6.635402 41.615565 -33.672439
5.583914 44.561687 -35.333112
-20.208155 67.853394 -41.401530
-8.707403 62.408424 -43.282986
-20.313891 67.885899 -37.208891
-26.767217 69.166769 -44.121112
0.275745 53.868106 -21.030571
5.584634 44.559994 -27.271071
6.050971 43.357646 -29.013368
-2.165490 56.780431 -22.421533
-13.918601 65.438649 -41.942207
-3.143178 57.773550 -21.428137
-31.340117 69.401232 -21.231678
-7.918686 61.851858 -7.259353
-13.234956 65.103018 -17.078991
-9.296421 62.824076 -37.613255
6.184155 42.960651 -16.801780
-18.691655 67.387241 -30.091994
7.289800 39.302118 -19.684966
-16.273978 66.486723 -15.740016
-14.386723 65.668470 -33.737154
3.734089 48.504209 -15.283627
-20.417624 67.917785 -30.994629
-25.010913 68.919148 -11.727804
5.995353 43.523430 -20.906035
-5.842133 60.233464 -23.552732
-20.163312 67.839615 -28.031065
-16.507404 66.579221 -44.236674
0.517864 53.542901 -13.088144
-15.622216 66.228446 -28.368247
7.536166 38.350759 -23.623327
-19.150175 67.528185 -11.661543
-0.978443 55.424424 -34.004901
-25.361613 68.968595 -50.637324
-19.028714 67.490855 -43.989351
7.832507 37.206415 -43.334447
6.613854 41.679802 -34.959448
8.263890 35.540600 -30.618408
2.754138 50.235356 -39.000893
-25.514804 68.990193 -13.759715
7.286732 39.313974 -12.419758
-0.930697 55.369885 -40.378943
0.844214 53.104557 -42.866274
-12.967070 64.971504 -9.061519
6.319112 42.558369 -45.520130
-5.900268 60.281799 -43.417536
5.545659 44.651472 -26.455377
7.506066 38.466987 -28.846305
6.375227 42.391101 -14.122574
8.271243 35.512205 -28.040392
7.275624 39.356863 -13.856503
-17.422615 66.941887 -23.622646
5.309188 45.206519 -48.126296
2.558889 50.546159 -43.550369
2.225505 51.076851 -52.538726
-6.258045 60.579253 -40.490279
8.079104 36.254165 -41.539142
8.047481 36.376277 -40.938704
-32.843441 69.374067 -29.922567
8.068839 36.293802 -43.695597
-28.760162 69.323392 -42.966702
-21.950259 68.311887 -29.202427
-6.042757 60.400265 -35.973010
-11.384889 64.099456 -5.045644
-17.122182 66.822833 -36.037143
-24.876869 68.900250 -31.196034
3.669103 48.628477 -16.857504
-11.790883 64.340309 -47.880498
0.172227 54.007150 -21.080623
-3.311010 57.937165 -8.617375
-12.444210 64.714810 -21.031385
0.984822 52.915695 -44.847488
-11.057900 63.905477 -45.903487
7.370810 38.989290 -22.868470
-31.629378 69.396006 -29.512747
0.584725 53.453100 -10.943990
-0.871758 55.302554 -40.606072
7.446760 38.696001 -20.589968
-0.818693 55.241936 -46.294744
7.512588 38.441804 -45.086124
4.293944 47.433640 -5.523153
-25.832818 69.035027 -45.224244
6.266153 42.716232 -13.047223
-14.355436 65.653106 -31.976599
-9.974694 63.262890 -24.776381
-20.592864 67.971649 -35.701369
6.208401 42.888377 -24.163012
-9.048114 62.648850 -41.088868
-16.730106 66.667471 -4.162454
-26.855039 69.179151 -22.209546
5.611087 44.497903 -23.581341
1.691031 51.927644 -18.825150
-8.794744 62.470059 -35.706128
6.521618 41.954736 -39.475386
7.250019 39.455735 -26.571600
8.259463 35.557694 -35.652229
7.295144 39.281485 -29.908906
-17.089910 66.810047 -49.095826
0.968380 52.937782 -40.642948
-27.731311 69.260579 -14.190458
-28.037624 69.279278 -23.427191
0.174087 54.004649 -12.229186
-25.524915 68.991618 -12.635187
0.531088 53.525137 -16.856737
-4.315127 58.916023 -22.650209
-6.723779 60.966463 -30.924111
-14.430653 65.690033 -21.025068
8.241486 35.627113 -26.441746
0.770080 53.204134 -40.347460
3.953905 48.083872 -41.959035
-15.618564 66.227000 -18.948196
-29.283093 69.355318 -27.814275
-25.238861 68.951287 -13.703079
8.259609 35.557133 -36.584098
2.014555 51.412645 -10.009907
4.888099 46.194895 -11.232998
-17.179648 66.845607 -41.310004
-26.705570 69.158076 -26.111354
-2.949718 57.584957 -30.658808
-8.415757 62.202622 -44.594577
-0.878368 55.310103 -24.877433
-10.746253 63.720600 -53.712344
4.414446 47.203215 -36.790252
-1.723139 56.275121 -22.121933
-8.366677 62.167989 -49.071986
6.167051 43.011629 -17.670422
6.308259 42.590715 -16.070388
-9.138052 62.712319 -35.404990
8.386542 35.066972 -40.414332
-26.129666 69.076881 -42.226433
2.793646 50.172473 -28.054876
-5.471977 59.925723 -14.807797
5.184796 45.498492 -12.116545
-11.198986 63.989176 -49.309957
-23.263946 68.604484 -37.883976
-0.587253 54.977554 -32.994061
-23.353046 68.624325 -24.333317
2.934026 49.949010 -34.505235
-3.897021 58.508433 -39.767623
-12.798409 64.888703 -21.297011
-13.025941 65.000407 -4.079231
-22.215694 68.371012 -13.794987
-8.156211 62.019471 -3.773468
-13.528949 65.247354 -7.602026
2.241516 51.051364 -15.704996
-19.706733 67.699265 -42.631763
7.550941 38.293700 -12.925626
1.120187 52.733873 -31.930552
-10.557553 63.608657 -12.792199
-21.981781 68.318908 -13.479597
-5.006510 59.538735 -23.222405
2.283504 50.984523 -11.674019
7.952666 36.742414 -41.841310
7.721127 37.636513 -54.124639
7.400282 38.875480 -8.124832
6.437274 42.206152 -39.047410
3.897044 48.192600 -16.061593
-11.542072 64.192704 -47.373829
-15.784586 66.292786 -26.661753
5.036607 45.846318 -11.089000
-20.594029 67.972009 -42.672152
2.732280 50.270152 -40.807825
2.523120 50.603099 -49.395157
7.287752 39.310029 -18.805650
-1.276862 55.765319 -46.628103
5.600615 44.522483 -33.115873
-25.970868 69.054489 -37.771076
8.109925 36.135147 -51.811859
7.550020 38.297264 -52.583122
7.756475 37.500023 -10.950577
-22.568388 68.449566 -38.148379
0.459111 53.621815 -13.719393
0.837334 53.113798 -40.156339
-1.759188 56.316299 -27.540710
-10.488873 63.567915 -13.571445
-4.081936 58.688698 -41.584471
-4.088709 58.695300 -36.297229
-22.405359 68.413249 -11.126759
3.912096 48.163816 -8.581248
-19.139899 67.525026 -11.568343
8.414905 34.957439 -20.217097
-1.663067 56.206498 -23.105085
6.670815 41.510011 -35.683868
-16.862278 66.719845 -38.871231
-25.776245 69.027052 -49.577586
7.699243 37.721028 -41.535014
7.157690 39.812267 -26.734919
-12.759949 64.869825 -15.523198
-18.794730 67.418924 -20.845732
-11.826339 64.361343 -35.364976
-7.777510 61.752237 -19.153906
2.289733 50.974614 -22.650494
-14.637868 65.791766 -42.863928
-3.144895 57.775227 -19.077934
6.670903 41.509748 -37.875425
0.850027 53.096752 -36.238872
-2.784671 57.424065 -25.384864
8.020084 36.482066 -44.409701
6.402103 42.310986 -38.787633
-13.059589 65.016927 -29.167504
-2.882987 57.519908 -16.118035
-10.338103 63.478475 -15.003341
-29.238823 69.352620 -34.501137
-23.333747 68.620026 -35.507115
-21.645245 68.243956 -16.433915
7.398252 38.883325 -25.240887
-18.976772 67.474883 -20.737248
-11.329761 64.066752 -44.033096
-16.056079 66.400371 -18.535592
-26.512827 69.130908 -28.421549
4.256255 47.505709 -9.523809
-22.172714 68.361439 -17.098414
-6.465907 60.752064 -30.057392
8.078687 36.255773 -42.468724
-3.684116 58.300883 -48.335373
6.265637 42.717769 -18.152749
0.933079 52.985198 -35.013128
7.044956 40.247603 -25.245033
7.812144 37.285050 -40.434610
5.648220 44.410744 -42.695475
8.306719 35.375211 -22.516426
2.791847 50.175331 -39.176311
7.567954 38.228005 -4.972685
-3.054080 57.686698 -13.865301
-21.456544 68.201929 -24.453296
-1.884741 56.459723 -23.220679
7.307425 39.234062 -34.194139
8.071456 36.283697 -31.083393
-2.644494 57.287415 -20.759546
-10.756122 63.726451 -53.873408
-16.469613 66.564242 -6.585226
-1.990409 56.580433 -16.105066
-2.741013 57.381504 -24.796631
-20.179372 67.844550 -31.498096
4.911239 46.140586 -40.209427
-23.052625 68.557416 -36.809551
2.151323 51.194936 -25.349676
-27.951141 69.273995 -19.247317
-7.744190 61.728720 -11.654392
-19.447032 67.619433 -38.187819
0.967302 52.939232 -49.939463
-32.127349 69.387006 -3.823096
7.397995 38.884320 -8.489350
4.956191 46.035069 -18.959619
-11.855961 64.378916 -45.777673
-0.793061 55.212657 -29.583199
1.739260 51.850870 -31.760582
-28.394451 69.301066 -13.117336
6.514207 41.976829 -34.387497
-1.548477 56.075591 -45.284511
-31.171477 69.404284 -13.593883
-11.275255 64.034421 -36.649407
5.162607 45.550574 -4.353192
-10.858108 63.786952 -7.210966
4.932027 46.091790 -31.358274
-3.955549 58.565492 -49.844942
-32.766408 69.375458 -48.105128
2.889783 50.019435 -33.407022
7.473595 38.592377 -12.262330
-32.211419 69.385487 -8.392134
6.256394 42.745322 -49.574581
-31.449500 69.399257 -16.606633
-13.761766 65.361651 -6.322425
-31.096824 69.405631 -20.598216
-14.193151 65.573437 -31.421436
8.112077 36.126839 -44.417804
-6.185409 60.518865 -37.408669
2.333487 50.904961 -48.580660
-9.947921 63.247002 -18.971909
6.112840 43.173227 -25.514128
-29.236691 69.352494 -38.441151
-32.861439 69.373741 -47.690099
4.181957 47.647790 -38.277535
-3.673248 58.290290 -38.380206
7.240905 39.490930 -24.052443
-25.190611 68.944482 -26.533546
2.122314 51.241109 -24.458162
-6.618617 60.879033 -39.410718
-28.560008 69.311174 -9.752535
6.180499 42.971551 -5.320409
2.584611 50.505213 -39.580209
5.407433 44.975920 -41.007853
-19.674218 67.689268 -46.651138
7.483495 38.554149 -8.237001
-20.139307 67.832233 -33.024222
-3.540182 58.160569 -36.604329
-23.328471 68.618849 -35.150997
7.979290 36.639603 -46.256218
6.550882 41.867506 -37.874817
-28.216822 69.290214 -15.848390
0.687958 53.314437 -40.498222
-21.864877 68.292873 -17.928352
-22.212812 68.370369 -30.132011
0.075419 54.137178 -22.496752
-25.466101 68.983327 -47.320680
-7.854324 61.806440 -18.030928
-25.672764 69.012462 -15.517569
-18.800191 67.420605 -21.627686
8.203913 35.772202 -48.304117
4.102658 47.799425 -51.204884
-21.796325 68.277608 -12.447336
-18.878986 67.444827 -20.036718
7.750376 37.523566 -41.408275
0.564485 53.480282 -20.314098
-17.094761 66.811970 -33.710138
-11.124960 63.945261 -14.554267
-5.096386 59.613456 -26.632244
-31.854697 69.391935 -19.932540
4.987726 45.961049 -7.862060
-14.557073 65.752102 -42.316932
2.475654 50.678658 -38.413480
8.244236 35.616493 -41.791043
-23.396540 68.634013 -41.374713
-28.855552 69.329217 -42.818486
-19.634505 67.677063 -43.232454
-0.985099 55.432029 -45.971932
1.992456 51.447825 -13.730195
6.551475 41.865736 -39.736739
-11.763045 64.323796 -35.745448
4.063918 47.873503 -37.123630
-4.063128 58.670365 -43.516328
-20.550943 67.958768 -33.691463
-8.435191 62.216335 -48.075794
-1.490960 56.009890 -11.043129
3.709563 48.551109 -23.733092
-22.321352 68.394540 -10.432406
4.132499 47.742360 -40.223252
0.193050 53.979179 -14.697856
7.888740 36.989266 -36.271968
-28.326390 69.296906 -13.968062
-31.934881 69.390488 -5.795331
-29.220494 69.351496 -45.469921
8.047063 36.377889 -32.481652
2.337507 50.898560 -12.938133
-26.714801 69.159380 -28.931014
5.295195 45.239363 -52.041355
-11.660707 64.263080 -37.397357
2.226943 51.074564 -9.785824
-12.722272 64.851326 -37.684277
7.334960 39.127730 -22.403558
1.134148 52.715127 -41.250999
-13.986483 65.471974 -52.337801
-22.236627 68.375668 -18.664688
-22.400243 68.412113 -9.863895
7.932414 36.820612 -44.362919
-10.471164 63.557407 -13.059363
3.708647 48.552858 -21.370739
5.126698 45.634860 -11.961048
-6.089247 60.438915 -43.100396
-14.521690 65.734730 -38.022188
-3.127453 57.758222 -9.732127
-25.575938 68.998810 -41.980212
7.114576 39.978755 -36.823632
-11.982759 64.454132 -23.521319
-31.140043 69.404851 -31.042763
4.184226 47.643446 -36.887870
-21.746651 68.266541 -31.017181
-8.323180 62.137294 -17.378586
-32.606617 69.378348 -40.434485
-6.386512 60.686060 -41.693226
-11.282629 64.038795 -39.385655
-25.558895 68.996407 -42.343251
-17.343695 66.910615 -27.729861
-6.691429 60.939566 -27.411652
6.221078 42.850589 -55.170130
7.758509 37.492164 -41.767393
-0.901341 55.336350 -25.324353
-24.855617 68.897254 -22.179013
8.138231 36.025835 -27.169806
-10.612077 63.641004 -7.175954
-22.787540 68.498374 -13.019466
-27.573538 69.250940 -28.268410
3.779752 48.416895 -16.567873
7.354544 39.052104 -16.182988
-10.811908 63.759548 -47.789829
1.687098 51.933905 -12.485812
-18.920498 67.457583 -25.919715
-5.674992 60.094506 -3.293380
-13.147708 65.060185 -3.794822
3.876747 48.231415 -42.195443
-11.937476 64.427269 -47.215074
1.122366 52.730949 -46.530652
5.632004 44.448805 -32.818296
-32.828860 69.374328 -38.462246
5.573603 44.585891 -27.475070
-18.722147 67.396615 -30.592658
-13.280421 65.125338 -13.906143
-28.824011 69.327287 -10.558115
7.257955 39.425091 -13.225098
-7.938719 61.865993 -25.266847
1.997958 51.439066 -16.967767
-29.254941 69.353601 -33.549166
7.351422 39.064158 -25.649737
5.235767 45.378851 -51.882551
-19.205705 67.545256 -49.815537
-14.147418 65.550983 -32.666838
-26.394316 69.114198 -38.027530
-26.148546 69.079546 -49.574932
-26.131801 69.077182 -44.157674
7.667716 37.842770 -10.250633
-28.650281 69.316684 -13.371289
-19.137982 67.524434 -19.048899
-23.211963 68.592906 -34.700456
-27.575610 69.251064 -9.367912
7.649218 37.914200 -16.027026
6.604045 41.709035 -40.692837
-25.983992 69.056346 -13.372358
-13.322682 65.146086 -21.434057
-25.875798 69.041089 -38.237742
-31.314208 69.401698 -15.879077
0.540035 53.513122 -37.383274
-28.522199 69.308861 -4.457521
-13.730949 65.346524 -10.018301
2.282925 50.985447 -15.236202
-26.404336 69.115611 -22.943142
-1.143071 55.612486 -40.470632
-21.998517 68.322640 -12.516080
-18.860924 67.439275 -26.328665
3.505523 48.941276 -8.267016
-16.522903 66.585357 -19.958676
-13.757944 65.359773 -17.011295
-28.602186 69.313752 -10.747071
-4.018600 58.626959 -42.883053
6.644169 41.589441 -29.080967
-1.401890 55.908145 -19.624598
7.591913 38.135492 -22.091905
-24.685470 68.873263 -18.002188
-2.103930 56.710110 -29.120435
-32.379146 69.382455 -45.851860
-15.605921 66.221994 -33.466785
-7.977603 61.893435 -49.745392
-23.446813 68.645211 -38.969050
7.371048 38.988372 -23.766157
-10.719386 63.704664 -18.011463
7.518626 38.418491 -13.797749
-14.129661 65.542268 -46.000633
-6.156770 60.495054 -30.044467
2.140914 51.211510 -22.657952
-1.816052 56.381262 -16.194777
-30.795288 69.411078 -41.265198
1.235248 52.579334 -36.135814
-3.194417 57.823503 -16.700866
-19.411922 67.608642 -42.758698
-7.765344 61.743649 -15.954842
4.113385 47.778910 -33.524572
-26.366371 69.110260 -5.836242
-1.762004 56.319518 -13.855544
8.156199 35.956453 -40.242881
-31.598429 69.396566 -14.775396
-27.768632 69.262854 -28.602253
-13.367244 65.167968 -12.183694
7.954250 36.736292 -38.204241
-8.925214 62.562128 -47.435447
2.526788 50.597259 -49.228885
-32.378206 69.382472 -50.796962
4.022315 47.953054 -46.108433
-27.959143 69.274488 -22.039216
7.408072 38.845396 -26.713010
-31.502836 69.398293 -20.264957
-16.508249 66.579557 -6.311790
3.959683 48.072822 -45.301395
-22.698060 68.478445 -19.905985
-29.003758 69.338263 -39.046519
-16.026395 66.388610 -8.098821
-14.113428 65.534292 -46.097839
-23.173411 68.584317 -47.376545
-13.823572 65.391995 -41.646783
-30.886911 69.409427 -16.409761
-28.141653 69.285629 -27.337535
-11.582394 64.216625 -38.941932
-26.171117 69.082729 -31.105493
7.838378 37.183750 -5.885901
-8.918226 62.557199 -39.329358
5.666189 44.368567 -25.084602
-3.838570 58.451453 -45.852375
-1.831832 56.399283 -19.829880
-24.670395 68.871138 -29.950857
-14.492880 65.720585 -24.767414
5.382447 45.034564 -40.913969
-0.928422 55.367284 -41.244730
-13.279140 65.124716 -18.467286
-5.501726 59.950449 -5.611358
5.212670 45.433066 -17.723130
-26.018371 69.061192 -48.430314
5.089754 45.721573 -20.801338
5.226195 45.401322 -13.468877
0.259849 53.889460 -17.610918
-26.283145 69.098524 -27.221161
5.482519 44.799678 -22.826182
6.610636 41.689387 -50.576176
-8.217872 62.062984 -49.197718
0.941737 52.973571 -30.106799
5.540198 44.664294 -46.272347
6.573711 41.799456 -48.918792
-28.509697 69.308104 -11.438637
7.133802 39.904513 -17.541830
-10.124022 63.351475 -28.695048
-28.604326 69.313878 -18.748352
-22.488236 68.431712 -42.818253
-19.059042 67.500174 -21.394798
-5.309661 59.790773 -19.217105
1.226184 52.591511 -27.058482
-31.066852 69.406174 -11.951542
6.374261 42.393977 -10.972895
-11.113102 63.938225 -7.487883
5.548341 44.645180 -37.205642
-18.941688 67.464095 -22.337249
6.552115 41.863833 -37.779099
-7.772735 61.748864 -13.295769
-11.095715 63.927912 -44.607595
-23.120042 68.572433 -31.852600
-3.772175 58.386725 -38.573352
-8.300796 62.121500 -6.255558
-0.608346 55.001649 -25.513026
-29.489449 69.367921 -37.748006
3.913437 48.161255 -10.067582
4.239883 47.537015 -29.262461
-10.543972 63.600596 -13.357679
-3.002870 57.636773 -9.620429
5.616711 44.484702 -49.387547
0.691306 53.309938 -43.460451
-31.955881 69.390105 -13.654842
-6.363200 60.666673 -44.399407
7.837506 37.187114 -48.945027
7.228451 39.539023 -14.977284
-32.865268 69.373666 -38.444579
-30.949244 69.408298 -29.652470
7.841824 37.170438 -47.212297
5.137986 45.608366 -16.981904
7.796221 37.346534 -41.630282
-31.125213 69.405120 -21.508278
0.083625 54.126153 -27.597955
-3.495151 58.116673 -20.992217
-6.530889 60.806095 -33.750477
-6.395463 60.693498 -39.584686
-21.557924 68.224512 -28.643353
5.555717 44.627866 -41.912743
6.235013 42.809049 -23.997980
7.575516 38.198803 -9.767670
-10.704453 63.695802 -44.502143
8.153152 35.968220 -26.916230
-1.270066 55.757556 -37.711365
6.073432 43.290694 -28.512160
3.510646 48.931483 -19.391207
1.749735 51.834198 -19.708335
-28.958077 69.335482 -37.505230
6.293230 42.635523 -39.358158
-5.591424 60.025024 -15.286678
5.206722 45.447026 -45.407085
-30.970051 69.407919 -19.186886
-28.338117 69.297624 -9.659902
5.596803 44.531430 -49.245346
-11.308559 64.054179 -44.452907
-1.433337 55.944066 -46.086261
3.781608 48.413341 -19.876761
-22.544789 68.444308 -15.230813
2.597729 50.484337 -39.904337
-25.187271 68.944014 -4.343966
2.670606 50.368327 -28.693959
5.130979 45.624807 -21.238951
-29.663060 69.378523 -49.974116
-16.343593 66.514303 -13.755649
8.164987 35.922517 -47.895559
-25.341637 68.965776 -23.973764
6.597007 41.730020 -41.682686
-2.925885 57.561726 -27.468944
8.191723 35.819278 -40.984920
-11.064425 63.909350 -38.644352
-11.648581 64.255887 -33.948475
-17.326057 66.903626 -33.809072
8.125773 36.073944 -46.639432
-12.921709 64.949239 -32.401015
-31.508601 69.398190 -11.777819
-27.804266 69.265030 -15.864801
-10.123839 63.351364 -36.507543
-15.961063 66.362723 -17.530668
-13.009723 64.992445 -18.638046
-20.389942 67.909276 -43.084578
-6.331653 60.640448 -45.911756
7.680879 37.791939 -12.323374
-10.424525 63.529741 -21.655540
0.354809 53.761914 -26.729004
-3.853454 58.465968 -46.450305
-5.366050 59.837650 -49.159483
-1.533023 56.057939 -23.849012
-17.393732 66.930442 -50.532576
-1.886033 56.461196 -19.174564
5.484336 44.795412 -51.760216
-6.187875 60.520916 -3.910108
-5.597331 60.029937 -16.020595
-16.627377 66.626763 -16.801110
-5.076542 59.596957 -33.293043
-11.028890 63.888270 -32.432489
-3.264906 57.892223 -25.006774
-8.338174 62.147875 -44.147494
-33.238424 69.366926 -32.581121
-29.616126 69.375660 -28.104897
6.384266 42.364159 -38.079737
-16.122633 66.426749 -14.033396
-22.340298 68.398761 -54.941972
0.823018 53.133029 -38.019162
-10.866317 63.791825 -21.621956
-22.070143 68.338589 -8.089810
8.005249 36.539358 -30.910606
-1.251975 55.736893 -37.664732
7.056086 40.204625 -35.740358
-19.038761 67.493939 -25.617037
-0.996936 55.445547 -48.481498
-10.674638 63.678118 -13.660632
-24.931567 68.907966 -20.243065
0.775766 53.196498 -38.807668
-2.700121 57.341640 -4.041911
7.796419 37.345776 -13.453273
7.423958 38.784055 -13.906451
-22.551281 68.445758 -47.532107
-31.106244 69.405457 -22.608727
-4.297495 58.898834 -39.660557
5.978721 43.573011 -25.500386
8.044967 36.385987 -41.339536
-24.863847 68.898417 -13.304452
5.643895 44.420901 -44.645245
-15.594092 66.217304 -40.900203
6.223778 42.842541 -12.411966
-31.904623 69.391031 -13.690832
0.923064 52.998650 -28.515609
6.700606 41.421209 -24.388258
-8.452396 62.228474 -50.400009
-14.239218 65.596052 -27.343370
7.924272 36.852055 -35.939078
4.227033 47.561587 -33.227263
-3.997154 58.606052 -31.980872
2.847236 50.087161 -32.924471
-12.739055 64.859567 -33.232634
-13.045955 65.010235 -18.476705
-11.549116 64.196882 -29.744077
-24.972284 68.913701 -25.672333
0.681639 53.322919 -39.136429
2.742178 50.254392 -26.899205
8.064686 36.309837 -53.600357
-31.164324 69.404409 -21.847435
-1.522549 56.045977 -10.142969
-3.324801 57.950609 -15.864708
2.822204 50.127008 -37.277347
-17.507227 66.975419 -30.526099
5.665660 44.369812 -25.415589
-23.469196 68.650200 -29.085685
-32.633564 69.377859 -35.166645
-3.547477 58.167679 -21.798018
-5.825016 60.219231 -47.509056
7.288479 39.307220 -33.342177
1.135480 52.713338 -37.696155
7.340774 39.105280 -24.136190
-20.069440 67.810756 -47.537363
-24.695468 68.874679 -12.458744
-26.422851 69.118219 -25.502015
0.392494 53.711295 -19.123849
0.971051 52.934193 -27.548676
-26.556420 69.137047 -28.902333
0.497749 53.569917 -12.343209
-6.029870 60.389549 -43.348526
-3.942428 58.552701 -41.684916
-18.692946 67.387640 -19.028828
2.233942 51.063420 -47.897932
-27.933415 69.272912 -29.076268
-8.246836 62.083425 -19.832230
-31.791838 69.393074 -47.581908
-27.908741 69.271407 -15.239830
7.655858 37.888561 -16.394818
7.970327 36.674214 -36.452187
-14.096237 65.525857 -36.520233
-27.979357 69.275717 -33.400179
-14.083167 65.519439 -30.795608
-29.554319 69.371884 -29.258910
5.373768 45.054933 -42.635825
4.194793 47.623241 -44.349364
-23.233141 68.597618 -53.296852
-3.643745 58.261528 -6.836041
2.016264 51.409926 -22.722225
-10.374728 63.500202 -21.604403
-6.237601 60.562253 -38.636687
-31.231122 69.403202 -15.083359
7.773233 37.435308 -43.182801
-3.212706 57.841329 -12.643318
2.452589 50.715372 -42.661870
-2.844044 57.481941 -23.787848
-2.977706 57.612243 -36.044223
7.306659 39.237015 -14.664884
-22.066054 68.337680 -20.121503
-0.801533 55.222331 -33.164499
-20.109019 67.822917 -42.052450
-11.178006 63.976728 -37.539140
1.213004 52.609208 -31.887361
-28.159756 69.286736 -12.712720
-2.710197 57.351461 -32.553884
-13.078867 65.026392 -30.783739
5.433492 44.914751 -35.888195
-21.818653 68.282580 -24.701410
-10.704807 63.696015 -14.471682
6.335308 42.510094 -14.475843
3.670152 48.626467 -14.738895
-32.306606 69.383770 -52.773565
7.379631 38.955226 -17.266243
-23.586970 68.676422 -39.341433
-25.672119 69.012373 -44.698373
1.164457 52.674419 -44.523293
-26.414469 69.117041 -31.727288
-29.257247 69.353747 -43.871051
7.720378 37.639408 -2.217209
4.203273 47.607023 -43.925239
-1.296314 55.787540 -38.127752
-5.568006 60.005561 -13.915212
0.358363 53.757137 -11.093050
-10.463570 63.552903 -21.809195
-31.064141 69.406223 -21.704448
7.364428 39.013937 -23.904224
-3.313653 57.939743 -9.314806
-19.827519 67.736395 -44.721747
8.197555 35.796755 -41.521152
-6.276443 60.594548 -38.462156
8.026212 36.458405 -49.729869
-30.984481 69.407663 -24.290217
-26.559783 69.137526 -26.908043
7.314158 39.208059 -15.527811
-1.296992 55.788320 -10.708164
-6.312383 60.624425 -43.303319
-31.881552 69.391449 -37.521417
7.251926 39.448374 -29.694909
7.666431 37.847730 -9.467070
-16.031600 66.390672 -8.070649
-17.013921 66.779933 -47.609067
-25.515974 68.990362 -21.429411
7.100905 40.031556 -30.256527
0.827740 53.126684 -35.145702
-32.544954 69.379462 -37.467605
-16.541086 66.592565 -13.471180
-10.600457 63.634105 -46.936290
6.707803 41.399755 -50.514548
7.652060 37.903230 -15.876194
5.376853 45.047695 -2.236360
-0.858739 55.287683 -46.064634
7.513262 38.439211 -15.290736
-20.446014 67.926511 -45.195809
3.449938 49.047572 -18.868296
-31.084820 69.405847 -14.034153
-21.483517 68.207934 -23.519816
-6.165995 60.502722 -45.784718
3.883064 48.219339 -14.061279
-32.619455 69.378113 -48.819038
-32.443951 69.381282 -27.029204
-32.933479 69.372443 -33.387447
7.598411 38.110390 -1.743657
2.225916 51.076194 -11.412931
7.324764 39.167102 -14.706868
5.457493 44.858418 -39.732512
-26.258974 69.095117 -46.423055
-3.937074 58.547481 -49.959693
7.343087 39.096343 -22.300800
-13.660254 65.311816 -45.178557
1.985208 51.459363 -18.518675
-8.594874 62.329018 -39.543981
0.980846 52.921036 -37.952842
-25.504546 68.988748 -5.529062
-10.758932 63.728120 -24.409528
6.452755 42.160008 -36.113589
8.079143 36.254008 -45.124202
-6.076276 60.428132 -51.347632
-27.984386 69.276029 -24.326478
7.269159 39.381824 -24.821349
5.174167 45.523438 -0.851807
-10.697146 63.691469 -21.227661
4.933834 46.087547 -20.571086
-8.563945 62.307193 -40.880187
5.079572 45.745471 -21.697061
-25.664732 69.011335 -45.268512
-14.682701 65.813774 -40.606406
-6.064624 60.418442 -6.880732
-0.964191 55.408145 -53.893876
-1.713087 56.263637 -19.516075
-1.274669 55.762812 -49.529492
-16.949870 66.754551 -54.263004
7.846486 37.152429 -49.757038
-11.621793 64.239995 -25.113807
-29.653726 69.377959 -38.400367
-20.131299 67.829771 -37.077248
7.937731 36.800088 -10.723167
7.532553 38.364707 -11.795982
-26.272637 69.097045 -31.324232
-16.862262 66.719839 -42.862663
8.315161 35.342604 -26.224431
6.263577 42.723907 -24.288855
3.691476 48.585698 -20.257934
-4.228542 58.831616 -36.825816
8.010486 36.519138 -42.188969
-14.648366 65.796916 -47.699227
-13.372212 65.170402 -16.626389
-32.464928 69.380906 -40.371857
-27.967102 69.274972 -13.965373
0.802261 53.160907 -47.540486
-7.981220 61.895989 -16.530691
0.445184 53.640517 -24.208760
-1.383504 55.887139 -44.797883
2.135269 51.220492 -12.963021
7.187152 39.698498 -12.914476
-20.243401 67.864232 -34.766331
-14.151218 65.552848 -30.529966
-11.692611 64.282007 -40.814231
-10.246066 63.423875 -23.407765
8.072943 36.277955 -40.690832
-10.739036 63.716317 -21.025360
-10.491290 63.569350 -22.472650
1.966073 51.489820 -16.697194
-21.556506 68.224192 -23.491687
4.754679 46.508061 -36.197948
-22.776641 68.495943 -39.381414
4.848379 46.288131 -24.514624
2.491932 50.652744 -7.034888
-11.312367 64.056437 -45.985188
-27.804962 69.265071 -9.330460
3.844868 48.292371 -13.534618
-15.824436 66.308581 -20.409623
-26.746221 69.163811 -36.893100
-18.933517 67.461589 -20.160317
-31.372986 69.400642 -17.156410
-32.440060 69.381356 -44.762094
1.143787 52.702183 -42.959266
7.444332 38.705384 -16.695679
-20.169432 67.841495 -37.176160
-8.363846 62.165992 -9.213304
7.092675 40.063337 -20.080673
4.912382 46.137902 -24.421993
-6.481432 60.764973 -26.738117
8.126382 36.071592 -35.799931
-8.380261 62.177575 -50.128934
2.409435 50.784065 -47.424708
-28.911510 69.332633 -43.111287
6.576970 41.789743 -37.120657
6.716873 41.372717 -28.993239
0.745472 53.237187 -50.096033
-13.875648 65.417558 -9.102764
8.135944 36.034664 -35.863782
0.421070 53.672910 -43.859630
6.191951 42.937414 -26.864586
-2.851239 57.488960 -18.821496
-23.014419 68.548904 -31.630636
-5.380033 59.849277 -23.737767
6.159557 43.033972 -17.941460
-8.745667 62.435430 -37.693428
-29.656674 69.378132 -19.102775
2.140676 51.211883 -29.008968
-8.048342 61.943353 -20.901508
7.234167 39.516949 -13.830578
7.553491 38.283853 -9.151089
-2.996723 57.630781 -27.454001
5.177025 45.516735 -12.554526
5.135697 45.613736 -46.399173
-22.829836 68.507794 -40.690294
-23.352470 68.624198 -37.275191
-4.501143 59.097359 -32.079586
-32.462203 69.380955 -39.868614
-25.087072 68.929883 -5.841289
0.387198 53.718406 -41.993135
3.889711 48.206627 -43.209212
-0.804462 55.225683 -21.628407
-15.723835 66.268713 -31.144727
-1.087544 55.549056 -37.107312
-13.494965 65.230666 -9.336326
6.622211 41.654891 -32.919025
-8.731986 62.425771 -48.917355
6.337387 42.503891 -45.021885
-10.637493 63.656079 -20.050222
7.378767 38.958560 -24.846528
-24.859361 68.897785 -27.878558
-2.900296 57.536780 -14.365582
8.269717 35.518096 -37.091676
7.754587 37.507305 -16.267113
2.866997 50.055709 -49.092682
-32.090018 69.387677 -42.703769
-32.913173 69.372810 -26.261769
-24.954740 68.911230 -31.011784
0.930388 52.988812 -24.676572
-30.899287 69.409198 -22.896590
0.392990 53.710624 -19.194586
-18.649440 67.374264 -28.955572
-27.706718 69.259068 -17.988603
-23.157162 68.580696 -31.257749
2.669496 50.370090 -42.345086
7.870549 37.059512 -42.508881
-24.739352 68.880859 -16.879245
-28.045033 69.279729 -22.157102
-21.661663 68.247612 -39.107188
-7.595617 61.623881 -24.743235
-2.679477 57.321514 -36.857521
-5.057253 59.580923 -31.880794
-28.306747 69.295710 -10.764276
-5.486401 59.937713 -29.307676
4.137242 47.733288 -35.902428
-19.905339 67.760318 -52.204138
6.173140 42.993485 -16.194392
-28.600634 69.313656 -17.760863
7.453395 38.670380 -30.622762
-2.647116 57.289970 -25.194105
0.267536 53.879129 -7.187163
-23.134158 68.575577 -39.621333
6.144716 43.078212 -25.898302
0.419705 53.674746 -10.481002
-0.099357 54.371936 -29.108215
5.496091 44.767826 -41.741359
7.939239 36.794257 -40.255134
-19.825537 67.735781 -30.623869
2.756452 50.231676 -42.638763
-7.973187 61.890317 -23.721266
-1.321795 55.816646 -50.436668
-6.408288 60.704165 -33.846858
4.059375 47.882188 -46.907932
7.747003 37.536590 -3.939267
-6.079294 60.430643 -42.894826
7.514812 38.433216 -29.241813
-32.683565 69.376953 -33.477140
-2.734250 57.374910 -35.900006
-16.582988 66.609170 -45.011124
2.615533 50.455991 -35.326937
2.335456 50.901827 -49.563640
-3.844466 58.457205 -37.684062
-16.130355 66.429810 -10.249230
2.210485 51.100764 -23.768034
5.277845 45.280087 -13.074037
-32.658726 69.377402 -45.149582
-11.624586 64.241658 -41.323783
-24.924418 68.906957 -4.846030
-1.864763 56.436899 -55.640821
-5.915066 60.294102 -47.547167
4.239251 47.538224 -36.697192
-23.209008 68.592242 -41.135916
5.564880 44.606359 -46.619593
7.383676 38.939611 -19.571081
-0.542368 54.926278 -39.201153
7.804352 37.315143 -45.413205
-6.182092 60.516107 -34.412867
6.203309 42.903554 -11.349650
-29.566343 69.372623 -36.547999
-3.143256 57.773631 -17.992986
-1.843139 56.412198 -20.906477
-22.184519 68.364068 -31.273942
-13.288367 65.129242 -6.215456
-12.912402 64.944667 -33.442711
-8.736222 62.428762 -48.002225
-14.111337 65.533269 -40.358253
6.089440 43.242973 -21.664680
1.886637 51.616275 -8.649133
-15.627331 66.230476 -20.628742
4.195009 47.622827 -42.842327
-22.980858 68.541432 -43.267274
-21.493879 68.210249 -17.201912
8.093184 36.199796 -36.559590
5.628107 44.457953 -30.957252
8.274742 35.498692 -34.633788
-11.665754 64.266072 -41.688763
-19.664170 67.686181 -5.509507
-2.967893 57.602676 -24.695407
-29.782246 69.385799 -36.224140
6.472709 42.100530 -39.283649
-16.287438 66.492055 -16.677004
5.180743 45.508004 -8.624081
-10.697028 63.691398 -18.958048
-31.176392 69.404191 -19.752146
0.214540 53.950317 -21.355942
-10.814626 63.761161 -7.185707
-7.819444 61.781830 -24.043635
6.526998 41.938699 -33.693072
-22.182292 68.363574 -48.284597
4.242439 47.532132 -25.095751
5.040228 45.837817 -14.711964
-11.357073 64.082958 -1.214319
-2.957210 57.592266 -14.299312
-7.796587 61.765698 -4.446943
-11.366215 64.088379 -32.098518
7.518325 38.419647 -21.923532
8.367417 35.140822 -39.279662
2.503573 50.634214 -37.105471
0.353415 53.763788 -15.376077
-13.199407 65.085570 -21.523609
-5.185878 59.687859 -23.480991
0.561847 53.483823 -8.906547
6.380416 42.375632 -12.141862
7.588891 38.147159 -13.606920
0.168899 54.011621 -23.297779
-5.267367 59.755610 -26.288204
-28.433102 69.303422 -12.119994
4.756758 46.503174 -31.848792
-3.073662 57.705788 -17.555636
5.639969 44.430110 -29.234496
-26.273275 69.097130 -39.211132
8.050591 36.364264 -34.381968
-17.003933 66.775976 -37.404731
7.637972 37.957627 -19.639811
6.142457 43.084945 -19.581413
7.468926 38.610410 -10.426368
7.496815 38.502715 -24.513117
-27.954138 69.274180 -20.850484
-28.641775 69.316163 -48.821907
4.282647 47.455242 -30.488294
7.935855 36.807334 -51.198289
5.613947 44.491191 -30.335956
7.556763 38.271222 -21.225429
-12.765138 64.872368 -20.543039
-29.322584 69.357735 -35.208639
-28.012683 69.277749 -32.653934
-17.238033 66.868741 -34.921733
-27.736041 69.260866 -21.665949
-26.822394 69.174551 -27.145266
-8.312776 62.129950 -35.923310
-6.288305 60.604410 -36.192622
5.274065 45.288956 -9.736287
4.241849 47.533258 -37.467320
-8.036585 61.935054 -7.624048
-3.377972 58.002437 -27.748588
2.101570 51.274137 -23.160375
8.008453 36.526990 -30.311280
1.856891 51.663618 -16.617085
-14.054396 65.505312 -44.115688
6.550592 41.868369 -45.714012
2.835862 50.105266 -26.552899
-22.998447 68.545347 -45.874402
-4.013319 58.621806 -49.803049
7.910499 36.905246 -41.987918
-32.013364 69.389068 -46.421411
7.309601 39.225656 -28.049940
-24.927421 68.907375 -12.419714
-11.182888 63.979625 -8.986201
-0.034057 54.284226 -33.325436
-3.498850 58.120278 -18.180177
6.690616 41.450986 -23.557956
-16.294775 66.494960 -16.476052
-28.359657 69.298942 -8.451202
-22.230688 68.374350 -11.474361
2.625951 50.439409 -52.718002
-8.821720 62.489093 -35.124282
3.460143 49.028057 -18.828036
5.196460 45.471116 -17.841096
-28.940904 69.334434 -47.221690
4.064980 47.871470 -42.476167
7.462311 38.635956 -23.540237
-0.741319 55.153548 -42.155090
2.004419 51.428785 -19.922203
-3.474959 58.096990 -43.068359
-10.222077 63.409643 -21.867978
-14.278759 65.615464 -41.249359
1.009954 52.881943 -39.276454
-26.532995 69.133746 -41.989136
-7.719820 61.711526 -15.037408
0.864964 53.076685 -45.483710
-31.006770 69.407259 -22.455316
7.505715 38.468342 -8.840782
-11.488955 64.161196 -46.696734
8.116587 36.109421 -41.558331
-16.338899 66.512445 -18.803024
-8.736663 62.429075 -39.695782
2.547427 50.564408 -4.942459
5.249281 45.347126 -51.037470
5.514005 44.725777 -42.256135
-18.866607 67.441022 -19.827331
-25.517681 68.990597 -8.524538
-32.277404 69.384293 -38.166415
-0.736093 55.147583 -23.450681
-13.201354 65.086526 -16.710112
-4.102587 58.708831 -32.266797
3.921130 48.146543 -39.755456
0.040059 54.184672 -17.733674
-3.221863 57.850261 -21.613115
2.171961 51.162081 -13.550451
-6.399563 60.696909 -50.869646
-15.631829 66.232255 -27.724485
7.547446 38.307205 -48.860025
0.276866 53.866602 -24.731095
-10.383866 63.505623 -7.900657
-3.797350 58.411272 -37.831146
5.423743 44.937642 -10.475350
5.232981 45.385394 -16.495423
2.154809 51.189386 -24.241366
-13.771114 65.366240 -35.771224
8.068214 36.296220 -27.115785
-1.807693 56.371707 -13.961971
-10.328405 63.472720 -13.743406
2.208735 51.103547 -8.714654
3.608213 48.744911 -22.268323
-3.484951 58.106726 -13.082220
8.160504 35.939830 -28.784874
0.238018 53.918780 -32.504359
2.865172 50.058611 -47.533412
-2.057933 56.657567 -31.119951
-26.378507 69.111967 -45.993026
8.108728 36.139764 -38.251762
-26.551193 69.136315 -35.190750
6.012260 43.473037 -38.897642
-3.992700 58.601710 -34.789761
-22.841999 68.510505 -8.083175
-16.420080 66.544617 -17.264009
6.636613 41.611964 -42.631628
7.719319 37.643502 -14.039068
-0.637664 55.035138 -37.080750
-16.663235 66.640970 -14.412688
-28.424572 69.302904 -10.969955
-28.883009 69.330895 -7.173758
-28.270337 69.293486 -18.174806
-28.345560 69.298077 -17.338561
-19.466713 67.625486 -45.732488
-10.671268 63.676120 -20.473407
-11.305891 64.052592 -49.823728
-13.494603 65.230491 -52.059227
5.342201 45.129032 -38.570328
-23.105924 68.569287 -40.340923
-16.211994 66.462158 -8.108402
7.831104 37.211836 -41.040422
1.137850 52.710154 -45.570976
2.639632 50.417629 -40.508969
-1.006154 55.456078 -27.833568
7.521352 38.407966 -6.170761
-22.301401 68.390092 -6.299859
6.201160 42.909959 -26.180396
-4.404377 59.003028 -34.135450
3.471658 49.006035 -20.711015
-31.602326 69.396495 -18.413732
-19.124824 67.520395 -17.389252
2.220785 51.084362 -5.855735
0.989053 52.910019 -42.693428
-24.594071 68.860379 -39.058221
-30.553678 69.415446 -29.588687
8.000635 36.557177 -35.009664
-8.273933 62.102543 -9.730616
2.669066 50.370781 -38.756546
-11.628582 64.244026 -30.809747
-1.932386 56.514154 -24.755150
8.012418 36.511675 -8.608371
-11.510729 64.174111 -38.494386
-7.884835 61.827975 -28.981653
6.619692 41.662396 -22.545116
-12.915689 64.946279 -18.706490
-17.815726 67.097665 -35.813163
5.576665 44.578701 -45.399527
-3.904734 58.515954 -38.359975
7.372628 38.982276 -12.234733
-22.495089 68.433238 -15.302987
-6.521309 60.798127 -31.847585
-8.871071 62.523920 -40.733841
-0.681020 55.084665 -35.357396
-23.467121 68.649729 -38.192432
2.553642 50.554516 -45.877104
7.764286 37.469854 -48.191928
0.069146 54.145602 -15.538636
5.579483 44.572085 -48.210257
-1.670674 56.215184 -12.996865
-9.970638 63.260483 -13.209260
5.337466 45.140148 -8.270560
-22.865445 68.515726 -40.688509
3.665522 48.635327 -17.217343
-26.053409 69.066135 -32.938606
6.121805 43.146500 -9.056799
-4.317937 58.918764 -20.407033
-31.055803 69.406367 -14.960650
2.017797 51.407488 -18.194148
4.157755 47.694064 -35.312482
-8.058283 61.950366 -26.821490
-2.945633 57.580977 -20.398289
-20.370934 67.903431 -33.971203
-19.206680 67.545555 -26.431636
-32.337966 69.383202 -45.740295
6.342485 42.488696 -16.603389
4.051333 47.897565 -12.208891
7.493092 38.517091 -25.180216
8.040676 36.402555 -43.256564
8.128601 36.063026 -29.654494
7.488578 38.534521 -10.089871
-32.011472 69.389097 -16.951001
6.477761 42.085472 -42.801523
7.959054 36.717746 -39.854024
5.527466 44.694180 -38.697616
-1.180086 55.654769 -36.797856
5.321021 45.178747 -39.394086
-12.684330 64.832702 -13.986201
7.787776 37.379146 -43.693403
6.523422 41.949360 -34.373702
-4.006135 58.614801 -29.149201
2.187257 51.137734 -47.148397
-1.591195 56.124393 -13.548659
-6.170260 60.506271 -11.607769
-16.095423 66.415966 -27.372567
-10.202182 63.397840 -24.601748
-6.195875 60.527563 -35.981839
-13.874141 65.416822 -36.791134
2.039824 51.372425 -26.446407
-28.774033 69.324244 -50.643226
-3.095679 57.727248 -9.619135
-3.110737 57.741931 -3.818596
-11.913804 64.413226 -37.639866
3.724558 48.522433 -21.904083
-5.420806 59.883177 -27.785455
4.215485 47.583675 -45.459133
5.335276 45.145288 -17.020395
-8.775868 62.456739 -35.909260
-19.068259 67.503004 -7.951483
8.126525 36.071040 -52.711844
-2.840885 57.478867 -13.142329
-8.305780 62.125016 -3.020625
-6.538165 60.812141 -31.754554
-7.671936 61.677733 -27.738200
7.337753 39.116944 -21.281690
-20.002510 67.790181 -32.746681
5.550167 44.640894 -24.295124
-11.719079 64.297710 -40.540567
7.699905 37.718475 -45.672156
-1.985839 56.575212 -29.780690
-3.557755 58.177703 -50.078924
-6.271091 60.590097 -42.814370
-13.671612 65.317394 -52.504049
5.515125 44.723148 -39.566568
-6.477805 60.761960 -36.076151
-9.110131 62.692615 -38.964156
6.449251 42.170450 -5.970532
-13.675021 65.319066 -10.121598
-5.884608 60.268778 -49.371070
1.861620 51.656095 -19.829723
7.941555 36.785317 -47.730985
-23.110948 68.570404 -39.464207
-31.317080 69.401649 -27.283336
-19.147353 67.527318 -16.528057
5.381486 45.036823 -47.656263
5.431750 44.918843 -29.524995
-25.663739 69.011191 -8.633512
4.376230 47.276292 -23.019140
-19.062890 67.501352 -7.718165
-25.826828 69.034187 -42.360127
-2.965449 57.600293 -28.129573
-22.137778 68.353658 -19.641103
-1.039456 55.494123 -32.509927
2.703532 50.315913 -32.643109
6.534143 41.917401 -36.606898
6.405982 42.299423 -14.281839
-1.125271 55.592153 -47.295178
-6.836028 61.059783 -36.508731
7.627534 37.997938 -26.396634
5.397131 45.000098 -44.393278
2.730691 50.272680 -40.323736
-16.991296 66.770975 -35.220202
8.050551 36.364425 -32.222553
2.058093 51.343344 -18.494877
4.229307 47.557244 -45.690266
-19.703821 67.698372 -3.518981
3.294233 49.345308 -37.983896
-1.552661 56.080376 -45.853607
-26.281234 69.098255 -49.882044
6.151749 43.057241 -29.560692
-3.789661 58.403775 -1.996056
4.955262 46.037252 -2.266338
-14.307065 65.629362 -37.667627
7.271012 39.374668 -24.797210
-10.250385 63.426442 -13.662950
5.153259 45.572514 -19.099729
-29.398157 69.362349 -46.742141
-14.069808 65.512880 -28.742824
-9.102262 62.687060 -17.160648
6.251743 42.759180 -25.869011
-26.344064 69.107115 -38.765775
-30.967691 69.407966 -18.697486
-29.235284 69.352402 -51.881839
3.718433 48.534145 -45.146814
-5.255330 59.745599 -28.367515
-3.634447 58.252465 -44.724734
3.445605 49.055855 -24.071778
0.242530 53.912722 -13.999118
-17.681846 67.044616 -23.545446
-1.560892 56.089780 -18.077669
2.834419 50.107566 -41.780792
-31.695783 69.394810 -10.035215
-1.852906 56.423355 -30.205526
1.062954 52.810751 -36.093185
3.595883 48.768492 -14.356009
3.675902 48.615475 -16.752418
4.359190 47.308874 -35.787078
-26.060335 69.067109 -28.921151
0.475725 53.599504 -7.286503
2.676136 50.359523 -41.019828
-25.486439 68.986192 -9.521361
2.362439 50.858876 0.091963
-8.647992 62.366504 -48.527691
7.032749 40.294737 -12.145855
-32.460177 69.380996 -43.779098
3.742893 48.487376 -11.435372
-6.464623 60.751002 -27.453240
-5.632698 60.059347 -18.137583
-24.893731 68.902624 -22.413065
7.931448 36.824345 -45.547365
6.181254 42.969301 -18.605227
-19.959735 67.777033 -35.605697
6.360986 42.433547 -22.888888
0.529794 53.526878 -47.402946
0.543179 53.508899 -10.905403
3.726825 48.518099 -12.434832
0.661007 53.350637 -46.315768
3.643152 48.678100 -33.358158
-13.199883 65.085801 -16.447894
-22.543291 68.443975 -12.973830
-14.195427 65.574555 -35.704071
-1.785077 56.345870 -13.447652
-18.749670 67.405074 -25.390536
-25.488977 68.986553 -6.728851
0.379487 53.728761 -13.824924
-17.313943 66.898820 -35.746034
-18.813255 67.424620 -21.361262
-0.052763 54.309350 -11.961691
1.848253 51.677372 -42.118888
-25.889713 69.043054 -45.558273
-7.819067 61.781558 -11.565095
2.157893 51.184482 -5.185913
1.007726 52.884930 -42.383935
-3.889490 58.501095 -41.564214
-13.999123 65.478178 -44.741059
7.609689 38.066844 -7.875055
6.084031 43.259100 -23.379159
-14.036131 65.496348 -48.275853
7.371875 38.985180 -10.201592
7.671903 37.826601 -8.580701
2.704838 50.313834 -44.771363
-28.803071 69.326018 -45.666985
7.296044 39.278005 -15.020812
7.574431 38.203002 -15.516653
-5.348042 59.822680 -16.247678
0.772444 53.200957 -10.118713
0.509376 53.554296 -43.978601
-14.180407 65.567176 -36.429484
5.492024 44.777364 -38.422673
-11.863468 64.383362 -39.958910
-18.827523 67.429006 -20.575222
8.007650 36.530087 -36.388827
-28.371064 69.299637 -21.018729
2.786717 50.183500 -28.834565
7.958621 36.719414 -36.771501
-14.027246 65.491983 -39.274312
-28.328756 69.297053 -7.980981
8.148444 35.986404 -40.449147
-0.834272 55.259733 -27.085039
0.358182 53.757382 -6.902337
1.760036 51.817795 -18.817268
-0.940146 55.380675 -39.600598
-22.749308 68.489863 -7.693008
-3.938051 58.548436 -43.706254
-10.762163 63.730040 -17.178955
-14.734975 65.839439 -44.260381
-19.343183 67.587514 -10.604559
-6.318172 60.629242 -34.441056
-19.629336 67.675475 -4.914661
-17.087729 66.809186 -38.604879
0.438826 53.649062 -13.052122
-5.375998 59.845920 -1.419280
