0.094302 -0.108387 -0.347153
0.089539 0.134809 0.444828
0.024947 -0.094648 0.048454
-0.103802 0.004871 -0.049951
-0.083699 -0.070630 -0.037084
0.041034 -0.174785 -0.464001
0.057583 -0.071783 0.095219
0.066120 -0.151636 -0.467948
-0.009785 0.050458 0.487177
0.013576 -0.017972 0.488645
0.075789 0.001433 -0.401063
0.002587 -0.089364 -0.480060
-0.092060 -0.001401 -0.290282
0.080838 0.123505 0.312652
-0.079905 0.079980 0.063340
0.092786 -0.096018 -0.261315
-0.097858 -0.066952 -0.162900
-0.037624 -0.159048 -0.467775
0.005450 0.174592 0.465262
-0.104634 -0.044512 -0.267804
0.089565 0.123823 0.383760
-0.024259 -0.093894 0.053777
0.093056 -0.096935 -0.269414
-0.002517 -0.161622 -0.308275
0.104153 -0.004645 0.008573
-0.097321 0.026948 -0.067612
0.086046 -0.024082 -0.472159
-0.102934 0.078260 0.329697
-0.072028 -0.086599 -0.052179
-0.029099 -0.158433 -0.313865
-0.059862 0.153051 0.468973
0.104588 -0.001655 -0.031213
0.018295 0.122023 0.097006
-0.006645 0.032982 -0.407903
-0.044922 -0.061951 0.190783
-0.104500 0.049376 0.245297
-0.058992 -0.142567 -0.305075
-0.019619 -0.039699 0.361896
0.097319 -0.117085 -0.435333
-0.036552 -0.111432 -0.065548
0.058922 0.007761 -0.446906
-0.086009 -0.048762 0.066757
0.086703 -0.088658 -0.162184
0.100165 -0.110219 -0.442586
-0.045681 0.161176 0.365988
-0.039962 0.036515 -0.344622
0.094494 0.023003 -0.126741
0.104402 0.054769 0.261824
-0.057534 -0.145951 -0.318570
-0.015442 0.112418 0.040836
0.079746 -0.124005 -0.307495
-0.040129 0.080377 -0.099391
-0.089270 -0.050276 0.029741
-0.088475 0.074660 0.100028
-0.092882 -0.013274 0.199607
-0.092900 0.075060 0.146112
-0.088019 0.010379 -0.262931
-0.086060 -0.079269 -0.103888
-0.093995 0.033670 -0.072915
0.076589 0.043798 -0.160121
-0.098956 0.012705 0.265076
-0.054660 0.035926 0.489679
-0.104453 0.078122 0.470851
0.005732 -0.153148 -0.261974
0.103321 0.015738 0.167069
-0.079145 -0.008807 -0.437768
0.082590 0.056647 -0.048128
0.082005 0.008062 -0.323314
-0.023769 0.146613 0.470163
-0.024596 0.108470 0.028773
-0.038293 0.102989 0.022855
-0.038104 0.132116 0.185051
-0.074600 0.042960 -0.176198
-0.067358 0.008000 -0.409485
-0.104435 0.018354 0.141325
-0.034871 -0.172008 -0.399956
0.048981 -0.010710 -0.493914
0.015103 -0.027948 0.431609
0.046386 0.157558 0.347693
0.102970 0.013631 -0.030487
0.058860 0.148492 0.338256
-0.104675 0.048371 0.258122
-0.018795 -0.137729 -0.184525
0.097328 0.039539 0.439523
-0.093862 0.027721 -0.107623
-0.094653 0.063124 0.098900
0.088219 -0.026409 0.172301
0.028499 -0.114722 -0.475127
-0.097379 0.044322 0.464821
0.096481 -0.039586 -0.450997
0.019668 0.173751 0.386968
-0.049206 -0.146500 -0.293527
0.087818 0.073549 0.088015
-0.004366 -0.182589 -0.425886
0.088985 -0.006084 -0.346084
-0.104561 0.009327 0.077216
-0.053913 0.144855 0.299891
-0.027098 -0.031978 0.395008
-0.002240 -0.096877 0.053209
-0.093123 0.093054 0.249088
0.058587 -0.012348 0.423373
-0.074751 0.031783 -0.237758
0.058005 0.132372 0.245140
0.097878 -0.040864 -0.437503
0.091853 0.082510 0.175827
-0.083464 -0.050848 0.074938
-0.079133 0.131647 0.346459
0.071291 -0.038889 0.218221
0.029507 -0.136494 -0.471134
0.094251 0.052202 0.033441
0.083086 0.073323 0.048397
0.001640 -0.070442 0.200850
0.097812 -0.013338 -0.284944
-0.100128 0.108678 0.433680
0.103174 -0.086354 -0.396660
-0.087062 -0.018304 -0.431460
0.103937 -0.004712 0.019726
-0.101950 -0.012072 -0.202760
0.097033 0.069650 0.166392
0.024570 -0.152564 -0.274289
0.068459 0.071289 -0.051012
-0.060092 -0.026176 -0.492329
0.091897 0.099637 0.271861
0.073009 -0.113093 -0.205803
-0.002241 0.041504 -0.361623
0.036765 0.042514 -0.318004
0.100600 -0.081730 -0.292462
-0.091614 0.069141 0.098772
0.017278 0.179057 0.414432
0.102928 0.023066 0.020589
0.079670 0.107080 0.212823
0.062529 -0.151769 -0.467965
-0.017599 0.061665 -0.240557
0.056626 -0.016054 0.409866
-0.068100 0.016733 -0.357323
-0.037650 0.141246 0.235035
0.094338 0.028196 -0.099514
-0.005862 -0.134193 -0.156209
-0.018885 -0.016965 0.489459
0.055031 -0.088104 0.013444
0.059049 0.127506 0.221833
0.074520 0.001181 0.423749
-0.047425 -0.078667 0.090219
0.034235 0.018720 -0.456318
0.100066 -0.053866 -0.125578
0.103777 -0.003874 -0.099154
-0.092464 -0.098000 -0.268362
-0.073085 0.067769 -0.046248
-0.000164 -0.120357 -0.474424
0.024881 -0.152525 -0.274540
-0.002942 0.122337 0.474484
0.037025 0.017443 -0.457366
0.103914 0.097274 0.469231
-0.026957 0.080117 -0.125930
-0.017975 -0.120952 -0.090130
0.104357 0.005284 0.053273
0.008910 0.173971 0.379783
0.103980 0.078075 0.480956
0.045488 -0.125273 -0.164395
-0.098134 0.026027 -0.060792
0.076562 0.104937 0.180894
-0.008841 -0.046201 0.334022
-0.006553 0.040526 -0.365823
-0.017416 0.119771 0.083640
-0.064279 0.113874 0.167535
-0.006070 0.087432 -0.104130
-0.013292 0.185463 0.446665
-0.072684 0.000643 -0.423329
0.068188 -0.124749 -0.245521
-0.006119 0.077989 -0.156825
0.037564 -0.082393 -0.480936
-0.008430 0.042210 -0.355873
-0.104587 -0.012235 -0.091517
-0.051209 -0.134464 -0.472426
-0.046093 0.010112 -0.476193
-0.075682 0.116257 0.239198
-0.040433 -0.117522 -0.108044
0.054019 0.113382 0.476150
0.059334 -0.032739 0.306794
0.097485 -0.109776 -0.396937
0.029455 -0.043543 0.326966
-0.092397 -0.009272 0.227349
0.104267 -0.082447 -0.433102
0.042750 -0.160821 -0.466535
-0.048926 -0.079626 0.080506
0.015604 -0.144246 -0.218038
0.049225 0.093376 -0.002298
-0.088560 -0.058345 -0.009057
-0.016987 0.118278 0.074922
-0.072811 -0.087903 -0.063909
-0.103294 0.038528 0.310150
0.025678 0.126974 0.133666
-0.103773 0.009793 0.132789
0.063997 -0.014880 -0.492980
-0.080087 0.099899 0.175840
0.019537 0.018940 -0.477247
0.101355 -0.046008 -0.108647
0.091935 0.104369 0.298675
-0.028523 0.070408 -0.177763
0.071525 -0.095815 -0.100959
-0.104533 -0.005927 -0.061769
0.103018 -0.038059 -0.117963
-0.049486 -0.133286 -0.220598
-0.094544 -0.129617 -0.467978
0.048468 0.087879 -0.035162
-0.075441 0.034591 -0.218174
-0.063905 0.048094 0.487515
0.089149 -0.112649 -0.317403
-0.024982 0.112534 0.052040
-0.040840 -0.135436 -0.208913
0.098565 0.021150 -0.081484
0.040487 0.041387 -0.316174
-0.055950 -0.082843 0.039483
-0.102788 0.105060 0.474394
0.103969 0.071254 0.443333
0.034326 0.180451 0.446544
-0.100667 -0.052102 -0.453502
0.040807 0.066349 -0.176160
-0.059847 0.024891 -0.348079
0.018519 0.037918 -0.372235
0.060594 -0.047823 -0.486995
-0.008980 -0.108411 -0.013265
-0.019073 -0.114024 -0.052459
-0.013667 -0.050164 0.308912
-0.063105 0.046808 -0.212299
-0.013639 -0.137905 -0.180804
0.093435 -0.118270 -0.392783
0.073623 -0.130109 -0.304281
0.098653 -0.116102 -0.449393
0.017813 -0.150262 -0.253568
0.091808 -0.025311 -0.426152
0.064213 -0.035847 0.269012
0.079982 0.149700 0.452818
-0.104393 0.063583 0.313740
0.092319 -0.014274 -0.358889
0.103880 0.076478 0.477337
0.064615 -0.000832 -0.471146
0.102101 0.097529 0.479022
0.008957 0.141095 0.196289
-0.071750 -0.053049 -0.487548
-0.001826 -0.123666 -0.473837
0.103865 0.017674 0.024043
-0.006548 0.145409 0.219643
-0.093088 -0.041471 0.040014
-0.065392 -0.131264 -0.268951
-0.101011 0.110391 0.461843
0.065183 0.149155 0.368469
0.077002 0.123852 0.474333
-0.028212 -0.067216 0.196622
0.019762 0.033719 -0.394552
0.064033 -0.148085 -0.356834
-0.060563 0.079099 0.482041
0.005101 0.180994 0.417836
-0.013153 -0.121216 -0.087210
0.072796 0.071146 -0.029031
-0.071703 0.063785 -0.076316
0.035263 0.169329 0.386511
0.082600 0.121900 0.316038
0.022593 -0.062111 -0.484815
-0.003514 -0.082670 0.132111
0.086487 -0.053546 0.035782
0.063271 -0.101758 -0.094687
-0.028254 0.168321 0.368425
-0.089486 0.111599 0.315130
0.091943 -0.085779 -0.194807
-0.075821 -0.115904 -0.476100
-0.100384 0.050489 0.113861
0.065743 -0.039641 0.240841
0.087873 -0.098879 -0.229417
-0.047996 -0.117876 -0.130265
0.023795 0.132770 0.163152
-0.079713 -0.081370 -0.068997
0.059034 -0.014005 0.412483
0.050543 0.119702 0.148445
-0.029821 0.082915 -0.105976
-0.100855 -0.112388 -0.467925
-0.094418 -0.012195 0.188466
-0.029926 0.081053 -0.116210
-0.013084 -0.022095 -0.492539
-0.074954 0.026437 0.491327
-0.098589 -0.113318 -0.432346
-0.041857 -0.012946 -0.494540
0.063839 0.050822 -0.186458
0.103056 0.014281 -0.023810
0.029738 -0.160419 -0.325915
0.100647 -0.076562 -0.264576
0.075408 -0.114548 -0.474625
-0.081682 0.021673 -0.249831
-0.098918 -0.021387 0.075506
0.073262 -0.095898 -0.111220
0.103029 -0.048716 -0.375713
0.058486 0.005985 0.495137
-0.063218 -0.006037 0.439904
-0.097722 -0.044802 -0.037336
-0.089065 -0.026600 -0.460338
-0.013174 -0.072612 -0.483303
0.103271 0.044186 0.328964
-0.054561 -0.038823 0.290290
-0.065911 0.060002 0.485408
-0.047850 0.139184 0.249460
-0.091778 -0.029199 0.123107
0.045503 0.063855 -0.177819
0.000102 0.038825 0.489247
-0.001788 0.075472 -0.172146
-0.029777 0.152929 0.284807
-0.101380 -0.057154 -0.466700
-0.103714 -0.043468 -0.161764
-0.036441 -0.164314 -0.466799
0.075921 0.107474 0.191416
-0.061760 -0.147106 -0.470234
-0.038042 -0.011996 0.486163
0.006527 -0.143155 -0.206424
-0.104551 0.051522 0.262684
-0.047141 -0.091311 0.020479
-0.103779 0.066890 0.450634
0.066497 -0.033948 0.269186
0.026894 -0.126452 -0.132014
-0.103277 -0.085558 -0.380451
0.058648 0.033869 -0.302215
0.058549 0.033015 -0.307346
-0.087905 -0.029879 0.155496
0.088681 -0.126480 -0.390576
0.087651 0.113281 0.308225
-0.016239 0.053355 -0.288160
0.005072 -0.161743 -0.309766
0.104487 -0.066484 -0.401820
-0.046756 0.153247 0.468957
-0.067204 0.144935 0.354368
-0.045896 0.139116 0.243448
0.054739 -0.125904 -0.472784
0.017279 -0.063545 0.230976
0.083258 -0.013854 -0.436822
-0.008880 -0.183331 -0.431425
0.085736 -0.121612 -0.337825
-0.074973 0.149015 0.418094
-0.101965 -0.027152 -0.016330
-0.002889 -0.113609 -0.040386
0.037627 -0.007573 -0.494617
-0.071446 0.070938 -0.037826
0.076176 0.007502 0.449701
0.089297 0.138117 0.461171
-0.079240 0.121797 0.292200
0.005138 -0.143832 -0.209808
0.029202 0.068419 -0.187784
0.101740 -0.042989 -0.099833
0.087199 0.099597 0.227937
0.096782 -0.078753 -0.213314
0.038880 0.022573 0.492176
-0.006791 -0.136110 -0.167197
-0.097422 -0.072976 -0.190033
0.101305 -0.037619 -0.060708
-0.093513 0.042304 -0.030046
0.029361 -0.118839 -0.093224
-0.080272 0.031674 -0.203837
-0.104432 -0.063099 -0.393450
-0.098346 -0.002463 -0.216819
-0.015440 -0.185691 -0.449170
0.003250 0.173164 0.373572
0.094694 -0.032625 0.071663
0.074761 -0.109901 -0.197861
-0.089593 0.026191 0.453528
0.094279 0.104364 0.324738
0.100162 -0.024545 -0.309517
-0.034599 0.164780 0.359794
-0.019305 0.071480 -0.184242
-0.081076 0.033804 -0.186328
0.097527 0.001989 -0.203677
0.016118 0.069896 -0.195915
-0.037398 -0.146082 -0.260795
0.080523 0.008886 -0.329097
0.046971 -0.040054 0.307111
-0.047546 0.060385 -0.191336
0.028112 -0.093589 0.049607
-0.103412 -0.012707 0.020497
0.015824 -0.139196 -0.190042
0.028791 -0.129799 -0.153558
0.039245 -0.013402 0.475846
0.039271 0.149933 0.286997
-0.038393 0.090185 0.480114
-0.075328 -0.011959 0.345544
-0.103172 -0.005045 0.071852
0.097640 -0.094950 -0.316386
0.049219 -0.090651 0.018179
-0.064192 0.000147 -0.467840
0.012835 -0.135763 -0.168235
-0.025007 -0.173900 -0.393922
0.067190 -0.158827 -0.431231
0.104661 -0.000874 -0.019032
-0.040427 -0.047605 0.282196
-0.096937 -0.021661 -0.344815
-0.097965 -0.045212 -0.043240
-0.103461 -0.059963 -0.244520
0.009077 0.126060 0.112400
0.104460 0.062793 0.312594
-0.097219 -0.085009 -0.254122
-0.025347 0.133764 0.472432
0.102824 0.007876 -0.067776
-0.103624 -0.024096 -0.050606
-0.017692 0.134694 0.167191
0.101946 0.062893 0.215729
-0.049168 0.163161 0.387117
0.086835 0.026849 -0.181117
-0.080392 0.061619 -0.035784
0.098837 -0.019955 0.085045
0.096335 -0.035798 0.033195
0.103856 -0.074370 -0.365972
0.104391 0.029547 0.187319
0.035603 0.109164 0.051455
0.074476 0.102009 0.152724
0.038450 -0.087795 0.062254
-0.073088 -0.050463 0.143431
0.102869 0.061161 0.445462
0.104387 0.037191 0.162667
0.093225 -0.123103 -0.472857
0.006690 0.048448 -0.321537
0.071627 0.135611 0.324065
0.045080 0.118261 0.124598
-0.014748 0.084533 -0.115445
-0.100387 0.070643 0.226579
0.067547 0.114252 0.184553
0.068578 0.030392 -0.278693
-0.007663 -0.141194 -0.195846
-0.066632 0.004581 0.483414
0.057797 -0.079610 0.050737
-0.014940 0.057417 -0.266644
-0.017769 -0.056089 0.272102
-0.008829 0.097608 0.478846
-0.080336 -0.034016 0.190839
0.048963 0.006883 0.494964
-0.063349 -0.108435 -0.477324
-0.079302 -0.021966 0.265341
0.103921 0.056179 0.240532
0.064396 -0.034665 0.274773
0.082986 0.147255 0.460220
0.081996 0.033491 -0.181493
0.040688 0.162363 0.359461
0.047275 -0.072263 0.126422
-0.045684 0.169085 0.410151
0.080217 -0.126645 -0.325512
-0.096734 0.024750 0.365232
0.100787 -0.004358 0.136017
0.094511 -0.019404 -0.363124
-0.035613 -0.016795 0.464700
-0.015800 -0.162756 -0.321484
0.045256 -0.128451 -0.181471
-0.003284 0.174476 0.380935
0.007291 -0.064601 0.231856
0.083018 -0.033655 0.174244
0.093700 0.038614 0.480557
-0.104532 -0.054080 -0.271262
0.034659 0.056659 -0.243648
0.039635 -0.153261 -0.305779
0.081924 -0.017114 0.274232
-0.086407 0.091545 0.176308
-0.075822 -0.153671 -0.448047
0.007818 0.181296 0.420341
-0.012979 0.177775 0.403470
-0.093907 -0.008061 0.217229
-0.013399 -0.057201 0.269877
0.101250 0.025089 -0.009762
0.035434 -0.133579 -0.186823
-0.104426 0.065011 0.401180
-0.096841 0.066536 0.146479
-0.096715 0.049776 0.487170
0.007690 0.174078 0.380012
0.074580 0.090361 0.088317
0.102899 0.021746 0.223196
0.103831 -0.072497 -0.354114
-0.075838 0.121068 0.266939
-0.087015 0.139188 0.447675
-0.050338 0.013891 -0.442857
-0.014439 -0.145354 -0.470015
-0.103325 -0.022854 -0.221960
0.104345 0.066101 0.318585
0.072631 -0.085543 -0.049838
0.050793 0.118548 0.142730
-0.025131 0.141346 0.213112
-0.100879 -0.048798 -0.430567
-0.100345 -0.043217 -0.071408
0.050583 0.077798 -0.085308
-0.101098 -0.037081 -0.053232
-0.104497 -0.074371 -0.449891
0.021570 0.014781 0.493528
0.091978 0.060244 0.053001
-0.023679 0.129737 0.146103
0.103527 0.072441 0.473503
0.078524 -0.114295 -0.474635
0.046149 0.126683 0.174694
0.027970 0.165693 0.353271
-0.103046 -0.019254 -0.211715
-0.023556 0.164250 0.467047
-0.104452 -0.064609 -0.399785
0.002802 -0.078650 0.154706
0.000387 -0.003566 -0.495774
0.086008 0.057869 -0.015278
-0.065122 0.105108 0.122454
-0.091797 0.021096 -0.167543
-0.087748 -0.077617 -0.483237
0.097885 -0.060248 -0.126108
0.054172 -0.121880 -0.171989
-0.035039 -0.039097 0.341487
-0.063927 -0.120272 -0.200857
0.015631 -0.020369 0.473452
0.076925 0.025393 0.491733
-0.066158 0.086383 0.022657
0.081147 0.144035 0.429366
0.102946 0.005987 -0.073916
-0.097594 0.045225 0.038508
-0.092132 -0.021803 0.160410
-0.080109 -0.007230 0.341897
0.086607 0.092100 0.180936
0.024794 0.015235 -0.491344
-0.104690 -0.009369 -0.064537
0.004316 0.100013 -0.034428
-0.050470 0.083713 -0.052669
-0.035705 -0.107786 -0.043342
-0.104338 -0.014842 -0.132423
0.081067 0.000821 -0.370287
0.071619 0.007083 0.473066
0.096933 0.030123 -0.055540
0.094026 -0.088132 -0.230970
0.019837 0.168431 0.357431
-0.103791 -0.033335 -0.264034
-0.104399 0.043797 0.203263
0.076161 -0.095380 -0.124676
0.027871 -0.027300 0.420024
0.035645 -0.086869 0.073484
0.014644 0.173996 0.383805
0.026623 -0.082493 -0.481042
0.101653 -0.106335 -0.452024
-0.072142 -0.114568 -0.476303
0.100279 0.010817 -0.109879
0.073834 0.075079 -0.001195
-0.018218 0.072672 -0.178559
-0.072540 -0.155213 -0.437968
-0.100733 0.048513 0.110182
0.028951 0.116558 0.080519
0.050523 0.157329 0.468379
0.103439 0.028989 0.234964
0.015465 -0.043276 0.345722
0.079387 -0.048916 0.114314
-0.104500 0.005662 0.063651
0.019929 0.092533 -0.066124
0.079630 0.113164 0.246487
-0.103296 0.012071 0.162728
-0.098919 0.052848 0.100607
0.081157 -0.129370 -0.347280
-0.072813 0.005106 -0.397674
0.034767 -0.061942 0.214538
-0.034153 0.024771 -0.422791
-0.059681 0.156073 0.383712
-0.008821 -0.158170 -0.290968
-0.002995 0.173370 0.374681
0.005094 0.144904 0.216384
0.003475 0.136212 0.167377
0.058749 -0.008777 -0.494156
0.100188 -0.011573 -0.236637
0.086115 -0.075275 -0.082335
-0.101491 -0.099518 -0.409693
-0.013652 -0.049188 0.314372
-0.028264 -0.008394 0.497550
-0.013181 -0.120864 -0.085271
-0.081548 0.021727 -0.250475
-0.039502 -0.173916 -0.465079
0.007124 0.009197 0.494493
-0.079987 -0.125285 -0.315961
0.018130 -0.182335 -0.432887
0.035294 -0.097442 0.015221
-0.007505 0.106945 0.005214
-0.071507 0.012565 -0.363419
-0.101394 0.065499 0.219029
0.072017 0.063999 -0.073329
0.050322 0.085637 -0.042313
-0.087339 -0.046093 0.070003
0.054444 -0.038580 -0.488755
-0.102881 -0.002258 -0.122521
-0.100216 -0.089818 -0.328484
-0.073004 -0.104649 -0.158455
0.072819 0.117152 0.227825
-0.013939 0.078571 -0.149453
0.066219 0.069298 -0.072415
-0.100896 -0.053878 -0.458603
0.080592 -0.045118 0.127131
0.086146 -0.012385 -0.406030
-0.002794 -0.173868 -0.376714
0.096563 0.065895 0.138504
-0.038491 -0.135316 -0.203101
0.082591 0.037757 -0.153523
0.059373 -0.047669 0.223296
-0.072227 0.030062 -0.261645
-0.036265 0.132614 0.183839
0.100591 0.077782 0.270064
0.104391 0.051853 0.244454
0.054696 -0.108170 -0.097365
-0.082953 -0.000312 0.360510
-0.067236 -0.060306 0.118530
-0.104634 0.053763 0.315650
0.046868 0.025776 -0.386390
0.038614 -0.048584 0.280803
0.066156 0.091331 0.050251
0.078842 -0.099291 -0.163192
0.038404 0.019435 -0.443240
-0.040464 0.155377 0.320035
-0.075168 0.032832 -0.229537
-0.098367 0.063481 0.151880
-0.057390 -0.054106 0.194532
-0.057471 -0.041566 0.264214
-0.087148 -0.096007 -0.206813
0.097503 0.023096 -0.086307
0.092636 0.033412 0.463264
-0.065296 0.045555 -0.209249
0.087520 -0.084217 -0.480033
0.080574 -0.059699 0.045838
-0.060091 -0.051111 0.201255
0.103862 0.047418 0.315606
-0.038749 -0.013132 0.478278
-0.046353 -0.150141 -0.305568
0.067528 0.108306 0.477067
0.097939 0.001671 0.219022
0.026520 -0.094486 -0.478850
-0.067765 -0.130955 -0.278168
0.071650 -0.014654 0.351523
0.103317 0.060633 0.418620
0.047702 0.104790 0.057001
0.097097 0.082742 0.240354
0.039184 -0.088383 0.057386
0.103438 -0.047373 -0.353591
0.094422 0.006597 0.293755
-0.064379 -0.127124 -0.241176
0.048830 -0.162847 -0.383762
0.101922 -0.061092 -0.476048
0.075638 -0.033279 -0.489483
-0.054075 0.007839 -0.464493
0.052217 0.149088 0.469837
-0.104469 -0.061297 -0.304220
-0.064047 -0.003250 0.451630
-0.039837 0.127513 0.163119
-0.059304 -0.089663 -0.480710
0.054484 0.133224 0.236916
0.104639 -0.012741 -0.087271
0.093846 -0.078252 -0.173803
0.074789 -0.133934 -0.332213
-0.092741 0.025833 -0.130614
0.063376 -0.043540 0.229882
0.079198 -0.148649 -0.441293
-0.046809 -0.169875 -0.417031
-0.015249 0.016574 -0.494361
0.076275 0.071991 -0.004578
-0.059274 -0.094560 -0.038200
-0.004331 0.150485 0.247322
0.015835 -0.029239 0.423754
-0.080988 0.078763 0.064115
-0.097384 0.047915 0.484774
0.093937 -0.012054 -0.328505
-0.094508 -0.054881 -0.050671
-0.102783 0.053978 0.188512
0.098123 -0.060733 -0.132303
0.060807 -0.083118 -0.480538
-0.093812 -0.107156 -0.334501
-0.082427 -0.142429 -0.428767
0.103926 0.017908 0.146957
0.072153 0.059813 -0.095917
0.094479 -0.099971 -0.302108
0.081092 -0.127988 -0.339103
0.016905 -0.142026 -0.206794
-0.088083 -0.041898 -0.489773
0.056606 -0.037597 0.289661
-0.064742 -0.124672 -0.229173
0.101648 0.065063 0.221515
0.101917 0.002169 -0.123454
0.096899 0.039126 -0.005829
0.098579 -0.039858 -0.421543
0.054333 -0.151395 -0.337363
-0.097594 -0.033049 0.030113
-0.013186 0.181483 0.424354
-0.054743 -0.052711 0.212111
0.019079 -0.133051 -0.158614
-0.036906 0.060089 -0.219649
0.093253 0.131751 0.466091
0.093665 0.026102 0.411060
0.089448 0.107176 0.289861
-0.096540 0.074218 0.184961
-0.035254 -0.048024 0.291190
0.103125 0.035795 0.098513
-0.002185 -0.116606 -0.056902
-0.025932 0.160700 0.467671
0.007546 -0.022656 0.465920
-0.059523 0.096042 0.047980
0.004672 -0.075338 0.172662
0.040209 -0.171796 -0.410490
0.035405 -0.067602 0.181566
0.103852 -0.075450 -0.371763
0.046523 0.077329 -0.099669
0.075909 0.050567 -0.126201
-0.083664 -0.144550 -0.449303
-0.101661 -0.085161 -0.482017
0.079686 -0.000460 0.382820
0.087795 0.074190 0.091393
0.098389 -0.015333 -0.287560
-0.019427 -0.105824 -0.007014
-0.103138 -0.086592 -0.381198
0.098219 -0.025444 0.063435
-0.075187 -0.096874 -0.479573
0.018231 -0.097426 0.041003
0.001460 -0.119722 -0.474521
-0.008611 -0.164148 -0.324266
0.009671 -0.094904 -0.478966
-0.060229 -0.150695 -0.355011
-0.100290 0.099720 0.387027
0.073966 -0.138190 -0.351332
-0.045197 0.152447 0.315862
0.087229 0.068017 0.052008
-0.046273 -0.058244 0.207549
0.089376 -0.027682 -0.463170
-0.074445 0.089489 0.082726
0.054885 -0.138041 -0.264830
0.004671 -0.071375 0.194785
-0.022472 0.127978 0.473458
0.037212 -0.150121 -0.283014
-0.016424 0.118285 0.074462
-0.046821 -0.113355 -0.476236
-0.056751 -0.018936 0.393175
0.058879 0.156728 0.384285
0.096255 0.071637 0.483589
0.045324 -0.094251 0.009266
0.023564 -0.093112 0.059111
0.076195 -0.145158 -0.402813
-0.076382 -0.155076 -0.459068
-0.102885 0.070467 0.284358
0.081725 -0.140034 -0.410778
-0.082009 0.087616 0.120679
-0.089828 -0.136328 -0.455256
0.066320 0.101333 0.106820
-0.005925 -0.185631 -0.443350
0.051435 -0.040424 -0.488452
-0.055244 0.119997 0.165994
0.098259 -0.112301 -0.422374
0.093706 -0.128544 -0.453156
-0.057066 0.012034 -0.430078
0.056372 0.139814 0.280651
0.015557 0.038157 -0.373577
0.007276 -0.155556 -0.275856
-0.039208 -0.056929 0.232828
0.104669 -0.067657 -0.388680
-0.087570 0.104850 0.260742
-0.104357 0.028917 0.208619
0.075522 0.020821 -0.294387
0.101019 -0.034555 -0.347196
0.104601 -0.055079 -0.326222
0.100744 0.012573 0.231533
-0.008390 -0.074181 0.177984
-0.025416 -0.103770 -0.003119
-0.075684 0.030554 -0.239335
0.086363 0.002099 0.347616
-0.101034 -0.053758 -0.144845
0.058096 0.134194 0.255649
-0.038914 -0.059001 0.221905
0.101593 0.066218 0.226787
0.058547 0.108820 0.115704
0.071637 -0.109696 -0.179100
-0.104476 0.018558 0.069640
0.020026 0.107785 0.019092
0.086552 0.106965 0.263391
-0.057986 0.091880 0.019091
-0.063376 -0.085640 -0.481493
-0.098222 -0.016160 -0.295169
0.092190 0.124158 0.411913
-0.013752 -0.052010 0.298531
0.029092 0.021362 -0.450597
-0.017878 -0.149917 -0.251717
-0.065394 -0.156334 -0.408863
0.101490 -0.058046 -0.178755
-0.013445 -0.166691 -0.341305
0.028052 0.136768 0.191955
-0.030095 -0.003529 0.496688
-0.104401 0.074018 0.453834
0.054326 -0.012209 -0.493579
0.076039 -0.065598 0.042304
0.049011 -0.073903 0.112279
0.048340 0.007098 -0.486376
-0.073247 -0.136469 -0.337401
0.068086 0.147732 0.373865
0.050423 -0.135914 -0.237974
-0.101315 0.040231 0.373184
0.034142 -0.066966 0.187843
0.098169 0.036193 0.408509
-0.037832 0.125678 0.148519
0.080836 0.132424 0.362402
-0.001968 0.092363 -0.077804
0.081055 0.007823 -0.331309
-0.097826 -0.068460 -0.170835
0.018760 -0.030349 0.414974
0.057869 0.043522 -0.251215
-0.064502 -0.042920 0.228152
-0.100643 0.052060 0.453442
0.048719 0.068797 0.484022
0.002041 -0.032440 0.412866
-0.064915 -0.059538 0.133512
-0.093411 -0.097910 -0.278445
0.101510 0.083677 0.322371
-0.101363 0.051727 0.141422
0.064201 -0.048790 0.196801
-0.038313 0.176847 0.435222
-0.093375 -0.069402 -0.119008
-0.035310 0.152484 0.292694
0.073394 -0.139720 -0.356650
-0.083337 -0.146746 -0.459251
0.006574 -0.023702 0.460355
-0.059936 -0.001243 -0.493659
-0.104470 0.065747 0.333993
0.094883 0.080842 0.200234
0.022797 -0.023949 -0.491791
-0.100390 -0.035084 -0.364236
0.092622 0.030095 -0.108014
0.088485 -0.000496 -0.319267
0.103668 -0.017230 -0.177440
-0.088477 -0.009579 -0.370399
-0.102899 -0.047037 -0.152228
-0.083242 -0.074921 -0.057823
-0.104642 -0.034576 -0.211138
-0.013666 -0.125807 -0.113302
-0.028348 -0.087146 0.085175
0.039201 -0.138158 -0.220526
-0.057694 0.048050 -0.226690
0.015681 0.181882 0.428761
0.046653 0.144215 0.273997
-0.076171 0.122920 0.279167
0.093792 0.008427 0.310930
0.005656 0.083975 -0.123543
-0.056426 -0.078755 0.060540
0.089580 -0.081056 -0.144703
0.073208 -0.048197 0.155441
0.052693 0.124382 0.474204
-0.007973 0.182030 0.424474
0.057309 0.169656 0.450647
0.071740 -0.069756 0.043340
0.094609 -0.074901 -0.163515
-0.104407 0.021996 0.164686
-0.104503 0.004120 -0.008535
0.103974 -0.010333 -0.013739
0.044780 -0.041822 0.303530
0.085951 0.024054 -0.204438
-0.050465 0.134496 0.472266
-0.055914 -0.075076 0.082962
-0.092742 0.065236 0.089481
-0.049513 0.035920 -0.322253
-0.035574 0.102395 0.013637
0.098048 0.021115 0.326045
0.071889 -0.076630 0.004118
-0.104608 -0.043137 -0.218982
-0.098505 0.023758 0.333414
-0.092236 -0.000864 -0.285329
0.101596 -0.057814 -0.464656
-0.099335 0.108663 0.476759
-0.019309 -0.069966 0.193241
-0.102874 -0.029096 -0.272914
0.097236 0.086762 0.264835
0.098580 0.004301 0.224323
-0.013865 -0.122810 -0.474131
-0.097350 -0.027681 0.063660
0.018306 0.032975 -0.400018
-0.004151 -0.026878 0.443339
0.085694 -0.077714 -0.092304
0.046361 -0.047964 0.264701
0.006757 -0.164640 -0.326414
0.013737 -0.025939 -0.491531
0.003152 -0.063501 0.239169
0.079097 0.119746 0.279487
0.044610 0.024675 -0.399069
-0.053717 -0.084861 -0.481525
-0.081819 -0.123100 -0.316644
-0.067412 0.158744 0.432423
0.080398 -0.022486 0.254858
-0.098867 -0.064408 -0.163691
0.085747 -0.117813 -0.316708
-0.015959 0.019017 -0.480090
0.092752 -0.130026 -0.450883
0.059762 -0.009293 -0.494050
-0.013640 0.116707 0.063168
-0.038265 0.167830 0.384777
-0.041636 0.010005 0.494279
0.059823 -0.094185 -0.038055
-0.091863 -0.002037 -0.296024
-0.101004 0.042721 0.393692
-0.081550 -0.042034 0.137570
-0.086697 -0.063721 -0.022730
0.059636 0.138245 0.283928
0.066708 0.062818 -0.106329
-0.094929 0.029673 0.416317
0.074132 0.106612 0.477376
0.055226 0.136656 0.258802
0.088322 0.043706 -0.074086
-0.027685 -0.024331 0.436786
-0.035311 -0.138039 -0.471591
-0.092324 -0.116234 -0.368520
-0.086763 -0.033622 0.144622
-0.065919 0.055633 -0.150129
0.103376 0.077753 0.341223
0.072883 0.054204 -0.123073
-0.067915 -0.032062 0.273012
-0.015548 -0.024131 -0.492195
-0.002133 -0.116641 -0.057080
-0.080891 -0.002240 0.364242
-0.101124 0.039521 0.068171
0.067278 -0.020953 0.338169
-0.103203 0.005813 -0.065948
0.046680 0.111453 0.091230
-0.025975 0.185731 0.462162
-0.080388 -0.121812 -0.299402
-0.064730 0.005069 -0.437896
-0.083248 0.070529 0.033923
-0.097633 -0.055501 -0.095690
0.104402 -0.030565 -0.211617
0.081290 -0.000449 -0.375815
0.104662 0.018879 0.090607
0.016990 -0.115473 -0.058643
0.056645 -0.163952 -0.415934
-0.075787 -0.068483 0.027516
-0.025109 0.038696 -0.359957
0.044344 0.176748 0.448886
-0.005392 0.060023 -0.257325
-0.101888 -0.039083 -0.081194
-0.035671 0.035455 -0.359853
0.035519 0.170900 0.395838
-0.008111 -0.078194 0.155671
0.037073 -0.048746 0.283227
-0.103928 -0.043119 -0.313879
0.104111 -0.021025 -0.080894
0.096840 -0.057648 -0.096270
-0.071627 -0.115957 -0.476043
0.089882 0.060234 0.485595
-0.103112 -0.073755 -0.308768
-0.087519 -0.081436 -0.128771
-0.072963 -0.113880 -0.476438
-0.068504 0.066338 -0.078513
0.062897 -0.159062 -0.412932
0.029599 0.179202 0.431153
-0.019430 -0.165585 -0.340586
0.039821 0.025296 0.491696
-0.020186 -0.183494 -0.441238
-0.104629 0.057171 0.302665
0.088736 0.034054 -0.124323
0.029182 -0.024887 0.431523
0.092009 -0.048335 -0.486543
-0.094961 -0.109961 -0.362992
-0.047307 0.087925 -0.038273
-0.054877 0.071226 -0.107651
-0.071674 -0.027989 0.276890
-0.004752 -0.042739 0.354620
-0.040921 -0.031463 0.371205
0.081958 -0.077881 -0.065337
0.098511 -0.041698 -0.031643
0.063441 -0.130425 -0.255528
-0.056161 -0.039703 0.279455
-0.018221 -0.000961 0.496251
0.004988 0.138539 0.180825
0.039144 -0.165144 -0.371056
0.089521 0.067932 0.071548
0.100149 0.051430 0.461135
-0.096627 0.018256 -0.126377
0.094569 0.020839 -0.137980
-0.091779 -0.104372 -0.296249
-0.003960 -0.129609 -0.130033
-0.059967 0.038713 -0.270465
-0.092521 -0.105124 -0.308737
-0.103094 0.020393 0.011693
0.098043 0.006606 -0.170308
-0.030393 0.045877 -0.311869
-0.097313 0.004993 -0.190382
0.100681 0.056318 0.152294
0.028027 0.154656 0.291756
-0.094524 -0.000255 -0.256538
0.103078 0.034182 0.087867
-0.083290 0.054617 -0.054641
-0.083024 0.009108 -0.310628
-0.024790 0.131618 0.158288
0.104599 0.030340 0.147443
-0.067852 0.059558 -0.119353
0.088765 0.029300 0.478674
-0.082999 -0.084447 -0.109269
-0.104399 0.052098 0.332457
0.104354 -0.088382 -0.470991
0.015183 -0.151861 -0.260172
-0.097756 0.105751 0.379036
0.018371 -0.133049 -0.157977
-0.086202 -0.009448 0.284406
0.093261 -0.002139 0.257792
0.081055 -0.078512 -0.062571
0.103912 -0.026019 -0.098251
0.102856 0.038470 0.103790
-0.016843 0.178724 0.412217
0.055332 0.078557 -0.065040
0.002163 0.118419 0.067665
-0.016673 0.106888 0.011059
0.104131 0.001908 0.046428
0.027322 0.137463 0.194722
0.079689 -0.000110 -0.385139
0.014681 0.120227 0.083722
-0.101473 0.048292 0.414777
0.096605 -0.056028 -0.083769
0.091752 -0.070056 -0.104877
-0.059565 -0.126059 -0.474058
0.058847 0.119852 0.178375
-0.082701 0.134406 0.386801
0.005716 0.161302 0.467610
0.102920 -0.069801 -0.290473
-0.016207 -0.180693 -0.421972
-0.086218 0.133718 0.410184
-0.101397 0.072720 0.259454
0.091824 -0.012403 -0.353963
-0.044985 -0.108740 -0.070533
0.103665 -0.069203 -0.326837
0.008181 -0.025765 0.448386
-0.017879 -0.024956 0.445774
0.104261 -0.050671 -0.254852
0.044833 0.114378 0.102216
-0.058336 0.035790 -0.292779
0.083166 -0.096427 -0.177313
0.081257 -0.103198 -0.201824
0.036033 0.015835 -0.468500
0.034986 0.064570 -0.198783
0.094684 -0.093844 -0.270153
0.050467 0.050148 0.487320
-0.054964 0.052325 -0.212856
-0.029747 0.087161 -0.082384
-0.096601 -0.062633 -0.120162
0.057709 0.143561 0.306493
-0.104342 -0.020593 -0.064444
0.097575 0.014321 -0.134185
-0.004418 0.130422 0.135358
-0.046634 0.048768 -0.258824
-0.016837 -0.042583 0.348337
0.097419 0.017691 -0.117702
0.092896 0.018053 -0.172142
-0.055102 -0.145242 -0.305618
0.093570 0.067617 0.111848
-0.102963 -0.006287 0.072480
-0.073087 0.003414 -0.405580
-0.058031 -0.040743 0.266736
-0.088215 0.005176 0.348359
0.012694 -0.095018 0.059340
0.035866 0.114947 0.084306
-0.009189 -0.072504 0.187095
0.025030 -0.022509 0.451039
-0.026799 0.171013 0.381248
-0.067084 -0.012444 0.386325
0.075386 -0.140365 -0.371489
0.080110 0.130406 0.346057
0.089504 0.013885 0.386167
0.016827 -0.063057 0.234100
-0.083540 -0.119473 -0.308505
0.003249 0.025186 -0.452420
-0.006831 -0.040389 0.367089
-0.006845 0.079982 -0.145493
0.059338 -0.111504 -0.132973
0.101507 0.013674 -0.067981
0.039282 -0.032468 0.369328
-0.064227 -0.086064 -0.011342
0.024367 -0.150797 -0.264117
0.029142 0.053365 -0.271903
0.027696 -0.080149 0.125261
0.035459 -0.102443 -0.013058
0.103122 0.020658 0.014095
0.103269 -0.079170 -0.361551
-0.037389 0.026950 -0.403602
-0.094618 0.023248 0.383939
-0.081487 -0.007642 0.329911
0.082882 -0.003766 0.342094
0.018471 0.123879 0.107523
-0.075993 -0.128192 -0.473856
0.059063 -0.040822 0.262657
-0.037835 0.038174 -0.339977
-0.064379 -0.076232 0.042826
-0.027720 -0.100211 -0.478422
-0.047128 -0.113391 -0.102713
-0.104639 -0.037601 -0.191721
-0.054916 -0.037613 0.295729
-0.066565 0.024411 0.491697
0.081580 0.101634 0.195816
-0.096764 -0.111320 -0.477177
-0.104559 -0.014992 -0.057421
0.103855 0.059253 0.382213
0.067765 0.067952 -0.072820
-0.025665 -0.111204 -0.044990
0.018049 -0.115257 -0.058377
-0.025920 0.091856 -0.061969
0.081084 -0.121476 -0.302686
0.039018 0.079135 -0.108698
0.082206 0.101219 0.197886
-0.022456 0.050302 0.487186
0.102890 0.041756 0.335682
0.100520 0.101875 0.402898
0.074579 0.079773 0.029223
-0.081213 0.128466 0.343231
-0.049729 0.065785 -0.154895
0.024662 0.107192 0.021708
-0.005384 0.175330 0.386317
0.075392 -0.068471 0.029911
-0.046019 0.115006 0.109203
-0.028929 0.000108 -0.496780
-0.104512 0.072571 0.376770
-0.082058 0.050118 -0.088367
0.035999 -0.034361 0.365850
0.025249 -0.090395 0.071745
-0.054462 -0.052730 0.213042
0.025493 0.038086 -0.362739
0.027450 0.046950 -0.310280
0.074674 -0.001985 0.405201
0.098957 0.086039 0.286213
0.066171 -0.029237 0.296974
0.082826 0.045319 -0.109676
0.097429 -0.021782 -0.337707
0.093331 -0.098334 -0.280270
-0.096428 -0.033387 -0.417830
-0.057968 0.129022 0.226392
0.058327 -0.120216 -0.177907
-0.102902 0.033465 0.078008
-0.025371 -0.086622 0.092662
0.074838 -0.082217 -0.480543
0.029362 0.115256 0.073878
0.064128 -0.064819 0.107639
-0.096564 -0.073402 -0.179673
-0.093588 -0.005494 0.235120
0.028367 -0.164930 -0.349030
0.103991 -0.064880 -0.320037
0.097213 -0.014589 -0.300782
-0.016453 -0.145122 -0.223653
0.094529 -0.033097 0.070860
0.064831 0.021329 0.492434
0.092218 0.129746 0.443388
-0.027072 -0.124017 -0.474061
-0.098221 0.005866 0.237837
0.097526 -0.068190 -0.165214
0.049444 0.106376 0.070892
0.003518 -0.123621 -0.473785
-0.019547 -0.018745 0.478919
0.029776 0.127181 0.141066
-0.024095 -0.171092 -0.465419
-0.098210 0.087655 0.284615
-0.079346 -0.149736 -0.447889
0.097106 -0.031870 0.043851
-0.093691 0.012095 -0.196792
-0.094762 -0.044275 0.005655
0.102960 -0.060467 -0.240333
0.097224 -0.068997 -0.165303
0.073683 -0.098442 -0.477589
0.100849 0.056564 0.157220
0.091731 -0.014191 -0.364979
-0.104555 0.021671 0.146401
-0.015290 0.020655 -0.471545
0.073885 0.144090 0.384189
-0.104621 -0.033277 -0.206087
0.104612 0.018007 0.080412
0.049425 0.051374 -0.236128
-0.017315 -0.111080 -0.034432
-0.101795 -0.035469 -0.336791
-0.093300 -0.089474 -0.230144
0.001708 -0.162848 -0.466632
-0.071135 0.125468 0.473831
-0.023700 0.029717 -0.412215
0.059935 0.145725 0.326772
0.103129 -0.045894 -0.167775
0.097334 0.042904 0.021672
-0.079677 -0.149470 -0.448736
-0.100734 0.001635 -0.151775
0.101701 0.024805 0.279846
0.103482 0.018229 0.172395
0.098445 0.087481 0.286690
-0.092050 0.020670 -0.167114
0.102843 -0.074509 -0.312730
0.096408 -0.043387 -0.473277
0.055437 -0.149334 -0.468491
0.002335 -0.151542 -0.252046
-0.097153 -0.047522 -0.486107
0.038008 0.163590 0.360468
-0.047701 -0.016198 0.438061
0.026797 0.145115 0.236629
-0.088021 0.044786 -0.070767
-0.035878 -0.132534 -0.181847
0.094167 -0.011681 0.194480
0.101520 0.062591 0.205035
0.092426 -0.003590 -0.298102
-0.063273 -0.018687 0.369055
0.081848 0.021768 -0.247933
0.064692 0.018249 -0.364313
0.101021 0.013111 0.228730
0.102775 -0.055964 -0.425140
0.035486 -0.016369 0.467403
0.012783 -0.059125 0.259624
-0.068353 0.138374 0.322999
-0.103528 -0.021001 -0.029913
0.030084 -0.176460 -0.415980
-0.034763 -0.058086 0.236108
-0.101250 0.007760 -0.106671
0.100291 0.024033 -0.035948
-0.082652 0.021349 -0.244865
-0.101187 -0.039983 -0.374815
0.101944 -0.060042 -0.199391
-0.027139 0.113489 0.060638
0.081404 0.073859 0.039604
-0.103820 -0.091893 -0.435392
-0.097639 -0.115406 -0.429895
0.093618 -0.023911 0.132240
-0.074269 -0.046467 0.159006
-0.092966 -0.125074 -0.424996
-0.074438 0.109605 0.195010
-0.046769 -0.028443 -0.491762
0.104595 -0.079150 -0.460415
0.058201 0.001098 -0.486749
0.046828 -0.152953 -0.322775
0.038893 0.044287 -0.303467
-0.028702 0.120256 0.100782
-0.098417 0.042277 0.437999
-0.086983 0.140693 0.455805
-0.063799 -0.106586 -0.123890
0.056973 0.092556 0.019133
0.103731 0.032582 0.239510
0.019676 -0.067899 0.204553
0.048816 0.059604 -0.191959
-0.101472 -0.022572 -0.271509
-0.048727 0.136370 0.236278
0.029660 0.042520 -0.331642
0.091950 0.107673 0.317273
0.067840 0.132782 0.289304
-0.054592 -0.056537 0.191319
-0.034900 0.039579 -0.338505
-0.019123 0.122408 0.099891
0.054791 0.002005 -0.494257
-0.103893 -0.053171 -0.222299
-0.104635 -0.018630 -0.122389
0.096621 -0.019258 -0.335565
-0.103020 0.053819 0.405249
0.034569 -0.181762 -0.453942
0.104359 -0.058062 -0.368841
0.064907 -0.072290 0.062363
0.002109 0.087135 -0.106974
-0.101554 0.016283 -0.052650
0.019229 0.067794 -0.204839
0.035264 -0.126653 -0.147791
0.092604 -0.062355 -0.483973
0.103109 0.013680 0.166816
-0.019203 0.147337 0.239120
0.100838 0.066197 0.210710
0.049570 -0.041572 0.291176
-0.019815 -0.049990 0.304276
0.080122 0.014248 0.461911
-0.013139 0.078770 -0.149056
-0.065464 0.011953 -0.396096
-0.000162 0.184635 0.463479
0.050254 0.071761 -0.119954
-0.103642 0.089500 0.417722
-0.022157 -0.127584 -0.473353
-0.025626 0.137468 0.192210
-0.026524 -0.039506 0.353868
-0.089554 0.001101 0.313894
0.026089 -0.123694 -0.115408
-0.002763 -0.092622 0.076798
0.011954 0.120896 0.474760
-0.104671 -0.082833 -0.479052
-0.104505 0.014752 0.113616
0.035180 -0.097675 0.014166
0.018621 -0.168046 -0.353554
0.097929 0.030977 -0.036068
0.018275 0.093106 -0.064416
0.014663 -0.070368 0.195199
-0.101977 0.026719 0.014586
0.079143 -0.033171 0.203938
0.103500 0.051905 0.360010
-0.063803 -0.037665 0.260706
-0.034626 0.000084 -0.496840
-0.103629 0.003089 0.100636
-0.100445 -0.040447 -0.393050
0.101294 -0.001078 -0.154730
-0.080867 -0.077745 -0.056888
0.081675 0.147951 0.454921
-0.101574 0.010626 0.202617
0.104642 -0.076233 -0.439233
-0.094514 -0.109727 -0.356686
-0.016177 -0.044253 0.339615
0.094456 -0.067335 -0.119565
-0.103053 0.063503 0.251388
0.100955 0.065812 0.211031
-0.063279 -0.003216 -0.490801
-0.039525 -0.031973 0.371420
-0.038007 0.122563 0.474393
0.100303 -0.093759 -0.353490
-0.071744 0.105583 0.157303
0.096463 -0.038728 -0.446485
-0.017368 -0.107523 -0.014624
0.093487 0.037594 0.477217
-0.096361 -0.042883 -0.471853
-0.057239 0.043438 -0.254113
-0.030254 -0.137154 -0.196864
-0.019536 0.091587 -0.071794
-0.104656 0.049613 0.263072
0.089354 -0.056362 -0.004831
0.098809 0.061497 0.147148
-0.035280 0.132308 0.179992
0.096714 0.018865 0.333021
-0.056284 -0.108646 -0.105753
0.101846 -0.050814 -0.420341
-0.096626 0.106107 0.364386
-0.023450 0.158964 0.308914
0.048620 0.133811 0.221626
-0.079527 0.131489 0.348335
0.101390 0.073168 0.261235
-0.098121 -0.098748 -0.344142
0.065319 -0.113849 -0.171554
-0.064917 -0.072669 0.060230
0.007935 -0.044569 0.343490
-0.088888 0.105611 0.276469
-0.085555 -0.066528 -0.485240
-0.090160 0.132982 0.472475
0.086161 0.014683 0.419649
-0.013089 -0.046060 0.332345
-0.096826 0.037812 -0.014209
-0.081202 -0.108363 -0.230079
0.004643 -0.058448 0.266954
-0.048037 0.133244 0.472490
0.044547 -0.146608 -0.280803
0.018644 -0.056239 0.270551
0.091999 -0.121448 -0.394645
-0.086912 0.125729 0.371614
0.094404 0.034368 0.449058
0.027621 0.156852 0.468429
-0.103080 -0.067808 -0.274480
0.086641 0.033063 -0.148142
0.093508 -0.004201 -0.289474
-0.035347 0.068683 -0.175056
-0.102874 0.013145 0.183949
-0.101627 -0.098172 -0.405087
0.103962 -0.077161 -0.387215
-0.002274 0.124393 0.101075
0.092846 0.016464 0.366287
0.075016 -0.125688 -0.287447
0.058286 0.160116 0.401011
0.004910 -0.154841 -0.271194
-0.008079 -0.061268 -0.485319
0.035855 0.079904 -0.111304
0.100728 -0.008927 0.111706
0.024986 0.100143 -0.017142
0.058697 0.089836 0.010307
-0.071831 -0.111685 -0.191043
0.018551 -0.119022 -0.079833
-0.098700 -0.003215 -0.215821
0.100733 0.063238 0.191996
-0.019553 0.173467 0.385297
0.104057 0.076993 0.470724
0.098828 -0.031636 0.019916
-0.101332 0.004039 -0.125752
0.006140 -0.051234 0.306797
-0.015211 -0.172224 -0.373794
0.005907 -0.168170 -0.345881
-0.063235 -0.007113 0.433815
-0.073305 -0.102365 -0.147429
-0.003442 0.056680 -0.276559
0.014181 -0.065707 0.221647
-0.068497 -0.048411 0.179096
-0.100284 -0.053831 -0.471223
0.072727 0.114240 0.211048
-0.103937 -0.050233 -0.207534
0.055299 0.162748 0.404687
0.100759 0.052521 0.132778
-0.068088 -0.072639 0.045776
0.013851 0.063546 -0.233401
0.092031 -0.024638 0.145728
-0.103378 -0.039386 -0.126907
-0.102997 -0.043290 -0.134910
-0.083121 0.138736 0.413916
-0.104433 -0.068239 -0.422218
-0.065759 0.078685 -0.022151
0.023572 -0.127825 -0.134684
-0.101709 0.030472 0.029916
-0.094447 0.057536 0.065401
-0.074030 0.148856 0.411871
0.008252 0.158213 0.291627
-0.002431 0.057655 -0.271413
0.030378 -0.173772 -0.464308
0.097068 -0.026169 0.076253
-0.103264 -0.046536 -0.356597
-0.004969 0.158446 0.291950
-0.068688 -0.103228 -0.127688
-0.066109 0.022127 0.492101
-0.015556 0.059685 0.485538
0.018872 0.153750 0.274612
-0.019457 0.174403 0.465259
0.003404 0.175264 0.465140
0.016516 -0.150634 -0.254501
0.097554 0.048473 0.486123
-0.017028 0.034865 -0.390669
-0.048748 -0.115292 -0.475903
-0.101296 0.103361 0.428564
0.076259 0.069043 -0.021118
0.044883 0.131349 0.197072
-0.004935 0.102391 -0.020966
-0.006932 -0.090139 0.089363
-0.086466 -0.057076 0.016368
-0.038558 -0.025359 0.410452
0.080083 -0.003893 0.360882
0.081965 -0.122932 -0.316954
0.101763 0.090660 0.366658
-0.088979 -0.011447 -0.376462
0.007751 0.033243 -0.406091
-0.104584 -0.000278 0.021447
-0.046329 0.000841 -0.497112
0.100828 0.076255 0.266559
-0.103459 0.020583 0.025762
-0.080604 0.144059 0.426051
0.075539 0.065656 -0.044099
-0.049515 -0.105121 -0.063491
-0.071640 0.137738 0.336265
-0.001808 0.034660 0.489981
-0.065819 -0.136636 -0.472195
0.054552 0.171149 0.448817
-0.050608 -0.073857 0.107817
-0.019535 0.108641 0.023406
-0.032483 0.152297 0.469146
-0.066348 -0.045677 0.204261
-0.065077 0.005196 -0.435601
0.063897 -0.117210 -0.183825
0.102814 -0.093618 -0.418136
-0.101714 -0.084705 -0.331854
0.018763 -0.100350 0.024209
0.081407 -0.128619 -0.344824
-0.047200 0.158451 0.355150
-0.019222 -0.024906 0.444828
-0.044540 -0.070114 0.146330
0.003743 -0.164488 -0.324712
-0.065507 0.027029 -0.311728
-0.024380 -0.103897 -0.002241
-0.086233 -0.137996 -0.433051
0.072171 -0.041176 0.200486
-0.026786 0.116131 0.074857
0.082660 0.003767 -0.342693
0.067952 -0.161982 -0.452327
0.065460 0.038560 -0.247438
0.039208 -0.032557 0.368992
-0.098034 -0.089503 -0.291292
0.007668 -0.060716 0.253432
0.104395 0.090990 0.462005
0.008169 -0.164659 -0.326921
-0.104363 0.056341 0.269919
-0.092270 -0.109269 -0.329064
-0.049122 -0.167391 -0.409878
0.038518 -0.041661 0.319657
0.102920 0.017209 -0.012315
0.094007 0.076718 0.167485
-0.034858 -0.024956 0.420808
0.046516 -0.097783 -0.013873
0.081254 -0.091758 -0.137924
0.008677 -0.183502 -0.432244
0.093464 0.022992 -0.138267
0.096350 0.017742 0.332086
0.092265 0.010843 -0.219385
0.096480 0.067271 0.144958
-0.063092 0.089706 0.027161
-0.100594 -0.028445 0.005646
0.073690 -0.128563 -0.296023
0.034323 -0.080019 0.114582
0.023938 -0.153758 -0.280002
0.097359 0.080925 0.234094
0.027796 -0.058189 0.247700
-0.092719 -0.127674 -0.436749
-0.103263 0.021324 0.022952
0.064711 -0.109345 -0.143632
0.017610 -0.135111 -0.471523
-0.048565 -0.092816 0.007945
-0.027883 -0.122757 -0.112878
-0.097022 -0.023857 -0.355835
0.052161 0.075642 0.482817
-0.055773 -0.074906 0.084434
0.050437 0.055565 -0.209813
0.016188 -0.089211 0.088665
-0.078129 -0.075476 -0.483519
0.093042 -0.094954 -0.258196
0.056167 0.116982 0.152476
-0.081332 0.119420 0.293553
-0.104589 0.009039 0.028174
-0.029953 -0.184876 -0.462763
0.103566 -0.025635 -0.077669
0.082179 -0.121446 -0.310152
-0.103933 -0.094106 -0.451776
0.046049 0.171545 0.424781
0.053154 0.086869 0.480834
0.071517 -0.057852 0.111065
0.039108 0.056109 -0.237017
0.003377 -0.042644 0.355527
0.103266 -0.049729 -0.372856
0.093388 -0.060817 -0.071356
0.103029 -0.017775 -0.004999
-0.101520 -0.060064 -0.190337
-0.102976 0.019942 0.004993
0.065107 0.004946 -0.436642
0.073278 -0.100029 -0.134374
-0.075949 0.001526 0.417253
0.091737 -0.020912 -0.402399
0.086466 -0.037559 0.125242
-0.016150 0.170219 0.364122
0.067717 -0.020607 0.338093
-0.104580 0.019695 0.132673
-0.098133 -0.021963 -0.328903
0.037737 0.119511 0.475043
0.092483 -0.103487 -0.299680
-0.038620 -0.072268 0.148502
-0.007239 -0.108326 -0.012253
-0.103755 0.055876 0.233661
0.086634 0.057889 -0.009695
0.100291 -0.077855 -0.264360
0.012539 -0.030194 0.421336
0.064814 -0.094257 -0.059860
-0.103638 -0.045371 -0.336790
-0.082706 0.012561 -0.293565
0.073703 0.092147 0.093308
-0.007641 -0.093180 0.072168
0.085632 -0.073770 -0.069735
-0.040155 -0.152831 -0.304502
0.100502 -0.113941 -0.470441
0.033894 -0.115908 -0.084849
0.097341 -0.084165 -0.251739
0.039110 0.015024 -0.466320
-0.086043 -0.093260 -0.181801
0.104364 -0.009646 -0.099632
-0.068845 -0.055294 0.139081
-0.026006 -0.185688 -0.461246
-0.054157 -0.023110 0.379475
0.103007 -0.059611 -0.437185
-0.005682 0.133030 0.150283
-0.050848 -0.060375 -0.485970
0.055893 0.027266 -0.349217
0.100909 0.063466 0.196987
0.101733 0.043777 0.385211
0.013108 -0.066998 0.215388
-0.045907 0.036029 -0.332036
-0.063602 -0.076629 0.044195
-0.070628 -0.128000 -0.473829
-0.075717 0.084544 0.062314
-0.035662 -0.102670 -0.014696
-0.037705 0.024300 -0.417712
0.075832 -0.077920 -0.025333
-0.076172 -0.016111 0.317572
0.094506 -0.059316 -0.075335
0.028167 0.021343 -0.452113
0.046736 -0.057700 0.209273
-0.083121 -0.017921 -0.460882
0.045413 -0.173320 -0.432421
-0.103759 -0.052189 -0.211983
0.102850 -0.092088 -0.411537
0.103783 -0.030995 -0.250012
0.003902 -0.107529 -0.006810
0.048912 -0.032940 0.341258
0.081879 0.105646 0.220295
-0.016837 -0.104524 0.002603
-0.086081 -0.049324 0.062995
-0.003371 -0.176864 -0.393622
0.096312 0.001120 0.239776
0.080715 0.014662 -0.295522
-0.104617 0.026326 0.165363
-0.035085 0.054749 -0.253416
0.054788 0.164968 0.415197
0.086820 -0.079096 -0.109794
-0.100198 0.092029 0.342112
0.028255 0.079725 -0.126123
-0.053101 0.016736 0.493073
-0.007628 0.100834 -0.028864
-0.072413 0.054881 -0.122014
-0.103310 -0.099905 -0.461555
-0.016355 -0.028744 0.426020
-0.093665 0.014088 0.343490
-0.071197 0.137221 0.471754
0.062849 -0.106115 -0.117094
0.041420 -0.101550 -0.477389
-0.003369 -0.103942 0.013423
0.104069 -0.036379 -0.164605
0.005601 -0.059272 0.262083
-0.044522 0.016842 -0.443146
-0.005156 0.094015 -0.067649
-0.101226 -0.098684 -0.399409
-0.063713 0.037408 -0.261999
-0.094842 -0.094229 -0.273893
0.079144 0.032731 -0.205714
-0.039992 0.058538 -0.221608
-0.007596 0.156829 0.283692
0.058514 -0.152101 -0.356613
0.101480 -0.000198 0.144740
0.040176 0.095467 -0.015020
0.013534 -0.107189 -0.476675
0.054442 -0.080679 0.057055
-0.087987 -0.114115 -0.315190
-0.104351 0.013829 0.029932
-0.010549 -0.050701 -0.487279
0.029801 0.183109 0.453267
-0.103524 -0.019507 -0.021424
0.094058 0.126755 0.447180
0.098848 0.102513 0.376484
-0.027039 0.174343 0.465258
-0.101497 0.070207 0.247519
0.099410 -0.097658 -0.477440
0.100475 0.040204 0.058100
-0.103698 0.018611 0.184610
-0.054658 0.034575 -0.313081
0.074287 0.084581 0.054403
-0.103020 0.045536 0.149725
-0.049070 -0.110972 -0.094855
0.035933 0.155994 0.313544
0.019645 -0.148764 -0.246825
-0.094799 0.004812 0.279073
0.074605 0.145662 0.397040
-0.036164 -0.103636 -0.021187
0.079137 0.104667 0.195628
0.054535 0.126098 0.197333
0.089702 0.038414 -0.091558
0.101060 0.053291 0.143440
0.048838 0.118543 0.137040
0.015867 0.074465 -0.170637
-0.006010 0.145397 0.219415
-0.064987 0.021303 -0.346078
-0.100351 -0.086220 -0.311282
0.104011 0.010714 0.102157
0.008158 -0.054408 0.288505
-0.086444 0.015700 -0.246937
-0.100927 -0.069016 -0.227629
0.017705 0.097158 -0.042313
0.093622 0.032553 -0.083168
-0.083224 0.068963 0.025011
-0.061215 -0.128005 -0.473721
-0.103841 -0.074896 -0.341424
0.102949 -0.028497 -0.060780
-0.100190 0.053334 0.470194
0.044569 -0.115621 -0.107867
-0.014409 0.152515 0.263739
0.058308 -0.092434 -0.022733
0.057566 -0.107759 -0.105571
-0.066703 -0.055885 0.145660
0.067901 0.068779 -0.067579
0.076416 0.113867 0.229898
-0.072975 -0.087638 -0.063369
0.103751 0.061110 0.398144
0.103411 0.023522 0.205842
-0.001776 0.183477 0.430740
0.097507 -0.026409 0.068484
-0.047681 0.056315 -0.213670
-0.101920 0.038677 0.351644
0.030465 0.037201 -0.360105
0.085920 -0.005656 -0.370464
-0.093047 0.124175 0.422070
-0.021391 -0.077990 -0.482413
-0.096906 0.039412 0.444458
-0.104387 -0.086902 -0.437238
0.007206 -0.068509 0.210065
0.029735 0.084201 -0.098885
-0.088143 -0.072812 -0.484121
-0.017177 -0.183526 -0.438672
0.094200 -0.048863 -0.013559
0.094334 -0.018753 -0.361461
0.087050 -0.089484 -0.169809
0.003308 0.026064 -0.447501
-0.054291 -0.093027 -0.011215
-0.092189 -0.065437 -0.083642
-0.063809 -0.149283 -0.362210
0.044194 -0.171069 -0.416351
-0.017230 0.061041 0.485296
0.074872 0.006932 0.453875
-0.100229 0.070346 0.221584
0.103863 -0.087102 -0.437620
-0.014368 -0.119788 -0.080347
0.029291 -0.119550 -0.097093
0.073125 0.141680 0.366428
0.014892 -0.115903 -0.059190
-0.063663 0.033160 -0.285941
-0.019578 0.034584 -0.389962
0.094127 -0.068949 -0.124949
-0.034727 -0.049832 0.282254
-0.041037 -0.059550 0.214190
-0.080732 0.105985 0.214336
0.055762 -0.007622 0.460105
-0.028120 0.063287 -0.218121
0.054827 -0.100436 -0.054663
0.056709 0.084639 -0.026026
0.086826 0.001989 0.342987
0.036469 -0.013971 0.478664
0.013829 0.021343 -0.468987
-0.003045 0.034283 0.490045
