58.883072 -122.747581 -73.697685 
40.948750 -147.103638 -62.249470 
32.768188 -176.235916 -43.208920 
12.002126 -133.130630 -50.376850 
56.645901 -145.086838 -64.451942 
52.904964 -186.156815 -25.122293 
39.060936 -112.364555 -81.936256 
64.514488 -127.467155 -66.339760 
14.833868 -132.817215 -66.339767 
39.690212 -114.315918 -81.442345 
10.644958 -135.333069 -46.832253 
55.107430 -182.507843 -41.168785 
32.768188 -171.516357 -24.481899 
29.307171 -175.495834 -43.371254 
38.829193 -138.164825 -67.598320 
60.996651 -109.218185 -64.137299 
56.680618 -118.028023 -54.500881 
22.385159 -161.762604 -29.409283 
55.736706 -119.915848 -53.001080 
12.946039 -152.952759 -38.207180 
27.104721 -162.673950 -51.237175 
27.419359 -145.607697 -35.819950 
66.029999 -157.357697 -53.125000 
69.159317 -169.943176 -35.190678 
35.285278 -96.290565 -74.834961 
48.814686 -99.849007 -65.081207 
30.880362 -153.267395 -32.085827 
68.099159 -141.940460 -50.293255 
37.173107 -152.323486 -32.772430 
15.463136 -162.611969 -46.832256 
28.363258 -142.087677 -64.137299 
24.902254 -163.806686 -50.293259 
18.924147 -128.304565 -71.688599 
30.421719 -185.045761 -36.763870 
57.535187 -114.252380 -76.093513 
63.288002 -166.482162 -50.800583 
28.677896 -150.435669 -59.020199 
46.702118 -106.071808 -58.788464 
12.002126 -131.047943 -47.146889 
43.151215 -141.940460 -65.649513 
47.870770 -168.999268 -49.258553 
64.737602 -124.635406 -56.900639 
32.453552 -178.468170 -41.798061 
37.487747 -172.145630 -24.357996 
48.500046 -160.504059 -30.197554 
11.777580 -158.616226 -41.168785 
21.755882 -143.828293 -62.422951 
7.651619 -118.657295 -60.047020 
19.851149 -180.955490 -33.932129 
57.309895 -103.554718 -69.375992 
28.048634 -139.079956 -38.966316 
18.294870 -122.594994 -74.205681 
18.609509 -163.335800 -30.149035 
11.506252 -144.457565 -54.068913 
23.643709 -105.603714 -57.215275 
58.606892 -174.348099 -47.461533 
10.149293 -144.142929 -50.607895 
54.163517 -107.330360 -60.431438 
63.288002 -151.175217 -39.280960 
8.757420 -134.389160 -53.124996 
64.546539 -159.245499 -53.565823 
56.995258 -157.357697 -33.415386 
65.923752 -129.984238 -55.012825 
31.824276 -155.858322 -55.956745 
61.400177 -160.934128 -54.383553 
16.721687 -168.999268 -29.804192 
52.275688 -142.255096 -66.316658 
10.568380 -141.311188 -44.944424 
34.970642 -160.436951 -28.897934 
22.070520 -150.121033 -34.520664 
61.400177 -141.628601 -63.822666 
33.712105 -115.510933 -49.749065 
63.985958 -178.438385 -41.798061 
32.138912 -128.415161 -72.947151 
39.690212 -150.750305 -59.847557 
35.285278 -175.943985 -23.234465 
65.805092 -173.089554 -31.341650 
55.736706 -110.791367 -76.960861 
50.387875 -116.015724 -53.439636 
64.231903 -181.409332 -31.729675 
62.029449 -142.884369 -62.766277 
50.073235 -155.903366 -57.529919 
56.365982 -128.725693 -48.274357 
46.926857 -175.606659 -44.939762 
11.687495 -140.052628 -57.700294 
25.216892 -143.513657 -62.966251 
44.934570 -171.830994 -47.146893 
52.275688 -133.677124 -44.315147 
58.253796 -104.456177 -67.598312 
64.411057 -179.696930 -30.471125 
28.048634 -178.753021 -41.968174 
40.634109 -113.623108 -51.212151 
19.238785 -150.121033 -35.373337 
61.236591 -172.145630 -28.897934 
53.109661 -100.408340 -67.283676 
31.328529 -130.928162 -43.056610 
19.353479 -118.657295 -76.408150 
68.092751 -148.547836 -45.573700 
16.092413 -176.022415 -32.988213 
12.316763 -135.809464 -61.620209 
18.609509 -109.218185 -76.386673 
45.659466 -125.579330 -76.722786 
62.658726 -169.146774 -49.349361 
40.004848 -99.149788 -62.999084 
14.519230 -167.426086 -32.081120 
23.643709 -174.033463 -25.146730 
40.319473 -95.688782 -67.588402 
51.961063 -137.510193 -69.171494 
43.780491 -191.461243 -27.639383 
52.275688 -129.040329 -46.789696 
69.493500 -151.694229 -50.293259 
67.378281 -162.077255 -49.790180 
42.182476 -155.469864 -31.729675 
26.160807 -149.378662 -59.417747 
30.820518 -186.304321 -35.819954 
38.746296 -181.270126 -40.690891 
27.419359 -108.588913 -80.452606 
61.714813 -177.809097 -28.225445 
60.494289 -169.943176 -29.212572 
12.610369 -132.815994 -48.090805 
54.478153 -167.636230 -28.268658 
39.060936 -167.740723 -49.177715 
64.165268 -163.021164 -33.617489 
30.880362 -138.479462 -39.280239 
17.350964 -136.591629 -45.626839 
50.487755 -161.133331 -54.383553 
25.846169 -138.164825 -66.325089 
11.446029 -154.525955 -40.854149 
43.151215 -105.408020 -80.813065 
57.939171 -160.504059 -32.214352 
35.914555 -189.873672 -32.673576 
40.004848 -118.971939 -80.264748 
17.213837 -128.411057 -70.744690 
27.419359 -112.767464 -52.810360 
29.621809 -125.934410 -74.205681 
28.677896 -173.089554 -44.822327 
35.599918 -185.989685 -37.168480 
59.512348 -185.111633 -28.897936 
37.487747 -187.163132 -36.449230 
57.624535 -182.365280 -40.854149 
24.587616 -144.772202 -62.127533 
25.289043 -105.442528 -78.925255 
30.565723 -128.096420 -44.462387 
10.114305 -133.445267 -48.104603 
57.939171 -163.650436 -53.487606 
23.958340 -116.140198 -78.646767 
54.070011 -172.774918 -47.461533 
15.148499 -152.952759 -53.172314 
67.378281 -146.660019 -45.459930 
48.500046 -177.494461 -24.009102 
53.943424 -105.757172 -61.620205 
28.677896 -184.416489 -24.060228 
41.858047 -159.245499 -54.383553 
21.266832 -139.423370 -39.595592 
7.597208 -121.226570 -58.473827 
11.372857 -129.354965 -49.612762 
45.668320 -156.347336 -31.729675 
24.587616 -105.442528 -57.238026 
46.926857 -112.049911 -81.046341 
11.687495 -154.840591 -45.998775 
35.599918 -104.133240 -58.473824 
65.805092 -155.614395 -54.068916 
23.329071 -148.737778 -34.876038 
8.643098 -133.445267 -52.810360 
15.882447 -175.292023 -32.044315 
21.738588 -105.127892 -77.037422 
35.599918 -95.688782 -74.110909 
32.453552 -162.077255 -28.101511 
28.363258 -179.382294 -23.399376 
32.873051 -139.738007 -66.025131 
24.587616 -135.018433 -41.156803 
31.509638 -118.971939 -50.413151 
34.656002 -135.333069 -41.049438 
51.017151 -178.438385 -43.775150 
22.070520 -163.021164 -50.468929 
24.358734 -97.261971 -71.688591 
48.814686 -111.131020 -55.956741 
44.724403 -154.093018 -32.673576 
65.774231 -125.264687 -63.193382 
38.117020 -101.037613 -79.346703 
55.107430 -154.211319 -34.425446 
10.227166 -133.759903 -59.732380 
33.082829 -166.796799 -49.187771 
20.643339 -182.214020 -30.785763 
67.063644 -157.672333 -38.463585 
10.266140 -134.703796 -59.103104 
39.060936 -153.582031 -58.046543 
10.114305 -118.342659 -54.298481 
41.178585 -95.374146 -72.632507 
54.792793 -152.323486 -35.275078 
17.980232 -129.029205 -70.744690 
51.331787 -151.256577 -60.676300 
40.948750 -170.270615 -47.776169 
37.173107 -105.442528 -57.658897 
17.665602 -134.843307 -66.969048 
38.431660 -117.613663 -49.034718 
43.780491 -148.014221 -35.505314 
10.212973 -146.030746 -48.405441 
49.586430 -116.769470 -79.869164 
35.285278 -185.156097 -38.337044 
54.792793 -179.696930 -43.889828 
59.512348 -172.390717 -48.405445 
62.029449 -137.850174 -64.916992 
57.844460 -187.248230 -33.932129 
58.427349 -130.613525 -48.090805 
34.341366 -95.059509 -68.074493 
47.556133 -121.174400 -49.968334 
56.758762 -135.333069 -69.486137 
44.724403 -138.318436 -40.539505 
11.243083 -152.323486 -46.832256 
48.814686 -103.586967 -61.305569 
25.216892 -124.635406 -74.887764 
54.792793 -104.813255 -74.685143 
49.834816 -112.049911 -55.642101 
24.272978 -179.382294 -40.118137 
32.453552 -154.717590 -31.415037 
58.568432 -183.419693 -39.595596 
54.478153 -148.547836 -62.610992 
48.500046 -171.830994 -47.504105 
37.173107 -117.398743 -80.895332 
25.216892 -158.930862 -29.978996 
56.051342 -156.099136 -33.738873 
42.836578 -123.376854 -77.217590 
17.590359 -177.809097 -35.505318 
63.804924 -118.028023 -60.361656 
46.926857 -99.317513 -75.778870 
24.398909 -98.520508 -73.261780 
56.680618 -148.862488 -37.571686 
22.385159 -154.344574 -55.956745 
26.475445 -154.211319 -56.438663 
43.151215 -178.753021 -23.036070 
34.341366 -172.229431 -45.888344 
29.621809 -181.270126 -40.486969 
40.004848 -180.004990 -22.605188 
21.441244 -175.119141 -42.427338 
33.872559 -104.498619 -80.813065 
51.331787 -137.535538 -42.075668 
17.036325 -101.037613 -64.412132 
34.970642 -130.857986 -71.688599 
36.858471 -132.961227 -42.427334 
36.543831 -132.258591 -42.741974 
47.870770 -182.528656 -41.457973 
19.234791 -103.869354 -74.520317 
36.352276 -174.033463 -44.944427 
34.341366 -148.099869 -60.990932 
59.197708 -183.335510 -27.324745 
40.319473 -140.891907 -66.025131 
13.067298 -157.043060 -36.763870 
37.487747 -127.152519 -74.210258 
14.519230 -170.674500 -32.358936 
21.126606 -137.535538 -66.234749 
28.351799 -99.149788 -76.408150 
40.319473 -186.884796 -37.078506 
12.733340 -145.086838 -41.483421 
31.509638 -183.735672 -23.234467 
18.819996 -179.382294 -35.190678 
37.173107 -140.913040 -65.710495 
29.307171 -142.918762 -37.078503 
61.400177 -136.235687 -46.517612 
39.060936 -189.450684 -24.568731 
29.307171 -100.719292 -77.981339 
36.543831 -141.311188 -38.168240 
70.381371 -161.762604 -45.573704 
19.439503 -146.974655 -60.047020 
24.272978 -131.557434 -42.866322 
60.141624 -134.969742 -46.517612 
58.568432 -120.971436 -53.754272 
62.658726 -168.155502 -49.978638 
64.994919 -126.837883 -55.642101 
26.475445 -180.092712 -40.539509 
24.587616 -114.881660 -51.354309 
14.204592 -153.267395 -37.306198 
16.721687 -106.071808 -58.570995 
24.272978 -119.915848 -77.928009 
14.204592 -114.881660 -73.512924 
56.051342 -133.759903 -70.565338 
18.609509 -122.432938 -48.243183 
13.889954 -140.381866 -60.361656 
51.961063 -142.517059 -39.595592 
35.285278 -182.843292 -40.068737 
23.014433 -167.008606 -48.090809 
40.875420 -114.881660 -50.607895 
31.284794 -94.744865 -70.744682 
40.948750 -165.004868 -27.324743 
17.665602 -104.813255 -73.685112 
16.721687 -133.330551 -43.685886 
38.431660 -172.145630 -24.401196 
50.702511 -150.435669 -35.342327 
46.297581 -125.427559 -47.461529 
14.204592 -169.313904 -32.769421 
62.658726 -181.270126 -39.624447 
39.060936 -171.516357 -24.675838 
17.036325 -116.140198 -75.627846 
57.939171 -157.541473 -57.215282 
55.422066 -164.908981 -29.577932 
22.070520 -145.401474 -61.507034 
21.755882 -113.765831 -52.181084 
31.195000 -148.233200 -60.621624 
66.324158 -128.096420 -57.844555 
49.129322 -146.030746 -37.292095 
63.598423 -142.569733 -44.315147 
35.599918 -96.722702 -75.464233 
63.917278 -152.166061 -57.215282 
28.262362 -97.576607 -74.520317 
44.935001 -100.408340 -77.666702 
38.431660 -101.666893 -60.538635 
24.587616 -177.809097 -24.477520 
31.824276 -189.654587 -28.897936 
34.656002 -162.706528 -27.890467 
61.400177 -138.438385 -45.259064 
20.182699 -169.313904 -27.432016 
61.085537 -128.725693 -69.457855 
47.870770 -108.310844 -57.529915 
32.768188 -188.192123 -24.823780 
41.263386 -102.844948 -60.047016 
46.926857 -177.111694 -44.000530 
51.646427 -107.330360 -78.485580 
8.847930 -123.376854 -64.137299 
39.060936 -133.759903 -42.318527 
44.724403 -191.656860 -29.212574 
56.680618 -128.125336 -48.720081 
25.531530 -123.434563 -76.093513 
42.207302 -123.691490 -76.756790 
57.309895 -111.321083 -59.103104 
50.702511 -100.671669 -65.081207 
40.004848 -124.230721 -47.461529 
20.182699 -129.792236 -44.315147 
35.599918 -100.476807 -61.305569 
43.151215 -164.768494 -27.639381 
50.702511 -115.196297 -79.746277 
14.833868 -138.025223 -62.878750 
62.973366 -118.657295 -58.586571 
13.260677 -163.965057 -35.122326 
20.137905 -143.513657 -38.022419 
32.583088 -114.881660 -51.237171 
45.668320 -148.402527 -61.305573 
70.718002 -165.852890 -43.371254 
40.004848 -141.311188 -38.503902 
41.892662 -98.205872 -64.428123 
39.375572 -175.467972 -44.315151 
7.911846 -116.122536 -60.361656 
8.855761 -127.467155 -51.991543 
36.858471 -170.572449 -47.184372 
28.363258 -145.479462 -35.819950 
61.269299 -153.267395 -58.473831 
33.712105 -167.426086 -48.843586 
21.755882 -133.759903 -68.646500 
39.375572 -97.576607 -64.652931 
51.166355 -168.369995 -27.324743 
40.319473 -153.582031 -58.152012 
54.792793 -181.352753 -42.427338 
11.173524 -121.174400 -51.866447 
61.714813 -112.769043 -70.744682 
37.802383 -137.850174 -67.669456 
43.780491 -113.623108 -81.516281 
36.543831 -163.650436 -51.492027 
30.880362 -132.808136 -42.112698 
43.780491 -130.691544 -72.632515 
40.948750 -189.107361 -24.178381 
39.375572 -110.708122 -53.754272 
51.439762 -188.506760 -26.066208 
55.736706 -148.009399 -37.707779 
58.253796 -124.427727 -51.551807 
43.465851 -177.865509 -23.234465 
21.077602 -180.955490 -36.134594 
10.114305 -136.351883 -47.146889 
14.814787 -112.364555 -73.891060 
38.117020 -137.220901 -68.086212 
47.870770 -111.735275 -80.797089 
43.246849 -101.037613 -61.934845 
57.624535 -123.376854 -74.407623 
66.560730 -130.298889 -60.676296 
38.746296 -172.940308 -24.178379 
25.846169 -133.759903 -69.072639 
65.805092 -179.696930 -37.843891 
39.375572 -155.294739 -54.383553 
29.936447 -131.557434 -70.808403 
8.153580 -128.096420 -54.698189 
65.584229 -164.908981 -33.617489 
13.065659 -121.803680 -71.059319 
64.715622 -117.713387 -63.508018 
59.826984 -128.411057 -50.096127 
46.477959 -110.791367 -81.127701 
64.037216 -132.815994 -64.766579 
19.238785 -153.582031 -55.754505 
16.407051 -173.007126 -39.910236 
40.634109 -149.806396 -34.276196 
22.699795 -113.308464 -52.358273 
27.417034 -136.591629 -40.224869 
58.883072 -157.672333 -33.869064 
26.475445 -119.915848 -78.370483 
40.004848 -102.737030 -80.183792 
50.073235 -130.046524 -73.576431 
38.854778 -118.971939 -49.034718 
43.465851 -174.662735 -24.058275 
37.802383 -109.532837 -55.742027 
42.836578 -155.957962 -56.900642 
65.175819 -122.599327 -59.417744 
25.531530 -132.264938 -42.427334 
32.768188 -99.779060 -61.598286 
19.553423 -136.591629 -66.546272 
37.802383 -182.528656 -40.386787 
23.958340 -173.718826 -44.723190 
60.141624 -176.865189 -44.986374 
50.557198 -104.183983 -77.666702 
36.543831 -180.626038 -40.854149 
10.687247 -110.476723 -66.339760 
37.487747 -133.130630 -70.590744 
37.487747 -106.701080 -81.638680 
18.745712 -179.696930 -34.246765 
27.419359 -142.971909 -63.508026 
46.297581 -169.628540 -26.097633 
35.914555 -124.464027 -46.832253 
36.543831 -111.145203 -52.495720 
35.914555 -96.632698 -65.313042 
24.272978 -120.859764 -48.183655 
54.163517 -114.881660 -78.296036 
69.598885 -161.447968 -39.280960 
30.086786 -151.379578 -32.988213 
22.385159 -133.759903 -42.019608 
24.587616 -157.043060 -54.492989 
36.229195 -102.546074 -80.183792 
50.689934 -158.301590 -55.956745 
22.070520 -160.188629 -30.156487 
59.197708 -130.767807 -48.405441 
52.210732 -114.252380 -55.012825 
26.160807 -139.738007 -38.747433 
56.680618 -188.027969 -30.156488 
11.372857 -131.557434 -47.912750 
48.814686 -98.026436 -67.598312 
32.768188 -186.287201 -36.134594 
42.836578 -147.829163 -35.505314 
18.438160 -159.560150 -51.237175 
54.163517 -108.362923 -77.352058 
23.958340 -178.438385 -40.756470 
34.630360 -189.765320 -25.751570 
51.127182 -170.887085 -26.380829 
19.837946 -109.532837 -55.012825 
44.724403 -132.186707 -71.798752 
10.728292 -150.435669 -43.685890 
16.721687 -124.006126 -72.923943 
47.241493 -96.839554 -70.430038 
38.746296 -140.367264 -66.214867 
60.351433 -108.274277 -70.115402 
68.147209 -168.684631 -34.246765 
11.058219 -122.432938 -51.458630 
38.431660 -161.762604 -28.500013 
25.412678 -185.675034 -32.988213 
14.278017 -116.454834 -52.495720 
31.195000 -154.700851 -56.586006 
69.266113 -160.029846 -49.034721 
37.487747 -97.713196 -76.722786 
36.543831 -171.201721 -46.745785 
42.836578 -96.947334 -74.631844 
21.755882 -129.354965 -72.137527 
55.132179 -101.666893 -70.115402 
8.652269 -132.186707 -55.642101 
22.699795 -115.825569 -50.956207 
52.904964 -148.233200 -36.885666 
36.543831 -133.130630 -70.477867 
49.129322 -143.969971 -38.337040 
44.409767 -95.981201 -72.003227 
39.690212 -138.479462 -67.493996 
53.219601 -110.791367 -57.539631 
17.350964 -127.781792 -46.009975 
17.036325 -150.121033 -56.749142 
8.226484 -116.769470 -57.029922 
19.553423 -139.423370 -40.020367 
10.472796 -148.862488 -45.259064 
10.428943 -126.523239 -50.643269 
39.060936 -119.915848 -79.598801 
42.836578 -122.509262 -78.295975 
18.924147 -166.482162 -46.978958 
26.475445 -109.532837 -54.430786 
56.995258 -119.186111 -76.093513 
37.173107 -190.807083 -31.100401 
28.992535 -173.884247 -44.315151 
50.387875 -110.821938 -56.586002 
29.621809 -119.286575 -79.091194 
38.746296 -126.334656 -74.834961 
60.141624 -126.739548 -51.237171 
65.295517 -162.391891 -34.561401 
44.095127 -126.626625 -75.149597 
39.060936 -143.890274 -37.078503 
28.048634 -158.279022 -54.068916 
18.924147 -170.507767 -44.315151 
34.026741 -166.482162 -49.477688 
65.805092 -180.250931 -34.246765 
21.441244 -97.891251 -69.243118 
40.319473 -121.489037 -78.258530 
49.758598 -171.830994 -25.815613 
41.892662 -136.078278 -69.171494 
32.138912 -189.322784 -26.695469 
27.195126 -98.205872 -74.834961 
19.553423 -180.640854 -29.717304 
51.017151 -168.999268 -49.532734 
42.836578 -191.437454 -27.324745 
36.229195 -103.554718 -58.931396 
68.636833 -167.855331 -45.888344 
19.553423 -157.672333 -53.276695 
40.948750 -165.777588 -27.010105 
53.219601 -159.667328 -31.415037 
56.995258 -153.387634 -59.732384 
45.039043 -154.797409 -32.358936 
23.014433 -163.650436 -28.453522 
12.816444 -165.223618 -38.966320 
28.363258 -103.240082 -58.679790 
28.363258 -159.354965 -53.439640 
16.092413 -135.018433 -65.931160 
45.668320 -103.554718 -79.402718 
61.085537 -131.557434 -68.343636 
29.307171 -176.865189 -23.448505 
45.982956 -159.560150 -30.291935 
24.703369 -174.033463 -44.629791 
34.656002 -97.823044 -76.722786 
9.134113 -121.489037 -65.710487 
39.503990 -95.688782 -67.283676 
40.004848 -130.928162 -43.887306 
51.017151 -127.781792 -75.012642 
20.497337 -129.984238 -71.206367 
30.880362 -95.059509 -71.794556 
42.836578 -140.996552 -66.208443 
21.441244 -120.859764 -48.455555 
54.291458 -105.195076 -75.582329 
55.107430 -146.974655 -38.082840 
27.419359 -187.033173 -32.358936 
39.060936 -112.364555 -51.526627 
17.786451 -178.753021 -33.302853 
69.962738 -155.155228 -45.888344 
49.443962 -186.304321 -24.243052 
34.026741 -134.074524 -69.665871 
33.712105 -173.587296 -44.944427 
10.428943 -125.704437 -50.922531 
40.496437 -166.167526 -50.293259 
48.500046 -137.076279 -69.171494 
41.578026 -147.706284 -61.934849 
19.238785 -132.208054 -69.171494 
11.058219 -132.401581 -62.249470 
56.051342 -161.030914 -55.012829 
65.490456 -140.064270 -47.461529 
47.556133 -185.360397 -23.432190 
61.714813 -160.818695 -33.443310 
19.868061 -175.292023 -41.368717 
26.790083 -138.479462 -66.235031 
24.587616 -159.560150 -52.924477 
8.855761 -130.227295 -58.788467 
52.275688 -174.662735 -25.467283 
25.216892 -175.107880 -44.000530 
10.217361 -131.242798 -61.620209 
33.712105 -127.467155 -44.960220 
62.555447 -143.513657 -43.056610 
65.368202 -124.320770 -64.451935 
65.939514 -128.096420 -56.586002 
35.285278 -103.364532 -80.498428 
58.883072 -159.245499 -56.129551 
19.238785 -146.170044 -37.078503 
37.487747 -184.416489 -22.460321 
35.285278 -133.282364 -42.112698 
65.484894 -124.950043 -65.710487 
32.453552 -169.313904 -47.544575 
62.720730 -117.398743 -70.744682 
8.718677 -134.074524 -52.181084 
58.568432 -183.946152 -38.966320 
47.870770 -191.023865 -31.661949 
13.889954 -118.657295 -72.744370 
28.677896 -132.713974 -42.112698 
36.229195 -138.794098 -39.402237 
69.895386 -154.344193 -46.832256 
11.687495 -125.579330 -49.662609 
59.197708 -162.077255 -31.904169 
8.001939 -118.971939 -62.878742 
28.363258 -105.050858 -79.869164 
45.668320 -162.077255 -53.336777 
39.060936 -124.323868 -47.461529 
44.409767 -176.731232 -44.000530 
36.543831 -157.043060 -30.524603 
54.163517 -147.854919 -37.393143 
36.229195 -111.664658 -51.866447 
8.150205 -127.781792 -57.215279 
8.770503 -129.354965 -59.417744 
31.824276 -147.740311 -60.990932 
33.082829 -179.067657 -22.782631 
37.173107 -102.563644 -80.183792 
24.587616 -185.249695 -27.954021 
17.036325 -159.874786 -50.289398 
41.578026 -150.059921 -34.246765 
64.231903 -139.108734 -62.222069 
9.615980 -140.367264 -51.866447 
11.834845 -131.242798 -49.663994 
38.431660 -173.353943 -45.573704 
18.609509 -128.596527 -45.259064 
8.714691 -116.140198 -56.586002 
37.802383 -190.228134 -25.436932 
68.636833 -163.178192 -48.090809 
16.148775 -164.279694 -31.729675 
68.204742 -146.030746 -55.012825 
32.138912 -141.146393 -65.081215 
12.316763 -158.208572 -44.944427 
12.679092 -132.815994 -64.137299 
31.509638 -115.510933 -52.692001 
21.126606 -155.577271 -55.012829 
11.372857 -127.152519 -49.405502 
32.768188 -127.481056 -73.576424 
66.418602 -156.413773 -53.125000 
43.465851 -151.822113 -33.617489 
15.148499 -150.718124 -54.698193 
42.836578 -103.554718 -80.136078 
32.453552 -134.836533 -41.168781 
67.622963 -175.606659 -33.302853 
69.266113 -167.111435 -45.917027 
10.341748 -147.918564 -45.573700 
34.970642 -124.635406 -46.576756 
36.229195 -133.759903 -70.047699 
33.082829 -114.881660 -50.391827 
43.465851 -127.781792 -74.390862 
57.929741 -106.386444 -63.822659 
52.904964 -126.523239 -48.311966 
18.828243 -110.162086 -76.722786 
43.780491 -160.504059 -54.152035 
54.163517 -134.512558 -70.744690 
54.163517 -176.235916 -25.511377 
41.892662 -103.554718 -80.303413 
57.359921 -161.133331 -31.729675 
18.924147 -164.279694 -48.494839 
19.868061 -164.469498 -49.034721 
33.712105 -178.753021 -41.725895 
56.680618 -180.326202 -25.763981 
15.777774 -142.884369 -39.962967 
52.275688 -151.392715 -60.676300 
65.175819 -151.223969 -40.539509 
15.593551 -173.404190 -38.022423 
63.917278 -175.921280 -29.676638 
44.095127 -169.313904 -25.957561 
62.029449 -167.740723 -50.420948 
27.419359 -107.015724 -56.003693 
16.721687 -100.942024 -65.395844 
15.463136 -148.858032 -56.271362 
58.253796 -140.367264 -66.300682 
59.826984 -140.321426 -43.371250 
17.980232 -171.830994 -28.441734 
39.375572 -185.360397 -38.794167 
41.263386 -99.779060 -62.643959 
63.288002 -121.740364 -56.900639 
38.431660 -119.915848 -48.982639 
38.746296 -133.759903 -70.299942 
17.350964 -109.847466 -55.410686 
15.148499 -114.881660 -74.321838 
64.546539 -181.886719 -34.876041 
8.818090 -135.018433 -52.495720 
49.758598 -115.510933 -53.585236 
20.182699 -128.801025 -72.317879 
59.609116 -159.874786 -55.642105 
12.316763 -120.859764 -51.314445 
59.512348 -135.647720 -45.805012 
23.329071 -134.389160 -68.426933 
53.848877 -141.625824 -40.522533 
21.126606 -130.520889 -70.744690 
50.387875 -111.106003 -79.913109 
38.431660 -191.137177 -30.785763 
52.275688 -151.694229 -35.011806 
22.385159 -182.338501 -35.505318 
70.281685 -168.369995 -37.707783 
29.621809 -149.806396 -33.729263 
59.197708 -140.563690 -65.710495 
40.634109 -97.186768 -65.395844 
38.117020 -166.482162 -49.892330 
41.578026 -163.660126 -27.954020 
30.251085 -164.279694 -50.516628 
44.724403 -101.352249 -78.439041 
30.880362 -124.320770 -75.317772 
61.714813 -182.398438 -38.966320 
37.487747 -148.040726 -34.876038 
59.826984 -109.905426 -72.003227 
8.541122 -113.449554 -59.732380 
56.051342 -160.818695 -31.539433 
69.580750 -152.826508 -45.888344 
16.092413 -165.436035 -45.573704 
15.927442 -103.240082 -62.249466 
34.026741 -118.971939 -49.150978 
28.119370 -187.248230 -26.695469 
40.004848 -95.059509 -72.329132 
66.911697 -162.706528 -49.978638 
56.680618 -128.725693 -72.693787 
55.422066 -185.989685 -26.202822 
53.662792 -106.701080 -60.676296 
12.721218 -155.469864 -48.090809 
26.790083 -156.413773 -30.881544 
17.299898 -165.223618 -46.832256 
52.590324 -155.155228 -58.351986 
43.780491 -153.896667 -58.276497 
56.055904 -124.320770 -50.607895 
65.001938 -134.389160 -63.193390 
23.432821 -170.887085 -45.888344 
12.946039 -150.121033 -52.372330 
22.070520 -180.326202 -26.102118 
66.749008 -171.516357 -32.338715 
32.768188 -109.218185 -55.568520 
29.307171 -123.062218 -47.012764 
68.322197 -157.357697 -50.958580 
62.594013 -178.123749 -43.056614 
13.889954 -123.691490 -71.021797 
40.004848 -189.997513 -33.617489 
55.107430 -119.286575 -53.109886 
8.855761 -112.159233 -60.990932 
36.543831 -187.877487 -23.633369 
26.475445 -157.509262 -54.383553 
47.241493 -184.101852 -23.245121 
15.927135 -174.977371 -36.449230 
70.544914 -161.133331 -42.741978 
40.634109 -100.422119 -61.934845 
45.353680 -189.900040 -34.246765 
40.575520 -106.386444 -57.529911 
50.387875 -136.591629 -69.628990 
58.253796 -159.680374 -32.673576 
50.140888 -146.660019 -62.249470 
41.892662 -123.062218 -77.176811 
55.422066 -174.662735 -47.087513 
25.846169 -170.257812 -25.519602 
61.400177 -183.157928 -38.163879 
59.197708 -120.588463 -54.383549 
12.881659 -107.959633 -69.800766 
57.624535 -128.096420 -72.410545 
53.534241 -100.296745 -69.486130 
38.431660 -160.183624 -29.212572 
27.733997 -172.460266 -24.592348 
57.080181 -108.274277 -61.305573 
70.224731 -159.874786 -46.517616 
22.385159 -99.779060 -62.856422 
14.527016 -135.647720 -47.461529 
55.736706 -136.591629 -68.968811 
51.331787 -152.008850 -60.206436 
18.924147 -107.959633 -56.307125 
20.497337 -98.520508 -69.335014 
26.919737 -97.576607 -64.451935 
68.191170 -149.114212 -54.656925 
41.892662 -184.416489 -39.697773 
19.553423 -124.765236 -73.891060 
53.848877 -106.071808 -76.549797 
20.811975 -152.504013 -56.900642 
44.724403 -142.255096 -38.551678 
43.370827 -163.335800 -28.268658 
51.017151 -99.149788 -67.467110 
51.331787 -123.725945 -77.037422 
61.085537 -156.099136 -35.540379 
14.260292 -107.959633 -58.159191 
57.939171 -181.160660 -41.798061 
56.187553 -128.096420 -73.261787 
28.363258 -184.101852 -37.034252 
31.824276 -188.506760 -33.108780 
9.100623 -135.962357 -49.978634 
17.350964 -130.613525 -69.461723 
51.646427 -168.999268 -27.160683 
51.544815 -184.101852 -24.178381 
49.796253 -101.352249 -63.822659 
13.575315 -138.479462 -43.047760 
13.377584 -167.111435 -34.876041 
20.497337 -121.174400 -48.444649 
51.331787 -189.073395 -26.695469 
10.337502 -140.681900 -45.573700 
14.833868 -107.330360 -58.344204 
66.749008 -144.142929 -46.235401 
41.892662 -128.357346 -73.891068 
30.880362 -103.240082 -58.671459 
20.497337 -100.926720 -72.947144 
58.568432 -134.113617 -46.202976 
34.656002 -178.240784 -42.112701 
10.114305 -137.732880 -56.271362 
59.826984 -159.874786 -33.122383 
37.487747 -104.498619 -58.303951 
35.599918 -158.930862 -29.594830 
49.758598 -133.245453 -44.000526 
43.465851 -132.542191 -43.371250 
36.229195 -96.231827 -74.834961 
55.422066 -102.722710 -71.688591 
53.848877 -147.062180 -37.707779 
13.575315 -112.049911 -55.382748 
69.760529 -153.267395 -48.405445 
17.672672 -139.738007 -63.822666 
51.735012 -99.149788 -69.171486 
21.441244 -178.753021 -39.162880 
39.690212 -105.105858 -81.127701 
10.132961 -131.872070 -60.990932 
59.197708 -137.850174 -44.425968 
50.073235 -190.399841 -27.954021 
51.961063 -149.177124 -62.007210 
26.160807 -98.038857 -73.891060 
29.936447 -104.498619 -57.740299 
40.634109 -112.364555 -52.359539 
37.173107 -188.506760 -24.036625 
12.809835 -162.077255 -36.449230 
13.889954 -105.757172 -68.832634 
56.680618 -185.655548 -37.707783 
45.353680 -117.934593 -80.183792 
63.475967 -112.993828 -66.654396 
50.387875 -107.540077 -58.788467 
56.680618 -156.728424 -57.720371 
21.755882 -163.742523 -49.978638 
18.924147 -99.864342 -64.766571 
37.173107 -101.037613 -79.379753 
49.443962 -129.040329 -74.250694 
24.272978 -155.336792 -31.729675 
48.500046 -164.908981 -28.282530 
43.151215 -152.952759 -33.033676 
48.689114 -172.460266 -25.436930 
68.658989 -175.292023 -40.224873 
44.095127 -178.438385 -23.179554 
12.946039 -125.264687 -69.292206 
26.890934 -98.520508 -63.193382 
26.790083 -111.106003 -80.471054 
47.056721 -158.616226 -55.642105 
34.656002 -115.510933 -49.488384 
15.148499 -102.275650 -66.339760 
58.568432 -118.808800 -55.012825 
48.185410 -147.289291 -59.910019 
32.768188 -136.591629 -40.290718 
50.073235 -188.192123 -25.155554 
21.755882 -183.135590 -32.673576 
14.833868 -125.196724 -71.059319 
56.051342 -144.457565 -64.922073 
33.082829 -164.712585 -27.010105 
70.498360 -160.504059 -44.629791 
15.463136 -137.036484 -64.137299 
22.070520 -155.304626 -55.327469 
40.319473 -136.313873 -68.856857 
62.416866 -179.696930 -28.897934 
21.755882 -158.930862 -53.000175 
50.073235 -108.282677 -79.554527 
28.363258 -98.614792 -62.878742 
43.151215 -143.199005 -37.871826 
60.450867 -184.101852 -28.897936 
69.580750 -156.099136 -49.385181 
40.948750 -123.024307 -77.037422 
57.939171 -157.986954 -33.385403 
9.799666 -118.971939 -67.735329 
63.288002 -183.060974 -32.988213 
30.251085 -177.601868 -23.234465 
8.299276 -129.984238 -54.068913 
56.995258 -129.354965 -72.225044 
57.309895 -107.777229 -73.891060 
26.475445 -101.703445 -60.047016 
16.892210 -101.037613 -68.227577 
23.643709 -150.750305 -58.348484 
34.656002 -190.551743 -29.841850 
33.712105 -99.798119 -61.620205 
35.285278 -117.305229 -80.813065 
59.197708 -168.055359 -50.805546 
18.294870 -138.738159 -64.766579 
21.126606 -142.255096 -38.316628 
38.117020 -166.850525 -26.380829 
20.497337 -150.874023 -57.844559 
26.790083 -187.142365 -29.212574 
58.883072 -138.794098 -66.723724 
45.982956 -168.813828 -26.380829 
26.475445 -127.010269 -73.261780 
55.736706 -183.157928 -25.553028 
43.780491 -167.111435 -50.022015 
25.531530 -151.334930 -33.302853 
23.643709 -113.862389 -79.239891 
56.510822 -182.214020 -25.751570 
51.331787 -119.601212 -51.686127 
44.724403 -179.067657 -42.549274 
61.189816 -165.538254 -31.100399 
68.162323 -140.996552 -54.698189 
65.099495 -162.706528 -51.551811 
57.309895 -112.422447 -76.093513 
29.621809 -133.759903 -69.399376 
50.073235 -142.255096 -66.101471 
40.948750 -186.417648 -37.707783 
30.565723 -188.445236 -32.358936 
19.868061 -152.657333 -56.586006 
43.603451 -151.064941 -60.047024 
31.617121 -110.791367 -55.012825 
29.936447 -97.733253 -63.822659 
27.419359 -119.915848 -78.496231 
49.129322 -164.494003 -52.181087 
61.400177 -184.945679 -33.932129 
36.858471 -135.421036 -41.168781 
55.486858 -165.852890 -29.212572 
40.319473 -158.616226 -54.306141 
10.447264 -118.657295 -68.856850 
40.004848 -145.401474 -36.417114 
32.453552 -142.255096 -37.449944 
37.173107 -144.014709 -63.822666 
63.282280 -118.028023 -69.486130 
31.824276 -96.234093 -74.205681 
60.770901 -160.304810 -33.302853 
55.422066 -184.051285 -25.751570 
45.353680 -164.427368 -51.866451 
37.802383 -182.214020 -22.404949 
52.275688 -180.011566 -43.429619 
51.646427 -149.806396 -61.598427 
37.487747 -164.706833 -50.922535 
63.319458 -123.466751 -68.691299 
27.419359 -130.928162 -43.002209 
25.623381 -185.360397 -26.695469 
41.263386 -95.628609 -67.912949 
15.777774 -167.740723 -30.592285 
54.163517 -149.177124 -62.205143 
58.568432 -167.740723 -29.295496 
45.353680 -163.650436 -52.365593 
28.363258 -163.889069 -50.607899 
52.275688 -113.308464 -79.214439 
61.400177 -132.501343 -67.658653 
28.048634 -123.062218 -46.991455 
61.714813 -178.614655 -43.056614 
29.936447 -124.635406 -75.035645 
53.548843 -100.408340 -68.542213 
43.151215 -151.064941 -33.932171 
56.995258 -168.369995 -50.533569 
62.864452 -183.472580 -32.358936 
65.805092 -160.052612 -52.181087 
27.104721 -160.189423 -29.175900 
23.958340 -104.498619 -77.941925 
27.236090 -109.532837 -80.498428 
64.231903 -163.965057 -33.212982 
9.193354 -135.647720 -55.012825 
16.863651 -132.815994 -67.598320 
47.870770 -135.647720 -69.997826 
30.565723 -145.086838 -36.006081 
22.385159 -105.805656 -57.215275 
57.309895 -121.928490 -75.149597 
19.868061 -99.149788 -65.289436 
15.753590 -170.572449 -30.156487 
47.556133 -133.650513 -43.371250 
17.665602 -121.174400 -74.660538 
43.151215 -145.884247 -63.193390 
50.702511 -164.908981 -52.053623 
48.916965 -108.274277 -57.844555 
44.409767 -144.772202 -37.222912 
58.883072 -112.993828 -74.616951 
16.407051 -134.074524 -43.485512 
26.157335 -112.993828 -80.183792 
17.980232 -153.819458 -54.698193 
28.363258 -96.318062 -66.059517 
56.995258 -175.606659 -46.678787 
43.151215 -120.859764 -79.417397 
66.367073 -127.781792 -60.361656 
52.904964 -152.522675 -60.047024 
56.995258 -164.475800 -30.156487 
25.216892 -135.542358 -40.854145 
36.858471 -98.821709 -62.878742 
61.714813 -153.896667 -57.924339 
32.138912 -175.011841 -23.549103 
42.207302 -101.666893 -61.173992 
39.060936 -96.318062 -66.232506 
52.781090 -102.296165 -64.451935 
51.961063 -105.127892 -61.203167 
36.858471 -107.330360 -81.755310 
15.360698 -174.662735 -33.932129 
20.497337 -160.333862 -51.866451 
34.341366 -157.986954 -54.845848 
49.443962 -187.248230 -24.354021 
31.509638 -171.559357 -24.493017 
65.175819 -175.921280 -43.310978 
15.442223 -174.033463 -36.763870 
13.889954 -152.638123 -37.736305 
27.104721 -140.052628 -38.541069 
38.117020 -175.287537 -44.315151 
45.756935 -109.218185 -81.127701 
11.770905 -148.862488 -51.237171 
40.948750 -125.579330 -46.637703 
20.154312 -122.432938 -75.149597 
63.389122 -183.157928 -33.932129 
64.992027 -126.837883 -65.710487 
51.646427 -112.374832 -55.956741 
48.185410 -114.741035 -53.754272 
18.924147 -142.884369 -62.408974 
24.587616 -122.843407 -76.408150 
42.836578 -98.435844 -64.451935 
27.733997 -165.538254 -49.457737 
57.309895 -184.771393 -26.695469 
13.575315 -144.935623 -56.900639 
12.401342 -160.818695 -37.707783 
44.409767 -113.623108 -54.734383 
17.036325 -170.632294 -42.741978 
69.580750 -157.274567 -42.112701 
27.419359 -125.264687 -74.408310 
55.736706 -181.071274 -42.427338 
36.229195 -135.333069 -69.108437 
24.786264 -176.550552 -24.493017 
54.163517 -107.330360 -76.905922 
47.870770 -122.747581 -49.177902 
49.758598 -182.214020 -23.694256 
45.982956 -180.326202 -23.148157 
34.656002 -188.380005 -34.561401 
26.790083 -108.105545 -80.183792 
47.241493 -151.614395 -60.047024 
63.602642 -126.570999 -67.598312 
30.251085 -100.408340 -78.024330 
56.365982 -145.716110 -39.104404 
30.251085 -128.411057 -72.748863 
15.148499 -125.579330 -47.831421 
51.331787 -186.832855 -24.807655 
21.622532 -122.118301 -76.093513 
58.883072 -181.584763 -41.348270 
30.251085 -146.660019 -61.516037 
37.173107 -130.928162 -71.879158 
26.475445 -114.252380 -51.743736 
64.231903 -122.432938 -67.716972 
64.386261 -146.345383 -42.741974 
40.004848 -143.930954 -64.137299 
45.039043 -180.640854 -22.977240 
48.185410 -110.476723 -56.223381 
51.017151 -159.560150 -55.396637 
34.656002 -120.230492 -78.415573 
27.104721 -120.545128 -78.043579 
42.207302 -127.308800 -45.888340 
19.868061 -117.713387 -50.303745 
17.980232 -101.037613 -70.063278 
68.007561 -158.301590 -50.788261 
59.197708 -152.323486 -36.655941 
23.014433 -114.293076 -78.925255 
61.400177 -129.984238 -50.167862 
52.904964 -162.062622 -54.068916 
55.107430 -111.030334 -58.159191 
43.151215 -150.121033 -60.595043 
43.780491 -97.758270 -75.149597 
44.724403 -112.291176 -55.327465 
28.677896 -106.931541 -80.498428 
26.790083 -128.725693 -44.104626 
36.543831 -170.572449 -24.849527 
62.933369 -131.872070 -66.339767 
32.453552 -160.189423 -53.289959 
17.360910 -143.513657 -60.990932 
38.117020 -160.470810 -53.125000 
29.663519 -188.506760 -31.100401 
44.095127 -150.121033 -60.670040 
45.982956 -111.980774 -55.327465 
29.307171 -109.685295 -54.698189 
17.980232 -105.127892 -58.874458 
53.219601 -150.750305 -35.715855 
33.712105 -168.726425 -25.436930 
32.453552 -176.938446 -42.741978 
10.743581 -119.915848 -69.002968 
31.824276 -94.677185 -69.486130 
34.026741 -136.282227 -40.539505 
21.126606 -97.920631 -67.912949 
33.712105 -184.101852 -22.765900 
65.429390 -122.118301 -63.508018 
26.475445 -132.501343 -42.249893 
61.085537 -158.930862 -34.083897 
31.824276 -182.843292 -22.873158 
28.048634 -181.628769 -39.595596 
26.160807 -121.803680 -47.646198 
34.970642 -162.706528 -51.919037 
13.450519 -168.369995 -35.190678 
48.185410 -105.127892 -79.262543 
17.005482 -125.579330 -47.146889 
28.048634 -173.404190 -24.314217 
62.843010 -158.616226 -55.012829 
40.004848 -167.426086 -49.468571 
53.219601 -183.425827 -40.539509 
51.331787 -181.270126 -24.084518 
56.680618 -155.155228 -58.659992 
42.836578 -144.675461 -37.078503 
13.889954 -154.525955 -50.589165 
35.285278 -105.442528 -81.214622 
56.995258 -132.815994 -70.574707 
58.883072 -151.379578 -60.235104 
19.553423 -126.837883 -45.860397 
53.435833 -168.684631 -27.639381 
36.229195 -96.139511 -66.025124 
32.768188 -118.017967 -80.183792 
68.007561 -168.938354 -45.888344 
62.658726 -167.740723 -30.920900 
20.016632 -135.962357 -41.483421 
70.727005 -163.021164 -43.056614 
44.095127 -100.931221 -62.249466 
39.375572 -191.214554 -27.010107 
56.051342 -151.694229 -35.948566 
17.036325 -172.774918 -40.966431 
42.059673 -120.545128 -50.293255 
32.768188 -122.432938 -76.640129 
29.936447 -146.106277 -35.505314 
52.590324 -139.125580 -68.227585 
26.475445 -129.060364 -72.003235 
65.058601 -122.747581 -65.081207 
38.431660 -104.498619 -58.416157 
58.568432 -164.106049 -30.785761 
51.331787 -117.398743 -79.208138 
54.478153 -136.906265 -43.184628 
57.309895 -185.909683 -37.078506 
21.755882 -97.649567 -67.283676 
63.602642 -173.089554 -46.612343 
68.951469 -152.774902 -44.000530 
33.397465 -141.940460 -64.727211 
44.724403 -181.899384 -41.097408 
17.665602 -150.435669 -35.842010 
23.329071 -115.053452 -78.925255 
34.656002 -147.918564 -34.754013 
40.319473 -151.379578 -33.493885 
31.195000 -123.691490 -75.712669 
13.889954 -122.112404 -49.978634 
59.643299 -176.235916 -27.324743 
62.412678 -180.640854 -28.897934 
18.294870 -104.813255 -74.280548 
50.073235 -152.008850 -34.472786 
43.151215 -122.747581 -48.754593 
8.098722 -119.915848 -63.508018 
44.095127 -184.731125 -22.802824 
43.151215 -131.131744 -72.317879 
18.609509 -139.108734 -40.434841 
49.642204 -190.079956 -27.010107 
55.107430 -112.049911 -77.603310 
29.936447 -139.108734 -66.121719 
56.899727 -142.884369 -65.395851 
16.092413 -122.118301 -49.080315 
48.500046 -149.976379 -35.190678 
31.824276 -112.364555 -81.438858 
57.624535 -126.247627 -73.261780 
20.039253 -98.520508 -67.912949 
36.543831 -143.513657 -64.066414 
37.487747 -155.303650 -56.271366 
32.768188 -163.650436 -51.156708 
37.487747 -179.382294 -41.687019 
68.922401 -146.345383 -51.866447 
58.568432 -158.515472 -56.586006 
30.251085 -181.584763 -23.065948 
56.995258 -160.625824 -55.327469 
54.163517 -119.601212 -77.576309 
12.631401 -109.532837 -57.780777 
20.088732 -100.093697 -71.373955 
60.860737 -116.454834 -73.261780 
49.758598 -167.001251 -27.639381 
29.936447 -158.045502 -54.383553 
58.568432 -135.647720 -45.364117 
42.836578 -180.640854 -41.379383 
15.777774 -101.652481 -65.710487 
21.755882 -182.214020 -34.961334 
10.704621 -123.376854 -67.598312 
36.229195 -119.286575 -79.690826 
36.392391 -130.613525 -72.003235 
50.702511 -172.145630 -25.885395 
64.490143 -154.840591 -38.022423 
28.363258 -162.706528 -51.324924 
68.251312 -141.625824 -51.237171 
21.441244 -112.049911 -78.364235 
60.565411 -110.476723 -71.373955 
67.197281 -133.445267 -57.844555 
50.073235 -118.028023 -52.232269 
57.624535 -171.830994 -27.626612 
27.104721 -125.579330 -45.684566 
19.553423 -116.454834 -77.041672 
13.077609 -110.791367 -71.688591 
66.749008 -166.796799 -48.282913 
58.253796 -135.647720 -68.557953 
58.883072 -178.065063 -44.315151 
9.947941 -144.142929 -46.517612 
37.173107 -97.576607 -64.265968 
42.521938 -100.408340 -62.355118 
60.997532 -182.843292 -38.966320 
36.229195 -136.562592 -40.539505 
22.385159 -166.388901 -48.405445 
47.556133 -147.289291 -60.621399 
29.307171 -181.899384 -23.287560 
60.456261 -135.018433 -67.373550 
10.743581 -115.510933 -54.991367 
40.948750 -97.172775 -75.464233 
41.892662 -179.067657 -42.271309 
53.534241 -140.681900 -40.924747 
10.716804 -128.411057 -64.451942 
61.974258 -122.747581 -55.012825 
14.204592 -126.837883 -69.614548 
14.867075 -173.089554 -32.988213 
17.980232 -172.937012 -41.798061 
60.141624 -149.491760 -38.538284 
70.180176 -170.257812 -42.112701 
52.590324 -178.753021 -24.663128 
57.309895 -116.454834 -76.251579 
44.724403 -126.172943 -46.832253 
67.378281 -178.030014 -37.393147 
60.606911 -109.218185 -70.430038 
53.534241 -188.418106 -27.324745 
19.868061 -102.798187 -60.361652 
42.836578 -126.890648 -46.202976 
61.714813 -118.474266 -57.529915 
12.316763 -141.792206 -43.056610 
24.902254 -145.648392 -61.620209 
47.556133 -137.220901 -68.981895 
61.714813 -147.918564 -60.731491 
38.117020 -154.840591 -56.629948 
54.792793 -157.986954 -56.813679 
59.512348 -177.179825 -27.150370 
32.804684 -113.308464 -51.551807 
63.048512 -136.591629 -64.451942 
36.229195 -190.265823 -32.044315 
57.309895 -123.376854 -51.700298 
35.599918 -132.501343 -42.537395 
38.431660 -96.271210 -74.834961 
42.836578 -134.703796 -70.136688 
26.475445 -103.869354 -78.784584 
64.861176 -145.401474 -59.104744 
46.926857 -191.413712 -30.156488 
50.073235 -163.965057 -52.602970 
62.658726 -171.516357 -29.720865 
40.948750 -180.193146 -41.483425 
52.904964 -114.881660 -78.880829 
63.917278 -150.121033 -58.109798 
16.092413 -142.255096 -61.191608 
25.216892 -145.716110 -36.001045 
62.259762 -183.157928 -30.471127 
9.485028 -131.872070 -49.581173 
27.419359 -104.113976 -79.239891 
23.014433 -138.767380 -65.710495 
29.621809 -174.662735 -43.912300 
7.911846 -118.735153 -61.934849 
20.497337 -130.928162 -70.212891 
24.587616 -155.469864 -55.464424 
11.418045 -153.267395 -40.854149 
30.251085 -142.397949 -64.137299 
11.372857 -107.712616 -60.990932 
25.216892 -140.681900 -64.746628 
39.060936 -98.091118 -77.037422 
63.198326 -113.937744 -68.542213 
56.995258 -150.121033 -61.591766 
55.107430 -114.567017 -55.872906 
34.970642 -174.977371 -44.224106 
31.824276 -188.682785 -25.751570 
13.898894 -170.257812 -34.246765 
8.317262 -117.084106 -64.137299 
51.961063 -99.558136 -67.912949 
37.802383 -168.320526 -25.751568 
64.546539 -174.348099 -30.274755 
59.826984 -172.390656 -28.268658 
60.456261 -140.681900 -64.865997 
66.550491 -162.077255 -50.607899 
19.238785 -148.335480 -59.103104 
11.405282 -146.660019 -52.181084 
56.365982 -108.588913 -75.643211 
34.341366 -115.825569 -80.915886 
61.954365 -119.286575 -57.215279 
43.780491 -139.331635 -39.910233 
34.656002 -121.913216 -48.720081 
8.864977 -133.130630 -55.956741 
23.643709 -143.874969 -37.078503 
66.256615 -134.703796 -52.181084 
38.431660 -169.628540 -47.905468 
26.311323 -101.037613 -60.676292 
14.947600 -106.386444 -59.103100 
21.755882 -103.869354 -58.871506 
17.665171 -176.235916 -28.897934 
62.658726 -179.382294 -41.824615 
25.216892 -108.588913 -55.039783 
46.612217 -105.256134 -79.869164 
40.634109 -173.089554 -24.250128 
59.826984 -152.008850 -37.078178 
28.363258 -141.940460 -37.576439 
24.587616 -171.537430 -25.436930 
27.733997 -115.196297 -51.680958 
55.736706 -139.047699 -42.427334 
69.940300 -164.594330 -46.517616 
53.219601 -145.086838 -64.652107 
45.982956 -172.145630 -47.042572 
51.646427 -135.792328 -43.056610 
11.058219 -116.769470 -54.004955 
29.936447 -147.428482 -60.990932 
51.331787 -169.820480 -49.034721 
40.004848 -128.411057 -73.663231 
17.665602 -176.075623 -38.337044 
28.992535 -160.492371 -28.897934 
14.833868 -109.532837 -73.275375 
33.397465 -132.501343 -42.409275 
19.238785 -119.198402 -49.663994 
64.231903 -179.390625 -40.539509 
28.363258 -174.348099 -24.065041 
29.936447 -164.594330 -27.095161 
56.995258 -105.291641 -64.137299 
45.039043 -118.657295 -79.994202 
49.666553 -146.030746 -62.878750 
59.686794 -186.304321 -32.673576 
44.095127 -100.722977 -78.183952 
23.643709 -170.096237 -46.202980 
55.736706 -128.096420 -48.383522 
12.859479 -139.108734 -60.047020 
43.151215 -162.581970 -52.810364 
30.880362 -108.274277 -81.226097 
30.565723 -174.662735 -23.727350 
59.512348 -111.238396 -60.676296 
60.868771 -176.865189 -44.629791 
38.746296 -123.691490 -48.001652 
70.281792 -158.616226 -43.685890 
41.578026 -98.549988 -77.037422 
8.979276 -132.186707 -50.607895 
23.643709 -109.218185 -79.175873 
38.117020 -133.829071 -42.112698 
48.500046 -108.903549 -57.301048 
45.039043 -95.996582 -70.115402 
32.453552 -153.267395 -57.617687 
49.758598 -162.524979 -53.439640 
30.565723 -162.706528 -51.572895 
21.441244 -182.528656 -28.806875 
42.521938 -190.794952 -32.673576 
67.341240 -137.850174 -58.159191 
19.868061 -137.220901 -40.921917 
32.138912 -173.089554 -45.137085 
50.387875 -98.578293 -68.227577 
16.721687 -151.694229 -35.828419 
13.815149 -105.127892 -68.227577 
50.702511 -164.315186 -28.897934 
52.275688 -169.685211 -27.010105 
56.365982 -165.538254 -52.229038 
60.770901 -180.640854 -41.565308 
25.718868 -96.632698 -71.688591 
7.730417 -120.545128 -60.990932 
33.082829 -115.196297 -80.856262 
14.204592 -103.888161 -67.598312 
40.634109 -160.619553 -29.212572 
43.465851 -114.567017 -81.333130 
19.553423 -180.011566 -35.460838 
54.163517 -118.971939 -52.934410 
49.443962 -154.840591 -32.981628 
52.904964 -107.644997 -77.890381 
16.915270 -175.921280 -29.841848 
36.229195 -97.261971 -64.531479 
39.060936 -100.833748 -61.305569 
9.799666 -139.171341 -54.068913 
58.883072 -135.962357 -68.046013 
31.811758 -123.691490 -46.832253 
41.892662 -154.707535 -32.044315 
50.387875 -102.258156 -63.193382 
21.126606 -113.308464 -78.213516 
52.590324 -149.604980 -36.134594 
27.104721 -158.137726 -54.068916 
42.521938 -136.591629 -68.885750 
14.204592 -138.062134 -62.249470 
44.095127 -162.706528 -28.630846 
10.114305 -113.623108 -68.060532 
31.509638 -120.859764 -77.607574 
41.263386 -129.984238 -72.850357 
49.758598 -104.813255 -78.397720 
41.892662 -156.413773 -31.250097 
65.616402 -166.482162 -32.988213 
37.048489 -156.413773 -55.642105 
25.846169 -164.502136 -49.978638 
22.699795 -160.818695 -29.719927 
45.343578 -99.149788 -76.408150 
62.453194 -116.140198 -70.744682 
64.102638 -170.572449 -30.785761 
12.631401 -156.413773 -37.591091 
10.405644 -145.086838 -50.607895 
23.958340 -162.077713 -28.897934 
56.051342 -117.398743 -54.622833 
16.721687 -122.432938 -73.654640 
48.185410 -161.447968 -53.986809 
21.441244 -164.594330 -49.404388 
49.758598 -98.205872 -71.556938 
44.724403 -164.411407 -27.954020 
14.833868 -106.386444 -71.605759 
16.407051 -137.535538 -41.976814 
41.263386 -133.130630 -42.780106 
13.260677 -132.186707 -65.204239 
64.494537 -138.164825 -62.249470 
58.636429 -130.298889 -70.744690 
52.023022 -115.196297 -79.239891 
34.970642 -117.398743 -48.976456 
22.385159 -121.803680 -76.625336 
64.962326 -149.806396 -57.215282 
58.883072 -160.504059 -55.391602 
36.543831 -138.479462 -67.193367 
26.433781 -108.903549 -80.183792 
45.982956 -156.954025 -56.586006 
52.904964 -112.679192 -56.223515 
19.868061 -108.274277 -55.883293 
27.733997 -175.292023 -43.784878 
23.958340 -151.590820 -57.844559 
34.341366 -187.074799 -35.819954 
38.117020 -110.791367 -53.212734 
17.350964 -164.279694 -47.570087 
41.892662 -137.535538 -68.255356 
68.007561 -142.511810 -49.663994 
52.846207 -166.796799 -28.268658 
69.984283 -168.684631 -36.763870 
9.799666 -109.847466 -63.107029 
26.790083 -144.142929 -36.580643 
19.483366 -100.093697 -70.744682 
38.431660 -113.716820 -50.293255 
41.578026 -190.079956 -25.050337 
25.531530 -127.467155 -44.794281 
48.957050 -157.357697 -31.729675 
21.441244 -124.635406 -74.997932 
28.363258 -180.640854 -40.781578 
49.758598 -149.760574 -61.305576 
12.401618 -125.264687 -49.349358 
49.129322 -99.464424 -65.748718 
62.344090 -136.186096 -47.146889 
36.858471 -175.606659 -43.972664 
18.924147 -134.074524 -42.646038 
20.182699 -144.142929 -61.945934 
37.802383 -175.292023 -23.456163 
51.017151 -108.588913 -79.222633 
9.296007 -112.993828 -58.159191 
61.400177 -145.744644 -61.934849 
46.612217 -178.072891 -43.371254 
33.082829 -101.666893 -60.001286 
42.207302 -186.090897 -38.337044 
42.207302 -106.701080 -81.341118 
39.060936 -182.214020 -22.360916 
58.883072 -148.233200 -62.037411 
63.602642 -124.386795 -68.227577 
15.528634 -135.018433 -46.202976 
18.924147 -105.127892 -58.538048 
13.159945 -163.650436 -42.427338 
11.362932 -151.064941 -48.405445 
34.656002 -114.881660 -81.080925 
41.263386 -123.691490 -76.660187 
25.531530 -140.052628 -65.140717 
45.982956 -191.002808 -27.010107 
58.568432 -108.368401 -72.632507 
37.487747 -173.089554 -45.635365 
14.833868 -103.215462 -67.912949 
44.095127 -144.142929 -63.949341 
50.878525 -122.432938 -49.978634 
16.721687 -138.164825 -41.543755 
28.992535 -126.523239 -45.226250 
