-0.250000 -0.339087 0.035314
-0.250000 0.811084 -0.418310
-0.064620 0.224172 -0.859891
0.250000 0.072296 -0.040151
-0.250000 -0.509452 0.027694
0.221880 -0.859891 0.335765
0.250000 0.052008 -0.606736
-0.250000 -0.475095 -0.493839
0.250000 0.392011 0.181118
-0.250000 0.776472 -0.776304
-0.145398 0.859891 0.856781
-0.031490 -0.708074 -0.859891
-0.163168 -0.355288 0.859891
-0.250000 0.503935 0.551483
-0.250000 -0.341100 -0.384705
0.250000 -0.400755 -0.145334
-0.250000 0.046097 0.401624
0.250000 -0.257766 -0.543163
0.067730 0.347507 -0.859891
0.250000 -0.457955 -0.070090
-0.250000 0.187129 -0.384021
-0.012479 -0.859891 0.397008
-0.250000 -0.611763 -0.689309
0.250000 -0.670663 0.679264
0.250000 -0.332720 -0.304731
-0.250000 0.478248 -0.121011
0.250000 0.545678 0.842473
-0.250000 -0.644301 -0.221154
0.250000 0.341021 -0.378098
0.181400 -0.290397 -0.859891
0.250000 0.452948 -0.785639
0.103813 -0.319218 -0.859891
-0.250000 -0.442566 -0.299780
-0.250000 -0.304814 -0.795501
-0.009028 0.569962 0.859891
-0.250000 -0.154632 0.303797
0.250000 -0.362018 -0.475251
-0.250000 -0.320833 0.253736
-0.250000 -0.810331 -0.086820
0.250000 -0.020655 -0.597437
-0.195031 0.562703 -0.859891
0.012767 0.859891 -0.589353
0.250000 -0.111903 0.133863
0.250000 -0.313623 -0.247827
-0.053951 0.859891 -0.604304
0.077412 0.668048 0.859891
0.191641 -0.137982 0.859891
0.042733 -0.502071 0.859891
0.250000 0.096011 0.295781
-0.250000 0.139181 -0.008563
-0.091510 -0.859891 0.397328
-0.243059 0.859891 0.545487
0.250000 0.156203 -0.709083
-0.250000 -0.108919 -0.463398
-0.015285 0.859891 0.111232
0.250000 0.129409 0.108000
0.250000 -0.268731 0.053122
-0.250000 0.394305 0.482164
-0.250000 -0.232383 0.463147
0.107994 0.072104 -0.859891
0.216448 0.624067 -0.859891
0.071656 -0.859891 -0.788541
0.250000 0.181796 0.238880
0.166917 0.010433 0.859891
-0.250000 -0.395815 -0.698000
-0.250000 -0.234263 0.826286
0.250000 0.100826 -0.641335
0.247317 -0.859891 -0.211305
-0.250000 0.564607 -0.148313
0.250000 0.590605 0.054689
0.250000 -0.284406 -0.343488
0.250000 -0.338109 0.759231
0.036224 -0.859891 -0.350095
-0.250000 0.295428 -0.243653
0.250000 -0.600635 -0.208700
-0.098446 -0.380042 0.859891
0.212230 -0.859891 0.857965
-0.250000 0.570514 -0.344741
-0.250000 -0.597646 -0.405795
-0.090212 -0.859891 -0.751794
-0.123557 -0.241847 -0.859891
-0.047801 -0.859891 -0.009503
0.250000 0.172815 0.843828
0.250000 0.283898 -0.360445
0.250000 0.342098 0.504609
-0.250000 0.002931 0.081265
-0.250000 -0.044783 0.349938
0.200233 0.859891 -0.026820
0.250000 0.760408 -0.389730
0.084903 0.628791 0.859891
-0.250000 -0.286490 -0.586134
-0.250000 0.539983 -0.734080
-0.250000 -0.605441 0.248159
0.103181 -0.485133 -0.859891
-0.250000 -0.568989 -0.070544
-0.147576 0.257883 -0.859891
0.081184 -0.859891 0.174728
0.250000 0.730419 -0.658181
-0.250000 0.083758 -0.458235
0.249498 -0.859891 -0.806831
0.250000 -0.093834 -0.184877
-0.045438 0.859891 -0.112904
-0.250000 -0.037897 0.213219
-0.250000 0.415052 -0.831342
-0.250000 -0.501127 0.581901
-0.250000 0.036665 -0.742066
-0.250000 -0.796581 0.316171
-0.250000 0.519403 0.442984
0.250000 -0.676333 0.775237
0.250000 -0.406691 -0.028233
0.198223 0.859891 0.364070
-0.250000 -0.505258 0.545806
0.207563 0.859891 0.383638
0.004268 -0.859891 -0.614233
0.250000 -0.607375 0.330196
-0.144664 0.798133 0.859891
0.245762 0.859891 0.027167
-0.144077 0.678148 0.859891
0.250000 0.720944 -0.077861
-0.250000 -0.606171 -0.042212
-0.232666 0.523336 0.859891
0.028579 -0.859891 -0.575634
0.250000 0.071222 0.793865
0.211133 0.859891 0.531625
0.250000 0.200064 -0.028058
0.104460 -0.859891 0.003185
0.250000 0.207651 0.784730
-0.250000 0.069824 -0.259470
-0.020099 -0.859891 -0.108357
-0.099909 0.859891 0.771264
0.250000 0.857795 0.655240
-0.250000 -0.629081 -0.721782
0.250000 -0.298971 0.785201
-0.250000 -0.490350 -0.769994
-0.250000 -0.127867 0.017993
0.250000 0.785120 -0.602421
0.250000 -0.667446 -0.062241
0.250000 0.605924 -0.246189
-0.250000 -0.705101 -0.466994
0.250000 -0.717938 -0.802636
0.250000 0.055562 -0.223561
-0.201577 -0.494174 0.859891
0.250000 -0.040311 0.345296
-0.250000 0.545261 -0.005606
0.250000 0.492549 -0.306383
0.250000 -0.764272 -0.191266
-0.250000 -0.480610 -0.149753
-0.250000 -0.696761 -0.448824
0.250000 -0.656884 0.129337
-0.250000 -0.268650 0.527961
-0.250000 0.632710 -0.715970
-0.094725 -0.052408 -0.859891
0.250000 -0.349288 -0.026614
-0.103789 -0.368204 -0.859891
0.250000 -0.744202 -0.218633
-0.201625 -0.736126 0.859891
-0.250000 0.451071 0.569498
0.250000 0.268347 -0.213710
0.106552 0.030134 0.859891
-0.078777 -0.291029 -0.859891
0.082712 -0.859891 0.237678
0.122674 0.553213 -0.859891
0.250000 -0.327976 0.562813
0.198492 -0.057617 0.859891
-0.250000 0.572107 0.783920
0.229069 -0.598664 0.859891
0.250000 0.351124 0.521478
-0.250000 0.828162 -0.739137
-0.250000 0.762788 0.433727
0.250000 0.197315 0.754777
0.250000 -0.148341 0.731065
-0.250000 0.307014 0.818758
-0.250000 0.836632 0.621189
-0.250000 -0.069671 -0.425160
-0.250000 0.755846 -0.201924
0.250000 -0.066943 -0.176846
-0.250000 0.254589 0.112120
0.000331 0.859891 -0.560585
0.250000 0.294991 -0.082222
0.250000 -0.244109 0.841000
0.137210 -0.341951 0.859891
0.250000 0.122099 -0.337788
-0.250000 0.582228 0.522389
0.250000 -0.488041 0.674987
0.250000 0.208910 -0.164893
-0.098035 -0.859891 0.300668
-0.153525 -0.439324 0.859891
-0.250000 -0.504623 0.480877
0.223532 -0.859891 -0.245424
0.250000 -0.489012 -0.735231
-0.250000 0.482677 -0.711984
0.142853 0.022770 -0.859891
-0.250000 -0.728680 -0.175070
0.250000 0.775299 0.825065
-0.250000 0.344403 0.024927
-0.250000 0.325767 -0.219243
0.111815 -0.305825 0.859891
0.230016 -0.384093 0.859891
-0.250000 -0.114238 -0.421662
0.140129 0.859891 -0.605026
-0.250000 0.846254 -0.208470
0.035432 -0.859891 0.157251
-0.250000 0.790880 -0.559554
-0.156629 0.859891 -0.237931
0.250000 -0.407534 0.076454
-0.250000 -0.208161 -0.082330
-0.250000 0.239803 0.285420
0.250000 -0.028131 0.424515
0.250000 -0.729342 0.333284
0.148991 0.859891 0.493398
-0.250000 0.648756 0.408280
-0.014913 0.859891 0.318041
-0.125769 -0.859891 0.157547
0.163857 -0.316473 0.859891
-0.031201 0.436596 -0.859891
-0.250000 -0.744702 0.626627
0.098276 0.859891 0.459313
-0.250000 0.067030 0.490084
0.218400 -0.859891 0.646610
-0.250000 0.334232 -0.360867
-0.250000 0.077131 -0.283384
0.250000 0.756744 0.734136
-0.250000 0.746833 0.853243
0.250000 0.702844 0.592456
-0.170204 -0.859891 0.372257
0.250000 -0.423359 -0.333803
-0.055543 0.859891 -0.166486
0.208451 0.058105 -0.859891
-0.072519 0.039983 0.859891
0.220379 0.723875 0.859891
-0.214810 -0.184066 -0.859891
-0.250000 -0.354871 0.299093
-0.174479 -0.214195 -0.859891
-0.250000 -0.521733 -0.162942
0.250000 -0.823752 -0.748239
-0.031126 0.859891 0.067358
-0.052703 -0.859891 -0.296387
-0.135491 -0.148527 -0.859891
-0.250000 0.700961 0.022848
-0.162355 0.289601 -0.859891
0.036298 -0.859891 -0.632675
-0.250000 -0.819592 0.342998
-0.250000 0.654229 0.473801
0.250000 0.137037 0.128345
-0.250000 0.643795 0.755508
0.211212 0.427017 -0.859891
0.054816 -0.575787 0.859891
0.201175 -0.732574 0.859891
-0.250000 0.167527 -0.285827
0.250000 -0.138306 0.516159
-0.208633 0.859891 0.542713
0.250000 0.049840 -0.313031
-0.188611 0.636945 0.859891
0.250000 0.351193 0.254901
-0.250000 0.574319 -0.227706
-0.022023 0.323278 -0.859891
-0.009078 -0.807691 0.859891
0.088872 0.859891 0.115167
0.250000 -0.060313 0.265133
-0.250000 -0.081538 -0.274123
-0.110291 -0.485599 0.859891
0.249890 0.763091 -0.859891
-0.016389 0.310324 0.859891
0.163858 0.859891 -0.142092
-0.250000 -0.148024 0.638874
0.250000 0.746616 -0.576681
0.250000 -0.810165 -0.401138
-0.245834 0.388408 0.859891
-0.250000 -0.447402 0.568209
0.250000 0.704643 0.686414
-0.210613 0.323406 -0.859891
0.250000 -0.601954 -0.441074
-0.250000 -0.023809 -0.240819
-0.217496 -0.859891 -0.684619
0.250000 -0.202694 0.448035
-0.250000 -0.355284 0.067141
-0.250000 -0.434587 0.190333
0.070678 0.625343 -0.859891
-0.250000 0.092473 0.577105
-0.250000 0.479577 0.393232
-0.250000 -0.812719 0.257230
0.250000 -0.372695 0.701381
0.175819 0.494433 0.859891
0.129444 0.859891 0.343088
0.250000 -0.060803 -0.161824
-0.250000 0.194968 -0.430649
-0.250000 0.442159 0.841676
-0.250000 0.645697 -0.606723
0.250000 -0.318288 0.790066
-0.250000 -0.480176 -0.663001
0.250000 -0.183073 -0.625897
-0.250000 -0.191036 0.773803
0.250000 0.288871 0.557970
-0.250000 -0.363802 0.349724
0.250000 -0.372437 0.158287
-0.250000 -0.808651 -0.114941
-0.250000 -0.248591 -0.277885
-0.216358 0.528599 -0.859891
-0.250000 -0.741148 0.600803
0.250000 -0.727579 -0.181561
-0.089724 0.859891 0.045810
-0.181328 0.859891 0.685013
-0.250000 -0.236012 0.516089
0.250000 -0.035812 0.747230
0.232773 -0.859891 0.457637
0.250000 -0.062157 -0.083158
0.111469 -0.859891 0.463519
-0.250000 0.820298 0.356268
-0.250000 0.671176 -0.155131
0.250000 -0.019090 -0.062994
0.250000 0.639781 0.270606
0.250000 0.688444 0.091873
0.250000 0.031961 -0.395226
-0.250000 0.546986 -0.104041
0.250000 0.145274 0.482709
0.250000 -0.263014 0.107209
0.250000 -0.440812 -0.243998
0.042700 -0.792474 0.859891
0.250000 -0.740686 -0.127115
0.250000 0.537414 -0.092986
-0.250000 -0.009888 0.336326
0.167201 0.691840 -0.859891
-0.044816 0.859891 -0.631020
0.190792 0.097015 0.859891
0.250000 -0.233519 0.262003
0.133123 -0.859891 -0.441489
-0.207705 -0.859891 0.483308
0.250000 -0.629149 0.461893
-0.164004 0.211577 -0.859891
0.250000 -0.686627 0.803712
-0.250000 0.481164 0.750117
-0.188410 -0.156228 0.859891
-0.250000 0.367789 0.370893
0.224768 0.859891 0.211551
0.085721 0.150467 0.859891
-0.250000 -0.513374 0.199484
-0.048169 -0.859891 0.054841
-0.250000 -0.485530 0.013638
0.118470 -0.430493 0.859891
0.006142 0.643908 0.859891
0.121588 -0.851169 0.859891
0.250000 0.360683 -0.185084
-0.250000 -0.523104 0.503174
-0.027744 0.859891 0.745981
0.179361 0.735604 0.859891
0.179960 0.859891 -0.097624
0.250000 0.628645 0.673717
0.250000 -0.843569 -0.337764
-0.250000 0.003076 -0.251974
-0.082728 -0.457536 -0.859891
-0.111160 0.394525 -0.859891
-0.145472 0.859891 -0.118320
0.074125 0.055532 0.859891
0.250000 0.066647 0.314536
-0.119871 -0.859891 0.313104
-0.250000 -0.427655 -0.196383
-0.250000 -0.102910 0.561823
0.250000 -0.830072 -0.189935
0.089820 -0.618951 0.859891
-0.250000 0.276606 0.293163
-0.250000 0.090797 -0.715354
-0.125426 -0.596336 -0.859891
0.250000 0.475371 -0.693895
0.072745 -0.580435 0.859891
0.187237 0.859891 -0.637234
-0.250000 0.040173 0.446184
-0.182930 0.859891 0.104984
-0.043351 -0.859891 -0.517823
0.011025 -0.569081 0.859891
-0.250000 0.303125 0.343120
-0.250000 0.241122 0.627132
0.093585 0.859891 -0.103012
0.100138 0.859891 -0.600568
0.250000 -0.018274 0.529319
0.250000 0.553726 0.186252
-0.250000 -0.415142 0.471044
-0.250000 0.668535 -0.748748
0.250000 0.137635 -0.017900
-0.250000 -0.853342 0.423267
-0.250000 -0.436898 0.812032
-0.059019 0.859891 -0.436826
0.250000 0.763391 0.203787
-0.183893 0.629529 -0.859891
-0.250000 0.203677 -0.587866
0.250000 -0.309367 -0.197258
0.250000 -0.504087 0.093999
0.250000 -0.418407 -0.838874
0.212771 0.859891 -0.715352
0.250000 -0.441269 -0.125874
-0.250000 0.140543 -0.417226
-0.250000 -0.339854 0.394717
-0.209666 -0.073651 -0.859891
0.250000 0.050819 -0.818411
-0.250000 -0.067395 -0.224470
-0.250000 0.769222 -0.320823
-0.002258 0.859891 0.206726
0.250000 0.668821 -0.446764
-0.250000 0.211752 0.581036
-0.153910 0.859891 0.718408
-0.250000 0.844817 0.070593
-0.250000 0.318472 -0.659452
0.250000 -0.442986 0.418416
0.189776 0.859891 -0.840369
-0.250000 -0.516866 0.565462
0.169166 -0.339918 -0.859891
0.250000 0.660832 -0.483036
0.250000 -0.314856 0.718794
0.250000 -0.706253 0.463383
-0.196995 -0.476771 0.859891
0.250000 -0.526404 -0.127190
0.250000 0.083723 -0.528003
0.250000 0.103235 -0.282248
-0.000466 0.374922 -0.859891
-0.109466 0.859891 0.021342
-0.250000 0.203409 0.736031
-0.181925 -0.619817 -0.859891
-0.250000 -0.592776 0.013766
0.250000 -0.584576 0.759407
0.250000 0.269076 -0.375207
-0.250000 0.228426 -0.591207
0.250000 0.759262 0.308738
0.250000 -0.066693 0.566061
-0.250000 -0.846631 0.244477
-0.250000 0.463250 -0.705144
-0.053211 -0.040576 0.859891
-0.250000 -0.557302 -0.273523
-0.250000 -0.841967 -0.374816
0.016221 0.224405 0.859891
0.207300 0.859891 0.631756
0.250000 0.487744 0.856509
0.250000 0.491770 0.571597
-0.250000 -0.491376 0.681899
-0.242832 0.382697 -0.859891
-0.119815 0.718329 -0.859891
0.227679 0.859891 -0.542651
0.250000 0.757784 0.288364
-0.250000 0.476596 0.641651
0.250000 0.650777 -0.273941
0.250000 -0.745808 -0.016495
-0.135031 -0.619196 -0.859891
0.250000 0.041563 0.804266
-0.250000 0.371269 -0.843261
-0.250000 0.735002 -0.784076
0.250000 -0.632358 -0.156524
-0.066668 0.859891 0.723098
0.120573 -0.446744 -0.859891
-0.091612 0.576602 -0.859891
0.250000 0.414927 0.736340
0.038822 -0.400808 -0.859891
-0.203590 -0.859891 -0.612755
0.036072 -0.859891 0.748994
0.250000 -0.000394 -0.737369
-0.250000 -0.748255 0.168365
0.141980 0.859891 0.291076
-0.250000 0.627160 0.756614
-0.250000 0.526147 0.325719
0.090946 0.859891 0.442328
0.181651 0.859891 -0.138707
-0.207104 -0.050016 -0.859891
0.250000 0.602323 -0.666115
-0.184226 -0.859891 0.617712
-0.250000 0.772895 -0.198167
0.250000 -0.551970 0.305438
-0.231195 -0.859891 -0.798564
-0.250000 -0.396706 -0.740898
0.038947 0.859891 0.646092
0.250000 0.734297 0.355504
-0.250000 0.761658 -0.632719
-0.221571 0.859891 0.222787
-0.250000 0.428808 -0.674932
-0.250000 0.176745 0.600818
-0.217308 0.859891 0.122044
0.250000 0.729782 -0.438885
-0.250000 -0.802288 0.112870
-0.063952 0.859891 -0.101659
0.250000 -0.459015 -0.838332
0.250000 0.537895 0.399361
0.109693 0.483750 -0.859891
-0.250000 -0.570350 -0.366261
-0.071720 -0.859891 0.857946
-0.250000 -0.320613 -0.537134
-0.250000 0.831968 0.515362
-0.250000 -0.107637 0.500336
0.025108 -0.859891 -0.203446
-0.250000 0.626879 -0.484549
0.250000 0.512360 0.182371
0.073774 -0.859891 0.198939
-0.152486 -0.859891 0.810459
0.207143 -0.859891 -0.426212
-0.075671 -0.859891 0.163643
0.250000 0.372256 -0.679354
0.238184 -0.859891 0.276894
-0.250000 -0.527851 -0.695691
0.250000 -0.372873 0.493614
-0.250000 -0.755809 -0.319043
-0.159289 0.690230 0.859891
-0.154959 0.118650 0.859891
0.250000 -0.250084 -0.562922
-0.250000 -0.466247 0.328351
0.101470 0.558656 -0.859891
-0.181592 0.859891 -0.374896
0.250000 -0.817467 -0.155245
-0.250000 -0.015089 0.249402
-0.250000 0.495641 -0.309285
0.175011 0.859891 0.380802
-0.250000 0.552426 -0.078572
0.250000 0.123726 0.383677
-0.250000 -0.328620 0.111521
0.140928 0.082784 -0.859891
0.008178 0.859891 0.308651
0.131796 0.694214 -0.859891
0.250000 0.489191 -0.032761
-0.250000 -0.552669 -0.594240
-0.223563 0.165943 -0.859891
0.250000 0.106681 -0.834795
-0.250000 0.772741 0.447437
-0.250000 -0.839081 0.173543
0.250000 0.528783 -0.134119
-0.125417 -0.859891 0.790049
0.221823 0.859891 0.852638
-0.168653 0.859891 0.005702
-0.250000 0.685129 0.119931
-0.174387 0.693041 -0.859891
-0.232542 -0.859891 -0.836470
0.147860 -0.002141 -0.859891
-0.094064 -0.250171 0.859891
0.132933 -0.859891 -0.844036
0.158642 -0.859891 -0.756146
-0.250000 -0.273778 -0.434290
-0.250000 -0.800074 -0.437000
-0.250000 0.414966 0.323517
-0.036256 -0.504483 -0.859891
0.017965 -0.837474 -0.859891
0.250000 0.709225 -0.134565
0.250000 0.683180 -0.800590
-0.250000 -0.052414 -0.720493
0.250000 -0.173926 0.822969
0.250000 0.335785 0.323849
0.151805 -0.680730 -0.859891
0.250000 -0.494458 0.318232
0.044959 -0.859891 -0.805094
0.250000 -0.359216 -0.264515
0.039052 0.137305 0.859891
-0.250000 -0.733580 0.107330
-0.250000 0.642098 -0.477893
0.092746 -0.859891 0.083093
-0.250000 -0.305502 0.262297
-0.250000 0.040857 0.630887
0.027678 0.528534 0.859891
0.250000 0.363184 0.507773
0.250000 -0.283777 0.182966
0.016451 -0.859891 0.566176
0.250000 -0.351057 0.298274
0.250000 -0.746828 0.747519
-0.250000 -0.292051 -0.284966
-0.250000 -0.287881 -0.199691
0.250000 -0.387650 -0.287375
-0.250000 0.234640 0.675482
0.146179 -0.859891 0.357997
0.250000 -0.163318 0.018614
0.250000 0.650382 -0.498847
0.250000 -0.603480 -0.258373
-0.250000 0.246890 -0.543909
-0.250000 0.107429 0.049178
-0.075536 -0.859891 -0.334802
-0.171591 0.859891 -0.567771
0.250000 -0.311017 0.405090
-0.098526 0.859891 -0.630251
-0.250000 -0.119090 0.134150
-0.250000 -0.733307 -0.772065
0.250000 -0.509022 -0.167654
0.250000 -0.115912 0.704856
-0.250000 0.843998 -0.695081
0.250000 0.709406 0.191361
-0.250000 0.321903 -0.077142
0.190114 -0.859891 -0.780840
-0.250000 -0.411364 0.429341
0.250000 0.230316 0.138598
0.209193 0.589261 0.859891
-0.250000 0.778537 0.163326
0.094472 -0.392436 0.859891
-0.250000 0.333243 -0.597111
-0.250000 -0.705735 0.014126
-0.250000 -0.770585 -0.551798
-0.250000 0.340713 0.149338
0.250000 0.379768 -0.266724
0.250000 0.027042 0.653872
0.250000 0.033486 0.495956
-0.250000 0.436802 0.717327
-0.037355 -0.599652 0.859891
0.109558 0.224687 -0.859891
0.250000 -0.658090 0.766275
-0.011474 -0.132730 -0.859891
-0.250000 0.087906 0.829240
-0.250000 -0.490639 -0.477817
-0.250000 0.130584 0.346387
-0.250000 -0.479378 0.393223
0.139144 -0.859891 0.695160
0.250000 -0.467066 -0.166069
-0.096884 0.859891 0.288129
0.090645 -0.859891 0.831145
-0.113114 -0.451320 0.859891
0.026574 -0.853258 -0.859891
-0.195814 -0.859891 -0.440085
0.058812 0.289449 0.859891
0.250000 0.492907 -0.385582
-0.250000 -0.812193 0.761117
0.250000 -0.144766 0.840036
-0.250000 -0.310890 -0.176752
0.250000 0.615097 -0.492271
-0.215407 -0.203685 0.859891
0.250000 -0.253974 -0.521306
-0.250000 -0.533635 0.697737
0.009784 -0.859891 0.504830
0.250000 0.005353 -0.049770
-0.250000 0.582837 0.715555
0.250000 0.124496 0.698803
-0.250000 -0.084600 0.072776
0.250000 -0.600733 0.076167
-0.119979 0.818729 -0.859891
-0.250000 -0.785611 0.550232
-0.250000 -0.289622 -0.565580
0.085946 0.261825 -0.859891
-0.250000 -0.519434 0.146020
0.050000 0.859891 -0.423801
0.250000 0.024947 0.078800
-0.250000 0.178522 0.338493
0.250000 -0.506656 0.172494
0.165177 0.069661 -0.859891
0.250000 0.400720 -0.508730
0.250000 -0.145458 0.277349
-0.250000 0.693901 -0.436659
0.250000 -0.572882 -0.076051
-0.250000 0.167938 0.657670
0.250000 -0.494223 -0.482231
0.250000 -0.109798 -0.769217
0.250000 -0.804091 -0.568591
0.250000 0.382372 -0.096770
-0.001226 0.055760 -0.859891
-0.084806 0.756390 0.859891
0.141370 0.859891 0.600772
0.250000 0.033586 -0.648467
-0.025483 -0.859891 -0.312485
-0.017399 0.859891 -0.839086
0.250000 0.814374 -0.078438
0.208628 0.859891 0.083189
0.190870 0.612703 -0.859891
0.213786 0.643804 -0.859891
-0.078101 0.859891 0.580740
-0.250000 0.823219 0.093524
-0.051777 0.859891 -0.586006
-0.250000 -0.487346 -0.337670
0.250000 0.781930 -0.343498
0.250000 -0.773405 -0.690447
-0.250000 -0.562362 -0.668341
-0.250000 -0.775374 0.609456
-0.250000 0.560874 0.413620
-0.250000 0.793347 -0.026936
0.250000 0.159364 0.378627
-0.250000 0.088925 0.391941
0.180694 0.859891 -0.492395
0.072442 0.288056 -0.859891
0.250000 0.623655 0.799777
0.250000 0.174573 -0.484735
-0.250000 0.680536 0.744368
-0.250000 0.328924 0.505845
-0.250000 -0.801530 0.784235
-0.250000 -0.366086 0.246786
-0.064305 0.378399 -0.859891
-0.250000 0.499741 -0.445291
0.196738 -0.859891 -0.374406
0.230561 0.859891 0.515739
-0.027018 -0.332399 0.859891
-0.073545 -0.859891 -0.301999
0.130473 0.421371 -0.859891
0.250000 -0.532273 -0.761487
0.018047 -0.859891 0.144616
-0.250000 -0.775547 0.754190
0.250000 0.425396 0.679113
0.249064 0.859891 0.829864
-0.250000 0.137273 -0.618807
0.250000 -0.338656 0.822752
-0.202900 -0.136771 0.859891
-0.065180 0.859891 -0.032462
0.250000 0.388502 -0.288578
-0.184994 -0.693979 -0.859891
-0.097295 -0.859891 0.014445
-0.250000 0.017799 -0.572610
0.250000 0.700047 0.004552
0.250000 0.641564 0.381597
0.250000 0.808746 0.251718
0.250000 -0.075114 -0.284801
-0.005617 -0.859891 0.660808
0.250000 0.639374 0.088451
-0.250000 -0.129197 -0.581616
0.250000 0.222403 0.170920
0.250000 -0.813445 0.506920
0.250000 -0.173934 0.089928
-0.025555 -0.106372 -0.859891
-0.250000 0.756781 -0.068313
-0.230752 0.137831 -0.859891
-0.250000 0.461291 0.255550
0.162791 -0.509988 -0.859891
0.124023 0.859891 0.032806
-0.237118 0.859891 0.085178
-0.240287 -0.859891 -0.461998
-0.250000 0.176597 0.515934
0.203336 -0.859891 -0.244766
-0.250000 0.387485 -0.095585
-0.250000 0.269108 0.377431
0.250000 0.367775 -0.809661
0.250000 0.057503 -0.278206
0.225471 -0.859891 0.597739
-0.250000 0.104428 0.791280
-0.250000 -0.795659 0.457913
-0.250000 0.649915 0.735593
-0.250000 0.602706 -0.149067
-0.250000 -0.424733 -0.467688
-0.250000 -0.708903 -0.846733
0.147256 -0.554623 -0.859891
0.152908 -0.847044 -0.859891
0.006829 -0.197636 -0.859891
0.250000 0.646512 -0.293018
-0.250000 0.855423 0.837299
0.250000 0.372734 -0.834287
0.250000 0.677263 0.363642
-0.250000 0.604949 -0.021612
-0.167069 0.859891 -0.849177
-0.250000 0.151394 0.289236
-0.250000 0.286833 0.109509
0.250000 -0.755633 0.360141
-0.161150 0.168632 -0.859891
-0.250000 -0.478412 -0.823675
-0.250000 -0.519919 -0.451110
0.250000 0.532463 -0.617218
-0.250000 0.124202 0.448770
-0.250000 0.610283 -0.090864
-0.133061 0.507164 0.859891
-0.049099 -0.547856 -0.859891
0.142302 -0.859891 -0.508542
-0.250000 -0.582399 -0.417709
0.193915 0.859891 0.548887
-0.250000 0.044097 0.275206
0.250000 -0.130827 0.569470
-0.250000 -0.121124 -0.502111
-0.250000 0.372370 -0.760157
-0.250000 0.252527 -0.399555
0.247704 0.859891 -0.620854
-0.250000 0.242390 0.026551
0.158197 0.859891 -0.581042
0.250000 -0.681031 -0.382922
-0.250000 -0.456079 0.290013
0.220904 0.019659 0.859891
-0.122713 0.045161 -0.859891
-0.250000 -0.062839 0.166285
-0.250000 -0.546083 0.195208
0.250000 -0.386913 0.666436
0.148490 -0.267420 -0.859891
-0.080498 0.691308 -0.859891
-0.250000 0.409751 -0.281103
0.201493 -0.665128 0.859891
-0.250000 0.447707 -0.108795
0.250000 0.137674 -0.485532
-0.250000 -0.152476 0.852178
0.250000 -0.338065 -0.641440
0.250000 -0.660134 -0.383259
-0.250000 -0.018467 0.824251
-0.209643 0.859891 -0.825345
-0.250000 -0.157702 0.133883
-0.250000 0.818426 0.846659
-0.006586 0.737000 -0.859891
0.250000 0.185309 -0.571560
-0.250000 0.416533 -0.619675
0.250000 0.617475 0.829176
0.250000 0.618148 0.451907
0.250000 -0.645667 0.418513
-0.250000 -0.304273 -0.717933
0.106951 -0.859891 0.386413
-0.250000 -0.172984 0.544411
-0.250000 0.633110 -0.194475
-0.250000 0.481624 -0.024114
-0.250000 0.154437 -0.430469
0.250000 0.103416 0.325308
-0.156956 -0.542014 0.859891
0.123293 -0.295943 -0.859891
0.177148 0.598786 -0.859891
0.250000 -0.303052 -0.422243
-0.199907 -0.010543 0.859891
0.094541 -0.672748 -0.859891
0.250000 -0.698606 0.119302
-0.250000 -0.405538 -0.263655
-0.250000 -0.254524 0.757032
-0.090423 0.859891 0.458510
-0.250000 0.086436 0.110375
-0.059325 0.061492 0.859891
0.250000 0.244251 -0.722734
-0.016999 -0.804439 -0.859891
0.250000 0.282881 -0.297600
0.250000 0.194646 0.699788
-0.250000 -0.372557 0.134659
0.250000 -0.427446 0.469521
0.250000 0.390630 0.262721
0.100282 0.356206 0.859891
0.250000 0.052154 0.790012
-0.250000 0.258844 0.685723
0.198238 0.595791 -0.859891
0.249884 0.744467 0.859891
-0.250000 0.338250 0.127139
0.250000 -0.111113 0.457043
-0.250000 -0.237310 -0.189779
-0.215945 -0.859891 -0.658189
0.250000 0.632477 -0.159266
0.250000 0.432876 -0.139278
0.193266 0.675989 0.859891
-0.250000 0.465393 -0.613601
0.250000 0.829571 0.054099
-0.250000 -0.505337 0.367136
-0.250000 0.155491 0.221182
-0.183043 -0.599155 -0.859891
0.066462 0.859891 0.156879
-0.250000 0.751507 -0.256635
0.081791 0.859891 0.260434
0.066085 -0.223667 0.859891
0.250000 -0.624639 -0.519808
-0.250000 -0.699162 -0.139622
0.250000 0.093960 0.681312
-0.250000 0.072809 -0.501852
-0.011252 -0.402212 -0.859891
0.182177 0.859891 0.032665
-0.250000 -0.465214 -0.715563
0.222531 -0.452886 -0.859891
-0.250000 0.705400 0.435042
-0.209516 0.547566 -0.859891
0.013558 0.402359 0.859891
0.250000 0.847721 -0.277149
-0.123698 0.770574 0.859891
0.053443 -0.859891 0.190410
-0.250000 -0.511677 -0.767838
-0.250000 0.725634 -0.346237
-0.250000 0.710613 0.050080
0.250000 -0.217989 -0.671069
0.250000 -0.780398 -0.211024
-0.250000 -0.148353 0.453048
-0.250000 0.626917 -0.017175
0.250000 0.296127 -0.808629
0.250000 -0.775212 0.407644
-0.187557 0.859891 -0.013415
-0.117179 0.381308 0.859891
0.156431 0.282090 0.859891
-0.250000 -0.022408 0.845237
0.250000 -0.404722 -0.471813
0.250000 0.559490 -0.491757
-0.250000 -0.013719 0.712529
-0.161146 0.273146 -0.859891
-0.061772 0.859891 0.487180
0.221184 0.701558 0.859891
0.142042 0.859891 0.684427
-0.250000 0.349785 -0.432863
0.041475 0.859891 -0.528928
0.250000 0.693248 -0.769066
0.250000 0.259111 0.089439
-0.206545 0.859891 -0.020444
-0.250000 -0.690365 0.644252
0.157055 -0.770323 0.859891
0.250000 0.626180 0.642653
0.250000 -0.565179 0.619771
-0.250000 -0.629580 -0.790432
0.250000 0.728475 0.451363
0.250000 -0.052818 0.754165
-0.250000 -0.346987 0.794221
0.090178 0.859891 0.405164
-0.250000 -0.493270 0.838935
-0.022411 0.708168 0.859891
0.030204 0.193257 0.859891
-0.250000 0.106166 0.004499
0.250000 0.463219 -0.561982
-0.061732 0.859891 -0.655335
0.250000 0.170245 -0.417143
-0.250000 0.699121 0.262233
-0.250000 -0.540239 0.379086
-0.174174 -0.262097 -0.859891
-0.250000 -0.664791 -0.085108
0.250000 -0.260417 0.552564
-0.250000 0.823366 0.174553
0.077337 -0.558076 0.859891
-0.250000 0.385834 -0.324911
0.029434 -0.859891 -0.652983
0.041634 -0.859891 -0.553411
0.250000 -0.137492 0.803409
0.250000 0.124709 0.631219
-0.250000 -0.065247 0.212488
-0.250000 -0.717125 0.140337
-0.143722 0.859891 0.653322
0.023749 -0.388203 0.859891
-0.196628 0.069045 -0.859891
0.250000 -0.112674 -0.406229
-0.250000 -0.208181 -0.033474
0.074648 0.202457 -0.859891
0.250000 -0.328398 -0.739128
0.250000 0.793928 -0.311245
-0.250000 0.678415 -0.645967
-0.026659 0.608527 -0.859891
0.250000 -0.023599 0.243504
-0.250000 0.422792 -0.320091
0.250000 -0.381959 0.555697
-0.250000 -0.032439 -0.260426
0.250000 -0.559021 -0.285669
-0.221478 0.859891 0.469397
0.250000 0.714740 -0.400434
0.250000 0.666478 -0.700656
-0.202118 -0.618877 -0.859891
0.052376 -0.859891 0.014428
-0.250000 -0.840507 0.635627
0.250000 0.656069 0.709117
0.250000 0.512669 -0.474038
-0.250000 0.489190 0.623479
0.250000 0.383989 0.527211
0.250000 0.047286 0.081394
-0.250000 -0.195131 -0.756981
-0.140359 -0.727090 -0.859891
-0.176498 0.402712 0.859891
-0.250000 0.842532 -0.398266
-0.141016 -0.243486 -0.859891
0.156475 -0.067289 0.859891
-0.104476 0.859891 0.324614
0.201660 -0.447341 -0.859891
-0.250000 -0.530280 -0.752842
0.067158 0.752026 0.859891
0.250000 -0.296675 -0.828097
0.154526 0.859891 0.436447
0.250000 0.600965 -0.060108
-0.068607 -0.556859 -0.859891
0.194406 0.335266 0.859891
-0.250000 0.392657 0.101096
-0.105923 -0.272916 -0.859891
-0.250000 0.374648 0.066766
0.250000 0.137135 -0.819133
0.250000 -0.692284 0.185004
-0.250000 -0.770809 -0.418724
-0.250000 -0.483505 -0.383036
-0.250000 -0.023668 -0.309212
0.250000 -0.100750 0.362908
0.027505 -0.827421 0.859891
-0.250000 0.663079 -0.372612
0.250000 -0.563798 0.064047
0.250000 0.194203 -0.497934
-0.250000 0.111892 -0.217852
0.141421 0.859891 -0.209461
-0.250000 -0.498789 -0.070516
-0.119848 0.859891 0.188769
-0.250000 0.379545 0.158289
0.182883 0.859891 -0.178001
-0.250000 0.212798 0.368262
0.250000 0.757268 0.153690
-0.046843 0.252121 0.859891
-0.211470 0.859891 0.771778
-0.250000 0.486894 0.592624
-0.250000 -0.645576 0.263382
0.102406 -0.859891 0.405275
-0.250000 0.458873 0.102300
0.250000 -0.606572 -0.800963
0.131792 -0.859891 -0.034628
-0.038448 0.020170 -0.859891
0.250000 0.297978 0.702844
-0.250000 0.098541 0.172614
-0.250000 0.370674 -0.442557
0.250000 0.717121 0.121166
-0.250000 -0.265893 -0.640267
-0.208084 -0.859891 -0.804562
-0.250000 -0.273100 -0.478592
0.250000 -0.525086 0.516408
0.201941 0.859891 0.731828
0.037655 -0.859891 -0.135342
0.250000 0.346068 0.279678
-0.250000 0.319073 -0.450758
-0.250000 0.158268 -0.609410
-0.250000 0.827716 -0.547743
0.250000 0.083270 -0.273740
-0.250000 -0.009508 0.062018
-0.250000 0.313371 0.444260
-0.250000 -0.060310 0.842725
0.250000 0.720091 0.651862
-0.218828 -0.397941 -0.859891
-0.250000 -0.359192 -0.453012
0.123357 0.859891 0.280283
0.126472 -0.859891 -0.131128
-0.250000 0.523844 -0.126243
0.250000 0.858991 -0.005678
-0.030219 0.859891 -0.748398
-0.250000 0.155584 0.339762
0.250000 0.036182 -0.267023
-0.250000 0.579978 -0.778516
-0.250000 0.313628 -0.822326
0.250000 -0.801454 0.312418
0.189943 -0.859891 -0.668334
0.250000 0.138162 0.093726
0.250000 -0.182150 0.698568
-0.248588 -0.412541 -0.859891
0.127327 0.859891 -0.731149
0.250000 0.058258 -0.744379
0.250000 0.131617 -0.044424
0.250000 -0.060537 -0.601786
0.250000 -0.057306 -0.286010
0.237978 0.016298 0.859891
0.250000 -0.369188 -0.589065
0.250000 0.188068 0.509751
-0.250000 0.128833 0.488877
-0.092564 -0.000875 -0.859891
0.199760 0.039275 -0.859891
0.250000 -0.582865 0.546791
0.140676 -0.859891 -0.761501
-0.250000 -0.106424 -0.655106
0.250000 -0.624730 0.587068
-0.003741 0.315267 -0.859891
0.250000 0.377924 -0.039565
0.250000 0.157755 0.756704
0.250000 -0.149397 0.164919
-0.250000 0.391131 -0.174715
-0.207755 0.859891 -0.256726
-0.250000 0.062179 -0.539253
0.250000 0.544074 -0.791082
0.250000 -0.833540 -0.551269
0.250000 -0.170635 -0.734773
-0.130315 -0.202293 0.859891
0.250000 -0.624138 0.423976
-0.250000 0.122850 -0.555593
-0.250000 -0.777099 -0.288752
-0.250000 0.353052 -0.266448
0.250000 -0.455896 -0.798849
-0.169121 -0.193184 0.859891
0.034563 0.859891 -0.600270
0.227997 -0.859891 0.745799
-0.250000 -0.771529 0.540468
-0.250000 0.325637 0.726436
0.250000 0.291086 0.408394
0.250000 0.774890 -0.493091
-0.247659 -0.859891 0.192846
0.250000 -0.858296 -0.177351
0.250000 0.379291 -0.246284
0.250000 0.282019 0.429000
0.250000 -0.198506 -0.207767
0.250000 -0.157693 -0.426247
-0.056281 -0.859891 -0.194915
0.100600 -0.859891 -0.808272
0.250000 -0.282802 0.063025
-0.000710 -0.859891 -0.321230
-0.102664 -0.859891 0.488444
0.059877 0.161332 -0.859891
0.250000 0.530725 0.417049
-0.212457 -0.301214 -0.859891
0.250000 -0.701417 0.389379
-0.250000 0.507057 0.533517
-0.190151 0.859891 0.518250
-0.250000 0.426325 -0.706039
-0.023152 0.697231 -0.859891
-0.250000 0.702864 -0.119932
0.095121 -0.859891 -0.752142
0.133976 -0.785776 0.859891
0.250000 0.166471 -0.059540
0.250000 -0.710933 -0.764509
-0.250000 0.376976 -0.210396
-0.250000 0.789975 0.427699
0.167349 0.859891 0.284746
-0.250000 0.144601 0.715691
0.250000 0.617017 -0.459142
0.250000 -0.625737 -0.239828
0.250000 -0.312280 0.513422
0.081874 0.859891 -0.602271
-0.250000 -0.702381 -0.349353
-0.195221 -0.046762 0.859891
0.155319 0.628173 -0.859891
-0.250000 -0.359960 -0.659649
0.151089 -0.859891 0.503475
-0.250000 0.795814 -0.173571
0.016874 0.627177 -0.859891
0.250000 -0.568860 0.348167
-0.028916 0.859891 0.473854
0.044348 -0.476824 -0.859891
-0.212851 0.859891 0.248488
0.250000 0.754104 0.696226
0.250000 -0.235407 -0.756758
-0.250000 -0.372131 -0.076156
0.007834 0.620592 0.859891
0.055162 -0.859891 -0.161610
-0.250000 -0.561812 -0.459125
-0.176248 0.685073 0.859891
0.140621 0.127128 -0.859891
0.250000 -0.426179 -0.617550
-0.250000 0.033064 -0.587412
0.250000 0.196393 -0.010492
-0.250000 0.740205 -0.707180
0.250000 -0.710558 -0.467345
-0.250000 0.453185 0.055413
0.250000 -0.574138 -0.786525
0.250000 0.482451 0.612697
0.250000 0.839816 0.399762
-0.250000 -0.528795 -0.637483
0.250000 0.047321 -0.507936
-0.250000 -0.351178 0.738156
0.025830 0.663607 0.859891
0.094112 0.859891 -0.224326
0.240957 0.859891 -0.804593
-0.250000 0.709942 -0.843303
0.250000 -0.682061 -0.611921
-0.250000 -0.207000 0.672118
-0.211693 0.859891 -0.427147
-0.250000 0.550240 0.063232
-0.250000 -0.036094 -0.361634
0.250000 0.446075 0.092616
0.250000 0.703158 -0.250484
0.053620 0.859891 0.529327
-0.049750 -0.379871 -0.859891
0.250000 -0.837522 -0.614775
-0.250000 0.028813 0.384372
-0.250000 -0.827168 0.088303
-0.250000 -0.846451 -0.604917
-0.048703 0.634842 0.859891
-0.250000 0.720539 0.417319
-0.250000 -0.408909 -0.119307
-0.250000 0.480433 -0.437312
0.250000 0.539549 -0.832923
-0.250000 -0.803084 -0.485278
-0.089686 0.859891 -0.614259
-0.250000 -0.189062 -0.032185
-0.221243 -0.859891 0.802334
-0.162682 0.859891 -0.423313
0.019412 0.859891 -0.151679
-0.085468 0.532238 -0.859891
-0.250000 0.463049 0.307019
0.250000 -0.544832 -0.088451
0.250000 0.692321 -0.629908
0.250000 -0.613046 -0.566891
0.250000 -0.000906 0.026783
0.250000 0.658997 0.858892
0.250000 0.325001 0.580766
0.239150 0.859891 0.575425
-0.250000 -0.103985 -0.085975
0.250000 0.124680 0.403854
-0.250000 0.511948 0.041507
0.250000 0.845593 -0.356942
0.250000 -0.650705 -0.693160
-0.027290 -0.859891 0.772036
-0.177612 0.509292 0.859891
-0.086518 -0.859891 -0.415487
0.099268 -0.507729 0.859891
0.250000 -0.616506 0.297944
-0.250000 0.420047 -0.637315
0.224640 -0.487894 -0.859891
-0.235166 0.645480 -0.859891
-0.105790 -0.544509 -0.859891
-0.179768 -0.859891 0.329855
0.250000 -0.708303 0.334083
0.250000 -0.167366 0.737284
-0.053167 0.769117 -0.859891
0.250000 -0.554843 -0.336311
0.250000 -0.059932 -0.620583
0.250000 -0.461592 -0.369500
-0.250000 -0.189149 0.668742
0.250000 -0.696815 0.603477
0.129038 -0.818746 -0.859891
0.250000 -0.811378 -0.131510
-0.214007 -0.127074 -0.859891
0.250000 0.718171 0.577218
-0.250000 0.653623 0.172075
0.065282 0.859891 0.318190
0.057517 -0.859891 0.391757
0.113947 0.859891 0.715254
-0.250000 -0.376126 0.804565
0.250000 -0.356418 -0.246078
-0.250000 -0.300003 -0.628005
-0.012561 -0.859891 -0.746544
0.250000 -0.481866 -0.460772
0.250000 0.443474 -0.856992
-0.067513 -0.823693 0.859891
0.250000 -0.463681 0.494309
0.250000 0.178481 -0.768927
0.250000 -0.538792 0.049718
0.039293 0.299684 0.859891
-0.218825 -0.859891 -0.469726
0.250000 -0.005482 -0.500529
0.250000 -0.573904 0.789408
0.173096 0.859891 0.604781
0.250000 0.411611 -0.296284
0.250000 -0.558882 -0.240596
-0.250000 0.598067 0.389658
0.250000 -0.204202 0.696508
0.250000 -0.522508 0.851211
0.250000 0.248510 -0.155790
0.250000 -0.644712 0.590030
-0.144481 -0.565443 0.859891
-0.250000 -0.787680 0.716405
-0.063280 0.859891 0.365317
-0.238341 -0.859891 -0.582839
-0.014430 0.150301 -0.859891
0.250000 -0.465252 0.636845
-0.250000 0.255221 -0.682093
0.153060 0.442977 -0.859891
-0.250000 0.338706 0.674025
0.250000 -0.689444 0.546252
-0.250000 -0.314974 -0.681005
0.250000 -0.278199 0.390113
0.250000 0.591473 -0.333134
-0.151001 0.486410 0.859891
-0.250000 -0.502925 0.504847
0.250000 -0.641143 -0.038876
0.250000 0.223084 0.641055
-0.044727 -0.859891 0.653876
0.250000 0.236072 0.393487
0.250000 -0.591831 -0.270381
0.250000 0.305431 -0.214538
-0.250000 0.203664 0.161491
0.250000 0.047094 0.119937
0.250000 -0.294031 -0.378563
0.152065 0.225983 -0.859891
0.250000 0.055913 0.335703
0.250000 -0.757716 -0.831516
-0.212029 0.011828 0.859891
-0.129215 0.129896 -0.859891
0.053801 -0.317842 0.859891
0.250000 -0.803552 0.560158
-0.250000 0.497322 0.411375
0.250000 0.230091 -0.803544
0.250000 0.693275 -0.204476
-0.250000 -0.688753 -0.846570
0.250000 0.500869 -0.234379
-0.226082 -0.111603 -0.859891
-0.250000 0.854857 -0.653225
0.250000 -0.605866 0.059138
0.250000 -0.194447 0.482739
0.250000 0.183301 -0.665034
0.250000 0.794266 0.791436
-0.250000 0.103167 -0.121663
-0.250000 0.097518 -0.074213
0.250000 -0.269482 0.220107
0.250000 0.128098 -0.222494
-0.165548 0.021915 -0.859891
0.250000 -0.453543 0.448954
0.109338 -0.859891 0.029270
0.250000 -0.071123 0.162059
0.250000 0.845242 0.097167
0.250000 0.277029 0.589090
0.108104 0.337238 0.859891
-0.250000 0.025578 0.689174
-0.250000 0.033299 -0.814860
-0.250000 -0.776186 -0.186186
-0.250000 -0.280900 -0.855413
0.063532 0.859891 0.678642
0.250000 0.310134 0.372595
-0.001861 0.029103 0.859891
0.250000 0.660555 0.811467
0.250000 -0.280600 -0.050814
0.250000 -0.268255 0.170211
-0.250000 0.184635 0.665074
-0.250000 0.349480 0.759471
0.126391 0.859891 0.695974
-0.073274 -0.422301 -0.859891
-0.120208 0.859891 -0.186832
0.250000 0.678644 -0.848644
-0.058277 0.859891 0.800622
-0.250000 -0.523244 -0.214994
-0.250000 0.803264 -0.078923
-0.250000 -0.259052 -0.732072
-0.201398 -0.170105 -0.859891
-0.250000 -0.227099 0.803109
-0.250000 0.744116 -0.463201
0.250000 -0.495221 -0.304369
0.250000 0.831345 -0.607330
0.134559 -0.635585 -0.859891
-0.106432 0.470228 0.859891
-0.250000 0.521188 0.181516
-0.250000 0.513378 -0.518028
0.250000 0.099603 -0.815975
0.250000 -0.856281 0.212923
0.165134 0.859891 0.669470
0.250000 0.792799 -0.669735
0.250000 -0.360846 0.316022
-0.250000 0.261541 0.347050
-0.250000 0.652543 -0.777401
-0.250000 0.120521 0.625015
0.250000 -0.569136 -0.351206
-0.250000 -0.398396 0.680443
-0.250000 0.174553 -0.467003
-0.239202 0.236141 0.859891
0.069646 -0.859891 0.523266
-0.200211 -0.398335 -0.859891
-0.151282 -0.859891 -0.753678
0.250000 0.667920 0.695191
-0.250000 0.594621 0.237757
-0.250000 -0.276028 -0.078366
0.239101 -0.468921 0.859891
-0.250000 -0.850465 -0.838684
-0.250000 0.570044 -0.258368
-0.250000 -0.561163 -0.852142
0.090503 -0.297298 0.859891
0.148069 -0.859891 -0.403343
0.013908 0.859891 -0.374982
0.192627 0.706068 -0.859891
-0.250000 0.548295 -0.636752
0.250000 -0.855399 -0.310465
-0.033089 0.859891 0.609220
0.250000 0.605341 -0.760883
0.250000 -0.779178 0.823530
0.250000 0.634362 -0.544957
0.250000 0.781280 0.583369
-0.250000 -0.102988 0.544672
-0.250000 0.722647 -0.091955
-0.250000 -0.367712 0.424958
0.250000 0.248903 0.588099
-0.250000 0.022609 -0.144798
-0.250000 0.276757 -0.086503
0.250000 -0.141373 -0.822074
0.250000 0.011312 -0.491148
0.229806 0.859891 -0.833524
0.250000 -0.434325 0.238004
-0.250000 -0.315912 -0.410342
-0.250000 -0.035802 -0.492667
-0.209419 0.859891 -0.324505
-0.250000 -0.109520 -0.161157
-0.250000 -0.094052 -0.482510
-0.056365 0.859891 0.393224
0.086034 0.859891 0.564826
-0.250000 0.228575 0.467937
-0.250000 -0.062444 0.681832
-0.041766 -0.059789 0.859891
0.250000 0.798607 -0.789170
-0.250000 0.674884 -0.782437
-0.099529 0.225546 0.859891
0.250000 0.032549 0.737216
0.250000 0.441713 -0.404989
0.163581 -0.011229 0.859891
0.250000 0.558294 -0.074669
-0.250000 0.735757 0.545358
0.250000 0.129074 0.016062
-0.109996 0.859891 0.565032
-0.250000 -0.525048 -0.235989
0.250000 -0.535268 0.704617
0.250000 -0.668593 -0.088084
0.250000 0.414692 -0.585165
-0.084839 0.859891 0.737283
-0.250000 0.763980 -0.762520
0.170812 -0.435759 -0.859891
-0.250000 0.152152 -0.373889
0.250000 0.414565 0.365233
-0.250000 0.583801 0.038531
0.250000 -0.314649 -0.369553
-0.117984 -0.112918 0.859891
0.250000 -0.386144 -0.763384
-0.250000 0.566690 0.116393
0.150962 0.859891 -0.358997
0.119325 -0.553206 0.859891
0.061191 0.179007 0.859891
0.124325 0.208053 0.859891
-0.250000 -0.104092 -0.550163
0.250000 -0.831917 0.833649
-0.250000 -0.005026 -0.205898
0.044892 0.859891 0.565902
-0.250000 -0.326058 -0.375019
0.250000 0.858710 0.230950
0.250000 0.223841 -0.152379
0.250000 0.825712 -0.247052
0.250000 0.085495 0.335423
-0.250000 0.622675 -0.670505
-0.180470 -0.859891 0.674479
0.250000 -0.366706 0.034980
0.223085 -0.859891 0.426918
-0.250000 0.830522 -0.601815
-0.250000 0.300338 -0.118961
-0.250000 0.050610 0.427772
-0.164670 0.649066 0.859891
-0.250000 0.123817 -0.735785
-0.250000 -0.356822 0.814249
0.097040 0.394277 -0.859891
0.250000 -0.691785 -0.812421
0.106244 0.859891 -0.686884
0.202151 -0.859891 0.181155
0.019109 -0.859891 -0.104785
0.246177 -0.136914 -0.859891
-0.244562 -0.859891 0.627922
0.250000 -0.013979 -0.631493
-0.250000 0.407709 -0.661289
0.250000 -0.677417 -0.772429
-0.142741 0.622873 -0.859891
-0.250000 -0.293879 0.809143
-0.132656 0.569327 -0.859891
-0.118681 -0.859891 0.119113
0.250000 0.602400 -0.178893
-0.250000 -0.248385 -0.405398
0.129198 0.452672 0.859891
-0.250000 -0.095176 -0.698505
0.250000 0.599534 -0.811897
-0.250000 0.060222 0.723457
0.114789 0.859891 -0.066142
-0.250000 0.724247 0.440044
0.250000 -0.200400 0.505419
-0.250000 0.344445 0.534740
-0.182430 -0.744713 -0.859891
0.250000 0.826446 0.329940
-0.250000 0.117942 0.502587
0.030076 -0.859891 -0.471441
-0.250000 -0.661253 -0.765763
0.250000 0.000745 0.302501
-0.250000 -0.316736 0.167620
-0.250000 -0.099015 0.163999
0.250000 0.454125 0.182806
0.250000 0.475205 0.376717
-0.168084 -0.742610 0.859891
0.207836 0.859891 -0.043611
-0.250000 -0.596871 -0.319787
-0.250000 -0.725609 0.259210
0.250000 -0.457116 0.006790
-0.000030 -0.859891 -0.519906
-0.162011 0.859891 -0.311876
-0.093990 -0.511929 0.859891
0.065688 -0.278596 0.859891
-0.019601 -0.859891 0.826384
-0.250000 0.369324 -0.568125
-0.250000 0.158019 0.035992
0.250000 0.200293 0.162286
0.250000 0.010674 -0.399970
0.250000 -0.259936 -0.036227
-0.250000 -0.341791 0.345184
-0.067360 -0.495595 0.859891
-0.250000 0.493769 -0.427677
0.250000 0.756402 0.816416
0.250000 0.342920 0.348293
0.001972 -0.859891 0.459341
-0.250000 -0.024352 -0.787997
0.250000 -0.159312 0.295994
-0.250000 0.837114 0.163042
-0.250000 -0.329126 0.128971
0.250000 0.022941 -0.411741
-0.040218 -0.859891 -0.439897
-0.188394 0.772365 -0.859891
-0.250000 -0.505591 0.231062
-0.250000 -0.045931 -0.608978
0.195217 -0.859891 0.800847
-0.250000 0.174522 0.579379
-0.250000 -0.089091 -0.624849
-0.250000 -0.619703 0.111789
-0.250000 0.119784 0.113848
-0.250000 -0.454306 0.085121
0.250000 -0.282321 -0.420736
-0.250000 -0.269311 -0.129343
0.250000 -0.661205 -0.822034
0.250000 0.816052 -0.504547
0.250000 0.256162 0.341743
0.250000 0.060028 -0.082353
0.094909 -0.058527 0.859891
0.250000 0.786336 0.045468
0.250000 0.222783 -0.659119
0.250000 0.524075 0.713590
-0.153678 -0.859891 -0.253203
-0.250000 -0.840464 0.596870
-0.250000 0.789985 0.198735
0.221257 -0.659673 0.859891
0.068106 -0.037406 -0.859891
-0.250000 0.136807 -0.026324
0.002089 -0.859891 0.533334
0.250000 -0.480304 0.271092
-0.250000 -0.783751 -0.235046
-0.250000 0.156565 0.458495
0.081146 0.859891 -0.753706
0.119167 0.859891 -0.803343
0.168993 -0.683481 -0.859891
-0.250000 -0.006187 -0.494460
0.061614 -0.859891 0.347889
-0.066367 -0.859891 0.470336
-0.236859 -0.859891 0.349748
0.203499 -0.859891 -0.766311
0.250000 0.675751 0.424351
-0.061404 -0.859891 0.542048
-0.250000 0.143818 0.811639
0.000269 -0.579657 -0.859891
-0.250000 0.284230 -0.442334
-0.250000 -0.706594 -0.539357
0.145810 -0.654702 0.859891
-0.250000 0.362002 -0.693110
0.104784 -0.859891 0.531019
-0.250000 0.400508 0.525843
0.250000 0.796363 -0.082485
-0.104985 -0.859891 -0.145996
0.250000 -0.538784 0.027678
0.070301 -0.304489 0.859891
-0.160179 0.859891 0.563759
-0.163097 -0.644371 0.859891
-0.250000 -0.367758 0.319309
-0.250000 0.134041 0.612960
-0.186341 0.859891 0.774735
0.250000 -0.023461 -0.409827
0.169173 -0.859891 0.127236
-0.250000 -0.313185 -0.772714
0.250000 -0.760093 -0.567810
-0.250000 0.122812 0.791063
0.250000 -0.646709 -0.188900
0.055711 -0.859891 -0.232092
0.222576 0.790852 0.859891
-0.112296 -0.609322 -0.859891
-0.250000 -0.290151 0.284142
-0.250000 0.467791 -0.265739
0.220336 -0.140072 -0.859891
-0.149190 0.348385 -0.859891
0.116376 0.859891 -0.630726
-0.250000 -0.097383 -0.226016
0.250000 0.783306 0.756682
0.100807 -0.859891 0.708261
-0.155022 0.859891 -0.476038
-0.250000 0.553546 0.134784
-0.250000 0.625543 0.168067
-0.250000 -0.728707 -0.718942
0.250000 -0.645967 -0.303741
0.046365 -0.318093 -0.859891
0.250000 0.046142 -0.129892
0.250000 0.607112 0.169087
0.250000 0.259048 0.761594
-0.121853 0.521931 -0.859891
0.002550 0.259733 0.859891
-0.167139 0.397833 -0.859891
-0.250000 0.375213 0.812398
0.250000 -0.456905 0.553979
0.250000 -0.210043 0.106266
-0.250000 0.822084 0.123634
0.250000 0.533509 0.665049
0.101831 -0.859891 -0.367233
0.250000 -0.438374 0.132975
-0.250000 0.227984 -0.276419
0.250000 0.094048 -0.234806
-0.150130 0.732873 0.859891
-0.176742 0.859891 -0.195933
-0.250000 -0.574378 0.501473
-0.173380 0.125631 0.859891
0.250000 -0.753300 0.270873
0.089600 -0.760352 -0.859891
-0.147638 0.647997 0.859891
0.249768 -0.073705 -0.859891
-0.250000 -0.619311 -0.739723
-0.066577 -0.859891 -0.065764
0.250000 -0.653359 -0.158808
-0.250000 -0.686184 0.057844
-0.250000 0.670679 -0.495059
0.250000 0.774344 -0.843611
0.051374 -0.859891 0.524556
0.213235 -0.329522 -0.859891
0.250000 -0.538904 0.679315
0.250000 0.484909 -0.729947
0.250000 -0.037151 -0.393135
0.250000 0.301694 -0.271213
-0.250000 0.764049 0.142494
0.250000 -0.329241 -0.338965
0.250000 0.316939 0.721315
-0.250000 0.616320 0.369638
-0.250000 0.016057 0.501615
-0.250000 -0.675321 -0.278490
-0.170030 -0.034197 -0.859891
-0.250000 -0.726203 -0.326714
0.250000 -0.242437 0.658054
-0.250000 -0.406263 0.379393
0.250000 0.014905 -0.606215
0.248392 0.313117 -0.859891
-0.008771 0.859891 -0.307531
0.113705 0.859891 0.494998
-0.073128 -0.859891 0.683097
0.029993 -0.024098 -0.859891
-0.056492 -0.859891 -0.146198
0.250000 -0.803657 -0.240893
-0.250000 -0.833101 0.004537
-0.022708 -0.859891 -0.230655
-0.042352 0.859891 0.682596
-0.250000 0.263931 -0.642811
0.250000 0.255148 0.814927
0.250000 0.166310 0.247426
-0.250000 -0.367556 0.010798
0.250000 -0.718381 -0.196536
0.250000 0.667997 0.077180
0.118901 -0.081531 0.859891
0.250000 0.822694 -0.395485
-0.218163 0.473909 0.859891
0.250000 0.704025 -0.157296
-0.250000 0.390013 -0.749908
0.250000 -0.268461 -0.818884
0.154238 -0.859891 0.111988
0.161842 -0.442596 0.859891
0.021276 -0.271609 -0.859891
-0.250000 -0.051017 0.647699
-0.250000 -0.297837 -0.259206
0.181824 -0.859891 0.263531
-0.250000 -0.665708 0.402890
-0.250000 -0.155994 -0.244574
0.250000 -0.660356 0.280398
-0.122461 -0.320546 0.859891
0.246613 0.070368 0.859891
-0.250000 0.643098 -0.804119
0.250000 -0.376859 0.254753
-0.178900 0.194793 -0.859891
-0.250000 0.802444 -0.840653
-0.250000 0.587412 -0.808380
-0.093534 -0.147919 -0.859891
-0.149492 -0.859891 0.742229
0.226594 -0.525737 -0.859891
-0.232441 0.742012 0.859891
0.250000 0.804090 -0.612992
0.250000 -0.557921 0.837857
0.250000 0.184893 0.818075
-0.250000 0.409032 -0.508098
0.250000 0.717147 0.206573
-0.250000 0.385048 -0.293091
0.250000 -0.328704 0.296929
0.250000 0.254695 -0.233446
0.250000 0.751479 0.172921
-0.187257 0.859891 0.470159
0.250000 -0.228765 -0.569005
0.250000 -0.137971 0.029987
0.250000 -0.523717 0.600087
0.250000 0.238896 0.071448
-0.112694 -0.859891 0.136277
0.250000 -0.014546 -0.131777
-0.250000 -0.633705 0.040118
0.250000 0.211173 0.099207
0.250000 -0.248437 0.477619
-0.250000 -0.679063 0.370663
0.250000 -0.637861 0.575097
-0.250000 0.037779 -0.178515
0.250000 0.696272 -0.451412
-0.250000 0.412583 0.828470
0.250000 -0.805726 0.596129
0.250000 -0.579126 0.054246
-0.225356 0.859891 0.323852
-0.250000 -0.556239 0.306555
0.250000 -0.788122 -0.853087
-0.250000 0.675211 0.284892
-0.250000 -0.036445 -0.625648
-0.048372 -0.774587 0.859891
0.250000 -0.037780 -0.773061
0.250000 -0.633038 0.757964
-0.101712 0.767901 0.859891
0.250000 0.000073 -0.616964
0.250000 -0.235233 -0.139851
0.250000 -0.361677 0.445663
0.250000 0.813602 0.190353
0.118140 -0.006521 -0.859891
-0.208269 -0.186783 0.859891
0.016137 0.390993 -0.859891
0.250000 -0.471563 0.824368
-0.250000 -0.456954 -0.249282
0.250000 -0.361489 -0.067999
-0.250000 -0.644969 -0.078669
-0.250000 0.604821 -0.738705
0.250000 0.368659 0.550203
0.231583 0.039060 0.859891
-0.016635 -0.258249 -0.859891
-0.250000 0.177080 -0.269227
-0.250000 -0.716078 -0.293257
-0.111676 0.031477 -0.859891
-0.250000 0.177573 0.392047
0.250000 -0.205930 -0.349688
-0.250000 0.396355 0.320228
0.250000 -0.402223 -0.110110
-0.250000 -0.738837 0.457499
0.250000 0.487740 0.052014
0.250000 0.169549 -0.399249
0.125767 -0.859891 0.039068
-0.024415 0.859891 -0.044972
0.250000 -0.326654 0.105853
0.011373 -0.001958 -0.859891
0.250000 0.033829 -0.561629
0.250000 0.800006 -0.841879
0.098333 -0.077805 0.859891
0.250000 -0.312205 0.302144
0.250000 -0.312188 0.260890
-0.250000 0.194857 -0.764970
0.134545 -0.859891 0.109053
-0.250000 -0.739984 -0.032206
-0.250000 0.656679 -0.145307
-0.250000 -0.447296 0.858722
0.108944 0.859891 0.122728
0.167304 0.540935 -0.859891
-0.111931 0.635031 0.859891
-0.143320 0.180468 0.859891
-0.147312 0.483525 -0.859891
-0.250000 -0.622599 0.266061
-0.070196 0.665864 0.859891
0.195303 -0.859891 0.566028
-0.077073 0.464744 -0.859891
-0.247918 -0.828928 0.859891
0.250000 -0.685255 -0.481248
0.250000 -0.312819 -0.690775
