26.924156 21.152356 0.248587
7.208236 -15.288557 4.451194
-10.114249 -11.577330 4.451194
-28.763304 -21.139895 2.131541
-2.039754 -5.236034 0.248587
7.781102 22.174389 4.451194
-29.938908 -30.696078 4.451194
-12.363537 12.162316 0.248587
-30.954610 -34.951248 3.309028
-0.329086 -13.957060 4.451194
-17.253573 5.856593 3.521805
8.870166 12.199267 4.451194
11.729999 -11.185077 4.451194
23.733575 23.026814 0.248587
-26.195194 -30.654624 4.451194
11.581480 -4.708177 0.248587
-6.410108 26.752244 4.451194
-13.751388 13.852246 0.248587
-0.816853 20.174030 4.451194
-8.199875 -20.722828 0.248587
-1.078067 31.934876 4.451194
21.219533 9.433408 4.451194
-17.979153 -4.806992 4.451194
-10.109958 -0.039478 0.248587
9.149668 18.418826 4.451194
20.509572 31.928961 4.451194
-21.706105 -22.197753 4.451194
-8.031684 -29.659164 0.248587
-22.897931 -30.665634 0.248587
-9.502303 20.239330 0.248587
10.604407 -2.482859 0.248587
-21.158210 -27.822309 4.451194
-32.540373 -29.999147 2.126175
-18.109794 -14.486059 0.248587
1.443971 25.407781 0.248587
-11.333907 -27.516128 4.451194
9.660617 4.421779 4.451194
8.346999 24.615609 0.248587
21.394306 4.607612 3.361804
-10.715168 21.192656 1.033709
2.111008 -1.077470 4.451194
-18.198426 -13.862729 4.451194
-17.314115 -16.027595 4.451194
21.265281 12.041010 4.451194
11.024533 8.192730 4.451194
-8.275504 -6.164408 0.248587
9.257768 11.639195 4.451194
-9.106660 -7.156236 0.248587
27.652699 18.803357 3.158011
19.500345 31.546040 0.248587
12.120999 -4.307322 0.248587
-25.270452 -30.351573 0.248587
-4.991133 4.809148 4.451194
1.819648 5.598406 4.451194
22.870957 29.281080 0.248587
-24.805899 -17.072579 0.248587
2.323504 16.228778 0.248587
-0.963325 11.296533 0.248587
-16.773049 -8.368910 4.451194
-12.235581 -15.041619 4.451194
15.222390 26.661976 4.451194
15.356518 9.085548 4.451194
14.203768 0.988336 4.451194
10.311382 34.094376 4.030665
-4.967892 19.791760 0.248587
25.268416 29.910974 0.248587
-12.963188 -32.481092 0.248587
5.750534 16.017803 4.451194
29.756784 29.710193 4.451194
4.712527 -31.182252 0.248587
8.571145 16.495205 4.451194
14.340098 8.256962 0.248587
-20.459022 -26.672028 0.248587
26.005994 33.680946 0.248587
0.359694 5.836983 4.451194
-0.481294 -12.460530 4.451194
2.943229 -25.789518 4.451194
11.407306 7.645586 4.451194
-15.645073 -27.331110 4.451194
-5.429064 -16.784966 0.248587
9.839127 5.283785 4.451194
7.003735 -9.388735 0.248587
5.724408 -19.825650 0.248587
-14.096230 -13.159368 4.451194
12.528424 5.046162 0.248587
3.110783 34.093776 0.248587
32.536279 29.880649 3.801249
-19.689780 -21.195140 4.451194
1.588653 -31.968214 4.451194
29.190183 31.728458 4.451194
-14.694643 11.858654 4.363112
-32.362053 -34.951248 0.774960
24.167206 32.418562 0.248587
-2.898196 16.313806 0.248587
-13.900203 6.863805 0.248587
11.905582 24.633686 4.451194
-6.573381 -4.340505 4.451194
-17.894553 -25.051837 0.248587
16.896465 18.737917 4.451194
15.382438 25.716204 0.248587
-6.363097 11.926594 4.451194
5.494759 -19.220826 4.451194
-9.807450 20.907728 0.248587
2.688618 24.537437 0.248587
-33.234685 -31.627679 2.267832
4.710581 -25.701123 4.451194
3.076117 -25.657500 0.248587
-18.472361 -2.201546 0.248587
-13.380840 -19.967465 4.451194
6.878513 -4.300171 0.248587
0.146216 -4.274384 4.451194
-28.771469 -26.193862 0.248587
16.580483 27.211747 0.248587
-17.636554 -24.463141 0.248587
3.861032 -32.108194 0.248587
-15.630689 -1.623353 4.451194
24.318981 34.094376 4.069018
26.366522 31.879597 0.248587
22.232531 19.679443 0.248587
22.464851 7.035899 1.154187
17.495103 8.603039 0.248587
-10.735188 21.145699 3.679177
-12.323351 -4.754093 0.248587
1.943549 3.217965 4.451194
-3.396670 -31.794524 4.451194
7.923856 10.996005 0.248587
-10.633268 -26.135788 4.451194
15.170553 9.736007 4.451194
-2.890923 24.024037 0.248587
-14.476202 9.088495 4.451194
18.596074 23.498189 4.451194
-20.921380 -14.559196 4.451194
-8.873794 -24.655667 0.248587
-2.706236 28.281941 4.451194
-25.220678 -20.567385 0.248587
-10.167101 -23.335046 4.451194
-5.284717 -34.951248 3.094119
-9.716944 -1.112790 4.451194
-11.499626 -28.683671 0.248587
14.169923 14.575295 4.451194
18.157779 14.557625 0.248587
9.116622 -8.638059 0.248587
23.472751 23.823127 4.451194
15.501490 -1.744044 0.248587
-7.589418 16.569104 0.248587
4.173846 30.604502 0.248587
24.519396 34.094376 2.439834
-13.808669 -14.907898 0.248587
9.038960 31.758299 4.451194
16.651538 5.465387 4.451194
-2.901140 27.404412 4.451194
5.777211 26.574951 0.248587
19.426397 1.794162 4.451194
-8.866388 22.916205 0.248587
14.939472 -10.033717 0.335805
-11.019142 -7.222826 0.248587
1.729405 12.785880 0.248587
-25.945578 -28.312748 4.451194
8.819459 11.651888 0.248587
10.442957 1.311879 4.451194
-6.346504 -4.416318 0.248587
-11.658554 -22.219802 0.248587
21.105906 18.155558 4.451194
-0.728296 -29.187812 4.451194
8.863963 15.707922 0.248587
-3.837146 -17.827198 4.451194
-23.613260 -21.673376 4.451194
-13.655193 -23.478123 4.451194
23.717298 31.207944 4.451194
4.266863 12.762381 0.248587
7.523604 -0.104450 4.451194
14.219274 16.036187 0.248587
5.971885 -30.374653 3.722831
1.419837 -22.368277 0.248587
-2.546892 -4.024091 4.451194
-24.465196 -30.609769 4.451194
7.746645 -0.201232 0.248587
-15.529488 -8.099716 0.248587
0.099515 22.724034 4.451194
-1.412227 22.001361 0.248587
-6.340952 -8.540361 0.248587
23.853544 14.335905 0.248587
-12.180747 -27.389605 4.451194
8.730513 -20.912706 0.248587
-7.874046 -9.916843 4.451194
8.647551 -3.574952 0.248587
-22.451666 -21.163282 0.248587
-26.804705 -16.545930 1.763040
10.007222 34.094376 3.118402
17.647729 31.328198 0.248587
-0.707871 -26.017089 0.248587
-15.683520 -13.170111 4.451194
-6.111079 23.713478 0.248587
-21.275205 -34.951248 1.023795
-4.833646 -17.741924 4.451194
-12.704912 -24.673263 0.248587
-10.442742 -5.056999 4.451194
-4.696239 23.262972 4.451194
-3.237978 -11.380081 4.451194
6.760285 -15.243505 0.248587
20.141410 17.603932 4.451194
3.723291 -17.809641 4.451194
24.329098 22.461152 4.451194
6.089636 -28.485821 4.451194
-0.236916 29.767006 4.451194
-10.644310 16.169352 4.451194
0.918923 -29.833960 0.248587
-4.658503 -4.904818 4.451194
-10.117097 -23.014492 0.248587
5.291970 7.907134 4.451194
-5.388861 -13.848573 0.248587
-2.833205 20.221102 0.248587
3.335689 -12.717661 0.248587
-5.586169 20.262100 0.248587
-14.031028 -2.722811 4.451194
8.634592 -24.334907 1.234814
-20.229111 -19.436749 4.451194
3.248631 -27.306024 4.451194
-2.068765 -29.886934 4.451194
12.457131 -12.263067 4.451194
1.538797 -1.571170 4.451194
-12.965356 -34.571161 4.451194
-5.952162 -32.433098 0.248587
-13.029270 15.764848 2.580370
-29.345946 -32.135408 4.451194
10.984590 0.868222 4.451194
7.185661 26.685238 0.248587
-7.382971 29.008443 1.192671
-19.186942 -3.177095 4.451194
-27.769929 -23.687413 4.451194
16.507790 21.615804 0.248587
0.684955 -34.951248 0.917919
-7.802977 -19.170561 0.248587
2.587317 -4.603510 0.248587
-0.704734 33.925762 0.248587
-5.921878 -9.402292 4.451194
-25.742123 -18.504719 4.451194
-18.434535 -34.167850 4.451194
13.926743 -2.585796 0.248587
-0.737398 -30.624242 0.248587
-19.775169 -34.951248 1.940209
-0.626310 -16.640417 0.248587
3.947172 20.842783 4.451194
29.876802 26.086806 4.451194
-11.362048 -23.584437 4.451194
-10.363042 -29.255768 0.248587
-17.891830 -34.951248 1.029463
-22.317143 -34.431818 0.248587
23.359681 34.068147 4.451194
-1.753864 -32.461036 4.451194
-13.737849 -29.410102 4.451194
-16.326449 8.031195 0.958861
-0.954140 5.111210 0.248587
20.551047 11.487878 4.451194
-18.409388 0.110082 4.451194
-18.231918 3.561850 3.514657
-3.822491 8.683591 4.451194
-10.528401 -32.277028 4.451194
0.331078 14.574031 4.451194
0.192841 18.538008 0.248587
2.821844 -19.075459 4.451194
-1.719165 19.992561 4.451194
-7.889518 23.221536 0.248587
10.737381 27.310230 4.451194
-5.184887 17.041981 0.248587
-0.936068 -11.281919 4.451194
-20.291114 -9.773015 4.451194
-4.611692 -34.951248 3.411977
-11.097708 -25.983866 0.248587
6.440633 11.386448 0.248587
-15.711941 9.472546 0.789545
5.658638 -11.407349 0.248587
16.043313 -1.176437 0.248587
4.354453 -22.488510 4.451194
8.324886 21.618966 0.248587
14.808891 32.814137 4.451194
13.037102 5.973205 4.451194
-11.251970 -7.946780 0.248587
26.269298 15.665424 3.565654
6.399515 5.321228 0.248587
15.267227 6.187156 0.248587
-22.765179 -34.951248 3.748783
-10.154736 22.507170 4.026875
7.138211 -7.103625 4.451194
17.469045 3.037313 0.248587
33.360079 34.094376 1.102668
27.018612 17.365074 3.425185
-6.549151 -7.571990 4.451194
12.288218 12.585835 4.451194
4.108977 -12.817401 0.248587
-16.460836 -11.045208 0.248587
-21.733150 -30.752265 4.451194
11.653723 -1.781424 4.451194
20.209355 25.209644 4.451194
-22.750303 -12.638171 4.451194
-13.176876 -34.466206 0.248587
-4.733745 -32.755421 0.248587
5.889999 6.483773 0.248587
7.251503 14.492427 0.248587
-13.384784 2.199350 0.248587
1.076441 -31.122259 4.451194
4.829570 -29.126773 4.451194
-1.854536 32.877595 0.248587
-1.279198 6.950393 0.248587
15.476519 4.773244 0.248587
11.804815 -1.755789 0.248587
-0.622024 13.846321 4.451194
-5.582379 -28.596528 4.451194
-1.948989 -34.951248 1.874208
11.845587 -10.451064 4.451194
-7.030277 -23.064474 0.248587
-22.163606 -5.660066 3.426551
17.739599 15.202870 0.248587
-11.319779 -26.275600 4.451194
-22.020694 -5.324862 1.179130
4.684744 7.689242 4.451194
-6.850594 30.257153 3.171517
-4.398523 10.965484 4.451194
-4.540482 18.474439 4.451194
-10.271958 22.232220 2.506316
3.551319 -23.171703 0.248587
-9.912869 23.074478 0.774204
11.077838 13.525460 4.451194
-20.877144 -29.399514 4.451194
-3.694863 30.744019 4.451194
-3.734071 -27.537614 0.248587
-25.685060 -25.378951 0.248587
-10.820875 2.068757 0.248587
18.608113 16.363915 0.248587
5.547157 0.808343 0.248587
-28.946544 -34.951248 2.306323
12.383210 18.183800 4.451194
20.699840 4.085725 4.451194
-23.453996 -9.485797 0.248587
2.989872 32.186527 0.248587
13.753019 4.498123 4.451194
-10.393804 6.706939 4.451194
-5.843425 -33.900416 0.248587
24.608365 30.758073 4.451194
-20.659132 -2.131269 3.267330
27.785388 19.104331 1.903194
-3.081832 -26.962712 0.248587
3.583814 24.029407 4.451194
25.701681 25.286481 0.248587
-9.944230 -1.739838 4.451194
-13.809788 5.413240 0.248587
-3.491259 15.644937 4.451194
32.392925 34.094376 3.198955
4.893748 -28.180917 0.248587
-5.191672 12.735995 0.248587
-4.126231 14.167399 0.248587
31.985083 34.094376 1.148039
-7.460311 13.395107 4.451194
-12.744337 -22.510718 4.451194
4.884371 3.869697 4.451194
-15.576032 5.347680 4.451194
13.557495 12.201649 0.248587
13.904391 24.369904 0.248587
11.344045 28.259510 4.451194
22.187618 23.144202 0.248587
-1.682638 -2.779927 4.451194
-8.436868 2.398514 0.248587
18.005956 3.722550 0.248587
14.383995 -11.293688 0.372273
-19.063966 -31.123251 4.451194
-2.534285 6.550986 0.248587
9.748699 -20.905639 4.451194
-0.620538 18.441696 0.248587
-15.251656 -34.911994 4.451194
-18.479803 -20.664359 4.451194
-15.659740 -25.359862 0.248587
9.462676 -13.164060 0.248587
-17.277327 -34.951248 2.660319
-11.633226 -4.582485 0.248587
-0.944077 -20.901564 4.451194
16.943577 7.472930 4.451194
4.334942 -28.688698 0.248587
18.079075 24.590361 0.248587
-15.797532 9.126921 0.248587
19.612991 10.584290 4.451194
-12.025150 -12.004445 4.451194
8.892308 13.442745 4.451194
-5.047578 -32.437444 4.451194
-2.962696 16.906040 4.451194
-18.128153 -29.315256 0.248587
-12.884853 12.936991 0.248587
20.707018 3.048654 2.883992
-20.788819 -6.229418 0.248587
-2.807591 -22.024565 0.248587
-20.461292 -4.427876 4.451194
-5.120398 24.520166 4.451194
4.390343 12.802217 4.451194
17.704445 16.154507 4.451194
9.021732 18.067182 0.248587
-4.371626 -22.617016 4.451194
-10.621643 -3.727839 0.248587
-17.892181 -34.951248 4.268021
8.831179 -8.837349 4.451194
3.572234 32.914932 4.451194
31.148732 27.637738 0.248587
-1.471527 26.332958 0.248587
-1.111414 -24.096449 0.248587
-0.407774 -14.016989 0.248587
-15.563535 -31.743968 4.451194
23.844758 21.608498 0.248587
4.201204 -5.135475 4.451194
19.510348 25.190381 4.451194
6.587264 -0.997941 0.248587
-0.891688 25.153263 4.451194
-12.542073 -29.070876 0.248587
-1.793440 33.236465 4.451194
-4.315643 -23.274354 4.451194
12.066343 34.094376 3.585188
1.581109 34.094376 2.640253
-26.343472 -32.204324 0.248587
30.204498 27.159406 0.248587
5.302368 -22.741199 0.248587
-6.187076 -12.963365 0.248587
-19.719121 -6.364009 4.451194
-9.636486 23.722744 0.847570
-12.808495 -2.034482 0.248587
-18.785592 -5.046025 4.451194
2.442750 -26.410572 4.451194
13.475909 23.778611 0.248587
1.343842 -0.210357 4.451194
12.356143 -13.184220 4.451194
-11.004870 6.237196 0.248587
3.568925 -26.271296 0.248587
25.734243 34.094376 2.186291
23.812950 31.259599 0.248587
4.795733 -33.042487 0.746296
-17.028416 5.098339 4.451194
11.966743 9.592965 4.451194
-15.563788 -24.567202 4.451194
32.266837 29.269482 2.775681
11.512398 -10.883814 0.248587
9.480737 16.214650 0.248587
-5.945081 16.553526 0.248587
-1.099457 33.483756 4.451194
5.544285 16.356435 0.248587
10.203819 15.942950 0.248587
-7.634941 -11.559715 0.248587
-20.983798 -9.817308 4.451194
27.255486 30.382305 4.451194
5.679069 -3.733312 0.248587
13.828695 -6.342236 0.248587
-14.303641 -17.426796 0.248587
-13.410967 5.455233 4.451194
2.945792 16.589552 0.248587
-32.594643 -30.126439 4.314854
11.969848 21.372528 4.451194
0.047384 -28.232376 4.451194
-6.938653 4.332934 4.451194
-14.065931 0.132815 0.248587
0.868745 -4.539063 4.451194
4.593061 -21.639750 0.248587
-7.963761 -12.819016 0.248587
8.477635 34.094376 1.906720
-17.534128 -26.237348 0.248587
11.654056 2.298358 4.451194
17.849537 7.849495 0.248587
-1.491674 -32.869296 0.248587
-4.685897 23.916941 4.451194
-17.464968 -29.499883 0.248587
-13.507590 14.642930 1.522194
3.778721 20.000876 0.248587
-18.318083 -15.237969 0.248587
22.040694 27.640528 0.248587
16.786669 2.019360 4.451194
-6.759187 -0.617767 0.248587
21.098692 10.778184 4.451194
19.903863 22.090071 4.451194
-24.428582 -12.618912 4.451194
-0.647490 28.504484 0.248587
-9.043215 5.862378 4.451194
-16.462267 -11.187840 4.451194
-6.830411 -22.252094 4.451194
-16.726931 -31.963602 0.248587
-4.983398 3.885318 4.451194
-11.976997 -23.032348 4.451194
-9.197856 12.990644 0.248587
-31.087057 -26.590341 2.442029
1.585685 -7.755603 0.248587
17.428227 23.799322 0.248587
-27.015556 -17.040490 0.904407
-5.182248 -21.106212 4.451194
-6.444304 -14.951179 4.451194
7.636829 11.237975 4.451194
0.141743 23.034430 0.248587
7.216657 -23.463143 0.248587
-6.726501 -26.891834 4.451194
-19.241838 -21.254481 0.248587
26.141463 21.735095 0.248587
-13.040996 -24.231732 4.451194
-1.340908 30.077942 0.248587
-15.297944 -11.129676 4.451194
-15.194022 8.024350 4.451194
10.541155 1.958849 0.248587
6.478432 17.719622 0.248587
29.573967 23.161318 2.952407
0.437792 -1.387111 0.248587
18.985370 8.368308 0.248587
-3.724275 30.360934 0.248587
-14.871733 11.443283 1.913449
4.010255 -2.750196 4.451194
-25.316094 -13.140891 0.248587
22.147235 6.315461 1.533843
-3.069312 10.937841 0.248587
5.289190 -8.347781 0.248587
16.046891 34.094376 0.828974
1.592537 -20.994224 4.451194
-5.002491 30.797574 0.248587
10.025930 -5.763165 4.451194
10.569144 34.094376 2.639291
8.679477 19.318499 4.451194
1.417491 17.751190 4.451194
13.100377 13.660362 0.248587
-15.684512 -26.269883 4.451194
-10.962476 -22.073351 0.248587
32.978380 34.094376 0.470791
9.393115 24.286322 0.248587
-18.347157 -30.231083 4.451194
10.971200 -19.034841 3.061907
-2.199092 5.954503 4.451194
0.541841 -31.641265 4.451194
-7.760876 28.122055 1.667390
-31.006968 -30.514781 0.248587
-25.147352 -28.983407 0.248587
19.407822 26.781073 4.451194
29.488199 33.545203 0.248587
24.868759 12.488620 3.151765
1.601364 24.719548 0.248587
23.331553 21.024410 4.451194
17.875472 9.310744 0.248587
15.759586 -6.357438 0.248587
-20.347049 -6.896090 0.248587
-4.058892 -24.979495 0.248587
-0.794398 34.054678 4.451194
-3.863371 -0.902755 0.248587
20.322136 3.651421 0.248587
-8.187827 -4.643979 0.248587
-4.376939 28.880668 0.248587
-2.232535 11.396034 0.248587
-6.697408 22.715283 4.451194
2.931819 23.566213 0.248587
19.543778 18.016560 4.451194
10.894790 -0.173299 0.248587
-5.246921 31.886751 4.451194
8.403177 28.510776 0.248587
15.251961 28.740457 4.451194
-2.144571 -14.645248 0.248587
-11.380861 19.631249 3.510731
-10.193559 0.697480 0.248587
20.564529 20.359831 0.248587
19.873352 28.060307 4.451194
8.826252 29.503298 4.451194
16.939087 33.477918 4.451194
0.362467 10.110282 0.248587
-6.965339 9.107810 0.248587
-12.259691 -29.690437 0.248587
0.609025 10.475263 4.451194
34.080745 33.383920 1.156687
0.940145 30.421513 4.451194
-3.652115 -21.401994 0.248587
-32.748560 -31.835452 4.451194
-6.724068 30.553926 0.346998
-21.713306 -28.278979 4.451194
9.187189 -9.417277 4.451194
8.263237 -7.537626 0.248587
11.821763 13.663908 4.451194
5.486422 10.759696 0.248587
23.074603 9.386709 0.248587
12.429375 32.720345 0.248587
-24.307266 -23.361202 4.451194
23.638088 27.062291 0.248587
-30.375159 -28.192964 0.248587
-18.082943 -30.891349 0.248587
9.535932 -8.021473 4.451194
14.992595 -4.254199 0.248587
4.579295 -0.046553 0.248587
-14.645331 11.974318 3.520490
1.741548 -34.353704 0.248587
-31.785227 -34.856814 0.248587
-7.583891 -9.213149 4.451194
21.247022 8.231849 4.451194
-20.859232 -29.418751 0.248587
7.914315 31.814002 4.451194
19.771424 22.820681 0.248587
-31.241779 -26.953249 1.641967
-5.094239 13.722854 4.451194
-17.687300 -29.015052 4.451194
7.984363 15.531001 4.451194
8.621206 -9.253313 0.248587
6.918715 24.700450 0.248587
-6.460934 -10.892124 4.451194
2.845134 -3.848645 0.248587
18.349779 9.702305 0.248587
9.466370 -22.448205 3.484245
-3.227943 25.585323 0.248587
-22.213599 -23.275652 4.451194
26.299741 34.094376 3.812288
-24.941537 -18.122703 0.248587
-13.097848 -28.670297 0.248587
3.654254 14.601427 0.248587
-11.611471 -27.560937 0.248587
-10.163471 22.486681 1.030289
11.236620 6.856320 0.248587
-12.635308 -30.522254 0.248587
17.238958 18.579148 0.248587
20.900497 3.487519 1.292599
12.608485 -11.556902 0.248587
27.300526 28.775710 0.248587
0.228617 -34.951248 1.510679
-5.416814 6.088706 0.248587
14.721064 -10.529124 3.382226
27.048517 29.575509 0.248587
18.685294 29.384839 0.248587
-1.008083 -18.855912 0.248587
-8.783483 -6.742410 4.451194
-8.477460 26.441280 3.684355
15.829327 17.276264 4.451194
-9.249854 1.947822 0.248587
-27.522582 -18.229738 0.614837
-7.804089 28.020697 0.413875
-8.294945 11.581902 4.451194
-14.422399 -7.104874 4.451194
15.808152 33.635484 4.451194
-11.686725 -34.271633 0.248587
16.959470 28.805177 0.248587
-21.753059 -4.697113 1.041072
2.242090 3.331515 0.248587
-1.520324 12.075464 4.451194
7.042257 -6.652241 0.248587
25.603684 20.756942 4.451194
-18.013316 -17.189344 4.451194
-4.358064 18.349393 0.248587
-9.319361 24.466572 2.531037
8.227484 5.385923 4.451194
-10.043623 -18.556793 0.248587
5.548055 -5.940840 4.451194
6.897704 15.508744 0.248587
9.073024 13.354367 0.248587
-12.905948 1.198780 0.248587
8.900929 6.377575 0.248587
2.907841 -22.588353 4.451194
3.773202 6.094500 0.248587
-27.705069 -21.897614 0.248587
-20.663082 -31.628059 4.451194
23.097810 8.471623 1.938987
26.411514 24.168355 0.248587
7.416386 -14.895489 0.248587
-13.592075 -3.704397 0.248587
-1.320478 13.940342 4.451194
3.777918 -12.242593 0.248587
-23.783042 -18.320505 4.451194
-5.107138 -15.880042 0.248587
-5.041636 -17.996880 0.248587
-17.877871 -20.203837 0.248587
-8.370284 -11.645025 0.248587
-14.214409 -34.951248 3.416535
2.180336 19.460729 4.451194
-7.316219 -16.362365 0.248587
-22.750834 -14.360193 4.451194
23.445402 33.403197 0.248587
25.841452 14.694954 1.282293
16.767110 13.876755 0.248587
-24.484564 -11.103957 2.028654
-33.228095 -31.612224 1.196494
-14.993572 -1.257429 4.451194
-0.251663 11.989972 4.451194
-26.715575 -16.336872 2.567842
18.009309 -0.206010 0.248587
-3.951950 3.066296 4.451194
8.528623 -0.161759 0.248587
-4.167357 -22.580626 0.248587
-17.412204 -20.837108 0.248587
-1.281009 -18.113392 4.451194
-5.038983 12.048386 0.248587
-0.042118 -9.049033 4.451194
5.161973 -4.589042 0.248587
-8.699319 8.286407 0.248587
24.797458 12.326890 1.760016
24.158983 12.721706 4.451194
21.448127 13.132215 4.451194
-31.906352 -31.299255 0.248587
28.139838 30.299747 4.451194
-5.375877 29.812075 4.451194
12.272779 29.607141 4.451194
11.791171 -6.553802 0.248587
29.646135 23.325014 4.437131
-21.659320 -4.477246 3.325820
21.805738 22.654975 4.451194
22.481585 15.830852 4.451194
4.887614 -11.632764 0.248587
23.883125 14.894014 4.451194
-17.412330 -12.672923 0.248587
-8.814843 21.432404 4.451194
-0.614310 -15.398157 4.451194
11.957549 -3.597710 4.451194
23.008454 29.325105 4.451194
2.929743 -8.540922 0.248587
-8.449924 -4.431014 4.451194
18.636419 24.146022 0.248587
-7.290542 -26.204953 4.451194
4.387705 -6.054427 4.451194
-2.545223 12.374836 0.248587
4.804586 -13.511167 4.451194
18.661454 27.891932 0.248587
0.432887 34.094376 1.763241
-32.104273 -28.976259 1.215554
-30.912633 -26.181224 3.121046
-23.788291 -11.445401 4.451194
0.553414 0.610527 4.451194
12.443149 5.852153 0.248587
-10.325973 -19.894853 4.451194
11.474289 20.778729 4.451194
19.089330 13.914545 0.248587
-17.336039 -23.096245 0.248587
33.386239 31.808592 1.716511
-11.538549 17.557952 0.248587
-20.081260 -0.775850 3.687182
20.011190 28.605540 0.248587
-2.314810 21.367435 4.451194
1.587265 18.328263 0.248587
-21.712894 -4.602905 2.590981
-12.345738 17.368097 3.462682
-23.547140 -25.543601 0.248587
-4.665587 8.746612 4.451194
-1.996509 32.234779 0.248587
17.408958 30.474097 0.248587
-15.586500 -34.951248 2.813051
5.702489 31.107684 0.248587
13.439996 1.617777 4.451194
-30.624408 -25.505183 1.811063
5.915371 0.788795 4.451194
-20.170642 -9.173012 0.248587
0.870378 26.830231 4.451194
15.209093 29.470376 0.248587
-4.799009 -29.139910 4.451194
10.999033 -6.330923 4.451194
-4.469042 -19.365085 0.248587
8.630707 -24.343718 3.054921
-19.551738 0.466164 0.720839
-15.876506 -28.723131 0.248587
-11.494299 19.365178 1.182272
-14.533474 -34.951248 1.500245
-3.093224 34.094376 0.960827
14.945876 11.781826 0.248587
1.117555 17.122609 4.451194
15.749451 -0.575778 0.248587
-10.662744 -18.278291 4.451194
-4.027282 -16.026349 0.248587
-9.687933 -31.740959 0.248587
14.201167 13.085533 4.451194
-13.384931 -22.673790 4.451194
4.252019 1.285488 4.451194
-11.355978 13.181972 0.248587
-5.359678 -11.101464 4.451194
-1.826731 25.385448 4.451194
-13.577371 -27.891000 4.451194
21.411284 4.646123 1.245825
-22.256616 -29.865342 4.451194
-30.416941 -34.949559 4.451194
-25.077069 -30.977815 0.248587
-13.824687 -24.421482 4.451194
9.880258 23.615049 0.248587
-18.227660 -31.020573 4.451194
-12.530345 -4.054051 4.451194
15.432423 19.487451 0.248587
22.857624 10.460945 0.248587
-19.593330 -18.333719 0.248587
25.652851 34.094376 1.506510
20.084461 11.891410 4.451194
21.090285 12.311463 0.248587
13.108388 -14.187113 4.018307
-7.963447 -18.810201 4.451194
10.284381 5.323294 0.248587
-5.461996 -34.429427 4.451194
-2.328228 13.939853 0.248587
3.044482 12.035299 4.451194
29.580916 29.270507 0.248587
2.302437 27.020102 0.248587
5.865640 -4.542982 4.451194
9.165150 -23.131454 1.496244
-16.372868 -9.492369 4.451194
3.441891 0.508021 4.451194
13.361720 18.209099 0.248587
3.158441 -20.905287 0.248587
1.333134 21.613339 4.451194
13.688486 -12.871293 3.276170
10.759610 19.786932 4.451194
-21.679617 -9.131959 0.248587
9.861327 -10.048380 0.248587
11.287297 4.583824 4.451194
-15.595478 -33.450083 4.451194
16.442848 -1.047524 4.451194
7.362379 -27.220631 2.606011
-19.797632 -12.331149 0.248587
25.600744 17.664789 4.451194
6.343082 15.238224 4.451194
-3.379357 -2.288054 0.248587
-12.471120 -0.862044 4.451194
21.830321 13.946422 4.451194
15.131894 28.099363 0.248587
-12.343138 5.064238 4.451194
-1.382267 26.926116 0.248587
7.125419 27.530179 4.451194
7.109795 -4.588376 4.451194
16.130376 -7.332421 4.450420
-0.383419 7.072433 0.248587
-5.033961 10.393213 0.248587
0.420239 -34.518440 0.248587
-9.640786 10.785197 0.248587
-17.626924 -30.548236 4.451194
-8.182190 -33.522975 0.248587
-32.459891 -30.775056 4.451194
24.174178 28.982859 4.451194
-19.979491 -4.551564 0.248587
16.147957 31.207723 0.248587
-16.892039 6.704584 1.198888
0.256113 34.094376 3.817432
-15.968538 -34.677879 0.248587
-23.062300 -14.026708 0.248587
-29.783652 -34.951248 1.425170
-33.804770 -32.964836 2.142831
-6.112984 -16.746774 0.248587
-10.370999 -29.010568 4.451194
-15.633897 9.655600 3.836438
7.507129 8.299624 4.451194
-22.066252 -8.466779 0.248587
-14.572208 -21.803680 4.451194
-9.760885 16.502043 0.248587
-4.492155 12.508796 0.248587
-21.327207 -5.537789 0.248587
11.480426 21.543093 0.248587
13.012681 26.654543 0.248587
29.518123 23.034648 3.777373
-33.768770 -32.880396 3.090751
6.128907 11.109166 4.451194
-6.509067 -13.837612 4.451194
13.086101 32.832919 0.248587
-28.391129 -34.951248 1.383716
22.995626 13.005045 4.451194
3.498817 -8.421527 4.451194
-11.963854 -4.448938 4.451194
0.218486 7.479859 0.248587
-24.773778 -19.769188 0.248587
-8.116618 -16.259101 4.451194
2.271859 -7.819449 0.248587
5.123324 8.674916 4.451194
13.797712 10.713409 4.451194
-18.342313 -11.604673 4.451194
24.339232 23.145248 0.248587
-11.215760 19.424215 4.451194
27.688564 34.094376 2.564289
6.369542 -29.472658 2.810074
17.419318 10.702573 0.248587
-3.339310 5.348909 0.248587
23.188042 32.169793 0.248587
21.207878 15.119283 4.451194
-22.358870 -8.388579 4.451194
6.980676 6.491487 0.248587
-14.341948 -5.155035 0.248587
-10.714951 -20.894226 0.248587
-15.279687 10.486414 1.648394
3.190349 19.643602 0.248587
3.542313 25.642958 0.248587
-18.925570 -3.498469 0.248587
10.590680 -9.636052 0.248587
20.328167 8.629445 4.451194
0.363557 24.858025 4.451194
-19.745823 0.010929 3.559612
18.255847 34.094376 3.272277
-5.444771 -26.144472 4.451194
-8.575666 -1.916011 4.451194
19.990756 20.586841 4.451194
-26.730130 -22.937556 0.248587
-12.968176 -33.161656 4.451194
15.395944 26.539378 0.248587
-4.169620 21.035674 0.248587
29.236744 26.211894 4.451194
-9.770859 -2.473266 4.451194
1.727222 -15.935988 0.248587
15.823675 -2.198178 4.451194
7.893199 34.094376 2.679916
10.888618 2.893355 4.451194
-26.099602 -34.951248 4.407422
-18.998208 -23.493117 0.248587
16.796311 29.403092 0.248587
24.499220 12.125631 0.248587
-19.735102 -33.194712 0.248587
-3.867978 -23.934576 4.451194
12.126670 7.442023 4.451194
8.867934 -12.745028 4.451194
-14.083630 13.291808 0.583461
-4.600640 7.417828 4.451194
9.179028 23.727778 0.248587
-25.895753 -20.885595 0.248587
6.258919 9.272534 0.248587
-5.517874 -0.195119 0.248587
9.830062 -0.162444 0.248587
-11.300315 19.820173 0.363089
13.891661 26.073150 4.451194
5.934617 32.768878 0.248587
10.756990 -19.520727 0.511405
8.901330 28.392653 4.451194
-12.259612 7.247889 0.248587
6.010754 -28.330371 0.248587
-3.531674 23.673408 0.248587
-18.283524 3.440804 0.991686
5.603297 33.435448 0.248587
-1.657511 21.103929 0.248587
-16.361712 -14.325713 0.248587
7.520747 13.916554 0.248587
-14.364662 -19.470996 4.451194
15.381157 -9.031853 3.559843
-8.151022 12.597466 4.451194
16.552358 4.877146 0.248587
17.050365 10.067453 4.451194
-3.201343 -8.848592 0.248587
-29.199168 -29.361216 0.248587
19.549996 14.368199 0.248587
-7.529840 6.304294 0.248587
-6.185994 -33.241320 0.248587
-7.405227 -15.670320 0.248587
-22.252545 -34.951248 1.059260
16.654815 22.407317 4.451194
-8.294329 23.570561 4.451194
-13.145463 -14.214656 4.451194
-21.728645 -15.835800 0.248587
30.344869 34.094376 1.807888
4.444110 -3.647776 0.248587
-3.702976 32.959229 4.451194
-13.338517 -0.634247 0.248587
0.034692 -29.127685 4.451194
-15.186211 1.033047 0.248587
2.428469 17.316422 0.248587
-24.629324 -26.382155 4.451194
13.703742 12.647743 4.451194
-8.073933 -10.027529 0.248587
8.413813 34.024403 0.248587
0.816850 1.488846 0.248587
29.453208 28.505256 0.248587
-7.692518 -23.714198 4.451194
9.337679 -18.969147 0.248587
18.338641 31.371690 4.451194
13.846737 13.816642 4.451194
-22.942352 -28.725014 0.248587
28.911997 32.319702 4.451194
-11.515937 19.314423 2.612912
2.392690 15.018578 4.451194
2.192135 -18.011222 0.248587
4.149020 -13.635305 4.451194
9.570581 13.731219 4.451194
-29.805578 -34.951248 2.567197
0.938741 18.960384 4.451194
8.337477 -23.431633 4.451194
15.812287 18.853861 0.248587
-12.356291 15.610496 0.248587
-29.731578 -23.411016 0.435807
-3.097177 -10.677180 4.451194
7.167495 -27.662683 4.060915
15.446559 -3.222118 4.451194
-8.271445 26.881938 4.451194
-3.592947 22.356113 4.451194
-32.830264 -33.210041 4.451194
24.487841 15.629245 4.451194
-22.801832 -30.432243 4.451194
-14.191599 -6.053340 4.451194
-16.654389 7.262001 2.020790
5.197760 6.540536 4.451194
4.709517 17.400543 4.451194
-18.950417 -12.651570 0.248587
-12.956798 15.934833 0.659968
11.012601 -11.533934 4.451194
-27.065179 -33.988644 4.451194
-31.432795 -34.221393 0.248587
-17.471485 -27.789358 4.451194
-0.877797 -34.252613 0.248587
-11.167228 -7.775154 4.451194
-32.972945 -34.087803 4.451194
-18.090010 0.646610 4.451194
-8.027645 4.889012 4.451194
-11.868866 -8.235858 0.248587
18.198226 10.527646 0.248587
9.597068 18.999207 0.248587
31.317773 30.378605 4.451194
17.989375 21.101748 4.451194
-30.301769 -24.748420 0.998317
-17.581394 -13.286374 4.451194
9.670931 5.790132 0.248587
-20.106564 -5.347159 0.248587
-24.014358 -34.951248 2.464833
25.674281 34.094376 3.892115
-17.363756 4.052276 4.451194
1.681172 14.385465 4.451194
11.065624 29.808292 0.248587
-28.643398 -31.393011 4.451194
30.546785 32.334260 0.248587
-19.362592 -23.876017 4.451194
-9.091076 -31.180910 0.248587
-24.443409 -25.756483 4.451194
-1.832409 9.458273 0.248587
25.367557 22.212482 4.451194
4.605508 -12.166059 0.248587
-6.073945 -14.904903 0.248587
-8.925231 -13.869085 4.451194
23.903975 17.796957 0.248587
-18.979618 -34.951248 1.296217
1.233327 34.046563 4.451194
0.960435 -32.719160 0.248587
3.719736 16.540621 0.248587
14.297115 26.660929 4.451194
13.981398 -12.206890 2.915220
33.846544 34.094376 0.412331
23.658942 9.744425 3.237065
-0.901040 -9.154348 0.248587
-3.359794 26.379868 4.451194
0.092127 -11.373222 4.451194
22.833759 15.253678 4.451194
-11.750404 6.719974 0.248587
24.397761 34.094376 3.177914
14.839978 -2.024386 0.248587
-6.642393 21.204455 4.451194
-19.998207 -11.704847 0.248587
-5.237075 22.731218 4.451194
24.099253 12.835405 0.248587
-3.234437 5.307045 4.451194
14.113455 22.009604 0.248587
-7.160801 28.243995 0.248587
8.149609 -25.434979 4.344622
-4.813539 -31.086637 4.451194
24.732152 17.264540 0.248587
9.552467 -16.764333 4.451194
-7.666301 28.343883 0.983219
-22.553533 -20.158498 4.451194
11.667340 -17.455804 4.172167
-2.081260 -20.205973 4.451194
14.871524 1.673193 4.451194
-25.451668 -13.372333 3.811264
-17.937186 -7.960565 4.451194
-23.438411 -8.650168 0.953293
-7.117771 -20.149173 4.451194
-27.285274 -24.181848 4.451194
-12.862084 -13.026064 4.451194
-2.771189 5.738080 4.451194
14.891242 21.677034 4.451194
-11.869976 0.862613 0.248587
-25.387849 -32.388599 4.451194
-8.573952 17.192481 4.451194
-3.864452 -23.268035 0.248587
-17.605207 -32.707849 0.248587
-15.147061 -22.913565 4.451194
31.929556 30.686535 4.451194
-16.648335 -34.501012 0.248587
1.470468 -7.229473 4.451194
31.316861 27.114677 0.759191
26.129051 27.571326 0.248587
19.540321 34.094376 0.311219
-12.926281 13.706152 0.248587
11.999486 1.740682 4.451194
26.939754 17.186203 2.850331
4.840317 24.389697 4.451194
18.699025 23.414635 0.248587
10.412199 25.746681 4.451194
-14.623904 -18.152655 4.451194
-7.958177 8.072839 4.451194
14.102230 -2.273905 4.451194
-7.108478 -34.951248 1.143361
-9.765361 4.076201 0.248587
12.080211 6.516812 0.248587
11.405545 12.278650 4.451194
6.680942 19.899488 4.451194
-28.619113 -23.728025 4.451194
-16.983706 -1.977118 0.248587
-1.714914 21.553286 4.451194
7.544541 -5.953498 0.248587
10.401765 32.474191 4.451194
-10.905932 -8.348822 4.451194
24.997787 25.034706 4.451194
2.773104 34.094376 4.349896
-9.000896 -34.951248 2.672678
9.533727 9.721035 4.451194
11.634924 9.020818 0.248587
-25.901622 -22.058513 4.451194
-5.983928 -13.551143 0.248587
6.340971 -3.688504 0.248587
-28.844902 -25.169010 0.248587
-14.428234 -8.703133 0.248587
7.088913 34.094376 3.238161
-25.162334 -14.997071 4.451194
-6.816600 -5.479492 4.451194
-17.890566 -0.506978 4.451194
19.016996 2.302574 0.248587
-33.481179 -34.734921 0.248587
7.086784 13.391948 0.248587
4.798541 10.895725 4.451194
11.290899 17.104163 4.451194
5.897640 -15.177726 0.248587
27.627843 25.391360 4.451194
-4.165119 34.094376 3.839487
-11.482202 -9.321696 0.248587
15.100766 -9.313358 4.451194
0.020648 -10.522391 4.451194
-19.985752 -1.835190 0.248587
6.082098 20.492014 4.451194
-10.355056 18.064631 4.451194
14.667698 14.981594 0.248587
-16.152789 -13.229278 0.248587
-9.874244 2.169833 4.451194
-1.435878 32.717783 4.451194
-30.246022 -25.935464 4.451194
-7.291897 -31.361211 4.451194
-21.177319 -7.061625 0.248587
-12.376865 17.295086 2.754496
11.729010 28.289811 0.248587
4.670109 -20.198475 4.451194
6.164449 -24.752009 0.248587
19.441532 30.709931 0.248587
-2.055710 9.289313 4.451194
-13.751833 -11.812104 0.248587
19.014355 2.960985 0.248587
17.405138 -3.798005 4.451194
9.082091 26.169232 0.248587
-4.931274 -1.183030 0.248587
23.861440 20.109625 0.248587
11.060902 33.313142 0.248587
4.681901 28.809040 4.451194
11.040588 34.094376 0.952163
-2.934099 -32.187212 0.248587
4.032308 5.326719 0.248587
13.106782 16.729988 0.248587
3.806008 -0.305391 0.248587
13.365919 32.198521 0.248587
-2.516739 31.065873 4.451194
3.371401 -2.057605 0.248587
20.685150 20.464525 4.451194
15.919521 28.595682 4.451194
15.624209 7.441889 4.451194
-22.041525 -9.671694 0.248587
-13.756637 -16.685037 4.451194
-1.500625 8.206421 4.451194
18.374802 11.008988 4.451194
11.322449 0.875692 0.248587
-20.676094 -12.588667 4.451194
10.406839 12.236704 0.248587
9.155308 5.033135 0.248587
-10.639507 -13.307071 4.451194
0.861399 -25.939881 4.451194
-20.798141 -15.367413 0.248587
-22.222204 -33.804627 4.451194
-7.348389 -21.060242 0.248587
-5.091342 -27.029372 0.248587
25.378752 15.433842 4.451194
8.755468 7.920958 4.451194
25.252457 31.990484 4.451194
1.169256 5.857667 0.248587
7.169334 -26.144829 0.248587
14.528147 34.094376 3.027458
-7.200995 -22.152935 0.248587
-20.214707 -34.951248 3.728259
23.964186 25.033707 4.451194
-5.388581 9.716799 0.248587
12.832623 15.213233 0.248587
2.874595 -15.202674 0.248587
5.778530 -9.119795 4.451194
-14.970246 -30.767832 4.451194
-27.456481 -23.069242 4.451194
-0.369745 34.094376 3.649110
8.496054 -24.159229 4.451194
-6.144505 18.043745 0.248587
0.966359 9.730500 4.451194
-0.813963 22.321863 0.248587
27.899537 31.098905 4.451194
24.847432 29.076780 4.451194
0.484153 12.206691 4.451194
24.737640 21.742347 4.451194
5.787100 34.094376 3.189875
5.508539 -27.572955 0.248587
23.163725 25.008533 4.451194
1.237118 -9.305935 4.451194
0.953196 7.881906 4.451194
28.868506 30.656827 0.248587
-3.604031 -1.411463 4.451194
-6.061421 -24.330720 0.248587
11.199490 29.554153 4.451194
12.221190 23.890149 4.451194
22.853467 19.413131 4.451194
3.401261 -14.718345 0.248587
-2.948974 18.647014 0.248587
-6.146364 -8.806353 4.451194
10.576095 15.419926 0.248587
-17.529508 -3.157080 0.248587
-13.588911 -32.664007 0.248587
17.374588 -0.369768 4.451194
4.481417 -6.048138 0.248587
6.091083 34.094376 0.837845
-0.578486 24.080526 0.248587
0.303904 -20.786237 0.248587
2.063553 -30.109142 0.248587
-12.698649 -0.396333 0.248587
0.390239 27.499173 4.451194
2.846017 26.609148 4.451194
-0.342426 9.203830 4.451194
22.834891 34.094376 2.582444
-14.275974 12.840659 1.362698
-5.871523 11.664000 0.248587
-4.319901 -32.181955 0.248587
-26.847416 -18.322274 0.248587
-7.075862 25.773385 0.248587
13.220773 4.610250 0.248587
-21.821045 -17.745666 4.451194
-18.207709 0.616390 0.248587
16.396741 32.417132 4.451194
-21.611098 -7.547032 0.248587
-8.874343 -26.752540 4.451194
18.145907 1.184740 0.248587
22.812229 7.823849 0.333832
-3.111328 -4.188174 0.248587
-16.456157 -21.658226 4.451194
18.758785 -1.370471 3.136757
-3.741100 -18.402016 0.248587
-6.936957 19.145899 4.451194
-18.419965 -19.523531 4.451194
4.067550 7.979288 4.451194
-3.790497 -31.052756 0.248587
18.710206 9.075285 0.248587
22.337570 10.118103 0.248587
26.943073 25.334140 4.451194
-27.106316 -20.213919 4.451194
21.474942 28.313788 4.451194
-7.911302 22.852718 4.451194
27.965592 26.733850 4.451194
-26.599547 -16.064725 0.884205
4.685193 -4.955967 0.248587
-8.041327 27.464246 3.214823
-1.475487 -13.829005 4.451194
-4.683096 13.148358 4.451194
3.173900 31.661829 4.451194
5.735447 -10.578646 0.248587
7.130594 -10.861410 0.248587
-26.850736 -31.102702 0.248587
22.785815 27.400789 0.248587
3.597786 -13.478240 0.248587
-4.358943 -13.086446 4.451194
-17.506772 5.262704 1.476274
16.140141 -7.310269 3.603542
2.944376 -21.517221 4.451194
-24.477005 -31.353136 0.248587
30.221760 30.076390 0.248587
12.230154 15.585384 0.248587
-17.171581 -25.477670 4.451194
8.545190 31.170166 0.248587
-2.803570 26.140630 0.248587
17.388060 31.266374 4.451194
-18.529148 -16.820494 0.248587
-19.672699 -9.565533 0.248587
5.436538 -25.602964 4.451194
-3.174851 -21.388828 4.451194
-8.038054 -12.636234 4.451194
17.249172 10.768996 4.451194
5.436158 2.795941 4.451194
-0.800461 34.094376 0.909989
-21.867550 -20.228075 4.451194
-10.095660 -5.623561 4.451194
11.889677 14.326956 4.451194
15.814103 31.860541 4.451194
12.998550 -7.825023 4.451194
-10.176954 0.570173 4.451194
28.615954 28.499329 4.451194
-29.823899 -34.951248 0.758889
19.722486 23.337456 4.451194
-28.821375 -27.402809 4.451194
7.971151 -18.388244 0.248587
-7.297836 -24.362288 4.451194
-11.408236 10.710225 0.248587
19.992807 3.817556 4.451194
8.574280 2.301482 0.248587
-1.810066 -9.011280 4.451194
11.022140 28.916051 4.451194
-30.536727 -32.089140 4.451194
4.782075 -7.289356 0.248587
-1.911779 -10.213957 4.451194
-8.815297 -33.100008 0.248587
-3.009628 -21.029157 0.248587
6.603170 4.621107 0.248587
17.709473 2.379336 4.451194
1.387109 2.833894 4.451194
-13.826306 -24.696511 0.248587
-25.467529 -33.342037 4.451194
14.029891 34.094376 3.372497
-6.892333 -12.265306 4.451194
3.157580 20.989991 4.451194
18.785272 18.386240 0.248587
7.568930 -26.752117 1.831623
-11.498382 -30.492563 4.451194
-6.770907 -20.704753 4.451194
-3.262810 -26.205501 0.248587
-26.236444 -30.144325 0.248587
32.257845 31.281334 4.451194
11.389274 -8.964403 0.248587
33.642076 32.388900 3.195592
-3.113294 32.591746 4.451194
-11.672911 16.933199 0.248587
-13.899940 -3.829333 4.451194
5.895231 0.033609 0.248587
2.899867 13.952791 4.451194
-8.688055 16.805336 0.248587
-22.551972 -8.108881 0.248587
-16.422175 -4.176646 4.451194
9.487661 -10.104093 4.451194
-7.658660 -4.819346 4.451194
31.343934 27.176086 1.398384
-3.195111 -6.158486 0.248587
-1.573758 16.238034 4.451194
-13.304960 15.118207 2.919043
-12.281012 -10.566743 0.248587
8.571222 32.216197 4.451194
-10.706082 -0.670846 0.248587
-0.288627 -1.180321 0.248587
15.869141 -2.320759 0.248587
-3.211197 -9.960750 0.248587
16.872607 24.879220 0.248587
-16.251751 -13.567812 4.451194
0.123060 -20.114865 4.451194
-11.291324 16.794062 4.451194
19.033909 -0.746414 1.661317
2.149812 -17.431684 4.451194
-16.412347 7.829718 1.812170
31.122086 34.094376 2.134847
-2.483576 -7.291871 4.451194
-2.409663 -17.478422 0.248587
6.267262 25.146761 0.248587
-0.183725 -9.291913 0.248587
-13.959090 13.583921 3.500398
-7.783763 -16.825636 0.248587
-21.195746 -8.871729 4.451194
8.826971 3.206629 4.451194
17.041798 30.759895 4.451194
-7.768640 -21.568641 0.248587
9.036946 33.871702 0.248587
15.679303 29.407864 4.451194
-18.930221 -19.280576 0.248587
11.127282 -18.680805 2.124138
16.282973 2.855551 4.451194
8.811460 33.247115 4.451194
-13.767811 -34.951248 2.832785
-0.703438 -19.573446 4.451194
-2.377516 26.924505 0.248587
-0.686560 8.126003 0.248587
18.209854 22.658185 4.451194
1.705138 -31.927784 0.248587
9.043903 31.672516 0.248587
-18.965279 -27.234430 4.451194
-27.776680 -18.825733 0.387114
-7.152407 2.208455 4.451194
11.987628 11.357858 4.451194
-18.205370 -24.191608 0.248587
0.821744 -19.599605 0.248587
26.221837 30.066966 0.248587
1.297218 31.217645 4.451194
0.851208 31.770072 0.248587
-18.698743 1.233839 0.248587
12.810995 19.593007 4.451194
-20.154987 -30.514233 4.451194
-17.848285 4.411359 4.451194
28.483862 20.688661 0.259202
-0.753456 -34.951248 1.001440
6.719194 14.853707 0.248587
4.922831 5.164711 4.451194
4.468887 20.088755 0.248587
7.722548 18.990004 0.248587
14.190425 21.304012 0.248587
6.358407 33.206480 0.248587
28.924605 21.688387 0.923503
12.309019 -8.333143 4.451194
-7.185092 -29.809355 4.451194
-4.664168 -28.374925 4.451194
-6.303225 8.010231 4.451194
1.769506 23.448558 4.451194
28.241105 25.474412 4.451194
0.919637 -21.467876 4.451194
-13.794118 13.970869 1.698599
17.239642 7.615132 0.248587
-0.434159 28.369925 4.451194
-14.840030 -2.655029 4.451194
9.206679 -3.650714 4.451194
-0.244284 9.956468 0.248587
-20.674557 -4.317080 0.248587
-7.067465 4.534387 0.248587
-3.132288 -3.132928 4.451194
21.795393 7.236505 0.248587
-2.521005 15.474758 0.248587
30.232927 33.662679 0.248587
-10.192704 -29.639166 4.451194
-4.492798 34.094376 1.296513
-4.664024 -16.841158 4.451194
-2.145058 -6.748477 4.451194
32.019038 28.707406 2.519893
-18.862449 -2.740249 0.248587
-10.656209 -22.850996 4.451194
-6.322756 7.881951 0.248587
-5.760738 -6.765886 0.248587
-20.622349 -32.698131 4.451194
-13.059115 15.694844 1.811227
-12.804366 3.859796 0.248587
16.321834 -3.264892 4.451194
6.122281 -21.734984 4.451194
-2.551781 -31.774026 4.451194
-11.955819 -16.043015 4.451194
9.176616 -2.876161 4.451194
-5.333345 23.556845 4.451194
2.290706 20.586172 4.451194
-1.703396 -14.568808 4.451194
0.714029 28.660745 4.451194
-21.295472 -3.933952 0.248587
10.435882 9.046796 0.248587
7.685659 -6.833025 0.248587
15.355897 -1.076171 0.248587
28.502281 32.728602 0.248587
-5.298630 -34.951248 4.057968
3.962236 -27.538702 4.451194
11.142259 26.727544 0.248587
5.630878 -15.095657 4.451194
4.040694 2.687124 4.451194
0.915818 32.519301 0.248587
-18.677297 -8.802444 0.248587
21.707779 9.858647 0.248587
2.942017 0.847459 4.451194
-18.610682 -4.194899 4.451194
24.651072 26.881009 4.451194
-2.870791 -11.334878 0.248587
-13.909714 -14.242698 4.451194
3.259834 25.951925 4.451194
-8.383635 14.551109 4.451194
-13.796004 13.966444 2.912151
-25.698122 -13.950400 3.082476
-10.114068 4.022761 4.451194
-1.401773 -26.934143 0.248587
1.727868 13.435616 0.248587
-1.902414 14.758192 4.451194
0.415628 -26.288248 0.248587
7.073250 17.889539 0.248587
-3.930151 1.037882 0.248587
-11.680539 18.928343 3.420978
6.147027 -9.834287 4.451194
25.700186 25.495005 4.451194
-11.036592 -21.840954 4.451194
31.307785 27.094090 4.264808
3.087001 -14.028416 0.248587
8.572738 0.244633 4.451194
-12.331660 -14.675717 0.248587
6.915665 -6.101221 4.451194
-6.406730 -1.247224 0.248587
0.048609 -13.518854 0.248587
-2.029282 30.613570 4.451194
24.008430 21.221541 4.451194
-6.264284 -2.379003 4.451194
-7.854365 26.061479 4.451194
-13.055493 15.214934 0.248587
-0.746376 17.722441 4.451194
-9.326565 4.543069 4.451194
10.799632 -1.292563 0.248587
-32.941634 -30.940319 3.264957
-22.353656 -6.105835 3.895825
0.724800 -33.545744 0.248587
-2.702184 -4.894966 0.248587
-14.043706 11.194420 0.248587
-10.810812 10.825867 4.451194
9.238779 -0.435748 0.248587
-2.111902 -8.335405 4.451194
12.060484 2.700046 0.248587
-13.839155 -22.743273 0.248587
0.262764 -12.275193 0.248587
-26.851739 -27.426548 4.451194
-15.495756 -9.929048 0.248587
-3.690887 34.094376 3.177977
-23.027505 -27.346961 0.248587
-2.255409 -34.951248 1.288066
21.559450 5.252779 0.248587
14.840835 21.456919 0.248587
15.918490 4.410919 4.451194
16.649056 -2.569056 0.248587
-18.655774 -27.851396 0.248587
4.684438 23.172199 0.248587
-21.453573 -33.744273 4.451194
8.133962 34.094376 3.554102
20.552331 13.720451 0.248587
18.752017 -1.385821 2.365797
-1.596658 -31.377957 0.248587
8.590431 7.109016 0.248587
-1.374111 -33.813014 4.451194
1.301908 -12.051008 0.248587
-12.487812 -26.192759 4.451194
-0.079910 -9.794212 4.451194
-1.209923 -12.388727 4.451194
0.779822 -24.540605 4.451194
6.084598 13.895763 4.451194
-25.855057 -14.318497 1.306401
-3.891427 10.593533 0.248587
-26.547142 -23.949491 4.451194
-27.896087 -34.951248 2.588596
-25.566699 -13.642143 2.364653
9.157131 5.496148 4.451194
16.010974 20.489366 4.451194
14.195926 1.590022 4.451194
-17.165148 6.063997 2.810121
-7.006242 -7.732416 0.248587
9.755227 31.913840 0.248587
20.090622 26.735286 4.451194
5.449465 -31.559644 0.450308
20.818372 34.094376 3.716714
11.147894 -13.505156 0.248587
-34.307172 -34.143236 2.925974
-19.014424 -8.205999 0.248587
4.857734 -16.777269 4.451194
8.941416 -13.719825 0.248587
-4.700051 20.945181 4.451194
-11.974268 -24.526007 0.248587
-13.933774 -11.115197 0.248587
-7.543947 0.034700 4.451194
30.906025 26.182789 2.934543
-7.356218 -29.879706 0.248587
-10.571111 19.004938 4.451194
-3.613784 -19.932376 4.451194
2.176279 24.958146 0.248587
25.913889 32.173463 4.451194
-8.716145 -1.385215 0.248587
-7.798205 -28.358632 0.248587
2.140525 -12.119881 4.451194
18.886289 13.039217 4.451194
16.401790 11.825832 0.248587
0.253916 -4.677358 0.248587
2.207058 -6.835288 4.451194
8.012131 9.867029 0.248587
9.677744 1.549515 4.451194
-7.469081 26.416549 0.248587
9.392819 10.336906 0.248587
11.392845 -18.078435 0.774513
-13.027064 -14.569778 0.248587
-3.612378 -34.064407 4.451194
-11.108118 -25.576281 4.451194
-3.752574 -4.616475 0.248587
7.191891 29.700967 4.451194
6.355266 -24.566998 4.451194
-21.133012 -28.594782 4.451194
18.693966 5.687604 4.451194
1.675131 -24.927578 0.248587
-25.171142 -12.714350 3.515794
-15.756018 2.795974 0.248587
13.412441 2.147899 0.248587
10.902409 18.981118 0.248587
-2.968618 -5.941107 4.451194
-17.720670 -23.559966 4.451194
30.131599 24.621626 0.248587
-23.373157 -32.365595 4.451194
-10.800178 10.055669 4.451194
-17.950476 -20.207521 4.451194
-21.298114 -34.951248 0.330383
8.054906 -10.387786 4.451194
5.884350 -14.315884 0.248587
25.271603 13.402380 0.833982
9.043930 24.030497 4.451194
-13.959013 -33.512146 0.248587
6.985517 32.763087 0.248587
21.700349 11.665305 0.248587
8.985631 14.229424 4.451194
-10.874128 19.151948 0.248587
-15.777435 -23.437065 0.248587
21.852621 11.623537 4.451194
-1.384611 34.094376 1.457182
-6.312584 7.207246 0.248587
25.102049 13.017786 3.617448
-12.926158 8.993157 0.248587
-25.610101 -23.034539 4.451194
-23.673226 -10.083947 0.248587
13.326535 2.791299 4.451194
-3.488056 20.180169 0.248587
19.766949 27.426111 4.451194
-6.487451 -0.264466 4.451194
-33.325289 -31.840195 4.039179
-22.530495 -6.520619 4.418131
26.563799 28.114625 4.451194
-16.178995 1.432932 4.451194
-12.004335 -21.542848 0.248587
-27.167764 -23.486396 0.248587
-22.624948 -15.237384 0.248587
17.545844 22.399860 4.451194
11.125123 -2.406791 4.451194
14.138499 24.471619 4.451194
7.129799 0.151780 0.248587
-6.974672 27.160050 4.451194
0.714248 26.119324 4.451194
3.859954 -6.761834 0.248587
-8.829767 -34.951248 3.302124
18.137246 15.837550 0.248587
27.393288 21.870122 0.248587
-3.007761 -2.343196 4.451194
-8.510314 -12.380843 0.248587
9.972445 0.876887 4.451194
-3.491592 -16.400367 4.451194
-8.853593 18.516086 4.451194
15.860079 -3.853488 4.451194
-12.664105 5.952916 0.248587
-1.666335 27.457160 4.451194
8.433607 -5.044317 4.451194
-3.799087 -26.134573 4.451194
3.055512 27.567436 4.451194
-7.692521 27.218791 4.451194
0.578776 -10.967004 4.451194
-9.814448 9.064642 4.451194
-1.088016 19.837322 0.248587
12.572498 11.705028 0.248587
1.686099 -22.235717 4.451194
-9.512827 18.268989 4.451194
25.425268 13.750935 3.248543
20.016638 16.642934 4.451194
-17.807738 -16.551772 4.451194
-18.767687 -5.763109 0.248587
-24.878232 -23.617240 0.248587
-7.522084 28.682150 2.980829
-0.383484 -21.118328 0.248587
-23.845324 -9.604596 0.986375
6.730132 30.620601 4.451194
14.069699 15.335281 0.248587
24.481302 18.332472 0.248587
6.590852 17.164604 4.451194
23.069680 10.354296 4.451194
19.959982 26.771398 0.248587
10.172518 -7.415923 0.248587
4.299893 6.526754 0.248587
5.308351 1.502012 4.451194
14.955678 34.094376 3.833365
-16.004594 6.899719 0.248587
-26.751955 -16.422205 3.239893
-10.300919 -31.794986 0.248587
-11.631849 1.949920 4.451194
3.603132 18.563957 0.248587
-0.389293 -0.513152 4.451194
-1.605472 34.059857 4.451194
