0.375251 0.293718 0.150752
-0.071411 0.284225 0.052225
0.084701 0.169536 0.158038
0.080729 0.060632 0.048520
0.267647 0.293493 0.231818
-0.152422 -0.110125 0.128490
0.361879 0.167680 0.072577
0.128344 0.146721 0.251847
-0.355517 -0.157084 0.096159
-0.030645 0.303313 0.113031
0.452850 -0.110231 0.251847
-0.125978 -0.143951 0.251847
-0.066668 -0.073644 0.085703
0.021397 -0.284430 0.056676
0.409786 0.288097 0.241667
0.205831 -0.198497 0.251847
0.219646 0.257499 0.251847
-0.113913 0.329710 0.113276
-0.118315 0.414493 0.231818
-0.264650 -0.010839 -0.045565
-0.071073 0.351413 0.047060
-0.325055 0.365888 -0.085015
0.099402 -0.017481 0.015708
-0.007318 0.259012 0.000675
-0.096228 -0.325568 0.251847
-0.324040 -0.235015 0.251847
-0.412216 -0.281606 -0.028529
0.076691 -0.065153 0.031039
0.423862 -0.114284 0.251847
-0.177875 0.061317 -0.125146
-0.078979 0.060613 0.074362
-0.202172 0.009097 0.025119
-0.036710 -0.184937 0.032773
-0.186693 -0.135147 0.251847
0.263626 0.025823 -0.202146
-0.326173 -0.111590 0.044998
-0.144753 0.062815 0.251847
0.102745 0.159314 0.139084
-0.374620 -0.286820 0.026104
0.319015 0.042442 -0.023765
-0.337447 -0.329316 0.231818
-0.009419 -0.197253 0.005870
-0.426648 -0.111963 0.231818
0.368751 0.021169 0.251847
-0.090626 -0.165014 0.133354
0.399918 0.073480 0.251847
0.165338 0.093229 0.006604
-0.048636 0.182456 -0.048754
0.330034 0.114641 -0.055015
0.126367 0.202375 0.251847
0.056407 0.235885 0.251847
-0.088298 -0.241283 0.231818
-0.399104 0.043165 0.231818
-0.343835 -0.112378 0.251847
-0.051360 0.181736 -0.115434
0.100490 -0.070641 -0.202146
-0.293382 -0.269952 0.251847
-0.080367 0.359673 0.068429
-0.305946 0.395174 -0.034793
0.100811 0.283981 0.231818
-0.381575 -0.322001 0.070732
-0.150095 0.113779 -0.073569
0.171752 -0.409391 0.020718
-0.145870 -0.036424 0.251847
0.054270 -0.084431 -0.056363
-0.151714 -0.111113 0.119242
-0.357628 -0.161728 -0.106961
-0.170941 0.078787 0.145573
0.085101 -0.053857 -0.106914
-0.364433 -0.088079 -0.002686
0.049362 -0.182253 0.147057
0.381137 -0.015918 0.251847
-0.378645 -0.325460 0.102307
-0.345502 -0.165198 0.251847
0.294099 -0.111641 0.251847
0.338493 -0.368759 0.125604
0.089670 -0.166493 0.122224
0.261385 -0.422273 -0.042375
0.289542 0.075931 -0.105590
0.191818 0.192960 0.251847
0.217894 0.208972 0.251847
-0.198976 0.178577 0.231818
-0.091602 -0.038091 -0.004906
0.276309 -0.040374 0.251847
0.430105 0.002685 0.231818
-0.041356 0.213191 -0.103811
-0.086895 -0.047875 0.098475
0.000565 0.237306 0.026249
-0.341442 0.230309 0.231818
-0.076043 0.172781 0.000276
0.384994 0.115623 -0.072514
0.410235 0.287635 0.144942
-0.402806 -0.295022 0.103409
0.317506 0.100453 -0.058637
0.176746 0.069181 0.126973
-0.060383 0.152736 -0.202146
0.123831 0.321921 0.231818
0.116095 0.149979 0.057103
0.180050 -0.084001 0.251847
-0.100566 -0.159108 0.135821
0.204501 0.039683 -0.037832
0.156460 0.107421 -0.087065
0.387210 0.317850 -0.122286
-0.173368 0.138855 0.251847
-0.360303 -0.083112 0.151341
-0.471388 0.081172 0.231818
0.177110 -0.411038 -0.041174
-0.041382 0.213389 -0.072131
-0.412012 -0.281909 0.007780
0.056769 0.330298 0.251847
0.276683 -0.091219 0.251847
0.342532 -0.364942 0.128809
-0.336090 0.369843 0.019170
0.154357 0.110358 0.122051
-0.059543 -0.230191 0.251847
0.113457 -0.151478 -0.128322
-0.179551 0.366134 0.116064
0.288938 -0.178881 0.251847
-0.384708 -0.318249 0.153865
0.152415 -0.112542 -0.125954
-0.363872 0.159520 0.231818
-0.370755 -0.096424 -0.026734
-0.298393 -0.220255 0.251847
0.054608 0.084693 -0.111459
-0.451210 0.058893 0.251847
-0.330989 0.363751 0.070673
-0.214545 0.242100 0.251847
-0.160892 0.473430 0.240648
-0.155770 0.404744 -0.046865
-0.342591 -0.063813 0.034799
0.416754 0.193738 0.137278
-0.036526 0.311928 -0.057968
-0.075073 0.289257 -0.084471
0.071918 0.495249 0.247260
-0.374463 -0.217541 -0.104842
0.212188 0.257706 0.251847
-0.205851 0.294987 0.251847
0.121122 0.145927 -0.009586
0.079492 0.172030 -0.069409
-0.421375 -0.238774 -0.114774
0.072212 0.175148 -0.096703
-0.165165 -0.089820 0.145348
-0.089610 0.112040 -0.202146
-0.151711 0.282289 0.251847
-0.162803 0.087455 0.251847
-0.297143 0.071964 0.231818
-0.376982 -0.105249 -0.023539
0.133647 0.217122 0.231818
-0.136170 -0.129776 0.145924
0.220226 0.245185 0.231818
-0.299641 0.399944 0.143608
0.165413 -0.092558 0.146643
0.289461 -0.210539 0.251847
-0.297342 -0.256077 0.251847
-0.042247 0.319612 0.025952
0.249910 0.285850 0.251847
0.163542 0.216599 0.251847
-0.016126 -0.098420 -0.023578
-0.212630 -0.224664 0.251847
0.179834 -0.411875 -0.103446
-0.179736 -0.342524 0.231818
0.047807 0.088666 0.025215
0.260588 -0.422287 -0.094787
0.367539 0.323374 0.095928
-0.097128 -0.359208 0.251847
0.164689 0.300099 0.251847
0.478779 0.092079 0.231818
0.242676 -0.422187 -0.064677
0.171262 -0.217111 0.231818
-0.203038 -0.062619 0.251847
0.111064 0.153686 -0.089652
-0.066838 0.386633 0.251847
-0.184983 0.034067 -0.074565
0.260398 0.057722 -0.010435
0.291519 -0.151533 0.231818
-0.163255 -0.271626 0.231818
-0.380790 0.017275 0.231818
0.029301 -0.461473 0.231818
-0.109059 0.153844 0.119115
0.048217 0.313538 0.231818
-0.404562 0.189789 0.231818
-0.397613 0.077138 0.251847
0.315164 0.005035 0.251847
-0.196445 0.416964 -0.074676
-0.035817 0.310975 -0.059791
-0.239862 0.230941 0.251847
-0.076029 0.290572 -0.100526
0.152874 0.112428 0.135453
-0.420953 -0.231848 0.006504
0.019612 -0.098090 -0.093505
-0.441749 -0.150095 0.251847
-0.098221 0.014403 -0.011039
0.402690 0.150085 -0.100365
-0.267506 -0.062130 -0.116095
-0.258648 -0.057251 0.012058
0.327166 0.111126 0.145851
-0.057445 0.179968 0.079492
0.245862 -0.140824 0.231818
0.347378 -0.360361 0.240004
-0.317268 0.156431 0.251847
-0.145626 0.119507 0.086220
-0.092423 -0.036011 -0.122961
-0.097327 -0.019127 -0.071467
0.155057 0.243837 0.231818
-0.200446 -0.042456 -0.035407
-0.165594 -0.023150 -0.202146
-0.099021 -0.005998 0.141091
0.060761 0.105055 -0.202146
-0.205635 0.233813 0.231818
-0.295539 0.403047 0.032207
0.281031 -0.413998 -0.069221
-0.194405 -0.042096 -0.123614
-0.314409 -0.098598 0.107112
-0.381374 0.065567 0.251847
0.095657 0.163664 -0.024652
-0.379693 -0.324228 0.146034
0.156293 0.182260 0.231818
-0.108139 0.325000 -0.014923
0.097423 0.026726 0.034194
-0.106048 0.063347 0.251847
-0.346378 -0.140043 0.043812
0.284800 -0.411459 -0.011980
0.359147 -0.134527 0.231818
-0.374055 -0.290034 0.122392
-0.180405 -0.052806 0.142312
0.057654 -0.296402 0.251847
-0.185814 0.029292 -0.031299
-0.298188 0.401043 -0.120224
0.094683 0.352782 0.231818
-0.005994 -0.210476 0.088859
0.237244 -0.421856 0.088091
-0.365781 -0.339847 -0.035695
0.420532 0.272353 0.074326
0.418806 -0.040040 0.251847
0.315057 0.097928 0.100546
-0.283504 -0.020130 -0.074661
-0.098277 0.013961 0.069360
0.289063 -0.177591 0.251847
0.104792 -0.376513 -0.033469
0.186247 -0.036187 0.065619
-0.079746 -0.059084 -0.058288
-0.147820 0.222541 0.251847
-0.039745 0.316251 0.130692
-0.266139 -0.128768 0.231818
-0.262367 0.066171 0.251847
0.465020 0.186242 0.245225
-0.358385 -0.163393 0.140850
0.289338 -0.230828 0.251847
0.387633 0.214411 0.251847
-0.088499 -0.232091 0.231818
0.303021 0.048852 0.251847
-0.387812 0.044638 0.231818
-0.167997 0.084937 -0.040768
0.251602 -0.422450 0.065315
-0.055319 -0.180138 -0.098857
-0.350000 -0.071413 0.068825
0.100976 -0.000564 0.146945
0.099839 0.304384 0.231818
0.353371 0.273956 0.231818
0.338555 0.257128 0.231818
-0.066497 -0.153933 0.251847
0.402617 0.298076 -0.027629
0.136214 -0.131560 -0.088009
-0.427342 -0.110712 0.231818
-0.374135 -0.215620 0.089975
0.278307 -0.415834 0.065664
0.148608 -0.211072 0.251847
0.421167 -0.147784 0.231818
0.191565 0.189379 0.251847
-0.233902 0.422236 0.146608
0.422450 -0.155527 0.231818
-0.404225 -0.293147 0.116899
-0.136339 0.411966 0.231818
0.371530 0.196114 0.071132
0.122841 0.357451 0.231818
-0.039852 0.201669 0.142275
0.384836 -0.104465 0.231818
0.088802 -0.259507 0.231818
-0.083607 -0.145795 -0.202146
-0.181296 -0.049436 0.090115
-0.316871 0.386450 0.102929
0.005499 0.100243 0.049326
-0.086236 0.303117 -0.127538
-0.323565 -0.197952 0.251847
-0.029497 0.426718 0.251847
-0.313488 -0.039162 -0.110978
-0.341307 0.364912 0.073017
-0.145233 0.350779 0.093760
-0.177122 0.133403 0.251847
0.183457 0.048393 -0.107003
0.010845 0.199016 -0.064853
-0.283969 0.411309 -0.022717
-0.274915 -0.272699 0.231818
-0.160082 0.358290 -0.090243
0.400592 -0.126360 0.251847
-0.245155 -0.259806 0.231818
-0.173105 0.073861 -0.046559
-0.094784 0.029735 -0.118288
-0.272781 0.377397 0.135970
0.018990 0.214446 0.251847
0.288513 0.075183 -0.097569
0.127752 -0.139723 0.043798
0.186917 -0.032711 0.084831
-0.119032 0.387038 -0.034268
-0.176429 0.290947 0.231818
-0.181087 0.050853 -0.054536
0.210574 -0.006900 0.087031
-0.124139 0.213447 0.231818
-0.018504 0.098442 0.156156
-0.101192 0.044215 -0.202146
-0.156563 0.311463 0.251847
0.082384 -0.432777 0.231818
-0.068220 0.232710 0.231818
0.165201 0.210408 0.251847
-0.029758 0.095530 0.149389
-0.066658 -0.164816 0.251847
-0.211514 0.374661 -0.105671
0.107721 0.004710 0.251847
-0.124762 -0.318608 0.251847
-0.031920 -0.185828 -0.104197
-0.187462 0.014428 0.147621
-0.091060 0.356172 0.251847
-0.011274 0.203784 0.251847
-0.448215 -0.001667 0.231818
0.397538 0.138781 0.159277
-0.160118 -0.138601 0.251847
0.099028 -0.161174 0.109243
-0.201661 -0.042528 -0.114303
-0.265954 -0.011394 -0.033330
-0.305049 0.371908 -0.124492
0.377248 0.329685 0.129108
-0.041791 -0.090307 -0.107863
-0.174607 -0.069680 0.155437
0.421686 0.221739 0.067888
0.352727 0.148672 -0.124331
0.078427 -0.063057 -0.039396
-0.376144 -0.328366 -0.102033
-0.421119 -0.234571 0.140334
0.132455 0.274743 0.251847
-0.360625 0.073845 0.251847
0.258483 -0.412362 -0.202146
0.065198 -0.225614 0.231818
-0.420924 0.159339 0.231818
-0.357470 -0.079705 -0.056765
0.327344 -0.378598 -0.021688
-0.369438 -0.310774 -0.083611
-0.425379 -0.147690 0.231818
0.358109 0.159390 -0.127802
0.159833 0.217077 0.231818
-0.339313 -0.235604 0.251847
-0.094111 0.031801 0.126540
-0.177971 0.240767 0.251847
-0.070742 0.070189 0.165234
0.025046 -0.290901 0.251847
-0.404195 0.118567 0.251847
0.462769 -0.076693 0.231818
0.359337 0.344050 0.124570
0.262007 -0.397219 -0.202146
-0.028524 0.299936 -0.088604
-0.044447 -0.183064 0.130237
-0.163168 -0.258802 0.231818
0.151101 -0.114325 -0.104632
0.166410 -0.090772 0.116234
-0.356298 -0.078294 -0.034968
-0.155289 0.214835 0.231818
-0.071218 -0.069209 -0.074897
-0.455375 0.022003 0.251847
-0.207836 0.052178 0.251847
0.264443 -0.116219 0.251847
-0.419356 -0.217220 0.148154
0.492821 0.037947 0.251847
-0.051323 -0.085185 0.092204
-0.386370 -0.120433 0.126696
0.030352 -0.299567 0.085458
-0.402498 -0.295430 0.118312
-0.102013 0.158683 -0.101324
-0.334407 0.098976 0.251847
0.243224 0.437603 0.235764
-0.376027 -0.228622 0.098965
0.130675 0.077426 0.251847
-0.272183 0.419250 0.156526
-0.068011 0.072857 -0.110322
0.061742 0.346727 0.231818
0.358929 0.161194 -0.121576
0.041704 -0.316042 0.117187
0.189354 0.242023 0.251847
0.372359 0.193854 0.251847
-0.204401 0.227945 0.251847
0.234904 0.046484 0.018493
0.477810 0.046210 0.231818
0.347301 0.238978 0.231818
-0.300960 0.118012 0.231818
-0.236104 0.422370 -0.117064
-0.088354 0.305557 -0.049200
0.043005 -0.317789 0.052738
-0.047220 0.182830 0.091668
0.435149 -0.058875 0.251847
-0.160696 0.358569 -0.081908
0.237292 -0.277194 0.231818
0.343519 0.133113 -0.113802
-0.088284 0.208032 0.231818
-0.098450 0.012596 -0.090962
-0.271189 -0.265273 0.251847
-0.064905 -0.416922 0.231818
-0.300776 -0.123151 0.251847
0.006144 0.217171 0.132841
0.102390 -0.222303 0.231818
-0.214383 -0.043286 0.120456
0.168808 0.086816 -0.121854
-0.097432 0.315018 -0.117988
-0.330310 -0.116662 -0.021805
-0.023364 0.097356 -0.057989
-0.183664 -0.378026 0.231818
-0.274279 0.417838 0.042186
0.378696 0.266479 0.135352
-0.039791 0.229937 -0.202146
0.223340 -0.205969 0.231818
0.005362 0.220188 0.118631
0.318341 0.041941 -0.058382
0.246330 0.003366 -0.115570
-0.360946 -0.083886 0.084020
-0.053789 0.333555 0.106719
0.022038 -0.285655 0.072613
-0.326832 -0.183878 0.231818
-0.287877 0.385227 -0.202146
-0.318399 0.385156 0.026999
-0.129543 0.341205 0.095616
0.375721 0.101444 -0.110863
-0.188523 -0.205451 0.251847
-0.182726 0.454330 0.231818
0.213091 -0.252272 0.251847
0.243572 -0.217024 0.231818
-0.288562 -0.076023 -0.126107
-0.373303 -0.210749 0.057806
0.159928 0.234252 0.231818
0.030140 -0.415808 0.251847
0.017014 0.188454 0.091764
0.129776 0.255698 0.251847
-0.210107 0.434281 0.231818
0.088024 -0.049021 0.041168
0.312859 0.095662 -0.011562
-0.181416 -0.048979 0.095837
-0.374150 -0.215709 0.138451
-0.171398 -0.077257 -0.067600
-0.099651 0.339785 0.251847
0.012115 -0.099233 -0.114527
0.233813 0.288619 0.231818
0.468595 0.007852 0.251847
0.398203 0.140136 0.084129
0.415771 0.189320 -0.118207
-0.051818 -0.084871 0.148651
0.476183 0.078190 0.251847
0.154133 -0.110211 0.044680
-0.242121 -0.184202 0.251847
0.013575 0.128305 -0.202146
0.000096 0.213847 0.251847
-0.053128 0.375777 0.231818
-0.426507 -0.047184 0.231818
0.359171 0.161726 -0.108429
0.420327 0.272656 -0.029345
0.078584 -0.201332 0.231818
0.269338 -0.158828 0.251847
-0.455520 -0.090585 0.231818
-0.037099 0.108857 -0.202146
-0.126078 0.140119 0.037237
-0.370168 -0.197165 0.137301
0.335927 -0.127543 0.251847
0.080781 -0.060079 0.136950
-0.057937 -0.080754 -0.077634
-0.039633 0.199984 0.091129
0.371169 0.066387 0.251847
-0.421730 -0.254776 0.119013
0.326846 0.110733 0.108922
0.325840 0.109500 0.098699
-0.360787 0.033220 0.251847
-0.421795 -0.251169 -0.018377
0.279208 -0.415227 -0.093665
0.100976 -0.000213 0.120654
-0.360697 -0.083585 0.157491
0.058490 0.180146 0.005632
-0.173987 -0.071277 -0.000746
0.084264 -0.055174 0.129884
0.188655 -0.020696 0.079864
-0.295513 0.253148 0.251847
-0.296662 -0.320814 0.231818
0.038162 0.287056 0.231818
-0.045935 0.183169 0.051330
-0.358977 -0.081517 -0.010542
-0.148798 0.401981 0.149869
-0.211699 0.006629 -0.083570
-0.188609 -0.364451 0.231818
0.351209 -0.355217 -0.014260
-0.275437 -0.257536 0.231818
0.423324 0.242330 0.142861
-0.324536 -0.109583 -0.016059
-0.363674 -0.153866 0.251847
0.030597 0.354588 0.251847
-0.123741 0.241756 0.251847
-0.303744 -0.032261 -0.000684
0.426900 0.138110 0.231818
-0.342097 0.364166 0.121588
0.346185 0.112861 0.251847
0.057777 0.180383 -0.007375
0.201170 0.039043 -0.109153
0.151387 -0.401833 0.098083
-0.039965 0.389633 0.251847
0.078228 -0.159624 0.251847
0.161121 -0.370706 -0.202146
0.368132 0.184490 -0.102776
-0.194743 -0.042116 -0.114445
0.405229 -0.191263 0.231818
0.135573 0.274507 0.251847
0.381483 -0.195908 0.251847
0.099962 0.014577 0.012023
-0.383714 -0.115955 -0.087010
-0.371063 -0.200595 0.001715
-0.275077 -0.296855 0.231818
-0.101607 -0.047551 -0.202146
-0.252852 -0.122377 0.231818
0.047652 0.088751 -0.007067
-0.127722 -0.150951 0.251847
0.092970 0.408913 0.251847
-0.340178 0.208067 0.251847
-0.369898 -0.095209 0.055551
0.114895 -0.254507 0.251847
-0.235758 0.000067 0.023626
0.209936 -0.007066 0.091840
0.369699 0.338041 -0.049557
0.010452 -0.261758 0.158021
-0.047199 -0.087555 0.103065
-0.065513 0.345993 0.157334
-0.287809 -0.075475 0.151982
0.100888 0.306612 0.231818
0.257290 0.007429 0.020760
0.287101 0.021567 -0.109001
0.398470 0.303556 0.043439
-0.099217 -0.001649 0.055489
0.462987 -0.025004 0.251847
0.219512 -0.004586 -0.111293
-0.209577 0.374330 -0.003346
-0.099126 0.316661 0.088144
0.466552 0.068065 0.231818
-0.259776 0.140108 0.251847
-0.008237 -0.371141 0.251847
-0.137527 -0.128311 0.138740
0.150532 0.477366 0.241716
-0.415527 -0.195656 0.089566
-0.008350 0.443414 0.231818
0.130808 0.109649 0.251847
0.358114 0.346705 0.151835
0.085532 -0.053179 0.136759
0.375215 0.293921 -0.129279
0.084559 -0.361219 -0.105432
-0.098255 0.014134 0.053246
0.350621 0.043736 0.251847
-0.070499 0.282972 0.126162
-0.151541 0.111815 0.150787
0.317176 0.100112 0.151858
0.122371 -0.189301 0.251847
0.024488 0.187657 0.099412
0.194542 0.203234 0.251847
-0.109946 0.153208 -0.058468
-0.244278 -0.267181 0.231818
-0.238207 -0.047980 -0.087358
-0.358470 0.001380 0.231818
-0.079413 0.358880 0.156164
0.198365 -0.010062 0.140294
-0.223973 0.003451 0.062524
0.422611 0.230658 -0.003839
-0.005887 -0.210892 -0.108767
0.033100 0.418150 0.231818
0.212244 -0.419139 0.037212
-0.078529 -0.254580 0.231818
-0.099137 0.004660 -0.028473
0.359189 0.080130 -0.121760
0.298990 -0.401232 0.241072
0.394420 0.309031 0.110065
0.236175 -0.242524 0.251847
0.315985 0.098884 0.104012
0.119198 -0.118928 0.251847
-0.371170 -0.097012 -0.054490
0.421091 0.217521 0.071624
-0.038949 0.194746 -0.010632
-0.048048 0.241148 -0.104390
0.421012 0.216959 -0.094137
-0.057542 -0.179400 0.156584
-0.055142 -0.180197 -0.041720
-0.143700 -0.210153 0.231818
-0.041426 0.213727 -0.031932
0.255414 0.055270 0.130176
0.008473 0.208176 -0.064501
0.395161 0.308027 0.046133
0.386741 -0.317771 0.235999
0.057784 0.180380 -0.113851
-0.009586 -0.384007 0.251847
-0.292114 -0.236942 0.251847
-0.388157 -0.039512 0.251847
-0.245657 0.013401 0.251847
-0.231475 0.229548 0.231818
-0.182748 -0.346735 0.231818
0.201641 -0.009214 0.148468
-0.236339 -0.176458 0.231818
-0.038900 0.194369 0.017237
-0.425359 -0.124025 0.231818
0.437907 -0.111994 0.231818
0.037996 0.093199 0.127312
-0.022322 0.097622 -0.085551
0.138170 0.129993 0.035024
0.387272 0.317776 -0.000086
0.130692 0.483139 0.246354
-0.006956 -0.206763 0.125048
0.064387 -0.415430 0.251847
0.014315 0.099432 -0.012254
-0.043232 0.183883 0.054138
-0.277154 0.415901 0.078296
0.418343 -0.183940 0.231818
-0.086260 -0.049030 0.034829
0.375063 -0.051882 0.231818
-0.284865 -0.050839 0.251847
-0.292108 -0.343819 0.231818
0.365078 0.175881 0.000408
-0.395614 -0.039441 0.231818
0.246656 0.285243 0.251847
-0.052502 0.251421 0.069596
-0.053731 0.084133 0.054773
-0.200495 0.009531 0.087463
0.367955 0.322218 0.136846
0.177037 -0.411015 -0.036837
-0.339618 0.366509 0.053261
0.236511 0.000072 0.041704
0.234381 -0.277271 0.251847
-0.370541 -0.306628 -0.121385
0.160984 -0.405636 -0.110236
-0.339076 -0.128703 0.113045
0.047169 -0.182832 0.038337
0.094343 0.036083 0.045754
0.264500 -0.422217 -0.122222
0.391073 0.023085 0.251847
-0.398306 -0.301096 0.149455
0.304433 0.087939 0.151071
0.419923 0.209235 -0.081786
-0.292053 0.149019 0.251847
-0.269882 -0.157749 0.231818
-0.122523 0.224305 0.251847
-0.128326 -0.319799 0.251847
-0.377250 -0.257870 -0.006670
0.328077 0.088209 -0.202146
0.438055 -0.076940 0.251847
0.287346 0.074333 0.127123
0.351399 -0.085616 0.231818
-0.141548 0.398803 0.056222
0.060084 0.416218 0.231818
-0.143471 0.349787 0.111846
0.123201 -0.190933 0.251847
0.304928 -0.396800 -0.104442
0.313252 -0.186184 0.251847
0.319931 0.043125 -0.090957
0.417518 -0.147855 0.231818
-0.157359 -0.102985 0.004392
0.348056 -0.356669 0.147330
0.099231 -0.325621 -0.202146
-0.028632 -0.095421 0.115437
-0.274521 0.417675 0.043304
-0.388371 0.222210 0.231818
-0.029220 0.136149 -0.202146
0.205534 0.039881 -0.113043
-0.426763 -0.060696 0.251847
-0.108961 0.325671 0.035621
0.382573 0.323327 0.142213
-0.079388 -0.255625 0.231818
0.338338 0.022749 0.251847
-0.393006 -0.132658 -0.082921
-0.408430 -0.169596 -0.078911
-0.009052 -0.304763 0.251847
0.160751 -0.100393 0.059753
0.084344 -0.361040 -0.106758
-0.350043 -0.146555 -0.096303
0.361626 -0.190486 0.231818
-0.421163 -0.235291 -0.107298
0.222076 -0.003921 0.049334
0.160785 -0.251490 0.231818
-0.287269 -0.408471 0.242695
-0.217892 -0.009827 0.251847
0.045300 0.183769 -0.025560
0.176109 -0.255552 0.231818
0.159998 0.277096 0.251847
0.097076 -0.371068 0.159387
0.003174 -0.242725 0.116557
-0.016448 -0.187900 0.034396
0.061108 -0.079731 -0.012069
-0.039786 0.201163 0.066561
0.314945 -0.067837 0.251847
0.269066 0.252859 0.231818
-0.124198 0.337562 -0.088412
-0.132532 -0.210742 0.251847
0.233459 0.053618 0.251847
-0.376891 -0.266505 0.023055
0.127869 0.263910 0.231818
0.171679 -0.409368 0.051262
0.185862 0.038302 -0.114017
-0.075730 -0.064190 -0.027898
0.039236 -0.312728 -0.033578
-0.136122 0.373925 -0.202146
-0.302942 -0.031757 -0.031123
0.438255 -0.061686 0.251847
0.216048 0.362173 0.231818
-0.099245 0.160414 0.118988
0.290691 0.333864 0.231818
-0.067416 -0.072940 0.151708
0.207799 -0.444895 0.231818
0.183043 0.049962 0.129634
-0.198501 0.311880 0.231818
-0.098410 0.345792 0.251847
-0.279483 -0.018027 -0.116440
-0.155172 0.356057 0.036449
-0.376068 -0.229120 0.145079
0.357025 0.157006 0.010162
0.434364 -0.046819 0.251847
0.188498 -0.021875 0.123138
-0.360441 0.069432 0.251847
-0.022264 -0.187242 0.097710
-0.059193 0.247748 0.251847
0.392469 0.311489 0.083080
-0.477232 0.146868 0.247759
-0.460659 0.050567 0.251847
0.314603 0.039158 0.138315
-0.006374 0.256796 0.056987
0.326578 -0.203129 0.231818
0.398690 0.141129 0.143622
-0.105574 0.038005 0.251847
-0.232755 0.422165 0.121175
0.210373 0.040811 0.067463
0.042750 -0.090683 0.160652
-0.187923 -0.180820 0.251847
0.285894 0.020936 -0.091573
-0.263370 0.422682 -0.023748
0.152564 -0.112340 -0.077534
0.210238 -0.418856 0.018336
-0.244442 -0.167475 0.251847
0.159223 -0.307502 0.231818
0.145476 0.121816 0.021664
0.202467 -0.009000 0.013260
-0.358071 -0.342500 -0.017802
-0.004727 -0.215371 0.090917
0.083045 0.170329 0.114032
-0.183495 0.041315 0.076802
0.410609 0.171435 -0.028385
0.167255 0.089687 0.153002
0.362213 0.345960 0.142469
0.233185 0.127138 0.251847
-0.001506 0.243478 -0.102739
-0.079199 0.171322 0.121128
0.007542 -0.099637 0.083456
-0.364183 0.182693 0.251847
-0.212853 0.245997 0.251847
-0.098615 0.316165 -0.119826
-0.432760 0.141620 0.251847
0.108241 -0.043569 0.251847
-0.209587 -0.379756 0.231818
0.041043 0.176306 0.251847
0.190760 0.110956 0.251847
-0.325750 -0.145773 0.251847
-0.297698 -0.296478 0.231818
0.360008 0.342594 0.126110
-0.138623 0.347059 0.044150
-0.421779 -0.252078 0.009738
0.044905 -0.320342 0.112683
-0.238620 0.422524 0.154715
0.181118 -0.412270 -0.057781
0.273471 -0.285823 0.231818
-0.393141 -0.307797 -0.126349
-0.076931 0.063214 -0.098230
0.008779 -0.257833 0.020638
-0.376325 -0.232197 0.055644
-0.411176 -0.178529 0.136855
-0.062807 0.077459 -0.086098
-0.196626 -0.042228 -0.025503
-0.114350 -0.149492 -0.050701
0.055349 0.084222 -0.087077
0.190167 0.004476 0.251847
-0.111967 0.382847 0.097401
0.233750 -0.421642 0.040869
-0.002456 -0.224139 -0.018766
-0.133314 0.133234 -0.004060
0.242108 0.049290 0.129018
-0.069043 0.071889 0.099636
0.148189 0.118491 -0.093574
0.249640 0.081493 0.251847
-0.421604 -0.261756 0.020095
0.097558 -0.371409 0.113296
0.052144 -0.181518 -0.023429
0.358803 0.079666 0.010119
0.350374 0.184506 0.231818
0.085761 0.493086 0.239279
0.317375 0.100318 0.110268
-0.068150 0.294187 0.251847
-0.018695 0.283107 0.151647
0.115799 0.001206 0.251847
0.189177 -0.014638 0.030781
-0.092500 0.036297 -0.080433
-0.150327 0.113463 -0.045598
0.050935 -0.327808 -0.115671
-0.159710 -0.099224 0.140358
-0.089597 0.043054 -0.074188
0.312606 -0.223817 0.251847
-0.142596 -0.193872 0.231818
-0.129882 0.136595 -0.107501
-0.133426 0.133116 0.007807
-0.391793 -0.130188 -0.129760
0.375001 0.332318 0.072115
0.128599 -0.138939 0.095593
-0.073066 0.286500 0.093366
0.161648 -0.405899 -0.004505
0.072716 0.237617 0.231818
-0.175773 -0.051571 0.251847
-0.072732 0.068072 -0.033082
0.233101 -0.145147 0.251847
-0.216455 0.005398 0.006309
0.400120 0.301376 -0.108530
-0.381946 -0.239753 -0.202146
-0.295760 -0.124057 0.251847
-0.041431 0.213765 -0.107642
0.055770 -0.083481 -0.009764
-0.078539 -0.125619 -0.202146
0.309530 -0.393318 0.051689
-0.026176 0.296199 -0.038419
-0.286154 -0.071641 0.251847
0.260005 -0.111504 0.231818
0.372758 0.200820 -0.020646
0.320925 0.103979 -0.121561
-0.116072 0.331471 0.094007
0.379028 0.251282 0.054040
0.068101 0.176808 -0.085998
0.077973 -0.063605 -0.103884
0.372041 0.096228 -0.075599
-0.089052 -0.043738 -0.059376
0.389485 0.180560 0.251847
0.209900 -0.418808 -0.032604
-0.000508 -0.390913 0.251847
0.183748 0.252792 0.251847
0.314136 0.203052 0.231818
0.318583 0.101564 -0.004250
0.100778 0.006531 0.118751
0.182286 -0.227590 0.251847
0.406436 0.171066 0.251847
-0.007944 0.260481 -0.074957
0.036247 -0.093414 -0.092452
0.443344 -0.232847 0.247759
0.418896 0.274780 -0.091318
-0.128608 0.340568 0.134355
0.087804 -0.408047 0.251847
-0.382129 -0.213778 0.251847
-0.008502 -0.200795 -0.051817
0.412687 0.283996 0.074624
0.186558 0.186617 0.231818
0.060570 -0.097949 -0.202146
0.119552 -0.179082 0.231818
-0.376527 -0.104604 0.115665
0.029183 -0.437452 0.231818
-0.008176 0.261025 -0.116351
-0.025691 0.295426 -0.025910
0.320476 0.157384 0.231818
0.375847 0.101621 -0.106765
-0.343918 -0.179168 0.251847
0.440055 0.106707 0.231818
0.332145 -0.082190 0.231818
-0.014489 0.275062 0.027924
0.098326 -0.229531 0.231818
0.423460 0.256944 -0.092217
-0.381978 -0.030855 0.231818
-0.371351 -0.201699 -0.107793
-0.038951 0.194763 0.055848
0.350809 0.015847 0.251847
-0.421732 -0.254654 0.057329
0.336410 0.064180 0.251847
-0.018191 0.282141 0.147072
0.440391 0.130018 0.251847
-0.030721 -0.117741 -0.202146
0.045315 -0.089479 0.111403
0.207725 -0.208886 0.251847
-0.119929 0.387570 -0.119391
0.087661 -0.167580 0.093267
-0.003245 -0.395886 0.251847
0.070246 -0.175463 -0.029645
-0.024663 -0.228378 0.251847
0.025877 -0.170578 -0.202146
0.019390 0.140766 -0.202146
0.135502 -0.132309 -0.091037
-0.048286 0.241758 0.000758
-0.174376 0.125271 0.251847
0.365518 0.177120 -0.127212
0.336018 -0.050507 0.231818
-0.175601 0.067679 -0.024907
-0.009696 0.264593 0.153792
0.024835 0.097431 0.075620
-0.356774 -0.078866 -0.070293
-0.113617 0.201387 0.251847
-0.173789 -0.071786 0.013692
-0.236592 0.422400 -0.083172
-0.154644 -0.474977 0.236832
-0.145751 0.351070 0.100388
-0.144381 -0.003093 0.251847
0.035106 0.186023 0.102404
-0.001871 -0.263084 0.231818
-0.120782 0.388077 -0.005732
-0.044912 0.233099 0.004152
-0.175521 0.067876 0.023661
-0.206278 -0.176850 0.231818
-0.381231 -0.111771 -0.106680
0.215301 -0.419570 0.081993
-0.335820 0.114880 0.251847
-0.172633 0.410679 0.147263
-0.376134 -0.229901 0.140368
-0.030957 0.208119 -0.202146
-0.182038 0.047084 -0.052952
0.119580 -0.105498 0.251847
-0.210780 -0.191246 0.231818
0.059034 0.081713 0.151601
0.018034 -0.339997 0.231818
0.362335 0.001071 0.231818
-0.000350 0.335237 0.251847
-0.158443 0.405803 -0.048469
-0.000993 0.241949 -0.105719
0.027359 0.096781 -0.083105
-0.358359 -0.163336 0.148661
-0.290689 0.235448 0.251847
0.154450 0.236810 0.231818
-0.271829 -0.149506 0.251847
0.378522 0.105413 0.120159
0.289075 0.075591 0.134402
-0.421771 -0.252525 -0.003795
-0.218030 0.018522 0.251847
-0.055692 0.335729 0.049645
-0.163287 0.143632 0.251847
-0.097208 0.135219 -0.202146
-0.273216 0.225970 0.231818
-0.262963 -0.010120 -0.038858
0.066362 -0.344628 0.024909
-0.179275 0.251904 0.231818
0.164613 0.310045 0.251847
-0.220145 0.376136 0.089372
-0.300301 0.084136 0.231818
-0.221925 0.003981 -0.081707
0.032859 0.186467 -0.107804
-0.424279 0.155997 0.231818
-0.291020 -0.257172 0.251847
-0.020777 -0.263359 0.251847
0.371791 0.309022 0.146966
-0.305152 -0.079948 -0.202146
0.004456 0.223689 0.001641
-0.231448 0.377435 -0.117873
-0.253268 -0.210655 0.231818
0.012838 -0.267360 -0.040667
0.047349 -0.206273 0.231818
0.423322 0.264571 -0.006673
-0.154308 -0.055694 -0.202146
0.248197 0.229348 0.251847
-0.249159 0.396048 -0.202146
-0.096644 0.377071 0.251847
-0.087465 -0.046835 0.014341
0.222430 0.183209 0.251847
0.206311 0.263899 0.231818
0.033950 0.429645 0.251847
-0.398405 -0.002953 0.251847
-0.261608 0.422713 0.011873
-0.015601 0.173682 -0.202146
-0.171294 0.255592 0.231818
-0.234842 0.377719 -0.098291
0.049301 0.237740 0.251847
-0.203999 0.000511 -0.202146
0.185152 -0.041246 -0.002115
-0.285776 0.268492 0.251847
0.056343 -0.225103 0.231818
-0.172959 0.074222 -0.068404
-0.422599 0.039713 0.231818
0.199558 -0.009753 0.083906
0.014598 -0.098921 0.109949
0.423336 0.242526 0.103018
0.223518 0.238132 0.231818
0.082695 -0.057450 -0.116999
-0.375086 -0.221186 -0.117153
0.273438 -0.419115 0.131628
0.322415 -0.382770 0.112787
-0.251279 0.378383 0.120323
0.402484 0.149564 -0.031929
-0.015797 -0.187942 0.140956
0.044270 -0.209450 0.251847
-0.286723 0.051591 0.251847
0.412766 0.283879 0.080926
-0.087849 0.365894 0.038545
-0.377276 -0.247302 0.119833
-0.338685 0.360651 -0.003895
-0.244950 -0.271818 0.251847
0.338914 0.126359 0.055921
0.133732 0.032873 0.251847
-0.004387 -0.199327 0.251847
0.410273 0.086932 0.251847
-0.240563 0.121688 0.231818
-0.214796 -0.107124 0.251847
0.092380 0.332258 0.231818
-0.421582 -0.242158 0.082089
-0.076583 0.291332 -0.050030
0.091365 0.166061 -0.076015
0.358920 -0.224667 0.231818
0.188894 0.176101 0.231818
-0.094293 0.370823 0.072430
-0.268152 0.377807 -0.005140
-0.048710 0.327753 -0.078044
0.328765 0.113085 0.080141
-0.212554 0.126422 0.231818
-0.153718 0.212476 0.251847
-0.128814 0.289682 0.231818
-0.093377 -0.409559 0.251847
-0.490610 -0.091720 0.247556
-0.482597 0.023480 0.231818
-0.366586 -0.184619 -0.007863
-0.215591 -0.043358 0.096184
0.421478 0.220263 0.112216
-0.374073 -0.150352 -0.202146
0.210080 -0.204123 0.251847
-0.153118 -0.109153 0.147180
0.050791 -0.086550 0.020472
-0.098933 -0.007414 -0.020769
-0.319264 -0.043462 -0.043221
-0.393235 -0.041562 0.231818
0.188549 -0.021489 0.150258
-0.090880 0.165362 0.009801
0.162797 0.168370 0.231818
0.395426 0.307684 0.063748
-0.179326 0.366055 0.139499
0.378076 0.273482 -0.065475
-0.387006 -0.315534 0.036548
-0.180784 -0.051373 0.088352
-0.137867 -0.127944 -0.058700
-0.202182 0.009094 0.077344
0.062400 -0.331256 0.251847
0.065103 0.077016 -0.078529
-0.284767 -0.073262 -0.066268
0.138335 0.082951 -0.202146
-0.006959 -0.099562 -0.082056
0.152737 0.316840 0.231818
0.188660 -0.020660 0.113228
0.110333 -0.226128 0.231818
-0.083547 0.362317 -0.106653
-0.178572 0.059220 0.076154
0.033748 0.319678 0.231818
0.286317 0.021157 -0.118162
0.178323 0.065117 -0.101684
-0.132970 -0.144646 0.251847
-0.428352 -0.159759 0.231818
0.303093 0.031222 -0.128072
-0.214689 0.375204 0.128022
-0.245239 -0.003114 -0.099386
0.341715 -0.365714 0.054356
0.075457 0.330473 0.231818
-0.036830 0.312337 -0.052841
-0.066820 0.277455 -0.003206
0.014462 0.125972 -0.202146
-0.283400 0.411692 -0.089960
0.357837 0.158793 0.099654
0.220274 -0.234790 0.231818
0.038273 -0.311433 -0.079503
0.091003 0.043809 0.019869
0.388752 -0.237388 0.231818
-0.111535 0.327770 -0.118460
0.180761 0.058107 -0.018514
-0.212670 -0.043184 0.048623
0.265104 -0.057514 0.251847
-0.006634 -0.304048 0.251847
0.117518 -0.148389 0.119752
-0.170303 0.080120 0.036378
-0.041445 0.370179 0.231818
-0.262568 -0.029354 -0.202146
0.403141 0.192996 0.251847
0.325739 0.030552 0.251847
-0.174398 -0.070217 0.148117
-0.068735 0.349133 -0.028549
0.117157 0.486625 0.243422
-0.011439 -0.099097 0.085663
-0.273694 -0.065866 0.051238
-0.052593 0.181410 0.018177
-0.197072 0.382286 -0.202146
-0.420022 -0.221945 0.130715
0.092283 0.182405 0.251847
-0.177277 -0.019839 0.251847
0.101036 0.099233 0.251847
-0.185188 -0.306883 0.251847
0.307208 -0.395075 -0.126123
-0.124239 -0.207075 0.251847
0.111546 -0.152847 -0.067249
0.422978 0.236670 -0.052590
0.394218 0.309268 0.120524
-0.088171 -0.239302 0.231818
0.249665 0.004485 0.017089
-0.334868 0.064124 0.251847
0.262071 -0.422261 -0.011215
-0.400994 -0.149769 -0.024539
-0.293361 0.374475 0.061359
0.240587 -0.252550 0.251847
0.402773 -0.110223 0.251847
0.261165 -0.016261 0.251847
0.122146 0.286355 0.251847
0.375089 0.294638 -0.009821
0.006723 0.214933 0.085608
0.302466 0.148185 0.231818
-0.129771 0.136698 -0.098255
0.212603 -0.080795 0.231818
0.222307 0.144711 0.251847
0.062646 0.348783 0.251847
0.072578 -0.174558 0.007983
0.314786 0.217330 0.231818
0.048164 0.265438 0.251847
-0.180372 -0.052934 0.126935
-0.369899 -0.196130 0.153063
-0.339057 -0.128674 0.102872
0.021271 -0.284189 0.061383
-0.011172 -0.115552 -0.202146
0.422666 0.231556 -0.075250
0.000029 0.204823 -0.202146
0.161137 -0.405697 -0.030682
0.126328 0.312185 0.251847
-0.182009 0.239509 0.231818
0.246598 0.186905 0.251847
0.340953 0.366816 0.240584
0.378177 0.233763 0.089372
0.036559 -0.208918 0.251847
0.462857 -0.045462 0.251847
0.329053 -0.377151 -0.024599
-0.016087 0.285367 0.251847
-0.283245 -0.072154 -0.007381
0.085451 -0.053306 -0.120897
-0.343829 -0.065083 -0.024992
0.382393 0.237962 -0.202146
-0.421569 -0.122350 0.251847
-0.242535 0.251702 0.251847
-0.152395 0.110657 0.133818
-0.286978 0.375598 -0.127337
-0.364018 -0.177379 0.139136
-0.269956 -0.345813 0.231818
0.151463 -0.113834 -0.073825
-0.006149 0.256268 -0.096637
-0.365550 -0.181698 -0.074395
-0.064150 -0.159360 0.251847
-0.163650 -0.259910 0.251847
0.081650 -0.058884 -0.073711
0.205313 -0.111206 0.251847
-0.130835 0.008136 -0.202146
0.437850 0.160432 0.251847
0.385161 0.320270 0.144394
0.174717 -0.410302 -0.122928
0.385911 0.117169 -0.054885
0.259395 0.008326 0.041737
0.378968 0.106045 0.124545
-0.173317 0.011913 -0.202146
-0.420247 -0.269687 0.136270
0.211866 -0.437517 0.231818
-0.081311 -0.056926 0.061426
-0.060523 0.178949 0.008386
0.395126 0.230121 -0.202146
-0.416432 0.134967 0.251847
-0.379036 -0.325021 0.150691
-0.129362 -0.088218 -0.202146
0.093675 -0.335356 0.251847
-0.374768 -0.219327 -0.066178
0.062132 0.443353 0.231818
-0.415950 -0.197553 0.080164
0.322736 -0.382499 0.117617
-0.300496 -0.085574 -0.046056
0.018979 0.098687 0.131971
0.152260 -0.402179 0.007413
0.264523 -0.144073 0.231818
0.103241 -0.197356 0.251847
-0.346578 0.068033 0.231818
-0.421756 -0.253373 0.033680
-0.383656 0.200629 0.231818
0.003047 0.100333 0.015594
-0.371124 -0.304433 0.136662
-0.489993 0.095427 0.247652
0.297821 -0.263480 0.251847
0.092935 0.165184 -0.127336
0.100283 0.094105 -0.202146
0.037583 -0.310507 0.040388
-0.181806 0.048002 -0.030826
-0.244311 -0.129944 0.251847
0.402890 0.297604 0.239874
0.364975 0.087091 0.137495
-0.163388 0.093507 -0.120827
-0.104328 -0.004203 0.251847
0.185858 0.038326 -0.021494
-0.376667 -0.269035 0.138206
-0.382996 -0.114746 -0.012794
-0.180351 -0.053013 0.024366
0.003599 -0.425549 0.231818
0.375400 -0.100443 0.231818
-0.421103 -0.234310 -0.120025
-0.126055 -0.422266 0.231818
-0.177472 0.365397 -0.068853
-0.342775 0.201089 0.231818
0.080279 -0.357660 0.109050
0.157347 0.196809 0.231818
-0.364824 -0.179650 -0.098519
-0.175330 0.068349 0.121723
0.421618 -0.091400 0.251847
-0.170529 -0.079137 -0.062004
0.100975 -0.001827 0.113514
-0.398145 -0.301322 0.144467
-0.128612 -0.137290 0.128865
-0.243625 -0.261134 0.231818
-0.148756 0.300408 0.251847
0.093550 -0.245212 0.251847
-0.377249 -0.258557 -0.112084
0.397851 0.304376 -0.118013
0.241551 -0.422119 -0.031756
0.217622 0.076213 0.251847
0.073951 -0.068172 0.152610
0.467679 0.021707 0.231818
0.182838 -0.102243 0.251847
0.102286 -0.159137 -0.036871
0.408880 0.289645 0.153820
0.145355 -0.134019 0.251847
0.162153 0.098609 0.009414
0.060000 0.136501 -0.202146
0.199872 0.038793 -0.050779
0.214626 -0.005851 0.156232
0.370927 0.312271 0.152203
-0.357055 -0.015385 0.251847
-0.009548 -0.196753 -0.001762
-0.368280 -0.315126 -0.093129
0.303085 0.192818 0.251847
0.007222 0.213009 0.111888
-0.290546 -0.290134 0.231818
0.360912 -0.262695 0.231818
-0.156275 -0.223278 0.231818
-0.236663 0.141566 0.251847
0.345447 -0.182332 0.231818
0.353254 0.149609 -0.002528
-0.178668 0.058930 -0.122755
-0.092228 -0.036506 0.166162
-0.170719 0.126101 0.231818
0.047499 -0.088356 -0.107611
0.375855 0.215861 -0.085331
-0.369359 -0.311070 -0.057104
-0.244394 0.085705 0.231818
0.007504 0.211917 0.082527
-0.077666 0.292821 -0.040151
-0.030664 0.095237 0.073876
-0.419922 -0.221236 0.072789
-0.256676 0.378370 0.110599
0.242590 0.181145 0.251847
0.326396 -0.263553 0.231818
0.341853 0.098935 -0.202146
0.151797 -0.113381 0.001163
-0.051552 -0.372440 0.231818
-0.276998 0.081125 0.231818
0.018047 0.098866 0.105960
-0.052761 -0.084272 -0.068958
-0.346318 -0.113397 -0.202146
-0.252918 0.378379 0.133944
-0.167092 -0.086258 -0.052488
0.378654 0.327984 0.131833
-0.136765 0.129608 0.075414
-0.251309 0.378383 0.147680
0.046713 -0.165530 -0.202146
-0.316507 -0.157962 0.231818
-0.384730 -0.117669 -0.113091
0.207231 -0.181565 0.251847
-0.216724 -0.214968 0.251847
0.377125 0.329848 0.157573
-0.191391 0.396063 -0.202146
-0.235155 0.246797 0.251847
0.019413 -0.280635 -0.087268
-0.104170 0.074283 0.251847
-0.068859 0.381931 0.251847
0.092187 -0.165131 -0.002591
0.146307 -0.120317 -0.105885
0.076650 -0.065202 0.130391
-0.376743 -0.237190 -0.076656
0.094089 0.036727 -0.118856
0.112704 -0.152018 0.017216
-0.262698 -0.030468 -0.202146
0.337767 -0.369446 -0.016256
0.120941 0.097950 -0.202146
0.155803 -0.403583 0.122132
-0.316164 0.163761 0.231818
0.369184 0.077599 0.251847
0.419730 0.022374 0.251847
-0.169985 0.080784 -0.100557
0.094722 0.035125 0.059171
-0.258863 0.422763 -0.035514
0.467274 0.029964 0.231818
0.376512 0.219708 -0.019790
-0.319352 -0.043528 -0.039513
-0.052193 0.085108 -0.061603
-0.357037 -0.160428 -0.095890
0.094276 0.036254 0.139876
-0.316861 0.386458 0.135883
0.213666 -0.419339 0.052860
0.246271 -0.081556 0.231818
-0.402950 0.097941 0.231818
0.044366 0.161916 -0.202146
0.423522 0.253519 -0.103654
-0.212795 0.241755 0.251847
0.321478 0.153337 0.251847
-0.179571 0.412812 0.012613
0.282691 -0.063682 0.231818
0.224326 -0.003339 -0.094196
0.286373 0.190553 0.231818
-0.157128 -0.061616 0.251847
-0.101277 0.318747 0.025920
0.122456 -0.193890 0.251847
-0.039085 0.195788 0.091624
0.007615 -0.099632 0.113879
-0.258177 0.080830 0.231818
0.313692 -0.065206 0.251847
0.049011 -0.087527 0.148546
-0.071782 0.069083 -0.119323
-0.002767 0.417348 0.251847
-0.029700 0.301809 0.102926
-0.040430 0.206097 -0.107675
0.024516 0.114816 -0.202146
0.377933 0.230840 0.008647
-0.006166 -0.209811 -0.086428
-0.138695 0.347100 -0.073316
0.173039 0.077991 -0.030280
0.071168 -0.349313 -0.072146
0.107920 -0.176665 0.251847
0.365818 0.177967 0.053524
0.103077 0.159101 -0.064967
-0.342731 0.358787 -0.080251
-0.239353 0.422568 -0.120552
-0.001197 -0.099856 0.078240
-0.000352 -0.099857 -0.101205
-0.335874 0.031701 0.251847
-0.140862 0.398467 0.054277
-0.129941 0.136541 0.057084
-0.331744 -0.053824 -0.058911
0.419960 0.209495 -0.071405
-0.304247 0.396459 0.004767
-0.034731 -0.093320 0.175294
0.161050 0.100374 0.096858
0.315063 0.019954 0.251847
-0.095122 0.236059 0.251847
0.000128 -0.386990 0.231818
-0.365073 -0.180352 0.126176
0.167280 -0.089213 0.030178
-0.421634 -0.260085 -0.108013
0.420088 0.210403 0.058840
-0.192665 0.370281 -0.049053
-0.066478 0.074295 0.039428
-0.365474 -0.181482 -0.059866
0.283911 0.019899 -0.045991
-0.447281 0.031249 0.231818
-0.300916 0.037367 0.231818
0.176472 -0.410842 -0.079689
0.356969 0.268043 0.231818
-0.071434 0.284256 0.000416
0.120495 0.411886 0.231818
-0.488636 0.102514 0.236151
-0.166197 0.361070 0.055027
-0.377253 -0.256836 -0.041243
-0.119795 0.145570 -0.076018
-0.121903 -0.143321 0.025917
-0.175265 0.026846 0.251847
-0.152428 -0.110117 0.072866
0.088940 -0.364861 -0.107830
-0.069067 0.071868 0.119526
0.175814 -0.071036 0.148849
-0.160437 0.406593 -0.090977
-0.284783 -0.136169 0.231818
-0.464581 -0.065500 0.251847
-0.239367 -0.048432 0.036361
-0.213352 0.253792 0.251847
0.098082 -0.023684 -0.029084
-0.208705 0.281824 0.231818
-0.007999 -0.202734 -0.103621
0.328345 0.049784 0.117024
0.423328 0.264221 -0.038624
0.184984 -0.041913 0.049537
0.208585 0.040467 -0.092120
-0.153656 0.244884 0.251847
0.163512 -0.011138 0.251847
0.222252 0.251585 0.231818
0.181030 -0.056643 0.089130
-0.090347 0.041463 0.017306
0.087678 -0.363812 0.019477
-0.082410 -0.145144 0.251847
-0.421800 -0.250908 0.094829
-0.393944 0.083223 0.231818
0.038223 -0.184882 0.124383
0.000743 -0.151094 -0.202146
0.397178 0.138047 0.124767
-0.039010 0.195213 0.087597
-0.272955 -0.025330 0.251847
-0.310263 -0.036761 0.091327
0.236838 -0.421831 0.104742
-0.321839 0.367047 -0.001536
0.023972 0.097654 0.108492
-0.211464 0.126169 0.231818
0.142099 0.125753 -0.022828
-0.327520 0.377435 -0.102199
-0.187242 0.017805 -0.082582
-0.326999 -0.112602 0.098099
-0.195272 -0.042148 0.004911
-0.314118 0.369496 0.113433
0.059994 -0.375985 0.251847
0.350481 0.070577 0.068897
0.220177 -0.004413 -0.029296
-0.080303 -0.058316 0.170779
0.090613 0.407787 0.231818
0.091567 0.042608 -0.118447
-0.381659 -0.321851 -0.073740
0.345742 -0.361908 0.236838
0.384458 -0.125299 0.231818
-0.295892 -0.202785 0.251847
0.099634 0.294097 0.231818
0.408885 0.148017 0.251847
0.063658 -0.384367 0.231818
0.178153 0.065555 0.056984
-0.474395 0.042434 0.251847
0.416154 0.278849 0.054050
-0.328621 0.376503 -0.067627
-0.266658 0.224280 0.251847
0.040277 -0.314126 -0.053789
-0.037102 0.365616 0.251847
0.219547 0.163963 0.251847
-0.243619 0.171739 0.231818
-0.235974 -0.150498 0.231818
0.260683 -0.108473 0.231818
0.058346 -0.081735 -0.085365
0.177836 -0.128484 0.251847
-0.370348 -0.307352 -0.126425
-0.292124 0.109156 0.251847
-0.131006 -0.072334 0.251847
-0.072564 -0.067773 -0.116590
-0.340863 -0.131323 -0.003648
-0.071754 -0.068637 -0.083229
0.007280 0.100130 -0.059894
-0.304552 -0.187714 0.231818
-0.370233 -0.285672 0.231818
-0.169012 0.409566 0.001893
0.341873 0.130699 -0.080244
0.304110 0.031861 -0.003422
0.025651 0.097221 0.147953
-0.370705 -0.199224 -0.017347
0.395015 0.308202 0.024966
-0.305905 -0.090269 0.005106
-0.175765 -0.161409 0.231818
0.383370 0.209441 -0.202146
0.301938 0.085773 -0.100703
-0.106290 -0.031194 0.251847
-0.202268 0.227164 0.231818
-0.410804 -0.283701 -0.014196
0.376468 0.330604 0.081359
-0.039894 0.201983 0.132961
-0.274447 0.417725 0.078172
-0.394974 0.014763 0.231818
-0.300341 -0.035466 0.251847
-0.009601 -0.196550 -0.026502
0.255901 0.055510 0.141607
0.423247 0.241068 0.035927
0.370865 0.312505 -0.099772
-0.106420 -0.069612 0.251847
-0.073724 0.239141 0.231818
0.154770 -0.188249 0.251847
-0.255123 0.309996 0.231818
-0.357844 -0.080154 -0.050644
0.232813 -0.421585 0.028019
-0.080962 0.360168 0.073436
0.255001 -0.193191 0.231818
0.253634 0.054394 0.001972
-0.156352 0.104965 -0.030544
-0.316953 0.043536 0.231818
-0.338146 0.367900 0.129658
-0.259441 0.164783 0.231818
-0.235028 0.283582 0.231818
0.367957 0.339883 -0.081082
-0.274044 -0.015183 0.011367
0.025054 0.426381 0.231818
-0.077489 0.215336 0.231818
-0.022493 -0.187212 0.021698
-0.307370 0.371291 -0.128258
0.344418 0.064357 -0.069246
-0.484139 -0.069959 0.231818
-0.361247 -0.344643 -0.116134
0.316815 0.099741 -0.106584
0.254167 0.054656 -0.086794
0.244949 -0.079827 0.231818
-0.034226 -0.216033 0.251847
-0.013635 -0.098818 0.023892
-0.461020 0.074601 0.231818
-0.288809 0.233048 0.231818
0.341500 0.130152 -0.097947
0.270859 0.063568 0.152881
-0.176645 0.026876 0.251847
0.062552 -0.329606 0.251847
0.364843 0.330858 -0.104315
-0.164809 0.090962 0.042629
0.423351 0.262953 0.020127
0.010611 -0.262132 -0.112359
-0.048384 0.327381 -0.116881
-0.006833 -0.407293 0.251847
-0.163492 0.039343 -0.202146
0.077821 0.064265 0.144700
-0.070446 -0.435202 0.231818
-0.371273 -0.201402 0.007195
-0.436721 0.132195 0.231818
-0.305074 0.395834 -0.045043
0.115714 -0.107337 0.251847
-0.312464 0.369936 0.000778
0.290005 0.076268 -0.114361
-0.159220 -0.045821 -0.202146
0.398561 0.303436 0.044798
-0.099216 -0.000419 -0.013038
0.026523 -0.380290 0.251847
0.175619 0.072082 0.032402
0.040017 -0.313776 -0.019713
-0.152345 0.403387 0.123634
-0.041763 0.318962 0.145593
-0.298987 -0.029272 -0.055364
-0.043700 -0.089407 0.086093
-0.090420 -0.040824 0.051631
0.197725 -0.010228 0.037696
-0.350251 -0.243942 0.231818
-0.365458 -0.340188 -0.113735
-0.314542 0.231769 0.251847
0.150608 -0.114995 0.028017
-0.000989 0.100336 0.126705
-0.039397 0.198183 0.139488
0.075136 -0.066912 -0.044861
-0.258921 0.187807 0.251847
0.359173 -0.143481 0.251847
-0.377261 -0.253507 -0.129250
-0.234563 0.269476 0.251847
-0.088478 -0.166214 -0.091279
-0.324037 -0.108972 0.146230
0.207847 -0.154673 0.251847
-0.335355 0.088639 0.251847
-0.241949 -0.049438 0.050033
0.116624 -0.384089 0.092297
-0.081257 -0.057001 0.058727
-0.206020 0.264293 0.231818
0.428751 0.005077 0.231818
-0.312567 0.369909 0.138341
0.338895 0.126330 0.054799
0.063724 0.078159 0.128406
-0.294172 -0.026247 0.142475
0.029277 -0.297857 -0.047463
-0.386449 -0.112659 0.251847
0.213517 0.296056 0.251847
-0.275041 -0.260407 0.251847
-0.320628 -0.044478 0.080538
0.002646 -0.241153 0.140145
-0.303795 -0.032293 -0.110995
-0.087441 -0.357618 0.231818
0.325832 0.040448 0.251847
0.081244 0.326131 0.231818
0.019397 0.098607 -0.092037
-0.096445 0.023679 0.037015
0.389432 0.136577 0.251847
0.082544 -0.359543 0.156783
-0.290980 -0.077783 -0.001813
-0.080298 -0.058323 0.112951
-0.137672 0.396900 -0.125666
0.208643 -0.273948 0.251847
0.025277 0.097318 0.146505
0.159088 0.103511 0.116468
0.365352 0.176655 0.055857
0.339546 -0.367764 0.090429
-0.395968 -0.304163 0.146295
-0.309111 0.370828 0.079500
-0.004355 -0.205681 0.251847
-0.207261 -0.042862 -0.092604
-0.377897 -0.092489 0.251847
0.203266 0.039445 -0.049315
-0.419345 -0.217147 0.101486
0.106814 -0.009524 0.251847
0.131019 -0.392294 -0.050489
0.412825 0.178645 0.142786
-0.384499 -0.117279 0.104723
0.053595 -0.330847 -0.057047
0.340520 -0.366843 0.078006
-0.113266 0.383618 0.041547
0.284429 0.203835 0.231818
0.201247 -0.081645 0.231818
-0.263111 0.024558 0.251847
-0.450836 0.133196 0.231818
-0.083890 0.300415 0.117733
0.013632 0.099519 0.159178
0.191475 -0.414989 0.063716
0.032753 0.095129 -0.070098
-0.421042 -0.233313 -0.092270
-0.183317 0.267507 0.251847
-0.087515 0.047225 -0.028851
0.049214 -0.087415 0.123647
-0.298270 0.400981 -0.127821
0.154463 -0.403052 0.135220
0.220162 0.079811 0.251847
0.045464 0.089881 -0.112156
0.080871 -0.406592 0.231818
-0.418496 -0.211125 0.017779
-0.346964 -0.025443 0.251847
-0.376950 -0.265846 -0.017581
-0.169495 -0.081373 0.019926
-0.094667 0.409802 0.251847
-0.164804 0.054484 -0.202146
-0.272140 -0.276278 0.251847
0.053926 0.085126 0.113454
-0.211654 -0.188400 0.251847
0.206765 -0.204651 0.231818
-0.258192 0.428023 0.245920
-0.228900 0.398959 -0.202146
0.093888 -0.164211 0.040550
0.341220 -0.366182 0.076301
0.116866 -0.267705 0.251847
-0.128492 -0.289156 0.251847
0.238673 0.035826 -0.202146
-0.076768 0.063411 -0.119966
-0.188021 -0.315648 0.231818
-0.094781 -0.029263 0.006112
0.384677 -0.240955 0.231818
-0.037068 -0.419164 0.251847
-0.240088 -0.048713 0.131844
0.465009 0.112810 0.231818
0.104167 0.158399 0.125399
0.293143 -0.114991 0.251847
-0.018250 0.098490 -0.099011
0.403326 -0.183122 0.231818
-0.011892 -0.099040 -0.099359
-0.296356 -0.027619 -0.099851
-0.365878 -0.339744 -0.001082
0.377967 0.274715 -0.010735
0.071321 0.149252 -0.202146
0.058169 -0.179835 0.040501
-0.384338 -0.211612 0.251847
0.286854 -0.107966 0.251847
-0.175393 0.364659 -0.046201
-0.099217 -0.000803 -0.112298
-0.009712 0.264632 0.096486
0.190320 0.215391 0.251847
-0.040700 -0.184010 -0.112669
0.205508 -0.008212 -0.125225
-0.421280 -0.237213 -0.101141
-0.382348 -0.113652 -0.104521
-0.115855 0.157123 0.251847
-0.199594 0.009764 -0.001795
0.244878 0.191172 0.251847
-0.003191 0.248502 0.103329
-0.483324 -0.085063 0.231818
0.078562 -0.139294 -0.202146
0.482799 0.133919 0.246157
-0.132879 -0.256995 0.251847
-0.199840 0.191582 0.231818
0.098794 0.218533 0.251847
-0.080735 -0.057720 0.097241
0.295086 -0.177557 0.251847
-0.233069 0.422185 0.154437
-0.099285 0.386800 0.251847
-0.285169 0.410500 -0.084830
-0.309735 0.092633 0.251847
0.186948 -0.032557 0.100763
-0.137224 0.447444 0.231818
0.423540 0.010054 0.231818
-0.364971 -0.325140 -0.117997
-0.007506 0.259452 -0.003918
0.357422 0.157880 0.116293
-0.336311 0.369635 -0.032202
0.389813 0.123745 -0.013096
-0.358538 -0.049955 0.251847
-0.205276 -0.173754 0.231818
0.306920 0.173686 0.231818
-0.283121 -0.019930 -0.096886
-0.061085 -0.441662 0.231818
0.396726 0.306000 0.150327
0.266409 -0.243197 0.251847
0.341673 -0.365754 0.028588
-0.378142 0.168329 0.251847
-0.009540 0.099812 -0.061695
0.291719 0.077515 0.062785
0.182843 0.050717 0.074433
-0.380845 0.057845 0.251847
0.148693 -0.171848 0.231818
-0.094551 0.030451 -0.047283
-0.311473 -0.169007 0.231818
0.263410 -0.156954 0.231818
0.093995 -0.381478 0.251847
0.189920 -0.414643 0.054717
-0.360101 -0.082868 -0.100223
0.006332 -0.099712 -0.017928
-0.050434 0.181981 0.018295
0.133478 0.134811 0.041284
-0.395622 -0.304519 0.027763
-0.175549 0.364715 -0.110601
0.079458 -0.171539 0.110040
0.098913 0.170340 0.251847
-0.070318 0.350677 -0.058173
