-1.383960 0.213643 0.392882
-0.685240 0.656095 1.207102
-0.933647 0.499833 0.855863
-0.858224 0.434557 0.789831
-0.488703 0.474282 1.027650
-1.150993 0.257684 0.474573
-1.253945 0.306499 0.521880
-0.470176 0.521603 1.126633
-1.307288 0.167664 0.344405
-0.873014 0.324036 0.621792
-0.898015 0.345513 0.646699
-1.291208 0.278412 0.482332
-0.735829 0.433284 0.832883
-0.555946 0.473319 0.985574
-0.446932 0.349219 0.808935
-0.448604 0.397866 0.904032
-1.006790 0.220579 0.445882
-0.864452 0.352736 0.666176
-0.585541 0.458413 0.941983
-1.142340 0.161543 0.350096
-0.587294 0.522281 1.050555
-1.100712 0.440770 0.724857
-1.327216 0.302127 0.505447
-0.786574 0.489152 0.898772
-0.452942 0.501676 1.102281
-1.228723 0.245982 0.449556
-0.711776 0.476736 0.912574
-1.428319 0.175513 0.343428
-1.150237 0.174190 0.365959
-0.718569 0.338232 0.686434
-1.465427 0.085818 0.237820
-1.095687 0.291121 0.528818
-0.530496 0.431026 0.922028
-1.020188 0.439381 0.746255
-0.612759 0.380592 0.794583
-1.327567 0.120211 0.284938
-0.528885 0.370917 0.813649
-0.870918 0.406200 0.744931
-0.626289 0.287859 0.629372
-0.770642 0.554803 1.006484
-0.802499 0.586064 1.036843
-0.910178 0.302462 0.581452
-0.565869 0.484953 0.999435
-0.845639 0.206343 0.449206
-0.921805 0.441381 0.778077
-0.746648 0.473830 0.890888
-1.378438 0.054833 0.204098
-0.421686 0.378268 0.880069
-0.430092 0.394585 0.907594
-0.660902 0.347481 0.720745
-1.135858 0.237688 0.450694
-1.387296 0.321571 0.519081
-0.835866 0.375582 0.708225
-0.809891 0.277947 0.567075
-0.953588 0.438329 0.764145
-1.018567 0.460840 0.775553
-1.160626 0.110506 0.281715
-0.913612 0.386137 0.702355
-0.874498 0.572822 0.984821
-1.255470 0.346519 0.570851
-0.328800 0.400703 0.981789
-0.801145 0.321078 0.635535
-0.845726 0.414937 0.764831
-1.453490 0.114136 0.271042
-0.367865 0.437858 1.034317
-1.373483 0.081124 0.235724
-1.445461 0.198316 0.368686
-0.615660 0.484779 0.971982
-0.350828 0.461224 1.094951
-1.164293 0.409509 0.668639
-0.867088 0.531922 0.928733
-0.263844 0.425685 1.086302
-1.138756 0.436907 0.710200
-0.791163 0.318074 0.633417
-0.502865 0.577751 1.204368
-1.038143 0.384067 0.665539
-1.080240 0.474750 0.775715
-1.177331 0.335521 0.572206
-1.048845 0.312160 0.565923
-0.719108 0.423378 0.824031
-0.426592 0.487456 1.094542
-1.201780 0.264042 0.476073
-1.093756 0.252516 0.477562
-0.428680 0.452862 1.023673
-1.073955 0.221941 0.439293
-1.015869 0.282739 0.531737
-0.997088 0.140691 0.334761
-0.804707 0.625333 1.093528
-0.830305 0.592250 1.032531
-0.364685 0.426140 1.011620
-0.644408 0.422822 0.854479
-1.210745 0.092753 0.256910
-0.382074 0.480289 1.110620
-0.953023 0.194992 0.416111
-0.888927 0.188019 0.415567
-1.398081 0.311366 0.505377
-0.589633 0.333430 0.720852
-1.100885 0.186325 0.387007
-0.299791 0.404232 1.010037
-0.632826 0.325225 0.691796
-0.937012 0.556765 0.935459
-0.821985 0.301886 0.600849
-0.809851 0.273992 0.561081
-0.620202 0.473608 0.951520
-1.419099 0.149128 0.313601
-1.071582 0.173853 0.372583
-0.993832 0.164622 0.368299
-0.582357 0.329644 0.716659
-0.973432 0.310395 0.578386
-1.415479 0.272259 0.457862
-1.052212 0.335851 0.597450
-0.832682 0.302420 0.599393
-1.144100 0.375899 0.630437
-0.614428 0.417655 0.858726
-0.784840 0.239741 0.512569
-0.432730 0.552920 1.213773
-0.952692 0.537177 0.902623
-1.051132 0.249141 0.479523
-1.419853 0.330307 0.524547
-1.424952 0.163575 0.329887
-0.604344 0.529448 1.052958
-0.988519 0.392093 0.689784
-1.075288 0.157476 0.350212
-0.323068 0.509306 1.221007
-1.351195 0.215910 0.398850
-1.386333 0.278487 0.468396
-0.521404 0.576717 1.189490
-1.106026 0.471923 0.764332
-1.165612 0.113752 0.285716
-1.069626 0.208813 0.421255
-0.468271 0.528937 1.141274
-1.159480 0.405636 0.664845
-0.773582 0.502512 0.925887
-1.076766 0.244496 0.469416
-0.416542 0.450956 1.027707
-0.471712 0.478421 1.046947
-1.275226 0.311806 0.525274
-0.468012 0.424502 0.944410
-0.166051 0.430849 1.192950
-0.643675 0.561229 1.085058
-1.461737 0.185734 0.353292
-0.507550 0.416897 0.908629
-0.654285 0.486232 0.955578
-0.971544 0.484727 0.822353
-1.003820 0.251787 0.490777
-1.124314 0.316497 0.557218
-0.894499 0.450272 0.799583
-0.757988 0.411338 0.790362
-1.123016 0.355178 0.607759
-1.134795 0.153425 0.340284
-0.663649 0.433630 0.863661
-0.815767 0.597519 1.047092
-0.244859 0.418288 1.085619
-0.440676 0.443242 0.996904
-0.848934 0.470382 0.846435
-0.370936 0.398544 0.949289
-1.042071 0.216055 0.435002
-1.096020 0.124803 0.304884
-0.528696 0.385448 0.839920
-0.909158 0.182888 0.405327
-1.435071 0.290364 0.476406
-1.180231 0.203409 0.401234
-0.909104 0.306956 0.588286
-1.097987 0.299619 0.539712
-0.793955 0.219281 0.478465
-0.713492 0.344084 0.696881
-1.000932 0.273221 0.521545
-0.240645 0.468215 1.208096
-1.049072 0.396384 0.679720
-0.730440 0.648191 1.168174
-0.202360 0.453387 1.211312
-0.405461 0.459129 1.051472
-0.816458 0.581200 1.023145
-1.156726 0.173197 0.363881
-0.876392 0.286008 0.565121
-0.709076 0.510763 0.968112
-0.314739 0.406836 1.004265
-0.967523 0.152119 0.353831
-0.801910 0.240197 0.509758
-0.890282 0.184134 0.409664
-1.311000 0.206077 0.391043
-1.059449 0.231598 0.454577
-1.110489 0.312144 0.554074
-1.061103 0.479550 0.787685
-0.577297 0.440275 0.913905
-1.270213 0.272012 0.477260
-0.939866 0.468949 0.810420
-0.644960 0.574050 1.104990
-0.774258 0.224097 0.489576
-0.470010 0.342241 0.784906
-0.534868 0.498524 1.040169
-1.206515 0.189996 0.380990
-0.500773 0.348838 0.783891
-1.189294 0.193389 0.386871
-1.056960 0.204632 0.416941
-0.409375 0.420327 0.970950
-0.839495 0.384883 0.721255
-0.480698 0.437216 0.960949
-1.318135 0.105220 0.266985
-1.187659 0.398979 0.650150
-0.240040 0.433650 1.126367
-1.118891 0.208575 0.415274
-0.487316 0.394433 0.876849
-0.986406 0.429804 0.743181
-0.914447 0.482118 0.837305
-1.379115 0.209281 0.388116
-1.173729 0.330633 0.566576
-1.445886 0.207545 0.379379
-1.193930 0.130143 0.305816
-1.074442 0.305025 0.551045
-0.750718 0.460318 0.868311
-0.638916 0.280657 0.613386
-0.997184 0.437190 0.749979
-1.225697 0.195839 0.386472
-1.028377 0.258090 0.495449
-0.363829 0.509426 1.186241
-1.000699 0.507108 0.844180
-1.305511 0.319549 0.529603
-0.920866 0.453454 0.795199
-0.819614 0.358387 0.686961
-1.137149 0.188628 0.386657
-0.576688 0.348656 0.753857
-0.901731 0.438384 0.780614
-0.919218 0.316613 0.599762
-0.545659 0.505900 1.046638
-0.747171 0.371407 0.728905
-1.345958 0.111566 0.273358
-1.166233 0.260232 0.475627
-1.446638 0.262076 0.442599
-0.550110 0.419984 0.891663
-0.353008 0.382990 0.928510
-0.735833 0.600486 1.093286
-1.096493 0.341636 0.595517
-0.612613 0.580579 1.134927
-0.727263 0.587858 1.079218
-0.917074 0.462982 0.809731
-0.896840 0.178264 0.400149
-1.468147 0.029389 0.172885
-0.589908 0.433134 0.895895
-1.095635 0.239148 0.459396
-0.640122 0.528592 1.031224
-0.716103 0.251235 0.544780
-0.810109 0.462385 0.849656
-0.789383 0.299848 0.604721
-0.420053 0.511292 1.143668
-1.134175 0.427119 0.698754
-0.841383 0.579563 1.009370
-0.438109 0.412519 0.937712
-1.213490 0.295282 0.514388
-1.003996 0.188117 0.400275
-1.417030 0.048625 0.195477
-0.397298 0.433892 1.005779
-0.707271 0.650228 1.184917
-0.524297 0.491311 1.034017
-0.780068 0.485010 0.894893
-1.404632 0.252707 0.436688
-0.773675 0.454698 0.851392
-0.882705 0.324510 0.620104
-1.100850 0.165749 0.359446
-0.809030 0.532336 0.954581
-0.858676 0.288988 0.573496
-1.250179 0.256091 0.459862
-0.751842 0.439552 0.836490
-0.903900 0.299004 0.577824
-0.723688 0.467237 0.890931
-0.803066 0.210708 0.463137
-0.375340 0.494515 1.146873
-1.424226 0.316623 0.507850
-1.349075 0.345024 0.552845
-1.408367 0.093462 0.248678
-0.800951 0.327419 0.645656
-0.258596 0.429693 1.100627
-0.753428 0.319444 0.646182
-1.372705 0.161805 0.331632
-0.690310 0.274962 0.590085
-1.429706 0.239499 0.418674
-0.715092 0.504176 0.955247
-1.255131 0.105493 0.270901
-0.760555 0.441915 0.836868
-0.804352 0.564061 1.004594
-0.894589 0.562191 0.960257
-1.209098 0.338627 0.570232
-0.251945 0.427560 1.101508
-0.474808 0.531303 1.141058
-0.521886 0.377511 0.828559
-1.306641 0.352587 0.569128
-0.852732 0.265038 0.538324
-0.814471 0.249932 0.522474
-1.055867 0.428968 0.721790
-0.888318 0.505150 0.882167
-1.278960 0.352357 0.573719
-0.948195 0.280514 0.541133
-0.964879 0.212110 0.439357
-1.014627 0.295632 0.549690
-0.621584 0.433168 0.882130
-1.395331 0.149986 0.315933
-0.823581 0.532921 0.948624
-1.101169 0.295036 0.533042
-1.207735 0.298552 0.519507
-0.686118 0.550511 1.042811
-1.344685 0.193998 0.373156
-0.498871 0.381925 0.847128
-1.037824 0.292705 0.541190
-1.175263 0.235332 0.442823
-0.639842 0.424870 0.859974
-0.685864 0.349039 0.714923
-0.590263 0.474801 0.969307
-0.697993 0.378616 0.759513
-0.283769 0.404212 1.022413
-1.393274 0.280644 0.470072
-0.294559 0.418992 1.047070
-0.426878 0.372425 0.865243
-1.135831 0.266115 0.488332
-1.161208 0.133915 0.312530
-0.884583 0.392753 0.721028
-0.263958 0.480788 1.214105
-1.008378 0.365196 0.647164
-1.114501 0.319067 0.562319
-0.993322 0.506748 0.845990
-0.890832 0.347273 0.651001
-1.056346 0.114484 0.293941
-0.479065 0.410133 0.911259
-0.560178 0.566860 1.146707
-1.324350 0.284125 0.484545
-0.555697 0.447556 0.938540
-0.882740 0.399440 0.731587
-0.599439 0.506240 1.016388
-1.362408 0.159432 0.329802
-0.270025 0.483844 1.215092
-0.698401 0.518825 0.985577
-0.642709 0.458955 0.916142
-0.734148 0.301984 0.623069
-0.884858 0.581631 0.992368
-0.942851 0.187047 0.406084
-0.931729 0.230331 0.471565
-0.801472 0.608240 1.070144
-0.552353 0.399611 0.854777
-0.575326 0.603983 1.197106
-0.217414 0.450144 1.188365
-0.638368 0.533875 1.040934
-0.673337 0.543209 1.037489
-0.878759 0.195877 0.428489
-1.329303 0.261160 0.456151
-0.854225 0.452360 0.817481
-0.723288 0.446908 0.858089
-0.353707 0.448433 1.066043
-1.024020 0.286263 0.535004
-1.235634 0.312701 0.532635
-1.183030 0.234683 0.441073
-0.712986 0.255752 0.552712
-0.443028 0.398906 0.908995
-1.172685 0.338336 0.576714
-0.246288 0.475398 1.218802
-1.045805 0.354164 0.623343
-1.059385 0.160745 0.355938
-1.065076 0.483841 0.792103
-0.383443 0.514704 1.180669
-1.263680 0.344244 0.566602
-0.947929 0.207041 0.434666
-0.351478 0.450690 1.072471
-0.749950 0.398824 0.772875
-0.558459 0.586823 1.180525
-1.136285 0.244115 0.459032
-1.076860 0.184559 0.386638
-0.986916 0.447627 0.766976
-0.775566 0.389232 0.747346
-1.398193 0.305146 0.497993
-0.654158 0.477127 0.941026
-0.503588 0.483831 1.034733
-1.076251 0.269095 0.502398
-0.558866 0.498484 1.025914
-1.115468 0.341319 0.590978
-1.081091 0.388121 0.661410
-1.120956 0.146461 0.332143
-0.863137 0.432042 0.784687
-0.631981 0.610336 1.168922
-0.189467 0.449297 1.214570
-1.202757 0.185293 0.375317
-0.761699 0.383639 0.743450
-1.082919 0.348372 0.607424
-0.411568 0.426391 0.982190
-0.543498 0.395675 0.851640
-0.667642 0.407812 0.819050
-0.979481 0.323691 0.595842
-0.987553 0.158026 0.359756
-0.670364 0.284472 0.610823
-0.567541 0.406325 0.859813
-0.906653 0.205783 0.439381
-1.383914 0.338624 0.539785
-1.032603 0.444663 0.749752
-1.327959 0.101760 0.262284
-1.026966 0.348697 0.620146
-1.466198 0.140014 0.300451
-0.493919 0.377820 0.841710
-0.765275 0.363051 0.710126
-0.885132 0.292728 0.572993
-1.267459 0.139524 0.312653
-1.218244 0.133540 0.308693
-0.322731 0.417746 1.022446
-1.146443 0.188475 0.385365
-0.694743 0.587734 1.097165
-0.797451 0.533497 0.961773
-1.009604 0.200958 0.417745
-0.924280 0.447074 0.785175
-0.695551 0.654503 1.198231
-0.838132 0.338856 0.652330
-0.612669 0.384698 0.801879
-0.561113 0.554799 1.124132
-1.140549 0.384476 0.642347
-1.443738 0.219434 0.393877
-1.372996 0.272865 0.463535
-0.418190 0.404455 0.932852
-0.866147 0.488834 0.866896
-0.200926 0.435347 1.168982
-0.661375 0.515841 0.999013
-1.227179 0.141220 0.317477
-0.921197 0.472865 0.822113
-0.457961 0.530303 1.150875
-0.858248 0.190150 0.422884
-1.388036 0.301425 0.495109
-0.613103 0.503894 1.005046
-0.376707 0.377837 0.903726
-0.826065 0.385264 0.725700
-0.837719 0.466393 0.845053
-0.717717 0.633669 1.153701
-0.545963 0.440419 0.930773
-0.861586 0.497221 0.881221
-0.916929 0.244805 0.495269
-0.799343 0.445953 0.828751
-0.896325 0.408544 0.740173
-0.368815 0.473400 1.106477
-1.323604 0.242790 0.434253
-0.737408 0.406491 0.790255
-0.913134 0.450826 0.794125
-0.484446 0.417444 0.922276
-1.164990 0.427160 0.691147
-0.309620 0.394516 0.981518
-0.963530 0.252380 0.498657
-0.564634 0.523660 1.066352
-0.833294 0.546455 0.964456
-0.620304 0.567676 1.110087
-0.313613 0.472608 1.151302
-0.462835 0.475675 1.047456
-0.675466 0.275859 0.595376
-1.017256 0.355114 0.631050
-0.218852 0.436537 1.153629
-1.301224 0.095085 0.255013
-0.700585 0.648588 1.186346
-1.007975 0.488382 0.816329
-1.264925 0.350132 0.573542
-1.209058 0.407642 0.656454
-0.597776 0.319866 0.694181
-1.218039 0.070698 0.228033
-0.945744 0.308763 0.582102
-1.297276 0.178011 0.357762
-0.645788 0.325064 0.687139
-1.067016 0.413655 0.698175
-0.861777 0.594493 1.020866
-1.441987 0.276305 0.459444
-0.329860 0.388253 0.954929
-0.602939 0.496095 0.997671
-0.837186 0.289787 0.579263
-1.126254 0.367939 0.624049
-0.682008 0.632402 1.172729
-1.263602 0.366230 0.593655
-1.091025 0.320775 0.568967
-0.781400 0.413845 0.785545
-1.111751 0.241988 0.460558
-0.769989 0.356239 0.698425
-0.895462 0.307264 0.592059
-0.379361 0.474801 1.101263
-0.605915 0.288435 0.636544
-0.720281 0.479581 0.913230
-1.061221 0.319058 0.573097
-0.933589 0.393300 0.706691
-0.759011 0.523494 0.964764
-0.423199 0.524578 1.167701
-0.723715 0.541612 1.009493
-0.614451 0.422064 0.866256
-0.659276 0.573770 1.095794
-0.755339 0.597477 1.078703
-0.513304 0.421656 0.914269
-1.027294 0.361333 0.637163
-0.888207 0.235270 0.485366
-1.320230 0.316407 0.523514
-0.686260 0.562029 1.061481
-0.657780 0.297246 0.635616
-1.168634 0.390036 0.642969
-0.355590 0.397088 0.956414
-0.826932 0.414734 0.770016
-0.531478 0.494112 1.034490
-0.526064 0.425280 0.913880
-1.319960 0.356648 0.571781
-1.050959 0.375759 0.651404
-0.554974 0.430129 0.907215
-0.998023 0.136119 0.328445
-0.240807 0.419910 1.093179
-0.845317 0.452005 0.820569
-0.872759 0.568466 0.979083
-0.483982 0.516268 1.107364
-0.887124 0.469219 0.829206
-1.354707 0.306925 0.506730
-0.637750 0.439878 0.886549
-0.867898 0.314032 0.608592
-0.702345 0.513287 0.975069
-1.003133 0.154623 0.353132
-0.862178 0.235846 0.490570
-0.767349 0.600869 1.077378
-1.442055 0.313335 0.502006
-1.276931 0.193104 0.377638
-0.763782 0.614419 1.098972
-1.441720 0.055633 0.203271
-1.121104 0.259258 0.481856
-0.860958 0.292924 0.578988
-0.325269 0.404361 0.991826
-0.348692 0.440410 1.052958
-0.249215 0.439525 1.131643
-0.922210 0.477948 0.828851
-1.090095 0.349220 0.606992
-0.228877 0.452911 1.183395
-0.537346 0.357583 0.785726
-0.421513 0.527802 1.175668
-1.128794 0.239281 0.453893
-0.705230 0.530340 1.000588
-0.819953 0.457884 0.839238
-0.972886 0.400737 0.706561
-1.437924 0.067088 0.216502
-0.651455 0.568493 1.092376
-1.043894 0.421371 0.715188
-1.260909 0.217628 0.410565
-0.388036 0.438394 1.021172
-0.341920 0.495250 1.175840
-0.835649 0.525797 0.932816
-1.169023 0.413020 0.672059
-0.663511 0.548857 1.052040
-0.533851 0.464553 0.982110
-0.822474 0.310314 0.613537
-0.548574 0.587750 1.188780
-0.738165 0.366501 0.724284
-0.397681 0.404903 0.946093
-0.575106 0.422593 0.884330
-1.198594 0.201639 0.396733
-0.815369 0.230841 0.492261
-1.291472 0.376094 0.600513
-0.794065 0.585097 1.039467
-0.734183 0.581987 1.066484
-1.335545 0.295449 0.496186
-0.564028 0.402538 0.854814
-0.669129 0.326624 0.682011
-0.749869 0.294507 0.606483
-0.668433 0.597989 1.128631
-0.914259 0.208529 0.442346
-1.392735 0.145449 0.310862
-1.107260 0.349760 0.603978
-1.012539 0.376858 0.662137
-0.205107 0.419203 1.123734
-1.055986 0.323851 0.580674
-0.926076 0.168662 0.382000
-0.519084 0.500010 1.053466
-0.918442 0.402620 0.724380
-0.805517 0.559525 0.997211
-1.206794 0.402456 0.650368
-0.905276 0.527262 0.907520
-0.374730 0.388899 0.926907
-0.590591 0.357018 0.762668
-0.297176 0.425922 1.060520
-1.318958 0.269986 0.468326
-0.532594 0.325603 0.727905
-0.570580 0.364450 0.784565
-1.261947 0.272281 0.478670
-1.236241 0.230107 0.428839
-1.112098 0.119693 0.296822
-0.633129 0.554470 1.079521
-0.534317 0.473957 0.998431
-0.347616 0.486934 1.154316
-0.631365 0.558669 1.087877
-0.327749 0.430518 1.047091
-0.609524 0.292910 0.642991
-0.584079 0.576527 1.146496
-0.573403 0.520562 1.055773
-0.511878 0.568131 1.181809
-0.449870 0.489270 1.081820
-0.599768 0.423245 0.874683
-0.888341 0.201963 0.436183
-1.263043 0.261994 0.465837
-1.017008 0.444745 0.754383
-0.861996 0.306141 0.598350
-0.347825 0.473656 1.124349
-1.053736 0.126942 0.310866
-0.569558 0.439851 0.917037
-1.245796 0.204041 0.394905
-0.883800 0.473387 0.836755
-0.497794 0.405469 0.892239
-0.992748 0.236073 0.470060
-0.508839 0.377570 0.834033
-0.952509 0.468342 0.805623
-1.327673 0.252623 0.445852
-0.767069 0.396883 0.763154
-0.726413 0.419916 0.816117
-1.321152 0.323093 0.531299
-0.680042 0.424782 0.840947
-0.882949 0.422938 0.765217
-1.336040 0.246051 0.436656
-0.795375 0.630356 1.105706
-1.022621 0.138017 0.328611
-0.685812 0.610986 1.138127
-1.030674 0.286902 0.534598
-1.140759 0.115850 0.290045
-0.813372 0.571906 1.011503
-0.409172 0.431944 0.994551
-1.109538 0.236233 0.453299
-0.634509 0.590976 1.137852
-0.367991 0.517651 1.198932
-0.369513 0.411394 0.977229
-0.557796 0.464535 0.968744
-0.261370 0.440341 1.122775
-0.415962 0.549739 1.222400
-1.471365 0.070963 0.220695
-0.458817 0.375423 0.853971
-0.460080 0.513770 1.119362
-0.509616 0.336061 0.756832
-0.483784 0.460442 1.003321
-1.302197 0.158036 0.332960
-0.400781 0.399163 0.932296
-1.192812 0.209987 0.408492
-1.452053 0.161117 0.325525
-0.536070 0.346467 0.765706
-0.462070 0.432090 0.961847
-1.419986 0.081593 0.233914
-1.211097 0.381639 0.623354
-1.355867 0.119481 0.282348
-0.742832 0.241117 0.522630
-1.124426 0.421601 0.694083
-0.835232 0.332034 0.642836
-0.368151 0.522668 1.208182
-1.399194 0.295303 0.486240
-0.807888 0.342401 0.666260
-0.774877 0.461067 0.860583
-0.224999 0.427967 1.126724
-1.313846 0.320678 0.529605
-1.254677 0.405919 0.644468
-0.373683 0.373799 0.897086
-0.735507 0.554355 1.023161
-1.019566 0.126191 0.312812
-1.029718 0.468917 0.783096
-0.479292 0.555896 1.184337
-0.418467 0.365865 0.856365
-0.414827 0.469616 1.066418
-0.854617 0.505172 0.895877
-1.034817 0.485633 0.803745
-0.506858 0.495716 1.054110
-0.724480 0.648475 1.172119
-1.380568 0.094534 0.251384
-0.479105 0.524627 1.125960
-0.814495 0.425097 0.791396
-0.707977 0.456166 0.879986
-0.503180 0.403861 0.886260
-0.607858 0.471683 0.954088
-0.764028 0.418731 0.800199
-0.549395 0.318355 0.708352
-0.887949 0.334422 0.633141
-1.274730 0.117467 0.285068
-1.184428 0.312132 0.540685
-0.833249 0.398357 0.743373
-0.285588 0.470799 1.171264
-0.761492 0.306912 0.623482
-0.930494 0.558631 0.940724
-0.672946 0.348685 0.718691
-0.851957 0.516691 0.913811
-1.041485 0.464410 0.773540
-0.946991 0.448222 0.779669
-0.437677 0.483570 1.079575
-1.071808 0.321145 0.573636
-1.418061 0.218796 0.395663
-1.040155 0.170824 0.371548
-0.642529 0.631098 1.195456
-0.746459 0.320735 0.650233
-0.831472 0.276358 0.560091
-0.469123 0.434612 0.962493
-1.005091 0.268308 0.513954
-0.969513 0.452957 0.779343
-0.944700 0.197158 0.420655
-1.160173 0.302899 0.532899
-0.516218 0.512601 1.078374
-1.401194 0.300818 0.492417
-1.347765 0.352266 0.561772
-0.474337 0.339763 0.778250
-0.743111 0.653990 1.169475
-1.435709 0.242248 0.421135
-0.464035 0.388494 0.877852
-0.399661 0.505993 1.149672
-0.467129 0.515764 1.118113
-0.987165 0.462362 0.786907
-0.574241 0.312293 0.688853
-0.659678 0.375354 0.767696
-1.422025 0.036495 0.181415
-0.751216 0.489437 0.914799
-0.959345 0.164339 0.372033
-0.277870 0.419277 1.060646
-0.488466 0.490582 1.057493
-0.527347 0.354065 0.783144
-0.592826 0.310640 0.679606
-0.448112 0.474755 1.055152
-1.442197 0.049518 0.196225
-1.074453 0.414424 0.697278
-0.912071 0.522070 0.897694
-0.547317 0.408460 0.872726
-0.750250 0.446237 0.847185
-0.648389 0.458023 0.911842
-0.816743 0.209329 0.458492
-1.055665 0.411204 0.698070
-0.567517 0.602439 1.200045
-0.855789 0.556990 0.969762
-0.967681 0.531739 0.889442
-0.999176 0.514812 0.855073
-0.314365 0.448312 1.096144
-0.973465 0.349935 0.635060
-0.872762 0.508470 0.893419
-0.846098 0.586728 1.017207
-1.441689 0.027335 0.170688
-0.627426 0.387920 0.801082
-1.075612 0.424960 0.710740
-1.031680 0.369970 0.647869
-0.537784 0.398523 0.859396
-0.661669 0.460550 0.909662
-0.486947 0.541546 1.151286
-0.870320 0.396440 0.730397
-0.314396 0.470137 1.144998
-0.284104 0.489303 1.213861
-0.349764 0.407779 0.982742
-1.014712 0.371528 0.654258
-0.694789 0.621114 1.148192
-0.810533 0.210404 0.461136
-0.548438 0.606527 1.222504
-0.903720 0.572024 0.970418
-1.402654 0.218114 0.396377
-1.097704 0.102472 0.274902
-0.880895 0.558735 0.960925
-0.647022 0.371549 0.765614
-1.139815 0.088909 0.254637
-1.035385 0.449444 0.755331
-0.402887 0.365785 0.864700
-0.798678 0.526514 0.950672
-1.336792 0.325070 0.531136
-0.828226 0.225902 0.481835
-1.332532 0.055465 0.205798
-1.186663 0.112955 0.283794
-0.656051 0.590008 1.123799
-0.442620 0.358093 0.828361
-0.807270 0.311784 0.618990
-0.522349 0.454451 0.969847
-0.888538 0.491070 0.861135
-0.624711 0.608621 1.171058
-1.242449 0.119468 0.289449
-0.739684 0.370369 0.730058
-0.425072 0.467789 1.056121
-0.271118 0.418574 1.064295
-1.319353 0.176901 0.354898
-1.348942 0.129497 0.294833
-0.670214 0.453120 0.893107
-1.049338 0.173936 0.374881
-0.790576 0.424177 0.799013
-0.972071 0.228353 0.462077
-1.170520 0.173875 0.363416
-1.123729 0.198074 0.400768
-1.174074 0.271244 0.488851
-0.471740 0.370032 0.837406
-0.767703 0.465174 0.869426
-0.612534 0.479544 0.965015
-1.271666 0.276486 0.482581
-1.421841 0.110837 0.268728
-0.960650 0.422821 0.741264
-1.356509 0.332304 0.536557
-0.958276 0.515571 0.869276
-1.089880 0.219938 0.434438
-0.849129 0.210245 0.454458
-0.556786 0.308430 0.687997
-0.592677 0.387294 0.815264
-0.671431 0.486731 0.948487
-0.206686 0.452374 1.204509
-0.599509 0.566288 1.119979
-1.114568 0.167826 0.361235
-0.513066 0.545697 1.140790
-1.128733 0.266942 0.490708
-1.024107 0.476114 0.794368
-0.720712 0.274939 0.582244
-1.424303 0.115611 0.274300
-0.926264 0.401260 0.720187
-1.093207 0.224089 0.439613
-0.749180 0.388010 0.755408
-0.827578 0.439418 0.808510
-0.681424 0.375698 0.760931
-1.039958 0.417410 0.711008
-0.874984 0.500946 0.881325
-0.930871 0.535561 0.908875
-0.723203 0.372352 0.739604
-0.529331 0.376620 0.823996
-0.707635 0.602033 1.111955
-0.373216 0.530952 1.221368
-1.299045 0.314807 0.525014
-1.140165 0.232244 0.443097
-1.235628 0.376715 0.612091
-0.532175 0.501390 1.046917
-0.494969 0.444171 0.965972
-1.144642 0.208856 0.412631
-1.390857 0.076650 0.229508
-0.850408 0.320426 0.622108
-0.653823 0.281210 0.609781
-0.416429 0.486176 1.098562
-1.069289 0.394147 0.672190
-1.350433 0.311026 0.512283
-1.149830 0.178809 0.372137
-1.232282 0.157848 0.337497
-1.335621 0.093771 0.252444
-0.786036 0.569210 1.020306
-0.434516 0.519338 1.147987
-0.693669 0.393535 0.785669
-0.697510 0.391164 0.780309
-1.259550 0.359615 0.586248
-1.066187 0.161271 0.355985
-1.320594 0.096375 0.255879
-1.285413 0.263870 0.465235
-1.369087 0.187257 0.362615
-0.557543 0.348188 0.760483
-0.704186 0.270531 0.579193
-0.664528 0.448653 0.888376
-1.032426 0.387183 0.671275
-1.305023 0.063219 0.215766
-0.483788 0.336239 0.767286
-0.850492 0.431777 0.788546
-0.579700 0.542045 1.089467
-0.560230 0.534712 1.088204
-0.799745 0.297312 0.598619
-0.782474 0.247216 0.524816
-0.666433 0.641587 1.196296
-0.677797 0.444436 0.874918
-1.327439 0.097225 0.256765
-0.981557 0.222047 0.451254
-0.822325 0.409343 0.763228
-0.694204 0.499862 0.958200
-0.608814 0.440893 0.900911
-0.916952 0.330279 0.620059
-0.931452 0.510938 0.873272
-1.101635 0.225513 0.440247
-0.833411 0.558756 0.982941
-0.499374 0.570481 1.194621
-0.218923 0.421683 1.117215
-1.370964 0.331397 0.533167
-0.345675 0.516679 1.216026
-0.604792 0.510079 1.019827
-0.647466 0.309020 0.658609
-0.557016 0.381435 0.820545
-0.927127 0.273710 0.535288
-0.991241 0.154195 0.353864
-0.857219 0.532810 0.933973
-1.340741 0.330141 0.536520
-1.260231 0.404123 0.641180
-1.082488 0.222603 0.439110
-0.685732 0.652088 1.200317
-0.505021 0.554996 1.163240
-0.692495 0.295250 0.622889
-0.861838 0.454206 0.817138
-0.181815 0.427800 1.168376
-1.196770 0.126004 0.300374
-1.206760 0.273024 0.486872
-0.583732 0.469620 0.963698
-0.605682 0.500928 1.004181
-0.512568 0.558029 1.163539
-0.755628 0.415169 0.797555
-1.043407 0.239245 0.467224
-0.926774 0.262602 0.519546
-1.238445 0.329794 0.553571
-0.985211 0.308465 0.573255
-0.766046 0.366759 0.715506
-0.477949 0.400719 0.893885
-0.820430 0.439262 0.810897
-0.525048 0.534634 1.112379
-0.905402 0.198269 0.428480
-0.773943 0.621137 1.103456
-0.374710 0.525041 1.207242
-1.141429 0.456707 0.735017
-0.719957 0.460158 0.880886
-0.510534 0.509328 1.076349
-0.550794 0.511306 1.053017
-0.710296 0.352150 0.711350
-1.437641 0.143772 0.306390
-1.345589 0.168582 0.342486
-0.299513 0.396630 0.993265
-0.717462 0.292261 0.611622
-0.601931 0.347892 0.741549
-1.107688 0.217335 0.428388
-0.477199 0.549295 1.173102
-0.547747 0.447148 0.942213
-1.363690 0.117605 0.279743
-0.842832 0.393030 0.732626
-0.865575 0.183444 0.411924
-0.632839 0.300665 0.648971
-1.421114 0.240307 0.420587
-1.350210 0.287545 0.484454
-1.234381 0.096397 0.260472
-0.157031 0.436896 1.217710
-1.009448 0.228456 0.456697
-0.203580 0.430810 1.153968
-1.319162 0.234375 0.424453
-0.795847 0.562432 1.006137
-0.391465 0.444067 1.030388
-0.452016 0.448713 1.000431
-0.635682 0.626032 1.191872
-1.153873 0.444103 0.715693
-1.268464 0.340096 0.560693
-0.458915 0.401474 0.905463
-1.401207 0.248449 0.432202
-0.810216 0.324086 0.637868
-0.410465 0.401156 0.930638
-0.355740 0.498513 1.171058
-0.875552 0.458123 0.817399
-1.344292 0.051468 0.200748
-1.251357 0.246397 0.447602
-0.324433 0.456343 1.105300
-0.800726 0.276135 0.566267
-0.368411 0.404999 0.964525
-0.808773 0.522397 0.939723
-0.375118 0.477867 1.110933
-0.893305 0.233179 0.481503
-0.744278 0.627311 1.129163
-0.880229 0.236148 0.488010
-1.149575 0.332591 0.573509
-0.688238 0.573679 1.078777
-0.749437 0.500661 0.934113
-0.851241 0.543348 0.951340
-0.772082 0.378335 0.731225
-0.527322 0.460344 0.977969
-1.006306 0.435902 0.745604
-0.908833 0.319268 0.606139
-0.588667 0.555754 1.108042
-0.802811 0.353104 0.683954
-1.458828 0.094904 0.248331
-0.819910 0.472819 0.861840
-0.321685 0.450176 1.094384
-1.412935 0.341699 0.539077
-1.163455 0.092744 0.258551
-0.854047 0.457173 0.824712
-0.967981 0.521586 0.874304
-0.640162 0.445399 0.894686
-1.257382 0.255562 0.458424
-1.268190 0.216476 0.408339
-0.626347 0.524899 1.032623
-0.953251 0.181896 0.397526
-0.867198 0.425190 0.773646
-1.068341 0.302209 0.548354
-0.826917 0.358986 0.685702
-0.498263 0.552742 1.163811
-1.027718 0.240036 0.470514
-1.173709 0.395005 0.648164
-0.292550 0.400935 1.008283
-0.368007 0.423804 1.004385
-0.883377 0.510265 0.891781
-0.907071 0.231731 0.477545
-1.383137 0.349236 0.552471
-0.345473 0.509921 1.201899
-1.433986 0.185860 0.355008
-1.265567 0.075399 0.231917
-1.123350 0.307352 0.545441
-0.379012 0.485047 1.123472
-1.215399 0.128462 0.302456
-0.958977 0.465933 0.800355
-0.450366 0.376252 0.860283
-1.454752 0.051395 0.198277
-0.324354 0.500419 1.200749
-0.963224 0.436902 0.759435
-0.956061 0.477517 0.817146
-1.136933 0.379130 0.636372
-0.911939 0.254330 0.510094
-0.811709 0.254775 0.530662
-1.024734 0.504263 0.831913
-1.383800 0.307008 0.502355
-0.974098 0.342066 0.623637
-1.057826 0.172130 0.371589
-0.746662 0.582650 1.060729
-1.252379 0.268517 0.475178
-0.693077 0.495611 0.952193
-1.251558 0.171372 0.352748
-0.433793 0.391410 0.899539
-1.227644 0.123020 0.294819
-0.773961 0.569932 1.027188
-1.035997 0.148101 0.341024
-0.506141 0.574647 1.196828
-0.442018 0.406296 0.923700
-1.031076 0.307089 0.562348
-0.622847 0.359233 0.753209
-0.177188 0.444852 1.216349
-0.484700 0.453396 0.989060
-0.169664 0.434450 1.198940
-1.073108 0.264032 0.496102
-0.473516 0.411684 0.917218
-0.891722 0.313634 0.602186
-1.270592 0.234139 0.430188
-0.682720 0.636578 1.178627
-0.769753 0.592016 1.062531
-0.722864 0.376074 0.745846
-0.493305 0.528728 1.123598
-1.218731 0.268011 0.478988
-1.249590 0.074650 0.231866
-0.860278 0.565002 0.979727
-1.068716 0.150757 0.341688
-1.380482 0.300733 0.495421
-1.285387 0.342611 0.560701
-1.325524 0.363632 0.579282
-0.698116 0.669187 1.219686
-0.620766 0.396991 0.820047
-0.640032 0.305876 0.655569
-0.898320 0.259066 0.519508
-1.199979 0.245577 0.452867
-0.163674 0.442799 1.224808
-1.355639 0.274407 0.467993
-0.732603 0.402949 0.786272
-0.836071 0.421850 0.778069
-1.143433 0.321786 0.560618
-1.408034 0.298963 0.489423
-0.610092 0.425399 0.873861
-1.083661 0.443190 0.732535
-1.039638 0.309820 0.564470
-1.407808 0.063039 0.212391
-0.766740 0.630707 1.121680
-0.439262 0.505466 1.118652
-1.101313 0.230027 0.446333
-1.244273 0.150991 0.328280
-1.232766 0.219687 0.416171
-0.924555 0.386220 0.698980
-0.997437 0.256712 0.498858
-1.017198 0.310397 0.569673
-0.500329 0.388362 0.858606
-0.586587 0.618027 1.212732
-1.284779 0.177794 0.358349
-0.833330 0.264008 0.540715
-0.236074 0.460163 1.193424
-1.054943 0.446723 0.745834
-1.120320 0.297629 0.533050
-0.723100 0.250175 0.541528
-0.928919 0.173714 0.388803
-0.829933 0.372717 0.705576
-0.724602 0.381664 0.754365
-0.847871 0.236411 0.494303
-1.260198 0.066149 0.220595
-1.300630 0.266369 0.466334
-0.518823 0.550029 1.144686
-1.069392 0.387709 0.663460
-1.288077 0.150492 0.324682
-0.888613 0.530246 0.918018
-0.706128 0.403916 0.797964
-0.545003 0.539957 1.108260
-1.250756 0.165713 0.345871
-0.752794 0.298247 0.611769
-0.887394 0.223791 0.468459
-0.531668 0.570137 1.171589
-0.426328 0.437660 0.995000
-0.704430 0.583646 1.085342
-0.931249 0.297661 0.569387
-1.176745 0.119920 0.293248
-1.278629 0.079143 0.235987
-0.703247 0.443252 0.860659
-0.672182 0.364860 0.745954
-1.022503 0.168753 0.370512
-0.551116 0.542880 1.109350
-1.306749 0.119267 0.285204
-0.852076 0.600229 1.033690
-1.114483 0.307540 0.547285
-0.399608 0.385377 0.906166
-0.781288 0.298585 0.604796
-0.730456 0.530484 0.988578
-1.088421 0.135023 0.319171
-0.355634 0.504992 1.184030
-1.280683 0.325671 0.540983
-0.988054 0.278704 0.531565
-1.017795 0.159740 0.358656
-0.639926 0.524188 1.024035
-0.305991 0.472797 1.158286
-0.404223 0.440146 1.013900
-0.470022 0.431719 0.956651
-0.811683 0.441655 0.817724
-0.601502 0.525321 1.047451
-0.682038 0.286671 0.611462
-0.989316 0.204890 0.425798
-1.110977 0.328798 0.575565
-0.707724 0.260595 0.561848
-0.733717 0.466933 0.885585
-0.862430 0.407623 0.749346
-0.741995 0.278204 0.582565
-0.429891 0.525592 1.164198
-1.238475 0.271592 0.480599
-0.951981 0.222937 0.457386
-1.258034 0.125799 0.296515
-0.791557 0.281363 0.576144
-0.371389 0.513577 1.188402
-1.376514 0.304784 0.500814
-0.423138 0.552893 1.222574
-0.624294 0.557999 1.090891
-0.615711 0.453276 0.919075
-0.595898 0.497570 1.003955
-0.747187 0.316872 0.643726
-1.415591 0.252456 0.435142
-0.934449 0.203520 0.431686
-0.544202 0.400653 0.860250
-0.880730 0.381218 0.704693
-0.701083 0.591281 1.099125
-0.937260 0.346910 0.639228
-0.634379 0.540785 1.054949
-1.234603 0.122132 0.293292
-0.569923 0.454555 0.943550
-0.427153 0.502940 1.122435
-1.302875 0.172907 0.351129
-0.791393 0.383968 0.734020
-0.779972 0.505924 0.928196
-1.167889 0.183862 0.376731
-0.708963 0.505256 0.959713
-1.360522 0.228208 0.412611
-0.964928 0.187758 0.404445
-0.807981 0.422029 0.788842
-1.210815 0.423431 0.676111
-1.257213 0.398593 0.634917
-0.882145 0.183385 0.409641
-0.567356 0.409802 0.865839
-0.842458 0.447434 0.814930
-0.859558 0.544429 0.949398
-1.117826 0.234017 0.448861
-0.569529 0.544503 1.099761
-0.787644 0.327010 0.648981
-0.799803 0.474891 0.872350
-1.338819 0.355565 0.567276
-0.697706 0.644629 1.182042
-0.384220 0.502818 1.156105
-0.842572 0.525725 0.929914
-1.123030 0.294033 0.527778
-1.083937 0.149054 0.338305
-0.756759 0.622754 1.115324
-0.755323 0.547845 1.003204
-0.732755 0.416203 0.807983
-0.297811 0.445314 1.103115
-1.194703 0.240534 0.447101
-0.598936 0.548395 1.089154
-0.704726 0.331320 0.679020
-0.274507 0.449256 1.131717
-0.345674 0.415740 1.002296
-0.677468 0.500582 0.966975
-1.160792 0.389039 0.643422
-0.399669 0.511625 1.160901
-1.060656 0.488488 0.799487
-0.419416 0.417439 0.958831
-0.643950 0.403330 0.821051
-0.562423 0.390113 0.833559
-0.960167 0.369215 0.664941
-0.323149 0.410549 1.006470
-0.719393 0.415862 0.812522
-1.317356 0.215358 0.401547
-1.231292 0.256212 0.462154
-1.312235 0.348672 0.563446
-1.038851 0.305106 0.558064
-0.299842 0.499095 1.220439
-1.279538 0.181461 0.363199
-1.052286 0.179336 0.381943
-1.180412 0.385261 0.634326
-0.294343 0.451571 1.120118
-0.960977 0.409824 0.722946
-0.619037 0.290481 0.636001
-0.677774 0.330905 0.686637
-0.807439 0.505026 0.914806
-0.234418 0.448732 1.167839
-0.702069 0.480489 0.923537
-0.830671 0.281015 0.567329
-0.428303 0.497043 1.110902
-0.702317 0.579274 1.079621
-0.500692 0.509247 1.083015
-0.614799 0.372246 0.778934
-1.021969 0.185243 0.393927
-1.062940 0.405280 0.688382
-0.736305 0.474231 0.896549
-1.191227 0.413102 0.667295
-1.455824 0.039840 0.184978
-1.290134 0.166504 0.344155
-1.365756 0.279029 0.471921
-0.420283 0.515748 1.152343
-0.843354 0.225728 0.478579
-0.716719 0.260517 0.559605
-1.318205 0.078896 0.234601
-0.633659 0.330616 0.701015
-1.410925 0.322666 0.516836
-0.569030 0.608918 1.209864
-0.554406 0.460517 0.963206
-0.753535 0.250416 0.535159
-1.428210 0.080866 0.232625
-1.099305 0.392834 0.663343
-1.233221 0.149361 0.327038
-0.876315 0.579244 0.992947
-0.938923 0.200396 0.426360
-1.238811 0.298574 0.514439
-1.449922 0.025705 0.168749
-1.162107 0.377499 0.628488
-0.830038 0.452841 0.827911
-1.256809 0.084101 0.243515
-0.526789 0.402421 0.871812
-1.274684 0.286734 0.494714
-0.422428 0.386384 0.895952
-0.559203 0.538117 1.095080
-0.981403 0.149855 0.348967
-1.204247 0.232199 0.435388
-0.793754 0.232539 0.499400
-1.211567 0.139833 0.316843
-1.343446 0.249047 0.439385
-0.827371 0.586739 1.025953
-0.709982 0.382307 0.761000
-0.621294 0.383169 0.795383
-0.905324 0.255721 0.513111
-1.142465 0.336474 0.579825
-0.849622 0.230117 0.484097
-1.008922 0.468014 0.788074
-0.240998 0.475323 1.223526
-0.701012 0.458108 0.886595
-0.981717 0.519501 0.867019
-0.545225 0.459276 0.966027
-1.304716 0.262458 0.460977
-1.426585 0.260319 0.442889
-1.411675 0.327747 0.522741
-0.459080 0.422298 0.945241
-0.401047 0.519257 1.175295
-0.578422 0.577324 1.151616
-0.753670 0.562259 1.026156
-0.790958 0.368800 0.711207
-1.156312 0.091029 0.256627
-0.454140 0.519598 1.134065
-0.952356 0.151161 0.354240
-0.738833 0.597881 1.087901
-0.560185 0.313787 0.696277
-0.819881 0.538464 0.958718
-0.760482 0.546102 0.998151
-0.355805 0.491540 1.156912
-1.206107 0.342400 0.575651
-1.136531 0.127603 0.305757
-0.403641 0.536864 1.206017
-1.343691 0.105698 0.266456
-0.551172 0.518238 1.064868
-0.667817 0.382037 0.776107
-1.290062 0.309945 0.520685
-0.644367 0.599702 1.145284
-0.690666 0.352354 0.718837
-0.578822 0.396287 0.837257
-1.008641 0.150197 0.346566
-0.998170 0.486229 0.816346
-0.908283 0.496172 0.860709
-0.974356 0.193869 0.411977
-0.715317 0.359349 0.721257
-0.926962 0.351545 0.648330
-0.659982 0.533739 1.028919
-1.326392 0.081331 0.237415
-1.035690 0.258090 0.494050
-1.016165 0.345109 0.617700
-1.020497 0.234515 0.463875
-0.759929 0.300346 0.613203
-1.196426 0.102795 0.270330
-0.657769 0.393946 0.799383
-1.380284 0.272835 0.462599
-1.011575 0.381387 0.668607
-0.737514 0.328785 0.665863
-0.876540 0.240507 0.495144
-0.567330 0.312570 0.691698
-0.937867 0.307092 0.581523
-0.707565 0.534607 1.006246
-0.652480 0.505914 0.987433
-1.386423 0.153591 0.320673
-1.189369 0.120758 0.293877
-0.598467 0.608685 1.188916
-1.000414 0.285807 0.538936
-0.413609 0.413861 0.954954
-0.399906 0.495561 1.128730
-0.807059 0.481453 0.879614
-0.477919 0.461968 1.010133
-0.612004 0.397112 0.824115
-1.098767 0.336925 0.588759
-0.918880 0.535955 0.914050
-0.762533 0.432250 0.821525
-0.897149 0.508752 0.883941
-0.365867 0.420023 0.997777
-0.774354 0.374464 0.724697
-0.778956 0.518359 0.947655
-0.551844 0.604335 1.214630
-1.314479 0.367109 0.585357
-1.196069 0.358687 0.597991
-1.056276 0.225772 0.446959
-0.947850 0.158299 0.364841
-0.820774 0.319755 0.628228
-0.177811 0.447906 1.222764
-0.328405 0.441955 1.072030
-0.519101 0.414402 0.897682
-0.534741 0.482761 1.012792
-0.917116 0.288991 0.559858
-1.280272 0.334753 0.552063
-0.910074 0.292287 0.566412
-1.037996 0.133985 0.321611
-0.468302 0.499853 1.088330
-1.196933 0.302097 0.525769
-0.485380 0.509955 1.094904
-0.306248 0.399146 0.993665
-0.382981 0.411209 0.968147
-0.455801 0.482855 1.066034
-0.420806 0.540047 1.199147
-0.901018 0.469006 0.823487
-0.908533 0.454310 0.800513
-0.825548 0.324618 0.634266
-0.959588 0.245083 0.488721
-1.169803 0.121744 0.295907
-1.346891 0.235648 0.422849
-0.832075 0.383492 0.721237
-1.393792 0.228176 0.409273
-0.430425 0.480545 1.078211
-0.779503 0.625252 1.106548
-0.964350 0.200797 0.422920
-1.066754 0.236314 0.459948
-0.866857 0.522076 0.915351
-0.388878 0.376981 0.895328
-0.639527 0.316998 0.675038
-0.981114 0.252856 0.496253
-1.366571 0.321416 0.522022
-0.884067 0.218972 0.461801
-0.388749 0.461052 1.066788
-0.872125 0.201928 0.438280
-1.011369 0.250056 0.487018
-1.216601 0.160696 0.342055
-0.426800 0.472769 1.064979
-0.422467 0.440119 1.002187
-0.858789 0.318982 0.617972
-0.665859 0.609672 1.147799
-0.502269 0.378140 0.838283
-1.337063 0.051506 0.200904
-0.861269 0.314043 0.610223
-0.661599 0.543925 1.044911
-0.530988 0.423835 0.908469
-0.912047 0.542242 0.925225
-0.471532 0.526118 1.133900
-1.253518 0.213495 0.406187
-0.692511 0.409175 0.811798
-0.624860 0.536526 1.053158
-0.989375 0.286782 0.542407
-0.897189 0.284838 0.558445
-1.187380 0.279442 0.497581
-0.833436 0.542114 0.957848
-1.060003 0.493383 0.806184
-0.455772 0.417907 0.938639
-1.117934 0.372971 0.632710
-0.308850 0.434868 1.071374
-0.782009 0.360382 0.701128
-1.215974 0.220339 0.418917
-1.014201 0.267553 0.511198
-1.216709 0.254959 0.462730
-0.651224 0.448542 0.894609
-0.930000 0.483170 0.833517
-0.828607 0.343452 0.661800
-0.312680 0.409065 1.010842
-1.189182 0.258658 0.470749
-1.326995 0.346588 0.558426
-0.775894 0.469660 0.873207
-0.514537 0.495810 1.048965
-0.479980 0.546977 1.166227
-0.879192 0.512757 0.897185
-0.640534 0.428632 0.866105
-0.769635 0.231909 0.502834
-0.356247 0.519043 1.211360
-0.804319 0.294239 0.592984
-0.723812 0.259688 0.556617
-0.665186 0.475046 0.932223
-0.483423 0.348986 0.791555
-1.063746 0.333508 0.591827
-0.458010 0.353370 0.811613
-1.277233 0.104621 0.268537
-0.757244 0.350746 0.693896
-1.024560 0.386597 0.672469
-0.584899 0.376029 0.798775
-0.618606 0.294518 0.642938
-0.744655 0.428627 0.822601
-0.586462 0.436098 0.902466
-0.772933 0.249043 0.529571
-0.523125 0.563486 1.166163
-1.147187 0.372117 0.624931
-1.392584 0.293109 0.484577
-0.208683 0.441111 1.175638
-1.094634 0.182810 0.382751
-0.722233 0.485235 0.921751
-1.425640 0.091850 0.245868
-0.445180 0.414733 0.938192
-1.320960 0.349244 0.562659
-0.794809 0.620235 1.091266
-0.582425 0.379501 0.806001
-1.172987 0.162227 0.348219
-0.522972 0.558273 1.156799
-0.980412 0.506353 0.849361
-0.915953 0.184205 0.406291
-0.877904 0.268312 0.538038
-1.000621 0.458801 0.778015
-0.701994 0.496545 0.949540
-1.462949 0.051048 0.197832
-0.433408 0.450261 1.015314
-0.925952 0.420349 0.747787
-0.991862 0.240828 0.477198
-0.917121 0.340236 0.634401
-0.619956 0.596065 1.154051
-0.589612 0.576485 1.142685
-1.431170 0.294607 0.481737
-0.881235 0.336150 0.637279
-0.573360 0.433993 0.904784
-0.761097 0.609914 1.093813
-1.034881 0.193703 0.404267
-1.142842 0.102760 0.272696
-0.740740 0.313960 0.640773
-0.899481 0.458383 0.809211
-1.261066 0.108375 0.274243
-1.312582 0.176028 0.354290
-0.343033 0.418563 1.010109
-0.893420 0.191293 0.419793
-1.048858 0.456115 0.760228
-0.822170 0.558805 0.988298
-1.080161 0.202443 0.410899
-0.473414 0.364068 0.824947
-0.743646 0.451924 0.858208
-0.994917 0.360731 0.644449
-0.873885 0.298788 0.584639
-1.090159 0.429472 0.712819
-1.398631 0.286014 0.475625
-0.953716 0.376869 0.677451
-0.442064 0.546513 1.194950
-0.876073 0.209544 0.448975
-0.412874 0.405464 0.937985
-1.199446 0.081913 0.243085
-0.947439 0.387509 0.694520
-0.507059 0.492063 1.047320
-0.711812 0.389133 0.771513
-1.189269 0.199029 0.394361
-0.739726 0.386179 0.756009
-0.843434 0.520946 0.922883
-0.532525 0.361185 0.794261
-1.056832 0.464530 0.769107
-0.634903 0.499335 0.985684
-0.570496 0.567731 1.141164
-0.663809 0.414723 0.831947
-0.998168 0.336315 0.609710
-1.414422 0.224962 0.403388
-1.116082 0.133338 0.314871
-0.842430 0.553668 0.971034
-1.069665 0.307311 0.555108
-0.566810 0.368155 0.792764
-0.707369 0.645917 1.178342
-1.217765 0.408858 0.656089
-0.451693 0.442849 0.989242
-0.961950 0.299644 0.565693
-0.994392 0.144361 0.340022
-0.844275 0.542164 0.952828
-0.457536 0.385034 0.874399
-0.474695 0.539110 1.155320
-0.842044 0.374329 0.704685
-0.731528 0.298494 0.618106
-0.380410 0.507888 1.169330
-1.017684 0.514377 0.847989
-0.473329 0.534354 1.147622
-0.499767 0.355542 0.796660
-1.416328 0.337672 0.533799
-1.247695 0.110934 0.278264
-0.221831 0.435144 1.146778
-0.811090 0.557168 0.991039
-1.151800 0.208685 0.411567
-0.318355 0.496398 1.197540
-0.476980 0.354679 0.805251
-1.093257 0.120100 0.298771
-0.555199 0.601883 1.207840
-0.930128 0.424717 0.752658
-0.633774 0.513945 1.010422
-1.018319 0.181276 0.388773
-0.527274 0.502523 1.052372
-0.583624 0.518437 1.046029
-0.916796 0.504316 0.869370
-1.353132 0.107680 0.268383
-0.514435 0.451204 0.968254
-0.906096 0.332473 0.625884
-0.747716 0.394437 0.766524
-0.965151 0.399943 0.707553
-1.296181 0.162913 0.339344
-0.705751 0.471849 0.907304
-1.177556 0.128981 0.304970
-0.936913 0.482750 0.830622
-0.836606 0.455761 0.829690
-1.160986 0.369297 0.618533
-0.850882 0.584940 1.012525
-0.755338 0.532126 0.979509
-1.210334 0.413821 0.664018
-0.717059 0.378218 0.751584
-1.192459 0.147174 0.327153
-1.102054 0.364458 0.624733
-0.711190 0.642794 1.171361
-1.137387 0.391880 0.652652
-0.859600 0.247420 0.509194
-1.069566 0.435316 0.726187
-0.808990 0.400988 0.754544
-0.693733 0.638726 1.175439
-0.825973 0.269497 0.550840
-0.877465 0.260904 0.526710
-0.765081 0.527314 0.967675
-0.807294 0.619448 1.083612
-1.196461 0.167318 0.352761
-0.547123 0.471513 0.987394
-0.707966 0.292759 0.614858
-0.381360 0.495292 1.143498
-0.752761 0.525190 0.970230
-1.375828 0.292889 0.486828
-0.627448 0.322624 0.689029
-1.298300 0.208063 0.394504
-0.753991 0.258048 0.547292
-1.071387 0.379469 0.651869
-0.598451 0.341864 0.732442
-1.133093 0.457827 0.738688
-1.100541 0.406623 0.680763
-0.898204 0.533890 0.919249
-0.701957 0.641784 1.175256
-1.157972 0.333417 0.573064
-0.916067 0.272427 0.535621
-1.412424 0.287699 0.475966
-0.328534 0.451321 1.091489
-0.912690 0.268031 0.529885
-1.302460 0.111321 0.275657
-1.015343 0.349837 0.624283
-1.311619 0.260294 0.457407
-1.239675 0.401778 0.642380
-0.648026 0.358649 0.743737
-0.919596 0.261450 0.519173
-0.921683 0.564899 0.953117
-0.317561 0.477382 1.158796
-0.265777 0.454998 1.152388
-0.225697 0.441494 1.159384
-0.605934 0.411956 0.852689
-0.459047 0.502230 1.099065
-0.326621 0.447562 1.085122
-0.858216 0.500232 0.887069
-0.594424 0.417860 0.867807
-1.037365 0.506375 0.830738
-1.024034 0.489715 0.812617
-0.967198 0.277894 0.534102
-0.776269 0.591265 1.057875
-0.512125 0.427511 0.925742
-0.297045 0.458692 1.133825
-0.603291 0.554654 1.097481
-0.284769 0.441770 1.106019
-1.332560 0.186779 0.365677
-0.413994 0.516362 1.158640
-0.626739 0.475809 0.952049
-0.733637 0.353484 0.705036
-0.732597 0.385531 0.757665
-1.012600 0.136932 0.328119
-0.574044 0.338573 0.736278
-1.237523 0.225723 0.423213
-1.232573 0.197168 0.387447
-1.078610 0.134884 0.319706
-0.742073 0.233089 0.509931
-1.385735 0.080963 0.234919
-0.690100 0.253041 0.553873
-1.298714 0.131723 0.300980
-1.005902 0.263469 0.506960
-0.495309 0.384408 0.853507
-1.037260 0.202057 0.415793
-0.898022 0.251157 0.507488
-1.402186 0.316107 0.510377
-1.372277 0.281742 0.474157
-1.149334 0.239876 0.451683
-0.552745 0.443621 0.932913
-0.875552 0.248854 0.508153
-1.329874 0.047587 0.196240
-0.534363 0.365436 0.801389
-0.596557 0.373860 0.789813
-1.161092 0.271379 0.490967
-0.979271 0.458852 0.784481
-0.844806 0.252918 0.520900
-1.320750 0.299808 0.503733
-1.005705 0.514862 0.852848
-0.553733 0.593261 1.194387
-1.317758 0.281817 0.482864
-0.945349 0.229430 0.468019
-0.845714 0.305346 0.601044
-0.870050 0.540261 0.939284
-1.367594 0.178868 0.352670
-1.079409 0.381097 0.652284
-1.125220 0.282975 0.512671
-0.574367 0.301252 0.669356
-0.931456 0.366803 0.669089
-1.403157 0.243585 0.426405
-0.508435 0.347961 0.779274
-1.462856 0.155143 0.318042
-0.585959 0.343243 0.740237
-0.546301 0.350561 0.769261
-1.253013 0.096271 0.259256
-0.382064 0.442430 1.033669
-1.241043 0.250822 0.454250
-1.443016 0.085975 0.238231
-1.067883 0.241176 0.466325
-0.849231 0.285513 0.570223
-0.896939 0.255185 0.513693
-0.857905 0.371900 0.696779
-0.761007 0.369275 0.720804
-1.150212 0.338827 0.581475
-1.172699 0.263175 0.478510
-0.545663 0.311679 0.697572
-0.875184 0.356982 0.669693
-0.891090 0.423627 0.763515
-1.078709 0.256683 0.485422
-0.579057 0.400691 0.844937
-0.630311 0.578797 1.121571
-0.805224 0.525529 0.946111
-0.584367 0.307383 0.676751
-0.944139 0.161641 0.369990
-0.405198 0.363272 0.858282
-0.829781 0.410674 0.763031
-0.483252 0.466637 1.016120
-0.686042 0.400265 0.799633
-0.751348 0.485019 0.907342
-0.616636 0.442294 0.899894
-0.955997 0.233485 0.472247
-1.275621 0.356979 0.579944
-1.080999 0.481959 0.784899
-1.069432 0.446385 0.741044
-0.603743 0.300160 0.657442
-0.783047 0.438788 0.823889
-1.270564 0.166578 0.345580
-1.452579 0.097274 0.251141
-1.325129 0.180101 0.358382
-0.429117 0.520215 1.154089
-1.315203 0.052385 0.202316
-0.923942 0.266265 0.525222
-0.644510 0.294031 0.634233
-1.379688 0.035343 0.180753
-0.979093 0.510660 0.855676
-0.693619 0.664554 1.215153
-1.110335 0.324233 0.569766
-0.940101 0.169592 0.381684
-0.428765 0.528700 1.171462
-0.501207 0.392392 0.865693
-0.665537 0.622544 1.167449
-0.654687 0.300249 0.641623
-0.420177 0.468957 1.061632
-0.782878 0.600038 1.067684
-0.918492 0.431803 0.765849
-1.252199 0.147208 0.323106
-1.096009 0.234151 0.452656
-1.369858 0.237276 0.422516
-0.974628 0.225000 0.456727
-1.286056 0.306118 0.516786
-1.379480 0.150990 0.318123
-0.451357 0.414666 0.934777
-1.270401 0.209057 0.398732
-0.507986 0.524201 1.105193
-0.625226 0.529572 1.040976
-0.814045 0.364231 0.697452
-0.671213 0.474160 0.927833
-0.698018 0.338759 0.693646
-1.192441 0.085159 0.247487
-0.894928 0.466644 0.822235
-0.713381 0.460851 0.885218
-0.709257 0.304146 0.633233
-1.019664 0.206662 0.424544
-1.096278 0.432994 0.715824
-1.039283 0.367294 0.642555
-0.218642 0.427918 1.132242
-0.723282 0.671624 1.207861
-0.427882 0.515936 1.146579
-0.621988 0.554257 1.085737
-1.446938 0.202738 0.373689
-1.272066 0.388909 0.620089
-0.975203 0.337648 0.616992
-1.419497 0.097732 0.253205
-1.100889 0.128961 0.310111
-1.130634 0.292200 0.523972
-0.690945 0.472279 0.915166
-1.284411 0.193884 0.378083
-0.883396 0.452206 0.805988
-1.069286 0.168300 0.365249
-0.772387 0.637389 1.128434
-0.884976 0.370183 0.686945
-1.289543 0.295742 0.503753
-0.690992 0.527401 1.002867
-0.671548 0.368195 0.751737
-0.954283 0.548226 0.916999
-0.834325 0.493498 0.886748
-1.197572 0.368616 0.610012
-0.706674 0.286115 0.604274
-0.733408 0.410702 0.798698
-1.032385 0.126397 0.311833
-0.744040 0.291248 0.602792
-0.196559 0.442308 1.190728
-0.662588 0.635751 1.189432
-1.303292 0.048767 0.198166
-1.212404 0.171694 0.356696
-0.750885 0.411524 0.793378
-0.821766 0.575885 1.013214
-0.712731 0.638883 1.164533
-1.013787 0.360398 0.639195
-1.387747 0.191047 0.365318
-0.566106 0.500351 1.024886
-0.924967 0.340162 0.632374
-1.305450 0.163295 0.339179
-1.086131 0.329757 0.581974
-0.748942 0.514249 0.955192
-1.166358 0.156998 0.342069
-0.813978 0.546764 0.974001
-1.392850 0.248708 0.433459
-0.579980 0.613163 1.209239
-1.215458 0.156143 0.336557
-0.241758 0.438087 1.134968
-0.691700 0.656675 1.203766
-0.595250 0.383046 0.806625
-0.909273 0.417547 0.748797
-1.282373 0.092626 0.252943
-0.620246 0.632923 1.213916
