0.333576 -1.195165 0.533249
0.396279 -1.371293 0.560544
0.342638 -0.943899 0.411953
0.097163 -1.162106 0.812519
0.514363 -1.136012 0.319441
0.273907 -1.122247 0.569636
0.173471 -0.957279 0.646722
0.312622 -0.877536 0.410971
-0.085313 -0.689881 0.922514
0.548548 -1.192230 0.313025
0.322172 -0.977615 0.458771
0.554606 -1.339653 0.359063
-0.184509 -0.561035 1.060098
0.229099 -0.982604 0.555881
-0.177728 -0.923243 1.130433
0.480216 -1.070436 0.293231
-0.168075 -0.536301 1.012926
0.193885 -1.171678 0.692505
0.615147 -1.243445 0.244791
0.006056 -0.979226 0.894738
0.502285 -1.239725 0.389502
0.061005 -0.780772 0.719997
0.142337 -0.794754 0.572014
-0.152173 -0.627039 0.984454
-0.214352 -0.565639 1.085833
0.036444 -0.689149 0.708374
0.305357 -0.882924 0.395502
-0.045873 -0.816850 0.878012
0.545482 -1.093749 0.258786
-0.211810 -0.950071 1.191729
0.346711 -1.041291 0.464252
0.032359 -0.985134 0.859026
0.428580 -1.060383 0.374623
-0.019700 -0.884010 0.896652
0.005374 -0.643005 0.701957
-0.008461 -0.681613 0.748867
0.375307 -1.350213 0.579050
0.539420 -1.214078 0.335211
-0.068344 -0.913044 0.983395
0.078328 -0.876219 0.742851
-0.217634 -0.439907 1.040848
0.246989 -0.904830 0.515890
0.374110 -1.312977 0.567537
-0.164535 -0.790387 1.068558
-0.225043 -0.447524 1.103557
0.230700 -1.100911 0.613560
0.522170 -1.186298 0.339029
-0.235168 -0.625485 1.189451
0.044636 -0.837466 0.743112
-0.181266 -0.927286 1.168103
0.336374 -1.188628 0.526806
0.618677 -1.149472 0.211935
0.210081 -0.979869 0.608249
-0.017985 -0.913709 0.874939
0.168006 -0.875706 0.610910
-0.136477 -0.827792 1.032367
0.183713 -1.023390 0.665514
0.348394 -0.963277 0.388287
0.300420 -1.187237 0.569376
0.094850 -1.029653 0.788548
-0.023738 -0.690623 0.780191
0.408797 -1.100730 0.394487
0.225264 -0.802935 0.485317
0.289276 -0.883112 0.445271
-0.183794 -0.616502 1.081108
0.021444 -0.907134 0.813327
0.175171 -1.059386 0.665614
0.590586 -1.216279 0.255124
0.444835 -1.068688 0.359832
0.230297 -1.217234 0.693876
0.297745 -0.949726 0.445307
-0.213021 -0.938730 1.222562
-0.079794 -0.966332 0.990399
-0.054988 -0.567283 0.803242
-0.220166 -0.615201 1.154377
-0.172567 -0.896222 1.146120
0.276705 -0.948569 0.473143
0.275149 -1.159105 0.612353
0.068073 -1.130196 0.864522
0.508840 -1.116330 0.288015
-0.155264 -0.853878 1.074620
0.565052 -1.219828 0.284541
0.279935 -1.120408 0.561424
0.625279 -1.170413 0.191586
0.292134 -1.034779 0.501497
0.590201 -1.232363 0.264811
-0.138287 -0.866848 1.049527
0.278354 -0.880185 0.458257
0.481251 -1.221154 0.403108
0.116097 -1.056621 0.771074
0.447361 -1.166960 0.385506
0.276223 -1.118008 0.592320
0.382343 -1.275243 0.515862
0.468116 -1.396182 0.478335
-0.214858 -0.901440 1.184490
0.190410 -0.852216 0.564330
-0.094026 -0.940101 1.003134
-0.233481 -0.469195 1.132665
-0.044900 -1.033102 0.989556
-0.244632 -0.522146 1.138061
0.118611 -1.081531 0.751406
0.450408 -1.385254 0.517455
-0.075140 -0.610834 0.863637
0.182788 -0.839053 0.567646
-0.237198 -0.423661 1.079988
0.552130 -1.328205 0.381410
0.397290 -1.331955 0.550140
0.574652 -1.318213 0.327264
0.263875 -1.034778 0.565893
-0.250202 -0.448059 1.122244
0.199387 -0.860570 0.556467
0.298869 -1.229672 0.590799
0.409575 -1.332260 0.536583
-0.035158 -0.947967 0.944672
-0.182674 -0.460285 1.011345
-0.047571 -0.927901 0.956732
0.101629 -1.078142 0.799685
0.414185 -1.086977 0.407577
0.026150 -0.769431 0.738862
-0.106350 -0.576292 0.906774
0.523501 -1.283457 0.363574
0.067013 -0.701611 0.665000
-0.064190 -0.601764 0.838736
-0.160620 -0.824989 1.107311
0.682822 -1.255528 0.181280
0.290433 -0.998346 0.511822
-0.158190 -0.767073 1.048747
-0.092825 -0.685753 0.898832
-0.151243 -0.614503 0.977220
0.639703 -1.194711 0.190681
0.419256 -1.097455 0.407355
0.310181 -1.173043 0.550662
-0.052858 -0.875077 0.914351
-0.056700 -0.590601 0.818749
-0.103050 -0.575031 0.863387
-0.160988 -0.941621 1.139745
0.627093 -1.265502 0.244281
-0.134230 -0.721636 0.990749
0.493559 -1.162292 0.331203
-0.231828 -0.533284 1.154310
0.296134 -1.298775 0.633944
-0.133946 -0.631310 0.986797
0.514156 -1.342880 0.429114
-0.011436 -0.601494 0.742349
0.132232 -1.012316 0.701711
-0.225065 -0.826552 1.184852
-0.027318 -0.954787 0.906504
-0.131262 -0.963279 1.098233
0.361340 -0.968673 0.402964
0.153062 -0.797808 0.587231
0.034271 -0.712005 0.724698
-0.131736 -0.948041 1.094537
0.175092 -1.084893 0.677629
0.536338 -1.135331 0.294045
-0.213119 -0.582853 1.090197
0.555286 -1.153946 0.257163
0.457445 -1.288963 0.463225
0.448833 -1.406057 0.503194
0.201698 -1.060747 0.631296
-0.263183 -0.442212 1.151443
0.418933 -0.992336 0.345411
-0.251007 -0.758134 1.223894
-0.092073 -0.557760 0.832141
0.088879 -0.753074 0.659643
0.449504 -1.092148 0.341528
0.194976 -0.900138 0.557259
-0.067598 -0.655936 0.873116
-0.106914 -0.973538 1.033261
-0.099977 -0.564784 0.888277
0.462876 -1.340795 0.457542
0.058277 -0.909097 0.757000
0.291363 -0.911374 0.431265
-0.165758 -0.839208 1.120140
0.251182 -0.987020 0.556901
0.207395 -1.092176 0.666507
0.058242 -0.806329 0.738595
-0.118953 -0.972081 1.051381
-0.242941 -0.677485 1.218943
-0.117693 -0.990566 1.054850
0.131593 -0.880640 0.666286
0.349087 -1.170291 0.529526
-0.126041 -0.556266 0.899695
-0.083394 -0.754311 0.914239
-0.182787 -0.740750 1.121022
-0.248091 -0.413656 1.147364
0.024329 -0.775939 0.745327
0.167452 -0.809041 0.543240
0.371154 -1.347482 0.561094
-0.135916 -0.803912 1.022910
0.258351 -0.973468 0.540116
-0.183743 -0.715193 1.078066
0.477769 -1.126324 0.328664
-0.254719 -0.667146 1.201902
0.195932 -0.820701 0.508084
-0.005666 -0.865996 0.835706
-0.121018 -0.695916 0.991041
0.027090 -0.785976 0.777494
0.191021 -1.018497 0.653217
0.150745 -0.794118 0.588537
0.501609 -1.072638 0.270013
-0.109075 -0.990057 1.041615
0.034177 -0.976274 0.852926
0.235455 -1.244923 0.695753
0.231409 -0.915766 0.515601
0.223979 -1.134547 0.664548
0.103547 -1.046624 0.756394
0.321265 -1.306998 0.599203
0.613600 -1.215015 0.255849
0.290908 -1.111604 0.543565
-0.108099 -0.754508 0.957298
0.634312 -1.199227 0.225132
0.112739 -0.819833 0.630776
0.281302 -1.279999 0.633708
0.077856 -1.077294 0.803560
-0.044974 -0.644171 0.824894
0.198735 -1.133705 0.695884
-0.133293 -0.554231 0.912663
0.400587 -1.106861 0.407767
-0.200087 -0.464688 1.011106
-0.263352 -0.649140 1.215231
-0.165929 -0.484276 0.945480
-0.122146 -0.984185 1.059908
0.511668 -1.092466 0.296312
0.482079 -1.029095 0.292282
-0.148856 -0.750525 1.062280
-0.072910 -0.598170 0.817452
0.022166 -0.910270 0.843242
0.271409 -1.254019 0.660362
0.484062 -1.325104 0.452181
0.414053 -1.144321 0.439087
0.448015 -0.964784 0.293901
0.516863 -1.097478 0.267563
-0.237026 -0.568873 1.176215
-0.192906 -0.516637 1.059773
0.407564 -1.184285 0.441212
0.312603 -1.304954 0.608308
0.470733 -1.221351 0.414916
0.062517 -1.087861 0.857282
0.037254 -1.070736 0.885324
-0.169386 -0.987445 1.156446
0.066005 -0.695741 0.631083
0.560755 -1.241914 0.327150
0.579216 -1.338238 0.333095
0.619453 -1.199206 0.240817
0.084758 -0.701086 0.604700
0.282785 -0.992414 0.490490
-0.160519 -0.818111 1.071264
0.455380 -1.143085 0.390290
0.613307 -1.199228 0.247322
-0.280789 -0.531524 1.223111
-0.119391 -0.530251 0.909611
0.628101 -1.201349 0.232881
0.181083 -0.847756 0.575276
-0.036755 -0.975834 0.957009
0.035529 -1.008987 0.863729
-0.140220 -0.742894 1.044001
0.647948 -1.326553 0.279379
-0.085596 -0.582557 0.868544
0.415895 -1.292600 0.510834
-0.055376 -0.636520 0.840450
-0.006396 -0.956735 0.876147
0.045211 -0.752364 0.729641
0.241413 -1.161262 0.628896
0.001492 -0.832548 0.841011
0.396012 -1.115062 0.417826
-0.143346 -0.730461 1.045338
-0.071813 -0.808602 0.950441
-0.176072 -0.629986 1.034453
-0.241190 -0.635506 1.166412
0.144753 -1.121652 0.760624
0.035823 -0.887654 0.782071
0.336864 -1.308811 0.608321
-0.273766 -0.531038 1.206616
-0.132266 -0.943619 1.094064
0.551771 -1.111988 0.262657
0.595587 -1.249506 0.268807
-0.202799 -0.973718 1.184496
0.361332 -1.252612 0.553852
-0.030422 -0.765022 0.862050
-0.206216 -0.967752 1.187094
-0.091579 -0.589452 0.848413
-0.010015 -0.922398 0.897550
0.006148 -0.903028 0.865006
0.096217 -0.908979 0.732665
0.132875 -0.860713 0.623547
0.432893 -1.272485 0.457750
-0.147878 -0.846075 1.058497
-0.190222 -0.979399 1.171874
-0.175895 -0.928841 1.159710
-0.161025 -0.812394 1.070123
0.709851 -1.278272 0.192111
0.366499 -1.304617 0.546820
-0.260752 -0.452554 1.195134
0.472633 -1.330300 0.442273
-0.115542 -0.526102 0.899847
0.412364 -0.941380 0.322934
-0.049987 -1.027724 0.995161
0.113436 -0.727649 0.575290
-0.216916 -0.778954 1.193558
-0.123984 -0.792568 0.998497
-0.032302 -0.722840 0.844608
0.166148 -0.854661 0.601172
0.313118 -1.190990 0.581394
0.139014 -1.060287 0.715423
0.055414 -0.812857 0.746223
-0.223779 -0.541075 1.096918
0.291726 -1.070373 0.520989
0.500456 -1.046538 0.255135
-0.030379 -0.738756 0.816055
-0.123087 -0.776937 1.026466
0.203512 -0.976039 0.586094
-0.116728 -0.687796 0.944035
0.562154 -1.220448 0.288001
-0.237169 -0.758376 1.190817
0.482551 -1.139181 0.357308
0.008588 -0.915564 0.866633
-0.233564 -0.557133 1.125304
-0.001158 -1.028822 0.924068
-0.054118 -0.893233 0.954563
0.072603 -0.682151 0.645021
0.106575 -0.826746 0.674671
0.659807 -1.285670 0.221454
-0.287883 -0.417218 1.206968
-0.106127 -0.739172 0.946817
-0.139312 -0.780589 1.055423
0.080308 -0.989784 0.792853
-0.197923 -0.550026 1.084060
-0.147173 -0.715972 1.047214
-0.216039 -0.822942 1.201844
0.491972 -1.064575 0.302034
-0.214130 -0.487384 1.093080
0.478483 -1.072712 0.296650
0.432163 -1.219560 0.431783
0.351588 -1.310137 0.565977
0.042810 -0.920860 0.787167
-0.250460 -0.649745 1.227380
-0.017953 -0.998843 0.937461
-0.171240 -0.495273 0.962143
-0.252455 -0.596983 1.218771
0.595284 -1.292156 0.317141
0.605074 -1.162177 0.208283
-0.159273 -0.756483 1.082613
0.144097 -0.792551 0.568015
-0.225049 -0.876971 1.196169
-0.067963 -1.036967 1.024733
0.540507 -1.101193 0.242616
0.389256 -1.010018 0.365228
0.519939 -1.312584 0.408424
0.376858 -1.020970 0.386623
0.044546 -1.032557 0.859822
0.199557 -1.007339 0.636274
0.159391 -0.880368 0.626033
-0.201339 -0.468528 1.057891
-0.246568 -0.621089 1.173840
0.696021 -1.226730 0.176516
-0.053017 -0.690006 0.864188
0.205038 -1.151284 0.669995
-0.170961 -0.506047 0.966665
0.573954 -1.294192 0.315374
0.525192 -1.068322 0.266413
-0.114311 -0.522294 0.895477
-0.207722 -0.664307 1.108358
0.354324 -1.065917 0.441279
-0.139381 -0.891204 1.059604
0.415209 -1.030575 0.372937
0.562955 -1.162461 0.280297
-0.021611 -0.953681 0.926131
0.225454 -1.198169 0.664772
0.226979 -0.906373 0.544691
0.109425 -0.786065 0.616590
-0.084665 -0.687065 0.884858
0.354980 -1.039803 0.453275
0.226045 -1.036850 0.615888
-0.266015 -0.463239 1.213289
-0.047182 -0.866989 0.901348
0.412428 -1.108160 0.394246
0.172542 -1.107461 0.718003
0.550416 -1.346992 0.393051
-0.145340 -0.830765 1.082681
0.009523 -0.999693 0.869460
0.537038 -1.364028 0.415413
0.278592 -1.026743 0.542483
-0.152411 -0.505309 0.926374
-0.030403 -0.665728 0.810924
0.466887 -1.349618 0.482514
-0.017726 -0.785855 0.818281
0.463464 -1.192143 0.407747
0.141126 -1.045210 0.732611
0.092890 -1.097888 0.819662
0.317633 -1.037358 0.471371
-0.110095 -0.978734 1.069554
0.336617 -1.143074 0.530409
-0.092221 -0.765253 0.967527
-0.186901 -0.834479 1.154786
0.455558 -0.995484 0.303291
0.710558 -1.278369 0.166525
0.101668 -1.019300 0.747340
-0.024365 -0.723318 0.797743
0.321346 -1.169293 0.561604
0.403629 -0.982617 0.331420
0.564392 -1.162917 0.252506
0.419017 -1.164492 0.417530
-0.144074 -0.828162 1.045472
0.522457 -1.089615 0.282330
0.248756 -1.056370 0.568763
0.464765 -1.388553 0.503591
0.458502 -1.176789 0.405096
0.474050 -1.393482 0.495844
-0.253608 -0.546596 1.209043
0.401386 -0.984677 0.335466
0.261817 -1.031567 0.538888
0.276342 -1.022991 0.543380
0.384456 -1.274740 0.537900
-0.228532 -0.838585 1.228561
0.437837 -1.284881 0.482943
-0.045459 -0.986070 0.974074
0.204357 -1.021787 0.637071
-0.238352 -0.746051 1.226129
0.633743 -1.333696 0.274819
0.415430 -1.083280 0.404094
0.368993 -0.895701 0.349273
0.214196 -0.987000 0.606469
-0.024873 -0.866191 0.864402
0.022380 -0.838778 0.810628
-0.149237 -0.659059 0.992333
0.063732 -1.133975 0.845846
0.058624 -0.715814 0.654858
-0.151853 -0.500743 0.962957
0.485027 -1.058734 0.280461
0.235330 -1.252867 0.676846
0.248825 -0.918383 0.493329
0.010262 -0.760935 0.759914
0.605234 -1.204070 0.258560
0.146306 -0.739035 0.562798
0.190058 -0.794618 0.530780
-0.011804 -0.793680 0.844070
0.324463 -1.111904 0.529311
0.153350 -1.125421 0.750897
-0.206582 -0.796322 1.145839
-0.248168 -0.636342 1.181867
0.442263 -1.196374 0.407835
0.335912 -0.971291 0.409181
-0.039261 -0.756914 0.872994
0.139800 -0.724007 0.563716
-0.216610 -0.746855 1.185745
-0.035228 -0.659658 0.784446
0.294366 -1.027422 0.522616
-0.001676 -0.833258 0.846442
0.092825 -0.796153 0.648153
-0.087541 -0.680848 0.921913
0.101570 -0.832412 0.655330
0.288486 -0.921753 0.441297
-0.134266 -0.899909 1.053990
0.222014 -1.093600 0.621100
0.407913 -1.026017 0.379142
-0.117335 -0.878967 1.050817
0.208175 -0.937140 0.588033
0.356882 -1.091121 0.478892
0.053097 -1.024686 0.815367
0.025773 -0.649203 0.670676
0.453894 -1.342788 0.468067
0.204798 -0.831635 0.501883
-0.113933 -0.960592 1.070324
0.052371 -0.727520 0.671921
0.242304 -1.210809 0.676233
0.385108 -1.172823 0.461107
0.535440 -1.164246 0.286019
0.275882 -0.974463 0.489657
0.201668 -1.056181 0.629162
0.244374 -0.871851 0.471262
0.444979 -1.017686 0.329263
-0.025755 -1.057061 0.970019
-0.201571 -0.867328 1.154686
0.269439 -0.892723 0.449910
0.683721 -1.246589 0.200157
-0.180586 -0.810011 1.137376
0.305726 -0.938797 0.428329
0.239052 -0.964815 0.561077
0.023125 -0.636706 0.701585
0.073693 -1.015904 0.812697
-0.063033 -0.836920 0.946974
0.453766 -1.134391 0.359881
0.541263 -1.146695 0.268869
-0.113403 -0.783730 1.011759
0.304138 -1.251182 0.619889
-0.013277 -0.737830 0.785609
0.415072 -0.959699 0.303156
-0.077021 -0.866551 0.981800
-0.052762 -0.590885 0.775859
0.312314 -1.023547 0.470353
0.040060 -0.874146 0.768576
0.046974 -0.778078 0.709922
-0.157091 -0.669089 1.012480
0.466429 -1.401403 0.487199
-0.225026 -0.523924 1.134092
0.046958 -1.119879 0.882796
0.681144 -1.255133 0.207604
-0.034227 -0.683155 0.794821
-0.048642 -0.693395 0.825241
-0.023885 -0.779199 0.824976
0.118742 -0.903675 0.666869
0.283734 -1.225819 0.632523
-0.136240 -0.629285 0.954592
0.282833 -0.878366 0.451118
0.637970 -1.276461 0.238803
0.086863 -0.761506 0.667707
-0.230763 -0.646761 1.147471
-0.037815 -0.991489 0.934792
0.053257 -0.664382 0.666669
-0.025585 -0.847362 0.857220
-0.092419 -0.665306 0.923787
0.371361 -0.924154 0.335507
-0.239535 -0.492315 1.114281
0.276787 -0.921000 0.484877
0.358476 -1.196075 0.530832
-0.227359 -0.845617 1.227892
0.050999 -0.728225 0.706728
0.376042 -1.172993 0.471892
-0.245156 -0.813280 1.218535
0.216621 -1.214164 0.682570
0.207459 -0.860889 0.545125
-0.069200 -0.874015 0.940894
-0.020965 -0.937990 0.890006
-0.013626 -0.682089 0.758168
0.111207 -1.156318 0.819529
0.245303 -1.213989 0.674016
0.013225 -1.012209 0.868905
0.081121 -1.052364 0.788617
-0.084529 -0.621043 0.852095
0.433067 -0.963152 0.310853
0.502636 -1.287344 0.388285
0.385500 -1.274098 0.511828
0.476813 -1.114671 0.349339
0.703037 -1.244397 0.179528
0.004454 -0.848090 0.812793
0.411442 -1.224679 0.458060
0.072041 -0.864300 0.714843
0.055869 -0.798808 0.738451
-0.115535 -0.799659 0.986660
0.124001 -0.816981 0.642177
-0.099439 -0.784547 0.987552
0.423241 -1.163335 0.412054
0.349001 -1.207125 0.520912
0.483603 -1.096542 0.305212
-0.269505 -0.436989 1.166013
0.332229 -1.182121 0.554690
0.610964 -1.244960 0.275377
0.405988 -1.039218 0.389420
0.439001 -1.320717 0.498555
-0.203003 -0.857075 1.154417
-0.102546 -0.765562 0.952132
0.703729 -1.275257 0.171578
0.235710 -1.141940 0.653300
-0.240443 -0.556424 1.179738
0.569960 -1.294979 0.319881
0.328440 -0.929967 0.393876
-0.182161 -0.702630 1.071119
-0.156987 -0.786744 1.053636
0.207953 -0.909432 0.543917
0.690144 -1.251625 0.171718
0.040903 -0.728716 0.691950
0.359614 -1.012574 0.431617
0.374985 -1.229997 0.502318
-0.063725 -0.823123 0.942577
0.125997 -0.863926 0.635428
0.411009 -1.074621 0.404453
0.077956 -0.855016 0.701706
0.017735 -0.830627 0.783141
0.342995 -1.179731 0.514169
0.064589 -1.050547 0.810167
0.193819 -1.106657 0.690310
0.674191 -1.297133 0.238497
0.234931 -1.135049 0.651182
-0.261310 -0.435557 1.144499
-0.087715 -0.565471 0.864171
0.286676 -0.878986 0.418288
-0.183044 -0.536745 1.007378
0.138332 -0.770115 0.562814
0.318802 -1.246403 0.574700
-0.050874 -0.934029 0.934603
0.034394 -0.889835 0.785450
0.477287 -1.188191 0.390066
0.654990 -1.321355 0.271529
0.274819 -0.852486 0.417738
0.418004 -0.988394 0.344148
-0.255499 -0.438008 1.131265
0.083001 -0.967591 0.779534
-0.227220 -0.440695 1.106167
0.261839 -0.901509 0.493472
-0.011320 -0.997490 0.899599
0.173410 -0.823067 0.542992
-0.227350 -0.660092 1.144746
0.490288 -1.054121 0.297711
-0.089548 -0.887911 1.008917
0.043019 -0.955149 0.802001
0.534572 -1.146041 0.276165
0.254258 -0.881232 0.491720
-0.095706 -0.719887 0.954582
0.161202 -0.748675 0.546115
-0.081320 -0.974702 1.024596
-0.120507 -0.622515 0.921820
-0.027620 -0.764284 0.824064
-0.258701 -0.713430 1.222292
-0.109360 -0.991105 1.072148
0.548587 -1.205346 0.320361
0.378561 -1.049637 0.429661
0.031381 -0.728940 0.738870
0.018787 -1.025991 0.866083
0.013701 -1.006980 0.866128
-0.023432 -0.640330 0.751995
0.058718 -0.996491 0.796176
0.357683 -1.130378 0.498615
0.522567 -1.377996 0.412312
0.575028 -1.240106 0.285285
-0.139884 -0.688490 0.987852
-0.144302 -0.946667 1.113507
0.062894 -0.855680 0.723677
-0.194151 -0.740252 1.141667
-0.090312 -0.860205 0.968619
0.443948 -1.068354 0.334386
0.579090 -1.271486 0.323146
-0.212753 -0.613436 1.138592
0.282599 -1.174981 0.585050
0.213902 -1.055398 0.613056
0.703606 -1.297393 0.197585
0.478652 -1.372721 0.455955
0.181187 -0.940899 0.598658
0.154267 -1.075267 0.701504
0.471107 -1.063658 0.299585
0.389239 -1.079540 0.433221
0.306205 -1.059046 0.497059
0.248040 -1.193036 0.634908
0.672603 -1.237492 0.181331
0.075949 -1.038067 0.789520
-0.053565 -0.811418 0.920957
0.131421 -0.735010 0.583024
0.134834 -1.039433 0.738395
0.108725 -1.142513 0.817022
-0.119794 -0.946296 1.045114
-0.186093 -0.905027 1.139316
-0.225226 -0.582445 1.155374
-0.031485 -0.943081 0.937270
-0.065886 -0.598851 0.804697
0.557250 -1.367431 0.371073
-0.168592 -0.517353 0.966938
0.085842 -1.079717 0.821542
0.376066 -0.937130 0.337599
0.024837 -1.036327 0.861172
0.266313 -0.925748 0.501900
0.063653 -1.008374 0.794259
-0.078003 -0.835335 0.971542
0.232999 -1.147637 0.633109
-0.172155 -0.607489 1.052516
0.200371 -1.199490 0.723182
0.120406 -0.967027 0.725493
0.458008 -1.293730 0.464852
0.277952 -1.225515 0.639307
0.237695 -0.822984 0.479778
-0.172759 -0.869153 1.108233
0.391677 -1.236454 0.511697
0.015606 -0.729825 0.766239
-0.132371 -0.719996 1.020866
0.377822 -0.961341 0.349925
0.285401 -1.162426 0.575475
-0.011483 -1.052983 0.948054
0.335635 -1.257371 0.560237
0.114909 -1.100761 0.764347
0.090431 -0.697146 0.625080
0.627087 -1.191152 0.201884
0.130481 -1.143135 0.761631
0.249698 -1.049839 0.591837
-0.060690 -0.697732 0.848544
-0.009021 -0.808973 0.846735
-0.162232 -0.545680 1.005512
0.324271 -0.986599 0.461430
0.014642 -0.775346 0.792569
-0.019664 -0.919437 0.879946
0.062389 -0.673845 0.656887
-0.205167 -0.754209 1.131396
0.418791 -0.974397 0.334782
0.371113 -1.045590 0.408187
-0.225337 -0.919305 1.227030
0.061189 -0.712762 0.681013
0.179962 -0.950125 0.605151
0.595396 -1.321251 0.332450
0.482127 -1.117014 0.344666
-0.070720 -1.032818 0.998663
0.472547 -1.291209 0.447937
-0.129177 -0.631602 0.977227
-0.238990 -0.661224 1.207139
0.078468 -0.779950 0.661180
-0.081037 -0.945610 0.985070
0.223105 -1.230957 0.708963
-0.207007 -0.514404 1.088781
-0.218698 -0.774068 1.195381
0.236474 -1.082151 0.597346
-0.160294 -0.560641 0.970918
-0.073836 -0.568144 0.839185
-0.217472 -0.909043 1.190578
-0.186640 -0.546381 1.058518
0.081988 -1.057900 0.789810
0.607061 -1.340210 0.330576
0.664721 -1.288312 0.242959
0.075517 -0.956940 0.785394
0.119358 -1.089698 0.753871
0.178189 -1.020991 0.643703
0.604559 -1.242416 0.280735
0.494849 -1.105253 0.323127
0.484246 -1.246189 0.387011
-0.032356 -1.005777 0.960820
0.008697 -1.053695 0.892057
-0.111492 -0.834869 0.993075
-0.074031 -0.691252 0.868315
0.012850 -0.726790 0.769177
0.239032 -1.004855 0.554571
0.346233 -0.930471 0.371401
-0.254313 -0.688114 1.205921
0.021753 -0.999514 0.851194
0.479215 -1.187719 0.361142
0.044064 -0.849986 0.750208
-0.032634 -0.694127 0.829902
0.078116 -0.763917 0.683019
0.151917 -1.017362 0.705960
0.250031 -1.047925 0.562711
0.108600 -0.780210 0.644562
0.067999 -0.946097 0.761520
0.313828 -0.907429 0.427401
0.269016 -1.062190 0.573242
0.014703 -1.023888 0.899141
0.064416 -0.935778 0.791572
0.322136 -1.057952 0.476794
-0.150122 -0.531442 0.934691
-0.204771 -0.922021 1.173478
-0.071898 -0.879161 0.977820
0.102624 -1.082029 0.772516
0.129842 -0.893591 0.675521
0.433552 -1.227774 0.460219
0.470072 -1.226567 0.392622
-0.141273 -0.861772 1.084417
0.382973 -1.257678 0.531522
0.298325 -1.260224 0.604883
-0.064634 -0.943143 0.987465
0.023925 -0.982975 0.841418
0.553360 -1.107494 0.258212
0.477607 -1.252107 0.397327
0.047076 -0.695622 0.694699
0.122370 -0.752241 0.576420
0.120385 -0.740154 0.572153
0.131167 -0.912646 0.683481
-0.000089 -0.638368 0.708645
-0.225396 -0.454475 1.065354
-0.049855 -0.729654 0.878436
-0.003756 -0.732146 0.766954
0.466275 -1.086451 0.319102
-0.144419 -0.491288 0.942582
0.295961 -0.998940 0.505103
0.313576 -0.983425 0.473598
0.427128 -1.315566 0.509231
-0.173242 -0.620188 1.024243
0.118454 -0.964237 0.697615
0.018841 -0.689855 0.706468
-0.142976 -0.940222 1.080095
-0.182121 -0.729204 1.116155
-0.002169 -1.062746 0.938258
0.095840 -0.845549 0.670757
-0.247882 -0.570603 1.203305
0.292270 -0.974304 0.467252
0.317491 -1.315530 0.616128
-0.097852 -0.545422 0.874295
0.271822 -0.854313 0.451542
0.414081 -1.299739 0.516223
0.043020 -0.970110 0.807919
-0.268577 -0.408937 1.200229
-0.169728 -0.638564 1.025169
-0.002606 -0.884120 0.839080
0.343216 -0.939240 0.380599
0.013080 -1.100633 0.916808
-0.102527 -0.685175 0.952572
0.046052 -0.703749 0.701022
-0.159970 -0.560180 1.007454
0.171495 -0.813368 0.568930
0.514925 -1.070944 0.279664
0.482060 -1.081262 0.323359
-0.139111 -0.506716 0.938581
-0.185547 -0.638119 1.057548
-0.173921 -0.798777 1.122677
0.443127 -1.131551 0.370905
-0.243370 -0.506817 1.129007
0.188549 -0.943805 0.618629
0.515789 -1.148507 0.299027
0.001124 -0.633020 0.703398
0.477965 -1.396783 0.488594
0.130147 -0.740507 0.557307
-0.140272 -0.751656 1.011751
-0.050123 -0.791533 0.874533
0.127759 -1.155911 0.770461
0.246077 -0.895038 0.511291
0.078696 -0.914322 0.760791
0.273739 -0.992802 0.502693
-0.096230 -0.956126 1.012113
0.470835 -1.074430 0.306521
-0.229208 -0.936118 1.216728
0.009740 -0.802722 0.782284
-0.012157 -1.080798 0.953775
0.099393 -1.137889 0.799946
-0.107480 -0.810043 1.011267
0.143953 -0.832646 0.621311
0.356728 -1.110677 0.461421
-0.227003 -0.421081 1.098322
-0.106016 -0.746076 0.949659
0.010004 -0.782620 0.771950
0.328359 -0.866577 0.383742
0.115035 -1.131716 0.803955
-0.097193 -0.781677 0.982575
0.663637 -1.224440 0.183069
-0.204023 -0.555969 1.099077
0.224253 -1.062582 0.631127
-0.051855 -0.703005 0.868784
0.354606 -1.284761 0.576582
0.032310 -1.089168 0.899618
-0.071647 -0.850161 0.935622
-0.036553 -0.686886 0.832840
0.311865 -0.933737 0.417391
-0.191387 -0.469733 1.035549
0.347757 -1.232715 0.534735
0.577914 -1.112633 0.234173
-0.026067 -1.004850 0.951302
0.099397 -0.699375 0.612005
0.579537 -1.279928 0.302166
-0.238678 -0.719331 1.220397
-0.063511 -0.653380 0.864423
0.662038 -1.250807 0.199477
0.277211 -1.262311 0.630764
0.328154 -1.121269 0.529572
0.569298 -1.204224 0.271272
0.249951 -0.881494 0.497831
0.146996 -1.057219 0.730017
-0.003591 -0.995694 0.915329
0.023589 -0.628935 0.696448
-0.220795 -0.809233 1.206560
0.290351 -1.168748 0.598454
0.101392 -0.829735 0.684375
-0.165079 -0.805415 1.074933
-0.070859 -0.611966 0.856482
-0.279402 -0.440809 1.192662
0.162181 -1.125368 0.712837
0.470499 -1.217479 0.413167
0.090276 -0.956069 0.763575
-0.078059 -0.993020 0.997058
-0.106795 -0.928526 1.048622
0.433317 -1.244278 0.442981
-0.071325 -0.986350 0.984369
-0.184916 -0.593381 1.074265
-0.181536 -0.844341 1.147709
0.398774 -0.956264 0.321252
0.384750 -1.119647 0.433373
-0.147319 -0.834996 1.053512
0.344313 -1.125162 0.484175
0.378810 -1.318169 0.539256
0.099570 -0.988724 0.765360
0.098336 -0.943090 0.716434
0.400555 -1.185339 0.449811
-0.262381 -0.602231 1.228010
-0.129126 -0.583353 0.919104
-0.296725 -0.356735 1.210416
0.156576 -0.991765 0.658567
-0.140052 -0.776693 1.020286
-0.094971 -0.817607 0.960101
-0.115662 -0.587291 0.930393
-0.046738 -1.044446 0.996176
0.338274 -1.266473 0.587022
-0.221217 -0.445628 1.051727
0.319770 -0.954553 0.419933
0.264816 -1.085901 0.590742
0.072964 -0.920085 0.741390
0.084585 -0.919666 0.724486
-0.069965 -0.993457 1.012688
-0.133367 -0.539168 0.941744
-0.168557 -0.560836 0.988391
0.472930 -1.024338 0.300266
0.450388 -1.273296 0.463628
0.335126 -0.951181 0.398196
-0.238550 -0.853066 1.214781
-0.029926 -1.063963 0.949405
0.198905 -0.958487 0.612181
0.536524 -1.214484 0.338591
0.386090 -1.010948 0.369578
0.172224 -1.196360 0.730062
0.607697 -1.160774 0.204630
0.514009 -1.194791 0.326673
0.235093 -1.112219 0.640764
0.232666 -1.249369 0.678496
0.146804 -1.128052 0.734058
-0.077300 -0.861647 0.980391
0.313322 -1.258389 0.586498
-0.003416 -0.983207 0.910400
-0.292693 -0.433404 1.223527
0.247793 -1.180544 0.629644
-0.124061 -0.634648 0.969030
0.369027 -1.182952 0.485233
-0.182253 -0.549302 1.049726
0.355019 -1.010631 0.407991
-0.112335 -0.968236 1.070031
-0.238591 -0.723634 1.221251
0.421316 -1.061636 0.384194
0.237296 -0.922764 0.511710
-0.240284 -0.453296 1.100239
0.252983 -1.190520 0.627837
0.383446 -1.029144 0.383595
-0.061638 -0.621005 0.809355
-0.178457 -0.876904 1.120036
-0.223500 -0.463566 1.106241
0.147490 -0.908682 0.657891
0.181645 -1.124020 0.713580
0.076937 -0.798205 0.704437
-0.007490 -0.828072 0.853330
-0.239363 -0.540672 1.132722
0.586423 -1.237018 0.297003
0.677120 -1.274181 0.197565
0.371402 -1.354618 0.564058
-0.204058 -0.528762 1.088357
-0.101483 -0.965248 1.051943
-0.082843 -0.821600 0.974214
0.632714 -1.294965 0.254531
-0.163666 -0.595755 0.993967
0.541548 -1.178270 0.312921
-0.061428 -0.718146 0.859704
-0.147627 -0.545165 0.936422
0.587252 -1.144797 0.217111
-0.063852 -0.653335 0.831568
-0.117561 -0.924127 1.065102
0.016795 -0.782838 0.792651
0.166929 -0.776643 0.553972
-0.139922 -0.885281 1.058612
0.234305 -0.916503 0.512076
0.432152 -1.357442 0.498230
-0.162747 -0.912726 1.103881
0.529680 -1.366018 0.399191
0.398655 -1.149376 0.459853
-0.194712 -0.522379 1.026002
0.456432 -1.147135 0.391297
0.008060 -0.817934 0.823482
0.326652 -1.262291 0.572790
0.597883 -1.349658 0.320835
0.370882 -1.213562 0.498793
0.409715 -1.025336 0.349824
0.307894 -1.240445 0.610460
0.031291 -0.883111 0.817300
-0.166522 -0.711414 1.043801
-0.075611 -0.651573 0.851357
-0.028126 -0.690796 0.820319
0.435441 -1.024219 0.317959
0.486646 -1.176208 0.346553
-0.130945 -0.516240 0.888105
0.681387 -1.303018 0.234689
0.151391 -0.908827 0.623409
0.500613 -1.354578 0.448927
-0.121103 -0.513712 0.904703
-0.049020 -0.947630 0.965958
-0.053191 -0.708265 0.873893
0.126286 -0.923872 0.666131
0.276881 -1.032877 0.548032
-0.128634 -0.787568 1.004658
0.098976 -0.992802 0.767841
0.282922 -0.875049 0.420883
0.417641 -1.107181 0.387432
0.698308 -1.300319 0.192076
0.658559 -1.264710 0.210841
0.555110 -1.355978 0.392598
0.062147 -1.092481 0.859639
-0.253384 -0.471163 1.138932
0.304462 -0.898482 0.434363
0.376685 -1.200277 0.485145
-0.112268 -0.955016 1.065848
-0.147469 -0.557281 0.942248
0.461989 -1.040192 0.296117
0.118920 -1.018222 0.723003
-0.023617 -0.639060 0.784621
0.241520 -0.987540 0.542319
-0.072260 -0.888780 0.951119
-0.097277 -1.032939 1.037336
0.069222 -0.852849 0.744945
0.572377 -1.312952 0.351757
-0.183767 -0.852055 1.122226
0.195788 -1.021993 0.648565
-0.054056 -0.605159 0.786502
0.000709 -1.084855 0.913736
0.375259 -1.250315 0.536746
-0.160829 -0.614724 1.033300
0.032345 -0.921050 0.803180
-0.196616 -0.966063 1.171265
0.697938 -1.251188 0.188507
0.146076 -1.064118 0.707484
-0.162860 -0.599184 1.030440
0.456737 -1.066571 0.318197
0.212064 -0.861180 0.509267
-0.144800 -0.640308 1.012897
0.432309 -1.094965 0.363066
0.133512 -0.793404 0.584153
-0.264675 -0.511296 1.222785
0.130982 -1.133336 0.756934
-0.019991 -0.617709 0.766507
0.662099 -1.279756 0.240722
0.555209 -1.330256 0.379156
-0.207278 -0.836033 1.190721
0.319780 -1.137334 0.548149
-0.132571 -0.532817 0.900618
0.365797 -1.169849 0.509275
0.112147 -1.083959 0.760879
0.626936 -1.197063 0.205445
0.360086 -1.323440 0.588334
0.162597 -0.985709 0.647232
0.093372 -0.748781 0.619714
-0.062406 -1.041234 1.018054
0.061487 -0.736222 0.662008
0.587887 -1.212493 0.281681
0.114857 -0.720448 0.568733
-0.207098 -0.562555 1.108070
0.345190 -1.071790 0.482780
-0.032413 -0.620876 0.790504
0.278139 -1.087537 0.546930
0.597654 -1.349249 0.342553
0.535681 -1.131163 0.266023
0.304476 -1.062836 0.501217
-0.095419 -0.573034 0.883339
-0.181574 -0.715772 1.074076
-0.110466 -0.584789 0.883848
-0.034983 -1.037866 0.976241
0.020162 -0.891337 0.837974
0.136350 -1.144745 0.754618
-0.235908 -0.867093 1.213178
0.630948 -1.265355 0.240124
0.410295 -1.241600 0.493134
-0.196274 -0.786990 1.159537
0.554170 -1.351136 0.391106
0.174565 -0.970406 0.651909
0.615439 -1.136104 0.207418
-0.022556 -0.704434 0.785070
0.265426 -1.052370 0.572862
0.397705 -1.354902 0.560497
0.126628 -0.954725 0.681626
-0.089999 -0.571191 0.871605
0.432849 -1.232401 0.437502
-0.254156 -0.615537 1.226614
-0.034326 -0.610529 0.788307
0.563864 -1.185545 0.266480
0.518540 -1.260561 0.357066
0.099527 -0.869395 0.707794
-0.138330 -0.687380 1.019259
0.678979 -1.281301 0.224664
0.158879 -0.914083 0.615734
-0.201030 -0.829499 1.144365
0.011927 -0.685842 0.715857
-0.051507 -0.659926 0.845498
0.126797 -0.711573 0.576553
-0.205604 -0.644211 1.134465
0.287938 -1.166305 0.574309
0.292437 -1.216972 0.592817
-0.194347 -0.791488 1.122729
0.520817 -1.273960 0.361612
0.209121 -1.101308 0.668304
0.317396 -1.195368 0.552717
-0.110146 -0.749433 0.958902
0.313339 -1.027676 0.471369
-0.268764 -0.507341 1.188338
0.100401 -0.955829 0.748684
0.635823 -1.181045 0.212584
0.352551 -1.061553 0.468140
-0.007626 -0.950006 0.904293
0.667759 -1.193571 0.186349
0.207546 -0.865951 0.548019
0.363125 -1.001705 0.392203
0.319582 -1.165196 0.535339
0.127909 -0.895595 0.679363
0.202484 -0.958052 0.607009
0.376394 -1.290296 0.554328
0.300910 -1.039035 0.492925
0.456456 -1.389201 0.512730
0.187304 -0.850036 0.567565
-0.012128 -1.004984 0.931361
0.075211 -0.800582 0.708516
0.517827 -1.382861 0.431651
-0.068470 -0.756437 0.889896
-0.100091 -0.733561 0.933237
0.195813 -1.070896 0.672029
0.500866 -1.018005 0.264009
0.178949 -1.162070 0.706888
0.051699 -0.721757 0.701886
0.236915 -0.989896 0.577433
-0.014669 -0.914867 0.870506
-0.232429 -0.513259 1.147752
0.120000 -0.859979 0.672518
0.116029 -0.810891 0.620545
0.244425 -1.167868 0.654092
0.130960 -0.997653 0.696410
0.128945 -0.966138 0.683952
0.173820 -1.135628 0.728741
0.042509 -0.942449 0.827242
0.288066 -0.990807 0.510746
0.451552 -1.025559 0.299482
0.331962 -1.235892 0.580067
0.046216 -0.740746 0.721504
0.466824 -1.122364 0.338544
0.467407 -1.340324 0.452490
0.444813 -1.264074 0.465433
0.289601 -0.987096 0.506764
0.032712 -0.804252 0.745978
0.016578 -1.080666 0.918400
0.032559 -1.006500 0.867075
0.493994 -1.091473 0.315811
-0.208490 -0.680256 1.151564
0.148875 -0.827986 0.611225
0.426506 -1.303800 0.504369
-0.096248 -0.955460 1.040969
0.265163 -1.252100 0.640587
-0.214335 -0.915197 1.187090
-0.156149 -0.887763 1.117290
-0.039546 -0.814653 0.899525
-0.243685 -0.554856 1.148322
0.014735 -0.959639 0.845858
0.055557 -0.933461 0.803593
0.105454 -1.019024 0.742052
0.093626 -0.746929 0.648519
-0.022902 -0.743829 0.839479
0.386471 -1.062634 0.399929
0.237537 -0.826886 0.482337
0.011685 -0.952277 0.876245
0.175940 -0.826550 0.541357
-0.098669 -0.696493 0.950218
0.434350 -1.181488 0.408958
-0.221006 -0.691210 1.179189
-0.116521 -0.616108 0.911054
0.324844 -0.964184 0.419227
0.468423 -1.044754 0.291204
0.186362 -1.105592 0.699420
-0.232939 -0.411844 1.109463
-0.027833 -0.909603 0.887812
-0.130092 -0.790350 1.008138
0.061017 -0.699102 0.673529
0.492400 -1.351310 0.456066
-0.221208 -0.561063 1.139709
0.665756 -1.245900 0.192966
0.396215 -0.935427 0.339266
-0.151179 -0.943682 1.093532
-0.131351 -0.914050 1.053709
0.474193 -1.359053 0.479311
-0.184045 -0.712376 1.114529
0.124182 -1.059943 0.761455
-0.076908 -0.929179 0.973019
-0.119109 -0.821324 1.000638
0.586490 -1.354505 0.351693
0.120744 -0.742841 0.604106
0.287333 -1.289168 0.643966
0.124717 -1.137908 0.793901
0.262920 -1.171153 0.607021
-0.072131 -0.800958 0.947866
-0.192558 -0.621862 1.064820
-0.274906 -0.413870 1.219201
0.119064 -0.843209 0.634335
-0.079387 -0.570822 0.814763
-0.151892 -0.763246 1.036011
0.487660 -1.260250 0.416464
0.218115 -1.103653 0.657997
0.388600 -1.310972 0.525092
0.557284 -1.122826 0.236640
-0.194941 -0.501126 1.016294
0.143357 -1.062742 0.737189
0.190593 -0.781115 0.491870
0.528138 -1.377155 0.431063
0.196379 -1.197717 0.700536
0.291453 -1.120294 0.547329
0.394938 -1.294960 0.510776
0.550940 -1.325514 0.355402
0.117545 -0.908175 0.700927
-0.186429 -0.564301 1.065871
-0.012038 -0.900382 0.860246
0.303425 -1.260204 0.624910
0.357195 -1.041577 0.423648
0.528631 -1.358947 0.421747
-0.183861 -0.838453 1.118650
-0.060409 -0.621132 0.841821
-0.074951 -0.722198 0.919214
0.449263 -0.999584 0.286321
0.166752 -0.862220 0.575991
0.521187 -1.190421 0.342343
-0.201958 -0.701436 1.145146
0.470517 -1.120721 0.360367
-0.048916 -0.634702 0.827328
0.264057 -0.871576 0.444120
0.506672 -1.235144 0.382257
0.223487 -1.176304 0.683848
0.578763 -1.316685 0.347029
-0.011025 -0.707896 0.799479
0.377086 -1.202215 0.512167
0.610231 -1.222136 0.263394
0.300910 -1.024760 0.485283
0.174389 -1.029083 0.681048
0.487932 -1.297839 0.409687
-0.156872 -0.729864 1.033015
-0.146021 -0.599090 0.960171
0.380637 -1.058398 0.404400
-0.181153 -0.662282 1.091294
0.022483 -0.963187 0.864815
-0.237151 -0.663986 1.204114
-0.276856 -0.425475 1.181239
0.293530 -0.940470 0.474089
0.371837 -1.122593 0.477651
0.176473 -0.832184 0.572792
0.319861 -1.307683 0.622038
0.334268 -1.200237 0.560777
0.172927 -1.037612 0.658407
-0.034334 -1.061705 0.984027
-0.224060 -0.455568 1.104395
0.088778 -0.948432 0.732834
0.208010 -0.883860 0.558035
0.170763 -1.033484 0.688166
-0.254225 -0.461678 1.137205
0.149865 -0.990131 0.695392
0.367875 -1.084863 0.462005
-0.075377 -0.619850 0.868684
0.553790 -1.291910 0.360902
0.353618 -1.094826 0.484925
-0.083876 -0.975773 1.028916
0.632526 -1.323409 0.295643
0.064425 -0.837018 0.744264
-0.137571 -0.630240 0.994031
-0.015267 -0.821906 0.863091
0.207928 -1.001581 0.593414
-0.063454 -0.688837 0.848911
-0.002213 -0.905636 0.878945
0.115801 -1.144541 0.808450
0.447359 -1.106647 0.352099
0.537759 -1.063412 0.249308
0.482632 -1.183678 0.381604
-0.178782 -0.629225 1.039697
-0.128790 -0.677886 0.962322
0.125479 -0.755670 0.573703
0.056047 -0.817996 0.747752
-0.060247 -0.745098 0.870528
0.402937 -1.017053 0.353014
-0.212826 -0.661439 1.117281
-0.231638 -0.420479 1.064737
-0.244115 -0.428191 1.143015
-0.032498 -0.979696 0.951803
-0.144604 -0.540034 0.927457
-0.119172 -0.599356 0.907870
-0.208026 -0.831108 1.190820
-0.056742 -0.834908 0.903996
-0.063759 -1.016510 0.983271
-0.071911 -0.676591 0.857573
-0.191879 -0.805096 1.123161
-0.093191 -0.571603 0.841885
-0.085600 -0.711354 0.897538
0.163436 -1.101799 0.701346
-0.196346 -0.662732 1.085991
0.507279 -1.260938 0.395399
-0.023487 -1.028973 0.956457
-0.151118 -0.610317 0.975176
-0.186120 -0.922089 1.175445
0.067001 -0.866986 0.723425
0.564910 -1.132170 0.233819
0.370581 -1.037780 0.432818
-0.167374 -0.990523 1.131651
0.257027 -1.178517 0.617737
0.632954 -1.334022 0.282416
0.053965 -1.054350 0.826269
-0.199244 -0.517618 1.033630
-0.044915 -0.612273 0.774230
0.120136 -1.162523 0.782899
-0.147246 -0.688437 1.001161
0.080888 -0.796613 0.697300
-0.147402 -0.804360 1.077966
-0.237060 -0.501200 1.111865
0.325219 -1.061402 0.501956
-0.028637 -0.758014 0.855768
0.280248 -1.004640 0.500662
-0.179326 -0.890625 1.155419
0.208874 -0.893149 0.562340
-0.199815 -0.478083 1.058610
0.240434 -1.050470 0.576503
-0.158749 -0.497145 0.975976
-0.134986 -0.595270 0.936323
0.145934 -1.038738 0.723488
0.321849 -1.021203 0.484299
0.058798 -1.105324 0.840911
-0.088502 -0.874905 0.971244
-0.068502 -0.828004 0.952694
0.082734 -1.136990 0.821566
0.369569 -1.248121 0.542217
-0.045002 -0.931448 0.954022
-0.276697 -0.381953 1.212287
0.204228 -1.237472 0.708676
-0.242636 -0.516791 1.131144
0.315210 -1.195353 0.580906
0.117698 -0.876848 0.654540
-0.120802 -0.916750 1.068198
0.533574 -1.100801 0.250346
-0.144396 -0.912806 1.074223
-0.000110 -0.719186 0.786656
-0.053808 -1.050483 0.979740
0.386622 -1.284423 0.540004
-0.146832 -0.889219 1.070930
0.413217 -1.288071 0.487300
-0.114292 -0.814227 1.024746
0.032549 -0.829578 0.790178
0.017051 -0.815418 0.807743
0.093112 -0.960258 0.761426
0.519976 -1.069002 0.246615
-0.021082 -0.899697 0.873420
0.677112 -1.247381 0.182401
0.026387 -1.091461 0.908807
-0.257197 -0.517307 1.166292
-0.219759 -0.457967 1.053838
-0.034192 -0.746236 0.859624
-0.195821 -0.940797 1.163776
-0.142432 -0.553438 0.929886
0.199982 -1.217789 0.730618
0.023679 -0.820252 0.799538
0.325171 -1.118282 0.531706
0.322582 -0.941886 0.436669
0.451983 -1.113793 0.378179
0.238422 -1.057226 0.582633
-0.124220 -0.899774 1.068632
0.279341 -0.833700 0.429017
0.337837 -1.174846 0.517838
0.120475 -0.960666 0.693097
0.269241 -0.959666 0.489960
-0.068944 -0.680379 0.888069
0.312558 -0.849537 0.394193
0.444549 -1.390079 0.500575
-0.102479 -0.592525 0.907223
0.428738 -0.949577 0.307862
0.411732 -1.023518 0.346322
0.409936 -1.067788 0.401686
0.626247 -1.325790 0.278312
0.050088 -0.732487 0.710616
-0.081115 -0.996684 1.031460
-0.087864 -0.577571 0.870557
-0.007916 -0.993739 0.893050
-0.226814 -0.797782 1.181426
0.015770 -0.750944 0.745610
-0.227751 -0.600417 1.165988
-0.099999 -0.597907 0.869786
-0.261297 -0.493472 1.211632
-0.122631 -0.688629 0.955496
0.186442 -1.034285 0.667161
-0.013205 -0.725152 0.812744
0.135493 -0.738291 0.547715
-0.107616 -0.661634 0.915354
0.278804 -1.258508 0.653403
0.062850 -0.708075 0.643425
-0.205584 -0.791803 1.177338
0.109924 -1.009334 0.731189
0.513625 -1.321887 0.419522
-0.105145 -0.853944 0.989861
-0.006071 -0.912866 0.887958
0.569479 -1.199698 0.268551
-0.192890 -0.504778 1.013562
0.241665 -1.242305 0.691427
0.212073 -1.109279 0.668118
0.269735 -0.912197 0.489110
-0.096450 -0.801698 0.956512
0.424021 -1.303913 0.482452
0.233013 -1.070683 0.623960
-0.257240 -0.525108 1.211187
0.121500 -0.892255 0.686930
0.078941 -1.031335 0.782678
0.060308 -0.857057 0.760584
0.433952 -1.008446 0.310128
-0.181627 -0.661082 1.057173
0.023141 -1.069554 0.904914
0.085062 -0.727988 0.651365
0.231600 -1.160512 0.666713
0.045186 -1.051254 0.837031
0.097939 -0.885861 0.688409
0.226525 -1.123275 0.629646
0.287673 -1.084699 0.533638
-0.183350 -0.646192 1.055857
0.304336 -1.048703 0.493850
0.282472 -1.215859 0.604109
-0.125473 -0.782183 1.032420
0.106427 -1.162833 0.812825
-0.228612 -0.648728 1.182042
-0.023274 -0.881698 0.901447
0.354453 -1.271834 0.545377
-0.264263 -0.547176 1.190436
0.371254 -1.286667 0.558411
0.347686 -1.213244 0.551319
0.500989 -1.325172 0.409530
0.061658 -1.061762 0.848009
0.058517 -0.933758 0.799328
-0.087458 -1.040725 1.032722
0.023864 -0.743167 0.759746
0.421262 -1.273364 0.495808
-0.204848 -0.625464 1.126903
0.496599 -1.375919 0.438610
0.089671 -1.015906 0.790246
0.098822 -0.813023 0.678632
-0.233291 -0.579986 1.133373
-0.004013 -1.034727 0.903005
-0.011947 -0.939347 0.906776
0.297223 -1.071851 0.542558
0.102538 -0.958005 0.717620
-0.091041 -0.748229 0.924334
0.001587 -0.919634 0.848377
0.352083 -1.056387 0.465894
0.265110 -0.818857 0.439393
0.091743 -0.769595 0.664534
-0.103928 -0.996081 1.035810
0.198837 -0.998620 0.632900
0.411883 -1.029356 0.349620
0.137142 -0.934079 0.656318
-0.136072 -0.985482 1.112038
-0.003658 -0.858508 0.829436
-0.195364 -0.889143 1.183541
0.639011 -1.271989 0.235244
-0.166434 -0.508440 0.958056
-0.024444 -1.074258 0.945312
0.252612 -0.942059 0.530452
0.185644 -1.144786 0.691223
0.416961 -1.261726 0.470497
-0.143042 -0.834583 1.045995
0.331444 -1.215838 0.571317
0.617428 -1.292067 0.294460
-0.006020 -0.781699 0.828974
0.025747 -1.028977 0.885618
-0.099889 -0.700105 0.953981
0.201928 -1.073132 0.665158
0.097713 -0.881217 0.686414
-0.279508 -0.420640 1.230190
0.393417 -1.003431 0.356312
0.177208 -0.910771 0.616892
-0.188836 -0.510960 1.047907
0.220283 -0.840393 0.485180
-0.187188 -0.486328 0.992229
0.164811 -1.011185 0.685310
-0.018482 -0.946441 0.890006
-0.028895 -0.791129 0.871475
0.041062 -1.039756 0.838389
-0.091175 -0.922782 1.022920
-0.003794 -0.847917 0.825004
0.019565 -0.969526 0.842583
-0.062760 -0.606274 0.802939
-0.255255 -0.480303 1.147046
0.282649 -1.212145 0.627556
-0.237455 -0.582466 1.143066
0.247231 -0.890893 0.507215
0.077298 -0.742926 0.641203
-0.071975 -0.816839 0.954082
0.332532 -1.061771 0.465988
0.360539 -1.218407 0.538858
0.416873 -1.383928 0.527144
0.188110 -1.016800 0.628465
0.398538 -1.305651 0.536406
-0.234419 -0.489766 1.143171
0.353969 -1.340940 0.577312
0.590597 -1.277004 0.313898
0.059303 -1.107512 0.869556
-0.186824 -0.706935 1.081423
-0.247430 -0.519161 1.183569
0.047102 -0.903711 0.802791
0.173370 -1.033776 0.684750
0.386009 -1.243423 0.521374
-0.146617 -0.799799 1.075041
0.428535 -1.259135 0.481072
0.459504 -1.187320 0.382671
0.202074 -1.018690 0.638564
-0.231122 -0.577393 1.166298
-0.219525 -0.515426 1.077971
0.434032 -1.126624 0.405947
0.439651 -1.128705 0.373444
0.533698 -1.325063 0.399902
-0.086878 -0.735889 0.911388
-0.107389 -1.024791 1.049888
-0.296761 -0.379961 1.217936
0.268741 -1.229601 0.626389
0.307912 -0.915371 0.411279
0.349563 -1.202806 0.518169
0.018488 -1.093914 0.892680
0.362314 -1.079410 0.438449
0.150532 -0.985932 0.692435
-0.233020 -0.553209 1.122490
-0.144068 -0.536342 0.963258
-0.193847 -0.610525 1.062477
-0.116644 -0.864349 1.045169
0.143460 -0.745782 0.571037
0.452874 -1.132201 0.387216
0.506715 -1.059189 0.255714
-0.165207 -0.927797 1.142767
0.237429 -0.803125 0.468248
-0.051927 -0.979919 0.981477
0.357016 -1.161551 0.515518
-0.216460 -0.848005 1.208064
-0.185130 -0.881551 1.163479
-0.121850 -0.547243 0.886597
0.265024 -0.877089 0.446208
0.456620 -1.181663 0.382714
-0.183257 -0.967410 1.181620
-0.190843 -0.686393 1.118896
-0.161069 -0.650251 1.048840
0.093618 -0.835855 0.669038
-0.273013 -0.394774 1.207033
0.310000 -1.181061 0.580577
-0.023473 -0.718409 0.826950
0.448014 -0.995589 0.285358
-0.252449 -0.636945 1.190948
-0.266156 -0.421901 1.198466
0.142927 -0.982493 0.701313
0.222523 -1.142716 0.670010
0.623037 -1.212638 0.218745
0.466685 -1.057216 0.327251
0.387430 -1.198554 0.498324
-0.124906 -0.811734 1.041751
0.480104 -1.360590 0.473742
-0.005444 -1.001881 0.920414
0.605152 -1.220740 0.267978
0.398127 -1.138020 0.427610
0.191928 -0.799357 0.530859
0.339366 -0.905830 0.365203
-0.038714 -1.032330 0.950587
0.006334 -0.749784 0.792704
-0.272306 -0.502720 1.194617
0.500465 -1.149766 0.316630
0.344001 -1.192586 0.519686
0.480958 -1.259422 0.397362
0.065180 -0.896009 0.772205
0.336541 -0.893953 0.361595
0.297028 -0.974411 0.461131
0.430175 -1.337950 0.516421
-0.015642 -0.873135 0.853689
0.660068 -1.298399 0.253367
-0.067138 -1.046005 1.023979
-0.143903 -0.607317 0.959486
0.300760 -1.271034 0.606862
0.021924 -0.746270 0.733141
0.237154 -0.915308 0.535859
0.148990 -0.750178 0.565325
0.342864 -0.919448 0.396968
0.342491 -0.997880 0.416554
-0.043888 -1.067609 0.970565
-0.037469 -0.901809 0.899594
0.140551 -1.187226 0.776305
-0.283661 -0.379304 1.183655
-0.209836 -0.921823 1.213762
0.026563 -0.967898 0.831528
0.171467 -1.096193 0.714445
0.354343 -1.072234 0.471769
-0.221719 -0.466192 1.062045
0.191720 -1.176544 0.723816
0.288705 -1.081039 0.530411
0.551052 -1.335601 0.386431
-0.251281 -0.607380 1.180032
0.471899 -1.122993 0.333293
-0.143594 -0.994190 1.126073
-0.146975 -0.519745 0.961574
0.659786 -1.257653 0.205614
-0.119605 -0.930499 1.040086
-0.204898 -0.518962 1.086213
-0.081004 -1.034384 1.043343
-0.106477 -0.997871 1.040167
0.074373 -1.145931 0.836065
0.547217 -1.250570 0.320795
-0.233902 -0.633100 1.188823
0.521848 -1.214665 0.354713
0.245091 -1.216863 0.649067
-0.015305 -0.909540 0.900661
0.050554 -1.051709 0.829865
-0.227251 -0.769187 1.209412
0.489200 -1.011589 0.273531
0.023298 -1.041866 0.865653
-0.101583 -0.674326 0.909626
0.208882 -1.028064 0.634200
-0.029729 -0.661855 0.807696
0.393610 -1.063326 0.419094
0.039358 -0.952624 0.836164
0.497243 -1.226935 0.388310
0.030905 -0.837022 0.765047
0.576904 -1.095537 0.225091
-0.095806 -0.786304 0.949569
0.280051 -1.129474 0.592792
0.299292 -1.223819 0.612985
0.001188 -0.841156 0.845540
0.371533 -1.039489 0.404047
0.487897 -1.310271 0.416119
0.476909 -1.396470 0.494099
0.634757 -1.208000 0.203725
0.013391 -0.792406 0.771309
-0.134357 -0.527556 0.938338
-0.207142 -0.881421 1.200546
0.271140 -1.201239 0.636542
-0.049926 -0.764834 0.862390
0.111159 -1.161046 0.793772
-0.196131 -0.597873 1.099320
0.147089 -1.168560 0.777670
-0.157122 -0.703210 1.023901
-0.244489 -0.651145 1.215751
-0.075825 -0.870288 0.949819
0.456548 -1.274567 0.457428
0.267869 -1.024362 0.527276
0.408854 -1.028582 0.352791
0.273929 -0.939185 0.471357
-0.016542 -0.659566 0.783087
0.426664 -0.970208 0.295565
0.610397 -1.343828 0.319142
0.495464 -1.131268 0.311885
0.181197 -1.188260 0.715289
0.021284 -0.751690 0.737109
0.302166 -0.851053 0.408831
-0.212667 -0.745218 1.142995
0.239134 -1.045122 0.603047
0.437377 -1.090471 0.381858
-0.187384 -0.954684 1.153644
-0.219164 -0.723418 1.184369
-0.144570 -0.561543 0.976314
0.407058 -1.161186 0.429481
-0.132328 -0.778151 1.007615
0.198670 -1.060298 0.635040
0.314428 -0.920791 0.406234
0.120425 -0.847612 0.634741
-0.105116 -0.545273 0.888705
-0.236114 -0.740163 1.220238
0.046967 -0.666888 0.645587
0.456215 -1.363052 0.475254
0.204028 -0.801082 0.514367
0.308789 -0.945607 0.428550
-0.131643 -0.772024 1.039274
0.281583 -1.215584 0.630409
0.152824 -1.145105 0.733217
-0.055655 -0.747240 0.863746
0.463217 -1.048584 0.326213
-0.010984 -0.716565 0.804120
0.028669 -0.860185 0.780071
-0.069625 -0.563412 0.828762
-0.226327 -0.472859 1.075619
-0.049403 -0.572116 0.795272
-0.011523 -0.886410 0.853364
0.243045 -0.981913 0.537298
0.703053 -1.297566 0.202294
-0.223104 -0.954319 1.225718
0.371410 -1.177607 0.479710
0.479690 -1.226936 0.407848
-0.174062 -0.779044 1.116621
0.463295 -1.157337 0.388989
0.050718 -0.831014 0.762478
0.394368 -1.080435 0.427565
0.038226 -0.668766 0.661029
0.120891 -0.725056 0.593537
-0.055656 -1.058261 0.997420
0.173991 -0.810986 0.563875
-0.099729 -0.646732 0.893609
0.506559 -1.183231 0.328478
-0.055853 -0.757474 0.901419
0.549100 -1.139712 0.255704
0.045912 -0.738781 0.689391
0.636853 -1.309369 0.258071
0.359242 -0.931844 0.383471
0.390431 -1.265513 0.502437
-0.005437 -0.688449 0.778884
-0.220444 -0.907513 1.195017
-0.173285 -0.548605 1.028806
0.455876 -1.102704 0.367075
0.312118 -0.901339 0.425978
-0.036622 -1.073567 0.966900
0.258150 -1.015446 0.563078
0.007794 -0.704654 0.733415
-0.030154 -0.840460 0.861382
-0.035157 -0.987607 0.958710
0.150088 -1.032200 0.715202
-0.207799 -0.498526 1.084128
-0.035923 -0.621027 0.763179
0.135699 -0.766744 0.594937
-0.172186 -0.472548 0.992841
0.125618 -1.015037 0.740724
-0.216442 -0.658214 1.123231
0.016723 -0.713099 0.755182
-0.179463 -0.750208 1.117698
-0.104909 -0.651947 0.941180
0.017672 -0.818822 0.777424
-0.154536 -0.515201 0.935715
0.000979 -0.816854 0.834392
0.389468 -1.017434 0.396910
-0.257978 -0.464574 1.147369
0.432069 -1.265078 0.479973
0.327891 -0.884339 0.366820
0.668745 -1.268535 0.227669
0.557527 -1.348906 0.360925
0.496597 -1.354530 0.453151
0.496961 -1.175515 0.361080
0.326847 -1.107122 0.523938
-0.063801 -0.587243 0.830353
0.064081 -1.054507 0.812476
