-1.305504 0.182023 0.387777
-0.766946 0.237869 0.542373
-0.931912 0.461882 0.832228
0.551911 0.313431 0.748082
0.709814 0.528052 0.708336
0.257624 -0.884755 0.461116
0.591867 0.751883 0.362520
0.599395 0.184247 0.990474
0.470088 -1.150367 0.350484
-1.284141 0.363970 0.586919
-0.395433 0.527710 1.229263
0.792723 1.193102 0.269273
-0.838630 0.591967 1.028149
0.434586 -1.018962 0.315782
-1.367608 0.281968 0.499980
0.066781 -1.002043 0.787395
-0.258411 -0.647816 1.204203
0.718192 0.609337 0.637391
0.020537 -0.950717 0.833696
0.468506 -1.087998 0.317461
-0.033887 -1.011157 0.965090
-0.611402 0.497363 1.029350
-0.915550 0.470198 0.849638
-0.463046 0.363111 0.828155
-1.072533 0.440129 0.731741
0.778553 1.040555 0.354734
0.572608 0.312591 0.744831
-0.694191 0.424572 0.834976
0.940032 1.070332 0.467671
-1.348835 0.031269 0.202016
0.401143 -1.249388 0.482299
-0.641244 0.566190 1.126716
0.591730 0.475685 0.585010
0.080763 -1.151426 0.831669
0.864920 0.716693 0.671121
0.696731 1.105725 0.226018
-0.960964 0.131733 0.353972
0.280437 -1.234447 0.614693
-0.060235 -0.679800 0.872038
0.055897 -0.973916 0.820735
0.135225 -1.156966 0.788281
0.570803 0.350802 0.727861
-0.310558 0.463785 1.133814
0.439943 -0.956719 0.298724
-1.312015 0.332414 0.569500
0.194430 -0.895059 0.555224
-1.393586 0.099530 0.256679
0.448621 -1.039823 0.338056
-1.047073 0.136704 0.324428
0.595404 -1.193007 0.236962
0.697753 0.637747 0.587071
0.009119 -0.694718 0.725894
0.242761 -1.202028 0.671656
-0.287011 -0.438584 1.211617
0.773218 0.495101 0.786096
0.174654 -0.861284 0.564163
0.057610 -1.059563 0.852679
-0.053064 -0.874427 0.945805
0.962292 0.757477 0.741235
0.005962 -0.636193 0.696972
0.582319 0.680906 0.410077
-1.274319 0.268150 0.471961
0.870251 0.229586 1.214192
-1.030396 0.489940 0.838756
0.013221 -0.652812 0.694259
-0.869097 0.285610 0.594880
-1.389532 0.331729 0.530777
-1.021482 0.498026 0.852584
0.477243 -1.314750 0.430019
0.120873 -0.878578 0.650728
0.859577 0.675023 0.730211
0.665233 -1.239349 0.214846
0.390704 -0.972701 0.341248
0.826346 0.882450 0.520302
-0.624513 0.311101 0.669714
0.133027 -0.900093 0.674292
0.443676 -1.334065 0.499731
-0.136679 -0.996596 1.116191
-0.177445 -0.713144 1.065317
-0.497947 0.403461 0.923526
-0.095825 -0.870167 1.013051
0.723541 0.959336 0.326839
-0.350747 0.484458 1.184592
-0.073057 -0.616288 0.827701
0.523028 -1.243464 0.342949
-0.219162 -0.738857 1.153483
0.874111 0.489401 0.931513
-0.736586 0.405738 0.820269
0.582726 0.620804 0.463252
0.775826 0.553203 0.729545
-1.386001 0.244981 0.429975
0.380018 -1.078818 0.443874
0.097904 -0.875872 0.713449
-0.417422 0.511945 1.147091
-0.319260 0.493208 1.190335
0.951462 0.798142 0.714817
0.730797 0.169750 1.181307
-0.228156 -0.550340 1.152078
0.573265 0.245137 0.866425
-0.100559 -0.646198 0.930199
-0.242166 -0.526898 1.134012
-0.241270 -0.576519 1.149550
0.921898 0.853805 0.612990
-1.387097 0.163839 0.358699
-1.447112 0.154019 0.317641
0.688906 0.745500 0.452530
0.384221 -1.214976 0.484262
0.067925 -0.733009 0.649905
-0.233412 -0.726030 1.176778
0.691856 0.980330 0.304166
0.820227 0.659276 0.675421
0.294922 -1.077090 0.548096
-1.384996 0.213425 0.418298
-0.565015 0.390794 0.866423
-1.444308 0.304090 0.491117
-0.690699 0.524554 1.031237
-0.140658 -0.514142 0.945418
-1.214009 0.308222 0.556505
0.888854 1.020751 0.478733
0.419105 -1.352202 0.509932
0.735683 0.830615 0.437375
0.252698 -0.820099 0.457294
0.420442 -1.014933 0.357226
0.644274 0.388577 0.780566
-0.471344 0.332004 0.800747
0.936534 0.394981 1.103645
0.270416 -0.964543 0.491255
-0.618900 0.560416 1.098289
0.690192 0.358550 0.874007
-0.408403 0.398706 0.927040
-0.042462 -0.799837 0.865079
0.108742 -0.695018 0.594876
-0.187325 -0.580085 1.073991
0.649923 0.485862 0.649105
-0.275917 -0.387285 1.165137
0.946819 0.968200 0.573759
0.865247 0.409926 0.982766
0.703613 -1.233787 0.172913
0.561666 0.239517 0.822767
-0.953790 0.535784 0.928620
0.256813 -0.923056 0.485179
0.756097 0.825490 0.463693
0.537254 -1.131504 0.264419
0.529461 -1.241093 0.360554
0.756224 1.267645 0.178951
0.493363 -1.380553 0.444196
0.898555 0.628643 0.786971
-1.313310 0.193577 0.401201
-0.700695 0.670452 1.222236
0.485792 -0.003227 1.143499
0.853962 0.350392 1.072246
-1.195947 0.214609 0.414068
0.197437 -0.983399 0.627291
0.908810 0.629109 0.824478
0.087865 -0.959727 0.768788
0.929470 0.424477 1.061991
0.781328 0.789449 0.547584
0.084905 -0.743571 0.629781
0.564908 0.071944 1.083002
-0.473530 0.381519 0.893768
-0.381489 0.402081 0.989579
-1.009851 0.379096 0.665896
0.888543 1.082578 0.435594
0.212953 -1.221465 0.690245
-0.917761 0.455207 0.798677
0.886577 0.391949 1.025668
0.172178 -0.889822 0.583957
0.708506 0.411992 0.802118
-0.626633 0.559797 1.125310
-0.421682 0.411143 0.982094
0.894373 0.659979 0.780026
0.771470 0.164538 1.199994
0.625535 -1.278932 0.278892
-1.405901 0.176571 0.372132
0.820256 0.209293 1.188893
-0.167695 -0.523670 1.006582
-1.104341 0.347091 0.628226
0.560013 0.122859 1.028540
-1.090041 0.184696 0.385610
-1.091706 0.148493 0.336991
0.120848 -0.832789 0.656231
-1.304530 0.108681 0.272171
0.843629 0.253267 1.153618
0.618673 -1.153524 0.214351
0.639481 0.607023 0.545185
0.651181 0.102112 1.190916
0.627941 0.665153 0.478169
0.684870 0.849399 0.364669
-0.199377 -0.908225 1.161392
-0.279472 -0.536379 1.221395
0.831415 0.900363 0.484191
0.117595 -0.990499 0.740753
0.347516 -0.902001 0.380531
0.604752 0.549045 0.557735
-0.135439 -0.809376 1.058667
0.211252 -1.119857 0.673880
0.933196 0.461489 0.995012
0.918037 0.561919 0.901153
0.214852 -1.062681 0.643545
-0.679619 0.458976 0.930499
-0.394114 0.487105 1.155162
0.680322 0.784476 0.438886
0.759684 0.162323 1.226292
0.225924 -1.215628 0.671710
0.742803 0.487257 0.790056
-0.261176 -0.389184 1.126307
0.903309 0.959722 0.537622
0.054378 -0.769721 0.724555
-0.835414 0.313012 0.614842
-1.101629 0.336802 0.615485
-0.574960 0.316166 0.695433
0.849784 0.692815 0.703783
-1.196400 0.173204 0.360364
0.125926 -1.080431 0.741381
-0.504271 0.435840 0.945457
-0.015854 -1.056266 0.955527
0.778592 0.360341 0.946094
-0.359431 0.431909 1.027490
-1.442096 0.264661 0.471295
-1.097460 0.247152 0.496962
0.774076 1.256100 0.212723
0.791880 0.949182 0.433778
0.033265 -0.768255 0.757858
-0.139251 -0.905365 1.093648
0.785560 0.607516 0.715521
-0.186552 -0.975973 1.188366
-0.534511 0.386574 0.873075
-1.159407 0.423194 0.687437
-1.003203 0.457793 0.803106
0.554447 0.078527 1.095426
0.792110 1.200511 0.238049
-0.925442 0.352261 0.649736
0.619889 0.476520 0.620686
-1.034647 0.462489 0.773016
-0.541628 0.534193 1.136185
0.900378 0.823136 0.642350
0.680202 0.807886 0.419939
0.157816 -0.907581 0.642573
0.542276 0.326667 0.718912
-0.886016 0.263648 0.557635
0.791374 0.647234 0.655663
0.869594 0.728774 0.691791
0.829981 0.915967 0.471191
0.711616 0.801047 0.433630
-0.633342 0.611151 1.169323
0.771738 0.607627 0.671175
-0.729865 0.271432 0.604619
-0.039311 -0.626416 0.772406
0.786977 0.880350 0.480688
-0.523663 0.447465 0.991887
-0.656315 0.428701 0.891083
0.664960 -1.317759 0.248514
-0.254704 -0.581806 1.219652
0.944665 0.918871 0.609347
-1.101648 0.128956 0.310049
0.845543 1.169442 0.310845
-0.207858 -0.471382 1.032152
-0.726193 0.377034 0.746153
-0.059397 -0.974068 0.990414
-0.984917 0.317734 0.614946
0.844078 0.560204 0.796204
-0.915435 0.449755 0.820893
0.514204 0.071310 1.007475
-0.728052 0.424443 0.822363
-0.891937 0.446049 0.794560
-0.577989 0.601537 1.226510
-0.619306 0.618543 1.190805
-0.667619 0.464917 0.946202
0.452363 -1.325494 0.461454
-0.661375 0.607795 1.181120
0.623394 0.288204 0.844062
0.678301 0.243279 1.009479
-1.196651 0.156765 0.339099
0.398228 -1.073502 0.419140
-0.686780 0.533680 1.015110
0.848037 0.325675 1.095740
0.761573 0.214690 1.150980
0.195241 -1.143081 0.678617
0.578851 0.161092 0.959896
-0.365906 0.394556 0.984090
-0.202900 -0.474360 1.064055
0.567261 -1.331284 0.366719
0.779139 0.593217 0.722277
0.916397 0.854243 0.632795
-1.312873 0.209614 0.420864
0.309777 -1.144761 0.537074
-0.740605 0.466509 0.881552
0.154324 -1.122824 0.722064
-0.797130 0.418317 0.786886
0.096025 -0.742738 0.642274
-0.183949 -0.932815 1.174276
0.776692 0.688531 0.601380
0.636401 0.330716 0.807342
0.406924 -1.150932 0.424245
0.409968 -1.192619 0.442898
0.688610 0.497949 0.714196
0.030226 -0.953203 0.849663
0.594125 0.657915 0.414888
0.879100 0.458652 0.941102
0.260389 -1.081021 0.566480
0.874297 0.537727 0.880597
-1.109939 0.417756 0.719146
-0.798186 0.391967 0.744104
0.680775 0.140438 1.165328
-0.029709 -0.692372 0.791538
-0.827545 0.574395 1.008491
0.257623 -1.186699 0.646442
0.696715 0.672113 0.525576
0.917615 1.072601 0.445129
0.549449 0.162174 0.952090
0.593087 0.311799 0.774387
-1.418336 0.216586 0.418384
0.464664 -1.187287 0.403722
0.798165 1.093595 0.313299
-0.846100 0.455022 0.854309
0.867669 0.740311 0.679675
-0.088515 -0.808049 0.946401
-0.098119 -0.794079 0.988847
0.902827 0.921306 0.541092
0.434679 -1.342154 0.513431
-0.112541 -0.968164 1.040248
-1.364418 0.181815 0.382422
-0.925343 0.189991 0.441593
-0.065623 -0.747011 0.880573
-1.057476 0.129495 0.341166
0.699871 0.251027 1.025793
0.142421 -0.959598 0.690998
-0.232841 -0.786427 1.189374
-0.486661 0.468424 1.017493
-0.744114 0.300553 0.648125
0.708747 0.251107 1.001624
0.371360 -1.125858 0.479917
-0.868934 0.446724 0.833554
-1.043886 0.482806 0.824819
0.711242 0.115917 1.204369
-0.873808 0.433832 0.813039
-0.156136 -0.762237 1.079050
0.863751 0.987336 0.453309
0.293636 -1.267376 0.613572
0.011986 -0.979867 0.857951
-0.932313 0.258007 0.540794
-0.369719 0.406427 1.005431
-0.800595 0.516428 0.964261
0.803676 0.657444 0.659479
0.050878 -0.902723 0.796657
-0.718690 0.319167 0.655421
0.745442 0.665845 0.586877
0.845500 1.026027 0.432892
0.710488 1.139116 0.193808
0.873576 0.391208 1.013403
-0.967067 0.286448 0.574479
-1.340446 0.124903 0.315556
0.685521 1.092084 0.223034
-1.038262 0.341275 0.635755
0.820303 0.330461 1.060839
0.242403 -1.261873 0.672340
-0.534752 0.525011 1.088141
-0.061541 -0.727425 0.864314
0.532125 0.046852 1.119322
-0.131872 -0.650859 0.991663
0.775989 1.116703 0.301165
-1.368198 0.358664 0.569607
0.741364 0.311253 0.995460
0.858069 0.807447 0.612751
-1.069621 0.186923 0.419023
-0.457404 0.474125 1.047870
-0.663037 0.375997 0.800180
-0.676411 0.635285 1.213072
-0.022041 -0.934494 0.890078
-1.005192 0.378711 0.694564
0.665035 1.006490 0.230970
-1.086758 0.231554 0.477603
0.310453 -0.895960 0.396314
0.689533 0.868440 0.355963
-0.648807 0.531190 1.030790
0.013026 -0.723353 0.735095
-0.230928 -0.803559 1.189896
0.295090 -1.268207 0.638510
-0.271298 0.419899 1.109639
-0.062616 -1.059024 0.995313
0.774252 0.424043 0.896603
0.733787 0.734082 0.542092
0.862299 1.186966 0.316124
0.676921 0.476738 0.722999
0.620048 0.417343 0.715333
0.014423 -0.848440 0.797266
0.890709 0.378594 1.076394
-0.271611 -0.591391 1.218396
-0.037455 -0.822282 0.899351
-0.109330 -0.650437 0.913578
0.031616 -0.744859 0.747408
0.910945 0.817837 0.657449
0.820663 0.625727 0.736219
-1.103895 0.164358 0.384342
-0.834572 0.562170 0.987541
0.491960 -1.053394 0.295363
0.712720 0.762030 0.495120
0.812056 0.818330 0.529355
0.088869 -1.036710 0.799774
0.236155 -1.203313 0.653791
0.105941 -0.735927 0.592170
0.283276 -0.871779 0.446566
0.493383 0.036768 1.036943
-0.707053 0.488311 0.934222
-0.764255 0.467956 0.874898
-0.207426 -0.493736 1.081453
-0.382259 0.511801 1.215667
0.884547 0.906181 0.534355
0.810318 1.048224 0.381816
-0.593878 0.569849 1.163153
0.839127 0.329498 1.081809
-0.564939 0.409733 0.901226
0.798168 0.240579 1.155872
0.862007 0.676612 0.705167
-0.722709 0.412525 0.805776
0.779962 0.389289 0.943526
-1.249305 0.312731 0.555983
0.531651 0.223328 0.838440
-0.216516 -0.455201 1.085980
0.879166 0.472157 0.926928
0.598448 0.532959 0.565779
0.675016 0.544495 0.650291
-0.267738 0.457754 1.203006
0.730288 0.400779 0.872411
-0.762156 0.454903 0.887418
0.229451 -1.212005 0.692521
0.681193 0.384313 0.832044
-1.244680 0.282465 0.493470
0.887180 0.786942 0.633653
0.659864 1.066382 0.212302
0.577389 0.177272 0.933375
0.405132 -1.303226 0.527848
-0.988085 0.362080 0.676407
0.348682 -1.191078 0.513313
-0.813968 0.228272 0.517710
-0.648761 0.539865 1.045188
0.593986 0.601641 0.494389
0.385929 -1.046322 0.390856
-0.653549 0.598254 1.170456
0.102582 -0.988496 0.731387
0.182472 -0.946629 0.628525
-0.628788 0.543744 1.063406
-1.226378 0.390288 0.630894
0.659034 0.226726 1.008000
0.889514 0.543743 0.890189
0.890727 0.484126 0.926074
-0.773701 0.589836 1.087541
0.166054 -0.804790 0.571842
-0.140309 -0.594900 0.983074
-0.262317 -0.442311 1.195607
0.762386 1.000451 0.339113
0.146303 -1.165340 0.750094
-0.599181 0.364899 0.772818
0.889137 1.004640 0.466104
-0.159285 -0.532363 0.993785
-0.283111 0.401537 1.016946
0.650812 0.829344 0.341425
0.821453 0.777318 0.600964
0.750744 0.252320 1.085080
0.822931 0.676761 0.662426
0.293235 -0.990894 0.504204
0.068596 -0.782400 0.708574
-0.882782 0.329237 0.626914
0.232363 -1.162539 0.640980
-0.835297 0.442983 0.811072
0.177720 -0.777549 0.538654
0.258125 -1.215334 0.632693
-1.353988 0.289806 0.511365
-1.476252 0.004498 0.168419
-0.106692 -0.780194 0.964702
0.420446 -1.193345 0.457320
0.305292 -1.234665 0.585402
-0.852894 0.540014 0.945872
0.707303 0.490964 0.712169
-0.306744 0.399690 0.994497
-1.378387 0.138045 0.328790
-1.262867 0.250056 0.477047
-0.160505 -0.649626 1.047503
-1.241631 0.326860 0.549427
0.638628 0.371338 0.760751
0.663982 0.908535 0.297762
0.561023 0.205110 0.870519
0.781548 0.217683 1.135578
-0.395922 0.400451 0.976676
0.045932 -0.794628 0.752125
0.118096 -0.780592 0.599985
0.781481 1.098432 0.292944
0.253763 -0.868179 0.456207
-0.368797 0.426715 1.010061
0.414761 -1.180401 0.430890
0.659846 0.550740 0.595228
-0.276719 0.477323 1.193357
0.350389 -1.327938 0.599989
0.515585 -1.219419 0.338601
0.413736 -1.266834 0.476686
-1.187243 0.122745 0.322537
0.103363 -0.765404 0.644025
0.065758 -0.978376 0.779149
0.074246 -1.007830 0.808658
-1.015522 0.172417 0.376585
0.458768 -1.032285 0.295086
0.098138 -1.148449 0.833720
0.941135 0.733660 0.733249
-0.139018 -0.687146 0.985632
-1.146549 0.173682 0.365717
0.631643 -1.232327 0.246465
0.543107 0.236857 0.800164
-0.858057 0.187574 0.419063
0.910063 0.308793 1.183039
0.876321 0.885697 0.567713
-0.338804 0.485411 1.199338
0.104100 -0.815917 0.672195
0.623279 -1.137674 0.200020
-0.673302 0.584642 1.104700
-0.210472 0.426481 1.183052
0.188906 -0.956750 0.596014
0.727918 0.536636 0.689850
0.908711 1.060054 0.470123
0.476411 -1.192389 0.393353
-0.810221 0.543759 0.999672
0.861101 1.051364 0.404804
-0.220726 -0.578603 1.144768
0.684262 0.586404 0.591125
0.955796 0.898846 0.636355
0.639794 0.591684 0.531846
-1.070047 0.184326 0.386990
-0.385248 0.457957 1.063008
-0.617521 0.422069 0.897362
-0.910134 0.556847 0.946442
-0.564585 0.415802 0.877309
0.905782 1.008152 0.504200
-1.351404 0.076076 0.256245
-0.616830 0.452341 0.916989
-0.865766 0.551461 0.956794
0.602208 -1.193550 0.255702
-1.123975 0.435925 0.739630
-0.192387 -0.792652 1.119612
-0.467828 0.522041 1.166193
0.347516 -1.016424 0.449365
0.603076 0.505112 0.599400
0.648737 0.450988 0.715444
-1.273798 0.200737 0.387610
0.926624 0.456817 1.022168
-1.075031 0.109266 0.312679
0.021204 -0.958732 0.864909
0.647891 0.502131 0.629312
-1.249222 0.124490 0.295473
-1.189942 0.131153 0.307331
-0.111991 -0.772963 1.005104
-0.695841 0.345107 0.735866
0.120977 -0.977737 0.729851
0.552866 -1.369324 0.381239
0.613998 0.161407 1.008218
0.457926 -1.292098 0.439396
0.500520 -1.267433 0.406157
-0.492158 0.382517 0.885291
0.054981 -1.055149 0.825202
0.175054 -0.982506 0.628467
0.593687 0.486669 0.606709
-1.220703 0.142836 0.319898
-0.051583 -0.570294 0.798416
-0.912703 0.254359 0.510012
-0.143728 -0.634564 1.008234
0.821455 0.441395 0.898766
0.110297 -0.788860 0.616835
0.838696 0.506695 0.846562
0.869268 0.637439 0.775528
-1.380066 0.216181 0.396309
0.473956 -1.109306 0.323428
0.837157 0.745830 0.616367
0.392424 -1.108959 0.418751
0.016768 -0.923971 0.827663
-1.408599 0.286382 0.474894
0.664210 0.877239 0.347933
-1.143751 0.436851 0.736000
0.220439 -1.075754 0.614512
-1.186678 0.105219 0.273757
-1.000453 0.438802 0.751197
0.644574 0.279557 0.881902
-0.085668 -0.597061 0.841398
0.855546 1.130915 0.344683
0.895717 0.932582 0.525267
-1.105204 0.154598 0.344192
-0.816264 0.305463 0.607490
0.860112 1.037080 0.439269
-0.928489 0.390835 0.704546
0.740725 0.935784 0.389638
0.626502 0.267950 0.908239
-0.887530 0.529629 0.917599
0.344210 -1.306372 0.598672
0.077520 -0.938813 0.744203
-0.083945 -0.879177 0.997068
0.168386 -0.938618 0.644000
-0.553198 0.496810 1.026349
0.737117 0.505793 0.763684
0.844251 0.527295 0.859824
-1.350476 0.103512 0.289087
0.555153 0.306291 0.727753
0.916370 0.413607 1.060895
0.615152 0.104961 1.138193
0.267544 -0.836392 0.446563
0.850240 0.883304 0.517092
0.663133 0.950813 0.293384
0.602425 -1.341716 0.311131
0.753173 0.887702 0.438776
-1.392371 0.020497 0.188488
0.677603 0.528550 0.639216
-0.264647 0.429408 1.094476
0.587912 -1.256606 0.280825
0.255734 -1.213040 0.660808
-0.201383 -0.606959 1.076424
0.516653 0.057652 1.076640
0.324766 -1.288844 0.613072
0.743886 0.218547 1.088041
0.194632 -0.914517 0.594711
0.446219 -1.094536 0.346704
0.769700 1.146844 0.249870
0.607103 0.675714 0.415431
-0.990537 0.250988 0.519839
0.539117 0.276695 0.742614
0.507261 0.050642 1.033602
0.462578 -1.018139 0.308674
-0.175979 -0.740053 1.107962
-0.054524 -0.701827 0.839796
-1.069985 0.155061 0.347362
-1.328173 0.266273 0.462557
-0.181422 -0.961763 1.177059
-0.035663 -0.963731 0.951036
0.623343 0.469713 0.662117
0.781092 0.807940 0.504793
-1.174662 0.348929 0.615267
-1.330192 0.140008 0.334645
0.494019 0.102863 0.965732
-1.331398 0.162091 0.335935
-0.316523 0.452096 1.102472
0.136499 -0.739088 0.577536
-0.539239 0.447191 0.947029
0.367309 -1.231090 0.511558
0.926463 0.642186 0.802845
0.724301 0.855519 0.404506
-0.704437 0.441291 0.890690
-0.696057 0.372731 0.782021
-0.108645 -0.757241 0.993214
0.826021 0.491958 0.848947
0.911024 0.488824 0.970682
-1.092101 0.408336 0.685064
0.769755 0.796214 0.529607
0.775261 0.298087 1.017799
-0.980951 0.197121 0.415802
-1.190383 0.278691 0.523926
-0.031818 -0.785709 0.873794
-1.068063 0.473454 0.805001
0.572827 -1.319269 0.354532
-0.519273 0.455261 1.008194
0.076934 -1.090826 0.838399
-1.024312 0.348296 0.648538
0.930028 0.831329 0.639042
0.739144 0.357088 0.903101
-1.169486 0.106424 0.276044
0.377042 -0.927575 0.358184
0.762385 1.110545 0.265623
-0.120940 -0.892767 1.030008
-1.439936 0.174889 0.367010
0.648640 0.134559 1.133887
0.809990 0.295977 1.093728
0.009215 -0.877064 0.818382
-0.227673 -0.441962 1.107750
-0.577045 0.495797 1.046801
0.876525 0.240475 1.227221
-0.253659 0.449204 1.149830
-0.566449 0.360899 0.780058
0.691277 0.992747 0.269452
-0.087311 -0.639066 0.900398
0.487380 -1.348103 0.459866
0.805946 1.221298 0.239583
0.958962 0.922851 0.594262
0.797685 0.187330 1.229956
-0.157086 -0.783690 1.052718
-0.537139 0.443259 0.976792
-0.139094 -0.657202 0.972465
0.458785 -1.164600 0.370856
0.275101 -1.049941 0.559272
-1.090833 0.301898 0.571233
0.739751 0.499116 0.741603
0.801842 0.787515 0.543602
-1.365532 0.140104 0.306421
0.723924 1.028664 0.305798
-0.864136 0.240037 0.496645
-0.946536 0.246114 0.492366
-0.027027 -0.771458 0.826635
0.121621 -0.916567 0.669268
-0.630243 0.534517 1.081604
0.441278 -1.335929 0.478245
0.246494 -0.944895 0.512165
-1.091055 0.173710 0.398501
0.555406 0.026270 1.194694
0.343951 -1.272086 0.583047
0.720385 0.280869 1.010319
0.550840 0.361921 0.688539
0.743109 0.799468 0.497598
-0.931406 0.293749 0.592468
0.930255 1.073843 0.481337
0.958238 0.659490 0.819060
0.815715 1.002480 0.419485
-0.515573 0.551724 1.150010
0.798465 1.110648 0.302148
0.834091 0.370171 1.025825
0.371860 -1.350913 0.579200
-0.817026 0.405695 0.790922
0.762774 0.636115 0.662831
-0.094155 -0.887159 0.984571
0.616332 0.485809 0.636450
-0.178699 0.426108 1.167031
0.654628 0.358988 0.795473
0.095926 -1.160310 0.817615
0.758584 0.154435 1.200495
-0.431567 0.419537 0.993147
0.555725 0.502606 0.542400
-1.324907 0.107597 0.269634
0.834388 0.498187 0.879774
-0.167533 -0.971759 1.157716
-1.081444 0.455494 0.749642
0.921817 0.465589 1.007614
0.457448 -1.381441 0.482706
0.737461 1.113996 0.263511
0.686207 0.803840 0.401801
0.812117 0.262197 1.109271
0.356795 -1.068966 0.439852
0.843381 0.445066 0.948299
-1.309748 0.059462 0.236846
0.776467 1.063223 0.311417
0.059765 -0.952424 0.776447
0.788535 0.806325 0.541365
-1.255823 0.178631 0.361349
-1.221999 0.165249 0.347329
0.396093 -1.365360 0.541405
0.249485 -0.949346 0.538799
0.781549 0.341452 0.971335
-0.768207 0.334517 0.666099
0.161336 -1.152897 0.752378
-0.102064 -0.594222 0.907250
0.653038 -1.279029 0.249855
0.798448 0.217798 1.153763
-0.773713 0.514517 0.944251
-0.401926 0.442493 1.020149
0.591062 0.377330 0.691795
-0.251412 -0.441067 1.165742
0.657684 0.680824 0.500053
0.249284 -1.167073 0.621647
0.721264 0.718075 0.541879
-0.101413 -0.801808 0.964273
-0.667768 0.350469 0.723416
0.486255 -1.286679 0.405774
-1.271881 0.161250 0.338963
0.662011 -1.279575 0.215790
-0.094805 -0.791559 0.950091
0.835455 1.002161 0.413934
0.557573 0.225868 0.835924
0.552906 0.414577 0.631432
-0.259142 -0.481895 1.201554
-0.015956 -0.649599 0.743968
0.674359 1.076856 0.220946
0.755463 1.136502 0.267623
0.054150 -1.029110 0.845230
0.118488 -1.027279 0.755551
0.650389 0.231133 0.955673
0.555724 0.022398 1.159578
0.713836 0.554790 0.655465
0.925898 0.616915 0.854179
0.735530 0.919777 0.395923
0.086800 -0.778485 0.677547
-1.284563 0.064905 0.244444
0.681833 0.677446 0.532206
-0.239612 -0.713026 1.184958
0.214088 -0.915630 0.568295
0.516636 0.177091 0.883690
0.706069 0.896965 0.353484
0.560299 0.164778 0.963966
0.713099 0.799479 0.464585
-0.571159 0.535480 1.083081
0.420699 -1.383814 0.523012
0.353147 -1.328779 0.572705
-0.909724 0.152144 0.388985
0.838444 1.115979 0.363929
-0.002665 -1.033398 0.928032
-0.926023 0.332670 0.621293
-1.173294 0.131023 0.307829
-0.844149 0.305079 0.630073
-0.637193 0.399748 0.850874
-0.657644 0.446998 0.921236
-0.441993 0.472551 1.054700
-1.364818 0.344994 0.550282
0.662934 0.596877 0.583783
0.540970 0.116887 0.972947
0.222770 -1.126881 0.662617
-0.110921 -0.653179 0.953126
0.785800 0.961056 0.418579
0.838613 0.353128 1.021234
0.448334 -1.288304 0.472971
0.697478 0.771876 0.469455
0.502697 -1.037260 0.273424
0.857477 0.622708 0.750442
-0.011737 -1.081976 0.951352
-1.453359 0.061898 0.235306
-0.126633 -0.905632 1.074421
0.414923 -0.995099 0.351957
0.516335 -1.124860 0.310490
-0.078400 -0.780192 0.917565
-0.443544 0.558967 1.216826
-0.074170 -0.593563 0.853036
0.169400 -0.998194 0.672645
0.708645 0.956711 0.339223
0.357820 -1.033668 0.446433
0.781999 0.702675 0.622961
0.795169 0.713309 0.627826
0.781126 1.162076 0.251621
0.108124 -0.970226 0.744372
-1.160510 0.120292 0.294597
-0.809882 0.314068 0.652802
0.788974 0.781310 0.562523
-0.253154 -0.443896 1.127820
0.769107 1.034728 0.322995
0.778900 0.901107 0.456137
-0.174789 -0.603834 1.020074
0.033446 -0.803991 0.776261
0.864769 0.964042 0.471327
0.723232 0.259554 1.007467
0.100916 -0.947031 0.714696
-0.946289 0.300275 0.598664
0.115857 -0.912896 0.705828
-0.442164 0.462575 1.034601
-1.034624 0.400388 0.715703
-1.228850 0.356376 0.588245
-0.103531 -0.998650 1.065689
-0.618120 0.434057 0.917855
0.942913 0.505730 0.975809
-0.502378 0.520083 1.138174
-0.652273 0.410032 0.829176
0.152407 -1.050488 0.692144
0.952555 0.566214 0.904217
0.839609 0.802397 0.598336
0.596944 0.520882 0.575863
0.465658 -0.062173 1.229640
0.823097 0.362373 0.992879
-0.589184 0.345869 0.775222
0.631277 0.691992 0.458608
0.451173 -1.398816 0.522553
-1.324931 0.050864 0.226116
0.655214 0.768607 0.394575
-0.878626 0.367836 0.685112
-1.418193 0.042919 0.213912
0.575211 0.110785 1.033287
-0.352365 0.398401 1.000436
-1.102297 0.140500 0.352334
0.825647 1.175986 0.312351
-0.688779 0.293724 0.652275
0.573312 0.314642 0.775578
-0.329715 0.488122 1.171440
0.593463 0.774140 0.346409
-0.663463 0.550365 1.054565
-0.006493 -1.071332 0.918896
0.019005 -0.794200 0.794485
-0.979085 0.441886 0.788751
0.732644 0.248140 1.069521
0.519384 -1.278829 0.365676
-1.175165 0.273270 0.519154
0.802324 0.366921 0.964533
0.495477 0.066364 0.987381
-0.242554 0.419604 1.134979
-1.072704 0.416559 0.727200
0.643043 0.084074 1.211733
-0.998715 0.270576 0.518270
-0.249948 0.434243 1.162174
0.664977 0.691802 0.471078
-0.122960 -0.656786 0.942002
-0.738647 0.496038 0.931909
-0.555663 0.558328 1.134323
0.616176 0.520682 0.570636
0.704221 0.485211 0.746700
0.683553 0.328000 0.871395
-1.169240 0.141254 0.347759
-0.645203 0.408545 0.862015
-0.728820 0.514317 0.964517
0.391848 -1.036302 0.377785
0.647695 0.284887 0.914546
0.275398 -1.257069 0.656872
-0.754798 0.412525 0.824147
-0.700413 0.312867 0.649810
0.488534 -1.190289 0.378629
0.031512 -1.025753 0.876111
0.778228 0.436462 0.886634
0.521559 -1.263718 0.355537
-0.876521 0.304289 0.592157
0.236435 -0.927103 0.515469
0.318622 -1.105413 0.505989
-0.199145 -0.929135 1.198394
0.942645 0.706182 0.786974
-0.933435 0.515715 0.879572
0.379042 -1.298901 0.530262
-1.075172 0.161669 0.383574
0.657363 0.666658 0.483919
0.586876 0.436862 0.619246
-0.751893 0.432447 0.856338
-0.799795 0.397793 0.784886
0.041750 -0.761387 0.709316
0.869032 0.295104 1.126658
0.597377 0.436535 0.664948
0.938786 0.366153 1.136461
-1.263854 0.131122 0.302625
0.369698 -1.275197 0.529921
0.697987 0.852719 0.376980
0.717530 0.288786 0.996513
0.557218 0.414569 0.604710
0.675059 0.292674 0.938667
0.323684 -1.065357 0.478833
-0.389655 0.512738 1.171497
-1.398438 0.043424 0.215445
-1.151736 0.415656 0.706250
0.170007 -1.052318 0.697546
0.170002 -1.059212 0.672352
0.077392 -0.694664 0.612583
0.256240 -0.805985 0.443953
0.578416 0.085987 1.078165
-1.005646 0.297403 0.582267
-0.670809 0.286830 0.646229
0.367806 -1.098758 0.441944
0.140068 -1.028407 0.726796
0.737771 0.129414 1.215161
0.613781 0.714312 0.390302
0.624392 0.315360 0.811023
-0.892364 0.571504 0.974446
-1.336431 0.040312 0.213134
0.299882 -0.906834 0.445442
0.581982 0.093343 1.109743
-0.384437 0.374162 0.929246
-0.085880 -0.620989 0.888449
0.728123 0.634805 0.596110
0.719329 0.350108 0.887923
-0.989131 0.468366 0.821934
0.617206 0.702097 0.405094
-0.076538 -0.990192 1.022103
0.542095 -1.170193 0.307742
-0.185606 -0.498632 1.035035
0.974442 0.871708 0.649702
-0.326369 0.495758 1.230312
0.520663 -1.150284 0.294637
0.775965 0.464864 0.822320
0.660212 0.845597 0.339739
0.216366 -0.863588 0.534052
0.815054 0.384022 0.988989
0.913916 0.782857 0.663759
-1.184986 0.400123 0.652187
0.357535 -0.952106 0.369824
-0.191478 -0.689259 1.121139
0.910495 1.103286 0.442453
0.900898 0.901038 0.579990
-0.839708 0.584140 1.046059
0.952931 0.774832 0.709236
-0.435935 0.421539 0.957253
0.821536 0.700734 0.667750
0.558502 -1.086760 0.240121
-0.010984 -0.763961 0.795858
0.159068 -0.777454 0.536261
-0.575282 0.524989 1.062373
0.431922 -1.002730 0.309083
-1.001167 0.218661 0.472484
-0.207249 -0.836988 1.156197
-0.216704 -0.717608 1.177931
0.694711 -1.297609 0.218304
0.021759 -0.663722 0.686023
-0.168972 -0.578161 1.033232
0.533959 0.189274 0.853526
-0.108587 -1.010899 1.077182
0.315697 -0.928660 0.409396
0.538231 0.148554 0.957463
0.703356 0.328970 0.895146
-0.524822 0.373790 0.853812
0.645500 -1.200910 0.214256
0.601445 -1.211534 0.240808
0.620287 0.843975 0.323227
0.804356 0.574076 0.740625
-0.473539 0.554227 1.185610
0.493899 -1.391888 0.458939
0.715269 0.909809 0.380969
-0.401923 0.354572 0.880653
-0.203166 -0.854607 1.188297
0.648498 0.507325 0.654940
0.776127 0.280168 1.077189
0.636073 0.430196 0.721823
0.501581 -1.130018 0.304444
-0.063863 -0.874430 0.963346
0.600752 0.419047 0.656702
-0.814210 0.387577 0.732713
-0.449218 0.534135 1.203859
0.667682 0.359506 0.811929
-0.189828 -0.661960 1.108684
0.197962 -1.219349 0.707848
0.685194 -1.238119 0.193860
0.653416 -1.264276 0.241235
0.661423 0.280021 0.938014
-1.164328 0.067096 0.251805
-0.679907 0.280268 0.601486
-0.580458 0.612054 1.207036
-0.613581 0.362634 0.762479
0.647969 0.744500 0.433958
0.140148 -1.089527 0.726621
-1.040851 0.346928 0.614659
-0.642612 0.363430 0.753546
-0.698030 0.449875 0.874257
-0.681034 0.429586 0.848508
-0.610553 0.354733 0.782695
0.737280 1.194358 0.212735
-1.267220 0.070967 0.252614
0.175757 -0.892260 0.609191
-0.518802 0.495856 1.046098
0.265288 -1.067468 0.553062
0.917739 0.540050 0.895814
0.860767 0.704694 0.704369
-0.583279 0.538351 1.116122
-0.249908 0.414226 1.115860
-0.247038 -0.633985 1.178703
0.596578 0.145987 1.044076
-0.551629 0.428778 0.906532
0.458329 -1.355170 0.494373
0.063297 -0.711465 0.676775
0.069472 -0.903778 0.738258
0.818006 1.219849 0.252399
-1.230089 0.162173 0.370329
-1.168663 0.102083 0.296731
0.558107 0.069026 1.117717
0.042688 -1.116254 0.867065
0.760670 0.181500 1.164180
-0.317046 0.436275 1.107719
-0.611031 0.526589 1.079432
-0.870248 0.308248 0.628035
0.735226 0.717701 0.530210
-1.225629 0.189030 0.404507
-0.577617 0.460907 0.951004
0.917071 0.914148 0.585803
0.635182 0.847511 0.310202
0.468449 -1.308870 0.460943
-0.351441 0.423528 1.015014
0.945803 0.612270 0.873586
0.230071 -0.819741 0.488511
0.351364 -0.882883 0.364118
-0.585980 0.543550 1.088375
0.836675 0.233859 1.205566
-0.107998 -0.749960 0.955099
0.949172 0.837527 0.652878
0.734390 0.602210 0.633635
-1.298142 0.222567 0.412627
-0.036344 -0.985534 0.959809
0.792568 0.401563 0.943762
-0.449594 0.517795 1.171413
0.351946 -1.023398 0.419576
-1.141445 0.396324 0.683530
0.680497 0.496485 0.675437
-0.178874 -0.482984 1.012644
-1.375059 0.066122 0.217736
0.321484 -0.973098 0.428882
-1.001461 0.225999 0.454187
-0.216789 -0.623898 1.149991
0.054642 -0.955167 0.814853
-0.930460 0.185258 0.405473
0.822681 0.931555 0.478492
0.306151 -1.171495 0.580801
-0.749708 0.600090 1.115374
-0.216021 -0.713991 1.139739
0.704468 0.659467 0.574971
0.649467 0.997502 0.246437
-0.063154 -0.613849 0.807906
-0.186790 0.452030 1.223364
0.924332 1.142004 0.429701
0.616806 0.709111 0.426961
0.000909 -0.803178 0.828021
-0.799811 0.264072 0.576098
-1.305926 0.313022 0.521791
0.790670 0.337796 0.985938
0.738609 0.876700 0.404491
0.643307 0.789347 0.392022
0.819506 1.068713 0.351662
-0.503380 0.471156 1.048000
0.813389 1.113128 0.315072
0.670196 0.965426 0.290862
-0.688692 0.545276 1.065282
0.822115 0.387908 0.961868
-1.318056 0.149926 0.347649
0.945635 0.458181 1.017651
0.039721 -1.011960 0.858796
0.404981 -1.193409 0.475308
-0.590285 0.578476 1.179968
0.689614 0.681646 0.509312
-1.416335 0.044531 0.190761
-1.139613 0.383647 0.667476
-0.613710 0.350256 0.741304
0.142487 -1.041128 0.701382
-0.845626 0.336733 0.677257
-0.196268 -0.867569 1.179806
-1.357184 0.192317 0.369889
-0.852403 0.554551 0.967678
-0.572649 0.489857 1.003861
-0.616234 0.598043 1.159638
0.051101 -1.011631 0.842412
0.566215 0.589509 0.471692
-1.203249 0.329369 0.559386
-0.512537 0.462600 0.990369
0.611955 0.601876 0.516227
0.084503 -0.921974 0.725756
0.872454 0.732456 0.665405
-0.897566 0.419381 0.784203
0.757591 0.425758 0.875057
-1.241974 0.290804 0.530306
-0.129428 -0.757433 0.995289
-1.420960 0.029297 0.173136
0.086292 -1.103394 0.830820
0.567562 0.120032 1.045131
-0.907902 0.216387 0.454834
-0.233275 0.427031 1.117104
-0.299750 0.457519 1.171490
0.443535 -1.054247 0.326441
-0.177844 -0.920533 1.129929
0.461429 -1.053052 0.304504
-1.278339 0.139844 0.312302
0.631593 0.558837 0.553235
-1.348079 0.177354 0.378538
-0.600978 0.555890 1.101001
0.962098 1.119150 0.480493
-1.177792 0.440399 0.704986
-0.032854 -0.792004 0.845534
-1.268815 0.359755 0.610578
-0.796377 0.227565 0.520140
0.307097 -1.138020 0.564221
0.532622 -0.009779 1.185740
0.466713 -1.209109 0.413037
0.518375 -1.028690 0.250351
0.940813 0.718855 0.773608
-0.932149 0.323998 0.636386
0.747401 0.181523 1.148113
0.974513 0.856146 0.662605
-0.646247 0.355714 0.771396
0.814992 0.187333 1.224032
0.529783 -1.128390 0.297323
0.632834 0.618529 0.497169
-1.407441 0.292974 0.508373
-0.599855 0.355530 0.755963
-1.056879 0.267433 0.503117
0.801576 0.693957 0.652309
0.697451 0.982882 0.282962
-0.248872 -0.555366 1.159705
-0.675249 0.386533 0.812800
-0.122540 -0.553362 0.891399
0.805189 0.295563 1.055889
-0.257585 -0.599024 1.229539
0.443979 -1.016367 0.302863
0.805415 1.210920 0.270719
-0.296761 0.414854 1.077133
-0.035980 -0.655718 0.815263
0.914893 0.835550 0.646627
0.453610 -0.076824 1.200019
0.814418 0.356143 1.021574
-0.198460 -0.657246 1.124583
0.326596 -0.906319 0.381850
0.920142 0.581502 0.854209
-0.238204 -0.645114 1.201715
0.240766 -0.823662 0.475920
0.565968 0.333813 0.708874
-1.127644 0.313582 0.552839
0.681519 -1.270710 0.191186
-0.750538 0.330524 0.665067
0.400977 -0.959833 0.348074
-0.732736 0.479962 0.939759
0.968004 0.965086 0.570752
0.912854 0.389448 1.055567
-0.825204 0.258128 0.533146
-1.396555 0.208295 0.385194
-1.157597 0.197124 0.422457
-1.155955 0.333164 0.599092
-0.823914 0.417627 0.806752
0.037583 -0.799953 0.736000
0.426717 -1.205312 0.430457
-0.180487 -0.696197 1.102207
-0.881291 0.512660 0.896189
0.322300 -0.988888 0.437250
0.267177 -1.222773 0.651248
0.397385 -1.216657 0.470067
0.811060 0.230552 1.184379
0.970186 1.069826 0.496289
-0.255337 -0.500261 1.198009
0.941942 1.116173 0.438576
0.502535 -0.011598 1.142539
0.685415 0.816410 0.390601
-1.099811 0.342854 0.596415
0.699723 0.768260 0.446613
0.821591 0.283388 1.123479
0.108111 -0.769266 0.608910
0.947569 0.672408 0.820728
-0.421415 0.469305 1.099170
0.105655 -1.046777 0.781175
0.897311 0.942277 0.545018
-0.238949 -0.696138 1.179572
0.620321 0.137946 1.091345
-0.340965 0.421600 1.059097
-0.613216 0.382142 0.830167
0.808069 0.472777 0.849988
-0.099636 -0.908029 1.000951
-0.052835 -0.633329 0.833984
-0.210851 -0.736372 1.136766
-0.105675 -0.707059 0.931778
-0.098675 -0.994680 1.027539
-0.236406 -0.579747 1.178116
0.846650 1.041139 0.397558
-0.009303 -0.963659 0.911905
0.179095 -0.969534 0.616147
0.436350 -1.290867 0.462810
0.055166 -0.995053 0.830200
-1.004467 0.495983 0.855351
-0.831076 0.610057 1.057932
0.821663 1.204598 0.265220
0.870860 0.692571 0.725577
-0.946076 0.396543 0.736359
-0.740049 0.555359 1.052569
-0.695118 0.650967 1.225183
-1.353651 0.330856 0.560726
0.792023 0.308149 1.058373
-1.426157 0.061221 0.209891
-0.776731 0.446752 0.868864
-0.983646 0.260332 0.506386
0.818509 0.308141 1.054976
0.567394 0.346950 0.695355
0.468096 -1.376834 0.469159
0.470382 -1.053006 0.320361
-0.168551 -0.815171 1.118177
0.124852 -1.102432 0.752053
-1.134644 0.100912 0.297285
0.869153 0.331770 1.080545
0.915636 0.679049 0.757535
0.506224 -1.292770 0.387170
0.895442 1.163135 0.363075
-0.404459 0.371473 0.875521
0.737409 0.310899 0.958358
-0.036596 -0.920074 0.937014
0.865998 0.879596 0.536357
0.539234 0.066591 1.054549
0.489933 -1.016305 0.275511
-0.983319 0.163193 0.367609
0.769970 0.341370 0.958696
-0.173079 -0.663571 1.041508
0.010627 -0.955666 0.879094
0.740366 0.909179 0.408807
-0.338835 0.468244 1.162076
-1.173583 0.173479 0.362633
-1.457657 0.014150 0.180340
-1.119512 0.385130 0.674124
-0.771752 0.410657 0.783990
0.657861 0.643232 0.504937
0.684182 0.754449 0.439773
-0.819808 0.584785 1.056355
0.832846 0.818723 0.578347
0.458576 -1.232048 0.434211
0.202604 -0.782938 0.505602
-0.584698 0.467191 0.992805
-0.741888 0.634835 1.141644
0.678811 0.081751 1.223753
0.230382 -1.018695 0.573017
0.836288 0.800906 0.568941
-1.213283 0.197522 0.389988
0.888630 1.099009 0.399366
-0.530392 0.366450 0.837388
-0.611833 0.395157 0.853772
-1.218209 0.318440 0.542738
-0.648686 0.293958 0.664975
0.748622 0.696350 0.591970
0.748782 1.018681 0.338956
-0.998076 0.456436 0.775576
-0.622437 0.475058 0.985880
0.562898 0.442731 0.613368
0.871586 1.094950 0.385290
0.744403 1.149214 0.248449
0.604279 0.407684 0.674119
-0.976625 0.122621 0.339644
0.594688 -1.178013 0.228926
-0.525226 0.326053 0.731544
-0.781939 0.371851 0.750730
-0.952180 0.384429 0.688772
-0.582471 0.363468 0.777641
0.785078 0.756426 0.579462
0.343141 -1.143884 0.495218
0.672680 0.627954 0.566280
0.616047 0.751603 0.390813
0.025087 -0.848572 0.780126
0.674380 1.039120 0.245507
0.844576 1.200950 0.290243
-0.171792 0.429198 1.182541
0.690709 0.515575 0.667963
0.251256 -1.072677 0.601471
0.612766 0.505750 0.581339
-0.216596 -0.536679 1.118779
-1.432187 0.118496 0.277339
-0.527533 0.428587 0.919172
0.924575 0.596539 0.844439
-0.521578 0.345688 0.769936
0.835298 1.089973 0.352708
-1.097526 0.295407 0.534190
0.661607 0.435553 0.749030
-0.478941 0.558349 1.225145
-1.254753 0.179044 0.389259
0.706579 0.560775 0.641083
0.498803 0.117979 0.948404
0.460238 -1.261577 0.447231
-0.082272 -0.793582 0.962218
0.413934 -1.246580 0.466304
0.901241 1.001214 0.480587
0.702788 1.023225 0.261088
0.273356 -1.134730 0.603396
0.607849 0.655056 0.433918
0.115621 -0.722648 0.568888
0.707634 1.149698 0.210181
0.451868 -1.025748 0.325795
0.797608 0.893581 0.454074
-0.499325 0.344692 0.776803
0.787468 0.316653 1.008311
0.542337 0.303802 0.712992
-0.733077 0.539465 1.031218
-1.028705 0.451190 0.759651
-0.546366 0.326420 0.757666
-0.068013 -0.626642 0.858858
-1.342680 0.147608 0.342837
-0.725372 0.611895 1.116820
-0.728924 0.546015 1.013661
0.903379 0.844079 0.602815
0.296903 -0.987577 0.469251
0.961906 0.948564 0.577296
-0.102556 -0.952079 1.020097
-0.211220 -0.692458 1.160426
-1.397639 0.234337 0.416249
-0.622991 0.288302 0.663316
0.615798 0.721282 0.415464
0.403364 -1.102059 0.401759
0.833242 0.269220 1.122863
0.100080 -0.890055 0.687430
-0.058081 -0.714496 0.852282
0.885738 0.305663 1.160892
0.624093 -1.306925 0.270222
0.707099 0.123240 1.189156
-0.414548 0.514531 1.194529
-0.253911 -0.752159 1.222942
0.709401 1.130308 0.223987
0.123900 -1.085984 0.772726
0.774125 0.152718 1.222498
-1.453517 0.041492 0.186892
0.835992 0.584699 0.792245
0.708482 0.162396 1.165608
0.257741 -0.998299 0.554334
-0.281641 0.465850 1.163374
-0.914718 0.322156 0.608870
-0.007927 -0.675013 0.744359
-0.170611 -0.495148 0.999727
-0.217438 0.448866 1.185293
0.764598 0.200770 1.140238
0.823831 0.242466 1.181670
0.394805 -1.330505 0.527038
0.664450 0.527639 0.654073
0.531788 -1.196820 0.308182
-1.222280 0.334471 0.587629
-0.706808 0.409309 0.837579
-1.041040 0.333053 0.596158
0.703386 0.878877 0.363887
-0.963614 0.353207 0.669993
0.723741 0.409169 0.823300
0.765337 0.586468 0.684521
-0.611816 0.304541 0.695124
0.468677 -0.061103 1.192005
0.858238 1.197640 0.330537
-0.474676 0.443868 0.976830
-1.020134 0.255024 0.492536
0.001855 -1.095294 0.926596
0.050110 -0.672352 0.676428
-1.245890 0.168506 0.376858
0.754767 0.712172 0.584890
-1.092831 0.354814 0.640970
0.623891 0.122615 1.120784
0.562547 0.208550 0.903072
-0.035528 -0.823647 0.863385
0.557901 -1.068246 0.229691
0.704143 1.170218 0.193912
0.826864 0.986902 0.416056
-0.194649 -0.621353 1.068900
-0.441139 0.354624 0.858678
0.314153 -1.075632 0.496088
-0.888448 0.306031 0.620447
0.210684 -0.977362 0.606085
-0.149898 -0.868843 1.101226
0.241443 -1.169475 0.658511
-1.182569 0.064769 0.248033
-0.842949 0.379708 0.712539
-0.815337 0.392370 0.771135
0.778158 0.252643 1.082456
0.326738 -0.986166 0.457920
0.604779 -1.238124 0.252831
0.647085 0.533869 0.625830
0.577769 0.132284 1.039076
-0.796559 0.363981 0.733462
-0.474490 0.373963 0.878244
0.168446 -0.773922 0.520035
0.094891 -1.065883 0.775967
-0.928778 0.159042 0.396311
-0.060522 -0.808114 0.931209
0.622181 0.633347 0.470520
-0.657408 0.612940 1.157678
-0.474715 0.394965 0.919759
-0.650223 0.489083 0.961814
-0.840476 0.458880 0.832759
-1.124800 0.171557 0.365442
0.977341 0.990804 0.560417
0.583599 0.127130 1.057156
-0.234949 -0.743316 1.183385
-0.194164 -0.569887 1.045381
0.254683 -0.975094 0.545838
-0.529631 0.354041 0.782205
0.548533 -1.154344 0.291535
0.730349 0.224018 1.064058
0.808298 0.536751 0.811704
0.416457 -1.176061 0.453076
0.024360 -0.792595 0.753706
0.634542 -1.248610 0.252471
-0.195921 -0.636537 1.077029
0.653215 0.805753 0.390347
-0.845681 0.435491 0.795856
-0.042087 -0.707821 0.821009
0.929160 0.474844 0.975824
-0.717306 0.256804 0.553439
-0.470517 0.470303 1.031716
0.444754 -1.072388 0.362150
0.579106 0.015382 1.206285
-0.606054 0.567844 1.151622
0.263598 -0.933814 0.510459
0.132586 -1.013170 0.701632
0.277247 -1.139946 0.574296
-0.642077 0.493261 1.005982
0.655010 0.466497 0.706594
0.810085 0.639851 0.682805
-0.585402 0.452852 0.967251
0.245811 -0.927468 0.531077
0.350590 -1.348286 0.584454
-0.158533 -0.666746 1.050356
0.065287 -1.090964 0.854727
0.143706 -0.992849 0.705211
0.048329 -0.743369 0.687997
-0.133459 -0.776852 1.044012
-0.352387 0.414180 0.994449
0.929123 0.787143 0.701580
-0.085784 -1.027062 1.018519
-0.060382 -0.712812 0.889215
0.778008 0.703649 0.589443
-0.863673 0.275870 0.580931
0.551492 -1.257366 0.319689
0.032859 -0.687247 0.681060
0.443279 -1.234501 0.426643
-0.740358 0.340717 0.715081
-0.731462 0.486887 0.920062
-0.503169 0.525035 1.110047
-1.348581 0.063748 0.241608
0.287820 -0.966989 0.497602
0.235138 -0.857162 0.474842
0.338468 -1.253202 0.580610
-0.397063 0.417304 0.972194
-0.240765 0.461448 1.191754
0.910764 0.628499 0.799776
0.681201 0.273629 0.936647
-0.740620 0.287827 0.628402
0.720105 1.185853 0.200842
-1.015959 0.460344 0.775643
0.532895 0.309638 0.727164
-0.843286 0.404971 0.750481
-0.229325 -0.897598 1.208263
-0.737544 0.649242 1.165572
0.163480 -0.989694 0.648101
-0.159894 -0.798389 1.063059
-0.107557 -0.984940 1.037762
-0.429011 0.389718 0.934319
0.031206 -0.635237 0.686860
0.776883 0.172178 1.230115
0.772658 0.458499 0.855650
0.512969 -0.025086 1.186701
0.657178 0.345158 0.816309
0.849924 0.677172 0.691214
0.638332 0.451511 0.701464
0.899626 0.732996 0.718756
-0.644981 0.476003 0.943572
0.558268 -1.224786 0.320436
-1.445257 0.247918 0.426536
0.191783 -1.163150 0.691466
0.160001 -1.135715 0.746542
-1.224582 0.299170 0.543570
-1.198953 0.141385 0.319605
-1.229797 0.133697 0.308097
-0.978434 0.338075 0.616856
0.295756 -1.036410 0.497892
0.035331 -1.095393 0.868930
0.111865 -0.954372 0.702593
-1.349161 0.334300 0.540105
0.090233 -0.698016 0.625895
0.315627 -1.020968 0.464777
0.776933 0.759547 0.540064
-0.585690 0.481484 1.017195
-0.031554 -0.809399 0.850664
0.709408 0.322737 0.910276
0.823741 0.718298 0.654240
0.945210 0.656668 0.835804
0.968185 1.039942 0.541178
-0.845298 0.177969 0.436219
-0.062111 -0.764362 0.882866
0.785890 0.172133 1.204831
-0.644710 0.556648 1.076469
0.677112 0.740719 0.471606
0.685703 0.321928 0.914030
-0.827891 0.523719 0.962691
-0.599632 0.591179 1.193779
0.502593 -1.325342 0.407871
0.779736 0.431491 0.862407
-1.275517 0.227960 0.447964
0.828768 0.973098 0.427942
-0.852845 0.307014 0.601818
-0.119706 -0.696430 0.988925
0.871962 0.294060 1.161972
-1.185917 0.263873 0.505409
0.327204 -1.204942 0.571142
-0.260169 0.411441 1.100106
0.729271 0.446885 0.818497
0.642009 0.702957 0.433912
0.224001 -0.987740 0.565180
-0.772174 0.282018 0.610929
-0.735762 0.343268 0.688954
0.510870 0.135835 0.898879
0.263985 -1.153138 0.623294
0.733738 0.797973 0.461376
0.158268 -1.099645 0.707195
0.039935 -0.821447 0.774665
-0.799076 0.197985 0.474259
-0.513808 0.352201 0.784998
-0.983592 0.223582 0.482019
-0.168865 -0.584346 0.999399
0.691520 0.903571 0.332442
0.527599 0.161195 0.922729
-0.457002 0.528105 1.185807
0.317044 -0.994644 0.475801
-0.011692 -0.928655 0.872107
-0.117350 -0.530421 0.905626
0.757380 0.907276 0.401576
-0.059626 -1.030452 1.010248
0.254591 -1.146914 0.605356
-0.267636 0.486554 1.224474
-0.446548 0.407282 0.923180
-1.326545 0.075619 0.230452
0.096447 -0.964640 0.729367
-1.422991 0.027516 0.195905
0.689828 0.434871 0.752762
-1.176173 0.197408 0.420683
-0.898714 0.233975 0.481958
-0.287293 0.487434 1.206885
0.255628 -1.258968 0.655125
-0.099604 -0.612198 0.911391
0.814986 0.908015 0.461480
-0.227653 -0.713113 1.196819
0.908575 0.648563 0.778629
0.077728 -0.817790 0.714335
0.883284 0.799557 0.644804
0.017074 -0.647380 0.717954
0.209420 -1.156697 0.692656
0.427007 -1.276097 0.466244
-0.080721 -0.716378 0.891640
-0.898482 0.474533 0.862450
0.582663 0.446032 0.635344
-1.077645 0.206255 0.445038
-0.876673 0.271785 0.571940
-0.245699 -0.402408 1.137297
0.035408 -0.927768 0.801557
-0.958296 0.525825 0.913012
0.769631 0.576799 0.727773
0.406261 -1.163254 0.458149
-0.117292 -0.874936 1.049503
0.460238 -1.216766 0.398203
0.787487 0.756212 0.554449
-0.289976 -0.363682 1.194612
-0.752165 0.529858 1.007658
-0.218987 -0.603783 1.148531
-1.379528 0.046870 0.194538
0.620796 -1.338972 0.309752
-0.012513 -0.708641 0.802551
0.505302 0.018762 1.087950
0.551396 0.398291 0.647459
0.881241 0.987570 0.495535
-0.618653 0.341843 0.757416
-0.531875 0.315584 0.743999
0.643552 0.212929 0.972197
-0.243837 -0.564174 1.190380
-0.824189 0.297437 0.593629
0.698056 0.708715 0.495669
0.389768 -1.201156 0.470611
0.843614 0.912075 0.515432
0.138121 -0.742098 0.545971
-0.261060 -0.570105 1.229593
0.069150 -0.886421 0.730049
-0.107218 -0.873689 1.032431
-0.047126 -0.593461 0.802229
0.584005 -1.325871 0.321697
0.625548 -1.174350 0.219441
-0.923921 0.505761 0.868627
-0.125954 -0.802071 1.005243
-0.223652 -0.826411 1.182358
0.338103 -1.218564 0.564884
0.733624 1.162667 0.203328
-0.619292 0.539444 1.096332
0.457122 -1.274967 0.456982
-1.465613 0.176380 0.344275
0.698175 1.112411 0.197548
-0.172378 -0.522881 0.977721
-0.754861 0.259505 0.579338
-0.107560 -0.834331 0.986408
-0.780595 0.428829 0.839503
-0.076164 -0.760141 0.904731
0.865972 1.156058 0.338970
0.935664 0.632449 0.849015
0.576182 0.251215 0.827563
-1.098374 0.125619 0.332743
0.684042 1.131659 0.196560
0.877078 0.665910 0.756758
0.508603 -1.204443 0.337995
-0.065687 -0.644536 0.830293
0.683536 0.600557 0.605688
-0.149821 -0.712648 1.014175
0.408807 -0.973345 0.319305
-1.069018 0.435842 0.753920
0.378584 -0.951350 0.370583
-0.174667 -0.752612 1.073278
-0.093114 -0.695308 0.939494
0.939488 0.323206 1.162780
0.946080 0.435542 1.036495
0.109390 -0.753451 0.627825
0.624001 0.404956 0.704090
0.019247 -0.937075 0.859304
0.641760 0.117272 1.115144
-1.151474 0.250506 0.465118
-1.303345 0.345048 0.586463
-0.015993 -0.798488 0.853373
0.748099 1.216850 0.184762
-1.126227 0.211145 0.417825
-0.177757 -0.823442 1.104270
0.850641 0.496750 0.898802
0.131559 -0.779262 0.578750
-0.561533 0.541935 1.136655
-0.964910 0.481448 0.848376
-0.440031 0.437430 1.022735
-0.700870 0.511456 1.005234
-0.986573 0.239141 0.504093
0.614849 0.520076 0.599121
-0.141635 0.432545 1.222827
-0.174052 -0.604637 1.055336
-1.008205 0.368934 0.680707
0.709100 0.972431 0.328664
0.501689 0.096281 0.948002
-0.762190 0.496569 0.951964
0.071477 -1.059406 0.833377
-0.995703 0.340265 0.643996
-0.360725 0.478891 1.165601
0.136861 -1.117237 0.742591
0.588794 0.467288 0.620722
-0.664599 0.427033 0.852163
0.689651 -1.273633 0.209615
-0.399540 0.506705 1.151186
-0.777429 0.394274 0.787380
0.416068 -1.336879 0.531520
0.404408 -1.043371 0.393865
0.728251 0.957114 0.360473
-0.784375 0.531796 0.965355
-0.452058 0.473544 1.085784
0.728830 1.228395 0.183727
-0.152663 -0.625352 1.021841
0.894094 0.542218 0.867778
0.053549 -1.103182 0.875711
0.304026 -1.202419 0.597513
0.568621 0.050951 1.167846
0.851384 0.823464 0.566375
-0.155944 -0.501921 0.972256
-0.467675 0.487356 1.066009
0.878857 0.365351 1.079948
0.739976 0.168640 1.158401
0.611095 -1.264537 0.286147
0.690312 0.243845 0.989647
-1.139113 0.226842 0.463889
0.700421 0.116785 1.228238
-0.684275 0.531668 1.046133
-1.052864 0.141912 0.358683
0.602147 0.582663 0.522235
0.813238 0.626417 0.699200
0.688644 0.138036 1.141460
0.806243 0.764500 0.595500
0.717200 0.472968 0.742596
-0.283923 -0.360344 1.223912
-0.048839 -0.917414 0.925288
0.647725 0.910165 0.305147
0.664111 0.090561 1.189025
-0.177304 -0.467620 1.002244
0.855105 0.265312 1.150091
-0.778587 0.291168 0.623915
-0.877077 0.574600 0.986121
0.640483 0.753865 0.417352
0.605482 0.239979 0.883333
0.144437 -0.898345 0.656922
-0.052181 -0.769221 0.868309
-0.502139 0.490308 1.047530
0.913768 0.479740 0.954153
-1.103377 0.191756 0.422043
-0.960608 0.396546 0.703909
0.591212 0.054805 1.153333
0.775892 0.960569 0.381702
0.766616 0.639689 0.635106
0.805782 1.186479 0.260829
0.227478 -1.238761 0.680020
-1.124596 0.093931 0.262119
0.185901 -1.002787 0.624177
0.935284 0.732325 0.755866
0.724298 0.496968 0.725828
0.020753 -0.884944 0.804645
0.104182 -1.118155 0.812959
-0.087427 -0.935972 0.991554
0.347973 -0.935820 0.400274
