-0.580804 0.459270 0.981398 1
-0.388621 0.454113 1.091644 1
-0.425999 0.489883 1.135809 1
-0.890255 0.155580 0.396748 1
-0.808137 0.197324 0.471439 1
-1.024648 0.187008 0.424321 1
-0.613451 0.270839 0.637018 1
-0.801989 0.268829 0.583102 1
-0.950957 0.526237 0.916264 1
-1.423479 0.093569 0.274070 1
-0.688799 0.642399 1.216181 1
-0.971879 0.406420 0.741858 1
-0.899084 0.153370 0.392283 1
-1.418485 0.224352 0.427274 1
-0.485192 0.383806 0.891736 1
-1.048916 0.345198 0.638779 1
-1.464530 0.179608 0.371085 1
-0.963757 0.277233 0.561959 1
-0.859585 0.250201 0.542215 1
-1.415785 0.210705 0.411910 1
-1.164121 0.083653 0.273041 1
-1.394734 0.081662 0.261603 1
-0.609886 0.473623 0.990238 1
-0.445821 0.474338 1.091819 1
-1.394703 0.039284 0.212130 1
-1.433331 0.317796 0.533531 1
-1.378105 0.103215 0.287595 1
-0.600702 0.479663 1.005490 1
-0.552639 0.417552 0.921188 1
-0.946167 0.479932 0.852527 1
-1.442961 0.281084 0.490143 1
-0.864666 0.542614 0.974282 1
-1.276514 0.297562 0.532710 1
-0.373925 0.449588 1.092824 1
-1.426178 0.008853 0.176354 1
-0.680000 0.500476 0.998076 1
-0.979035 0.240164 0.506615 1
-0.754518 0.267418 0.591949 1
-1.062448 0.265247 0.527241 1
-0.880716 0.366068 0.711206 1
-0.862898 0.448372 0.838251 1
-0.514135 0.505572 1.103418 1
-0.863962 0.356008 0.701420 1
-0.442166 0.396584 0.940240 1
-0.949386 0.308533 0.609975 1
-0.762347 0.255645 0.571497 1
-1.089841 0.262717 0.519224 1
-1.231889 0.067659 0.249663 1
-1.274932 0.042935 0.217553 1
-1.385290 0.030167 0.201882 1
-0.851474 0.498616 0.915741 1
-1.142682 0.097963 0.292939 1
-0.931535 0.285559 0.580713 1
-1.004312 0.280405 0.558585 1
-0.842444 0.189255 0.453517 1
-0.733166 0.259997 0.585200 1
-0.679709 0.489541 0.980727 1
-0.569527 0.433207 0.940618 1
-1.345475 0.033598 0.204880 1
-0.646887 0.569685 1.128747 1
-1.260228 0.062884 0.242749 1
-0.624415 0.393935 0.846444 1
-0.581277 0.532629 1.107429 1
-1.387340 0.107293 0.291895 1
-1.010415 0.328064 0.623496 1
-1.448726 0.153355 0.341711 1
-0.843030 0.408406 0.785902 1
-1.210291 0.235583 0.465484 1
-0.786791 0.551629 1.023620 1
-0.301118 0.454026 1.162281 1
-0.492334 0.540513 1.182501 1
-0.930407 0.532451 0.932730 1
-1.125214 0.266990 0.518781 1
-0.585776 0.550549 1.135823 1
-1.385569 0.131888 0.320802 1
-0.793817 0.214046 0.499928 1
-0.927687 0.484633 0.865864 1
-0.454947 0.416705 0.971847 1
-0.700662 0.405551 0.833872 1
-1.212626 0.106887 0.300359 1
-0.662316 0.556430 1.097914 1
-0.431388 0.488934 1.130278 1
-0.804657 0.310552 0.648499 1
-1.174672 0.117812 0.316865 1
-1.198213 0.053558 0.233179 1
-0.675864 0.367494 0.780884 1
-1.108563 0.397840 0.693258 1
-1.390237 0.268978 0.482208 1
-1.062331 0.437729 0.758218 1
-1.171489 0.102697 0.297362 1
-0.618265 0.352015 0.775213 1
-0.572595 0.420017 0.916210 1
-1.230783 0.077933 0.262733 1
-1.009723 0.192991 0.434490 1
-0.318108 0.429868 1.092254 1
-0.881070 0.246054 0.531946 1
-0.851434 0.179930 0.438096 1
-1.370969 0.041539 0.215620 1
-0.983875 0.155655 0.384956 1
-0.671131 0.601426 1.163931 1
-1.424198 0.137786 0.325080 1
-1.249676 0.119655 0.314887 1
-0.748677 0.598816 1.113933 1
-1.234448 0.335765 0.586931 1
-0.462751 0.443603 1.020890 1
-0.910570 0.226943 0.498068 1
-0.640882 0.341783 0.748916 1
-0.446849 0.356085 0.858360 1
-1.049511 0.390403 0.698421 1
-0.727634 0.393046 0.803086 1
-0.615417 0.574296 1.156098 1
-0.836677 0.534304 0.974473 1
-0.548469 0.495589 1.063792 1
-0.720704 0.579657 1.099900 1
-0.995119 0.267667 0.542411 1
-1.244246 0.228035 0.451672 1
-0.433118 0.436526 1.025181 1
-0.408156 0.430249 1.028187 1
-1.219237 0.178626 0.391890 1
-0.692606 0.573590 1.107270 1
-1.192044 0.243453 0.478081 1
-1.389913 0.287165 0.503547 1
-0.378539 0.429803 1.048414 1
-0.227385 0.419036 1.147419 1
-0.780356 0.361727 0.735222 1
-0.623743 0.497185 1.022143 1
-1.159639 0.168937 0.385656 1
-1.115770 0.208804 0.443039 1
-0.631485 0.339546 0.748320 1
-0.717190 0.509826 0.994410 1
-1.014583 0.343569 0.644193 1
-0.955302 0.495501 0.871092 1
-1.158619 0.292157 0.546350 1
-1.401075 0.220565 0.424779 1
-0.376522 0.416576 1.020935 1
-0.691697 0.433273 0.883220 1
-0.474962 0.407475 0.943331 1
-1.101745 0.198612 0.431393 1
-0.940730 0.329647 0.642311 1
-0.825127 0.549649 1.001559 1
-0.720741 0.497999 0.974281 1
-0.506777 0.510746 1.117750 1
-0.542825 0.335753 0.776220 1
-0.975324 0.485299 0.850247 1
-0.258890 0.446733 1.184280 1
-0.758011 0.355770 0.733284 1
-0.455380 0.364463 0.870167 1
-0.275396 0.451538 1.179359 1
-0.977513 0.275604 0.556934 1
-0.767316 0.464819 0.901039 1
-1.351964 0.321866 0.550158 1
-0.566805 0.562221 1.168184 1
-1.454226 0.030800 0.199779 1
-0.603129 0.274778 0.646793 1
-1.369197 0.196336 0.399494 1
-1.078556 0.320949 0.599597 1
-0.695942 0.401604 0.829302 1
-1.322644 0.074486 0.254936 1
-1.320838 0.257419 0.477493 1
-0.207205 0.424707 1.181932 1
-0.923732 0.193572 0.447010 1
-0.741478 0.556589 1.053724 1
-0.438183 0.454986 1.058397 1
-0.615871 0.508304 1.045342 1
-0.855088 0.172539 0.426464 1
-0.637251 0.584529 1.158500 1
-1.411220 0.028585 0.198853 1
-0.808442 0.449840 0.861348 1
-1.224267 0.197255 0.415174 1
-0.756493 0.602642 1.115367 1
-0.844263 0.251228 0.546849 1
-0.820831 0.590846 1.064696 1
-1.320064 0.299580 0.528149 1
-0.425629 0.434411 1.025636 1
-0.888143 0.557096 0.985118 1
-1.046051 0.273838 0.541867 1
-0.703052 0.326996 0.703511 1
-1.321317 0.108804 0.297082 1
-0.610690 0.276644 0.647601 1
-0.696113 0.465865 0.933855 1
-1.397428 0.107648 0.291806 1
-1.299173 0.228250 0.445594 1
-0.813757 0.290009 0.613839 1
-0.800456 0.424301 0.825093 1
-1.435963 0.097552 0.278097 1
-1.025503 0.242271 0.501883 1
-1.399715 0.262308 0.473325 1
-0.986011 0.276314 0.556287 1
-0.988631 0.231276 0.492443 1
-0.683624 0.311827 0.684153 1
-0.921913 0.231215 0.502539 1
-1.440889 0.105500 0.287076 1
-1.222152 0.296960 0.541272 1
-0.272000 0.470243 1.226242 1
-0.714120 0.576537 1.098860 1
-1.034092 0.129436 0.343412 1
-0.978348 0.270153 0.549071 1
-1.159167 0.159289 0.372739 1
-0.525743 0.572957 1.215032 1
-1.228731 0.311342 0.557810 1
-1.316808 0.056738 0.233409 1
-1.185266 0.277954 0.523726 1
-1.453213 0.258090 0.462307 1
-0.463547 0.336364 0.812532 1
-0.717237 0.239216 0.556041 1
-1.395647 0.160084 0.353445 1
-0.864222 0.461273 0.856403 1
-0.236648 0.447860 1.210174 1
-0.951823 0.140528 0.367448 1
-0.958822 0.473495 0.839369 1
-0.828592 0.232216 0.520835 1
-1.116712 0.336704 0.611825 1
-0.672797 0.567913 1.110185 1
-0.386290 0.465197 1.115370 1
-0.731681 0.397190 0.808279 1
-0.815935 0.406883 0.793145 1
-1.101110 0.162190 0.381646 1
-0.639419 0.566214 1.127766 1
-1.171619 0.344020 0.609668 1
-0.793895 0.535945 0.995869 1
-1.445821 0.079099 0.256063 1
-0.624672 0.458428 0.956602 1
-1.286896 0.262418 0.488515 1
-0.929446 0.393474 0.737175 1
-0.318879 0.482740 1.212151 1
-0.769764 0.250869 0.562237 1
-0.671974 0.496505 0.995612 1
-0.923141 0.500039 0.889661 1
-0.537174 0.455545 0.998504 1
-1.367671 0.335881 0.564656 1
-0.467691 0.349049 0.834791 1
-0.332780 0.401698 1.021300 1
-1.313340 0.108677 0.297407 1
-1.205925 0.364594 0.628774 1
-0.729068 0.575818 1.089802 1
-1.293765 0.190653 0.399657 1
-1.099574 0.194120 0.425692 1
-1.005342 0.162834 0.392556 1
-0.776183 0.436567 0.853300 1
-1.325964 0.310523 0.540431 1
-0.608234 0.481093 1.003663 1
-0.732628 0.601428 1.128022 1
-0.612042 0.522962 1.072709 1
-1.195816 0.132530 0.334772 1
-0.713451 0.440467 0.885375 1
-1.131041 0.375815 0.659306 1
-1.198254 0.161222 0.371941 1
-1.024847 0.162237 0.389471 1
-1.329623 0.325340 0.557855 1
-0.575083 0.532513 1.111232 1
-0.937600 0.534001 0.932017 1
-0.597136 0.577992 1.174556 1
-1.026456 0.246481 0.507503 1
-0.853456 0.176493 0.432632 1
-0.287514 0.427627 1.113377 1
-1.064415 0.197055 0.433867 1
-1.083337 0.141099 0.354597 1
-1.112837 0.280576 0.539009 1
-1.051863 0.370815 0.671632 1
-1.197396 0.171460 0.385087 1
-0.292604 0.450768 1.162155 1
-0.734648 0.553880 1.053240 1
-1.152739 0.393562 0.677408 1
-0.914538 0.311308 0.621984 1
-1.123285 0.239658 0.483189 1
-1.365399 0.111600 0.298102 1
-0.464923 0.544226 1.210092 1
-1.158861 0.351180 0.621318 1
-1.165088 0.178412 0.397520 1
-1.011414 0.390604 0.708890 1
-0.900997 0.214385 0.480993 1
-0.776388 0.497759 0.947218 1
-1.212311 0.212374 0.435941 1
-0.727458 0.402926 0.819118 1
-1.362449 0.126481 0.316131 1
-1.014832 0.189353 0.428758 1
-0.870244 0.360289 0.705848 1
-0.946261 0.332880 0.645500 1
-1.343704 0.176551 0.377924 1
-0.505039 0.356268 0.830064 1
-0.491497 0.399651 0.919602 1
-0.278142 0.448799 1.170313 1
-0.604130 0.426971 0.912531 1
-1.189168 0.395630 0.672096 1
-0.825364 0.545584 0.995601 1
-0.515484 0.335806 0.787528 1
-0.909329 0.350655 0.680589 1
-1.133852 0.255885 0.502875 1
-1.075772 0.090071 0.286959 1
-0.492850 0.415318 0.948582 1
-0.662205 0.284066 0.644235 1
-0.775361 0.223122 0.517527 1
-0.725576 0.331183 0.703687 1
-0.743663 0.352473 0.732878 1
-0.315196 0.465044 1.174617 1
-1.419962 0.161150 0.352485 1
-1.007666 0.438037 0.774372 1
-1.190570 0.401471 0.679337 1
-0.404411 0.401800 0.973913 1
-1.152446 0.432172 0.727705 1
-1.425920 0.004376 0.171197 1
-1.311852 0.331380 0.568258 1
-1.091086 0.161566 0.381810 1
-0.857068 0.491539 0.902948 1
-0.540259 0.477825 1.037236 1
-1.443804 0.133081 0.318648 1
-0.614493 0.477567 0.994417 1
-0.555840 0.445401 0.970253 1
-0.800486 0.370817 0.742865 1
-1.372295 0.116234 0.303291 1
-0.595935 0.573231 1.167416 1
-0.910896 0.519586 0.921871 1
-0.791398 0.522298 0.976700 1
-0.629392 0.428027 0.902023 1
-0.328707 0.385336 0.989275 1
-1.019063 0.265678 0.535188 1
-1.148560 0.085663 0.276544 1
-1.236986 0.258510 0.490942 1
-0.928444 0.546628 0.953730 1
-0.822782 0.559714 1.018002 1
-1.349529 0.129475 0.320486 1
-0.717599 0.505984 0.988250 1
-1.071818 0.238737 0.489420 1
-0.754940 0.566631 1.062146 1
-1.448244 0.236148 0.437643 1
-1.344417 0.272372 0.491905 1
-1.205720 0.153755 0.361831 1
-0.534248 0.568617 1.200218 1
-0.934576 0.503811 0.890784 1
-0.714496 0.638456 1.194840 1
-1.103305 0.103283 0.302366 1
-0.650370 0.336962 0.737576 1
-0.522496 0.497706 1.083780 1
-0.411771 0.489743 1.146283 1
-0.505755 0.330846 0.782727 1
-1.340489 0.298167 0.523381 1
-0.948291 0.328358 0.638557 1
-1.117807 0.397650 0.690804 1
-0.641697 0.312717 0.698786 1
-0.554823 0.510444 1.085811 1
-0.528164 0.553817 1.180212 1
-1.095218 0.158845 0.377650 1
-1.353389 0.060345 0.238160 1
-0.550242 0.307695 0.722900 1
-1.181264 0.368497 0.638765 1
-0.783446 0.248444 0.555233 1
-0.690061 0.389109 0.811138 1
-0.406142 0.447870 1.067022 1
-0.784007 0.290526 0.621629 1
-1.333434 0.258043 0.476371 1
-0.870533 0.327598 0.656929 1
-1.024548 0.166372 0.395318 1
-0.658978 0.469488 0.958244 1
-1.286040 0.354364 0.600819 1
-0.779365 0.527295 0.989856 1
-1.444891 0.190920 0.385643 1
-1.177333 0.284965 0.533968 1
-0.651570 0.551550 1.096564 1
-1.174670 0.136175 0.340797 1
-0.622738 0.360904 0.788878 1
-0.493688 0.351458 0.826481 1
-1.078165 0.396098 0.698422 1
-1.106516 0.454763 0.769242 1
-1.199474 0.303836 0.553613 1
-0.457228 0.546491 1.220412 1
-0.374095 0.472661 1.142013 1
-0.591981 0.513867 1.069059 1
-1.181476 0.116598 0.314874 1
-1.120370 0.147265 0.359957 1
-0.688359 0.535739 1.050316 1
-0.782265 0.539558 1.007380 1
-1.455457 0.185454 0.378281 1
-0.692142 0.315619 0.687890 1
-1.054863 0.119116 0.327402 1
-0.906387 0.446471 0.819355 1
-1.119286 0.136362 0.345408 1
-1.013709 0.460704 0.803848 1
-0.496710 0.377735 0.874459 1
-1.000827 0.353812 0.661802 1
-1.153638 0.356989 0.629947 1
-0.853805 0.274350 0.580610 1
-0.603054 0.565966 1.150504 1
-1.343511 0.143967 0.338358 1
-1.188379 0.405912 0.685556 1
-1.147416 0.306113 0.566568 1
-0.848199 0.323892 0.657332 1
-1.334926 0.305921 0.533537 1
-0.720182 0.340869 0.721409 1
-0.632366 0.346960 0.761243 1
-0.729814 0.416903 0.840932 1
-0.724042 0.277276 0.615685 1
-0.378024 0.364267 0.913331 1
-0.636710 0.590170 1.168281 1
-0.729971 0.518866 1.001915 1
-1.311979 0.188959 0.395685 1
-0.813407 0.250386 0.551855 1
-1.201334 0.392827 0.665807 1
-0.971259 0.451839 0.804807 1
-0.812903 0.233393 0.525774 1
-0.271630 0.445190 1.167861 1
-0.453061 0.335229 0.815572 1
-0.887436 0.204479 0.468540 1
-0.964878 0.422497 0.766376 1
-1.439189 0.152372 0.341077 1
-0.527408 0.314776 0.744414 1
-0.653634 0.364756 0.784263 1
-0.804329 0.410197 0.802362 1
-0.637029 0.345429 0.756691 1
-1.292298 0.323411 0.561771 1
-0.862750 0.470191 0.869806 1
-0.829225 0.223244 0.506957 1
-0.643378 0.347960 0.758754 1
-1.408240 0.123244 0.309184 1
-0.667847 0.279946 0.635593 1
-1.416505 0.137244 0.324857 1
-0.955767 0.416563 0.761043 1
-1.225738 0.332817 0.584884 1
-1.429848 0.271181 0.480315 1
-1.230737 0.171828 0.382348 1
-1.431672 0.219520 0.420333 1
-1.231333 0.240289 0.468631 1
-0.927071 0.167833 0.409251 1
-1.354997 0.308929 0.534124 1
-0.855399 0.447712 0.840172 1
-0.489263 0.331735 0.791987 1
-0.767834 0.513284 0.974014 1
-1.218463 0.324501 0.575800 1
-0.804289 0.522043 0.970774 1
-1.223024 0.292703 0.535893 1
-0.581496 0.387996 0.853973 1
-1.063955 0.375625 0.674943 1
-0.593970 0.378436 0.831291 1
-0.995325 0.273381 0.550405 1
-0.719226 0.539987 1.039796 1
-0.737567 0.219449 0.520122 1
-0.645723 0.283195 0.647834 1
-1.054200 0.157894 0.380447 1
-0.407041 0.369279 0.906932 1
-1.036561 0.256039 0.518931 1
-0.485905 0.362023 0.850605 1
-0.435970 0.482721 1.115036 1
-1.315118 0.201778 0.411042 1
-0.620110 0.554249 1.120277 1
-0.588909 0.285554 0.670285 1
-1.419651 0.142794 0.331077 1
-0.933996 0.384086 0.722198 1
-0.691833 0.266742 0.607180 1
-0.750654 0.382895 0.778494 1
-0.978651 0.414707 0.751199 1
-1.316631 0.031920 0.203172 1
-0.680386 0.436131 0.892777 1
-0.532718 0.544709 1.160481 1
-0.713860 0.524123 1.017880 1
-0.953176 0.396867 0.734553 1
-0.732629 0.572445 1.083026 1
-1.448899 0.013841 0.180395 1
-0.833640 0.292415 0.612990 1
-1.205637 0.397102 0.670389 1
-1.281157 0.175163 0.382001 1
-1.147058 0.354958 0.628765 1
-0.930096 0.540568 0.944451 1
-0.482745 0.329831 0.791438 1
-0.672715 0.584964 1.136982 1
-0.580824 0.590164 1.203936 1
-1.120866 0.229087 0.469392 1
-1.189410 0.224709 0.454575 1
-0.606572 0.343316 0.764503 1
-1.076123 0.450955 0.772213 1
-1.156652 0.173334 0.391821 1
-1.101616 0.242685 0.490396 1
-0.566153 0.323759 0.745459 1
-1.313143 0.355895 0.598123 1
-0.479463 0.485331 1.088610 1
-0.727491 0.567307 1.078112 1
-1.445189 0.273328 0.480946 1
-1.230151 0.268296 0.504612 1
-1.272218 0.349757 0.597533 1
-0.552896 0.579379 1.205356 1
-0.950501 0.476254 0.845976 1
-0.725136 0.533961 1.026916 1
-1.278620 0.134106 0.331010 1
-1.192341 0.330467 0.588312 1
-0.822112 0.215801 0.496968 1
-0.628230 0.400396 0.855748 1
-0.753279 0.350576 0.726644 1
-0.879549 0.479980 0.877414 1
-0.794574 0.597792 1.088540 1
-1.368805 0.306616 0.529300 1
-1.085443 0.146293 0.361398 1
-1.019202 0.404579 0.725643 1
-0.641831 0.306636 0.688207 1
-1.051371 0.178967 0.409938 1
-0.382517 0.428073 1.041529 1
-1.352384 0.288876 0.510489 1
-0.706518 0.284622 0.632293 1
-0.537060 0.575491 1.210734 1
-0.723206 0.430001 0.864415 1
-0.331002 0.467835 1.167514 1
-0.482289 0.481668 1.080013 1
-1.026009 0.216479 0.465904 1
-0.907054 0.299041 0.605732 1
-1.105405 0.411886 0.712528 1
-1.304430 0.234745 0.452769 1
-0.785389 0.454712 0.877836 1
-1.078163 0.235936 0.484684 1
-1.448516 0.222381 0.421827 1
-0.798900 0.303455 0.638611 1
-1.390144 0.055995 0.231867 1
-0.441385 0.458942 1.064630 1
-0.986367 0.250662 0.520155 1
-1.422714 0.019331 0.188254 1
-1.127991 0.233599 0.474391 1
-1.057555 0.232294 0.482868 1
-0.818456 0.286702 0.607502 1
-0.705613 0.618490 1.169234 1
-1.208449 0.289843 0.534883 1
-1.188312 0.248098 0.484642 1
-1.251936 0.379760 0.639007 1
-1.448016 0.121872 0.305536 1
-1.285393 0.256883 0.482109 1
-0.665414 0.603277 1.170864 1
-1.036283 0.236696 0.492419 1
-1.328033 0.064032 0.242108 1
-0.483279 0.553809 1.213274 1
-1.182363 0.092343 0.283253 1
-1.073498 0.278335 0.542933 1
-0.683172 0.642602 1.219898 1
-1.163347 0.152950 0.363863 1
-1.107017 0.392379 0.686484 1
-1.267983 0.303631 0.541596 1
-0.740019 0.647650 1.193128 1
-0.370189 0.461527 1.119804 1
-0.671090 0.445096 0.911867 1
-1.015347 0.496895 0.852948 1
-0.506916 0.547454 1.184385 1
-1.034581 0.190903 0.428653 1
-0.421712 0.386527 0.932193 1
-0.834469 0.309003 0.638581 1
-0.905101 0.540506 0.954225 1
-1.240550 0.373730 0.633590 1
-0.350257 0.403751 1.012428 1
-1.276428 0.148884 0.349529 1
-0.557614 0.585218 1.212437 1
-0.741185 0.582331 1.093163 1
-1.048093 0.105262 0.309402 1
-1.097906 0.220224 0.460863 1
-0.626188 0.505365 1.034403 1
-0.887469 0.215140 0.484417 1
-0.753297 0.488671 0.944133 1
-1.408443 0.308515 0.526464 1
-0.304519 0.413035 1.068109 1
-0.765756 0.557296 1.041761 1
-0.550178 0.437777 0.959638 1
-0.913450 0.497374 0.889454 1
-0.777483 0.604025 1.106440 1
-1.060099 0.388508 0.693078 1
-0.808933 0.296456 0.625177 1
-0.670750 0.625263 1.201588 1
-0.457306 0.496247 1.125583 1
-0.745589 0.402904 0.812350 1
-1.036147 0.200531 0.442009 1
-0.398317 0.448036 1.072788 1
-1.176866 0.342010 0.606060 1
-0.669806 0.450078 0.920620 1
-1.407131 0.019711 0.188850 1
-0.991979 0.507236 0.875140 1
-0.733241 0.588397 1.106438 1
-1.438026 0.184388 0.378493 1
-1.149870 0.298037 0.555702 1
-1.464032 0.123912 0.307048 1
-1.401323 0.297870 0.514799 1
-0.695647 0.522312 1.024906 1
-0.705465 0.477480 0.948449 1
-0.839165 0.213065 0.489642 1
-0.629302 0.373396 0.808401 1
-1.025375 0.261687 0.528615 1
-0.643429 0.628349 1.224217 1
-1.211134 0.284674 0.528071 1
-0.603437 0.386471 0.841654 1
-0.728625 0.451495 0.896580 1
-0.601903 0.603234 1.210684 1
-0.952621 0.225876 0.489699 1
-0.410329 0.510042 1.187563 1
-0.741766 0.239498 0.550792 1
-0.714163 0.545325 1.051110 1
-0.533202 0.540421 1.152441 1
-1.122820 0.094374 0.289492 1
-0.744215 0.461044 0.904976 1
-1.214205 0.186132 0.402033 1
-1.342203 0.268024 0.487025 1
-1.170877 0.199174 0.423569 1
-0.714179 0.235127 0.550298 1
-0.813842 0.392742 0.772214 1
-1.177636 0.267072 0.510768 1
-0.747100 0.454541 0.893377 1
-1.231387 0.115941 0.311019 1
-0.514252 0.357485 0.828293 1
-1.111454 0.120399 0.324648 1
-0.870457 0.515793 0.932707 1
-0.655462 0.353427 0.763840 1
-0.748087 0.573363 1.076463 1
-1.136392 0.191300 0.417472 1
-1.114574 0.171994 0.393745 1
-0.884922 0.376895 0.725807 1
-1.125843 0.225819 0.464308 1
-0.884354 0.398409 0.757880 1
-1.237456 0.304000 0.547292 1
-0.773227 0.488676 0.934952 1
-0.971133 0.232470 0.496596 1
-0.829380 0.430333 0.824090 1
-1.379390 0.172146 0.369300 1
-0.584085 0.356962 0.797484 1
-0.553155 0.387952 0.866872 1
-0.756126 0.544501 1.027666 1
-1.438585 0.087804 0.266587 1
-0.821072 0.290356 0.612675 1
-0.685907 0.258150 0.594795 1
-1.450326 0.205290 0.402034 1
-0.910573 0.555783 0.973818 1
-0.887111 0.489249 0.887656 1
-1.000177 0.249933 0.516676 1
-0.483341 0.528602 1.167271 1
-0.993502 0.459252 0.808099 1
-0.327853 0.476534 1.188261 1
-1.173340 0.295475 0.547867 1
-0.833160 0.203007 0.475583 1
-1.092383 0.198661 0.432789 1
-1.371337 0.289272 0.508153 1
-0.299650 0.474992 1.213065 1
-0.847949 0.230287 0.514080 1
-0.991037 0.256452 0.527414 1
-1.226438 0.374682 0.637488 1
-1.213550 0.382235 0.649568 1
-1.185158 0.333591 0.593721 1
-0.943591 0.433799 0.788631 1
-0.867761 0.535645 0.962327 1
-0.320311 0.462824 1.165906 1
-0.424237 0.448684 1.055145 1
-0.774292 0.284989 0.615138 1
-0.743493 0.227127 0.530865 1
-0.376862 0.373113 0.932035 1
-1.360657 0.201152 0.406134 1
-1.430812 0.288116 0.500043 1
-1.296925 0.143576 0.341481 1
-0.797524 0.540814 1.001567 1
-0.702493 0.440365 0.890043 1
-0.760874 0.229164 0.530044 1
-1.232763 0.072539 0.255798 1
-0.701114 0.455830 0.915227 1
-0.348121 0.372374 0.949396 1
-0.392645 0.396224 0.969991 1
-0.475684 0.509766 1.137820 1
-1.454603 0.159296 0.348238 1
-0.783032 0.440603 0.856895 1
-0.827492 0.288443 0.608142 1
-1.054588 0.451448 0.779089 1
-0.671426 0.264633 0.609213 1
-0.777921 0.430155 0.842638 1
-0.972166 0.326693 0.630499 1
-1.037943 0.422091 0.744027 1
-0.660822 0.567379 1.116668 1
-1.177529 0.363053 0.632571 1
-1.307016 0.148778 0.347112 1
-0.906062 0.346120 0.674958 1
-0.861925 0.477675 0.880601 1
-0.518243 0.510095 1.109095 1
-1.039871 0.212474 0.458371 1
-0.722588 0.523119 1.012259 1
-1.363273 0.057585 0.234634 1
-1.153444 0.216111 0.447857 1
-1.151554 0.162973 0.378348 1
-1.345709 0.342890 0.576682 1
-1.306822 0.095398 0.281480 1
-0.882306 0.508923 0.918094 1
-0.971537 0.345923 0.657668 1
-0.894415 0.547059 0.967772 1
-0.710649 0.583934 1.113041 1
-1.051732 0.185856 0.419582 1
-0.672721 0.270154 0.617821 1
-0.424823 0.510343 1.176467 1
-0.692616 0.583491 1.123392 1
-0.332860 0.432145 1.086551 1
-1.120753 0.318009 0.587031 1
-1.261832 0.040666 0.215063 1
-0.649904 0.416692 0.873524 1
-1.202718 0.308532 0.558826 1
-1.281885 0.245566 0.469075 1
-1.078224 0.417059 0.726404 1
-1.026185 0.409949 0.730922 1
-0.822288 0.555651 1.011958 1
-0.924817 0.328869 0.645218 1
-1.169912 0.073330 0.259512 1
-1.169736 0.086495 0.276399 1
-0.608119 0.587356 1.182803 1
-0.560043 0.471346 1.013591 1
-1.131313 0.277245 0.531335 1
-0.975017 0.341923 0.651214 1
-1.280285 0.265041 0.492638 1
-1.231588 0.176292 0.387857 1
-0.691426 0.409108 0.843454 1
-0.207410 0.434928 1.207728 1
-0.314511 0.401992 1.035980 1
-0.874902 0.184148 0.440436 1
-0.885465 0.513785 0.923927 1
-0.659716 0.391767 0.827778 1
-0.671178 0.570849 1.115962 1
-1.170510 0.285798 0.536051 1
-0.643850 0.540093 1.082641 1
-1.025750 0.276401 0.548994 1
-1.141115 0.149976 0.361798 1
-0.622658 0.416953 0.886395 1
-0.786896 0.363698 0.736149 1
-1.247622 0.298432 0.538706 1
-0.985539 0.132791 0.352711 1
-1.390099 0.048321 0.222910 1
-0.299018 0.406919 1.058787 1
-1.272033 0.061567 0.240621 1
-0.972889 0.316154 0.615528 1
-0.266658 0.413078 1.098011 1
-0.932075 0.339654 0.658777 1
-1.183642 0.292350 0.542223 1
-0.450050 0.349855 0.845109 1
-1.432473 0.180127 0.373929 1
-0.435597 0.445141 1.040343 1
-0.523549 0.383206 0.872008 1
-1.219333 0.210548 0.432781 1
-0.723596 0.262820 0.592293 1
-0.183104 0.433710 1.229149 1
-1.059852 0.161255 0.384504 1
-1.109798 0.319183 0.590736 1
-0.542458 0.532193 1.132206 1
-0.648454 0.496852 1.008568 1
-1.392641 0.178681 0.375910 1
-1.078505 0.412343 0.720030 1
-0.747778 0.482520 0.937353 1
-1.453970 0.094507 0.273644 1
-0.710389 0.311340 0.675186 1
-0.830849 0.218158 0.498836 1
-1.049993 0.337449 0.628101 1
-0.454187 0.525568 1.183054 1
-0.412727 0.417817 1.001367 1
-0.418750 0.475583 1.113544 1
-0.724264 0.480808 0.944832 1
-0.383627 0.418075 1.019523 1
-0.491940 0.495409 1.099094 1
-1.154856 0.425509 0.718340 1
-1.290478 0.277443 0.505979 1
-0.507878 0.394761 0.900685 1
-0.725990 0.445085 0.887340 1
-0.548415 0.504909 1.080293 1
-0.607362 0.370590 0.812193 1
-0.784635 0.382424 0.766259 1
-0.697895 0.242323 0.565844 1
-0.607068 0.436428 0.927502 1
-1.176292 0.195969 0.418808 1
-1.065374 0.241337 0.493982 1
-1.447074 0.129338 0.314173 1
-1.363201 0.244016 0.456021 1
-1.115924 0.276410 0.532931 1
-0.835702 0.405198 0.783564 1
-0.713375 0.625205 1.175224 1
-0.816400 0.514464 0.954008 1
-0.701677 0.500422 0.987491 1
-0.766326 0.482607 0.928966 1
-0.850650 0.527743 0.958278 1
-0.741419 0.614362 1.142262 1
-1.104556 0.368335 0.655798 1
-1.298050 0.168687 0.372177 1
-0.775122 0.397938 0.793927 1
-0.711794 0.298107 0.652753 1
-0.555696 0.426302 0.935848 1
-0.786444 0.483923 0.921678 1
-0.366500 0.436562 1.071999 1
-1.112432 0.181546 0.407090 1
-0.455717 0.529824 1.190564 1
-1.076914 0.119979 0.326856 1
-0.864817 0.265487 0.564638 1
-0.422543 0.354146 0.868200 1
-0.551474 0.554827 1.165359 1
-0.604348 0.419727 0.899829 1
-0.915661 0.241289 0.518573 1
-0.527155 0.540246 1.156485 1
-0.788779 0.612976 1.113801 1
-1.037766 0.373881 0.679470 1
-0.356302 0.395688 0.992775 1
-0.724892 0.223832 0.529983 1
-0.329153 0.427552 1.079964 1
-0.765128 0.263356 0.583031 1
-1.357019 0.299581 0.522623 1
-0.699871 0.591269 1.131210 1
-0.865536 0.452646 0.843422 1
-0.459393 0.381386 0.901462 1
-0.401400 0.407649 0.988126 1
-0.688740 0.304612 0.670548 1
-0.848728 0.374039 0.732694 1
-1.131655 0.196855 0.425324 1
-0.857628 0.553037 0.992426 1
-1.055989 0.407555 0.719610 1
-1.204003 0.334136 0.590703 1
-0.551731 0.500855 1.071073 1
-0.576058 0.482340 1.024031 1
-1.339837 0.047698 0.222098 1
-0.455535 0.521025 1.173209 1
-0.339371 0.441376 1.100441 1
-0.483502 0.386898 0.898818 1
-1.220002 0.081807 0.268109 1
-0.804282 0.249030 0.551635 1
-0.598539 0.346046 0.772122 1
-0.634680 0.261231 0.614386 1
-0.599719 0.460646 0.973356 1
-0.841748 0.552996 0.999214 1
-0.930652 0.344241 0.665708 1
-0.717269 0.244633 0.564598 1
-0.295443 0.448885 1.155373 1
-0.765371 0.499599 0.955076 1
-1.028249 0.342633 0.639703 1
-0.665691 0.497077 0.999729 1
-0.796580 0.566393 1.040507 1
-1.352584 0.200485 0.406109 1
-0.470253 0.482672 1.090156 1
-0.933396 0.332634 0.648419 1
-0.747285 0.307733 0.658923 1
-1.247810 0.278113 0.513713 1
-1.303718 0.038350 0.211222 1
-0.360767 0.439965 1.082767 1
-0.698482 0.640607 1.207685 1
-0.778741 0.245227 0.551249 1
-0.533203 0.304464 0.723741 1
-0.333234 0.412792 1.045524 1
-1.062965 0.175698 0.404007 1
-0.725539 0.511968 0.993483 1
-1.268925 0.241211 0.465290 1
-1.091834 0.232442 0.478074 1
-0.486629 0.419145 0.959043 1
-0.888492 0.402661 0.762861 1
-0.814091 0.185988 0.453474 1
-0.878408 0.258854 0.551760 1
-0.405051 0.437647 1.045432 1
-1.159793 0.219876 0.452005 1
-0.675928 0.469892 0.950437 1
-0.571947 0.305259 0.710326 1
-0.433162 0.520599 1.190602 1
-0.364845 0.493218 1.192123 1
-0.612744 0.552830 1.122489 1
-1.016392 0.430341 0.761464 1
-0.987534 0.493285 0.857258 1
-1.042104 0.341036 0.634641 1
-1.228892 0.259721 0.493701 1
-1.375296 0.320349 0.544805 1
-0.804948 0.577177 1.052270 1
-1.396299 0.149214 0.340445 1
-0.579886 0.431193 0.931992 1
-1.388134 0.300230 0.519052 1
-0.769300 0.392547 0.787416 1
-0.830013 0.507299 0.936907 1
-1.229658 0.106897 0.299529 1
-1.105879 0.213412 0.450599 1
-0.849727 0.437843 0.828072 1
-0.957175 0.457262 0.817088 1
-0.668500 0.332149 0.723028 1
-0.735827 0.313409 0.671172 1
-0.542472 0.349199 0.800353 1
-1.045000 0.158803 0.382584 1
-0.507615 0.313754 0.750925 1
-1.047052 0.363520 0.663166 1
-1.235677 0.367047 0.626103 1
-0.599947 0.370285 0.814599 1
-0.901869 0.275181 0.572087 1
-0.820223 0.594667 1.070545 1
-1.282398 0.270059 0.498334 1
-0.531260 0.319022 0.750541 1
-1.188316 0.103215 0.297026 1
-0.425823 0.485558 1.127821 1
-1.396908 0.305576 0.524323 1
-1.264564 0.186649 0.397908 1
-1.383722 0.154893 0.348358 1
-0.937164 0.443086 0.803986 1
-1.083893 0.437665 0.752411 1
-0.931610 0.233312 0.504083 1
-0.616055 0.425585 0.904159 1
-0.886455 0.167885 0.415121 1
-0.738902 0.299501 0.647805 1
-1.042826 0.175461 0.405992 1
-0.408675 0.528797 1.226193 1
-0.609631 0.517386 1.064694 1
-0.826995 0.244254 0.539608 1
-0.732420 0.284058 0.624470 1
-0.987076 0.293434 0.580411 1
-0.774640 0.528752 0.994516 1
-0.341835 0.430389 1.076815 1
-1.292829 0.127423 0.321825 1
-1.000975 0.254463 0.522786 1
-0.624566 0.432335 0.911638 1
-1.467218 0.059076 0.232006 1
-0.912317 0.528869 0.934808 1
-0.603517 0.528073 1.086330 1
-0.859932 0.351673 0.695961 1
-0.398193 0.374318 0.921733 1
-1.406311 0.204362 0.405601 1
-0.655249 0.340508 0.741931 1
-0.844606 0.503904 0.925980 1
-1.417757 0.016264 0.184833 1
-1.049700 0.140300 0.356782 1
-0.516709 0.497738 1.087439 1
-0.685028 0.462802 0.934172 1
-0.497859 0.340153 0.803736 1
-0.729516 0.630688 1.173527 1
-1.151368 0.371159 0.648756 1
-1.149544 0.242385 0.482929 1
-0.590811 0.555837 1.141676 1
-0.740812 0.382898 0.782012 1
-0.825156 0.442939 0.844674 1
-0.874365 0.498275 0.905655 1
-0.540052 0.440585 0.970344 1
-0.658095 0.486229 0.985898 1
-0.793134 0.424114 0.827378 1
-0.609735 0.388919 0.843455 1
-0.316798 0.388650 1.004674 1
-0.504678 0.531219 1.156491 1
-1.238376 0.156476 0.362439 1
-0.200498 0.433622 1.211586 1
-0.770364 0.505168 0.961091 1
-0.567426 0.531405 1.114286 1
-1.424871 0.074742 0.252021 1
-1.249483 0.136551 0.336335 1
-1.220803 0.169872 0.380776 1
-1.239575 0.361586 0.618478 1
-0.810242 0.581114 1.055510 1
-0.344654 0.462205 1.143437 1
-0.838517 0.239211 0.529577 1
-1.186673 0.307627 0.560625 1
-0.198474 0.435576 1.218633 1
-1.390053 0.145845 0.337006 1
-1.072307 0.385057 0.685316 1
-0.411159 0.492964 1.153117 1
-0.991525 0.397426 0.723955 1
-1.344697 0.083990 0.266098 1
-0.618673 0.579650 1.162846 1
-1.322702 0.210226 0.420703 1
-0.913127 0.195533 0.451369 1
-1.192735 0.068743 0.252657 1
-0.757379 0.537202 1.016384 1
-1.055441 0.227660 0.476875 1
-1.388083 0.174312 0.371076 1
-0.967478 0.459385 0.816517 1
-1.306658 0.255667 0.477498 1
-0.534335 0.563447 1.192267 1
-1.026475 0.368023 0.674642 1
-0.648463 0.262560 0.612383 1
-1.268882 0.271155 0.501663 1
-0.471952 0.336994 0.809781 1
-0.435941 0.378332 0.908611 1
-1.367321 0.085795 0.267537 1
-0.307573 0.479068 1.214328 1
-1.310127 0.052157 0.227938 1
-1.019319 0.197377 0.439530 1
-0.631743 0.523364 1.061757 1
-0.505635 0.500437 1.099469 1
-1.409474 0.104268 0.287259 1
-0.771206 0.309732 0.655804 1
-1.273731 0.266522 0.495383 1
-0.366436 0.489727 1.182399 1
-1.058868 0.372416 0.671965 1
-1.446037 0.061638 0.235900 1
-1.183677 0.384670 0.659136 1
-1.268803 0.230784 0.452271 1
-0.567424 0.340720 0.774883 1
-0.607969 0.477536 0.997891 1
-1.307674 0.295152 0.524691 1
-0.660750 0.302014 0.674734 1
-1.035263 0.181103 0.414795 1
-1.250098 0.101624 0.291974 1
-0.635244 0.506034 1.030739 1
-1.195466 0.100050 0.292472 1
-0.360326 0.389443 0.977067 1
-1.042410 0.345946 0.641278 1
-0.761553 0.570916 1.065255 1
-0.986806 0.123987 0.340529 1
-1.022966 0.147639 0.369425 1
-1.472082 0.023798 0.191422 1
-0.755594 0.631470 1.159679 1
-0.896370 0.439541 0.813077 1
-0.970572 0.519435 0.899580 1
-1.224835 0.221682 0.446090 1
-0.988936 0.328904 0.629646 1
-1.220758 0.258317 0.493083 1
-1.126957 0.309347 0.574759 1
-0.945941 0.217739 0.478853 1
-0.540453 0.304145 0.720352 1
-0.278937 0.420402 1.104190 1
-1.173158 0.142632 0.349315 1
-0.240951 0.408340 1.110351 1
-1.451533 0.171880 0.362873 1
-0.451100 0.337766 0.821411 1
-1.327752 0.044573 0.218404 1
-0.530187 0.384072 0.870513 1
-1.359577 0.180758 0.381613 1
-1.420180 0.300467 0.515712 1
-0.606262 0.576256 1.165523 1
-1.222054 0.309745 0.556995 1
-1.226755 0.060106 0.240371 1
-1.086117 0.387999 0.685803 1
-1.446556 0.023847 0.192276 1
-0.452826 0.539861 1.211612 1
-1.062577 0.230070 0.479042 1
-1.279345 0.337793 0.581612 1
-0.796890 0.575863 1.054147 1
-0.877547 0.203716 0.469087 1
-1.049365 0.425686 0.745599 1
-1.389686 0.213337 0.417699 1
-1.353859 0.293452 0.515751 1
-0.544907 0.519517 1.108139 1
-1.202285 0.141247 0.345741 1
-1.257530 0.115438 0.309191 1
-0.945050 0.391041 0.729054 1
-0.882412 0.159167 0.403067 1
-1.150479 0.175560 0.395347 1
-1.306578 0.246277 0.466263 1
-0.649568 0.518264 1.043446 1
-1.271621 0.056754 0.234689 1
-1.263022 0.227912 0.449348 1
-1.144543 0.317361 0.581393 1
-0.434362 0.384523 0.921754 1
-1.183607 0.133953 0.337359 1
-1.140087 0.089423 0.281960 1
-1.192900 0.056339 0.236922 1
-1.355893 0.056032 0.233035 1
-0.918205 0.359619 0.691090 1
-1.460767 0.056484 0.229259 1
-0.667360 0.564281 1.107607 1
-0.431199 0.508093 1.166948 1
-1.306563 0.130637 0.324880 1
-0.275498 0.411059 1.085692 1
-1.351816 0.155988 0.352247 1
-1.156942 0.241312 0.480465 1
-0.583934 0.338551 0.764544 1
-0.861983 0.514270 0.933884 1
-1.144742 0.237361 0.477119 1
-0.990964 0.480707 0.838518 1
-1.402757 0.131408 0.318861 1
-0.999870 0.473155 0.825181 1
-0.833539 0.366440 0.725996 1
-0.611461 0.297681 0.683365 1
-0.517441 0.332040 0.780136 1
-0.505208 0.385619 0.884905 1
-1.162791 0.341144 0.607813 1
-0.688777 0.239913 0.564367 1
-1.367644 0.120306 0.308435 1
-1.321314 0.082582 0.265032 1
-0.857936 0.453837 0.848058 1
-1.370593 0.201741 0.405886 1
-1.312021 0.046767 0.221339 1
-1.195268 0.109965 0.305402 1
-0.748146 0.374255 0.765677 1
-0.463429 0.521748 1.168837 1
-1.361783 0.053315 0.229680 1
-0.826791 0.563690 1.022124 1
-1.264575 0.112354 0.304963 1
-0.723727 0.434043 0.870640 1
-0.846219 0.240278 0.529674 1
-1.113202 0.185903 0.412999 1
-1.094333 0.417747 0.723047 1
-1.274301 0.170496 0.376847 1
-0.325572 0.482235 1.205001 1
-0.947900 0.197310 0.448976 1
-0.613458 0.281079 0.654183 1
-0.915004 0.525460 0.928850 1
-0.464729 0.506664 1.139744 1
-0.793498 0.199340 0.477449 1
-1.133200 0.211900 0.444827 1
-1.109544 0.125615 0.331819 1
-0.747232 0.493428 0.954116 1
-0.673240 0.293333 0.656391 1
-1.227396 0.180293 0.393230 1
-1.313360 0.264396 0.486958 1
-0.582206 0.594682 1.210441 1
-0.867672 0.419028 0.793645 1
-1.239475 0.278559 0.515693 1
-0.574362 0.343115 0.776322 1
-0.347947 0.447000 1.105705 1
-0.601254 0.519219 1.072688 1
-0.693450 0.288818 0.642613 1
-1.462420 0.198776 0.393281 1
-0.637101 0.547841 1.099407 1
-0.675770 0.555569 1.088251 1
-0.616771 0.368311 0.804412 1
-0.450704 0.408057 0.957236 1
-1.145620 0.339699 0.609461 1
-1.047182 0.119959 0.329121 1
-0.838750 0.505413 0.930439 1
-0.793362 0.517426 0.968835 1
-1.356833 0.037122 0.209376 1
-1.008598 0.357963 0.665798 1
-0.945748 0.508782 0.893685 1
-1.371075 0.293508 0.513265 1
-0.227145 0.423624 1.158462 1
-1.193756 0.299780 0.549613 1
-0.393223 0.376115 0.927726 1
-1.373397 0.089285 0.271441 1
-0.547541 0.487845 1.050758 1
-1.303245 0.281581 0.509041 1
-0.634249 0.514202 1.044791 1
-1.150758 0.103048 0.299069 1
-0.527599 0.376498 0.857622 1
-0.562848 0.350404 0.794387 1
-0.578448 0.439202 0.946477 1
-1.145450 0.397727 0.684414 1
-0.810797 0.547373 1.004978 1
-0.641898 0.536213 1.077520 1
-0.901369 0.545690 0.963079 1
-0.739694 0.479605 0.936214 1
-0.282996 0.419373 1.098315 1
-0.899719 0.292114 0.597295 1
-0.432306 0.423943 1.001335 1
-0.750693 0.295804 0.638675 1
-1.196406 0.089665 0.279105 1
-0.930474 0.431039 0.789273 1
-1.033609 0.249850 0.510926 1
-0.585780 0.411178 0.894209 1
-0.583025 0.546257 1.130210 1
-1.391677 0.293558 0.510837 1
-0.690371 0.608165 1.162246 1
-0.964243 0.418024 0.760376 1
-1.067959 0.340204 0.627814 1
-1.393162 0.141016 0.330973 1
-0.374998 0.469668 1.134353 1
-1.024225 0.414853 0.738165 1
-0.611208 0.504339 1.041307 1
-0.911921 0.475905 0.859284 1
-1.252096 0.188074 0.400788 1
-1.001838 0.170311 0.403473 1
-0.508224 0.497017 1.091476 1
-0.838429 0.499089 0.921563 1
-1.376569 0.018737 0.187877 1
-1.059686 0.401331 0.710316 1
-0.547084 0.547755 1.156017 1
-0.854152 0.479603 0.886486 1
-0.916913 0.534242 0.940645 1
-0.525843 0.392025 0.887034 1
-0.727970 0.465740 0.919349 1
-0.988817 0.391932 0.717266 1
-0.841323 0.597179 1.064278 1
-1.360297 0.325741 0.553563 1
-0.995025 0.469353 0.821467 1
-0.792882 0.383498 0.765221 1
-1.354527 0.099758 0.284320 1
-0.841169 0.417922 0.801148 1
-1.054190 0.468390 0.802121 1
-0.639917 0.594096 1.172678 1
-1.017541 0.253562 0.518738 1
-0.837515 0.330277 0.669726 1
-0.782591 0.388366 0.776276 1
-0.580112 0.463832 0.989547 1
-1.032734 0.245124 0.504585 1
-1.406796 0.015128 0.183665 1
-0.697939 0.635389 1.200257 1
-0.665093 0.340343 0.738343 1
-0.609771 0.417729 0.893645 1
-0.554056 0.515029 1.094311 1
-0.517238 0.526151 1.138348 1
-0.952028 0.388698 0.723589 1
-0.685323 0.636170 1.209018 1
-0.463872 0.426819 0.987129 1
-0.721524 0.323006 0.691318 1
-1.058973 0.150830 0.370309 1
-0.785036 0.372662 0.750975 1
-0.720140 0.400057 0.817200 1
-1.038745 0.454954 0.788364 1
-0.610321 0.453916 0.955927 1
-1.298288 0.131345 0.326302 1
-0.396705 0.420742 1.016745 1
-0.674727 0.344124 0.741500 1
-0.544846 0.316827 0.741335 1
-0.926149 0.187818 0.438328 1
-1.323120 0.149867 0.347166 1
-1.166085 0.156990 0.369052 1
-1.072696 0.283411 0.549888 1
-0.742041 0.336643 0.707803 1
-0.900000 0.323997 0.644064 1
-1.197552 0.222660 0.450871 1
-0.697191 0.275364 0.619762 1
-0.673848 0.309022 0.682435 1
-0.740621 0.371930 0.764561 1
-0.631717 0.350170 0.767145 1
-1.205748 0.220958 0.447665 1
-1.124596 0.448536 0.756138 1
-0.693681 0.421336 0.862816 1
-1.123306 0.391206 0.681133 1
-0.988729 0.272213 0.550007 1
-0.587473 0.375009 0.827848 1
-0.962755 0.487401 0.857360 1
-0.483422 0.400730 0.926217 1
-0.863704 0.178097 0.433281 1
-0.603103 0.491707 1.024549 1
-0.620737 0.270054 0.633464 1
-1.008030 0.223677 0.478786 1
-0.943961 0.362157 0.687883 1
-0.925087 0.362622 0.693546 1
-1.419284 0.193395 0.391104 1
-0.773907 0.619367 1.131601 1
-1.352029 0.187471 0.390448 1
-0.498510 0.458663 1.027663 1
-0.733333 0.340776 0.717294 1
-0.519479 0.373508 0.855928 1
-0.469289 0.493983 1.112572 1
-0.909919 0.249908 0.532583 1
-0.860290 0.193351 0.456582 1
-0.939430 0.483560 0.859813 1
-1.272290 0.191276 0.402790 1
-0.703635 0.420627 0.857547 1
-1.199982 0.274177 0.516669 1
-1.173705 0.148612 0.357138 1
-1.429083 0.184451 0.379387 1
-1.396276 0.290254 0.506448 1
-0.973482 0.198273 0.446839 1
-0.775380 0.612289 1.119651 1
-0.483353 0.345365 0.819940 1
-1.180489 0.238672 0.473596 1
-0.813923 0.193558 0.464781 1
-0.478425 0.379703 0.887411 1
-0.353894 0.464948 1.141752 1
-0.239563 0.439786 1.186684 1
-0.893744 0.560469 0.987562 1
-0.625235 0.345739 0.761829 1
-0.772954 0.417860 0.825388 1
-0.878504 0.351759 0.690918 1
-0.672802 0.380538 0.803924 1
-0.997930 0.179299 0.416599 1
-0.967139 0.235949 0.502273 1
-1.031573 0.486519 0.833705 1
-0.642540 0.466283 0.961069 1
-0.658933 0.474055 0.965974 1
-1.310585 0.217504 0.430844 1
-1.271405 0.354751 0.603808 1
-1.435406 0.113580 0.296655 1
-0.774153 0.288732 0.621097 1
-0.888733 0.569606 1.002885 1
-0.338147 0.422425 1.063086 1
-0.859537 0.561059 1.003160 1
-0.273883 0.466381 1.217580 1
-0.620883 0.317137 0.713757 1
-1.169624 0.265141 0.509450 1
-1.153797 0.249998 0.492161 1
-0.897044 0.565262 0.993044 1
-1.426348 0.159632 0.350096 1
-0.746474 0.251577 0.568762 1
-1.414692 0.303016 0.519317 1
-0.412447 0.404343 0.973946 1
-0.906517 0.529208 0.937580 1
-0.791215 0.489877 0.928473 1
-1.383887 0.312122 0.533658 1
-0.830825 0.514919 0.948044 1
-0.430810 0.511330 1.173636 1
-1.323053 0.160224 0.359748 1
-0.688209 0.460107 0.928212 1
-0.821136 0.607421 1.089084 1
-0.810685 0.608082 1.095403 1
-0.754361 0.493792 0.951379 1
-0.708251 0.435045 0.878885 1
-0.931434 0.264469 0.550457 1
-0.643674 0.416989 0.876892 1
-1.428884 0.210004 0.409717 1
-1.049443 0.295208 0.570290 1
-1.223835 0.345562 0.601304 1
-0.351382 0.380399 0.964034 1
-0.850413 0.206026 0.477144 1
-1.455790 0.232668 0.432851 1
-0.979406 0.367157 0.685853 1
-0.986167 0.344168 0.651716 1
-0.947071 0.261556 0.542970 1
-1.449719 0.008232 0.173775 1
-0.221541 0.410826 1.133709 1
-1.421129 0.046659 0.219423 1
-0.971669 0.302612 0.596682 1
-0.649810 0.545239 1.087364 1
-1.247958 0.054699 0.232934 1
-0.627885 0.519159 1.056820 1
-0.297717 0.435746 1.123215 1
-0.460448 0.524565 1.176340 1
-0.597715 0.512570 1.063517 1
-0.514335 0.551347 1.186009 1
-0.688892 0.626219 1.192080 1
-0.886290 0.298829 0.610372 1
-0.688677 0.442588 0.899633 1
-1.027439 0.293525 0.572408 1
-0.842216 0.527494 0.961791 1
-1.364800 0.089760 0.272253 1
-0.530368 0.380764 0.864395 1
-0.748643 0.236450 0.544383 1
-1.095326 0.273884 0.533130 1
-0.473448 0.436667 1.000982 1
-0.931020 0.468098 0.841155 1
-1.128345 0.334161 0.605990 1
-1.149395 0.121979 0.323850 1
-0.987030 0.128477 0.346657 1
-0.769748 0.596792 1.099778 1
-1.097442 0.107529 0.308578 1
-1.253546 0.217435 0.437348 1
-0.854494 0.241318 0.529614 1
-1.281997 0.230968 0.450976 1
-0.886028 0.244124 0.528139 1
-0.468467 0.487551 1.100814 1
-1.173307 0.423838 0.712025 1
-0.828596 0.267482 0.575172 1
-0.288328 0.430651 1.119623 1
-0.663071 0.399703 0.839725 1
-0.597761 0.277706 0.653580 1
-1.088325 0.220148 0.462118 1
-0.244609 0.459919 1.228868 1
-0.625748 0.296854 0.676914 1
-1.262940 0.286462 0.521374 1
-0.778986 0.584571 1.077105 1
-1.275999 0.037987 0.211420 1
-0.644274 0.585828 1.155948 1
-1.054418 0.243858 0.499205 1
-1.265378 0.298792 0.536099 1
-1.199428 0.062091 0.243950 1
-0.775326 0.535647 1.004849 1
-0.805874 0.588693 1.068703 1
-0.596307 0.313246 0.715644 1
-1.103632 0.206455 0.441616 1
-0.649639 0.449105 0.928471 1
-1.388715 0.069731 0.247974 1
-1.404061 0.236628 0.442884 1
-0.831029 0.470716 0.883042 1
-1.198232 0.118153 0.315893 1
-1.023111 0.384204 0.697147 1
-0.537832 0.470628 1.025281 1
-0.961587 0.176603 0.417164 1
-0.779388 0.369854 0.748423 1
-0.312042 0.484248 1.220383 1
-0.676932 0.617746 1.186692 1
-0.769275 0.550072 1.029591 1
-0.819323 0.525633 0.969465 1
-0.329262 0.461766 1.155735 1
-0.966708 0.206302 0.459377 1
-0.645965 0.317214 0.705076 1
-0.517991 0.327033 0.770797 1
-0.638320 0.487413 0.998184 1
-1.277021 0.033044 0.205294 1
-0.347829 0.437703 1.087241 1
-1.406114 0.275690 0.488277 1
-0.813178 0.508956 0.947171 1
-1.410389 0.130643 0.317583 1
-0.799215 0.203052 0.481998 1
-0.767795 0.569991 1.060293 1
-1.348491 0.055735 0.232074 1
-0.936603 0.237889 0.510055 1
-0.709046 0.419040 0.852664 1
-0.933741 0.325833 0.638666 1
-0.728081 0.500557 0.974512 1
-1.094368 0.364822 0.653622 1
-0.798804 0.571227 1.046497 1
-1.274484 0.260426 0.487971 1
-0.841878 0.382022 0.746921 1
-0.908509 0.318100 0.633347 1
-0.717840 0.337336 0.716242 1
-0.384619 0.374834 0.930532 1
-0.543013 0.475436 1.031023 1
-0.634725 0.444323 0.927399 1
-0.748753 0.431770 0.856528 1
-1.227061 0.207646 0.428163 1
-0.289662 0.408821 1.070030 1
-1.016876 0.316541 0.606214 1
-0.488652 0.436099 0.990238 1
-0.549511 0.532532 1.128232 1
-0.419576 0.500052 1.160372 1
-0.809045 0.205221 0.483360 1
-0.660925 0.383510 0.813533 1
-0.987417 0.415922 0.750250 1
-0.826093 0.576135 1.040809 1
-0.539597 0.554150 1.172457 1
-0.782733 0.201353 0.482685 1
-0.953414 0.217136 0.476911 1
-0.847109 0.531302 0.965288 1
-0.848040 0.283819 0.596441 1
-1.408040 0.073071 0.250910 1
-0.430580 0.402679 0.958539 1
-1.379832 0.167872 0.364166 1
-1.116648 0.447249 0.756527 1
-1.264226 0.074261 0.256898 1
-1.426356 0.247954 0.453505 1
-0.855773 0.213809 0.487827 1
-0.459060 0.438601 1.013455 1
-1.195968 0.410296 0.689558 1
-1.382519 0.214198 0.419447 1
-0.894302 0.349513 0.683153 1
-1.128238 0.258999 0.507849 1
-1.047784 0.290449 0.564154 1
-1.430010 0.254237 0.460450 1
-1.411981 0.247826 0.454976 1
-1.133572 0.407647 0.700102 1
-0.510393 0.374120 0.861527 1
-0.496120 0.493771 1.093355 1
-0.840313 0.196225 0.464263 1
-1.198110 0.189062 0.407539 1
-1.195822 0.238836 0.471614 1
-1.125793 0.419132 0.717071 1
-0.980132 0.137338 0.359612 1
-1.139794 0.288053 0.544206 1
-1.107831 0.079526 0.271054 1
-1.322132 0.204563 0.413851 1
-1.424980 0.188171 0.384246 1
-0.563502 0.589340 1.215403 1
-1.332234 0.033741 0.205168 1
-1.425974 0.014098 0.182294 1
-0.828073 0.457497 0.864695 1
-0.232312 0.452898 1.225619 1
-1.338408 0.237682 0.451402 1
-0.882064 0.316543 0.637428 1
-0.748801 0.365567 0.751870 1
-1.191672 0.219338 0.447292 1
-1.335693 0.029639 0.200144 1
-1.329690 0.233137 0.447097 1
-0.953942 0.151667 0.382890 1
-1.036628 0.204593 0.447665 1
-0.946293 0.400787 0.742174 1
-0.892644 0.450857 0.830444 1
-0.562895 0.468957 1.007815 1
-0.674367 0.610901 1.177570 1
-1.054910 0.473240 0.808475 1
-1.273159 0.111426 0.303238 1
-0.763781 0.546043 1.026311 1
-1.416142 0.204580 0.404848 1
-0.932002 0.277276 0.568723 1
-0.922597 0.223472 0.490968 1
-0.426755 0.538400 1.229632 1
-0.747839 0.458616 0.899591 1
-1.363286 0.338930 0.568989 1
-0.802484 0.375873 0.750205 1
-1.273932 0.140716 0.339475 1
-1.330457 0.181494 0.385048 1
-0.801066 0.263415 0.574770 1
-1.108801 0.402049 0.698741 1
-1.024787 0.201251 0.444339 1
-0.582739 0.345642 0.777394 1
-1.403486 0.050578 0.224877 1
-0.727970 0.548463 1.048371 1
-1.013145 0.231711 0.489461 1
-1.368674 0.052840 0.228918 1
-0.681122 0.271748 0.618171 1
-0.497591 0.554779 1.203695 1
-0.708893 0.611981 1.156822 1
-0.902684 0.458789 0.838069 1
-0.809834 0.395133 0.777220 1
-0.812738 0.293859 0.620174 1
-0.323244 0.424211 1.077404 1
-0.366705 0.383702 0.960863 1
-0.519264 0.415956 0.935823 1
-1.077840 0.444717 0.763430 1
-0.627101 0.510536 1.042632 1
-0.807463 0.425720 0.824786 1
-1.100493 0.297272 0.563329 1
-0.887440 0.200618 0.462797 1
-0.991517 0.421300 0.756352 1
-0.727620 0.615239 1.151229 1
-0.826834 0.298211 0.623762 1
-1.016469 0.162136 0.390294 1
-1.134321 0.108568 0.307293 1
-0.483683 0.561911 1.227983 1
-0.894428 0.175200 0.424580 1
-0.625339 0.575309 1.151118 1
-1.368465 0.316272 0.540930 1
-0.665569 0.326631 0.714500 1
-1.371673 0.046378 0.221265 1
-0.765563 0.372437 0.757028 1
-0.536865 0.410078 0.914859 1
-0.846765 0.273779 0.581175 1
-0.483877 0.542455 1.191807 1
-1.004268 0.334834 0.634362 1
-0.940178 0.264827 0.549123 1
-0.650628 0.420622 0.879910 1
-0.562647 0.547437 1.145412 1
-1.099260 0.374591 0.665176 1
-0.409005 0.352072 0.871711 1
-0.669433 0.593940 1.152576 1
-0.980364 0.191104 0.435530 1
-0.645485 0.436652 0.909271 1
-0.494786 0.432619 0.979992 1
-1.321139 0.335636 0.571917 1
-0.551236 0.358234 0.812878 1
-0.428007 0.410547 0.976687 1
-0.732786 0.538752 1.030274 1
-0.401037 0.381869 0.934446 1
-0.709344 0.616648 1.163651 1
-1.031784 0.263129 0.529517 1
-1.154442 0.089236 0.280847 1
-0.708662 0.257480 0.587610 1
-0.612278 0.397969 0.858600 1
-0.660332 0.336305 0.733097 1
-0.998014 0.234007 0.495096 1
-1.389961 0.151205 0.343395 1
-1.093282 0.312226 0.584640 1
-0.717065 0.477971 0.943626 1
-0.843070 0.232445 0.518295 1
-0.901462 0.501433 0.899512 1
-1.073558 0.259424 0.517386 1
-0.742749 0.600786 1.120782 1
-0.378502 0.388774 0.963711 1
-1.304562 0.263405 0.487076 1
-0.603478 0.393963 0.855216 1
-0.592211 0.420916 0.907965 1
-0.594158 0.461607 0.978186 1
-0.699659 0.329679 0.708992 1
-0.517045 0.513067 1.115336 1
-1.377925 0.049163 0.224339 1
-0.842034 0.390639 0.759759 1
-0.702908 0.588300 1.124906 1
-0.683075 0.283293 0.636531 1
-0.999292 0.429955 0.765835 1
-0.373367 0.503337 1.207036 1
-0.738288 0.435521 0.866760 1
-0.757617 0.573659 1.071814 1
-1.157542 0.184423 0.406039 1
-0.888316 0.315112 0.633764 1
-1.190930 0.275595 0.519838 1
-0.865635 0.553600 0.989786 1
-1.419979 0.237936 0.442693 1
-1.446798 0.148995 0.336796 1
-0.570787 0.366936 0.820282 1
-0.485225 0.502983 1.118331 1
-1.052796 0.381761 0.686005 1
-1.266039 0.094677 0.282462 1
-0.740809 0.430006 0.857040 1
-1.114269 0.155051 0.370865 1
-0.901727 0.400013 0.754704 1
-0.762082 0.477943 0.923875 1
-0.508388 0.538341 1.166591 1
-1.165400 0.299499 0.554550 1
-0.741555 0.361200 0.747412 1
-1.097554 0.423866 0.730366 1
-0.704752 0.445367 0.897134 1
-1.141420 0.200893 0.429412 1
-0.375724 0.406382 1.001701 1
-0.663734 0.445969 0.916707 1
-1.088715 0.288348 0.553475 1
-0.722730 0.297664 0.649128 1
-0.906132 0.437573 0.806953 1
-1.417592 0.319299 0.537707 1
-1.031053 0.472855 0.815145 1
-0.577941 0.562518 1.161500 1
-0.805151 0.584212 1.062414 1
-1.309406 0.057845 0.234881 1
-0.470118 0.520685 1.161960 1
-1.140903 0.384057 0.667718 1
-1.140081 0.117122 0.318093 1
-0.715918 0.318354 0.685253 1
-1.423444 0.179452 0.373954 1
-0.755095 0.402377 0.808090 1
-0.565469 0.389499 0.863714 1
-0.690691 0.350183 0.746379 1
-1.002787 0.443555 0.783536 1
-0.999511 0.365333 0.678205 1
-0.658157 0.253438 0.594564 1
-1.064495 0.471839 0.803837 1
-0.426215 0.423786 1.004728 1
-1.025238 0.330683 0.623894 1
-1.385855 0.327002 0.551219 1
-0.395073 0.508052 1.198308 1
-1.296689 0.242232 0.462885 1
-0.669462 0.398656 0.835224 1
-1.104682 0.180367 0.406259 1
-0.781955 0.375365 0.756196 1
-1.286386 0.198418 0.410017 1
-0.621962 0.424392 0.899266 1
-0.828728 0.311322 0.643612 1
-1.240919 0.300140 0.541955 1
-1.138642 0.364726 0.643232 1
-0.904811 0.229230 0.502456 1
-1.132897 0.225396 0.462801 1
-0.701767 0.317442 0.688021 1
-0.688709 0.404635 0.837072 1
-0.835203 0.362473 0.719481 1
-1.390624 0.165288 0.360101 1
-0.946463 0.242960 0.515975 1
-1.314632 0.247680 0.466749 1
-0.828301 0.321863 0.659608 1
-0.669363 0.588520 1.144104 1
-1.360209 0.120063 0.308558 1
-0.636466 0.420222 0.885729 1
-0.439477 0.543859 1.229644 1
-0.845372 0.589056 1.050551 1
-0.172760 0.429468 1.229507 1
-0.497768 0.389535 0.896014 1
-1.439484 0.210917 0.409638 1
-1.125257 0.205112 0.436917 1
-0.660512 0.603823 1.175071 1
-0.681002 0.517084 1.024794 1
-1.045183 0.242917 0.499465 1
-0.822866 0.235968 0.527731 1
-0.410673 0.464315 1.096679 1
-0.498153 0.444783 1.001690 1
-0.630773 0.544718 1.098204 1
-1.357244 0.160155 0.356856 1
-0.767086 0.327653 0.685956 1
-0.495192 0.343511 0.811232 1
-0.765318 0.448239 0.875595 1
-0.639164 0.561636 1.120611 1
-0.992437 0.355412 0.666020 1
-0.845188 0.421530 0.805205 1
