-15.2991098234 64.7023420857 -25.0232270058
-15.3909924256 64.5032975002 -25.1012089693
-15.3799445064 64.6929691011 -24.9903571571
-15.3318831542 64.7473215120 -24.9572531010
-15.2054675189 64.7775312610 -24.9426374474
-73.5870782765 14.0893339057 -2.9665046035
-73.6131300052 13.8880402054 -3.2244495214
-73.8719117774 14.0329583776 -3.2554297251
-73.7081317323 13.8602797020 -3.0951546720
-73.7623086547 14.0674286085 -3.1283604387
-64.0587269905 18.7661037903 -7.5819681684
-63.9996215494 18.7667060015 -7.7037626308
-63.8485540234 18.7303085712 -7.6543028201
-63.7866608513 18.7447615160 -7.5686997465
-63.9355507527 18.7756740816 -7.7695657759
-26.1156500619 74.6401481582 -33.7151369549
-26.0059324144 74.6762038516 -33.6729143236
-25.9747645329 74.7715954309 -33.4877764851
-25.9358784071 74.7697045501 -33.4952847715
-25.9710563205 74.7413257187 -33.6814117075
-86.9127844012 32.6855685188 -20.5131187174
-87.0326235989 32.5604196031 -20.6930979932
-86.8756724414 32.5320450559 -20.6708760127
-86.8833256159 32.4173899710 -20.7252374612
-86.8206952493 32.4477317743 -20.6952323399
-50.9231902598 26.3196020256 -11.8004808944
-51.1304447858 26.3468697097 -11.8648870335
-51.1329599791 26.3802638486 -11.7641472650
-51.0832056810 26.2396577891 -11.8911074521
-51.1093317266 26.4610562195 -11.8599247258
-89.7228617672 14.0825880414 -3.6819350980
-90.0343381318 13.9001563709 -3.8782589261
-89.7716224225 13.9351215598 -3.8085024601
-89.8422194174 13.8734295324 -3.7954972428
-89.7908390545 14.0302989309 -3.7286415381
-88.5750684799 10.4166802262 -0.3004293049
-88.7751589584 10.2892360478 -0.2762162955
-88.7937737973 10.4319845405 -0.2423586762
-88.6496285948 10.3285514153 -0.4793854425
-88.7229057054 10.5629798123 -0.4232439861
-88.4765819219 13.6503684993 -4.4317554001
-88.5297336084 13.7984329264 -4.2848704586
-88.4438818665 13.6423638351 -4.4997565026
-88.6480805791 13.6311404879 -4.4291739040
-88.4048751533 13.7717066015 -4.6436998464
-50.0353436018 65.6675342053 -37.5175653468
-49.9941165172 65.5319804396 -37.8261143861
-50.1425886734 65.6614674175 -37.7589521131
-49.9348720797 65.6737936306 -37.7133186924
-49.9617000871 65.6346256410 -37.6268885552
-80.7758512966 35.7491323630 -22.5931461977
-80.6442901514 35.7660069448 -22.6149426894
-80.6071563812 35.6146290705 -22.4591442529
-80.5962144157 35.9488069004 -22.4255099177
-80.6691677710 35.8193897364 -22.4224511098
-38.9925140036 74.7961620159 -38.3272461171
-38.6583113132 74.9967060643 -38.6277192291
-38.8066287052 75.0280140062 -38.5922462274
-38.7709129199 74.8850024541 -38.5206683694
-38.8760283362 74.8855824796 -38.6142772586
-47.1171474301 29.9025667199 -12.3176897246
-47.0403545070 29.7828516235 -12.2169265849
-47.0002753012 29.6563364723 -12.4181869041
-47.0837024357 29.7113069596 -12.3629292088
-46.9161719737 29.8362659744 -12.3409335285
-88.5876752851 28.4831625551 -16.9693226834
-88.4366835413 28.4343529435 -17.1377080116
-88.4693237184 28.6300278743 -16.7591422868
-88.3122356333 28.5898081596 -16.7810436958
-88.4115180857 28.5244066541 -17.0555140086
-89.5367745298 18.5223843179 -8.8118918771
-89.4716433290 18.6771228207 -8.8859448942
-89.6281005436 18.3486635113 -8.6559891555
-89.4406037120 18.5412661636 -8.8054340262
-89.3908849772 18.3669091632 -8.8211424727
-87.5593382769 12.5642642084 -3.4181388054
-87.6784925880 12.4524689245 -3.5864467476
-87.7538415171 12.6537597462 -3.4195726965
-87.6761039178 12.5856649065 -3.3711597688
-87.6363243601 12.6840932968 -3.4292609817
-56.4922405559 22.6043626372 -8.3751494226
-56.5793188632 22.4953048234 -8.5070468824
-56.6424951276 22.5708414295 -8.5939570253
-56.5373330892 22.5422508329 -8.5048160896
-56.5337874129 22.5388839640 -8.5735991416
-12.3722189967 72.6902007359 -27.3412950986
-12.2526340434 72.7057881756 -27.1998300815
-12.3053484349 72.6772865351 -27.0534083170
-12.2702616508 72.8349982774 -27.1169790931
-12.3030578695 72.8698758861 -27.1768866478
-88.1849878369 11.0350846700 -1.8981518662
-88.0431381871 10.6671831634 -1.9141151150
-88.1410986376 10.8239130810 -2.1219341050
-88.1098728337 10.8821115114 -2.2142027041
-88.1185198965 10.9227920392 -2.2362945359
-36.5831588109 40.3496856999 -18.2978846048
-36.3593647933 40.5319389134 -18.5281532756
-36.4104180691 40.4645805609 -18.4895061176
-36.3577051567 40.4733299400 -18.3741656846
-36.4701201112 40.4373943993 -18.4426105936
-49.5274813938 27.8375022699 -12.4249810853
-49.5058773877 27.7784889776 -12.3491936928
-49.4987633539 27.7594183982 -12.4693363680
-49.5297973273 27.6183473059 -12.5531376010
-49.6642797273 27.6137206337 -12.6374276567
-89.4626725519 12.4543387231 -3.3338576186
-89.3719523439 12.5354265591 -3.5423239976
-89.5206417617 12.2544047261 -3.3913358777
-89.4243742727 12.3932451117 -3.5372227449
-89.5092522299 12.3082188692 -3.2750817500
-31.0226645730 44.8825111181 -19.7901428990
-31.1114088832 45.2318856252 -20.1325795592
-31.2911475569 44.9440768282 -19.8021828752
-30.8647655828 44.9509862078 -19.8875200369
-31.1709511669 44.8669727434 -19.8580354519
-45.7157170609 72.9421141411 -39.6319089409
-45.6647816920 72.6383940528 -39.7355821960
-45.7104036128 72.6966954781 -39.8116342974
-45.7229327395 72.7761582205 -39.7163887684
-45.6958877468 72.6960112133 -39.7577645124
-60.0966766174 52.8649257620 -31.9600655222
-60.0273207041 53.1022258254 -31.8522682243
-59.9340381057 53.0242727306 -31.8236468584
-59.9348077760 53.1318482206 -31.9383315286
-59.9783281979 53.1719009077 -31.8264055952
-62.2402027949 19.1990481368 -6.6137335872
-62.0849282089 19.1365476839 -6.6254172797
-62.1971836605 19.0585700126 -6.4685099533
-62.2045047174 19.0088836966 -6.4622465603
-62.1619536660 18.9180947796 -6.5259216999
-36.7141666920 39.3478554384 -16.7199496341
-36.7885380565 39.3022286814 -16.5696775120
-36.9576930382 39.3755400168 -16.8010315463
-36.8222791498 39.4632673128 -16.8938022693
-36.8232801166 39.3373875939 -16.6703017449
-76.3451631841 38.4759651821 -23.9284193577
-76.3970370951 38.2974143349 -24.1553434921
-76.3922651903 38.4942090773 -24.0445201701
-76.3537288295 38.4465120369 -23.9187940287
-76.4636362001 38.3189633993 -24.0120521249
-89.4219320903 21.4706732332 -10.0438590403
-89.2711842237 21.5920827998 -9.9005107232
-89.1068480244 21.6950048319 -9.9204652928
-89.2977704569 21.7872665143 -10.0448490215
-89.4323686185 21.6448096262 -10.0854607819
-85.6701879523 12.2862017058 -3.4640666762
-85.6114647770 12.3975702100 -3.3040261698
-85.6152018604 12.3196102121 -3.3863266676
-85.5823648468 12.2888234402 -3.3332464951
-85.6617646474 12.3102179424 -3.2670985887
-14.7536922111 74.9322852516 -28.0190008422
-14.5947012793 74.8605675913 -27.7954493067
-14.6574006921 75.1522811975 -27.9490374164
-14.4729950773 75.1101992844 -28.0269509708
-14.8173230257 74.9233710089 -28.0802369516
-41.7981523871 34.5540811470 -15.7858227019
-41.5832371225 34.6565913721 -15.7014366798
-41.8953379032 34.6737166491 -16.0388891720
-41.6203133410 34.6267455407 -15.6834884574
-41.6436920500 34.7406181102 -15.8629170836
-61.6617283269 20.0144848523 -8.2499563237
-61.5362211780 20.0835568189 -8.1512684456
-61.7205108392 19.9314837939 -8.4442918462
-61.6056004953 19.9752769339 -8.2598725776
-61.5114177597 19.7986103114 -8.4132590594
-42.1620430828 74.7835911536 -40.0729989769
-42.2014311367 74.8611768525 -40.1854058833
-42.1958051317 74.8149097777 -40.1840991264
-42.2293661040 74.7212449913 -40.0792329320
-42.1426622522 74.8183547149 -40.1751258272
-82.4577526634 11.4774929447 -1.0747272558
-82.4540945696 11.2750135487 -1.1924580117
-82.6302565358 11.3580582531 -1.0531415332
-82.5933509231 11.0934931117 -1.1156450180
-82.6204060747 11.1746778953 -0.8616034970
-44.3288199588 73.2514947355 -40.9110192938
-44.4410190971 72.8623593558 -40.5731286110
-44.4354519525 72.9390580951 -40.7151253047
-44.5440152729 73.1978019662 -40.7786458771
-44.3924027685 72.9629376118 -40.8352762021
-60.2505151432 20.9199180033 -9.0279106405
-60.3562171221 20.9243208840 -8.8406705602
-60.3558781690 20.9107536475 -8.9046185642
-60.4514581030 20.8872439415 -8.9014430028
-60.2290548633 21.1661241433 -8.9719852477
-89.0923929212 22.1802632306 -11.7848494805
-89.3255383161 22.4068876741 -11.6992281992
-89.1222374133 22.3710025626 -11.7159750997
-89.2500566652 22.2673893142 -11.7137597414
-89.1377177648 22.3944070114 -11.6690593541
-22.7105122476 54.7937483637 -22.8089964987
-22.8566633284 54.6859521328 -22.8737662723
-22.7951358947 54.7465010797 -22.8136401146
-22.9177471527 54.6181925247 -22.6228505336
-22.9234914650 54.7739775203 -22.8090238947
-42.8306607648 33.6214715005 -15.5146086729
-42.8312135067 33.4198513628 -15.2809739565
-43.2619577822 33.5054845609 -15.4644441934
-43.0704651282 33.3225881052 -15.3129527544
-42.9961752397 33.6514924498 -15.5314284051
-8.9436633516 74.8292721581 -26.3035312705
-9.0924826075 74.8514528849 -26.2436812559
-8.9979284183 74.5675913446 -26.2366916921
-9.0431787920 74.8675941666 -26.1787910612
-9.1557799005 74.8507764684 -26.3192689356
-38.1830483600 37.3955139549 -16.9571739365
-38.1777893108 37.7979481051 -16.8754866217
-38.3498011884 37.5283201768 -17.1016905232
-38.0538954222 37.6632012982 -17.2538807107
-38.3255048836 37.5747120145 -17.2372865871
-54.2445268045 60.3918806978 -35.4573832638
-54.3544989888 60.4638107671 -35.4021695822
-54.3261600779 60.2249093081 -35.2759685187
-54.4509851538 60.2732643193 -35.2892643856
-54.3300464129 60.5001698424 -35.3191530624
-52.1095872191 25.8585722470 -10.3519182341
-52.1517633750 25.7857900368 -10.3529570734
-52.1149757473 25.8434006819 -10.5912949161
-52.2322726305 25.8642811286 -10.4393873626
-52.2127848806 25.8927404214 -10.3093789131
-34.8395285502 74.3893511513 -37.4955473894
-34.9167594032 74.6673388509 -37.4877865436
-34.9120188561 74.2999889478 -37.7453685358
-34.7992132276 74.3366450570 -37.5020823602
-34.9625426548 74.5384791229 -37.6092231616
-18.9661074953 59.9856299444 -23.9965485303
-18.9971830824 59.8757681856 -24.1463067128
-18.8818026041 59.8445879868 -24.1543703706
-19.0526397961 59.9355062044 -23.9825068382
-18.9480794528 59.7933306193 -24.1686883277
-83.5416093349 11.3249107232 -2.5289247770
-83.4660943227 11.3056179477 -2.4354824164
-83.3095290217 11.3573649490 -2.2986339855
-83.4050128336 11.5086176850 -2.3641842407
-83.5083071259 11.4632930570 -2.4704934023
-29.5315004779 47.5036348756 -19.7586968382
-29.4284898303 47.5458045246 -19.6245926062
-29.5061225923 47.5652407316 -19.7128056107
-29.5295790576 47.4039508380 -19.7129111205
-29.3655378434 47.6113439237 -19.6681259492
-70.4024157533 43.9412833804 -27.2370287544
-70.3660019301 44.1297070542 -27.2475252129
-70.4009775609 44.0706168032 -27.2967389583
-70.4525393664 44.1921109043 -27.4006927378
-70.4101918210 44.1111451342 -27.3317834095
-88.9367323560 24.3255337658 -13.7491819751
-89.0958605595 24.4141673779 -13.7913583069
-88.9119693575 24.4937439662 -13.9982657308
-88.9872313044 24.3877911382 -13.8477364050
-88.9491753814 24.4541797457 -13.7571636497
-89.7690038768 15.9694794063 -5.2912584284
-89.7193954296 15.8083233475 -5.2164789569
-89.9524925536 15.9812731711 -5.1175061011
-89.8260739738 15.8668026399 -5.2286500251
-89.8954164353 15.7743126754 -5.1563732664
-88.2595226700 27.2208379498 -16.1341635749
-88.3347197244 27.1909488381 -16.1205743405
-88.1996009011 27.1228499087 -16.1252215049
-88.2471936029 27.1022941659 -15.8656539399
-88.3153904662 26.9679760040 -15.7809190913
-67.2169488569 16.4800756160 -4.8335359666
-67.3182741961 16.4900477673 -5.1311510936
-67.4083501450 16.3876815724 -4.8499114508
-67.3621725950 16.4949373166 -4.9260025984
-67.4633648573 16.6041386274 -4.9139090558
-28.2593463593 49.0897743785 -21.4379518421
-28.1641523864 49.2198836047 -21.3995982516
-28.2133359760 49.2425474365 -21.3979271955
-28.1733311103 48.9785122810 -21.3452747851
-28.3706731121 48.9673535801 -21.4410040663
-55.1058350747 57.6765572543 -34.0269117525
-55.1625816362 57.5022894822 -33.9054142946
-55.0314516355 57.8100044152 -33.8275642748
-55.0114930815 57.7897105944 -33.7711220882
-55.1741774335 57.8873671194 -33.8698564212
-10.5547990688 73.5735910588 -25.8145653652
-10.7758594258 73.6010412450 -25.6687134324
-10.8125897323 73.6028347673 -25.6071716418
-10.7248201461 73.6209327190 -25.7282041473
-10.5156377936 73.3843469254 -25.5887157441
-68.8398190964 15.7837690169 -5.7221393793
-68.6792658480 15.7973566796 -5.6563674266
-68.9095865438 15.9708277751 -5.6242961186
-68.7926378532 15.9069209766 -5.5247767338
-68.7036900870 16.0093335084 -5.7027096418
-25.1038712806 51.5414267834 -21.9061690927
-25.4098088083 51.5486622852 -22.0841136466
-25.2346961190 51.4752857328 -21.7883477522
-25.4689153773 51.5560965200 -21.8403162718
-25.2446743150 51.3507126038 -21.8596727695
-13.2536227714 71.1633942554 -26.7985152491
-13.1968914602 70.9026899084 -26.7768241812
-13.1574070282 71.0497493465 -27.0110856145
-13.2722003431 71.0265121143 -26.8250704423
-13.1627064551 71.1289364898 -26.9385092115
-89.7029655135 12.0861644777 -1.7768476656
-89.7427468577 12.1038054178 -1.8690680945
-89.6613838929 12.1976238893 -1.8231048137
-89.6608116346 11.9705526988 -1.9118291322
-89.8661020259 11.9074639472 -1.8662758589
-15.6744525939 74.3945903405 -29.3653221281
-16.0119380403 74.2930367952 -29.3866583742
-15.7770199829 74.3922083700 -29.4186144889
-15.6827747929 74.7016856875 -29.1874743679
-15.8950254403 74.4332722789 -29.1971423311
-43.6765540342 32.7000888822 -13.7809612171
-43.8598452570 32.5600749005 -13.7375370543
-43.7432745590 32.4629438794 -13.7636166549
-43.8260707664 32.6301072183 -13.9689524101
-43.7849721720 32.5322023823 -13.6450776519
-56.4919094982 23.2704407087 -10.2379987569
-56.5631878417 23.1947572345 -10.1429782588
-56.4818560085 23.1365180520 -10.3161373932
-56.5954775156 23.0966859417 -10.2013412306
-56.3981530075 23.3463168408 -10.2454583401
-40.8483112565 74.9323471788 -39.0888791661
-40.9182453041 74.8723215882 -39.1967552061
-40.6332634263 75.0179101593 -39.0308339988
-40.8894982969 74.5780368506 -39.2272328401
-40.9366679626 74.6279802855 -39.1617168487
-57.9534479977 21.8999464161 -9.4191344849
-58.1652160830 21.8925796561 -9.5721029685
-58.1759886085 21.9258996210 -9.3398172320
-58.1360648832 21.9232653472 -9.4990532395
-58.0916720796 21.8765371419 -9.3580355542
-73.0327867428 14.5572672744 -4.6240248441
-72.9627945650 14.5389311468 -4.8833083977
-72.9148771369 14.5474081817 -4.8222734019
-73.1399805588 14.5170840290 -4.7525998395
-73.0028248088 14.5180681440 -4.8701021233
-68.8989147705 44.9207563383 -27.9047451535
-68.5778137843 44.8646033729 -27.8915013379
-68.7057756264 44.9929824518 -27.9110643842
-68.7304440348 45.0808670723 -27.7056803954
-68.7966812263 44.9623573735 -27.7921614016
-88.1062680607 30.6709005575 -17.6356940339
-88.1100163703 30.3844868771 -17.7545914554
-88.1907788031 30.2818166549 -17.7594289307
-88.2079028752 30.5893474949 -17.7969644362
-88.3009588147 30.4165595125 -17.7834528710
-23.0301591035 74.7067902393 -32.4950799779
-23.0583054831 74.5209394774 -32.5263420100
-23.1498054201 74.3780708696 -32.6504931586
-23.2040081468 74.5194188184 -32.4222492683
-23.1170072406 74.3927506903 -32.5887239835
-21.0228126693 57.1504750057 -23.4190673527
-20.8808088804 57.0567568303 -23.3309699353
-21.1406262113 57.1153513689 -23.5071540457
-20.9831070735 57.0348295700 -23.1975487286
-21.0412570689 57.0326584865 -23.6349277515
-29.7401785744 75.0474812818 -34.4887118273
-29.9157788553 75.0681391071 -34.5253555613
-29.7754070296 74.8027609719 -34.5732640552
-29.7300800942 74.8256082665 -34.5321383569
-29.8372461489 75.0215774787 -34.5933784014
-17.6575582539 61.3516148292 -24.5409801429
-17.8791579537 61.3311683572 -24.4110490842
-17.6432132981 61.4156088746 -24.3116083145
-17.5833015169 61.3630619818 -24.2869185513
-17.4400575756 61.2937320694 -24.3108606480
-10.6807257951 75.0461602689 -26.5368553600
-10.8818526394 74.8556479432 -26.4408436322
-10.9070463832 74.8690629034 -26.5781324877
-10.6706769647 74.9659647531 -26.4327144036
-10.6441930771 74.7397360736 -26.4511713198
-12.5186430585 74.8072541446 -27.8391301353
-12.8750960664 74.5046887455 -27.8082444245
-12.7761863362 74.7701903173 -27.9496282494
-12.7541982353 74.6619843000 -27.6139480967
-12.5656194085 74.6883859016 -28.2205003673
-78.0470673010 38.3330241404 -23.8828699781
-77.9887479774 38.3421909236 -24.1625068030
-77.9263568755 38.3857677397 -23.9549494301
-78.0165073635 38.2512531030 -23.9467211559
-78.0067966121 38.1472098071 -24.2282530618
-44.9646004845 31.7158172194 -14.4032644209
-45.2756002335 31.7789019742 -14.6058884281
-45.3170825819 31.6108675503 -14.3450934438
-45.0394512230 31.5623902872 -14.4162818823
-45.1984366485 31.5887167674 -14.4999989755
-87.0273812820 10.5475892776 -0.4066556559
-87.0225754149 10.4309755816 -0.5470260310
-87.1116971990 10.4883962611 -0.2794783276
-87.0399666116 10.6382484283 -0.3368309312
-86.7797623758 10.5434596779 -0.4748677509
-43.7820401730 74.7269263832 -41.0558063976
-43.6297359692 74.8857550691 -41.0779057238
-43.9762209335 74.8654483963 -40.8984387319
-43.7142072951 74.7621367114 -41.0825347464
-43.9324026387 74.6129277974 -41.2125167781
-76.6081600091 13.9193021971 -4.4520884150
-76.7075687132 13.8973507821 -4.2984668415
-76.4019948304 13.6716647183 -4.2996132829
-76.4011166927 14.0924118310 -4.3561081376
-76.6276230964 13.7181309811 -4.5652083909
-87.9961222788 31.5425870625 -18.8492828278
-88.0839966917 31.6137995531 -18.8848847521
-88.0225959589 31.5641008526 -18.8375443618
-87.9823459640 31.7036458030 -18.8669692931
-88.1101952187 31.5503457242 -18.9465959014
-61.7624739924 51.8614490764 -31.4774659380
-61.7074986887 51.8898046684 -31.2984469172
-61.5159533992 51.8782902500 -31.2704581965
-61.7312755164 52.0141309232 -31.1794185723
-61.3968559468 51.8204862863 -31.2086655018
-80.0345316656 12.7467270327 -3.2709893024
-80.2443348458 12.5259342420 -3.6496589447
-80.2084188298 12.5735849379 -3.3485669902
-80.3393935040 12.5068399801 -3.3425586204
-80.3074631737 12.6220999867 -3.4917681991
-90.0283820830 10.0069232258 -1.5122020336
-89.9741505900 10.2388217218 -1.2974634604
-90.1222195119 9.9888346584 -1.4304386780
-89.9480855494 9.9992582977 -1.5034635698
-90.0018659907 10.1387775433 -1.3844668469
-12.8039937354 74.8710572894 -27.9869373564
-70.5691796914 44.0226682944 -27.2274678991
-36.5426363155 40.3263645440 -18.4861806261
-43.0384037995 33.6469825794 -15.3216151437
-60.1373042986 52.9966590002 -31.8555003024
-42.7282869292 33.5679139753 -15.3176802429
-68.6430168445 15.8830116193 -5.5777727228
-25.3945125368 51.4829452572 -22.0493310494
-29.7109244707 75.1680149279 -34.3114707158
-73.7023584281 13.8537005366 -2.9761585643
-80.1834446787 12.4516784018 -3.4650636095
-76.3973332958 13.8533094874 -4.4540614148
-45.0198221663 31.4800028193 -14.6626095191
-89.0784874478 24.3148815597 -13.7584927649
-80.2410253424 12.5834920863 -3.5885694410
-83.4179861209 11.3255345395 -2.3874626620
-89.1176729374 22.3300565634 -11.7929490272
-80.2579522940 12.7054058935 -3.4331632938
-28.1755635315 49.0081403280 -21.4663078620
-89.0674293420 22.4444340229 -11.7527300690
-77.8470956374 38.3529500678 -24.1049256713
-43.7876756056 74.7280149861 -41.2177118981
-23.0833605675 74.6749636617 -32.6854513741
-43.7981684477 74.7009016419 -40.9031344947
-76.2638512728 38.2993523937 -24.0448677996
-85.7530951835 12.2847192746 -3.3435400629
-88.3123828339 30.4804216023 -17.6678024867
-80.6162770347 35.7380261141 -22.6125664222
-54.4171758329 60.4930166300 -35.4332976904
-86.8947948724 32.4419663507 -20.8389997366
-58.2139408187 21.9038966815 -9.2887414808
-29.7524765642 75.0525569327 -34.4375189557
-49.8839745447 65.5107294348 -37.5819075748
-15.8191701894 74.4277320000 -29.4374253540
-49.4028030725 27.6378903751 -12.5883541025
-36.5220360131 40.4814472801 -18.5400395068
-60.3425690805 20.8460272523 -8.7767671494
-89.6569139826 12.2903949259 -3.4231150695
-41.6702776421 34.5234967089 -15.7245432002
-49.8408680626 65.4800943019 -37.6695538956
-42.7036893025 33.6701366662 -15.5588347152
-85.6435491832 12.2866939095 -3.2514589716
-56.4444598738 23.0554023336 -10.2560870625
-49.9064460862 65.4782025685 -37.6374145600
-17.8012953357 61.4387135567 -24.3674983848
-88.5301505079 13.6719472004 -4.3594282632
-68.7250158400 15.9802057050 -5.5997007265
-52.2664291269 25.7614455974 -10.2149163605
-49.9066417530 65.6670787233 -37.7119728224
-89.6721389853 15.8902534808 -5.1163817573
-68.7786420282 44.9550093434 -27.6681920342
-87.7649782172 12.6260540922 -3.4410893371
-87.0214493003 10.6355129327 -0.2867991209
-38.5806064942 74.8746984318 -38.4394806408
-89.7630425523 15.9350417805 -4.9608961552
-44.4514406931 73.1010640465 -40.8333502553
-41.6857611904 34.4147041660 -15.9376370955
-46.9784877139 29.7616890259 -12.3616004324
-85.6984245116 12.2598914544 -3.3770872971
-22.9723953008 54.7402962862 -22.7795708868
-89.7118288185 12.1725479999 -1.7755539998
-36.7251468698 39.2911526418 -16.6397987932
-64.0101009663 18.8562823413 -7.7492235348
-80.6008509593 35.7107051269 -22.6328037953
-62.1623005955 18.9675811340 -6.5965048951
-29.5841240289 75.0292506693 -34.5773649747
-38.6985610622 74.7509011924 -38.6080484278
-56.4442620270 23.1395797779 -10.2209164715
-61.4498941745 19.8797550684 -8.1210895201
-68.7520887190 45.0210151022 -27.7959241893
-46.9726103341 29.7374001667 -12.4258381706
-88.4664988553 13.7656696648 -4.5147932070
-55.1235490686 57.7426364504 -33.9869574403
-38.2520621575 37.5122594688 -17.0815679207
-85.7448571989 12.2859434161 -3.2572617516
-34.7101325624 74.5995943054 -37.5608194274
-61.7031560104 51.8574678327 -31.4813876264
-35.0200406762 74.5960883971 -37.5514563593
-68.6979900380 15.7509836984 -5.6384103422
-89.1816574165 22.5773529277 -11.6979340626
-49.5780978870 27.9126221827 -12.6332961192
-58.1435899398 21.8407291401 -9.3839953662
-89.9445905836 14.1213497708 -3.7043762844
-17.6484649879 61.3764319571 -24.3429802730
-15.3257616934 64.6931465595 -24.9608909654
