-73.137070 30.401508 -15.866395 
-80.501488 24.265041 -12.965924 
-82.676865 25.235941 -13.959556 
-39.940224 73.358597 -37.805397 
-23.189629 67.828896 -28.151300 
-60.005089 27.840172 -13.780333 
-26.433968 57.520329 -24.137550 
-40.280781 62.906380 -31.386852 
-54.708176 51.626926 -28.255341 
-67.442886 23.376188 -9.991619 
-33.679279 72.494148 -34.679089 
-24.238619 67.970688 -28.587624 
-46.976219 40.053543 -18.922037 
-79.013771 33.459129 -19.106529 
-64.980652 35.831657 -18.926676 
-45.751007 38.949299 -18.040041 
-43.263512 40.597450 -19.759930 
-89.397156 12.196416 -1.908882 
-73.798180 36.386368 -20.729397 
-13.669701 68.888832 -25.012520 
-48.912651 52.773140 -28.719397 
-76.633331 18.656158 -8.140558 
-50.827797 35.938736 -18.049532 
-34.238228 57.190048 -27.379784 
-37.990265 41.552773 -18.231083 
-40.477654 73.161476 -37.890614 
-40.781006 71.775330 -37.102695 
-55.196239 31.037838 -15.425544 
-45.240181 43.639023 -22.085539 
-48.922333 46.069527 -24.415030 
-56.673119 23.208408 -10.244229 
-28.533560 48.668388 -20.111906 
-77.937187 22.144840 -11.061839 
-64.868767 42.213707 -23.704967 
-27.368109 51.945976 -21.541414 
-81.003098 19.330265 -7.648503 
-82.096863 21.386917 -9.417188 
-71.616600 32.495659 -17.311493 
-49.526127 48.695896 -26.172462 
-86.663673 31.514139 -19.759092 
-74.543343 15.003893 -3.936950 
-73.095146 41.484035 -24.617023 
-62.618828 25.227991 -10.958641 
-84.373093 25.334686 -14.183126 
-49.425541 37.162586 -18.660067 
-57.155884 22.247040 -8.385218 
-32.965340 62.245995 -29.844549 
-38.779968 62.899796 -32.165291 
-52.773430 56.977352 -32.658661 
-34.024128 74.873360 -36.560093 
-28.047638 53.945271 -23.841015 
-37.550175 70.775856 -35.202785 
-75.131355 14.158665 -3.277911 
-13.448700 70.332611 -25.548756 
-52.303368 63.329060 -35.667995 
-80.073776 33.668278 -20.704351 
-18.479446 72.222527 -29.498947 
-80.701363 28.507568 -15.213705 
-58.949188 38.745476 -21.286737 
-56.209183 33.964844 -17.554529 
-77.943298 33.934006 -20.621782 
-52.420517 43.064930 -21.860771 
-56.324097 34.259586 -16.545074 
-62.476418 50.205021 -29.115454 
-49.587711 33.698803 -16.403128 
-26.330296 55.213280 -24.025665 
-36.254280 46.459496 -21.808010 
-38.364891 70.771729 -35.528419 
-43.780113 49.827484 -25.527309 
-59.696503 47.027679 -27.389944 
-48.054428 64.919487 -36.586594 
-51.319145 37.746792 -18.139006 
-54.531372 26.420485 -11.052268 
-54.871216 56.690662 -31.826435 
-81.686668 31.779270 -19.338177 
-28.922710 54.214760 -23.137606 
-65.195969 47.076229 -28.633385 
-13.339364 70.772926 -26.776764 
-23.131540 63.055096 -25.833549 
-53.657207 36.969322 -19.180225 
-83.238449 29.415661 -16.268623 
-49.024048 57.441452 -30.661654 
-56.270996 31.661129 -14.793500 
-49.798096 28.033625 -12.817904 
-84.186554 19.182562 -9.029003 
-32.931435 56.419926 -26.569197 
-58.537426 30.924522 -14.544668 
-78.226143 15.363150 -5.604734 
-59.198723 37.484516 -19.227451 
-81.099190 29.541779 -16.126469 
-38.574364 47.832455 -21.980543 
-39.354557 62.209305 -31.937737 
-43.601482 57.079987 -28.832003 
-65.821709 34.270878 -19.131290 
-87.176460 23.025333 -12.487683 
-35.236637 45.702835 -21.134777 
-42.780472 51.410461 -26.331505 
-19.005753 74.035431 -29.319197 
-33.927330 73.772102 -35.572739 
-52.700867 52.803398 -29.743618 
-64.912720 32.756161 -16.638397 
-88.350014 23.484413 -11.638941 
-68.045334 17.856609 -5.894282 
-31.876549 52.133877 -22.800632 
-57.387230 52.366890 -29.472565 
-32.992424 54.946396 -24.614307 
-86.823380 25.774818 -14.786982 
-45.312153 41.922554 -20.965528 
-25.962515 61.882195 -27.295488 
-36.375580 73.894836 -37.915390 
-38.186378 53.233681 -25.007568 
-52.382481 33.986534 -15.858699 
-42.415550 74.689621 -39.701519 
-24.868553 61.700825 -25.718716 
-83.929306 27.353168 -14.574447 
-45.884762 37.484180 -17.161079 
-42.332783 58.096115 -29.072826 
-24.750683 53.305847 -22.638145 
-39.863560 56.512791 -28.572449 
-82.444923 27.480396 -15.817999 
-72.339798 23.542805 -10.449429 
-61.020977 32.156197 -16.920246 
-84.910881 30.045864 -18.297630 
-45.260635 31.203556 -14.286160 
-28.972538 49.320038 -20.569485 
-74.538834 14.210409 -3.304307 
-44.661568 56.087074 -29.701374 
-26.413666 58.874573 -24.810759 
-88.382217 16.671534 -5.749439 
-55.830387 35.442425 -17.296745 
-59.188549 28.643682 -14.236053 
-20.763493 58.664688 -22.933428 
-21.700291 69.310593 -29.400791 
-35.863766 66.693008 -33.381664 
-24.178780 63.015186 -27.277628 
-31.867544 50.544025 -21.945442 
-30.009592 70.695274 -33.418655 
-51.286846 29.692753 -14.079432 
-23.752300 67.872337 -28.368994 
-53.337639 30.977886 -13.995625 
-24.757212 53.271919 -21.479263 
-54.786407 24.694141 -9.886009 
-55.690914 42.817001 -23.539268 
-47.548824 53.700306 -29.001690 
-73.498299 38.315571 -22.211903 
-86.174332 16.437309 -5.464502 
-60.326614 20.107243 -8.323434 
-62.388416 37.490257 -20.989088 
-54.249100 35.177338 -18.058805 
-84.488312 29.693613 -17.946753 
-58.936897 35.914932 -19.325220 
-65.737579 34.507912 -18.061909 
-82.437691 18.298849 -8.172369 
-28.426805 71.652580 -32.084846 
-53.852848 57.428986 -32.062778 
-39.290680 55.307701 -26.530945 
-65.935852 40.665291 -22.730324 
-61.184685 20.902212 -8.969364 
-32.278225 56.104683 -26.201746 
-38.068653 70.964241 -36.834747 
-28.711235 51.361267 -22.708918 
-44.002258 71.643921 -39.594467 
-82.787758 26.845617 -15.317059 
-49.886211 47.653458 -25.609257 
-41.928131 43.394981 -20.071405 
-69.801315 19.320082 -7.099850 
-83.350952 34.842316 -21.369793 
-77.535919 21.787737 -9.437834 
-68.700531 32.858593 -17.218407 
-62.097427 24.640940 -11.717327 
-64.949699 34.313816 -19.039070 
-80.206512 14.770395 -5.191092 
-47.679260 68.735077 -38.987331 
-53.072178 59.355473 -33.163948 
-64.877289 37.508751 -20.132309 
-58.070488 51.126633 -28.743397 
-55.654190 38.178314 -20.355387 
-77.400444 25.544655 -13.725433 
-61.296387 29.954109 -15.387262 
-80.667419 25.610220 -14.099730 
-80.602051 20.197941 -9.620800 
-40.574387 55.842381 -28.376751 
-52.002937 61.804970 -34.536995 
-40.751228 66.378242 -34.926292 
-26.014561 59.934402 -26.317644 
-39.539047 38.183701 -16.515766 
-56.871613 22.574032 -9.811213 
-20.349443 71.803345 -30.051201 
-81.126289 17.851137 -6.443621 
-78.474380 24.489122 -11.689478 
-55.168022 23.822706 -9.322248 
-42.731705 60.847420 -30.901976 
-62.501297 42.252094 -24.472044 
-39.774952 49.163490 -24.209206 
-33.256775 61.313469 -28.184280 
-47.113342 62.132965 -33.170006 
-38.140011 38.516632 -17.629974 
-31.107222 48.680344 -20.753895 
-48.129860 68.780388 -37.979816 
-34.823101 42.335114 -18.040245 
-50.266800 36.349445 -17.099665 
-86.305061 25.876644 -13.512963 
-36.986008 48.602753 -22.072790 
-77.767944 23.577440 -12.207087 
-73.400414 18.779270 -6.852508 
-39.485794 39.669609 -17.391956 
-25.624317 72.040230 -32.328281 
-41.115013 41.097927 -19.697767 
-84.335037 25.228613 -12.765551 
-77.639313 24.014093 -12.534129 
-37.253441 71.267746 -35.377975 
-72.774178 31.630381 -18.072382 
-53.397873 28.265057 -12.185610 
-70.732254 35.024944 -20.415211 
-60.025528 52.395409 -30.127419 
-67.275383 20.612440 -9.143190 
-53.260639 40.621788 -20.386681 
-80.008820 17.319715 -5.962276 
-57.848022 25.104261 -11.681164 
-34.614899 63.255318 -30.983969 
-62.479324 42.659050 -23.563568 
-21.225826 67.290741 -27.197739 
-55.811520 52.307999 -29.018631 
-40.439045 57.335655 -29.230116 
-48.444584 52.155464 -26.985016 
-71.425827 31.474449 -17.799057 
-51.926491 47.791721 -24.939289 
-81.687111 33.244148 -20.572701 
-64.081345 43.973057 -24.865828 
-55.870766 48.973900 -27.937027 
-70.733818 22.276842 -9.383278 
-69.474266 23.402800 -10.140245 
-31.417341 61.937389 -29.141497 
-40.860485 35.840347 -15.322776 
-85.520767 16.896839 -5.825263 
-27.239658 74.999130 -33.367798 
-78.908562 31.569700 -17.546099 
-58.226418 27.210121 -11.959934 
-76.864845 22.278490 -11.111244 
-74.196114 31.121880 -17.842117 
-83.588203 21.695200 -11.085247 
-19.402340 68.701614 -28.265577 
-24.771160 66.491951 -29.200966 
-43.536018 70.815926 -38.865639 
-52.397411 47.861931 -26.304333 
-61.447590 39.440212 -20.998041 
-45.658157 37.032166 -16.845814 
-56.666897 36.629379 -18.242897 
-39.816090 52.221668 -24.827450 
-60.527142 41.161316 -23.332106 
-21.312935 57.900520 -22.740860 
-31.028736 54.528412 -24.983696 
-44.470673 68.196625 -37.472347 
-71.421982 22.381718 -10.781170 
-38.522770 69.064064 -35.767330 
-70.688156 24.962461 -12.667942 
-41.092243 63.653282 -33.378326 
-20.825253 68.033569 -28.505764 
-53.857101 25.617100 -10.431287 
-77.449066 33.778816 -20.420992 
-83.103302 23.255901 -11.030954 
-12.775156 72.719894 -27.354568 
-39.165565 62.604610 -30.849833 
-74.862953 35.310196 -20.036797 
-72.068283 23.040451 -11.337842 
-72.542297 15.591773 -4.334896 
-30.093245 64.741180 -30.178007 
-69.846687 42.392006 -26.015270 
-61.801048 42.244038 -23.118080 
-44.536762 56.187408 -28.526054 
-44.264751 55.525665 -28.033056 
-46.119537 51.549732 -26.011845 
-35.772194 55.298477 -25.535105 
-34.097939 65.480301 -30.811749 
-29.862707 54.381729 -24.575478 
-50.465439 40.374744 -20.949482 
-77.713921 30.731951 -16.700258 
-85.020874 13.478106 -2.928091 
-49.975979 46.420616 -23.593279 
-32.059727 45.238380 -20.221146 
-38.139740 61.471878 -29.839544 
-45.454903 64.915085 -34.447372 
-29.269922 57.530212 -24.942062 
-41.181725 61.032692 -30.545731 
-69.133942 32.062168 -17.931772 
-63.239716 18.473534 -7.328873 
-87.083046 15.299747 -4.543242 
-32.081661 56.817833 -25.354458 
-72.141129 33.765282 -18.397078 
-65.948692 25.817104 -12.892984 
-28.404903 50.623383 -21.112226 
-19.506233 73.109230 -30.353729 
-65.847473 26.935268 -13.678353 
-58.920273 49.177784 -27.564547 
-57.927879 44.400066 -25.086189 
-81.436577 17.287088 -7.288799 
-73.746445 19.304535 -7.271596 
-41.689663 45.094521 -22.159164 
-60.230011 52.818108 -30.481081 
-46.915520 30.172421 -13.835657 
-61.338970 25.210352 -12.051567 
-72.994347 20.475870 -8.135900 
-74.308617 31.111458 -16.548452 
-71.235786 17.612583 -5.857284 
-67.683403 45.669636 -26.851685 
-80.098801 25.433580 -13.896433 
-74.370285 32.554638 -17.725018 
-36.901741 61.224258 -30.535475 
-49.140186 57.653446 -32.038807 
-65.453499 40.954792 -22.864822 
-53.833755 52.737083 -30.008137 
-37.337997 50.582321 -24.410265 
-49.747791 57.410603 -30.862099 
-29.899218 58.530895 -25.653219 
-20.425552 70.244453 -28.191332 
-44.765106 71.077591 -38.266670 
-71.313934 29.682152 -15.102852 
-40.502739 49.236805 -24.400215 
-78.329079 23.166002 -11.917313 
-47.863464 45.633057 -23.909145 
-82.286598 26.239981 -13.457863 
-39.206074 40.654388 -17.929108 
-74.647667 39.720310 -23.504969 
-38.141754 52.185829 -24.380680 
-29.979996 54.886253 -23.776501 
-56.934067 38.930737 -19.863560 
-74.353981 35.772812 -20.326738 
-71.564957 16.881630 -6.538084 
-85.111053 20.516884 -8.896805 
-56.244587 51.377575 -29.751919 
-65.619995 47.161980 -27.559250 
-48.753155 56.920135 -30.233913 
-67.882454 38.428402 -22.587740 
-55.137375 29.611237 -14.451684 
-86.295715 13.720583 -3.182867 
-52.589691 27.080715 -12.492178 
-41.965984 37.124550 -17.444393 
-71.203362 39.298904 -23.851873 
-61.467564 36.198078 -18.665764 
-69.752937 38.292824 -21.580790 
-71.063606 20.537725 -9.322418 
-79.435638 26.526947 -13.426971 
-35.911068 58.269264 -27.290638 
-56.705780 43.311924 -24.097153 
-81.911308 19.682623 -9.273785 
-55.150291 34.049801 -17.441923 
-79.902184 24.058277 -12.744220 
-33.119316 46.417381 -19.981133 
-46.549381 68.665947 -37.313824 
-53.377464 50.616108 -28.457712 
-57.388069 43.639236 -23.237291 
-83.182137 34.025154 -21.432981 
-32.675327 63.422039 -30.421358 
-61.666397 33.943111 -18.310268 
-17.721104 70.418777 -28.386902 
-75.601654 15.178246 -5.343302 
-47.371819 61.083748 -32.577579 
-18.194357 74.797340 -29.977737 
-79.227150 21.513657 -10.618373 
-59.086830 33.717796 -17.785051 
-39.739632 47.998653 -22.323610 
-56.164352 50.919048 -28.135586 
-56.520290 30.921741 -15.488916 
-81.144844 11.592735 -1.305513 
-82.045776 15.637863 -4.640681 
-85.476303 26.472561 -13.955894 
-53.488323 30.870094 -15.117296 
-17.920534 66.669899 -26.807129 
-44.191059 45.765648 -23.136539 
-36.939804 65.719452 -31.945292 
-78.001923 26.435978 -14.489278 
-33.265003 65.185760 -30.339539 
-79.032898 16.254263 -6.339022 
-25.557890 55.497246 -23.959358 
-26.290981 67.337067 -28.988104 
-27.937340 48.807201 -21.198423 
-81.455208 15.468529 -4.490616 
-28.855513 69.980316 -32.586487 
-36.329926 52.093693 -23.883614 
-46.055843 62.871078 -33.334976 
-28.402632 62.721909 -27.355236 
-68.347137 20.331947 -7.780978 
-75.928452 22.536213 -9.921238 
-34.604881 57.388172 -26.399990 
-60.680508 24.412308 -10.219028 
-35.174229 59.785912 -29.098454 
-51.132130 31.353172 -13.977880 
-44.081402 41.561287 -19.361010 
-36.217216 55.580208 -25.825159 
-43.037483 63.637352 -33.999557 
-28.958961 48.227535 -19.980742 
-22.005533 56.784767 -23.587698 
-61.939011 34.948578 -19.071058 
-61.151726 39.006310 -21.879780 
-39.064442 71.829727 -37.783791 
-68.645584 39.206802 -23.305534 
-31.927654 71.223663 -33.253849 
-53.452824 59.793392 -33.574543 
-68.924507 36.879902 -20.346729 
-88.396690 28.432745 -15.926782 
-52.481468 37.230637 -17.980907 
-71.321182 28.100475 -15.187408 
-47.485886 38.063496 -18.925867 
-53.400131 28.644367 -13.628104 
-55.869499 50.548660 -27.797880 
-29.403992 71.192444 -32.218399 
-82.401321 16.557764 -6.725945 
-69.394943 36.678741 -21.505157 
-70.157249 32.115368 -18.109982 
-62.544971 28.475229 -13.247558 
-42.800350 53.244057 -27.465754 
-42.810207 39.848011 -19.233376 
-49.763084 44.209259 -22.101194 
-44.780380 37.340977 -18.020512 
-49.607162 30.936356 -14.649353 
-46.368332 34.867096 -15.586931 
-36.662422 64.924324 -32.637226 
-78.916039 34.668388 -21.369291 
-48.823074 60.366703 -33.740177 
-58.930584 42.380112 -22.640627 
-80.656807 29.774746 -16.266188 
-86.563217 19.633034 -9.542121 
-66.759895 20.763550 -8.005119 
-79.659904 28.309395 -14.919255 
-38.494965 59.910225 -30.265062 
-81.074570 28.912569 -15.598072 
-23.188358 68.598427 -28.514462 
-76.740082 13.484497 -4.060642 
-70.605759 42.237801 -26.042080 
-32.245045 73.332596 -34.614777 
-15.819819 65.701149 -24.477894 
-47.825249 60.032883 -32.048092 
-38.160774 66.759293 -32.982609 
-49.914345 36.954407 -18.591152 
-73.702888 30.021708 -16.926271 
-61.801556 48.029350 -27.384090 
-83.707329 13.211710 -2.657146 
-60.910095 30.841452 -14.752272 
-41.327888 73.701714 -39.882248 
-74.226173 37.267906 -21.494179 
-57.081059 50.456894 -29.292818 
-41.614529 60.573978 -30.389999 
-32.779110 62.874912 -28.886585 
-39.436043 58.095985 -29.404886 
-41.931370 51.741539 -25.076450 
-13.449650 73.620865 -28.017036 
-79.627121 25.631901 -14.007356 
-49.100670 36.298592 -16.895885 
-38.834839 61.656025 -30.171879 
-53.879780 36.107780 -17.444160 
-20.771278 73.968903 -31.293594 
-33.187347 72.371422 -34.396870 
-55.650620 54.926746 -31.983000 
-37.492958 47.024666 -21.282242 
-84.551605 12.645759 -3.535742 
-57.756268 36.292339 -19.397448 
-23.816072 65.684006 -27.294098 
-56.947296 48.168938 -26.370319 
-24.374161 53.759220 -21.616264 
-60.932449 43.809444 -25.261055 
-34.986816 61.245010 -29.917427 
-69.187691 33.076027 -17.446484 
-35.353912 71.563599 -36.071922 
-80.613823 33.715874 -20.819403 
-75.095009 13.564688 -4.067374 
-78.976318 16.630671 -5.365735 
-46.502357 53.382282 -28.537674 
-40.481647 74.117630 -39.779175 
-37.063557 40.745510 -17.577051 
-27.927578 60.438725 -26.034744 
-46.422234 32.114326 -13.850730 
-84.723625 26.929705 -15.584450 
-84.943878 19.822376 -9.623903 
-86.284622 28.164680 -16.817101 
-63.912865 21.202557 -8.148051 
-49.703941 58.309288 -31.443575 
-74.150444 17.162325 -5.625276 
-41.708588 42.554695 -19.526018 
-78.120300 32.611664 -18.293312 
-59.904373 29.327839 -14.780547 
-46.129379 49.196987 -24.510954 
-76.810089 35.383659 -21.640327 
-50.009106 63.285198 -36.140190 
-32.657150 52.733257 -24.447945 
-79.939072 16.444218 -5.245510 
-57.935307 26.843605 -11.678529 
-54.441849 57.627655 -32.365536 
-49.337101 65.755981 -37.599445 
-44.922638 48.467148 -23.781532 
-39.341190 48.745121 -23.869492 
-31.946205 67.516312 -32.406578 
-85.135483 32.756466 -19.303596 
-45.752602 68.620911 -38.240723 
-68.631592 42.838989 -24.887543 
-21.484566 60.714668 -24.147339 
-71.230873 24.631115 -12.466205 
-78.423927 17.055702 -6.940180 
-80.718857 29.290997 -15.869976 
-45.828659 57.165981 -29.504177 
-59.767002 36.404228 -18.546898 
-50.425335 41.264816 -20.309776 
-77.890839 27.986668 -14.451971 
-55.308495 41.703217 -22.693567 
-59.816429 39.306076 -21.850983 
-30.035360 47.526436 -21.020361 
-76.874840 14.789534 -3.828562 
-79.140816 24.449596 -11.717064 
-58.395664 40.563873 -21.273836 
-58.050331 40.418056 -22.333443 
-76.543640 20.565334 -8.399681 
-64.009010 50.438271 -29.630959 
-30.930878 61.852306 -27.718687 
-44.925819 54.016525 -28.540186 
-24.635664 59.533623 -24.566687 
-41.066250 46.398132 -21.672409 
-36.032101 72.273491 -35.491028 
-86.952621 14.855621 -4.164268 
-83.296051 33.608749 -21.097475 
-34.867596 73.424957 -35.776947 
-63.006676 44.611557 -26.305647 
-43.195900 60.987000 -31.144436 
-50.056740 57.925369 -31.297115 
-61.837223 26.215469 -12.806100 
-85.848587 17.471878 -7.634451 
-29.141098 63.730618 -28.118700 
-45.107658 56.932343 -30.340397 
-28.431374 55.778229 -24.903624 
-57.162300 51.834354 -29.034866 
-44.049500 61.762272 -31.925055 
-25.906342 59.023842 -24.722576 
-21.887444 68.491745 -29.110897 
-81.013474 24.027908 -12.810944 
-37.492634 73.590965 -36.962215 
-68.548279 33.493084 -18.928608 
-26.877731 72.523865 -31.907288 
-40.488831 55.381195 -28.076473 
-29.413483 59.826138 -26.207268 
-44.115421 36.536282 -17.419506 
-59.054039 36.936550 -20.052368 
-38.298862 69.654106 -36.071037 
-29.121460 72.149635 -33.818607 
-73.707085 26.505701 -14.154701 
-35.735588 57.294510 -26.676947 
-52.063370 40.961006 -20.402426 
-21.419170 63.538631 -26.596134 
-39.647205 65.662430 -32.868301 
-38.800117 56.925209 -27.341705 
-52.248917 37.523888 -19.325550 
-27.055490 56.020752 -24.648169 
-50.245487 48.915886 -25.289124 
-47.891468 55.373253 -28.947039 
-38.065414 73.287277 -36.997414 
-58.438908 30.568460 -15.468690 
-55.786446 49.189945 -26.807739 
-45.097538 35.537552 -16.954912 
-37.550301 69.648331 -35.777901 
-83.843513 11.392200 -1.155392 
-77.701958 31.759418 -17.541386 
-54.507729 31.088882 -15.386156 
-59.035347 53.562447 -31.982239 
-65.320930 28.461117 -13.529013 
-88.632034 27.477898 -15.739382 
-44.046745 38.245590 -17.326544 
-62.127140 47.294781 -26.916653 
-89.375961 21.105892 -9.635845 
-63.398350 28.846039 -14.830933 
-58.409554 38.236450 -19.628313 
-22.707994 62.982437 -26.755352 
-25.311291 57.177132 -23.638075 
-63.259331 37.995300 -20.245657 
-54.078438 40.932781 -20.739878 
-32.526783 55.614319 -26.011261 
-28.300907 66.966461 -29.551905 
-39.948139 70.467041 -37.246151 
-54.618019 50.218212 -28.528687 
-40.408722 70.936325 -37.734539 
-44.012291 35.656147 -15.728622 
-46.226501 60.407276 -32.957111 
-81.827499 27.221731 -15.528768 
-31.957262 59.264828 -27.815308 
-18.346912 74.893547 -29.499390 
-53.916943 46.614532 -25.780556 
-47.913391 58.253830 -30.860447 
-52.711464 46.870045 -24.483772 
-55.326847 32.292191 -15.102309 
-10.507368 73.838135 -25.725487 
-60.846840 19.919970 -8.223423 
-41.019684 37.610657 -17.593624 
-35.216019 72.880013 -36.822762 
-51.552010 47.503601 -24.664474 
-30.790211 49.329414 -22.157074 
-20.220224 69.893890 -29.098724 
-32.025463 55.108055 -25.586197 
-42.983704 33.175446 -15.201105 
-29.400364 59.588001 -27.226952 
-59.898621 21.557980 -9.342922 
-46.533611 70.677567 -38.661011 
-32.269680 70.439148 -34.136700 
-89.057869 18.971651 -9.089890 
-43.186897 34.788788 -15.059339 
-53.392807 51.669952 -27.936489 
-87.667999 21.752125 -11.438801 
-25.376095 54.411667 -23.343063 
-59.255894 31.355145 -16.125942 
-31.510798 49.031216 -21.041569 
-88.999268 19.402304 -8.137682 
-30.600584 60.314400 -27.976358 
-16.777824 64.849953 -24.441319 
-54.056984 26.152397 -10.820440 
-55.429394 39.229397 -21.044884 
-24.646275 66.020332 -28.925213 
-45.568993 69.106171 -38.499161 
-80.252174 31.684624 -19.064480 
-44.588326 49.110477 -24.108938 
-59.658760 44.774567 -24.531525 
-84.225540 27.097340 -15.680834 
-37.977425 46.849236 -21.282722 
-41.665573 60.786461 -31.793060 
-33.867912 51.550125 -22.988752 
-40.910820 35.145901 -16.081036 
-40.204403 47.783092 -22.296600 
-31.032524 73.614227 -34.246899 
-57.156849 49.672661 -28.747732 
-64.827301 25.036266 -12.241047 
-84.887253 29.175896 -17.555971 
-63.628738 21.765636 -8.539013 
-72.817459 41.174698 -24.330559 
-64.124359 38.401989 -20.670536 
-42.574924 59.812450 -30.204700 
-50.327728 35.269485 -16.415163 
-86.898209 13.254248 -4.129553 
-30.442039 63.716705 -29.747952 
-43.644657 43.771614 -21.795525 
-38.349617 49.182014 -22.705671 
-48.442039 30.097279 -12.808086 
-68.103889 42.685921 -24.673025 
-79.342941 27.914299 -14.550120 
-81.342514 13.634884 -2.983979 
-47.538818 66.882385 -36.485855 
-69.779953 17.168085 -5.449012 
-46.912247 51.474129 -27.375484 
-48.591698 68.492233 -37.949207 
-58.551765 33.673450 -16.462315 
-28.178715 68.455276 -31.490011 
-58.397232 34.790974 -17.220491 
-28.302841 60.257530 -27.219532 
-39.981415 63.696022 -31.768366 
-51.194126 37.565926 -19.181667 
-71.125076 30.686714 -15.857720 
-80.210831 13.744905 -4.350972 
-24.193665 69.595306 -29.344234 
-35.221947 71.551300 -34.729729 
-62.461098 31.086449 -15.120464 
-21.883257 63.629311 -26.786766 
-77.100395 14.375200 -3.507233 
-22.928278 58.013168 -24.459709 
-27.693760 71.109467 -31.516470 
-33.175850 63.463100 -30.614822 
-81.832497 13.180464 -3.909354 
-68.388382 38.810589 -21.746796 
-36.745972 52.354900 -24.129715 
-59.081627 31.007816 -14.660075 
-22.878284 60.404938 -25.586563 
-28.000328 63.081631 -28.542988 
-46.496933 60.480370 -31.900936 
-34.565620 60.937851 -29.593332 
-36.165699 70.942093 -36.027313 
-82.554039 29.406605 -17.455980 
-40.510273 67.878181 -34.553852 
-34.244598 74.456512 -36.077656 
-24.363396 55.911221 -23.843689 
-61.340858 38.153538 -20.061460 
-65.933655 38.640968 -21.173080 
-54.871681 59.299561 -34.909176 
-72.551338 39.854446 -24.522362 
-37.009663 53.903763 -26.256351 
-53.109325 26.441296 -12.116994 
-78.434532 30.022751 -17.448486 
-54.666748 48.612823 -26.124895 
-43.187973 44.424885 -20.919399 
-23.379293 74.054214 -32.450184 
-28.964804 67.522385 -31.276493 
-15.302909 68.974831 -26.831913 
-49.992462 49.804619 -25.817022 
-27.129650 52.506317 -21.766790 
-64.849762 29.904190 -15.778174 
-57.567410 45.215286 -24.384895 
-83.583679 14.756836 -3.951990 
-65.065674 30.540760 -16.278605 
-53.925064 41.535797 -22.336227 
-49.022545 61.529106 -33.406883 
-55.231834 39.973713 -21.526649 
-80.020248 15.179485 -5.522338 
-23.698677 60.523262 -25.896511 
-63.002869 50.929901 -29.763155 
-39.568340 67.982346 -34.262749 
-64.863564 34.729416 -19.325529 
-47.961033 33.867805 -15.188103 
-81.359818 24.739305 -12.120948 
-81.454262 14.105135 -3.370950 
-46.432327 70.433136 -39.710972 
-23.176531 64.534744 -27.677891 
-23.569962 53.776062 -22.553379 
-44.390041 48.216270 -23.504253 
-77.498520 31.030720 -18.170527 
-33.275730 68.203041 -33.289177 
-31.739960 64.836815 -30.856552 
-88.812897 13.740129 -4.570146 
-26.099802 65.087563 -27.790237 
-47.003899 47.698414 -23.761642 
-61.809738 26.476967 -11.779648 
-55.605492 35.968521 -17.626747 
-51.698704 55.807518 -30.326986 
-45.452488 59.252029 -31.955067 
-65.253723 42.872231 -25.495785 
-41.528976 63.278576 -33.287010 
-26.710411 69.421303 -30.242598 
-58.199348 24.757275 -11.466968 
-64.351433 31.690140 -15.791445 
-57.868927 52.170532 -30.712845 
-28.295424 54.277779 -22.991268 
-33.204060 68.498528 -32.192734 
-76.484215 32.976406 -18.363873 
-50.996773 60.932350 -34.804459 
-79.959145 18.546768 -6.959129 
-55.659805 59.015427 -34.446766 
-27.073820 68.126900 -29.694218 
-62.479034 35.775982 -19.741577 
-43.729881 73.728424 -39.590450 
-59.228107 27.988203 -13.794817 
-71.572815 24.264053 -10.947356 
-48.089600 65.682671 -37.102425 
-81.692879 35.904095 -22.024019 
-20.078911 69.809677 -27.871719 
-43.543526 68.926125 -36.352493 
-20.465252 62.843224 -24.813578 
-14.228934 71.944107 -27.644468 
-46.678322 63.237488 -34.981720 
-52.526993 48.635185 -25.634026 
-72.597519 30.398832 -15.802873 
-40.023224 59.402466 -30.423607 
-47.938103 48.034477 -24.181910 
-83.661140 33.476074 -19.726227 
-26.480511 51.356155 -22.148121 
-47.424858 65.068771 -35.237793 
-59.004021 42.675442 -24.095823 
-77.165367 19.370836 -8.754227 
-49.063065 65.105591 -35.837837 
-69.445602 18.421085 -6.393741 
-39.777943 41.198204 -18.359953 
-89.752708 16.472261 -6.788400 
-81.315819 22.853031 -11.859499 
-48.467556 46.285919 -24.446999 
-60.677853 23.393963 -9.495201 
-62.134346 38.693287 -21.833725 
-37.625851 68.819733 -35.259457 
-38.719582 39.282146 -18.188572 
-81.282059 15.866264 -4.816026 
-53.356598 34.272854 -17.305052 
-34.042786 63.206425 -29.488882 
-69.435440 31.215952 -17.336493 
-19.566679 74.110878 -29.600285 
-67.058174 38.047390 -22.170258 
-27.440878 69.854858 -31.979753 
-47.517830 63.594780 -34.304497 
-85.535172 23.914801 -11.771154 
-46.187813 60.985222 -33.328556 
-77.838058 17.712223 -7.435641 
-50.311165 30.547928 -13.345604 
-74.787376 31.148497 -17.937298 
-66.091629 27.775688 -14.327906 
-40.223747 65.861084 -33.207573 
-38.072945 39.745388 -17.178528 
-13.703957 71.057472 -27.050413 
-63.234398 42.867630 -25.056652 
-68.523773 40.347710 -24.169411 
-49.950180 62.208588 -35.376240 
-41.714054 66.876160 -35.593491 
-48.766922 33.592514 -15.123305 
-85.524475 28.217306 -16.786314 
-56.433464 57.191498 -32.611134 
-19.187637 65.551346 -26.743011 
-71.380310 25.160498 -12.878185 
-72.274078 32.340237 -18.558283 
-51.426498 28.386593 -12.042025 
-42.474380 35.520164 -15.391708 
-27.686275 49.650375 -21.572182 
-31.762161 53.187035 -24.462645 
-63.360134 36.145294 -18.913754 
-53.585350 43.041168 -22.080193 
-81.850830 18.622396 -8.404085 
-29.866449 70.267342 -33.128708 
-54.369099 52.857613 -30.235228 
-61.422028 41.253769 -22.301382 
-56.167572 53.242905 -29.759382 
-59.825081 39.557983 -20.810043 
-47.826668 39.013672 -18.421400 
-68.029366 25.987471 -11.956323 
-74.958611 36.648514 -22.368011 
-48.516876 67.768051 -38.432995 
-37.084286 43.246418 -19.025051 
-59.542091 41.346996 -23.277243 
-75.616356 19.453627 -8.735572 
-24.634319 72.184952 -31.994858 
-79.461487 22.622093 -11.536327 
-62.133892 33.038910 -16.492498 
-40.408386 54.096695 -27.285654 
-74.311508 36.452869 -20.860138 
-15.358614 71.559776 -27.961388 
-31.975597 64.362549 -30.685659 
-24.109501 66.131279 -27.620504 
-70.552689 44.031219 -27.399700 
-85.941170 17.905027 -8.009202 
-83.226044 14.885686 -5.357866 
-50.554668 39.737228 -19.318119 
-34.796997 68.433960 -33.994331 
-75.509087 24.460297 -12.701366 
-26.407555 67.035675 -30.037010 
-75.063560 19.606739 -8.829792 
-36.877895 73.962616 -38.167507 
-38.661278 41.015873 -18.047892 
-56.742287 44.675262 -23.822054 
-69.623581 19.515118 -8.455888 
-32.224125 44.577751 -18.755657 
-47.188274 69.376701 -39.285721 
-56.201225 24.619967 -11.169320 
-79.080475 17.594500 -7.408714 
-25.598196 71.426201 -32.016037 
-75.262161 16.532475 -6.389708 
-50.306084 53.809715 -28.580757 
-50.700882 46.043301 -24.746319 
-47.976517 29.824106 -13.733212 
-50.456688 51.813896 -27.257891 
-15.846222 71.000420 -27.929039 
-60.655735 40.363113 -21.523022 
-35.601707 63.766388 -31.612352 
-44.805874 66.816544 -35.488403 
-52.513542 53.622269 -29.069294 
-83.480392 32.588326 -18.965040 
-49.389587 35.223503 -16.257225 
-69.708847 39.538647 -23.769215 
-78.945236 30.488049 -16.649761 
-67.008827 31.760189 -16.169792 
-61.978699 50.449120 -29.181503 
-69.364136 23.030516 -11.095753 
-69.071686 26.420931 -12.385157 
-38.245052 57.408745 -28.641235 
-82.254829 31.611063 -19.273239 
-77.675667 12.542871 -3.316536 
-42.386574 40.627625 -18.494114 
-61.859276 45.062752 -25.213303 
-50.465054 60.928871 -34.627586 
-33.318989 58.698753 -27.919296 
-57.463223 48.328114 -26.609457 
-53.436623 46.293312 -25.445683 
-53.444618 36.452469 -17.607967 
-29.341053 64.407654 -29.708874 
-39.518394 59.313030 -30.213505 
-71.898453 29.684193 -16.483519 
-60.960762 41.803562 -23.865759 
-30.133112 58.064186 -25.470173 
-56.276596 23.571178 -10.464664 
-43.215382 57.986565 -29.269857 
-58.692169 46.011185 -26.416609 
-32.524384 66.285141 -30.693808 
-41.186378 72.636276 -37.824520 
-70.222565 31.481867 -16.369183 
-30.463352 45.776428 -20.174244 
-48.036766 49.540180 -25.189924 
-65.914978 17.894613 -5.810506 
-53.800167 36.334839 -18.768534 
-17.590084 65.620148 -26.219219 
-43.983089 47.801289 -23.154142 
-31.248472 62.845840 -28.355850 
-58.222855 54.936058 -32.723511 
-36.971226 73.624573 -36.770462 
-66.392883 43.503136 -24.973179 
-53.364670 32.350628 -14.907563 
-42.755386 56.142555 -28.008514 
-33.550526 52.241409 -23.290932 
-79.649345 14.701819 -5.124047 
-32.106907 56.589104 -26.412291 
-65.814888 24.428274 -11.893881 
-82.391861 13.029757 -3.789979 
-23.137104 66.722923 -27.578545 
-38.877419 47.448494 -21.821436 
-47.200207 68.917191 -38.985004 
-28.279295 59.105392 -26.618793 
-58.275913 23.774891 -9.564036 
-61.966412 42.267200 -24.380064 
-41.924576 49.782135 -25.055302 
-62.022709 20.400169 -7.428632 
-56.215866 33.820839 -16.223526 
-67.428101 23.653400 -11.421431 
-23.673904 57.630764 -23.354408 
-29.708351 63.257118 -29.216614 
-58.845596 34.244595 -18.127651 
-28.267756 58.807434 -25.340954 
-65.127327 38.659569 -22.304790 
-25.835283 64.012924 -27.203304 
-32.404709 71.565048 -33.635849 
-23.619057 64.791733 -26.786648 
-80.507309 30.647442 -16.976311 
-61.392365 40.378296 -22.922415 
-77.472496 26.588400 -14.565529 
-66.168152 32.935722 -16.947292 
-58.673134 36.342690 -18.343426 
-79.818878 20.401264 -8.459057 
-37.993328 61.547234 -31.089870 
-39.409027 51.751678 -25.610104 
-82.280769 33.926025 -19.926691 
-40.403515 73.988991 -38.416897 
-73.177811 28.270889 -15.496527 
-86.090691 25.185068 -12.890074 
-56.661053 53.355873 -31.195557 
-34.189621 73.304008 -35.419609 
-46.806839 36.894623 -16.933100 
-31.913557 45.156330 -19.011719 
-49.680206 54.904945 -30.332315 
-66.875381 39.457535 -23.182716 
-80.013741 36.277100 -21.540205 
-45.543636 34.616043 -15.306539 
-34.417904 55.398567 -25.224134 
-29.182598 56.487282 -25.487490 
-84.587479 21.472824 -9.659470 
-37.680275 49.971424 -24.149845 
-52.744614 55.698151 -30.547157 
-60.446804 52.281658 -31.385105 
-61.257858 31.140732 -15.012817 
-68.260849 21.175655 -9.616854 
-39.175133 55.700779 -27.888702 
-38.430176 49.655209 -24.157612 
-86.100227 28.430929 -15.703835 
-40.023819 70.724495 -36.168209 
-74.563721 36.424107 -22.120707 
-30.846367 61.034679 -28.438919 
-29.769133 52.533974 -22.473396 
-44.383942 65.501793 -35.665764 
-36.495430 45.350681 -20.115259 
-60.081821 38.750549 -20.277668 
-71.860382 42.874985 -25.483950 
-23.630035 67.677895 -29.391514 
-69.820862 25.239176 -12.799892 
-38.497494 48.553921 -22.383686 
-56.690845 28.231510 -12.515211 
-17.211079 68.734100 -26.324743 
-33.759300 42.793617 -18.089146 
-31.897005 66.471077 -31.813818 
-67.402382 32.719379 -16.941927 
-25.532173 52.873695 -22.635342 
-60.694935 31.231106 -15.009577 
-53.724960 43.569035 -22.469095 
-27.507187 65.721313 -28.604565 
-34.013447 50.406456 -23.484171 
-39.666630 55.553921 -26.777813 
-31.227394 66.164886 -30.178782 
-32.100990 69.863838 -33.755917 
-55.850456 55.835247 -32.709530 
-43.373940 52.768929 -26.067608 
-17.651024 65.513718 -25.062159 
-85.805023 26.101185 -13.662479 
-83.887024 27.579529 -16.066618 
-39.242764 44.434204 -20.148636 
-44.378502 61.210857 -32.890369 
-56.482487 35.300167 -18.503391 
-68.793243 19.505289 -7.193780 
-55.638111 31.548288 -14.645462 
-40.682079 45.440186 -21.029510 
-39.342278 60.923294 -31.153330 
-81.829742 16.381737 -5.258768 
-40.869102 52.579227 -25.314037 
-57.465969 41.954544 -22.077835 
-60.437191 31.687572 -15.306077 
-59.107693 25.970860 -11.186516 
-65.123505 36.214203 -19.226461 
-38.877625 68.485596 -35.527378 
-51.147636 42.882256 -22.736492 
-60.967770 48.140278 -28.484123 
-34.856548 56.403122 -27.132984 
-43.031155 33.299534 -14.102782 
-48.449379 38.783184 -18.368866 
-21.595327 66.804535 -27.082638 
-14.898690 74.696228 -27.915092 
-32.440788 56.435501 -25.256630 
-39.874695 73.823883 -38.091751 
-61.667538 25.796894 -12.495264 
-64.370590 40.352654 -22.205887 
-32.212307 44.431252 -19.828094 
-86.498199 12.380838 -2.056088 
-81.329025 29.336884 -17.231609 
-81.989967 15.389303 -5.731402 
-26.513594 59.180695 -26.089947 
-68.568001 35.308514 -20.332424 
-88.060677 26.138077 -13.903418 
-32.419827 50.164806 -21.873465 
-73.111450 19.283812 -8.457350 
-16.151142 73.785980 -28.013681 
-49.993538 63.703880 -36.424355 
-77.463570 23.614037 -10.890987 
-43.934841 42.726036 -21.226362 
-38.739391 61.111473 -29.812731 
-55.056423 28.130672 -13.439200 
-73.581329 16.054802 -4.733518 
-63.065994 29.350317 -15.167782 
-51.057205 57.504242 -32.537617 
-19.333799 71.701416 -28.446541 
-82.823761 26.450331 -14.988568 
-79.939674 24.441952 -11.779696 
-39.331993 62.674442 -32.211052 
-23.108639 55.389061 -22.078936 
-54.464180 23.885639 -10.503822 
-63.250542 42.699417 -23.747040 
-72.464462 34.507057 -19.035019 
-71.858139 30.537523 -17.131702 
-67.111984 27.456896 -12.968068 
-85.312454 25.202103 -12.832897 
-44.041931 65.077652 -35.269436 
-39.096180 73.892715 -37.817677 
-42.618958 52.744328 -27.114811 
-32.205872 63.095001 -30.074242 
-35.804665 48.008293 -21.473816 
-64.166679 46.294159 -26.611090 
-53.865074 50.879253 -28.767666 
-67.815521 42.022598 -24.113615 
-23.011600 65.762299 -28.233301 
-78.582077 34.245884 -20.972775 
-35.824444 46.099110 -20.391304 
-68.815712 17.716726 -7.057738 
-39.485283 53.357323 -25.428698 
-47.701874 30.372274 -12.891047 
-39.469669 70.747040 -37.246407 
-55.155914 29.400805 -13.147768 
-14.964102 69.917458 -27.105600 
-59.700645 34.638794 -18.533207 
-73.786240 14.248442 -4.568042 
-38.613319 67.998222 -33.912514 
-71.523041 38.007011 -22.881395 
-26.774658 67.337257 -30.342201 
-20.128838 66.402695 -26.370577 
-74.539108 24.852299 -11.659840 
-70.219940 19.588617 -8.540975 
-65.920998 43.320354 -24.742569 
-79.345085 18.906647 -7.223099 
-68.887466 24.098848 -10.622508 
-56.688728 43.155956 -22.768675 
-80.849426 17.188076 -7.175016 
-52.656071 54.627052 -30.957432 
-71.981689 36.007401 -21.356571 
-42.490692 66.940994 -34.725021 
-24.290520 62.419109 -25.908726 
-47.056343 34.036167 -16.284943 
-21.479128 73.483978 -30.082039 
-37.596600 66.565262 -32.672760 
-43.687614 53.962730 -28.151047 
-51.592010 60.841560 -34.934578 
-30.051676 73.448936 -33.737396 
-43.294968 64.547470 -34.664680 
-50.916656 65.224838 -36.732567 
-40.397591 40.080116 -17.803606 
-71.468239 14.693293 -4.848251 
-58.012260 38.631729 -19.841959 
-28.058582 59.772675 -25.757490 
-67.774521 22.776678 -9.569390 
-26.752703 71.501373 -32.524670 
-47.992039 62.751953 -35.106789 
-25.945370 62.865738 -27.774376 
-58.137047 53.653755 -31.798531 
-41.109035 46.479752 -22.871471 
-47.942497 55.603336 -30.355345 
-58.062378 49.094154 -28.537487 
-43.493317 66.290863 -34.672882 
-33.295727 55.607368 -26.235462 
-68.450516 31.181358 -15.918812 
-36.902943 45.703140 -21.541559 
-27.403572 68.373886 -31.150627 
-81.118782 23.315048 -12.227184 
-53.918243 60.749969 -35.631802 
-43.055325 56.658604 -28.414022 
-37.003502 40.811386 -18.752314 
-57.046993 33.730747 -17.511898 
-51.228802 60.053410 -33.089420 
-47.699207 69.274658 -38.709446 
-30.837936 59.807869 -26.598967 
-70.181870 16.015146 -4.577456 
-85.387077 31.304251 -19.420341 
-71.398849 27.452492 -14.683859 
-50.897541 54.178288 -28.997330 
-47.466026 56.777588 -29.746769 
-43.583225 71.551483 -38.097107 
-71.743141 15.909772 -4.557225 
-42.048981 53.290527 -26.049963 
-52.566044 32.712433 -16.167425 
-35.260616 48.134354 -21.416771 
-36.160912 55.617104 -27.041733 
-82.082291 30.278864 -16.863644 
-62.118092 30.486031 -14.641145 
-42.929626 52.160431 -26.855446 
-43.407658 68.432526 -35.986290 
-56.525856 28.940735 -12.985785 
-46.242050 64.867676 -34.694714 
-33.255924 44.728683 -20.200623 
-43.021847 55.757156 -29.031458 
-65.948067 44.646023 -25.740469 
-34.074814 50.902489 -22.677443 
-77.840782 32.946072 -19.794086 
-30.488281 49.005684 -20.775372 
-40.559113 39.389896 -17.421646 
-58.989113 46.727489 -27.013868 
-87.741089 26.531017 -14.216481 
-46.250065 34.424873 -15.289341 
-44.804749 34.127480 -14.888287 
-73.094200 36.590382 -22.006418 
-57.454224 38.085632 -20.589197 
-24.995853 62.151390 -25.991581 
-27.056309 61.441551 -27.427254 
-71.661095 36.425629 -20.425598 
-78.162476 27.643600 -15.483418 
-53.049164 41.522633 -20.954098 
-41.610893 46.259636 -21.698755 
-65.146172 40.879562 -23.949211 
-87.294464 26.223017 -13.906570 
-32.857628 52.115582 -23.045567 
-68.823273 40.950092 -23.470758 
-54.564148 46.960091 -24.940426 
-70.383957 29.873810 -15.146183 
-78.997986 26.571753 -14.702789 
-64.357719 25.484388 -12.515493 
-69.890594 26.344770 -13.668573 
-52.896824 49.991840 -27.906879 
-59.713486 34.586819 -17.265320 
-53.137619 27.858597 -11.883036 
-46.352238 54.168392 -27.746382 
-36.814125 57.388885 -27.041573 
-65.266792 35.266972 -19.789703 
-70.286217 38.761581 -23.270151 
-63.656120 21.688694 -9.725542 
-66.314270 45.439342 -27.660690 
-60.902481 28.783173 -13.303872 
-17.717766 67.403313 -27.052439 
-81.051132 20.503693 -9.895412 
-61.128365 37.433601 -20.731287 
-77.744347 29.427851 -16.886969 
-79.514023 22.197834 -11.192894 
-40.051891 63.911633 -33.194859 
-51.468079 64.311378 -36.566559 
-52.415657 49.932182 -27.735489 
-10.311228 73.445686 -26.616177 
-45.859940 65.303383 -36.059425 
-83.178329 23.717381 -11.419130 
-50.992115 33.027630 -16.160975 
-86.456558 12.462765 -3.438570 
-73.727875 39.153069 -24.173021 
-62.060123 36.690643 -20.339718 
-41.039330 56.510475 -27.735006 
-75.337112 25.393211 -12.150028 
-63.789791 37.813610 -21.459009 
-68.761246 36.349327 -19.901619 
-61.522881 50.267906 -30.161835 
-37.174263 74.997749 -37.625092 
-80.953346 32.579334 -18.641436 
-77.660477 35.456223 -20.546947 
-28.670321 55.562157 -23.745508 
-33.776936 67.938202 -33.334263 
-78.262039 34.734684 -21.327099 
-23.766306 55.062805 -22.101133 
-58.902863 45.714584 -25.050863 
-29.340984 66.498657 -29.699871 
-64.510338 47.895195 -27.864552 
-23.434803 57.731110 -24.472775 
-30.811195 53.580585 -23.311741 
-76.322922 35.620819 -21.756506 
-82.919296 23.950855 -12.904615 
-52.183334 59.202488 -34.015587 
-26.534706 66.510094 -29.796688 
-83.374466 29.030804 -15.953178 
-41.326294 46.929897 -23.184986 
-54.491123 51.100601 -29.087288 
-54.461891 34.676655 -16.577866 
-67.537659 23.185320 -11.077940 
-83.347313 29.960285 -18.027517 
-67.332504 43.343689 -26.269444 
-66.247185 27.278257 -12.743095 
-56.489944 41.489609 -21.573193 
-77.187981 38.788040 -23.150665 
-54.463528 40.053886 -20.218082 
-36.484207 72.021484 -35.519753 
-36.157143 63.725334 -31.777309 
-20.259834 66.963531 -27.802845 
-66.504669 36.714706 -19.796486 
-88.411652 14.605012 -5.317780 
-54.745842 41.666237 -22.568899 
-59.177807 55.011158 -32.694042 
-35.468361 65.411430 -32.511612 
-38.409187 60.375381 -29.271698 
-30.231054 58.881187 -25.933601 
-37.198357 45.198135 -21.313456 
-44.532608 53.645172 -28.204895 
-36.617855 42.510338 -18.505486 
-55.975887 50.160572 -28.814610 
-52.625813 25.184650 -11.220303 
-63.655380 23.490496 -9.800057 
-75.782066 23.994129 -11.076529 
-77.508438 27.753014 -15.502991 
-33.402641 56.034660 -26.502682 
-56.110764 25.502792 -11.759472 
-80.325920 25.964201 -13.055151 
-65.320663 26.521465 -13.334217 
-30.903193 64.590622 -29.190079 
-51.444744 61.278542 -34.004501 
-80.824165 31.486835 -17.716389 
-79.912598 35.675762 -21.036276 
-87.009384 31.713524 -18.612198 
-43.064106 36.438812 -16.053715 
-54.870552 57.721466 -33.788704 
-25.986706 55.696594 -24.182384 
-50.538380 57.931358 -31.448061 
-27.045137 62.407860 -26.767035 
-74.191856 26.972878 -14.571280 
-84.794060 25.001558 -12.611872 
-70.292007 26.434185 -12.509809 
-48.800270 43.603683 -21.519291 
-82.706322 22.590244 -11.756160 
-54.968784 39.848774 -20.163757 
-26.782358 64.154442 -28.684612 
-75.679207 39.214695 -24.555231 
-67.724228 24.348858 -11.956568 
-76.884880 26.657063 -14.569859 
-56.642960 46.959938 -26.669931 
-42.847092 45.620701 -22.736004 
-39.418507 66.804398 -33.483143 
-45.658329 60.518715 -31.650429 
-52.102741 49.474495 -26.087555 
-75.640251 13.283718 -3.861781 
-65.945038 32.488007 -16.581860 
-84.672348 12.239792 -3.200840 
-42.522972 51.833290 -26.542696 
-35.653717 61.125957 -30.065174 
-34.049629 69.047958 -32.827473 
-23.541546 63.738605 -26.284288 
-54.264954 56.156708 -31.288088 
-75.261261 23.366055 -10.537735 
-64.024307 22.738251 -10.523125 
-43.239407 71.990242 -38.222054 
-62.079021 33.388660 -17.966087 
-50.922340 53.303978 -29.594898 
-88.710556 27.008844 -14.722870 
-37.286880 54.285843 -26.550545 
-65.035988 38.331032 -20.772617 
-37.480904 72.748268 -36.397789 
-31.462486 62.821060 -29.643986 
-44.029678 71.055954 -39.216671 
-35.473618 63.685238 -30.253475 
-45.278347 58.096493 -31.150021 
-26.111671 60.526310 -26.652822 
-82.572815 35.427399 -21.198849 
-67.739502 24.778580 -11.034173 
-40.920143 58.625397 -28.967207 
-61.943501 22.213079 -8.746469 
-82.917023 18.142666 -6.764797 
-66.021797 24.394930 -10.627653 
-48.559364 65.600845 -35.972195 
-68.209175 36.557312 -19.976011 
-63.286690 46.035191 -27.428759 
-52.536346 42.511574 -21.515518 
-13.900639 70.435432 -25.770872 
-68.020470 27.302862 -14.204332 
-49.701183 63.437328 -34.901695 
-71.603554 41.762840 -25.862118 
-38.830490 67.842484 -35.109348 
-38.729435 64.909531 -33.330322 
-39.462334 74.265221 -38.210896 
-46.169014 70.843788 -39.837845 
-88.354401 21.501122 -9.933225 
-68.033356 20.693651 -9.244761 
-50.886311 38.308266 -18.429550 
-64.985275 23.316875 -9.767363 
-44.604340 47.185844 -22.914747 
-84.664215 18.198681 -8.201658 
-35.570061 64.259659 -31.884829 
-78.106506 38.412216 -22.991804 
-89.993645 10.157091 -0.721668 
-35.709255 50.809444 -23.031225 
-42.296593 71.679474 -38.955711 
-36.835720 50.952053 -24.494415 
-66.772064 38.241512 -21.017265 
-85.144676 26.625488 -15.361149 
-74.864998 23.931200 -12.238262 
-16.618319 68.019836 -26.920778 
-46.174778 52.627098 -27.958950 
-79.497932 15.083555 -5.431321 
-33.121456 44.215958 -18.748320 
-58.830898 25.165220 -10.597640 
-62.815285 29.886900 -14.290007 
-76.138107 16.366325 -5.064520 
-67.858612 36.291500 -20.983894 
-44.670898 35.304455 -16.750898 
-27.603046 63.961315 -28.853573 
-39.429405 52.375980 -25.980410 
-61.395714 21.664242 -8.307076 
-66.949211 33.702843 -17.624306 
-35.459908 70.369431 -34.124020 
-48.346985 44.618122 -22.086039 
-36.582527 54.470554 -26.478809 
-61.995316 41.575100 -23.904591 
-82.291504 11.761613 -1.452289 
-43.374931 72.728294 -38.773605 
-54.561096 36.341976 -18.899076 
-57.178009 27.141762 -11.811199 
-76.871559 28.005999 -15.646448 
-46.350182 55.377258 -28.504986 
-81.199387 18.966412 -8.648661 
-15.655968 72.886673 -28.643547 
-41.233772 53.491840 -27.162163 
-28.694321 70.294052 -31.465853 
-40.064854 47.484154 -23.261992 
-47.289417 68.404732 -38.672710 
-65.457985 33.496452 -17.267723 
-61.238487 46.312229 -27.190077 
-42.776112 46.574074 -23.299963 
-45.631104 62.446213 -34.102371 
-39.327740 44.787235 -21.497738 
-75.390289 28.823183 -16.170048 
-32.783501 65.549568 -31.644726 
-21.448971 72.331924 -29.607445 
-49.184338 42.897926 -22.369434 
-64.886063 22.815323 -9.394209 
-43.754784 61.112671 -31.409004 
-28.467953 73.210808 -32.930241 
-44.056618 63.967934 -34.559177 
-25.789715 57.001282 -23.679100 
-61.943180 35.904228 -18.526308 
-46.457802 62.038082 -34.107452 
-45.804939 67.108200 -36.035278 
-79.981102 17.017962 -6.987368 
-45.409283 60.332642 -32.652519 
-75.528229 15.951597 -4.717031 
-73.728271 19.711462 -7.583068 
-72.602325 41.508587 -25.834324 
-45.883686 38.112709 -18.682087 
-82.041855 13.720832 -3.059494 
-66.772568 27.162916 -12.712482 
-50.525764 65.218781 -37.259270 
-38.182934 48.421391 -23.398033 
-51.518566 57.143768 -31.215569 
-26.476492 61.468369 -26.102953 
-29.954014 66.199608 -30.926069 
-33.584572 50.175850 -23.249336 
-55.130341 29.895660 -13.478087 
-75.936890 36.221905 -22.182529 
-44.293934 62.175995 -32.288223 
-64.056801 41.007740 -23.864521 
-54.844299 47.464012 -25.355892 
-22.959995 61.887215 -26.311296 
-29.257370 51.063286 -21.562807 
-32.288239 66.765923 -30.879065 
-51.229584 59.267258 -32.543926 
-84.905502 18.647360 -8.603610 
-37.976566 50.528435 -23.385027 
-44.921982 68.553055 -37.882591 
-45.984100 33.353985 -14.571710 
-44.519974 54.345741 -27.360222 
-46.454433 62.495415 -33.205654 
-79.660477 23.478863 -12.246855 
-58.153011 45.123211 -24.452642 
-50.978180 59.411533 -33.778473 
-80.634621 34.656807 -20.304945 
-77.546227 34.533279 -19.779671 
-72.073540 21.235569 -9.931851 
-50.822548 32.094296 -15.545287 
-69.108154 40.458298 -23.143978 
-62.721886 36.917007 -20.614620 
-42.985348 66.874481 -34.870644 
-41.963673 38.463631 -17.119370 
-75.884430 34.338226 -20.648918 
-86.394363 16.320589 -6.693436 
-49.570869 48.032097 -24.558514 
-57.462875 53.397293 -30.209400 
-25.375000 70.353851 -30.207233 
-58.733292 27.262196 -12.044351 
-57.353165 35.700375 -17.700518 
-55.574673 26.345558 -12.273878 
-41.579376 46.186176 -22.790701 
-87.206665 16.332630 -6.738429 
-44.788025 47.550781 -24.362116 
-40.292076 59.231052 -29.149950 
-78.839577 30.911175 -16.989956 
-62.490585 19.835606 -8.280125 
-78.682999 28.653948 -16.357504 
-44.528122 56.687572 -30.021759 
-49.646935 45.466480 -22.890953 
-55.109772 43.450809 -22.662981 
-81.428535 29.825600 -16.404230 
-45.387703 62.085339 -33.787521 
-43.506248 70.630585 -37.491119 
-66.464325 36.662567 -21.035034 
-68.692436 40.100929 -22.794065 
-50.825161 39.285156 -19.066185 
-31.879963 51.827690 -23.756863 
-82.412720 11.310691 -2.381278 
-41.084663 59.232952 -29.391136 
-15.714178 68.566605 -26.812197 
-43.859470 38.078239 -18.318592 
-69.303268 33.523491 -19.057297 
-40.778477 57.936348 -29.701771 
-37.229519 59.196789 -28.210785 
-74.816689 35.079113 -21.080822 
-62.749184 31.616402 -15.541395 
-28.442919 57.921333 -26.041149 
-53.800591 33.445049 -15.683904 
-64.737495 28.157389 -14.463028 
-56.836060 45.163506 -24.180019 
-35.782246 56.742958 -27.590647 
-79.303696 36.283100 -22.753931 
-75.894226 39.951008 -24.496145 
-41.980778 47.850807 -22.728067 
-26.609369 60.416893 -25.609728 
-45.381935 61.344322 -32.092628 
-27.247520 66.828667 -29.083500 
-34.732506 51.588871 -23.217766 
-45.085556 38.639030 -17.739565 
-35.914207 61.384163 -29.062346 
-55.395195 59.455063 -34.460258 
-87.571609 15.266458 -5.860950 
-49.799480 42.913704 -21.260462 
-39.446838 41.340569 -19.520538 
-34.403221 73.861366 -35.824829 
-74.230637 29.175404 -16.311901 
-42.250198 55.249840 -28.505804 
-29.410133 70.837692 -33.269203 
-35.939884 47.523888 -21.240055 
-16.278986 71.315926 -27.082491 
-32.940620 64.674026 -31.223595 
-26.246634 62.364182 -27.623920 
-46.397438 65.228081 -36.200787 
-85.649475 21.767399 -11.315826 
-54.454250 29.576344 -14.366512 
-20.840057 69.459000 -28.005478 
-30.473503 47.735611 -21.226536 
-50.705025 28.773457 -12.219315 
-46.908039 42.076855 -21.380371 
-63.222824 37.305206 -19.737793 
-43.932888 44.234112 -22.144091 
-11.792718 72.433121 -25.698122 
-43.684074 41.878830 -19.477608 
-68.420738 40.491215 -23.045162 
-25.387894 61.643967 -25.852240 
-36.632870 53.611679 -25.989376 
-50.784950 64.938828 -36.283386 
-9.589757 73.939491 -26.517937 
-38.666965 54.378849 -26.957146 
-32.498169 56.848564 -26.670614 
-71.030449 31.748470 -17.952181 
-31.755857 56.464554 -25.076794 
-59.974514 49.333458 -27.915668 
-64.337151 44.571404 -26.570206 
-34.263905 59.784611 -28.797903 
-75.914902 24.816288 -13.015759 
-26.016895 60.585964 -25.504234 
-34.265747 51.325565 -24.066021 
