-1.452224 0.083102 0.260048
-0.628291 0.398958 0.853350
-1.055344 0.344749 0.636684
-0.707494 0.430188 0.871461
-0.458043 0.471790 1.078089
-0.329997 0.498353 1.191927
-1.306171 0.282821 0.485731
-0.887248 0.395932 0.725099
-0.901344 0.281564 0.581399
-1.439220 0.202738 0.374259
-0.721382 0.292084 0.640439
-1.365248 0.299015 0.520725
-1.398586 0.136247 0.299945
-0.817467 0.263762 0.543607
-0.271911 0.477175 1.228197
-1.148565 0.311512 0.546378
-1.135450 0.267994 0.490900
-0.632315 0.271817 0.632866
-0.710100 0.588994 1.090484
-0.901384 0.195537 0.453054
-1.440793 0.260444 0.466502
-0.753025 0.629877 1.158752
-0.829801 0.472268 0.885858
-0.943201 0.515218 0.903638
-0.829322 0.467907 0.879597
-0.746199 0.391472 0.762232
-1.026771 0.464742 0.778389
-0.507360 0.386530 0.885570
-1.033581 0.482212 0.827184
-0.233600 0.432161 1.173478
-0.645166 0.471056 0.967808
-0.393606 0.420289 0.980496
-0.674502 0.397441 0.831020
-0.650966 0.636694 1.229504
-0.740153 0.444240 0.847867
-1.135707 0.278624 0.532395
-0.252280 0.444647 1.140655
-0.753567 0.222501 0.521224
-0.400126 0.516037 1.169505
-0.851342 0.528653 0.959334
-0.427234 0.483521 1.086241
-0.833335 0.307740 0.607329
-1.286619 0.143727 0.316495
-1.227755 0.108815 0.302060
-0.515995 0.465011 1.028530
-1.049279 0.372394 0.674428
-0.276428 0.427414 1.122471
-0.919655 0.365751 0.699583
-0.343285 0.453327 1.084294
-1.100951 0.395246 0.691708
-0.810993 0.189796 0.459674
-0.809210 0.574104 1.016473
-0.539204 0.481142 1.044107
-0.673757 0.611693 1.146239
-1.243164 0.176865 0.360059
-1.382228 0.215175 0.394893
-0.712073 0.457951 0.913863
-1.113611 0.223649 0.435823
-0.952232 0.492243 0.838716
-0.485178 0.516819 1.107541
-1.451761 0.236865 0.438092
-0.310432 0.496233 1.227144
-0.505314 0.390076 0.892987
-0.956878 0.236209 0.504307
-0.361707 0.511212 1.191641
-1.048817 0.231259 0.482850
-1.147743 0.373915 0.627087
-0.767487 0.518071 0.952557
-0.907272 0.504187 0.901259
-0.769120 0.624456 1.141787
-1.332997 0.196646 0.403299
-0.729092 0.428254 0.859134
-1.061694 0.217956 0.435206
-1.257181 0.244464 0.470713
-0.782743 0.576643 1.032634
-1.010860 0.391815 0.710699
-0.959432 0.292154 0.555666
-0.726911 0.421358 0.818115
-1.468702 0.147482 0.320611
-1.300562 0.081869 0.238670
-1.324027 0.061014 0.238498
-1.344032 0.108810 0.270157
-0.784691 0.226076 0.490913
-1.322769 0.305826 0.535260
-0.657196 0.501473 1.011616
-0.881004 0.470892 0.834179
-0.868809 0.215800 0.488575
-0.667130 0.381897 0.808414
-1.240153 0.311878 0.530860
-0.995941 0.185028 0.396923
-0.767469 0.512184 0.943532
-0.498070 0.452055 1.015560
-1.413998 0.125816 0.287011
-0.923573 0.207023 0.466524
-1.340596 0.232012 0.419132
-0.610144 0.359012 0.790224
-1.228626 0.264769 0.500273
-1.037697 0.283750 0.557070
-0.504549 0.427499 0.929882
-1.221427 0.387507 0.628478
-1.383090 0.208938 0.387307
-1.174757 0.090292 0.281011
-0.487667 0.560661 1.222496
-0.280100 0.412047 1.042764
-0.930343 0.214734 0.476790
-1.053096 0.373624 0.648039
-1.095529 0.408769 0.684769
-0.359307 0.437036 1.077939
-1.414728 0.077485 0.229279
-0.275842 0.409121 1.039527
-0.478066 0.479564 1.078876
-0.279490 0.433947 1.092358
-1.362828 0.099607 0.258292
-0.644697 0.453228 0.905599
-0.558714 0.527899 1.077234
-0.639953 0.415798 0.844412
-0.706802 0.338423 0.721373
-1.078082 0.109721 0.313051
-0.996109 0.448221 0.765109
-0.697099 0.429019 0.873919
-0.972785 0.346827 0.658639
-1.193219 0.340069 0.600291
-1.258045 0.175774 0.357698
-0.285793 0.422393 1.061460
-0.574342 0.521878 1.057510
-0.572055 0.540816 1.127928
-0.844433 0.569145 1.021603
-0.552152 0.594470 1.229446
-1.280710 0.378229 0.631517
-0.719501 0.484595 0.921999
-0.902690 0.539825 0.954206
-0.914204 0.424692 0.785942
-0.963476 0.183769 0.398982
-0.504889 0.416081 0.908583
-0.685992 0.642611 1.218187
-0.806757 0.532953 0.956580
-0.813487 0.609192 1.095599
-1.336910 0.266642 0.461784
-0.755482 0.262446 0.554010
-0.828117 0.569527 1.001440
-0.174588 0.422266 1.209609
-0.926052 0.240693 0.487734
-1.282162 0.055780 0.207207
-0.728597 0.349446 0.700422
-0.823577 0.353972 0.709983
-0.554478 0.377752 0.847252
-1.240432 0.218058 0.413307
-0.876033 0.499979 0.907478
-0.557420 0.428418 0.938711
-0.736952 0.409309 0.795059
-1.301199 0.045919 0.220487
-0.411708 0.458201 1.045558
-1.017878 0.212227 0.432651
-1.125856 0.334786 0.580637
-1.073575 0.221926 0.466585
-1.146304 0.177628 0.370983
-0.704038 0.322310 0.695427
-0.870686 0.345191 0.653148
-0.865682 0.410312 0.752524
-1.237198 0.369789 0.603157
-0.612377 0.381384 0.829169
-1.010266 0.176510 0.411217
-0.918705 0.378134 0.689206
-1.079289 0.137650 0.350298
-1.133136 0.255936 0.503058
-0.548292 0.322075 0.715556
-0.999683 0.279654 0.558402
-0.720467 0.336118 0.682586
-0.718768 0.507666 0.990261
-0.981893 0.457291 0.781543
-0.591955 0.608849 1.228970
-1.096346 0.418878 0.697561
-1.020634 0.330139 0.596478
-0.362368 0.400229 0.958514
-0.901631 0.404899 0.762021
-1.413749 0.107586 0.265261
-0.271259 0.423188 1.117251
-1.260086 0.114982 0.282728
-0.333326 0.428650 1.079256
-0.370890 0.388397 0.967930
-1.203667 0.316212 0.568188
-0.390017 0.505323 1.156300
-0.737438 0.466792 0.916954
-0.674260 0.404815 0.811603
-0.453284 0.449057 1.000304
-0.871278 0.325814 0.624785
-0.798923 0.287496 0.583894
-0.806967 0.425955 0.825316
-0.294614 0.411531 1.071995
-0.896879 0.522699 0.932115
-0.623876 0.599007 1.190807
-0.673544 0.388078 0.816018
-0.854781 0.465412 0.866007
-0.538627 0.362530 0.826707
-0.990710 0.349667 0.658365
-0.548882 0.502301 1.038464
-0.952270 0.386656 0.691957
-0.744815 0.637053 1.143298
-0.713340 0.506010 0.990456
-1.232243 0.380857 0.617946
-1.280681 0.152909 0.354232
-1.022511 0.331853 0.626089
-0.739270 0.405062 0.787197
-0.639767 0.305881 0.655658
-0.969669 0.404048 0.712221
-1.028747 0.366402 0.671874
-1.180953 0.182088 0.400489
-1.130356 0.427890 0.700695
-0.970305 0.315480 0.615190
-0.811869 0.350980 0.708876
-0.588542 0.349291 0.781606
-0.761147 0.384690 0.745387
-0.986931 0.425022 0.736604
-0.797148 0.520184 0.941851
-1.253665 0.070994 0.253149
-0.513792 0.585763 1.225520
-1.108108 0.392579 0.660827
-0.470320 0.389966 0.912322
-0.320094 0.457614 1.154121
-0.761356 0.283104 0.615184
-1.389452 0.318119 0.514669
-0.566405 0.383284 0.852021
-1.107896 0.281381 0.513664
-1.166746 0.167772 0.355898
-0.592659 0.625171 1.222481
-1.069230 0.169785 0.395280
-1.033273 0.282688 0.556426
-0.591387 0.381197 0.805056
-0.361353 0.445930 1.055438
-1.431677 0.276085 0.460384
-0.836464 0.332005 0.672612
-1.430937 0.143340 0.331118
-1.213125 0.259257 0.468650
-0.606093 0.308985 0.672201
-0.916319 0.306777 0.614897
-1.396914 0.222120 0.401731
-0.456220 0.354241 0.850355
-1.296189 0.148242 0.347286
-0.700056 0.262748 0.598481
-1.307947 0.316547 0.525650
-0.949043 0.505452 0.858173
-0.893021 0.206052 0.441585
-0.893436 0.246192 0.500827
-0.267981 0.434990 1.104681
-0.848389 0.282759 0.594729
-1.228717 0.218022 0.414523
-0.634889 0.626949 1.193896
-0.818130 0.515540 0.954835
-1.217241 0.102450 0.294435
-0.901178 0.183724 0.435966
-0.511831 0.513392 1.119345
-0.965799 0.490343 0.860428
-0.751007 0.465276 0.908748
-1.237692 0.162124 0.369598
-0.897065 0.312958 0.599902
-1.158168 0.354825 0.626157
-1.394956 0.284117 0.473870
-1.126444 0.356835 0.635708
-0.237123 0.447197 1.208011
-0.427851 0.516755 1.148233
-0.205062 0.443946 1.186051
-0.733851 0.270921 0.572579
-0.787072 0.259166 0.542662
-0.509130 0.397859 0.871929
-0.809094 0.221208 0.478407
-1.083692 0.215035 0.428280
-0.823953 0.603834 1.082375
-1.374604 0.049827 0.224090
-0.574946 0.489648 1.002262
-0.838801 0.220935 0.501596
-0.959315 0.426963 0.774337
-1.026455 0.438981 0.770273
-0.933703 0.410776 0.731850
-1.312342 0.052710 0.228575
-1.427268 0.027406 0.195745
-1.072996 0.271755 0.534210
-0.391687 0.482623 1.108072
-0.478444 0.567221 1.227510
-0.909888 0.475548 0.859547
-0.208040 0.413036 1.151369
-0.973576 0.130375 0.350577
-0.618969 0.538997 1.060943
-0.797850 0.476285 0.875175
-0.694640 0.325014 0.702750
-1.144541 0.085684 0.276814
-0.803527 0.212293 0.495302
-1.418909 0.253098 0.435497
-0.893694 0.558373 0.984564
-0.367900 0.483467 1.129408
-0.918577 0.308502 0.588200
-0.419052 0.505667 1.171855
-1.014802 0.352023 0.656005
-0.392036 0.522848 1.190103
-0.735510 0.352647 0.703214
-0.380185 0.482075 1.156357
-0.405271 0.452926 1.039063
-1.243824 0.089324 0.276630
-0.901407 0.237708 0.515683
-1.123845 0.303824 0.567966
-0.992965 0.446001 0.790049
-1.335672 0.315068 0.544436
-0.653470 0.386418 0.821430
-0.555488 0.388073 0.832973
-0.744390 0.375110 0.768309
-0.735473 0.278184 0.584066
-0.563447 0.379194 0.845986
-1.150142 0.328659 0.568312
-1.063360 0.378640 0.652536
-0.562891 0.553566 1.155809
-0.544837 0.430040 0.912302
-1.025316 0.174887 0.407202
-1.288960 0.066222 0.245966
-0.667218 0.408262 0.852385
-0.729292 0.444699 0.885258
-0.393002 0.369272 0.914822
-0.355257 0.382271 0.925507
-1.407305 0.145281 0.334753
-0.817566 0.591280 1.066863
-1.168435 0.187015 0.408166
-0.869800 0.296717 0.582543
-1.308947 0.230759 0.421324
-1.213361 0.120627 0.292576
-1.289301 0.292652 0.500005
-0.614197 0.451679 0.917007
-0.943902 0.450702 0.784010
-0.600771 0.564806 1.116652
-0.944137 0.500621 0.882683
-0.480739 0.375762 0.844053
-1.455470 0.087113 0.239391
-1.194384 0.192210 0.411977
-1.233340 0.361442 0.593596
-0.388946 0.508885 1.164266
-0.476626 0.351719 0.835465
-0.510231 0.535903 1.124947
-1.426077 0.293815 0.481416
-1.362849 0.341816 0.546828
-0.972183 0.197901 0.446480
-0.756241 0.425638 0.844103
-0.777533 0.629311 1.113485
-0.291214 0.394988 1.038354
-0.530003 0.503145 1.088903
-1.072248 0.422598 0.708528
-1.154130 0.374899 0.626934
-1.327105 0.022223 0.191187
-0.768245 0.601731 1.078174
-1.137249 0.100557 0.270116
-1.443468 0.180612 0.348435
-1.052355 0.181045 0.412746
-0.658394 0.415994 0.868749
-0.598774 0.513691 1.064792
-0.283985 0.479717 1.229364
-1.021640 0.183251 0.391148
-0.991947 0.366069 0.681089
-0.259957 0.409092 1.051779
-0.534674 0.397634 0.859248
-1.021072 0.272515 0.516687
-1.271507 0.083962 0.268788
-1.475311 0.036666 0.200439
-0.650666 0.473362 0.968916
-0.811304 0.285633 0.578442
-1.275117 0.133626 0.330650
-1.051899 0.408893 0.696103
-1.271177 0.131738 0.302878
-0.841801 0.309836 0.608622
-0.268556 0.457619 1.155919
-1.225651 0.274552 0.486259
-1.213021 0.386722 0.629265
-0.745349 0.606152 1.096545
-0.953624 0.275283 0.532784
-1.447955 0.219989 0.419142
-0.741061 0.316966 0.675548
-0.583449 0.295412 0.689279
-1.255858 0.264898 0.470274
-0.397232 0.392033 0.958208
-0.952576 0.285304 0.575899
-0.695321 0.437849 0.889124
-1.245745 0.076216 0.234081
-1.019763 0.211676 0.459824
-1.107295 0.421447 0.724655
-0.486038 0.408526 0.939449
-0.523085 0.453795 1.003230
-0.836329 0.417320 0.771140
-0.516461 0.518317 1.125110
-0.371797 0.376699 0.904069
-0.684728 0.347683 0.744156
-1.111780 0.291648 0.526626
-0.867539 0.307184 0.598578
-0.834449 0.493702 0.915462
-0.926555 0.250221 0.501667
-0.842571 0.501624 0.895488
-1.345170 0.163123 0.361440
-0.745541 0.464498 0.909860
-0.594105 0.451817 0.960540
-0.476594 0.420021 0.931411
-0.934930 0.139444 0.367926
-1.022820 0.168266 0.369782
-0.537233 0.440353 0.935512
-0.390700 0.372814 0.885780
-1.096821 0.230858 0.448128
-0.599096 0.555168 1.100856
-0.947461 0.424065 0.774083
-0.644403 0.558282 1.079496
-1.036135 0.377934 0.685316
-0.919313 0.144923 0.377499
-0.471121 0.454623 0.999947
-0.577899 0.402011 0.847779
-0.562565 0.595244 1.227100
-0.743770 0.436171 0.865513
-1.282537 0.034772 0.207296
-1.002520 0.136089 0.355584
-1.163202 0.088206 0.252674
-0.740609 0.276742 0.610378
-0.527673 0.485038 1.057853
-1.024178 0.388499 0.702600
-0.364759 0.525500 1.217422
-1.361384 0.137104 0.328932
-1.263539 0.188746 0.400621
-0.762322 0.546600 1.027808
-0.540194 0.505565 1.049285
-1.443305 0.202206 0.399243
-0.611189 0.311781 0.707886
-1.286190 0.133107 0.303527
-0.843384 0.420371 0.804082
-0.398061 0.527152 1.230014
-0.374789 0.454073 1.062461
-1.066598 0.217432 0.433842
-1.026404 0.260122 0.498634
-1.093775 0.314797 0.588036
-1.136740 0.103256 0.273698
-0.800477 0.331403 0.651822
-0.913374 0.148990 0.383934
-0.789850 0.280902 0.575807
-1.332646 0.068467 0.247450
-0.513121 0.466820 1.033731
-1.357250 0.239861 0.451826
-0.664825 0.415847 0.833337
-1.349548 0.344349 0.551967
-0.869452 0.243234 0.500574
-1.275400 0.135246 0.306878
-1.127163 0.222929 0.432835
-1.206818 0.168632 0.380455
-0.889239 0.193357 0.423388
-0.848318 0.226770 0.479309
-0.981939 0.166110 0.399917
-0.974782 0.496356 0.865776
-0.692662 0.365232 0.739566
-0.628453 0.566150 1.133768
-0.837217 0.570852 0.999126
-0.694079 0.521823 1.025007
-1.474404 0.065980 0.222967
-1.247190 0.214285 0.434145
-0.896273 0.402543 0.731591
-0.766321 0.533130 1.005529
-0.671386 0.580385 1.130951
-1.449568 0.120647 0.304046
-0.885643 0.522726 0.908963
-0.700856 0.506853 0.998110
-1.412873 0.083395 0.236429
-0.872762 0.283370 0.590661
-0.543203 0.604273 1.222478
-0.884775 0.525479 0.913035
-0.707811 0.578598 1.106090
-0.965630 0.406829 0.744410
-0.690023 0.545793 1.065357
-1.157018 0.276934 0.526589
-1.379959 0.062517 0.238968
-0.334361 0.392815 1.000557
-0.850221 0.446963 0.841073
-0.337801 0.419545 1.056974
-0.942187 0.397356 0.710164
-0.630258 0.308951 0.696283
-0.702377 0.651040 1.220844
-0.410300 0.393062 0.951764
-0.893656 0.459844 0.843055
-1.404553 0.018786 0.185984
-0.503858 0.383323 0.881342
-1.099225 0.319317 0.565402
-0.773705 0.273446 0.567884
-0.497880 0.423258 0.960811
-0.530487 0.448072 0.989185
-1.179619 0.434496 0.696995
-0.606722 0.526510 1.081817
-1.118099 0.387160 0.677095
-1.346356 0.319564 0.548233
-1.352826 0.197639 0.376726
-1.252027 0.350056 0.601571
-0.569851 0.303950 0.708816
-0.977549 0.344950 0.627001
-0.628200 0.356911 0.747526
-1.339282 0.064434 0.216622
-0.923670 0.217334 0.453763
-1.358603 0.044817 0.192504
-1.078489 0.417660 0.700435
-0.768334 0.552224 1.033167
-0.907126 0.300988 0.608577
-1.116778 0.444817 0.753246
-1.228957 0.296020 0.538949
-0.833331 0.351945 0.703959
-0.929634 0.211779 0.444619
-0.957440 0.162582 0.369773
-0.665416 0.330481 0.690061
-1.379108 0.199830 0.402756
-1.394446 0.058754 0.233849
-0.363643 0.411694 0.981754
-0.372123 0.490656 1.179694
-0.842260 0.213633 0.460672
-0.766032 0.642063 1.138901
-1.475108 0.050264 0.204676
-0.803255 0.246914 0.520045
-0.754684 0.361407 0.710779
-1.032567 0.488070 0.807721
-0.858050 0.561439 1.004349
-1.117316 0.327041 0.572143
-0.529224 0.549077 1.135774
-0.782026 0.602094 1.071290
-1.385395 0.223704 0.404765
-1.235613 0.266958 0.475145
-1.003348 0.510931 0.874713
-0.566093 0.294870 0.694439
-0.621924 0.554558 1.119667
-1.112234 0.239636 0.457342
-0.721321 0.397497 0.781622
-0.917423 0.290985 0.562737
-0.703926 0.284467 0.602267
-1.133354 0.390574 0.677953
-0.660349 0.358406 0.770849
-1.324454 0.332638 0.542096
-0.740271 0.350660 0.731144
-1.463226 0.159576 0.348112
-0.303338 0.432703 1.070817
-0.885271 0.373198 0.720293
-0.864982 0.543567 0.945989
-0.610285 0.299379 0.653859
-1.167153 0.109203 0.279749
-1.092577 0.158134 0.349844
-0.571657 0.437175 0.946597
-0.791458 0.316521 0.661425
-0.969264 0.325294 0.629228
-0.432049 0.429549 0.975653
-0.356925 0.394781 0.990468
-0.203702 0.438340 1.174058
-1.150501 0.166889 0.356237
-0.783906 0.518136 0.973934
-0.736683 0.604615 1.099123
-0.712403 0.351240 0.740988
-1.325362 0.162231 0.336518
-0.655547 0.413241 0.865397
-0.340009 0.481442 1.188081
-0.716119 0.254355 0.549778
-0.763945 0.608464 1.120275
-0.839938 0.291959 0.610796
-0.571008 0.591885 1.180245
-0.577200 0.302350 0.703492
-1.232302 0.306118 0.550780
-0.930747 0.502853 0.861531
-0.754430 0.326182 0.686936
-1.377944 0.181849 0.381155
-0.784021 0.604924 1.074538
-0.976688 0.289646 0.577068
-1.441713 0.272692 0.455329
-0.225640 0.439818 1.201230
-1.109354 0.185748 0.385622
-0.418468 0.445251 1.051973
-0.692755 0.501703 0.961688
-0.807411 0.431639 0.833775
-0.555860 0.455209 0.952589
-0.761757 0.583975 1.085048
-0.556646 0.308570 0.721978
-0.628882 0.623043 1.225940
-0.485737 0.402715 0.928716
-1.207537 0.182371 0.371024
-0.758696 0.487367 0.907726
-0.912070 0.232578 0.506207
-1.378044 0.229035 0.436937
-1.293785 0.170401 0.374755
-0.839270 0.432618 0.824085
-0.712551 0.556384 1.069581
-0.229642 0.431419 1.175701
-1.414973 0.328302 0.543959
-0.882618 0.581517 0.993234
-1.005204 0.226983 0.483954
-0.709610 0.583144 1.112392
-0.538372 0.530315 1.131611
-0.844463 0.267023 0.543156
-0.492279 0.333661 0.794192
-0.939349 0.159820 0.396109
-0.957790 0.285132 0.574550
-1.181823 0.061094 0.243403
-1.403204 0.052121 0.199701
-1.188124 0.129597 0.331412
-0.551647 0.415656 0.918189
-1.345479 0.306763 0.532955
-1.471941 0.101012 0.280298
-1.144579 0.131802 0.310822
-1.432783 0.210380 0.384095
-0.558320 0.407789 0.866341
-1.168074 0.336061 0.600307
-0.546796 0.366703 0.830731
-0.412625 0.535899 1.228897
-1.029563 0.228586 0.454331
-1.376115 0.052706 0.227453
-0.814354 0.359051 0.720405
-0.695202 0.445846 0.901981
-0.293918 0.473752 1.215323
-1.073140 0.361011 0.653651
-0.921235 0.208127 0.440617
-1.169822 0.249890 0.461939
-0.877565 0.443647 0.825796
-0.819264 0.281722 0.599439
-1.121385 0.455880 0.757698
-0.285403 0.487034 1.207767
-1.338688 0.172257 0.373108
-1.095088 0.161863 0.354656
-0.959091 0.216444 0.446677
-1.002315 0.247217 0.512568
-1.174560 0.075772 0.262407
-1.289329 0.332739 0.573718
-1.046909 0.415305 0.706165
-0.682249 0.380603 0.800271
-0.910317 0.401823 0.754790
-0.743422 0.265523 0.591548
-1.257603 0.284905 0.494752
-0.867438 0.248243 0.508869
-1.042063 0.198494 0.438464
-1.415213 0.224747 0.403052
-1.243836 0.154946 0.360031
-1.325364 0.145241 0.341378
-1.132706 0.395928 0.685066
-0.870805 0.391109 0.722242
-1.327039 0.351300 0.590145
-1.435840 0.270335 0.478647
-1.046806 0.203284 0.416321
-0.316478 0.393834 1.016402
-0.882699 0.563784 0.967355
-0.940869 0.391743 0.702437
-1.210533 0.346486 0.605012
-1.092679 0.479253 0.779336
-0.627080 0.583386 1.163431
-0.683989 0.591991 1.141107
-1.196766 0.386317 0.658395
-0.650454 0.523766 1.052092
-1.173470 0.181708 0.400822
-0.729666 0.556298 1.029083
-0.853352 0.505825 0.897362
-1.011582 0.221526 0.446616
-1.000723 0.398050 0.722131
-0.253948 0.475398 1.226352
-1.019980 0.214612 0.464037
-0.699431 0.651243 1.191034
-1.207246 0.369325 0.634497
-0.857078 0.342441 0.682759
-0.780848 0.627491 1.109107
-0.715199 0.294603 0.646167
-0.579206 0.546207 1.132592
-0.595214 0.299625 0.692443
-1.337570 0.069669 0.248872
-1.060451 0.402933 0.712253
-0.838549 0.302511 0.598287
-1.033931 0.434496 0.735708
-0.792038 0.502386 0.946992
-0.861390 0.315658 0.612533
-1.120103 0.348796 0.599905
-1.317116 0.298749 0.503059
-0.540688 0.442538 0.937626
-0.808250 0.391405 0.772115
-0.790631 0.589907 1.078980
-0.496037 0.410819 0.938464
-1.260785 0.392973 0.644337
-0.968266 0.380662 0.707904
-0.917835 0.350608 0.678254
-1.474805 0.045614 0.191513
-0.449435 0.409126 0.925178
-0.633897 0.375809 0.777155
-0.209445 0.453978 1.205548
-0.869797 0.194584 0.456801
-1.410828 0.128909 0.290812
-1.349826 0.291441 0.489139
-1.366078 0.200662 0.405019
-1.147273 0.297705 0.555718
-1.106378 0.139321 0.323625
-0.916166 0.224459 0.465467
-0.704273 0.643530 1.176542
-0.918248 0.198503 0.426947
-0.646737 0.561385 1.083520
-0.678572 0.333780 0.722314
-1.032040 0.395800 0.683217
-0.493351 0.522035 1.111381
-0.871963 0.273382 0.546993
-0.580270 0.307398 0.711146
-0.431231 0.376608 0.871454
-0.464584 0.529979 1.145713
-1.325532 0.171967 0.373850
-1.448609 0.114120 0.271274
-1.288954 0.367347 0.590175
-0.816125 0.295699 0.592700
-0.555352 0.409643 0.870807
-0.513447 0.573066 1.225012
-0.883465 0.175829 0.427059
-0.514491 0.477634 1.052903
-1.101001 0.439917 0.723661
-0.841942 0.528297 0.963129
-0.713857 0.354653 0.746222
-1.325407 0.329099 0.537744
-1.186359 0.298389 0.522501
-0.836190 0.540081 0.953489
-0.720574 0.564968 1.047427
-0.462438 0.423238 0.945136
-1.063642 0.401618 0.683501
-1.254868 0.150114 0.352969
-1.473362 0.091415 0.263463
-1.161624 0.096184 0.289468
-0.798874 0.212700 0.496856
-1.028808 0.187933 0.425141
-0.544641 0.583110 1.218841
-0.273842 0.455165 1.145715
-0.905954 0.464891 0.816107
-1.012456 0.154439 0.379934
-0.485555 0.551698 1.207548
-1.219978 0.272804 0.511946
-0.853604 0.552784 0.993798
-0.821894 0.602802 1.051814
-0.837001 0.455568 0.858587
-1.470685 0.023623 0.166237
-1.301320 0.065950 0.219183
-1.173584 0.243909 0.481391
-0.273170 0.399727 1.062703
-0.900501 0.485286 0.847676
-0.195415 0.442496 1.229197
-1.111785 0.326120 0.571949
-0.950458 0.496656 0.874525
-1.392225 0.103354 0.286947
-0.549709 0.559846 1.141194
-1.100517 0.105568 0.305677
-0.755342 0.266555 0.590389
-1.223099 0.278942 0.492207
-0.885259 0.365742 0.680182
-1.301473 0.028422 0.199163
-0.897360 0.221741 0.492567
-0.614502 0.619262 1.195222
-1.098104 0.263652 0.519065
-1.294742 0.088253 0.246682
-0.941791 0.185218 0.403567
-0.829502 0.570625 1.031186
-0.964641 0.454047 0.809954
-0.506078 0.443783 0.959151
-1.469922 0.059299 0.207284
-0.835177 0.422449 0.810109
-0.541366 0.516399 1.067883
-0.714153 0.324097 0.664733
-1.344165 0.102512 0.288216
-1.413125 0.051043 0.198321
-0.565283 0.291366 0.688655
-1.060383 0.362563 0.658665
-1.012304 0.397915 0.691609
-1.104208 0.405451 0.678345
-1.187001 0.264322 0.505829
-1.163983 0.123758 0.325263
-0.675770 0.259824 0.600231
-0.664311 0.637753 1.191515
-0.715144 0.640350 1.165330
-1.118259 0.100929 0.298326
-1.091280 0.420409 0.727413
-1.105840 0.339629 0.590816
-1.399305 0.125061 0.311740
-0.718969 0.499882 0.978100
-0.643098 0.401588 0.818346
-1.237175 0.181154 0.366250
-1.381001 0.135338 0.299895
-0.883512 0.379415 0.729913
-0.308321 0.437054 1.076631
-1.305506 0.335014 0.548073
-0.723768 0.595872 1.124432
-1.200303 0.342002 0.576244
-1.433971 0.153626 0.317933
-0.599505 0.575949 1.135586
-0.294669 0.469590 1.160704
-0.884725 0.287690 0.594366
-0.781485 0.276998 0.600799
-1.419873 0.200820 0.373878
-0.354266 0.443547 1.094428
-0.795931 0.574412 1.023114
-1.038558 0.258405 0.493929
-1.006561 0.297329 0.553577
-1.037317 0.236432 0.464266
-0.516793 0.472565 1.005685
-0.853986 0.209570 0.452639
-0.683281 0.432199 0.851795
-0.608148 0.462375 0.971786
-1.472359 0.055236 0.227583
-1.208919 0.102761 0.295257
-0.497529 0.379076 0.876526
-1.316632 0.208262 0.393111
-0.714891 0.630437 1.182685
-0.379374 0.404430 0.995710
-0.928352 0.272346 0.533055
-1.271882 0.267725 0.497098
-1.096458 0.440055 0.725042
-1.076942 0.157810 0.378090
-0.448873 0.465468 1.072447
-0.482385 0.391769 0.874365
-0.394339 0.474118 1.127859
-0.936071 0.504324 0.861559
-0.913644 0.370575 0.708301
-1.190552 0.293913 0.542956
-1.062542 0.214962 0.430859
-1.157171 0.293666 0.548610
-0.347046 0.453326 1.120964
-1.420167 0.100694 0.282465
-0.736132 0.579531 1.061670
-0.509555 0.333386 0.751737
-0.717338 0.315112 0.649181
-0.442422 0.376566 0.901460
-1.180343 0.270299 0.514545
-1.174461 0.120641 0.320563
-0.557662 0.536360 1.129556
-1.120191 0.367082 0.624242
-1.369054 0.129074 0.293188
-0.294178 0.437540 1.088607
-0.790079 0.460432 0.854047
-0.711029 0.671301 1.214584
-0.755418 0.426446 0.815355
-0.610243 0.428734 0.879498
-0.718042 0.338382 0.717921
-0.927886 0.421176 0.776226
-0.884602 0.549099 0.945851
-1.027103 0.200532 0.414923
-0.643171 0.297634 0.672747
-0.397063 0.452902 1.044559
-0.603541 0.322807 0.697417
-0.755351 0.299022 0.612320
-0.762082 0.295019 0.634349
-0.706955 0.535372 1.039328
-0.460945 0.394466 0.890947
-0.638799 0.628536 1.193824
-1.173492 0.218465 0.448426
-1.157129 0.402519 0.688021
-0.737121 0.657733 1.209858
-1.433125 0.154914 0.344317
-0.862224 0.218568 0.464721
-1.125552 0.397400 0.662690
-1.331361 0.163813 0.338047
-0.882592 0.328394 0.625744
-0.456425 0.432183 0.965561
-0.243278 0.466451 1.201174
-0.359574 0.504349 1.219880
-0.834201 0.442874 0.811309
-1.152105 0.437393 0.732568
-0.252535 0.420719 1.128511
-0.460517 0.536784 1.199789
-1.136719 0.175657 0.369490
-1.143804 0.315383 0.579037
-0.899792 0.191115 0.418686
-0.655243 0.263462 0.611814
-0.719554 0.437065 0.844570
-1.111117 0.463349 0.765855
-0.897086 0.557011 0.981087
-1.091561 0.417807 0.723863
-0.551352 0.361622 0.787702
-0.809188 0.412592 0.772882
-1.417799 0.272534 0.457909
-0.697854 0.463173 0.928625
-0.347050 0.390241 0.947698
-1.020146 0.269113 0.539802
-0.520044 0.459438 1.015533
-0.971372 0.298465 0.562050
-0.971360 0.267105 0.518114
-0.684181 0.395631 0.792732
-0.702917 0.532048 1.004429
-0.472037 0.546383 1.208437
-0.797064 0.620452 1.120538
-0.287693 0.455918 1.135529
-0.351481 0.467957 1.108493
-0.252401 0.433755 1.115659
-1.222342 0.303447 0.549208
-0.547749 0.333686 0.737290
-1.242675 0.098405 0.262564
-0.779866 0.635381 1.142628
-0.573062 0.430716 0.899152
-0.870204 0.577732 0.993633
-0.652139 0.347637 0.755031
-0.734656 0.505263 0.978459
-0.504339 0.317346 0.758876
-0.890295 0.490739 0.888585
-0.950916 0.298423 0.566352
-0.353404 0.463064 1.096801
-0.917991 0.553883 0.939091
-1.137283 0.098033 0.293366
-0.484859 0.577526 1.223842
-0.747429 0.595898 1.080532
-0.811956 0.568670 1.036592
-1.266366 0.081826 0.240071
-1.176749 0.061520 0.244151
-0.719076 0.578137 1.098424
-1.379475 0.091937 0.248340
-1.128558 0.269438 0.521445
-0.642137 0.391491 0.800921
-0.839568 0.422216 0.777586
-0.963856 0.252480 0.526958
-0.434646 0.544862 1.197432
-1.296673 0.318444 0.554941
-1.103724 0.359807 0.618106
-0.844816 0.398379 0.740147
-1.427676 0.265920 0.449182
-0.633669 0.344173 0.724412
-1.130138 0.109818 0.282713
-1.339312 0.083744 0.265852
-1.254622 0.098037 0.261419
-1.438798 0.254672 0.459967
-1.275549 0.205707 0.393845
-1.442227 0.138245 0.324669
-0.591922 0.319817 0.696085
-1.030185 0.147488 0.340760
-0.725210 0.473044 0.932061
-1.094444 0.475013 0.779381
-0.564589 0.462940 0.962015
-0.874353 0.233819 0.514671
-1.011181 0.389284 0.707161
-1.397091 0.096129 0.278132
-0.227353 0.442014 1.205029
-1.435280 0.302660 0.490519
-1.026061 0.146302 0.339551
-1.257426 0.280013 0.514396
-1.345226 0.233848 0.446141
-0.589370 0.454723 0.933373
-1.068318 0.333558 0.619010
-0.983694 0.324098 0.595508
-1.223705 0.193440 0.383586
-1.144614 0.376096 0.630562
-1.075393 0.248937 0.502782
-1.191730 0.372690 0.616299
-0.485446 0.431770 0.983336
-1.074845 0.136197 0.348699
-1.148293 0.215087 0.420364
-1.120772 0.408282 0.704013
-1.266122 0.278931 0.511598
-1.045597 0.164609 0.362552
-1.189325 0.380273 0.652216
-1.340419 0.305879 0.532656
-1.438892 0.179009 0.346850
-0.743279 0.239180 0.519426
-0.651668 0.409676 0.828831
-1.037811 0.241396 0.470936
-0.315024 0.479606 1.209267
-0.985705 0.408338 0.713977
-0.243191 0.422605 1.141352
-1.005112 0.207872 0.428104
-0.696201 0.397025 0.790435
-0.537426 0.375927 0.819262
-1.295338 0.104093 0.292767
-0.739730 0.240365 0.522113
-0.801152 0.509313 0.953255
-0.545375 0.572939 1.166860
-0.887978 0.317825 0.609157
-0.405635 0.504201 1.141213
-0.941164 0.383242 0.690102
-0.527295 0.508274 1.062829
-0.619860 0.422761 0.865087
-0.479269 0.462336 1.010002
-0.963292 0.365906 0.659598
-0.850456 0.226346 0.507676
-0.505922 0.526968 1.147970
-0.699683 0.330409 0.710199
-0.672740 0.254031 0.591622
-1.057285 0.232814 0.456533
-0.731049 0.233703 0.544133
-0.488930 0.394295 0.875725
-1.196548 0.429400 0.691110
-0.668520 0.404067 0.844754
-0.525958 0.546026 1.167715
-0.927632 0.534664 0.908912
-1.062311 0.383727 0.686106
-1.127972 0.103055 0.300496
-1.038723 0.357682 0.657579
-0.475275 0.426835 0.979662
-1.314661 0.225837 0.414508
-1.457172 0.204668 0.375330
-0.970854 0.280879 0.565748
-1.105057 0.306184 0.547175
-1.456498 0.085513 0.262711
-0.865359 0.251411 0.514281
-1.423553 0.146235 0.334832
-0.751784 0.540154 1.023381
-1.175456 0.434052 0.697407
-0.726008 0.336360 0.681398
-1.039941 0.183301 0.417348
-0.917456 0.269024 0.530383
-0.615232 0.299568 0.652522
-0.904320 0.270270 0.535182
-1.437833 0.109430 0.291756
-1.426478 0.307243 0.522563
-1.184785 0.085356 0.274173
-1.129848 0.379978 0.664998
-0.395058 0.537414 1.215130
-0.880923 0.485196 0.855488
-1.118221 0.220668 0.458509
-0.269075 0.463643 1.169195
-0.343028 0.444291 1.065639
-0.425353 0.468694 1.095217
-0.548531 0.476710 1.029930
-1.381005 0.113037 0.298863
-0.694653 0.484759 0.934260
-1.248679 0.078144 0.262256
-0.713547 0.649726 1.180463
-0.930801 0.241901 0.488735
-0.687768 0.257310 0.592929
-1.285975 0.317825 0.530692
-0.710514 0.455326 0.910387
-1.308615 0.307673 0.539713
-1.140542 0.387017 0.671640
-0.987707 0.309533 0.602895
-1.389515 0.240243 0.424108
-0.211504 0.425781 1.133691
-1.382638 0.099053 0.256672
-0.656085 0.361378 0.777560
-0.470533 0.432228 0.957310
-1.170545 0.376027 0.650845
-1.054631 0.357095 0.625341
-1.122118 0.450737 0.759342
-0.844293 0.217371 0.465923
-0.897161 0.159089 0.400845
-0.868989 0.231629 0.483127
-1.123584 0.337710 0.584836
-0.668948 0.551505 1.053461
-1.307143 0.327712 0.564550
-0.656110 0.574021 1.130032
-0.931069 0.396315 0.740809
-0.713917 0.404899 0.827589
-0.547387 0.572236 1.197507
-0.675030 0.342104 0.706999
-1.016851 0.250731 0.487025
-0.678257 0.345204 0.711086
-1.031384 0.378587 0.687449
-0.936032 0.270220 0.528701
-1.065685 0.412928 0.724214
-1.370191 0.349044 0.554226
-1.155669 0.113638 0.286168
-0.383145 0.393633 0.931589
-0.699090 0.253803 0.584194
-0.899140 0.289207 0.593159
-0.635974 0.360292 0.783010
-0.837054 0.465823 0.873256
-0.864347 0.266559 0.566393
-0.812906 0.385093 0.760940
-1.231469 0.345278 0.573907
-0.644762 0.403949 0.821787
-0.523693 0.516714 1.080688
-0.592942 0.589401 1.161379
-0.376595 0.492993 1.142760
-0.894853 0.510275 0.887137
-1.001379 0.426312 0.760310
-0.642076 0.500958 0.984634
-0.714542 0.377986 0.783731
-0.820567 0.249267 0.548653
-0.953924 0.283382 0.544188
-0.614201 0.322918 0.694017
-0.341263 0.483183 1.151652
-1.449915 0.280764 0.473280
-0.714945 0.617230 1.161219
-0.768871 0.416383 0.794494
-0.821487 0.265260 0.545132
-0.383858 0.415499 1.014400
-1.352352 0.233817 0.445301
-1.108799 0.197223 0.428609
-0.885126 0.507208 0.914367
-1.259841 0.093828 0.255753
-1.263244 0.158768 0.363150
-1.180387 0.209170 0.408863
-0.369643 0.479709 1.119430
-0.711050 0.396208 0.783426
-0.916536 0.169578 0.384680
-0.645449 0.325060 0.718848
-1.018635 0.305149 0.562087
-1.341411 0.349368 0.585354
-1.380700 0.040796 0.187230
-0.998343 0.488654 0.847194
-1.409292 0.111068 0.295125
-1.298586 0.291184 0.521287
-1.177434 0.325106 0.558746
-0.801573 0.488425 0.892172
-0.755390 0.340318 0.709682
-0.481445 0.414122 0.917572
-0.941854 0.252394 0.502368
-1.170789 0.139380 0.319042
-1.243387 0.238972 0.465442
-1.380734 0.015522 0.182681
-1.090023 0.087650 0.282760
-0.569015 0.357086 0.772188
-0.681155 0.343039 0.706494
-1.388247 0.267966 0.481247
-1.301191 0.119667 0.286073
-0.800778 0.620353 1.088325
-1.056331 0.464152 0.795775
-0.401954 0.434476 1.003971
-1.008599 0.301088 0.586708
-0.467402 0.554513 1.190440
-1.155795 0.200155 0.399775
-1.024410 0.298187 0.551310
-1.013910 0.294645 0.576700
-1.117538 0.409891 0.680740
-1.034568 0.217220 0.465794
-0.640545 0.497526 0.979858
-0.937356 0.296593 0.566613
-0.528665 0.403623 0.906882
-1.146884 0.382336 0.638021
-0.520256 0.370940 0.850619
-0.978207 0.473974 0.805569
-1.073854 0.430474 0.745472
-0.305511 0.449656 1.148440
-0.835756 0.251503 0.520545
-1.411266 0.271663 0.482978
-1.110493 0.125638 0.304938
-0.834727 0.413053 0.765163
-1.191033 0.371030 0.639939
-1.165651 0.344722 0.586279
-1.345057 0.251458 0.442149
-0.293921 0.489819 1.227016
-1.470044 0.134356 0.304783
-0.922381 0.494600 0.882310
-1.029263 0.228167 0.481890
-0.702189 0.375824 0.753327
-0.786122 0.223731 0.486925
-0.780623 0.404200 0.769999
-0.848633 0.270590 0.575858
-0.920018 0.471785 0.850220
-1.205103 0.104230 0.297340
-0.674806 0.351386 0.722573
-0.548645 0.395626 0.849326
-0.532115 0.558527 1.185938
-0.661299 0.500383 1.007648
-1.428478 0.234057 0.437343
-0.562810 0.407699 0.898502
-0.909807 0.219286 0.486830
-0.523477 0.365175 0.838070
-0.938460 0.357374 0.654075
-0.925653 0.426076 0.783927
-1.288146 0.120636 0.288148
-1.004723 0.312609 0.575197
-0.712297 0.618864 1.165366
-1.261581 0.067101 0.248000
-0.728398 0.352357 0.737818
-0.640293 0.610712 1.198312
-0.772274 0.432223 0.848086
-0.941773 0.328461 0.611505
-0.569116 0.468256 1.003140
-0.327086 0.419848 1.065872
-0.879620 0.496676 0.901076
-0.290028 0.495229 1.224703
-1.044928 0.143386 0.361472
-0.682336 0.367582 0.778681
-1.048671 0.115572 0.323141
-0.514365 0.362340 0.803497
-0.832035 0.286175 0.574872
-0.861317 0.535628 0.936287
-0.400536 0.457946 1.091014
-1.297885 0.355061 0.573603
-0.928365 0.332671 0.620722
-1.356082 0.313177 0.513929
-0.200008 0.455860 1.219414
-0.618265 0.288845 0.633476
-0.606055 0.595278 1.196001
-0.882653 0.243898 0.499196
-0.567284 0.559362 1.162951
-1.010930 0.171233 0.375490
-0.824728 0.570112 1.032684
-0.906083 0.272968 0.538758
-0.691550 0.521198 0.992678
-1.135334 0.302692 0.564443
-0.850484 0.588431 1.047237
-1.220534 0.047780 0.225140
-1.362598 0.272176 0.489075
-0.618368 0.532300 1.084796
-1.024861 0.325852 0.617324
-0.587881 0.371064 0.788687
-1.106242 0.190789 0.420422
-1.280301 0.337952 0.581643
-0.863403 0.225344 0.474658
-1.208351 0.116944 0.288160
-0.908147 0.560012 0.951706
-0.606585 0.548813 1.085360
-0.418886 0.370484 0.865618
-1.084223 0.459209 0.781086
-0.569545 0.368897 0.792896
-0.739880 0.218742 0.518469
-0.888280 0.480561 0.845608
-1.447887 0.266111 0.472291
-0.956332 0.327731 0.635748
-0.628670 0.532727 1.079499
-0.389618 0.494835 1.135780
-1.150099 0.232708 0.442500
-0.660307 0.287993 0.619246
-1.087158 0.136775 0.321618
-1.406359 0.114875 0.274342
-0.560553 0.318433 0.738106
-1.397134 0.249050 0.433359
-1.218385 0.102144 0.268710
-0.208060 0.459366 1.219539
-1.230491 0.064182 0.245355
-0.937906 0.426680 0.753041
-0.665219 0.461750 0.942061
-0.940818 0.473703 0.816721
-1.331749 0.210305 0.419979
-1.458128 0.195820 0.390281
-0.268040 0.427283 1.129652
-0.632481 0.633847 1.206798
-0.995156 0.465253 0.788455
-0.729576 0.503572 0.978423
-1.114298 0.155918 0.372023
-0.756286 0.532699 1.009964
-0.691105 0.257227 0.560540
-1.090723 0.228625 0.473123
-0.889868 0.177081 0.427957
-0.511438 0.533132 1.155050
-0.741817 0.427194 0.821476
-1.257470 0.220272 0.414245
-0.475857 0.437699 0.964502
-1.195600 0.059239 0.240490
-0.975419 0.448382 0.771324
-1.336413 0.216499 0.401019
-0.447513 0.520269 1.177932
-1.087830 0.287444 0.525182
-0.600689 0.399772 0.866778
-1.001998 0.184052 0.394772
-1.016844 0.281787 0.558198
-0.407590 0.510245 1.190906
-1.364008 0.026434 0.196035
-0.509049 0.412326 0.934416
-0.865565 0.525632 0.948648
-0.730333 0.226458 0.532865
-1.068301 0.403811 0.711342
-0.330478 0.467565 1.125385
-0.694057 0.384046 0.801228
-0.782550 0.230530 0.527494
-1.189040 0.318865 0.548506
-1.418711 0.298745 0.513860
-1.262572 0.191857 0.404575
-1.035695 0.494300 0.841468
-0.873007 0.306822 0.596742
-0.895619 0.501543 0.873839
-0.728322 0.272958 0.607515
-1.020025 0.165836 0.366737
-0.667369 0.601779 1.134982
-1.295365 0.287413 0.492788
-1.227044 0.305323 0.550705
-1.388005 0.062521 0.238629
-0.737066 0.466414 0.883099
-1.052713 0.244665 0.473268
-1.068284 0.259404 0.490645
-0.520545 0.329572 0.740118
-0.593781 0.302359 0.664689
-0.747321 0.628432 1.159785
-0.533655 0.422423 0.904480
-0.749160 0.236990 0.545116
-0.428114 0.404805 0.964607
-0.667375 0.427993 0.884825
-1.225272 0.232470 0.432977
-1.061860 0.254326 0.484829
-0.801696 0.202526 0.480696
-1.019664 0.325035 0.589564
-0.695267 0.386957 0.805530
-0.571252 0.494948 1.013058
-0.696912 0.480147 0.925453
-0.968622 0.361517 0.652212
-1.171958 0.194861 0.390856
-1.321039 0.282455 0.483095
-1.065136 0.275673 0.512884
-1.030331 0.319727 0.607781
-0.825210 0.482324 0.873826
-0.738743 0.486883 0.916543
-0.850361 0.291959 0.608552
-0.796690 0.418186 0.817147
-1.155458 0.160843 0.347989
-0.348314 0.446130 1.103714
-0.953894 0.319427 0.595619
-0.484799 0.561531 1.226390
-0.449027 0.356649 0.822408
-0.888443 0.473337 0.864568
-1.414637 0.137173 0.300102
-1.164044 0.194070 0.390732
-1.271968 0.311385 0.550438
-0.568843 0.514816 1.084377
-0.445461 0.551704 1.228125
-0.345555 0.448383 1.110895
-0.828809 0.397646 0.774491
-0.494545 0.353620 0.830199
-0.792921 0.309622 0.619207
-1.268860 0.148480 0.349682
-0.482098 0.522788 1.120541
-1.012682 0.251176 0.516271
-0.296254 0.424654 1.098989
-0.824830 0.406154 0.757662
-1.260246 0.383187 0.615277
-0.881555 0.464653 0.824674
-0.946061 0.540511 0.909713
-1.011181 0.384268 0.700396
-0.626510 0.402199 0.826724
-0.464489 0.422357 0.977391
-0.644508 0.576649 1.109444
-0.990600 0.477997 0.807336
-1.397635 0.221901 0.426676
-1.096438 0.137961 0.349391
-1.054570 0.338693 0.628875
-0.536180 0.400923 0.898476
-1.181794 0.283302 0.531159
-1.227352 0.246259 0.476670
-0.665580 0.426460 0.850731
-0.938888 0.423998 0.776656
-1.005277 0.281636 0.532267
-1.418442 0.042273 0.188127
-0.524118 0.406862 0.881292
-1.189981 0.305821 0.531676
-1.024576 0.459041 0.771394
-0.953748 0.310433 0.611773
-0.807693 0.489503 0.891557
-0.964919 0.376992 0.703673
-0.458767 0.507778 1.145962
-1.088106 0.353393 0.640232
-0.508807 0.501135 1.062628
-0.943584 0.304360 0.576313
-1.231460 0.302999 0.547092
-1.170035 0.257416 0.471459
-1.174373 0.384745 0.661272
-0.342810 0.396292 1.002155
-0.416998 0.427753 0.981522
-0.505201 0.395744 0.869930
-0.933971 0.436904 0.768074
-1.362936 0.043280 0.190589
-0.880057 0.450014 0.804051
-0.729036 0.580819 1.067490
-0.889290 0.243636 0.526816
-0.635700 0.591481 1.137919
-0.600694 0.516988 1.069243
-0.352282 0.415218 0.996708
-0.712857 0.544171 1.050007
-0.867067 0.490429 0.868894
-1.306750 0.119496 0.311061
-0.596954 0.617478 1.204461
-1.388871 0.263925 0.476444
-0.437675 0.521409 1.188023
-0.686117 0.603257 1.126262
-0.345198 0.485709 1.153823
-0.946257 0.422497 0.745001
-1.444541 0.288896 0.473622
-0.760642 0.316239 0.669162
-0.913588 0.241156 0.490447
-1.078134 0.483607 0.787906
-0.553593 0.328711 0.725671
-1.258237 0.096263 0.258950
-0.810981 0.269148 0.553419
-1.462590 0.203414 0.375567
-0.856206 0.566565 1.012528
-1.046340 0.446731 0.775068
-1.306559 0.223218 0.438451
-0.580709 0.492556 1.038949
-1.436719 0.192312 0.388113
-1.099967 0.080611 0.272958
-0.718141 0.525574 1.017979
-0.673931 0.544045 1.038546
-1.307127 0.140907 0.311641
-0.704341 0.442374 0.858661
-1.306071 0.253657 0.449944
-0.458579 0.430101 0.960168
-1.221840 0.156163 0.363494
-0.605765 0.538275 1.067492
-1.419835 0.117971 0.277346
-0.911271 0.398006 0.720136
-0.492678 0.379516 0.879575
-1.000393 0.201914 0.448389
-0.594398 0.407732 0.883932
-1.319383 0.213899 0.399604
-0.543263 0.576817 1.174578
-1.358005 0.182672 0.358203
-0.899963 0.428265 0.767118
-0.551801 0.606230 1.218756
-1.344784 0.135258 0.327717
-0.703834 0.417044 0.851528
-1.107377 0.253949 0.477259
-1.461175 0.100134 0.254332
-1.062180 0.144240 0.333430
-0.202578 0.447796 1.197738
-0.605411 0.476622 0.964059
-1.357306 0.116411 0.278615
-1.043773 0.390825 0.673398
-1.141360 0.441086 0.742162
-0.776882 0.287880 0.589147
-0.916389 0.538006 0.917797
-0.803401 0.472862 0.867962
-0.317452 0.478540 1.204069
-0.895520 0.183932 0.408673
-0.951441 0.219050 0.479967
-0.768078 0.465430 0.869675
-0.956546 0.526447 0.914522
-0.269311 0.405601 1.078498
-0.674257 0.284345 0.609622
-0.961916 0.227567 0.462576
-0.348566 0.422211 1.054612
-0.730472 0.285724 0.597562
-0.999709 0.172285 0.406506
-0.709281 0.592048 1.127099
-1.187631 0.080133 0.241168
-0.238091 0.412834 1.078623
-0.862498 0.446448 0.835622
-1.204340 0.198147 0.418487
-1.171600 0.415017 0.701000
-1.000564 0.387458 0.679779
-0.862606 0.298816 0.616003
-0.572934 0.474511 1.012010
-1.264292 0.275872 0.508152
-1.120417 0.079404 0.270113
-0.638529 0.457308 0.915401
-1.437230 0.073803 0.224261
-0.848399 0.208917 0.452594
-1.463588 0.193951 0.377389
-1.057555 0.306130 0.555823
-1.321753 0.070308 0.249861
-1.007065 0.499405 0.859235
-1.130159 0.317793 0.557841
-1.446843 0.296536 0.489001
-0.895188 0.154630 0.394667
-0.779560 0.467376 0.868408
-0.821297 0.546666 0.970413
-0.720694 0.286269 0.631192
-0.677888 0.414612 0.858388
-1.054883 0.330017 0.589112
-1.226271 0.245232 0.448969
-0.703923 0.497333 0.981463
-0.973987 0.386133 0.685207
-0.812111 0.203854 0.451077
-0.806118 0.524303 0.973242
-0.372616 0.396265 0.943475
-0.289746 0.391035 1.030726
-1.434403 0.210477 0.409673
-0.892120 0.372147 0.687988
-1.279524 0.175345 0.382404
-0.964306 0.155477 0.387028
-0.652779 0.462253 0.916802
-0.629367 0.453670 0.946158
-0.859512 0.466312 0.865498
-0.646776 0.480252 0.981821
-0.977055 0.458159 0.784201
-0.969727 0.538927 0.901920
-0.817777 0.547109 0.972736
-1.204236 0.212201 0.436634
-0.856616 0.477633 0.854102
-0.558581 0.416471 0.881243
-0.865109 0.318314 0.615459
-0.272567 0.452106 1.139837
-0.803733 0.621907 1.109415
-0.548347 0.578549 1.207434
-1.347916 0.346925 0.555288
-0.810878 0.217382 0.472020
-0.751717 0.403729 0.811464
-0.980032 0.200186 0.420236
-1.349237 0.174597 0.375083
-1.448291 0.110566 0.292517
-0.857325 0.328305 0.661533
-0.994996 0.148611 0.345747
-1.121710 0.328941 0.600698
-1.389514 0.086214 0.240993
-0.976066 0.532100 0.897898
-0.369145 0.452942 1.102833
-1.166531 0.431433 0.696258
-0.521809 0.333093 0.746357
-0.429608 0.460621 1.038819
-0.672742 0.519374 1.033054
-0.848919 0.511433 0.907502
-0.936518 0.513975 0.875732
-0.269976 0.457150 1.199169
-0.349049 0.487379 1.154040
-0.746922 0.260814 0.583271
-0.655943 0.560004 1.107651
-0.788248 0.250501 0.557364
-0.943283 0.413418 0.760647
-0.767577 0.595989 1.069789
-0.665685 0.613518 1.153716
-0.726556 0.286358 0.599610
-1.031232 0.350636 0.621818
-1.350804 0.367922 0.580186
-0.780349 0.219765 0.511385
-1.194788 0.181301 0.397970
-0.782855 0.607399 1.108645
-1.174322 0.200438 0.424813
-0.839034 0.194534 0.461961
-0.403496 0.463040 1.060581
-0.977993 0.365012 0.654634
-1.248154 0.218073 0.438768
-0.255661 0.411675 1.060879
-0.469144 0.509909 1.106058
-0.937899 0.521688 0.914641
-1.052932 0.419093 0.735824
-0.791026 0.463367 0.858140
-1.410949 0.123420 0.309246
-0.524733 0.510377 1.105338
-1.016277 0.401104 0.695109
-0.570945 0.541427 1.093565
-0.880237 0.174080 0.424986
-0.399000 0.448715 1.073667
-0.611370 0.478370 0.963704
-0.848064 0.590055 1.050739
-0.620758 0.631799 1.225032
-1.472697 0.105162 0.273751
-0.577959 0.411507 0.864128
-0.699348 0.336661 0.720690
-1.224531 0.045570 0.222247
-0.968534 0.287909 0.576266
-0.473027 0.529423 1.176389
-0.227019 0.426899 1.122439
-0.755923 0.364154 0.714567
-0.678673 0.655285 1.210232
-0.529394 0.478212 1.008167
-1.003847 0.384553 0.674922
-0.935160 0.392644 0.705312
-0.736900 0.235182 0.545109
-0.339346 0.423586 1.064737
-1.007112 0.270738 0.516942
-1.173469 0.204608 0.403616
-1.318987 0.061175 0.238779
-1.453885 0.251960 0.430176
-0.878909 0.202644 0.467258
-1.048655 0.188705 0.395445
-0.851741 0.409017 0.754308
-0.931059 0.530006 0.928832
-0.988340 0.166514 0.399725
-0.938863 0.288021 0.553816
-1.105300 0.369629 0.657307
-1.169564 0.253655 0.494596
-0.738349 0.316662 0.645849
-0.852533 0.483775 0.864895
-0.763764 0.446377 0.873313
-1.096600 0.243078 0.464506
-0.512295 0.533366 1.118898
-0.701807 0.629203 1.156323
-0.897503 0.324431 0.616370
-0.552597 0.538667 1.136804
-1.452880 0.090404 0.268693
-0.812280 0.490605 0.891391
-0.503035 0.513343 1.125329
-0.706645 0.359629 0.756959
-1.030730 0.495283 0.817966
-0.927533 0.285567 0.581569
-1.320624 0.355107 0.569805
-1.394123 0.259861 0.446092
-1.047152 0.259927 0.522497
-0.291191 0.405978 1.062712
-0.945127 0.549789 0.922664
-1.207557 0.297401 0.518044
-1.221383 0.218494 0.415902
-0.664148 0.511874 0.991221
-0.887552 0.376199 0.724009
-0.722824 0.348531 0.733348
-0.542256 0.385951 0.834940
-1.407546 0.036593 0.206898
-1.078514 0.476433 0.778425
-0.546665 0.591785 1.196916
-1.078648 0.226639 0.445132
-0.456946 0.403369 0.945151
-1.144542 0.306235 0.540147
-0.543160 0.437293 0.926557
-0.579570 0.368356 0.819293
-0.325137 0.478989 1.197261
-0.837463 0.399183 0.773839
-0.270923 0.470753 1.183778
-0.414806 0.442746 1.049236
-0.582732 0.428320 0.925574
-1.210042 0.287755 0.532044
-1.436627 0.177129 0.369979
-1.165802 0.138783 0.318619
-0.738866 0.266735 0.564571
-0.870593 0.374597 0.697442
-0.404208 0.370073 0.872784
-0.901398 0.490971 0.884866
-1.109911 0.334441 0.610469
-0.377794 0.468102 1.088504
-1.263430 0.352974 0.603065
-1.273080 0.361647 0.586167
-0.592561 0.326918 0.708379
-0.779986 0.483796 0.924464
-1.364191 0.037356 0.209364
-1.215606 0.185820 0.401482
-1.388092 0.102525 0.286157
-0.974457 0.170891 0.379525
-1.112207 0.160595 0.378437
-0.612378 0.531163 1.051195
-0.551624 0.399491 0.888711
-0.411977 0.502112 1.131937
-0.819385 0.469140 0.885603
-1.103121 0.379807 0.671052
-0.599686 0.394408 0.857632
-1.340289 0.221383 0.432169
-0.738674 0.305433 0.657484
-0.529441 0.363556 0.799843
-0.507424 0.422558 0.954456
-1.440916 0.122351 0.306457
-1.125105 0.406238 0.674163
-0.323413 0.457164 1.150217
-0.617517 0.626807 1.205571
-0.793867 0.541103 0.974921
-1.096316 0.259870 0.487010
-0.531313 0.439849 0.973878
-0.876229 0.513002 0.926457
-1.456641 0.115000 0.297183
-0.628864 0.313252 0.704223
-0.645845 0.330095 0.727432
-1.462320 0.205591 0.383759
-0.491733 0.409085 0.902408
-0.401354 0.377286 0.925626
-0.733020 0.575778 1.087720
-0.625896 0.438519 0.921725
-0.580189 0.562675 1.160317
-1.406374 0.157984 0.324508
-1.171143 0.215415 0.444725
-0.999546 0.320860 0.615953
-0.875059 0.401505 0.765396
-0.573356 0.355329 0.767193
-0.768972 0.290193 0.594723
-0.641803 0.527884 1.029134
-1.421023 0.270933 0.481022
-0.570395 0.381650 0.815092
-1.068645 0.418834 0.731313
-0.992512 0.346896 0.626042
-0.609276 0.351561 0.777703
-0.692745 0.496472 0.953667
-0.997947 0.147000 0.371145
-0.531876 0.561374 1.190644
-1.382349 0.269336 0.483518
-1.198609 0.055970 0.236221
-0.906637 0.233529 0.508548
-0.987321 0.419109 0.728547
-0.681841 0.625412 1.162257
-1.056009 0.291112 0.563409
-1.413348 0.072397 0.223277
-1.017476 0.173647 0.406361
-1.188579 0.323953 0.555159
-1.045145 0.353886 0.623114
-1.355440 0.062723 0.214381
-0.765902 0.309918 0.657515
-0.259207 0.433666 1.152441
-0.670798 0.445613 0.912839
-0.830094 0.231428 0.519327
-1.394984 0.082206 0.261689
-1.207710 0.106730 0.300441
-1.222650 0.107610 0.275442
-0.539849 0.422170 0.900824
-0.908800 0.490726 0.881826
-0.889134 0.204792 0.468718
-0.505607 0.330689 0.748128
-1.253320 0.180222 0.363469
-0.611336 0.375688 0.786541
-0.832172 0.300631 0.596785
-1.373950 0.094431 0.277171
-0.660721 0.642863 1.202230
-0.759078 0.380437 0.771736
-0.979049 0.521126 0.898864
-0.821805 0.614456 1.079959
-0.874705 0.362883 0.708323
-0.724185 0.561892 1.040664
-0.464549 0.478383 1.086046
-1.306930 0.377579 0.599385
-0.998015 0.508305 0.874610
-1.440872 0.176959 0.369388
-1.084565 0.430250 0.742334
-1.399146 0.254315 0.464027
-1.244044 0.261012 0.493138
-1.323916 0.041490 0.214711
-0.626917 0.293018 0.637881
-0.582209 0.345090 0.776610
-1.369837 0.142011 0.308344
-0.834011 0.448756 0.820274
-1.281023 0.161483 0.338625
-0.888407 0.466861 0.825179
-0.413638 0.418546 1.002223
-0.922155 0.392895 0.709265
-0.781198 0.389984 0.746430
-0.886050 0.346713 0.681413
-0.413060 0.522607 1.172121
-1.308145 0.305930 0.513020
-0.385793 0.459907 1.105165
-0.946552 0.519197 0.907996
-0.609851 0.302463 0.692216
-0.502928 0.359979 0.838221
-0.472545 0.549411 1.177210
-0.564481 0.441672 0.922919
-0.975871 0.247037 0.488939
-0.733893 0.638767 1.151925
-0.320838 0.435517 1.102699
-0.235257 0.465007 1.227219
-1.371208 0.189842 0.391458
-0.697192 0.296573 0.654471
-1.431752 0.053050 0.200387
-0.974348 0.404557 0.711663
-0.911251 0.548493 0.934223
-1.125402 0.348159 0.598047
-1.295887 0.199587 0.384287
-1.405542 0.231016 0.411499
-0.298433 0.497841 1.219036
-1.072576 0.307293 0.582082
-0.830833 0.556272 0.980409
-1.199008 0.406058 0.683415
-1.051768 0.398537 0.682031
-0.316151 0.387003 1.001523
-0.962952 0.346864 0.633172
-1.262217 0.382827 0.640905
-0.186466 0.432711 1.176835
-0.857563 0.442698 0.832091
-1.025083 0.207108 0.452556
-0.721959 0.435318 0.841046
-1.421888 0.086300 0.239435
-0.801781 0.618125 1.084559
-0.520667 0.440226 0.944501
-1.142964 0.332601 0.601010
-0.304519 0.492886 1.202570
-0.903646 0.345137 0.674193
-0.986009 0.190808 0.406301
-0.723701 0.313574 0.644897
-1.137419 0.295068 0.526569
