-1.449679 0.282326 0.473693 2
-1.442126 0.320252 0.509990 2
-0.295037 0.394497 1.006369 2
-0.186374 0.420393 1.174189 2
-1.172893 0.071618 0.246060 2
-1.205675 0.421006 0.685161 2
-1.203916 0.050530 0.228955 2
-1.388870 0.346209 0.557811 2
-0.147190 0.430688 1.214208 2
-1.450770 0.276670 0.467524 2
-0.475242 0.337142 0.781905 2
-1.457811 0.234533 0.423768 2
-1.365652 0.344136 0.573840 2
-0.696735 0.248239 0.566199 2
-1.473989 0.076689 0.246010 2
-0.609892 0.281492 0.656560 2
-1.394624 0.017185 0.177576 2
-0.178398 0.422689 1.180237 2
-1.475488 0.036717 0.193704 2
-1.443391 0.311896 0.514511 2
-0.312013 0.385621 0.993114 2
-0.549488 0.591678 1.230182 2
-1.034221 0.124854 0.314206 2
-0.554890 0.307803 0.688792 2
-0.588291 0.610308 1.229291 2
-0.399916 0.363917 0.868233 2
-1.450728 0.006535 0.167547 2
-1.174018 0.058627 0.240474 2
-0.657671 0.266070 0.592731 2
-1.465336 0.175875 0.366506 2
-0.400286 0.362833 0.871194 2
-1.406054 0.022395 0.177080 2
-0.609235 0.629273 1.223692 2
-1.187355 0.423834 0.702115 2
-0.323235 0.386049 0.966563 2
-0.222639 0.457233 1.228055 2
-0.420876 0.350977 0.861360 2
-0.481958 0.335319 0.771278 2
-1.033999 0.102878 0.306767 2
-1.206513 0.415075 0.686550 2
-0.143833 0.431211 1.222395 2
-0.396789 0.535345 1.226129 2
-0.200448 0.418298 1.139275 2
-1.109890 0.077732 0.268359 2
-0.393633 0.358975 0.882629 2
-1.466283 0.169107 0.351948 2
-0.791517 0.211673 0.466835 2
-1.424266 0.331538 0.537769 2
-0.518541 0.578152 1.230299 2
-1.475326 0.044120 0.191129 2
-0.954563 0.548178 0.917047 2
-0.466957 0.335593 0.806940 2
-0.283272 0.487221 1.226433 2
-1.460964 0.212055 0.405426 2
-0.486241 0.327944 0.787663 2
-1.462184 0.206983 0.381120 2
-0.747452 0.652323 1.195138 2
-0.798732 0.629558 1.106538 2
-0.495669 0.330802 0.752372 2
-0.964749 0.535637 0.912312 2
-1.441119 0.322562 0.528462 2
-0.709527 0.673805 1.222452 2
-0.503508 0.572946 1.229747 2
-1.265843 0.050887 0.215412 2
-0.997223 0.136848 0.333403 2
-0.418664 0.353905 0.857654 2
-1.382479 0.032985 0.182000 2
-0.723423 0.668215 1.227614 2
-1.371414 0.341227 0.570457 2
-1.327765 0.039862 0.197452 2
-0.384626 0.526409 1.227777 2
-1.179317 0.430869 0.707319 2
-0.978829 0.531507 0.894292 2
-0.248804 0.407056 1.071129 2
-0.557614 0.304179 0.701504 2
-1.114384 0.461333 0.763075 2
-0.194994 0.449360 1.226915 2
-0.821757 0.610313 1.087273 2
-0.443661 0.348043 0.819549 2
-0.229619 0.469195 1.225137 2
-1.237880 0.409416 0.659514 2
-1.148614 0.441191 0.734686 2
-1.013941 0.509055 0.861032 2
-0.257077 0.476167 1.226517 2
-0.506226 0.572909 1.230284 2
-1.257299 0.398768 0.645596 2
-1.272527 0.391128 0.634718 2
-0.855761 0.594900 1.038212 2
-1.474861 0.054851 0.215430 2
-0.358443 0.522957 1.224892 2
-1.466050 0.171992 0.350518 2
-1.171397 0.442708 0.710703 2
-0.785827 0.637601 1.122164 2
-1.358102 0.348380 0.578380 2
-0.314162 0.391000 0.974697 2
-1.328580 0.036973 0.197251 2
-1.062158 0.115586 0.299131 2
-0.800227 0.627278 1.107381 2
-1.467661 0.153720 0.338298 2
-0.355480 0.376477 0.928007 2
-1.265814 0.392392 0.640140 2
-0.972868 0.142415 0.339673 2
-0.457499 0.339970 0.814592 2
-1.464562 0.183684 0.375320 2
-0.214390 0.450244 1.229221 2
-0.364059 0.368280 0.924290 2
-1.096414 0.084209 0.275821 2
-0.472809 0.332731 0.802652 2
-1.447249 0.291462 0.496885 2
-1.465437 0.009967 0.165573 2
-1.263675 0.392144 0.642076 2
-1.097603 0.082372 0.274766 2
-1.366874 0.349646 0.572019 2
-0.539370 0.309103 0.727981 2
-1.464452 0.186673 0.358328 2
-1.099773 0.474177 0.773618 2
-1.403989 0.337762 0.549523 2
-1.245602 0.405445 0.653728 2
-0.770006 0.642367 1.153898 2
-1.450835 0.275466 0.469529 2
-1.030783 0.125032 0.313428 2
-0.568022 0.297229 0.700931 2
-1.047169 0.494798 0.825953 2
-0.436966 0.554659 1.225179 2
-1.376867 0.032357 0.184377 2
-0.702939 0.247381 0.553011 2
-0.473267 0.338553 0.781057 2
-1.015455 0.129808 0.320854 2
-0.635111 0.274086 0.621679 2
-1.275189 0.393967 0.632027 2
-1.475054 0.044306 0.209309 2
-0.656938 0.645925 1.225694 2
-0.684632 0.255283 0.559470 2
-0.334717 0.384425 0.949592 2
-1.182031 0.433125 0.703734 2
-1.474306 0.067532 0.235028 2
-1.373780 0.347104 0.567784 2
-0.927685 0.552273 0.956591 2
-0.566414 0.614150 1.222570 2
-0.624655 0.277063 0.636942 2
-1.434677 0.335936 0.530736 2
-0.474129 0.330952 0.804954 2
-0.474697 0.335601 0.789198 2
-1.430048 0.025815 0.173768 2
-0.988883 0.138682 0.335353 2
-1.455172 0.250977 0.441137 2
-0.267371 0.477144 1.227578 2
-1.180766 0.057507 0.238376 2
-0.478576 0.337166 0.771939 2
-1.204560 0.418938 0.686965 2
-0.563271 0.303408 0.688589 2
-1.442147 0.317748 0.522090 2
-1.263937 0.400302 0.639605 2
-1.340580 0.357235 0.589614 2
-1.348836 0.039063 0.186381 2
-1.461861 0.209879 0.384440 2
-1.462778 0.200833 0.390578 2
-0.797282 0.209347 0.462616 2
-0.918906 0.565957 0.957269 2
-0.812904 0.616816 1.096810 2
-1.460457 0.217426 0.403963 2
-0.812384 0.613946 1.103022 2
-1.010533 0.519439 0.858618 2
-0.472051 0.573076 1.223497 2
-0.237005 0.409590 1.090575 2
-1.085084 0.480277 0.787633 2
-0.161017 0.426983 1.201316 2
-1.165720 0.082312 0.246215 2
-1.270445 0.050968 0.211934 2
-1.238382 0.059596 0.220452 2
-0.317456 0.495320 1.228803 2
-0.222542 0.413356 1.105511 2
-0.397699 0.532362 1.227622 2
-0.385169 0.368188 0.888262 2
-0.444653 0.346344 0.823200 2
-1.470783 0.123076 0.301585 2
-0.322643 0.499738 1.227829 2
-0.465811 0.340607 0.792483 2
-0.154313 0.427303 1.226330 2
-0.427948 0.345273 0.843336 2
-1.447139 0.292899 0.495138 2
-0.478128 0.330967 0.796337 2
-1.262463 0.048402 0.216129 2
-0.210717 0.414357 1.143434 2
-1.304907 0.386002 0.610284 2
-1.439039 0.021454 0.170901 2
-0.170122 0.422340 1.214402 2
-1.446232 0.005542 0.168215 2
-1.261366 0.054163 0.216480 2
-1.330289 0.373458 0.593738 2
-1.103834 0.079397 0.271015 2
-1.289513 0.033532 0.203151 2
-0.630812 0.274943 0.629684 2
-1.344911 0.022277 0.187895 2
-1.360167 0.019997 0.184492 2
-0.326576 0.382783 0.968211 2
-1.348147 0.032425 0.190710 2
-1.470557 0.125533 0.303933 2
-0.758755 0.645939 1.176838 2
-1.434631 0.018048 0.171044 2
-0.896379 0.568217 0.994220 2
-1.160179 0.067836 0.249467 2
-1.322947 0.041328 0.196502 2
-1.162820 0.436767 0.721527 2
-0.475468 0.330773 0.802600 2
-0.517567 0.316499 0.753517 2
-0.483514 0.334040 0.772903 2
-0.569834 0.297295 0.696753 2
-0.660431 0.639697 1.229974 2
-0.484604 0.573194 1.225706 2
-0.924445 0.559439 0.954719 2
-0.468034 0.336996 0.800247 2
-1.041053 0.490875 0.836506 2
-1.135663 0.458818 0.741030 2
-0.742542 0.656428 1.199524 2
-0.152611 0.428526 1.218694 2
-1.383465 0.031388 0.183545 2
-1.446439 0.295765 0.501174 2
-0.606144 0.628923 1.223259 2
-0.448062 0.340707 0.832701 2
-1.411692 0.331226 0.545586 2
-0.875113 0.578718 1.021561 2
-0.888968 0.581049 0.992628 2
-0.584389 0.290200 0.686118 2
-0.756531 0.225940 0.500019 2
-0.613971 0.622812 1.228534 2
-0.470667 0.337051 0.793726 2
-1.183613 0.433566 0.701989 2
-1.368220 0.358778 0.569575 2
-0.890886 0.572256 0.999726 2
-1.226483 0.404891 0.670857 2
-1.079743 0.474478 0.796992 2
-1.118334 0.467691 0.755917 2
-0.511648 0.324664 0.735043 2
-1.219359 0.405127 0.677722 2
-1.462751 0.005148 0.165811 2
-0.551713 0.307866 0.700811 2
-0.508379 0.320535 0.761571 2
-0.938522 0.551804 0.938785 2
-1.334702 0.040369 0.193353 2
-0.292449 0.483315 1.229377 2
-0.657336 0.652146 1.222340 2
-1.014551 0.510246 0.859250 2
-0.533434 0.593596 1.225785 2
-1.153632 0.070611 0.253124 2
-0.866848 0.591815 1.020341 2
-1.073642 0.110434 0.289372 2
-0.196311 0.418850 1.150617 2
-1.067918 0.485002 0.805665 2
-0.978486 0.530088 0.895907 2
-0.510761 0.317817 0.764307 2
-0.281584 0.488786 1.225712 2
-1.473799 0.077792 0.253113 2
-0.641119 0.636605 1.227203 2
-0.391025 0.361992 0.893586 2
-0.764588 0.648044 1.155187 2
-1.270325 0.034312 0.206891 2
-1.100453 0.086033 0.276224 2
-0.637997 0.638463 1.225386 2
-1.472414 0.106200 0.283601 2
-0.704393 0.666148 1.225593 2
-1.424724 0.014923 0.172448 2
-0.927434 0.555172 0.954181 2
-1.439529 0.025718 0.168927 2
-1.182874 0.071343 0.243262 2
-0.956732 0.148202 0.349565 2
-1.140743 0.442133 0.742753 2
-0.611927 0.284594 0.635954 2
-1.146479 0.070920 0.254926 2
-1.158537 0.446994 0.722038 2
-1.360123 0.031897 0.188166 2
-0.407065 0.362433 0.856333 2
-1.444237 0.003671 0.168395 2
-0.537999 0.306861 0.737516 2
-1.232091 0.060723 0.222741 2
-0.369592 0.372644 0.908804 2
-0.206025 0.416755 1.134728 2
-0.752853 0.227403 0.503952 2
-1.455647 0.245892 0.446617 2
-0.649467 0.642930 1.225602 2
-1.418658 0.335672 0.540699 2
-0.900118 0.567704 0.987849 2
-0.453351 0.343790 0.811380 2
-1.445283 0.302517 0.505405 2
-0.300550 0.491405 1.227389 2
-0.446085 0.345057 0.824332 2
-1.286978 0.385362 0.624475 2
-0.210097 0.462237 1.224734 2
-0.367835 0.367123 0.918919 2
-0.662403 0.261837 0.600360 2
-0.654893 0.267143 0.595855 2
-0.470359 0.333081 0.806893 2
-1.073851 0.476999 0.802883 2
-1.332022 0.024021 0.190952 2
-1.471699 0.116946 0.286924 2
-0.336145 0.379876 0.954770 2
-0.535845 0.590290 1.228193 2
-1.447429 0.291612 0.492900 2
-0.782291 0.635561 1.135662 2
-0.604688 0.286396 0.650613 2
-1.046941 0.497910 0.824461 2
-1.301714 0.378382 0.614291 2
-0.829337 0.608351 1.073362 2
-0.886785 0.578834 0.999425 2
-1.040802 0.121651 0.307868 2
-0.323795 0.382520 0.975236 2
-1.181872 0.073287 0.242314 2
-0.793430 0.630140 1.118282 2
-1.199343 0.420172 0.691657 2
-0.575367 0.617982 1.222510 2
-0.185211 0.423261 1.153606 2
-1.276455 0.040150 0.208891 2
-1.355111 0.028617 0.189028 2
-0.813285 0.620824 1.088444 2
-1.454984 0.253801 0.433004 2
-1.451643 0.268999 0.471189 2
-0.236088 0.410335 1.084702 2
-0.282872 0.492922 1.224435 2
-0.313981 0.383635 0.994257 2
-0.739365 0.658267 1.204627 2
-0.571603 0.609276 1.226039 2
-1.300890 0.043584 0.204910 2
-0.355638 0.521746 1.224915 2
-0.344950 0.375683 0.946682 2
-0.633292 0.276255 0.611052 2
-1.455865 0.247906 0.430182 2
-1.217927 0.062509 0.230365 2
-1.474353 0.067861 0.228911 2
-0.434550 0.342743 0.835316 2
-0.414512 0.354712 0.864229 2
-1.347972 0.355101 0.584480 2
-1.432794 0.319901 0.534104 2
-1.327197 0.364373 0.598105 2
-0.204126 0.446507 1.229061 2
-0.701845 0.247616 0.555361 2
-1.132682 0.459968 0.743753 2
-0.779277 0.216646 0.477098 2
-1.447156 0.295846 0.483120 2
-0.922921 0.563081 0.953452 2
-0.302456 0.496008 1.226148 2
-0.662867 0.652437 1.223401 2
-1.252044 0.398121 0.650365 2
-0.245561 0.461256 1.230252 2
-0.243613 0.467290 1.227597 2
-1.094556 0.467208 0.783106 2
-0.644567 0.268029 0.621055 2
-1.126510 0.078952 0.263870 2
-0.776100 0.635896 1.151725 2
-0.547474 0.600756 1.225082 2
-0.892611 0.578020 0.989510 2
-1.454158 0.024116 0.167322 2
-0.681027 0.653366 1.227259 2
-0.567284 0.612225 1.223538 2
-0.394333 0.530177 1.227953 2
-1.367719 0.024528 0.184830 2
-1.048504 0.497132 0.822951 2
-1.416206 0.338441 0.541864 2
-0.418555 0.355803 0.852285 2
-0.357366 0.371563 0.930113 2
-1.292877 0.035526 0.203763 2
-1.206631 0.068286 0.231519 2
-0.249976 0.404865 1.079096 2
-0.563346 0.301647 0.696880 2
-0.260223 0.404738 1.050512 2
-0.238431 0.458890 1.229945 2
-1.042156 0.493662 0.833278 2
-1.309606 0.041561 0.202166 2
-0.853072 0.592056 1.047849 2
-0.539569 0.308067 0.730667 2
-0.815721 0.615620 1.092254 2
-1.475132 0.043554 0.206457 2
-0.363926 0.373007 0.919908 2
-0.681378 0.255604 0.576399 2
-1.393853 0.350718 0.554144 2
-0.434824 0.341996 0.837357 2
-0.342248 0.383322 0.936625 2
-1.452151 0.269838 0.458353 2
-0.750830 0.228308 0.504437 2
-1.355793 0.019684 0.185178 2
-0.238233 0.405211 1.104412 2
-0.416400 0.358284 0.848648 2
-0.650885 0.644994 1.224764 2
-1.352043 0.023202 0.187034 2
-1.348450 0.368120 0.581924 2
-0.282925 0.396387 1.028274 2
-0.693838 0.251513 0.551114 2
-0.166827 0.426768 1.183056 2
-0.590250 0.288578 0.678233 2
-0.966499 0.146759 0.349209 2
-0.540508 0.603121 1.222721 2
-1.418092 0.339673 0.540537 2
-0.270812 0.402330 1.034872 2
-0.362605 0.373368 0.921701 2
-0.668773 0.261791 0.574204 2
-1.026721 0.127166 0.317772 2
-0.795104 0.625412 1.123500 2
-0.779990 0.641047 1.129994 2
-0.524863 0.317155 0.734046 2
-0.847408 0.594607 1.056019 2
-0.445960 0.342078 0.833250 2
-1.108519 0.462479 0.769293 2
-0.412910 0.534700 1.229486 2
-1.475915 0.021995 0.179184 2
-0.922372 0.560982 0.956589 2
-1.104456 0.086483 0.275546 2
-0.433260 0.346119 0.848824 2
-1.430286 0.327467 0.534610 2
-1.019736 0.514091 0.849716 2
-1.208225 0.419191 0.683362 2
-1.396501 0.021918 0.178602 2
-1.051465 0.499652 0.817810 2
-1.152685 0.441588 0.730130 2
-0.488282 0.333387 0.761915 2
-0.401608 0.528934 1.229897 2
-1.469323 0.015062 0.165193 2
-0.695370 0.247870 0.570292 2
-1.471372 0.124923 0.283513 2
-0.548036 0.309261 0.704801 2
-0.543191 0.311198 0.709538 2
-0.390143 0.367317 0.879631 2
-1.198628 0.414933 0.694434 2
-0.601336 0.618699 1.227834 2
-1.456150 0.246828 0.424666 2
-0.878086 0.578955 1.015740 2
-0.749678 0.650906 1.191919 2
-0.445358 0.349032 0.811381 2
-1.033397 0.122753 0.308314 2
-1.470825 0.126074 0.296444 2
-0.594565 0.289142 0.666310 2
-0.865897 0.584288 1.032176 2
-1.388721 0.009687 0.177367 2
-1.309866 0.366551 0.610836 2
-0.793690 0.624799 1.128143 2
-1.245215 0.047103 0.218542 2
-0.858714 0.596657 1.029675 2
-1.245990 0.398149 0.655622 2
-0.787057 0.213509 0.470861 2
-0.431328 0.347597 0.848702 2
-1.315325 0.381533 0.602991 2
-0.799883 0.622664 1.117286 2
-1.447281 0.294721 0.485096 2
-0.756065 0.648350 1.178542 2
-0.893990 0.576421 0.988864 2
-1.381030 0.026419 0.183295 2
-0.625584 0.277032 0.634821 2
-0.322633 0.385140 0.970480 2
-1.108417 0.099016 0.271072 2
-0.407319 0.358656 0.868270 2
-1.468515 0.150177 0.319935 2
-1.285509 0.384619 0.625774 2
-0.376084 0.521846 1.228180 2
-0.351952 0.374178 0.934941 2
-1.476090 0.019064 0.172869 2
-1.297109 0.382846 0.617024 2
-1.288087 0.382419 0.624185 2
-0.190852 0.420536 1.152693 2
-0.276670 0.400461 1.032031 2
-1.091638 0.086233 0.278662 2
-1.448501 0.286605 0.485339 2
-1.061368 0.482463 0.815294 2
-1.405043 0.029334 0.177614 2
-0.243289 0.403663 1.097268 2
-1.399059 0.345637 0.551569 2
-1.009285 0.130043 0.319437 2
-1.409187 0.017294 0.175183 2
-1.299910 0.383592 0.614679 2
-1.474536 0.063670 0.226733 2
-1.442274 0.004891 0.168820 2
-0.364203 0.376461 0.909344 2
-0.416188 0.353370 0.864508 2
-0.271951 0.396787 1.051796 2
-0.235650 0.458591 1.229546 2
-0.302417 0.392974 0.994068 2
-0.348576 0.378970 0.935617 2
-0.316171 0.491433 1.230291 2
-0.587387 0.294683 0.657335 2
-1.475314 0.041626 0.199725 2
-0.490873 0.331714 0.762787 2
-1.316163 0.032836 0.198187 2
-1.268266 0.388168 0.639300 2
-1.474048 0.070764 0.244484 2
-1.465535 0.175650 0.361829 2
-0.871586 0.589892 1.013840 2
-0.883847 0.580637 1.002651 2
-0.206873 0.416241 1.137799 2
-0.684551 0.255362 0.563439 2
-1.200898 0.054908 0.232642 2
-1.473041 0.098387 0.270542 2
-1.312780 0.368675 0.608084 2
-0.608588 0.284970 0.646094 2
-0.234106 0.408199 1.105963 2
-1.290613 0.039408 0.205807 2
-0.894422 0.569519 0.996343 2
-0.837252 0.602805 1.065306 2
-1.292390 0.045020 0.205582 2
-1.196451 0.424085 0.692985 2
-0.429612 0.354730 0.829431 2
-0.363831 0.514736 1.229008 2
-0.406658 0.357581 0.872792 2
-0.505198 0.580279 1.226580 2
-1.463820 0.022491 0.166855 2
-1.468868 0.142902 0.322705 2
-0.685324 0.659783 1.224626 2
-0.267017 0.403202 1.040353 2
-0.693418 0.653621 1.230069 2
-0.502168 0.322228 0.770004 2
-1.042546 0.122033 0.309552 2
-1.316534 0.367728 0.605444 2
-0.212920 0.452136 1.228410 2
-0.606209 0.281203 0.665293 2
-1.296656 0.039267 0.204606 2
-1.131741 0.079704 0.263114 2
-1.473073 0.094140 0.247630 2
-1.447703 0.021005 0.169227 2
-0.820160 0.613128 1.086139 2
-1.028575 0.103822 0.308919 2
-0.677158 0.258251 0.573016 2
-1.195284 0.070538 0.236673 2
-0.613545 0.631901 1.223296 2
-0.919069 0.557490 0.966013 2
-0.664227 0.260949 0.599134 2
-0.646471 0.646355 1.222922 2
-0.546980 0.304921 0.723854 2
-0.831296 0.610938 1.065043 2
-1.301965 0.047598 0.200741 2
-0.775213 0.638403 1.148698 2
-0.559501 0.305810 0.685571 2
-0.621902 0.276974 0.643844 2
-1.461439 0.210243 0.398713 2
-1.342103 0.371136 0.585886 2
-0.265545 0.403494 1.043097 2
-0.237825 0.470536 1.225786 2
-1.016648 0.516780 0.852113 2
-1.238841 0.044854 0.218851 2
-1.392399 0.026357 0.181317 2
-1.241025 0.041055 0.215991 2
-1.314410 0.037687 0.200319 2
-1.033868 0.121429 0.305146 2
-0.404067 0.530025 1.229881 2
-1.449897 0.278776 0.479075 2
-0.244217 0.409963 1.067737 2
-0.986109 0.522831 0.890488 2
-0.708185 0.665704 1.226764 2
-0.925855 0.558733 0.953072 2
-0.198166 0.450391 1.227002 2
-0.770449 0.638715 1.160938 2
-1.474571 0.061138 0.211627 2
-0.843234 0.601968 1.053855 2
-0.611472 0.284248 0.640633 2
-1.294188 0.046201 0.206089 2
-0.366526 0.375065 0.908391 2
-0.506473 0.326432 0.742124 2
-1.464173 0.189298 0.358237 2
-1.222334 0.061965 0.227851 2
-0.464947 0.556784 1.229584 2
-0.637059 0.274338 0.612936 2
-1.042541 0.503986 0.826489 2
-0.285147 0.397320 1.020748 2
-0.394867 0.534145 1.226296 2
-0.872398 0.590477 1.011625 2
-0.547035 0.594976 1.228242 2
-1.458541 0.231801 0.411551 2
-0.267680 0.396987 1.060825 2
-1.315742 0.369953 0.605503 2
-1.141875 0.456308 0.735405 2
-0.618926 0.281104 0.634421 2
-1.473754 0.082248 0.254303 2
-1.451150 0.273326 0.469140 2
-0.349182 0.379636 0.932393 2
-0.328703 0.501070 1.228388 2
-0.562143 0.303660 0.690817 2
-1.246793 0.059634 0.216809 2
-1.453612 0.260651 0.450379 2
-1.457400 0.238083 0.422764 2
-0.233478 0.410277 1.097170 2
-0.782097 0.634130 1.139290 2
-0.302236 0.392384 0.996124 2
-1.391337 0.028109 0.182542 2
-1.193483 0.053499 0.233076 2
-1.004525 0.516297 0.868965 2
-1.108369 0.080869 0.271217 2
-0.288267 0.491888 1.225600 2
-1.242250 0.058193 0.221788 2
-0.401121 0.537954 1.225797 2
-0.563547 0.298396 0.707160 2
-0.712788 0.668610 1.226213 2
-1.017599 0.511403 0.854373 2
-0.823267 0.611534 1.081594 2
-0.404042 0.360280 0.870609 2
-0.406134 0.544086 1.224269 2
-0.539794 0.309739 0.724702 2
-0.470676 0.334187 0.803023 2
-1.459190 0.006726 0.166277 2
-0.589828 0.293417 0.657943 2
-1.404361 0.025035 0.178540 2
-0.399478 0.364935 0.865668 2
-0.962174 0.533658 0.918029 2
-0.170163 0.439965 1.226651 2
-0.639786 0.634687 1.227979 2
-0.206660 0.457829 1.225747 2
-0.467119 0.329754 0.797951 2
-0.354254 0.379532 0.921816 2
-0.705965 0.669767 1.223902 2
-1.214911 0.412641 0.679173 2
-1.109585 0.083985 0.272238 2
-1.196391 0.067595 0.236794 2
-1.457707 0.023834 0.166596 2
-1.379250 0.349244 0.563684 2
-1.460864 0.215800 0.398367 2
-1.447470 0.294455 0.480779 2
-1.412049 0.340435 0.544184 2
-1.227851 0.048142 0.222635 2
-1.151977 0.079365 0.255142 2
-0.643451 0.646560 1.222285 2
-0.228065 0.411094 1.109879 2
-1.214431 0.423889 0.676629 2
-0.996663 0.523347 0.874799 2
-0.732546 0.666592 1.201929 2
-1.472021 0.110042 0.288255 2
-0.294659 0.393980 1.008669 2
-0.181555 0.423082 1.162825 2
-0.250291 0.408211 1.059923 2
-0.452014 0.346612 0.803800 2
-0.502185 0.325662 0.758478 2
-1.455960 0.243576 0.445018 2
-1.052023 0.118200 0.302555 2
-0.267683 0.486289 1.224593 2
-1.289105 0.045372 0.206660 2
-0.288373 0.485173 1.227783 2
-1.474763 0.056438 0.204083 2
-0.966317 0.145129 0.344687 2
-0.717650 0.664464 1.229761 2
-1.040153 0.499691 0.831927 2
-0.638239 0.271408 0.624404 2
-1.321257 0.043086 0.195518 2
-0.462704 0.556514 1.229276 2
-1.226780 0.402216 0.671503 2
-1.060804 0.480989 0.816846 2
-0.389014 0.368487 0.878186 2
-0.931754 0.157360 0.365426 2
-1.285256 0.376783 0.628005 2
-1.465387 0.178093 0.353589 2
-0.736014 0.660114 1.210265 2
-1.440893 0.315787 0.529667 2
-0.180152 0.420616 1.196828 2
-1.198789 0.427947 0.689492 2
-0.456522 0.562576 1.225257 2
-1.160182 0.064669 0.247604 2
-0.679389 0.658892 1.223701 2
-0.474365 0.574512 1.223294 2
-0.455201 0.343046 0.809580 2
-1.282370 0.388460 0.627479 2
-0.415664 0.541610 1.226932 2
-0.515549 0.318278 0.752606 2
-0.162315 0.426037 1.230111 2
-0.557674 0.305939 0.692115 2
-0.624758 0.276151 0.639935 2
-1.108976 0.097927 0.268688 2
-0.778247 0.216932 0.481465 2
-1.471381 0.121311 0.288959 2
-1.324360 0.038372 0.197054 2
-0.579855 0.297711 0.664864 2
-0.367524 0.524535 1.225596 2
-0.987377 0.529225 0.883617 2
-0.786292 0.629103 1.138803 2
-1.337433 0.354986 0.592575 2
-1.057332 0.494029 0.813690 2
-0.827097 0.605952 1.082280 2
-0.438951 0.548123 1.228478 2
-0.197161 0.454682 1.225503 2
-0.873968 0.582424 1.019135 2
-0.599413 0.622400 1.225251 2
-0.202677 0.448157 1.228330 2
-1.474843 0.052848 0.216331 2
-1.419485 0.013399 0.173200 2
-0.906051 0.569384 0.975410 2
-0.832592 0.610949 1.062252 2
-1.466654 0.017961 0.165758 2
-1.357317 0.352315 0.578220 2
-1.025713 0.498616 0.851958 2
-0.667825 0.650147 1.225910 2
-1.381903 0.339828 0.563592 2
-0.645389 0.268225 0.618533 2
-1.172535 0.074149 0.248161 2
-1.276177 0.048774 0.211737 2
-0.474872 0.566391 1.227197 2
-0.485840 0.326702 0.792105 2
-1.317917 0.038923 0.198690 2
-1.468438 0.144966 0.330684 2
-1.464695 0.183593 0.372095 2
-0.321221 0.389186 0.964794 2
-0.763226 0.650594 1.153188 2
-0.685972 0.253532 0.573017 2
-0.520435 0.316393 0.747564 2
-0.384219 0.536377 1.223717 2
-1.440414 0.008899 0.169420 2
-0.479104 0.564994 1.228629 2
-1.444205 0.306354 0.516495 2
-1.288041 0.050827 0.201996 2
-0.848754 0.601735 1.042544 2
-0.442955 0.349083 0.817550 2
-0.454311 0.342120 0.815006 2
-1.469704 0.135533 0.311729 2
-0.182534 0.434570 1.230106 2
-0.523427 0.590844 1.224993 2
-1.464596 0.185226 0.360407 2
-0.386293 0.360409 0.895840 2
-0.164995 0.427168 1.185797 2
-0.311583 0.502194 1.225375 2
-0.494160 0.330733 0.757801 2
-0.614863 0.626673 1.226540 2
-0.330968 0.381342 0.962341 2
-1.225236 0.419525 0.668148 2
-0.591964 0.614985 1.227694 2
-0.169328 0.425457 1.184141 2
-1.475069 0.041833 0.209043 2
-1.473822 0.079497 0.241247 2
-0.629429 0.277321 0.621098 2
-0.389846 0.529749 1.227286 2
-1.170439 0.062511 0.243872 2
-1.220760 0.421005 0.671746 2
-1.188182 0.419631 0.702952 2
-0.590414 0.292564 0.661947 2
-0.642574 0.272487 0.601623 2
-0.798099 0.627561 1.111999 2
-0.555626 0.606830 1.223795 2
-0.538839 0.596541 1.225406 2
-0.385877 0.364292 0.897988 2
-0.353116 0.520143 1.225104 2
-0.330990 0.382325 0.959525 2
-0.508850 0.325247 0.741363 2
-0.340631 0.376400 0.954421 2
-1.033114 0.495225 0.844296 2
-0.756618 0.646892 1.180763 2
-0.244098 0.469303 1.227008 2
-0.203805 0.416669 1.145471 2
-1.305428 0.046888 0.200490 2
-0.291197 0.488716 1.227009 2
-0.299557 0.392301 1.002373 2
-0.601261 0.287669 0.654483 2
-0.246701 0.463928 1.229279 2
-0.558576 0.602016 1.227044 2
-1.449395 0.281022 0.482881 2
-0.494524 0.577457 1.225635 2
-0.196473 0.417233 1.168766 2
-0.597290 0.619980 1.226123 2
-1.204708 0.415869 0.688029 2
-0.213588 0.415146 1.122066 2
-0.700196 0.662626 1.226594 2
-1.439156 0.331032 0.528636 2
-0.447815 0.560717 1.224493 2
-0.852917 0.600239 1.036329 2
-0.368461 0.522427 1.226476 2
-1.413667 0.026998 0.177950 2
-0.757219 0.648075 1.175905 2
-0.156491 0.439491 1.225009 2
-1.166356 0.438777 0.717227 2
-1.457310 0.235937 0.432164 2
-0.419809 0.352613 0.858927 2
-0.391495 0.533918 1.225759 2
-0.675639 0.258424 0.578900 2
-0.642545 0.272208 0.606932 2
-0.479246 0.567004 1.227760 2
-1.141367 0.454366 0.736792 2
-0.824106 0.609625 1.082938 2
-0.621525 0.275604 0.648607 2
-0.243980 0.407726 1.083302 2
-0.698252 0.666544 1.223882 2
-1.401890 0.333256 0.551401 2
-1.467356 0.158848 0.338943 2
-0.623604 0.634502 1.224174 2
-1.216293 0.058237 0.231169 2
-0.719485 0.673470 1.224148 2
-0.240373 0.404632 1.101185 2
-1.416394 0.005511 0.172508 2
-0.430929 0.552278 1.225110 2
-0.426751 0.542661 1.228582 2
-1.467807 0.155557 0.332113 2
-0.811098 0.614781 1.104597 2
-0.344799 0.519576 1.223954 2
-1.465843 0.173106 0.357552 2
-1.093441 0.105615 0.283367 2
-1.300846 0.038329 0.203228 2
-0.736487 0.234092 0.513666 2
-0.480362 0.336044 0.772375 2
-0.422519 0.355821 0.842700 2
-1.465376 0.177491 0.363307 2
-0.212247 0.463207 1.224698 2
-0.188596 0.420106 1.168427 2
-0.860757 0.591422 1.032748 2
-1.167914 0.439058 0.715557 2
-0.564599 0.298457 0.704725 2
-0.310545 0.384611 0.999239 2
-0.427735 0.551776 1.224774 2
-0.529405 0.310867 0.744382 2
-0.268830 0.396940 1.058372 2
-1.468620 0.002354 0.165038 2
-0.731197 0.668511 1.200715 2
-1.448812 0.287495 0.475876 2
-0.392476 0.362431 0.889208 2
-1.305257 0.371436 0.613165 2
-1.441327 0.322280 0.523670 2
-0.596844 0.285807 0.672089 2
-1.222205 0.417782 0.671293 2
-1.235274 0.056725 0.224209 2
-0.463762 0.334884 0.815838 2
-1.112562 0.078039 0.268026 2
-1.323060 0.372575 0.599258 2
-0.883661 0.577651 1.006870 2
-0.416298 0.548585 1.224137 2
-1.420519 0.011337 0.172879 2
-0.965260 0.542702 0.905560 2
-0.710850 0.243646 0.548430 2
-1.473062 0.097567 0.267805 2
-1.183388 0.426223 0.705110 2
-1.058015 0.489412 0.815474 2
-0.525991 0.589976 1.226057 2
-1.458938 0.225908 0.418716 2
-0.847422 0.600277 1.047606 2
-1.326963 0.025536 0.192517 2
-0.857222 0.597746 1.031165 2
-0.772765 0.641737 1.147663 2
-0.563236 0.297313 0.710953 2
-0.542759 0.591966 1.228767 2
-1.152831 0.067693 0.251123 2
-0.212935 0.414688 1.130763 2
-1.298239 0.384339 0.615843 2
-0.899683 0.569358 0.986718 2
-0.684025 0.661403 1.223385 2
-1.140647 0.078914 0.260185 2
-0.922803 0.557074 0.960128 2
-1.019783 0.126357 0.313316 2
-0.901676 0.572756 0.979263 2
-0.482885 0.335499 0.767433 2
-0.756325 0.652494 1.167530 2
-1.289668 0.031703 0.202036 2
-1.462450 0.010286 0.165945 2
-0.976622 0.142167 0.340376 2
-1.068251 0.491542 0.801585 2
-1.472405 0.110148 0.271788 2
-0.252019 0.401670 1.083108 2
-0.294235 0.392993 1.012387 2
-1.167472 0.432425 0.718465 2
-1.452916 0.263348 0.461416 2
-1.256652 0.041246 0.213241 2
-1.248558 0.056656 0.221269 2
-1.373385 0.349513 0.567615 2
-0.456029 0.337538 0.824760 2
-1.443238 0.314876 0.503978 2
-0.196835 0.418082 1.157806 2
-1.314522 0.364444 0.607789 2
-1.459683 0.220271 0.415209 2
-0.573210 0.606740 1.227879 2
-1.372978 0.034586 0.182571 2
-1.447734 0.287956 0.496856 2
-0.225263 0.458220 1.228086 2
-1.030449 0.501216 0.843900 2
-0.473947 0.337564 0.783596 2
-0.166510 0.424546 1.207924 2
-0.315499 0.383346 0.991656 2
-0.220869 0.412378 1.124577 2
-0.426745 0.352018 0.845769 2
-1.204765 0.068669 0.232300 2
-0.329191 0.508651 1.225627 2
-1.468992 0.145920 0.314650 2
-1.280547 0.048054 0.210295 2
-0.943906 0.546767 0.934774 2
-0.246429 0.469487 1.227260 2
-0.822076 0.613357 1.081231 2
-0.327714 0.383818 0.962723 2
-0.510617 0.317203 0.766388 2
-1.118138 0.454037 0.762353 2
-1.472514 0.106757 0.263006 2
-1.333852 0.028411 0.192555 2
-0.432944 0.556566 1.223666 2
-1.445853 0.299837 0.501650 2
-0.702062 0.247055 0.557485 2
-0.608802 0.616819 1.230308 2
-1.253761 0.402324 0.647586 2
-1.224649 0.050721 0.225083 2
-0.898388 0.575609 0.981918 2
-1.444741 0.306965 0.499074 2
-0.744514 0.654572 1.198337 2
-0.843384 0.597849 1.059793 2
-0.346748 0.520625 1.223851 2
-0.841298 0.600344 1.060591 2
-1.137287 0.069503 0.255948 2
-1.382183 0.343977 0.562649 2
-0.478159 0.570310 1.225804 2
-0.467523 0.335919 0.804785 2
-1.472862 0.102068 0.273211 2
-1.186310 0.429785 0.700803 2
-1.249620 0.058972 0.216044 2
-0.340976 0.513201 1.225723 2
-1.248444 0.405295 0.651302 2
-1.091345 0.102996 0.276207 2
-0.721195 0.674618 1.214754 2
-1.469650 0.011900 0.165093 2
-0.232976 0.461013 1.228212 2
-1.097346 0.101796 0.274854 2
-1.476139 0.025099 0.170314 2
-1.003469 0.515090 0.871445 2
-0.270951 0.398721 1.048717 2
-0.306681 0.386329 1.003105 2
-1.280257 0.051302 0.209894 2
-0.599067 0.284908 0.669915 2
-0.890742 0.575635 0.996030 2
-1.414393 0.020987 0.175144 2
-0.717483 0.674802 1.223805 2
-0.723549 0.673354 1.211010 2
-1.328158 0.358770 0.598745 2
-1.288952 0.043082 0.207237 2
-1.262127 0.050563 0.215980 2
-1.378424 0.029734 0.185613 2
-1.124536 0.459883 0.752579 2
-0.368362 0.527222 1.224816 2
-0.181383 0.449949 1.224927 2
-0.949330 0.547414 0.925665 2
-0.218014 0.414795 1.109525 2
-0.692189 0.252254 0.555619 2
-0.333267 0.505664 1.227221 2
-0.344654 0.380818 0.938693 2
-0.606780 0.285716 0.647731 2
-1.473724 0.081709 0.243950 2
-1.473381 0.090863 0.262120 2
-0.565937 0.610422 1.224097 2
-0.474065 0.569615 1.225355 2
-0.605056 0.285579 0.653484 2
-1.317666 0.380220 0.601516 2
-1.199915 0.066259 0.235151 2
-1.338862 0.357001 0.590986 2
-0.714702 0.242943 0.538885 2
-0.632404 0.642156 1.222224 2
-0.248401 0.406450 1.079733 2
-0.992461 0.137246 0.332740 2
-1.401715 0.330226 0.551897 2
-1.246901 0.060042 0.214534 2
-0.396943 0.362448 0.879578 2
-1.385587 0.349216 0.559460 2
-0.705679 0.673034 1.221963 2
-1.397395 0.030075 0.179830 2
-0.471035 0.565792 1.226612 2
-0.155790 0.429030 1.200134 2
-0.520085 0.319171 0.738252 2
-1.220552 0.408254 0.675304 2
-0.597103 0.289849 0.655671 2
-0.317088 0.386980 0.977832 2
-0.213052 0.414457 1.132881 2
-1.441856 0.012167 0.169422 2
-0.162824 0.427004 1.192841 2
-0.626600 0.278965 0.617431 2
-1.357423 0.036310 0.188697 2
-1.473118 0.093965 0.251704 2
-1.125191 0.081890 0.266542 2
-1.475056 0.039803 0.209758 2
-0.436687 0.350236 0.828510 2
-1.278798 0.390555 0.629869 2
-0.999538 0.133456 0.325099 2
-0.508022 0.324768 0.746513 2
-1.145270 0.452816 0.733258 2
-0.759826 0.651232 1.160763 2
-1.464278 0.188194 0.360908 2
-1.119921 0.095309 0.265233 2
-0.171988 0.432274 1.229380 2
-1.461810 0.210442 0.382444 2
-0.245863 0.409496 1.065598 2
-0.906665 0.572190 0.971281 2
-0.894036 0.572955 0.993031 2
-1.206140 0.050227 0.228310 2
-1.094775 0.089532 0.280468 2
-0.453650 0.551769 1.229662 2
-0.440280 0.346671 0.832176 2
-0.552038 0.597080 1.228261 2
-1.269862 0.387650 0.638070 2
-1.476261 0.015076 0.166866 2
-1.301941 0.047813 0.198601 2
-0.215503 0.414728 1.119002 2
-0.517898 0.320650 0.737701 2
-0.587986 0.292431 0.670050 2
-0.298728 0.392207 1.004498 2
-1.464887 0.182520 0.359856 2
-0.552931 0.304074 0.713275 2
-0.620826 0.279738 0.635951 2
-0.592946 0.618465 1.225940 2
-1.362398 0.031187 0.187632 2
-1.409106 0.343782 0.545579 2
-1.035484 0.504608 0.834953 2
-0.308684 0.387069 0.996533 2
-0.572437 0.300849 0.669827 2
-1.105329 0.462160 0.773145 2
-0.589593 0.620726 1.223865 2
-0.520729 0.316781 0.745482 2
-0.645353 0.269535 0.613784 2
-0.773158 0.640228 1.150275 2
-1.179343 0.068902 0.246165 2
-0.602919 0.285250 0.660070 2
-1.147560 0.446815 0.733388 2
-1.470799 0.127739 0.294826 2
-1.250407 0.039562 0.213415 2
-1.017927 0.503373 0.859370 2
-0.575216 0.296243 0.687563 2
-0.645671 0.266538 0.622992 2
-1.108809 0.100661 0.275470 2
-0.194535 0.419581 1.148830 2
-1.184917 0.071774 0.243075 2
-1.215680 0.062735 0.232904 2
-0.278530 0.476546 1.229735 2
-0.208063 0.417406 1.122733 2
-0.687186 0.661454 1.224120 2
-0.482980 0.569098 1.227540 2
-0.626642 0.628593 1.228289 2
-0.354808 0.371381 0.936516 2
-0.602886 0.282518 0.668623 2
-1.139051 0.447076 0.742442 2
-0.542974 0.312522 0.700991 2
-0.284789 0.491826 1.225164 2
-0.600970 0.289443 0.640304 2
-0.723466 0.669354 1.223828 2
-1.453676 0.258114 0.460646 2
-1.066088 0.112738 0.292907 2
-0.620907 0.632496 1.224670 2
-1.365026 0.346302 0.573872 2
-1.453127 0.263763 0.452669 2
-0.481233 0.333837 0.779764 2
-0.807260 0.618363 1.107405 2
-0.175045 0.438776 1.227676 2
-0.423209 0.539891 1.229140 2
-0.802395 0.628719 1.099735 2
-0.542681 0.306209 0.729356 2
-1.179562 0.073632 0.243950 2
-0.513077 0.322494 0.742782 2
-1.060497 0.113749 0.293788 2
-1.469581 0.138368 0.310946 2
-0.403234 0.535667 1.227205 2
-1.469909 0.132866 0.310211 2
-0.535873 0.315214 0.709346 2
-1.356326 0.354506 0.578528 2
-1.032653 0.501694 0.840627 2
-1.455178 0.251833 0.436119 2
-0.674228 0.257681 0.586719 2
-0.157574 0.426469 1.229335 2
-1.175615 0.430812 0.711016 2
-0.513054 0.318563 0.757237 2
-1.362802 0.344961 0.575639 2
-1.124728 0.095562 0.267377 2
-0.383350 0.362806 0.895435 2
-0.870255 0.590658 1.015369 2
-0.668934 0.654026 1.223958 2
-1.362571 0.355501 0.573966 2
-0.303652 0.389394 1.001322 2
-0.265442 0.403113 1.048250 2
-1.307389 0.044779 0.201903 2
-1.446717 0.293631 0.501488 2
-0.561302 0.302155 0.699982 2
-0.526739 0.314849 0.737910 2
-1.028450 0.498968 0.848084 2
-1.247099 0.051365 0.219690 2
-1.340775 0.028908 0.191648 2
-0.511548 0.317943 0.762257 2
-0.172649 0.438966 1.227295 2
-0.935549 0.554800 0.940745 2
-1.420491 0.334643 0.539694 2
-1.184494 0.069664 0.241511 2
-0.390734 0.367727 0.876753 2
-0.410392 0.355409 0.871052 2
-0.967603 0.539249 0.904795 2
-1.460208 0.220250 0.402753 2
-0.560527 0.299242 0.711193 2
-0.682515 0.256206 0.563872 2
-1.056517 0.094404 0.294224 2
-0.652951 0.267881 0.598126 2
-0.498506 0.582360 1.224172 2
-1.027290 0.124027 0.309702 2
-0.559193 0.596600 1.229842 2
-0.387503 0.537315 1.223891 2
-1.001727 0.133669 0.326366 2
-0.403040 0.359326 0.875512 2
-1.435661 0.004757 0.169845 2
-1.320515 0.362782 0.603610 2
-1.154328 0.441783 0.728275 2
-1.305013 0.382891 0.610814 2
-1.053975 0.489931 0.820226 2
-0.776160 0.638168 1.146640 2
-1.133206 0.092131 0.261158 2
-0.804288 0.625405 1.101194 2
-0.974435 0.143493 0.343197 2
-0.428566 0.547574 1.226739 2
-0.650985 0.648263 1.222917 2
-1.339689 0.366586 0.588234 2
-0.326150 0.501116 1.227883 2
-0.307479 0.388775 0.994459 2
-0.775208 0.218364 0.482051 2
-1.346097 0.355860 0.585729 2
-0.460616 0.568687 1.223363 2
-1.013740 0.505100 0.864086 2
-0.952918 0.150419 0.354226 2
-0.574662 0.299019 0.676333 2
-1.475656 0.025627 0.188623 2
-0.343151 0.377732 0.944885 2
-1.368981 0.022988 0.183930 2
-1.266659 0.053875 0.213053 2
-1.473972 0.075468 0.233139 2
-1.071603 0.486257 0.800348 2
-0.297485 0.393851 1.002685 2
-0.154464 0.427261 1.228661 2
-0.252290 0.405686 1.072571 2
-0.321717 0.496062 1.229287 2
-0.159350 0.427364 1.203762 2
-0.305907 0.388484 0.998806 2
-0.507649 0.326265 0.738941 2
-0.295340 0.395215 1.003681 2
-0.765296 0.649444 1.150266 2
-1.094549 0.464472 0.784472 2
-0.617005 0.620752 1.230122 2
-1.442808 0.312915 0.526247 2
-0.494878 0.568025 1.230292 2
-1.099699 0.083162 0.274947 2
-1.475896 0.029933 0.178978 2
-0.961881 0.541676 0.911332 2
-1.288468 0.392735 0.621852 2
-0.682745 0.256040 0.560774 2
-0.330718 0.507144 1.226316 2
-1.044519 0.489723 0.832654 2
-0.556021 0.306970 0.691088 2
-0.759269 0.224828 0.497464 2
-1.473797 0.081164 0.248854 2
-1.197718 0.060891 0.237015 2
-1.413780 0.016420 0.174362 2
-0.530714 0.588562 1.227984 2
-0.810224 0.622890 1.091865 2
-0.788652 0.212508 0.472307 2
-1.474878 0.049760 0.215377 2
-0.458624 0.339887 0.812415 2
-0.534753 0.313850 0.721493 2
-1.006440 0.521469 0.862807 2
-0.574538 0.296031 0.689945 2
-1.420759 0.330759 0.540044 2
-1.248812 0.395205 0.654069 2
-0.393144 0.364791 0.880962 2
-0.613972 0.634250 1.222355 2
-0.244797 0.407732 1.079932 2
-0.411468 0.545518 1.224589 2
-0.641465 0.271204 0.617076 2
-0.981697 0.529880 0.891360 2
-0.515746 0.319271 0.748604 2
-1.020193 0.501756 0.857295 2
-0.183066 0.448478 1.225631 2
-1.432730 0.322584 0.533774 2
-0.236156 0.410950 1.081937 2
-0.943670 0.543946 0.937789 2
-1.424784 0.323677 0.538534 2
-0.726484 0.668875 1.215147 2
-0.535860 0.308112 0.738491 2
-0.943066 0.542013 0.940696 2
-0.236188 0.410147 1.086785 2
-0.701225 0.246976 0.559899 2
-0.939267 0.545650 0.943545 2
-1.018853 0.512748 0.851794 2
-0.469423 0.328776 0.795562 2
-0.788174 0.630785 1.130058 2
-0.637887 0.269497 0.631146 2
-0.609947 0.282337 0.653537 2
-0.884293 0.578512 1.004601 2
-0.744624 0.229007 0.519110 2
-1.434809 0.024245 0.172821 2
-1.022507 0.506751 0.850838 2
-1.464682 0.184227 0.364746 2
-1.406276 0.339099 0.547934 2
-0.397108 0.356025 0.883666 2
-0.441341 0.349842 0.818732 2
-1.192866 0.063898 0.239196 2
-0.860169 0.595614 1.028197 2
-1.332108 0.368161 0.593416 2
-1.474357 0.066084 0.233275 2
-1.445623 0.302566 0.494957 2
-1.288096 0.050166 0.204536 2
-0.982077 0.521572 0.897362 2
-0.156424 0.427576 1.214175 2
-1.147259 0.449243 0.732661 2
-0.695979 0.654260 1.230274 2
-1.327943 0.367863 0.596677 2
-1.378314 0.022641 0.182118 2
-1.098328 0.085114 0.276044 2
-0.484388 0.326860 0.794765 2
-1.175034 0.062526 0.242932 2
-0.918748 0.563805 0.959718 2
-0.266362 0.402204 1.050077 2
-1.437273 0.025162 0.172845 2
-0.673460 0.256062 0.593632 2
-0.690423 0.652871 1.229813 2
-1.439649 0.016700 0.170118 2
-1.458797 0.230935 0.406026 2
-0.671041 0.653625 1.224697 2
-1.069306 0.477312 0.808368 2
-0.835187 0.605199 1.065895 2
-1.475596 0.037890 0.182899 2
-0.339592 0.379270 0.948604 2
-0.298335 0.396158 0.993566 2
-0.996649 0.526995 0.872386 2
-1.226328 0.411031 0.669370 2
-0.404893 0.352840 0.874993 2
-0.422125 0.352251 0.855004 2
-1.229849 0.403868 0.668089 2
-0.349167 0.376022 0.935925 2
-1.373954 0.031523 0.185381 2
-0.687823 0.252999 0.570251 2
-1.465291 0.178804 0.357904 2
-1.455321 0.250438 0.438106 2
-1.037390 0.505821 0.831879 2
-0.819278 0.617014 1.081362 2
-1.317583 0.034191 0.198752 2
-0.931835 0.552878 0.949005 2
-1.372868 0.013786 0.180842 2
-0.536362 0.309790 0.732573 2
-1.034294 0.496483 0.841920 2
-0.376599 0.364548 0.906117 2
-0.463704 0.342579 0.789312 2
-1.462958 0.200195 0.370213 2
-1.442466 0.315183 0.525562 2
-1.461105 0.213175 0.399255 2
-0.947238 0.152329 0.357359 2
-0.255993 0.478357 1.225678 2
-0.287706 0.394545 1.022697 2
-0.875468 0.581481 1.017517 2
-0.738513 0.232564 0.521482 2
-1.425571 0.004573 0.171041 2
-1.003283 0.132082 0.322767 2
-1.094725 0.103108 0.277269 2
-0.931774 0.549286 0.952619 2
-0.902846 0.567239 0.983335 2
-0.419396 0.357926 0.842726 2
-1.292865 0.373701 0.622329 2
-1.297151 0.048517 0.201777 2
-1.101615 0.102916 0.278992 2
-1.448464 0.289805 0.474586 2
-0.157833 0.427985 1.202277 2
-0.745142 0.654784 1.195733 2
-1.045353 0.118941 0.302307 2
-0.454867 0.560890 1.225707 2
-1.469239 0.140103 0.317195 2
-1.217236 0.416560 0.676028 2
-1.201851 0.428768 0.686557 2
-0.583704 0.294599 0.672106 2
-0.790207 0.632924 1.120644 2
-1.461916 0.207531 0.394197 2
-1.452796 0.263037 0.464648 2
-0.564068 0.302561 0.690693 2
-1.283627 0.377948 0.629065 2
-0.972619 0.526319 0.908005 2
-0.579397 0.611539 1.226628 2
-0.316032 0.506404 1.224508 2
-1.473263 0.089984 0.243304 2
-1.052079 0.487277 0.824212 2
-1.258742 0.039688 0.211849 2
-1.061052 0.488582 0.812160 2
-1.465509 0.177139 0.349273 2
-1.470113 0.136176 0.296803 2
-1.189204 0.071187 0.241501 2
-0.881335 0.583410 1.003788 2
-0.242295 0.408643 1.079309 2
-0.806444 0.624994 1.096818 2
-1.461066 0.214745 0.396221 2
-1.370729 0.019082 0.182343 2
-0.369650 0.525410 1.225596 2
-0.662856 0.262693 0.595981 2
-1.085541 0.471722 0.791354 2
-1.472696 0.103133 0.261006 2
-1.021912 0.511847 0.848256 2
-1.454866 0.250654 0.453206 2
-0.438550 0.350921 0.821602 2
-0.634452 0.272673 0.629004 2
-1.176240 0.428227 0.711416 2
-1.196334 0.426611 0.692104 2
-0.222952 0.413553 1.102765 2
-1.354035 0.355377 0.580010 2
-0.833928 0.610039 1.060852 2
-1.444466 0.308164 0.501235 2
-0.493226 0.573777 1.227407 2
-0.498559 0.329688 0.749264 2
-1.239898 0.058752 0.221668 2
-1.307787 0.371514 0.611209 2
-1.153585 0.085695 0.251070 2
-1.174268 0.432784 0.711576 2
-0.472446 0.333759 0.800461 2
-1.475249 0.046262 0.195734 2
-1.470548 0.132301 0.291811 2
-0.223694 0.413817 1.100025 2
-0.422352 0.549408 1.224837 2
-0.186406 0.440587 1.228610 2
-1.257873 0.396719 0.645724 2
-0.869379 0.590008 1.017894 2
-0.229796 0.411994 1.092773 2
-1.322725 0.363251 0.601803 2
-1.005268 0.517312 0.867128 2
-1.227241 0.415927 0.667294 2
-1.339342 0.025230 0.190182 2
-0.904681 0.566376 0.981058 2
-0.843458 0.605765 1.047610 2
-0.450818 0.345746 0.810517 2
-1.243662 0.054680 0.220740 2
-1.210042 0.064146 0.232388 2
-1.462507 0.203942 0.381270 2
-1.096135 0.086955 0.278072 2
-0.801593 0.626131 1.106316 2
-1.064676 0.493424 0.804856 2
-1.471721 0.015496 0.164908 2
-0.746078 0.654482 1.193563 2
-0.352806 0.372661 0.937439 2
-0.462009 0.563584 1.225824 2
-0.257424 0.482585 1.224375 2
-1.456457 0.242673 0.435354 2
-1.130306 0.453847 0.748946 2
-0.450857 0.344266 0.815681 2
-0.881541 0.580343 1.007437 2
-1.021396 0.508922 0.850886 2
-1.348686 0.357940 0.583373 2
-0.214098 0.414695 1.125820 2
-1.220794 0.056787 0.229178 2
-0.830599 0.606350 1.073861 2
-0.889811 0.581635 0.990485 2
-1.476200 0.023619 0.168179 2
-1.079581 0.108266 0.285700 2
-1.261489 0.054858 0.214210 2
-0.842507 0.603874 1.052363 2
-0.593230 0.290632 0.663601 2
-1.197636 0.063648 0.237959 2
-0.578501 0.295752 0.681417 2
-1.191567 0.055278 0.234708 2
-0.527108 0.593728 1.224381 2
-0.468206 0.572071 1.223254 2
-1.474107 0.018049 0.164664 2
-0.366559 0.528505 1.223967 2
-1.464619 0.184574 0.370205 2
-1.231145 0.063358 0.220712 2
-1.471276 0.124968 0.286602 2
-0.372564 0.364740 0.915000 2
-1.265128 0.055022 0.210053 2
-1.232148 0.415678 0.662995 2
-0.376583 0.372313 0.894454 2
-0.174669 0.436719 1.228295 2
-0.503125 0.319824 0.774892 2
-0.553397 0.300994 0.721428 2
-0.909738 0.565486 0.973349 2
-0.236165 0.467032 1.226685 2
-0.815733 0.612650 1.097391 2
-0.239897 0.408187 1.094634 2
-0.242106 0.405262 1.095621 2
-1.468773 0.148022 0.313755 2
-1.458322 0.231012 0.420488 2
-0.505086 0.322813 0.761629 2
-1.074098 0.109462 0.287076 2
-0.184585 0.451067 1.225006 2
-0.970921 0.145126 0.346370 2
-0.189012 0.420563 1.160679 2
-1.298470 0.038568 0.203820 2
-0.435522 0.543313 1.229967 2
-0.780088 0.635061 1.142721 2
-0.846024 0.604985 1.043591 2
-1.296853 0.031791 0.200861 2
-0.430925 0.344207 0.839393 2
-0.634832 0.632228 1.228189 2
-1.475964 0.026260 0.176830 2
-0.281633 0.395210 1.034473 2
-1.310859 0.034500 0.200083 2
-1.298573 0.375546 0.617340 2
-0.760161 0.646578 1.171294 2
-0.389972 0.360066 0.888181 2
-0.196205 0.418048 1.160723 2
-0.685218 0.663571 1.222433 2
-0.917422 0.566126 0.959502 2
-0.215620 0.416417 1.109057 2
-0.260640 0.399102 1.070738 2
-1.220630 0.064986 0.227866 2
-1.149661 0.079312 0.258170 2
-0.612499 0.618720 1.230167 2
-0.561052 0.602092 1.227599 2
-1.460463 0.220614 0.395775 2
-1.403590 0.339949 0.549490 2
-0.572812 0.300262 0.674416 2
-0.820710 0.610014 1.090256 2
-0.609876 0.284559 0.644275 2
-1.467701 0.157396 0.329555 2
-0.431786 0.546613 1.227782 2
-0.971854 0.143424 0.342060 2
-0.738775 0.231867 0.523376 2
-1.291506 0.049305 0.205931 2
-1.004806 0.133757 0.327737 2
-0.503373 0.327303 0.747443 2
-1.334030 0.024932 0.190996 2
-0.548013 0.307266 0.713749 2
-0.558168 0.303082 0.704220 2
-0.402731 0.358130 0.879629 2
-1.473960 0.074421 0.247371 2
-1.291123 0.037108 0.204225 2
-0.913200 0.559549 0.973893 2
-0.280302 0.399463 1.026085 2
-1.142514 0.440999 0.741321 2
-0.802403 0.627360 1.101934 2
-0.307433 0.503431 1.224270 2
-0.397546 0.365595 0.867965 2
-0.550447 0.305184 0.715297 2
-1.227894 0.403656 0.669930 2
-0.897131 0.575761 0.983982 2
-0.515108 0.317822 0.754970 2
-1.109206 0.464252 0.767617 2
-0.150990 0.430758 1.227069 2
-0.427881 0.344698 0.845555 2
-1.456405 0.240911 0.441150 2
-1.430872 0.026558 0.171435 2
-1.009714 0.512462 0.864471 2
-1.319239 0.041142 0.200008 2
-0.537660 0.598335 1.224272 2
-0.236277 0.406289 1.105892 2
-1.259875 0.404006 0.642061 2
-1.389781 0.341240 0.557989 2
-0.997369 0.513226 0.881569 2
-1.475943 0.013436 0.179148 2
-1.299761 0.045766 0.204611 2
-1.455411 0.250498 0.434094 2
-1.102301 0.461441 0.777006 2
-1.440599 0.326896 0.522061 2
-1.153002 0.451008 0.726112 2
-0.773680 0.638759 1.152082 2
-0.789425 0.630006 1.128385 2
-0.404966 0.539997 1.225622 2
-0.773615 0.636785 1.156537 2
-1.233032 0.410665 0.663503 2
-0.728913 0.666485 1.214567 2
-0.247256 0.406690 1.081666 2
-0.487777 0.330241 0.776819 2
-0.521290 0.318862 0.736300 2
-1.113202 0.464924 0.762659 2
-0.912270 0.569197 0.964969 2
-0.357656 0.375472 0.926239 2
-1.101932 0.466854 0.774744 2
-0.163851 0.425333 1.209856 2
-0.735180 0.234129 0.523649 2
-0.997234 0.517174 0.878833 2
-0.199630 0.419161 1.135682 2
-0.599013 0.289630 0.649878 2
-0.743257 0.658166 1.192404 2
-1.233037 0.047874 0.221443 2
-1.253419 0.399179 0.648846 2
-0.762881 0.645853 1.165406 2
-1.045584 0.120683 0.306977 2
-1.099388 0.469203 0.776522 2
-0.312089 0.392221 0.975617 2
-1.186753 0.436121 0.698085 2
-0.568905 0.295906 0.702854 2
-0.690152 0.251480 0.570499 2
-1.144956 0.075791 0.256594 2
-0.479911 0.334172 0.781750 2
-1.452540 0.021723 0.168580 2
-0.377896 0.371042 0.895619 2
-0.475099 0.337889 0.778899 2
-1.474543 0.062344 0.215954 2
-0.882396 0.576959 1.010042 2
-0.532501 0.313645 0.728347 2
-1.306095 0.367677 0.613446 2
-1.331775 0.031453 0.194699 2
-0.209051 0.457167 1.226271 2
-1.473600 0.085154 0.251307 2
-0.371894 0.374082 0.899432 2
-0.702426 0.662772 1.227049 2
-0.483467 0.563230 1.230250 2
-1.454096 0.256942 0.451433 2
-1.452088 0.267280 0.467075 2
-1.237696 0.053683 0.223364 2
-0.471022 0.328279 0.793121 2
-1.466971 0.160974 0.345730 2
-1.448065 0.291714 0.476839 2
-0.518159 0.317706 0.748369 2
-0.261994 0.475870 1.227271 2
-0.425660 0.351447 0.849744 2
-0.880552 0.576842 1.013620 2
-1.100988 0.101636 0.275433 2
-0.634668 0.634275 1.226977 2
-1.475602 0.034082 0.189668 2
-0.862495 0.595391 1.023932 2
-1.443148 0.019639 0.169756 2
-1.448721 0.287426 0.478730 2
-0.623759 0.276135 0.642284 2
-0.617358 0.627174 1.226857 2
-0.251339 0.407039 1.061504 2
-1.444013 0.308811 0.511523 2
-1.313352 0.035966 0.199399 2
-0.958448 0.537335 0.920634 2
-0.145016 0.431279 1.216654 2
-0.516397 0.591049 1.223619 2
-0.728110 0.664279 1.224099 2
-0.769189 0.645780 1.147784 2
-1.444655 0.308047 0.496168 2
-1.128866 0.453366 0.750706 2
-1.441502 0.323207 0.513712 2
-1.155884 0.434539 0.729682 2
-1.444865 0.305795 0.501294 2
-0.401133 0.360110 0.877339 2
-1.046196 0.502242 0.822916 2
-1.258068 0.391019 0.647298 2
-0.981462 0.532578 0.889583 2
-1.193210 0.426767 0.695144 2
-0.529484 0.584965 1.229353 2
-0.613834 0.279600 0.653567 2
-0.249048 0.465178 1.229170 2
-1.467093 0.163111 0.329652 2
-1.068861 0.479253 0.807805 2
-1.447310 0.293979 0.487998 2
-1.271520 0.039821 0.209585 2
-0.832015 0.604254 1.074186 2
-0.707174 0.245716 0.548672 2
-1.465877 0.173877 0.344841 2
-0.161359 0.435289 1.226986 2
-1.021629 0.505766 0.852676 2
-0.989019 0.524280 0.885133 2
-1.150040 0.086661 0.252443 2
-1.364263 0.024311 0.185349 2
-1.076157 0.474422 0.801495 2
-0.176971 0.437915 1.228214 2
-0.321325 0.387552 0.966525 2
-0.605125 0.287241 0.643336 2
-1.464946 0.180008 0.370674 2
-0.431389 0.542969 1.229331 2
-0.445758 0.556341 1.226058 2
-0.794013 0.632482 1.112261 2
-0.536155 0.308614 0.736411 2
-1.381404 0.031716 0.184035 2
-1.237653 0.399693 0.662402 2
-1.145816 0.450462 0.733689 2
-1.081591 0.473956 0.794990 2
-0.741088 0.232163 0.515164 2
-0.566503 0.302900 0.679626 2
-0.272204 0.400083 1.042259 2
-0.326910 0.380511 0.973855 2
-0.751944 0.653900 1.176563 2
-0.623369 0.279552 0.628568 2
-0.488180 0.328987 0.780306 2
-1.349237 0.360508 0.582507 2
-0.628347 0.274014 0.638566 2
-0.733879 0.233162 0.530159 2
-0.481520 0.330063 0.791670 2
-0.535337 0.314081 0.718584 2
-0.201112 0.443553 1.229652 2
-0.545273 0.310457 0.707015 2
-0.223960 0.412604 1.109206 2
-0.466304 0.561283 1.227837 2
-0.973138 0.535869 0.899277 2
-0.361230 0.377620 0.912373 2
-0.360919 0.515591 1.228071 2
-0.468670 0.339679 0.788731 2
-0.671925 0.648114 1.228064 2
-1.361521 0.023961 0.185683 2
-0.638991 0.644451 1.222399 2
-1.442883 0.316538 0.506167 2
-0.584025 0.292104 0.681103 2
-0.682295 0.256260 0.566721 2
-1.449554 0.279297 0.484436 2
-1.472312 0.112695 0.277309 2
-1.125699 0.455316 0.753286 2
-1.473619 0.081945 0.233442 2
-1.249304 0.052333 0.219954 2
-0.847674 0.604080 1.041544 2
-1.329680 0.359615 0.597373 2
-1.455974 0.247607 0.427426 2
-1.265219 0.043913 0.213222 2
-0.220646 0.413460 1.112730 2
-0.980313 0.532079 0.891663 2
-1.270935 0.390224 0.636349 2
-0.980904 0.527160 0.894661 2
-1.356049 0.365692 0.577009 2
-0.260932 0.399774 1.068279 2
-0.455358 0.340698 0.817079 2
-1.116674 0.463346 0.759574 2
-0.640364 0.271192 0.620066 2
-1.475371 0.041302 0.197601 2
-1.032758 0.508496 0.836140 2
-0.648353 0.267342 0.614553 2
-1.342133 0.036464 0.192266 2
-0.516037 0.578263 1.229771 2
-0.656211 0.265690 0.600852 2
-0.635381 0.643395 1.222218 2
-0.710447 0.669831 1.224949 2
-1.143088 0.447335 0.737981 2
-1.396259 0.334362 0.554841 2
-0.503341 0.323405 0.763718 2
-1.475019 0.050704 0.197398 2
-0.272613 0.395557 1.053756 2
-0.261616 0.402748 1.058768 2
-0.450372 0.341932 0.824212 2
-0.716934 0.239384 0.548538 2
-1.116767 0.084154 0.270516 2
-0.325706 0.387933 0.958792 2
-0.291230 0.397954 1.003335 2
-0.372253 0.367348 0.907761 2
-0.753376 0.652824 1.175082 2
-1.453793 0.015104 0.167669 2
-0.433505 0.352559 0.827899 2
-1.466135 0.022676 0.166540 2
-1.180578 0.424348 0.708640 2
-0.511395 0.576201 1.229803 2
-1.259879 0.048897 0.216454 2
