-391.472457 189.051071 -110.787879
-332.506994 -87.589337 -523.346161
-119.897380 -258.696007 -184.520295
-37.881814 193.424241 -482.019071
-446.404046 -5.305646 -339.128809
-304.812493 126.702159 -424.131240
-328.201711 -121.195194 -15.143136
-229.486009 -191.535997 -260.730919
13.708834 79.503756 -317.632094
-214.752177 -71.806341 -40.998817
-394.504670 131.939329 -279.958812
-377.544793 -250.352614 -329.636151
-169.444578 70.973656 -292.031319
-209.245224 -205.067718 -568.356006
-213.056831 -105.085299 -490.947469
-150.537487 166.525045 -398.887439
-85.970464 -204.093496 -520.946916
-371.939937 89.560826 -102.647913
15.060138 190.549314 -364.995761
-248.611657 -131.969428 -55.995145
-302.587844 -160.520453 -187.524102
-40.955820 -242.117020 -435.834702
-15.585926 -124.227393 -75.660846
-340.194422 -205.763412 -105.974048
-109.103157 -233.560865 -214.617858
-18.992058 -246.262405 -41.823062
-169.277249 -251.878211 -286.417279
-204.348709 184.466482 -306.363828
-419.487329 -220.575179 -493.700550
-4.817134 -106.623336 -110.396592
-18.581454 -166.615946 -140.451279
-359.866841 74.719755 -340.394118
-388.297003 -232.430707 -568.243734
-93.166251 53.966757 -414.986528
-247.943477 -200.368699 -431.042577
-7.274444 -106.515328 -39.506057
-443.952752 -84.300349 -278.001013
-109.212742 -101.338553 -80.111521
-382.948282 -19.569578 -307.661258
-75.854931 14.457302 -448.531273
-325.505440 14.491300 -288.673710
-100.312891 190.001751 -240.991670
-307.076217 -260.811320 -128.517268
-127.701625 -183.216633 -436.869052
-202.684513 -190.025927 -292.647095
-74.567058 -178.907758 -333.664894
8.169175 180.401194 -331.859722
-364.081846 211.961831 -30.772486
-394.380844 -123.037171 -503.002821
-381.585533 21.718239 -68.717387
-344.550039 -113.021219 -225.662102
-407.514537 21.717341 -457.825014
-375.561834 -174.560220 -43.121063
-319.368584 -183.535265 -116.168840
-225.018827 -46.521582 -181.720280
-241.963889 32.336984 -25.757591
-441.765950 138.364438 -82.073968
-457.663982 158.230432 -446.477450
-451.517315 -154.567100 -29.719460
-185.669225 148.968793 -543.502583
-28.006305 157.713654 -50.086988
-446.438216 -110.794424 -273.705990
3.396830 -121.061569 -483.448764
-259.203193 -41.083396 -572.274573
-249.956960 175.728626 -225.803777
-233.607597 12.732106 -140.433308
-68.263457 57.463935 -483.199270
-419.013909 18.655668 -452.499317
-407.589444 51.255179 -504.209432
-131.951828 72.513097 -272.453226
-190.761278 184.775023 -452.656613
-268.474562 -26.124018 -288.161137
-74.851309 -5.050846 -548.028703
-108.905770 -88.299461 -533.001654
-374.827738 193.738171 -334.568226
-122.000862 122.497590 -286.419425
-209.224008 -157.715963 -103.360404
-145.569325 -66.113288 -40.034105
-437.304555 81.413791 -370.973786
-127.302243 209.411176 -544.810448
-390.106333 -16.573324 -42.119102
-115.398765 -113.279095 -289.854486
-437.397759 51.978374 -11.633458
-423.681875 -104.662539 -557.231731
-59.186242 82.476656 -457.337144
-400.376184 21.791142 -35.957219
-127.603287 75.015833 -184.432829
-40.465130 -185.161880 -269.773201
-134.046710 40.250254 -139.516055
-79.876186 73.535005 -530.849017
-65.416706 -45.393045 -352.760116
-258.417863 112.826362 -149.864883
-421.407422 194.043295 -254.643327
-271.804408 117.629062 -546.504771
-409.595059 186.056022 -256.374476
-62.981505 -104.483720 -438.358260
-333.653417 17.311384 -487.542865
-264.035419 71.404340 -542.147722
-188.530357 167.087213 -70.944951
-223.118224 177.272351 -205.497695
-297.565027 173.454934 -60.029374
-49.046362 116.481485 -551.226380
-81.751483 -152.953045 -253.400683
-327.154324 -179.566386 -304.350613
-170.541004 108.945703 -20.068570
-335.900063 -231.217906 -249.379680
-190.804079 -194.905906 -176.199507
-70.478183 207.514388 -531.875661
-273.686781 -92.762790 -427.512863
-88.029407 -32.664825 -550.756331
-67.292355 82.367303 -362.619800
-80.006769 97.815066 -57.370297
-89.989424 120.447563 -343.392607
-113.819735 165.876665 -14.068651
-251.869717 -218.531797 -565.170093
-221.461217 165.692514 -323.121300
-373.677164 99.655632 -435.230896
-221.458431 -207.316557 -516.607579
-207.983935 -31.094481 -19.416861
-142.931513 147.696892 -11.016110
-212.726117 -166.739854 -517.830841
-163.620741 -128.202031 -465.009031
-159.496279 5.209755 -294.019545
-26.382372 158.728649 -147.856969
11.527143 186.624784 -427.859936
-174.999720 52.871700 -325.515555
-370.057409 3.497221 -482.623589
-30.659623 -256.316347 -260.551273
-408.177473 -241.398265 -521.543287
-389.570800 82.378627 -378.313382
-186.462612 80.355837 -484.514477
-254.816542 53.735558 -508.587505
-229.066391 -132.539691 -262.236816
8.604853 -124.668481 -214.005594
-302.003499 143.407416 -93.409883
-428.831452 -79.167114 -308.102951
-308.757042 -139.082256 -330.364016
-422.279864 -235.645010 -126.551207
-105.463540 157.034313 -533.044609
-161.795967 -258.212774 -340.038257
-69.347912 6.121909 -400.849383
-184.880035 -75.479113 -374.413747
-207.820532 -131.804900 -76.702416
-6.759099 -72.639694 -510.547057
-335.861641 115.926439 -219.281384
-40.768800 25.443987 -174.233108
-282.903596 56.542858 -304.599632
-319.158617 -83.002256 -218.894821
-360.186679 97.799772 -503.791770
-430.316298 -244.400631 -339.385288
-138.627422 6.200566 -259.155834
-391.811845 138.050341 -542.088045
-295.088559 -206.323896 -193.105678
-406.387667 -147.914542 -66.199214
-168.474069 211.115540 -194.366283
-212.468125 -104.909344 -153.074960
6.188843 141.813466 -416.077347
-249.988206 14.787156 -503.957599
-234.032981 -48.490475 -330.843575
-376.935966 -31.021184 -207.619586
-298.989301 192.984989 -517.007344
-250.970944 -164.886587 -571.425697
-2.907606 -170.235392 -352.124790
-211.746705 97.132254 -290.449984
-328.375319 -23.491496 -535.498592
-207.744272 -220.248561 -387.059003
-120.200130 -149.334224 -85.294183
-112.145891 -129.528419 -36.282724
-398.585833 -206.915688 -480.794415
-153.473798 13.136126 -542.238635
-459.722760 -63.005657 -91.673794
-15.077679 115.587133 -521.230400
-68.815499 -7.081210 -559.477718
-404.603693 -50.490406 -123.017514
-12.454296 -110.745566 -93.099954
-392.755984 -225.201817 -514.995848
-109.809684 -169.631887 -370.303855
-450.234831 -125.895233 -557.991231
-61.830575 53.557703 -142.564580
-374.776386 57.853386 -450.467215
-237.079522 71.844193 -425.471274
-200.273596 -136.230107 -269.042156
-117.263939 168.933494 -561.517032
-192.219220 171.403759 -176.328868
-380.327366 180.995872 -185.464880
-244.203848 -232.692477 -517.219794
-405.115215 93.433066 -401.498761
3.053992 -126.028168 -20.724240
-315.178304 -153.670436 -218.058614
-201.949682 -220.613904 -444.816059
-326.931805 -106.999862 -363.878753
-403.850182 -31.390908 -408.846892
-74.862838 -101.144876 -30.331110
-21.284083 -13.495025 -141.172168
-133.660412 -260.163924 -399.613945
-266.076568 35.508267 -383.845383
-85.441770 180.513991 -161.684849
-443.645826 32.082269 -49.425013
-133.598454 -193.877687 -143.526369
-392.496247 31.508042 -484.545733
-80.066169 186.075574 -290.924840
-71.820906 184.436150 -338.003546
-216.284085 -224.602094 -354.019331
-311.700713 82.419243 -296.839423
-269.904489 -91.509255 -19.949182
-202.414770 -237.279620 -228.115618
-206.465484 164.884148 -190.136040
-17.776137 -47.309464 -108.970647
-455.231672 -188.906217 -347.086361
-430.073506 20.206107 -22.318634
-122.008443 -251.309578 -415.236723
-28.532530 -109.731113 -135.205252
-157.998719 -62.730830 -183.712346
-190.780345 -246.601757 -143.197213
-415.980823 138.739044 -469.362115
-127.272282 162.093497 -440.002012
-168.213588 -82.964634 -416.354801
-347.714661 175.915155 -393.287550
-88.363659 -223.575881 -406.808112
-189.235252 133.250379 -57.198718
-433.480443 159.975562 -330.170407
-137.262746 170.182145 -11.515726
-327.412257 -3.366812 -422.650093
-183.087430 43.182500 -119.490655
-85.685826 55.951096 -134.865495
-63.200480 78.310261 -250.160478
-46.564592 -156.323802 -488.671317
-132.331287 -104.247049 -396.031641
-133.736396 -114.200741 -59.379891
-375.465002 7.490549 -298.554638
-398.976457 -244.639565 -447.069226
-64.076556 195.742999 -430.989096
-272.290812 60.044659 -503.223450
-184.428935 195.096173 -440.116824
-240.378413 152.705994 -502.130909
-38.548179 123.241421 -186.705049
-218.602382 10.281820 -344.213934
-293.927273 -109.622380 -418.832971
-428.099206 -253.486192 -137.989216
-101.518916 -191.887192 -473.239979
-17.122065 -193.148592 -304.479846
-286.045907 -86.777202 -469.117310
-170.076671 -96.945700 -287.437307
-32.714844 68.368049 -61.245525
-235.448922 160.819842 -327.144245
-371.754705 -149.263815 -295.259493
9.156535 -257.982271 -210.107406
-326.299665 -18.120296 -337.703884
-299.428917 -258.277208 -284.147527
-220.354630 2.357849 -518.305723
-21.299506 -25.494768 -132.744953
-260.560220 -195.175167 -101.025199
-285.199739 138.078844 -133.329678
-352.909709 168.702547 -217.581048
-292.158062 -87.997399 -404.171368
-247.009082 -44.609721 -521.211646
-90.089193 -52.369800 -17.448618
-177.537983 137.088869 -552.815088
-174.260240 -5.052205 -133.318278
-55.542646 -177.448379 -206.925197
-302.629812 40.570899 -180.095213
-107.864621 79.518662 -486.642896
-344.737928 -23.877569 -42.737452
-56.533466 153.499825 -432.912126
-265.976523 78.639598 -549.196434
-128.288194 -199.466976 -547.248546
-27.393480 78.063229 -250.203470
-23.192799 -126.956918 -305.347700
-390.321491 -32.348832 -252.285750
-455.216973 -209.661572 -374.807211
-330.461259 206.177772 -544.142757
-323.637329 71.995891 -570.239775
-150.944476 -92.621703 -518.644885
-456.261999 -151.471989 -317.742644
-198.181429 -161.163276 -285.145197
-286.816860 157.941981 -108.683765
-263.665447 -17.457524 -114.566948
-243.000694 -236.488382 -573.794315
-324.496721 147.600162 -160.474462
-396.209322 112.833434 -429.552019
2.449138 -214.896981 -434.048062
-103.197741 -193.862183 -349.924161
-261.542796 160.652275 -463.454394
-159.531355 96.364510 -46.573046
-268.273646 -133.256770 -362.694517
-350.468192 -197.431603 -8.272311
-158.515330 -227.237645 -471.244598
-208.687911 179.543400 -339.357627
-118.433422 93.325934 -391.877194
-164.114902 136.207965 -520.617775
-394.089791 -159.369697 -426.360002
-67.454132 -175.367202 -136.156627
-323.213328 -11.609942 -175.463443
-320.697468 -158.239347 -447.971282
-385.206781 -146.229320 -424.988548
-332.266022 -239.573425 -70.457870
-194.726779 -169.042424 -242.533291
-425.182433 -18.657550 -461.952069
-63.034417 115.780860 -45.507586
-110.431350 -54.536277 -310.242582
-351.576045 124.454389 -287.310192
-247.441344 -183.180747 -184.205754
-354.958878 -199.742462 -305.963345
-333.113772 -157.045481 -483.478399
-233.669645 82.658422 -487.883759
-133.525188 178.406485 -285.203958
-92.113853 134.483766 -391.364443
-8.115274 -221.776475 -522.274894
-118.011332 -228.873928 -116.956450
-163.530600 -69.404660 -494.878980
10.752758 -28.529774 -181.551398
-97.528701 -205.578243 -20.810148
-105.901834 -47.866926 -60.297772
-98.665458 205.373085 -320.172780
-142.297455 166.233811 -520.899540
-323.476796 140.780242 -373.121276
-101.308498 -120.736830 -100.275509
-61.595481 -226.437861 -96.818813
-421.467569 191.705174 -173.297813
-409.659366 -92.826059 -33.189198
-359.641906 19.921746 -59.118524
-5.047717 -42.862374 -489.568073
-377.615813 -131.619413 -424.450418
-411.605417 -18.950456 -236.520813
-115.825367 -197.909883 -349.147636
-443.901148 -228.422388 -60.858204
-0.100729 10.151315 -368.830189
-284.354562 -75.316420 -327.125258
-352.244181 25.401586 -299.461044
-343.932092 -165.515790 -346.350087
-34.384382 43.379616 -134.698386
-31.361564 141.813181 -405.845114
-115.317147 -241.265951 -113.467187
-390.840776 178.372214 -415.351135
-383.136624 -121.185766 -318.013265
-370.292390 200.768076 -516.402591
-192.840412 -222.378359 -284.482917
-32.661771 -165.359888 -57.693801
-3.854817 184.563538 -20.833926
-3.796554 -203.597980 -394.395593
-96.867527 99.612956 -495.978837
-228.491288 21.833373 -430.170298
-368.307951 -143.455428 -73.545881
-252.726547 164.592752 -12.127559
-340.619247 88.293104 -292.575249
-445.952545 98.745520 -564.605102
3.612029 163.779913 -10.755394
-25.933162 -74.638446 -400.649724
-373.732918 113.839266 -565.495817
-60.110912 -173.307130 -201.275999
-263.744233 -160.919432 -20.825647
8.300118 108.313147 -440.455737
-394.155181 -32.385878 -9.150820
-163.927564 73.903257 -204.114132
-162.766304 185.615385 -146.374421
-405.709982 5.243949 -532.760054
-127.653583 -228.098319 -74.519911
-330.751170 10.945840 -569.267097
-186.672888 -248.546634 -424.390321
-214.842154 -230.525462 -403.610122
-145.693606 -197.434118 -421.869366
-387.290966 -64.555126 -525.261021
-11.723857 55.458773 -28.666023
10.547230 82.298073 -314.099330
12.019839 -92.012309 -227.424849
-227.421922 192.429042 -67.819625
-59.819751 169.238101 -517.095220
-202.934254 -185.443152 -80.081841
-267.091490 152.830716 -101.200025
-81.458808 97.326862 -147.002084
-237.463345 -191.205834 -555.597057
-434.668135 -189.694723 -353.442212
-331.160056 200.577895 -274.415156
-157.230000 -12.101343 -326.813916
-246.171049 -21.733069 -123.026082
-404.204803 -224.572871 -84.303723
-119.443662 -163.334679 -214.964242
-342.401159 -78.674112 -516.731765
-374.252268 171.013326 -375.708642
-212.415104 -51.537981 -571.017222
-154.923745 51.574023 -399.300378
-124.516595 -235.916796 -42.700205
-340.193622 -189.429516 -109.651395
-130.717179 56.217304 -492.145517
-356.667271 -64.979746 -444.060567
-356.534573 -13.640473 -102.504574
-418.397134 -128.251335 -392.158041
-207.334080 -190.987425 -61.961721
-129.786828 -182.129649 -572.221235
-324.947213 99.624443 -281.420672
-304.874754 -171.872702 -219.646663
-20.099115 7.643263 -384.812572
-379.685427 27.258772 -423.839256
-32.659237 144.073317 -197.594095
-106.093799 73.909590 -150.132113
-125.789728 -136.089079 -386.402968
-320.920712 -200.463901 -492.206665
-38.450258 -240.829828 -392.993899
-301.249963 68.906812 -17.232626
-402.661812 148.657820 -493.564423
-142.002984 69.138388 -139.385923
-77.493335 47.804731 -114.801415
-212.121518 101.751828 -391.667467
-361.566764 -131.028608 -219.313854
-60.140869 -63.920773 -208.337087
9.811069 67.227092 -448.412413
-239.923930 -32.334804 -413.642044
-404.269723 147.652266 -196.476323
-124.659667 6.394022 -216.318094
-28.216501 -65.375717 -45.382607
7.168390 -134.170596 -13.313760
-50.588949 -206.535910 -137.140463
-374.621450 -176.938275 -125.509333
11.771996 132.668212 -410.350886
9.849492 -199.715151 -416.437523
-425.799004 -92.607176 -155.631558
-94.993540 12.119185 -334.217205
-397.602752 28.061637 -150.754934
-10.961820 182.156632 -7.101403
-296.191861 10.490751 -200.354468
-326.178143 151.319749 -520.608264
-219.285058 -214.038586 -144.573004
-34.400208 -147.089807 -120.332532
-27.751140 -96.758693 -407.208113
-271.886794 81.917192 -542.529006
-155.423810 -52.094513 -245.527496
-290.617707 -161.712026 -118.146008
-416.633545 14.525215 -473.650443
4.182787 104.166091 -351.973787
-15.047266 82.098627 -252.660965
-258.976590 -215.531768 -221.465739
-105.590945 -13.280198 -365.140739
-153.125224 176.482914 -448.648774
-455.835358 36.289758 -85.361162
-45.053412 65.594938 -383.494151
-343.360093 -243.091344 -387.878589
-367.302234 176.087862 -436.413484
-310.012191 182.697466 -425.290891
-323.470673 -154.707941 -420.376080
-196.909054 -47.767589 -63.329069
-250.848957 -121.461431 -131.791044
-48.448821 -175.118449 -103.858708
-91.401910 -254.822839 -49.234095
-130.546916 -111.823827 -189.725950
-113.407657 67.176080 -435.358990
-224.735861 47.164787 -400.435436
-347.369664 108.206800 -131.038331
-75.545508 -78.336156 -339.706797
-388.953118 23.785124 -552.275703
-292.090743 -250.819622 -318.899594
-211.412514 -88.558624 -205.534042
-86.385122 -218.130651 -151.840967
-393.008731 -246.493130 -319.790460
-86.735244 120.474345 -10.924667
-284.010576 28.901900 -487.943579
-108.451262 18.189091 -435.480074
-350.518541 -223.341143 -484.653552
-379.277011 6.730816 -12.266912
-292.455156 -249.554138 -302.436874
-245.560373 -61.577091 -183.700518
-425.801793 -61.054765 -170.936052
-330.527064 -36.166601 -248.518075
-361.467077 -255.014037 -447.658018
-319.850687 141.237360 -448.367669
-5.373685 -208.175999 -416.795549
-449.100857 -207.113283 -469.298879
-171.882829 -80.462083 -467.769547
-277.011217 -147.283271 -73.786812
-210.511488 -172.511093 -186.489143
-60.916589 -227.164718 -115.407571
-107.328952 17.492711 -98.673453
-244.415539 -165.396127 -189.371450
-264.768705 72.281281 -253.638341
-76.642131 -203.854148 -333.178424
-437.268634 137.548007 -453.726797
-315.016865 -53.915744 -448.594066
-262.834734 86.587764 -164.762438
-242.612552 -13.693308 -82.921871
-17.494869 -31.061320 -79.424281
-122.612486 -138.558841 -88.048044
-390.743688 -23.937516 -311.764655
-193.127623 -119.279231 -338.589415
-362.450594 -138.496490 -164.265368
-65.487075 100.921787 -201.958336
-95.547501 117.501093 -122.759006
-9.289364 203.979462 -285.496746
-158.226857 78.407800 -468.243124
-337.456743 -234.408368 -162.638991
-356.195369 -243.180012 -69.729723
-293.679369 15.703820 -526.899139
-279.902993 163.563108 -119.978522
-302.560355 4.673239 -387.486455
-406.916926 122.373878 -325.741300
-186.511333 -217.467127 -286.282952
-65.236697 41.277296 -315.276222
-417.729104 -226.362275 -221.432413
-21.299150 163.959193 -294.596094
-329.699666 30.138857 -334.692104
-346.753040 23.471254 -311.149589
-368.051359 -185.833238 -505.634220
-268.369203 210.202569 -544.232463
-302.932608 -208.296873 -369.985655
-56.208985 -1.454543 -335.564839
-51.504016 12.006368 -419.587728
-350.325869 24.190302 -81.550997
-201.665607 -175.951642 -9.072384
-226.315280 198.960220 -96.898378
-283.873282 55.389314 -209.985952
-188.062211 -29.388378 -439.980761
-288.335050 165.423268 -306.324768
-313.504358 60.629148 -568.497595
-358.883596 -204.838769 -195.575632
-236.617168 -16.292185 -161.140240
-386.390337 12.756821 -422.494674
9.615584 203.777434 -233.104792
-29.850603 1.316123 -167.079477
-332.650929 -143.582358 -161.869796
-200.050499 -242.298040 -323.004920
-344.134156 -33.377368 -89.686081
-91.525683 -191.532866 -573.112211
-338.962736 -12.577286 -563.189255
-283.189615 62.204784 -524.694103
-191.425912 -210.456349 -434.646022
-278.519841 145.542818 -155.407772
-345.030820 -195.839247 -394.639581
-182.414813 178.843511 -334.190814
-151.119513 183.405063 -569.905513
-65.420028 0.425785 -263.830056
-184.190232 25.513494 -500.170024
-28.979131 -203.858177 -288.772567
-312.204933 -72.846234 -138.144640
-250.848325 70.517347 -344.889543
-429.295784 42.144924 -411.659087
-266.430676 52.824295 -199.996819
-396.530336 -209.609583 -443.261604
-9.948463 -120.011870 -564.320183
-370.993467 195.950713 -311.444427
-221.292753 185.005738 -300.448187
-85.628502 152.545352 -43.420751
-457.740444 162.663819 -394.964137
-137.829897 67.573409 -265.634093
-70.957558 -170.488133 -272.784667
-390.294688 -232.084800 -510.898428
-109.964012 196.257642 -384.970066
-201.909436 -136.494052 -478.051925
-64.467765 107.092279 -440.337746
-330.067417 173.326575 -87.296905
-166.949831 192.646301 -394.136904
-31.292266 173.868770 -435.296488
-314.825715 -253.568759 -376.258088
-452.045819 102.934553 -179.416400
-55.532437 -25.624972 -84.996182
-275.200773 -203.134045 -482.749931
-380.835982 -185.730456 -347.680843
-120.706705 -137.195236 -344.559581
-401.650180 -39.710751 -506.176936
-163.657399 151.636257 -445.530306
-347.745076 -198.260049 -514.450417
-298.282717 37.596511 -151.738721
-195.276032 -180.401798 -538.162878
-134.010707 37.654894 -534.571963
-281.206009 66.019295 -21.422636
-418.379528 -193.267234 -489.786426
-429.303149 148.556229 -35.349103
-213.074479 93.705546 -158.848726
-381.854745 -151.112519 -101.199417
-426.106640 -109.783846 -219.430494
-450.656004 105.006382 -60.538635
-102.920469 51.945980 -297.093635
-389.945302 -79.999812 -128.610058
-87.368492 -8.211602 -197.561604
-417.913176 -102.072657 -210.282138
-331.066117 192.587347 -435.109207
-383.818345 131.729982 -69.124120
14.513061 -205.487932 -194.895420
-252.754208 156.065787 -227.513390
-6.331474 187.531755 -209.961305
-59.647538 -181.877024 -558.403535
-213.768768 -154.478357 -486.289044
-288.501139 153.215020 -96.148266
-245.750373 -196.212506 -243.796077
-181.397102 -154.260731 -564.214396
-106.189883 160.145173 -416.979568
-419.102606 -2.446967 -130.530770
-407.744934 -123.231306 -415.065204
-89.179524 -154.868012 -43.784099
-270.736794 142.051112 -298.444418
-158.954294 -158.298793 -48.281769
-375.126852 -157.744034 -509.234644
-29.081167 48.091773 -32.757896
-3.257890 -43.120911 -51.627767
-65.791921 189.521828 -492.286838
-256.607383 68.940908 -174.902401
-207.180964 -232.689161 -192.981307
-167.241209 -199.548628 -206.599054
-166.903277 114.193296 -538.635416
-49.260430 203.693459 -126.580087
1.740808 66.079012 -30.179089
-124.286433 54.788009 -519.245020
-5.030343 175.728076 -387.987986
-42.333909 -177.729630 -453.970277
-297.344216 109.807733 -451.253336
-4.913385 -191.321056 -499.139241
-455.914337 79.994953 -256.353179
-323.257016 -147.177052 -222.616915
-16.309912 115.758413 -113.220531
-347.672316 -245.816560 -268.074493
-361.787045 -142.964594 -229.633895
-360.578247 209.703446 -135.980907
-41.810298 -53.217828 -136.323946
-272.436173 15.297804 -141.425152
-57.871928 -159.434779 -367.654319
-461.088525 166.018086 -31.414095
11.007046 -94.838090 -54.718440
-266.349215 -186.428113 -293.093317
-143.834175 25.242113 -309.363673
-67.806446 3.026395 -61.435152
-32.792777 -72.893939 -320.322940
-405.689608 165.790827 -561.530985
-395.609475 101.001980 -488.470886
-106.066494 210.780691 -324.138769
-331.187486 116.772340 -364.330669
-66.629392 116.019102 -528.011157
-39.005601 -218.652307 -216.794151
-148.350394 11.456391 -345.024121
-161.651296 -105.769398 -502.169477
-420.636007 -141.590177 -349.889288
-218.961891 -50.061916 -328.460632
-330.817671 71.635195 -561.800155
-107.497298 -102.942735 -97.923542
-89.653416 -29.203678 -293.495027
-121.428255 193.624248 -306.090091
12.383409 -186.990062 -188.882579
-397.730371 25.746738 -300.818668
-419.861310 194.805041 -192.555877
-162.487062 -195.635754 -424.051009
-173.036320 -146.585375 -109.570291
-328.907438 -231.645970 -340.212011
-21.848280 70.842136 -385.076449
-95.948160 -222.887591 -40.941985
-61.928336 17.040659 -131.081218
-198.857810 74.315518 -116.730163
-184.329467 -180.257709 -430.245075
-166.842023 65.433168 -245.533584
-418.092910 -32.750901 -14.605174
-250.674932 -143.080983 -510.090447
-89.836385 100.882528 -91.002480
-446.496529 -119.747951 -148.176120
-155.255200 32.629812 -488.847266
-97.850504 80.540671 -56.293699
-348.495996 -238.497303 -516.198053
-269.968551 -76.811015 -423.448315
-1.561410 96.377421 -21.596807
-182.362558 87.686346 -487.545296
-355.782887 -148.528665 -239.163289
-19.911988 168.424826 -105.623472
-101.418717 -136.997420 -471.401293
-333.528105 -178.695459 -462.327872
-45.064363 -85.576554 -284.774329
-161.960211 -37.951744 -48.757611
-19.585857 -132.868056 -509.110239
-385.301257 -145.319900 -231.736594
-383.040487 66.133769 -325.299478
-370.342684 17.043096 -232.202692
-252.796756 -126.050781 -68.976651
-438.219478 -138.150386 -97.898488
-149.076143 128.628283 -175.117618
-74.204256 40.889105 -120.496426
-213.272492 -119.682528 -243.329041
-446.882412 -1.789911 -168.682410
-244.415386 -47.094676 -214.320614
-426.905910 -255.343877 -333.514121
-312.378497 -255.485388 -401.438059
-323.888664 169.843331 -324.530601
-200.893156 -143.005751 -88.263011
-384.134736 56.085163 -561.745233
-110.609542 -230.577267 -292.653199
-130.650250 -228.328457 -546.102295
-170.069199 -256.246369 -105.334337
-144.612648 122.641041 -215.315231
-304.031811 -5.970466 -7.622413
-343.714812 -37.374704 -541.411656
-301.701826 -159.667515 -380.981405
-187.009545 -106.599728 -414.492526
-251.066309 125.675703 -563.258246
-366.792852 70.915781 -34.776410
-48.843358 -235.721254 -140.020187
-423.826246 -177.906159 -324.903828
-356.179191 201.459774 -413.799840
-109.636217 7.060343 -354.331674
-296.980000 -28.790887 -323.384846
-60.169267 35.733156 -26.061290
-408.274668 24.635530 -402.778891
-199.412612 -105.487069 -472.159383
-31.011067 162.910636 -241.626901
-89.968917 -149.077548 -47.200029
-130.752588 156.472341 -216.438760
-214.651088 -78.766308 -308.816810
-163.257033 -4.383539 -244.893835
-248.836106 131.341262 -325.567591
-181.342210 189.255630 -80.933829
-109.281902 -140.213004 -543.105510
-222.205751 171.833423 -520.745377
-357.077368 40.724799 -128.682922
-128.173923 -67.903333 -569.304852
-334.151165 -106.441273 -79.004166
-80.887652 -131.517648 -555.722510
-270.084220 123.776171 -454.263451
-358.342476 -141.371063 -20.966805
-149.939823 -141.874455 -156.675427
-390.662723 18.047452 -220.430132
-133.124694 -243.045099 -132.615513
-241.960525 -37.179158 -401.902993
-390.623409 -248.868076 -477.490552
-285.392096 -112.119899 -444.056495
-315.859773 121.068399 -228.154464
-308.595499 -189.743456 -499.471437
-126.700102 158.534321 -286.092385
-392.327056 25.796164 -244.692290
-392.324338 -204.992123 -45.339035
-311.456453 -90.558535 -226.280544
-285.059220 12.685532 -109.542519
5.292434 20.957522 -390.156243
-228.988040 -180.944665 -421.538414
-148.723185 16.625617 -549.400559
-207.468855 161.998552 -203.706454
-280.491277 -66.762714 -520.396617
1.848462 -0.946068 -454.135007
1.602325 -86.288910 -62.202224
-48.557904 188.750315 -494.303185
-106.343736 -108.632479 -420.895835
-438.171929 70.156591 -270.792329
-440.726607 7.426338 -38.889241
-237.189735 121.979941 -434.022097
-336.760724 67.946467 -277.205593
-53.931425 -53.361065 -517.370134
-203.512319 -84.272216 -126.941551
-367.145773 136.029631 -29.873357
-388.024234 49.637167 -224.427211
-291.415441 70.532786 -389.827777
-326.050076 -208.495396 -415.016623
-386.318664 -36.262063 -77.941552
-41.121706 -180.510601 -379.318319
6.918528 -96.271493 -60.869998
-278.346392 -107.729677 -276.266600
-55.189847 -128.322828 -441.782950
-371.652715 95.722108 -49.303569
-118.404066 -198.221602 -44.894200
-274.640464 131.125498 -43.427204
-72.519129 80.772093 -154.181429
-27.285384 -72.662293 -153.436985
-357.517378 59.628713 -272.356531
-290.691882 8.469772 -88.146520
-61.985555 -25.468515 -488.261381
-392.170823 82.640790 -405.096203
-308.377513 -186.674327 -285.430175
-143.772708 -183.559501 -69.474560
-203.313324 4.300482 -228.607723
-303.830367 58.699525 -413.937462
-373.221916 -166.463249 -462.702914
-261.519895 139.532615 -78.389078
-372.037982 43.431615 -145.251981
-399.379310 87.024921 -300.261947
-78.329992 114.377471 -87.239934
-146.457711 193.725127 -96.924421
-321.411070 -69.271697 -392.006495
-256.076031 -157.246583 -419.641914
-339.124050 -201.020967 -201.235199
-90.559498 -146.986686 -149.434513
-147.585549 38.548518 -438.340147
-168.953775 -64.720867 -26.189532
-309.937778 -229.731283 -201.163947
-276.118076 145.133738 -128.424803
-125.182413 -80.365229 -251.259472
-217.098382 -138.614401 -167.804162
-321.357056 -164.059776 -146.409881
-382.650233 11.645254 -138.452326
-156.474584 -151.148566 -148.782114
-120.966673 -108.124693 -386.955233
-322.478585 -170.864814 -335.286368
-224.357973 71.242460 -247.695305
-403.199071 61.083683 -385.229418
-24.787044 -74.535058 -470.813864
-384.324811 -11.252844 -514.670418
-258.481839 -246.012438 -87.756639
-147.873301 -171.272975 -179.127607
-7.071992 105.661539 -60.674981
-231.988253 -28.793192 -503.618677
-438.832075 -48.946606 -414.964766
-343.493071 -153.220619 -499.708076
-344.013721 -256.187577 -470.887877
-214.805697 -30.312660 -356.964128
-268.781873 -213.623646 -84.721713
-326.604075 -101.657540 -151.611499
-224.223688 -130.324778 -333.364845
-429.498771 -233.126099 -422.950221
-196.404014 -56.783813 -199.279768
-318.145199 -127.850687 -504.015653
-113.047204 106.892913 -568.543704
-96.223806 144.400903 -302.682893
-435.167428 -160.668468 -391.767279
-258.900855 -209.755515 -244.586142
-87.005948 -67.546142 -141.579493
-231.629332 -165.136012 -467.675144
-261.094834 -43.665119 -124.543351
-69.267474 -144.871184 -13.540900
-257.934239 10.878520 -179.698489
-347.264198 -179.063098 -317.292786
-116.260077 84.956567 -160.030129
-321.997331 -144.039436 -549.790610
-254.412876 -254.344979 -561.675652
3.732597 13.705158 -173.928763
-230.491481 -141.531506 -326.863965
-117.105231 -189.189063 -253.728254
-361.265499 -132.436614 -310.491561
-12.731328 -234.701569 -98.883644
0.941985 -15.063867 -452.569129
-182.262460 210.603465 -284.427671
-291.613175 100.872595 -523.819605
-188.139671 59.698118 -514.314864
-302.959172 -215.327489 -357.323900
-318.117712 176.779834 -534.165985
-158.537293 88.369918 -301.789189
-354.795335 -52.948706 -181.182943
-221.647085 -142.897498 -289.042192
-143.307003 -114.579496 -416.539304
-127.280373 69.826849 -85.932463
-176.876413 -135.042609 -321.622687
-46.901437 -232.778055 -225.663701
-213.490641 91.856525 -499.434551
-262.368943 -42.567680 -319.182693
-126.212389 -141.903281 -161.155294
-452.433990 -42.869137 -437.473795
-417.426178 106.604648 -442.094647
-69.675088 83.987433 -521.861412
-389.569435 -79.754012 -459.186501
-12.240377 119.655300 -300.867001
-330.323116 3.641486 -356.490779
-240.996353 141.290058 -132.920241
-346.676014 3.834853 -68.450926
-43.969532 -174.043259 -294.197073
-183.748487 92.161755 -382.113897
-264.452012 148.382301 -293.288040
-439.297092 -77.646205 -112.253189
-373.335045 -52.028655 -394.546503
-97.394545 42.018778 -517.920607
-280.686380 -33.797744 -317.124539
-428.719862 155.725224 -336.720218
-33.258160 149.946569 -445.395695
-338.574143 -135.288649 -106.768873
-302.299941 -181.956657 -528.687871
-307.377481 -222.430343 -385.385700
-442.116447 147.248877 -439.815930
-298.292952 63.237549 -214.855724
-119.755849 -128.999319 -554.992140
-209.399455 24.662578 -564.197725
-103.370365 35.744138 -372.504761
-190.062086 176.921790 -486.331817
-56.135156 -238.643028 -257.233437
-19.803931 198.408274 -472.697022
-429.237747 -117.687876 -292.820010
-392.845042 -187.724196 -122.052161
-180.231298 66.321218 -360.073813
6.173148 172.292127 -412.888170
-72.573790 -6.371515 -18.671685
-323.229435 114.477257 -80.750004
-311.863406 -118.698038 -177.131227
-105.338151 -86.617489 -450.150531
-55.682397 32.911176 -72.437000
-369.609644 177.344530 -560.028331
-360.820587 -236.815212 -170.339492
-340.819298 -2.042237 -164.835881
-254.069889 61.619208 -197.289670
-454.090895 118.246683 -473.273636
-303.896413 -162.843824 -485.921015
-331.365127 -122.164963 -451.376534
-101.947523 -18.004307 -146.140699
-295.781471 -188.358466 -37.389186
-395.442204 21.434927 -487.671711
-176.207239 115.201448 -226.955136
-140.313084 -115.674918 -504.595877
-407.325159 145.435491 -82.768525
-339.466264 51.478049 -57.135202
-320.405321 -77.671472 -195.312708
9.580649 -84.861331 -242.460224
-346.078386 101.027237 -82.239443
-314.714665 -53.253007 -104.301426
1.985060 -117.324912 -468.293927
-414.286929 -79.625433 -215.196172
-249.830623 -20.705002 -439.036854
-79.416000 -38.297039 -398.320412
-189.969301 123.606846 -418.333804
-125.915329 95.544910 -185.893702
-386.965104 100.753789 -571.891655
-442.532330 -28.461289 -571.185853
-192.764406 -125.926359 -567.770163
-399.767635 -31.484860 -484.832724
-108.584695 44.374858 -154.735605
-390.496152 -147.263356 -392.669335
-433.550446 89.326529 -79.428261
-280.482874 118.970828 -292.491667
-397.587652 175.352315 -288.335792
-367.956259 18.009731 -142.492219
-134.713341 -253.769612 -511.086432
-312.033006 -61.495498 -527.210046
-212.558671 18.968438 -60.901277
-79.650158 -122.527941 -515.648583
-388.351677 -156.072657 -173.541875
-374.620005 -18.406384 -246.933985
0.014433 -248.318737 -362.194915
-291.837054 190.111434 -49.654339
7.367112 51.002679 -237.613093
-9.441626 -65.274071 -393.926010
-115.408332 -125.213905 -14.585705
-437.962995 -38.591799 -515.095260
-108.700190 -178.406938 -29.375270
-236.996946 205.328406 -58.916774
-375.026571 -145.097022 -426.419720
-433.052579 -169.998690 -529.114214
-265.959021 11.915831 -573.061079
-199.710922 -95.033593 -78.897812
-369.767111 -87.519584 -455.722268
-111.171717 48.510151 -476.754407
-255.806986 67.394033 -351.701456
-371.704437 84.995360 -433.337140
-83.570880 54.906568 -451.198944
-138.330500 -172.244678 -551.137583
-180.503934 89.747522 -434.915136
-226.482746 -249.585376 -221.169398
-311.970480 -92.992465 -472.160462
-250.102415 -132.161313 -256.380490
-247.243444 145.855146 -492.865015
-264.094815 -236.447410 -173.211426
-114.177539 85.955027 -530.196888
-220.868701 -122.357117 -370.350587
-373.763333 -94.227974 -316.317238
-454.248456 -113.239794 -416.207590
-165.493672 -137.146744 -208.444899
-411.365135 -113.497514 -218.766399
-216.469657 151.873114 -285.148162
-22.806803 -111.898950 -482.766845
-233.398622 181.669404 -204.944453
-212.567471 -169.113389 -323.363466
-385.173841 32.462925 -64.333118
-47.782590 120.400421 -132.538845
-144.910764 16.863089 -122.919947
-233.392466 -59.739334 -435.484952
-195.655350 -33.531285 -368.295363
-194.727726 -42.819366 -205.500150
-144.585560 67.392216 -23.424034
-47.715245 198.514469 -74.442691
-229.606743 -91.102360 -355.968425
12.096828 134.338067 -99.051184
12.736736 -39.774094 -60.208648
14.820318 -11.766567 -86.675298
-254.382850 -183.981458 -170.280568
-433.983229 62.899463 -334.367529
-27.601042 41.047110 -563.257160
-65.623078 -39.639220 -320.008761
-292.662221 -142.171165 -150.392909
-438.246449 -27.524201 -249.430843
-148.620748 -211.072570 -339.735907
-222.755435 84.822171 -371.832819
-437.709435 -31.287320 -246.324809
-201.360842 -37.815142 -408.964005
-238.125036 -192.845257 -391.618008
-389.611752 194.413819 -156.411576
2.938509 -136.964076 -192.493502
-365.623015 164.663441 -155.074697
-187.784051 -215.307276 -443.189170
-129.604833 -29.514550 -70.360664
-412.688713 -121.963519 -290.683810
-442.406210 -181.269950 -186.049241
-438.775970 -134.848178 -40.066640
-141.939225 -120.165282 -322.586468
-248.234191 -19.102579 -229.254946
-270.311428 88.315957 -149.037868
-163.719278 89.667539 -275.705761
-192.691683 -62.482920 -121.803765
-262.531454 -223.777855 -534.538868
-10.056360 -81.777376 -349.796468
-449.543232 136.427098 -163.271185
-361.528063 137.632928 -73.522475
-425.348824 -175.278000 -145.338904
-390.167684 -86.926400 -77.819973
-362.480339 182.939887 -326.015493
-52.629879 156.818552 -58.956424
-40.573943 -20.680120 -443.560384
-232.199599 63.519935 -304.322029
-145.912148 -261.092848 -23.169371
-449.897201 155.034132 -86.381088
-390.965291 -151.370488 -241.523802
-420.960685 128.357153 -340.258119
-92.326623 158.761681 -29.795536
-409.420752 -90.646272 -458.134467
-344.807345 -191.631056 -319.636087
-219.827192 -13.275556 -383.571158
-242.301916 188.091186 -278.348499
-198.713320 -80.830823 -501.129233
-17.810036 -186.233769 -238.811846
-85.539370 -37.562276 -355.648243
-284.724876 15.609128 -140.389896
-48.196082 -253.009271 -278.034401
-238.710145 -70.372080 -393.976654
-122.314319 204.474605 -359.506191
-29.208391 136.748601 -234.137239
-154.484677 -224.416754 -48.660763
-32.609443 186.277483 -530.908188
-393.395082 3.177686 -53.129444
-227.342496 -127.813079 -375.808008
-44.895582 28.485147 -251.843665
-382.223463 -12.332611 -65.941180
-120.883761 6.147987 -214.641218
-317.725951 79.504771 -336.753572
-288.555060 -106.228860 -9.379968
-61.327931 -115.257183 -487.605833
-62.358495 -245.097790 -517.815089
-387.163886 156.655840 -562.636770
-131.390303 -223.642710 -537.094418
-88.680421 73.731668 -530.547096
-327.954991 204.864693 -110.416279
-6.619119 60.142518 -106.464294
-179.655114 44.095783 -433.316189
-107.635294 -215.012880 -67.200919
-105.709994 -254.865967 -247.905582
-296.407529 38.608706 -213.047630
-326.721518 165.653367 -59.986144
-394.666295 -239.792995 -239.661948
-261.100735 54.130597 -349.234432
-352.385190 11.801897 -270.026172
-387.083741 2.515786 -350.308959
-314.979433 -78.404492 -504.587694
-63.269087 -64.913962 -511.514923
-271.671825 153.035196 -148.574191
-21.845493 -13.130133 -83.658166
-423.950117 28.187722 -434.371328
-374.855152 124.014726 -246.243113
-417.699500 -71.134699 -357.243274
-438.824060 136.537951 -15.498979
-326.551884 44.270393 -42.366415
-369.246058 -251.680090 -30.745262
-234.539271 207.128342 -250.846603
-179.926065 37.842519 -400.602883
-56.529341 50.244995 -288.160944
-403.835061 11.478970 -60.539856
-320.911204 121.909664 -412.403499
-85.743941 173.203311 -111.343397
-373.410664 38.442359 -398.529623
-50.161228 -182.821828 -381.480077
-353.136442 -41.443171 -551.956012
-91.830392 55.246986 -218.130354
-396.012826 -220.421938 -517.611475
-399.242581 201.295014 -262.881434
-10.021819 11.486678 -132.381434
-339.981492 -179.342854 -463.210029
-307.645440 -91.961882 -24.066648
-324.569707 29.962613 -480.181085
6.229851 -173.094104 -154.090858
-8.454217 13.557488 -131.897415
-430.635318 -105.875801 -142.315195
-399.914531 -143.745036 -463.112900
-34.875313 -11.182821 -305.218294
-441.513963 180.812187 -471.147291
-29.104317 180.097960 -179.578662
-206.572762 -221.196820 -123.027741
-125.774663 -70.733645 -147.485223
-164.330474 -81.345224 -303.774517
-183.752432 104.744789 -438.616809
-202.128644 -110.465209 -567.187555
-374.881079 119.237296 -107.597566
-369.826803 -3.864992 -419.635360
-327.923670 -219.535093 -47.967074
-350.853992 155.163906 -282.444396
-339.455416 19.269838 -490.418369
-428.025545 -168.374993 -158.899914
-207.790151 140.035207 -132.672611
-145.574131 61.920312 -90.682521
-347.910944 -182.208883 -371.409421
-441.911518 -214.029460 -205.618098
-53.469253 198.053724 -149.770874
-336.431239 -86.675326 -232.510222
-262.013061 -16.318758 -133.279163
-294.319202 10.788962 -44.696486
-150.358484 -55.188244 -347.237269
-255.987400 -122.742086 -277.914976
12.837446 -44.925161 -431.192687
-416.716670 -203.174850 -472.569877
4.932342 -8.510049 -249.373204
-100.777968 -123.032074 -305.898945
-401.711820 -222.210474 -163.455928
-326.382290 198.591525 -298.574537
-80.824314 -206.653794 -44.865409
-435.682466 27.283617 -180.642934
-456.907402 -124.754177 -449.639892
-155.018344 189.440000 -488.095550
-224.486718 -174.952444 -508.953592
6.046624 167.856845 -115.350547
-251.566023 -123.436609 -74.926350
-150.259684 -27.581645 -204.096076
-336.592555 -131.357233 -441.093665
-92.377516 -4.544092 -101.542904
-45.645587 108.459576 -568.777748
-347.961849 154.806860 -390.201494
-85.884210 -62.789730 -140.954402
-64.456365 -259.585495 -149.577014
-109.105582 -99.627782 -356.562518
-157.180160 -243.609671 -558.594261
-423.921952 -245.685639 -92.638784
-421.014506 87.767662 -424.812351
-266.180294 -152.047543 -71.843654
-402.725779 108.342434 -396.988230
-272.674837 -189.047750 -306.499184
-241.879741 -83.305942 -86.075678
-240.549652 -125.025421 -288.463487
-123.426448 -184.025110 -127.723758
-445.529330 -21.746506 -198.018408
6.385059 -163.236073 -183.528229
-61.095867 -180.247302 -228.702765
-323.746861 -117.099592 -122.542289
-432.504922 200.309473 -449.783106
-349.794566 -217.678417 -521.270992
-282.866998 20.599241 -219.020710
-135.577569 42.093202 -510.793975
-147.776187 190.610689 -547.473283
-177.376036 124.010796 -476.966503
-384.553180 127.149940 -25.685279
-310.043252 48.960703 -339.390020
-272.223353 111.755869 -239.153187
-204.522532 210.583486 -378.120564
-204.214445 -170.700472 -236.779608
-273.389350 -106.411021 -271.347174
-433.956986 65.087587 -353.619861
-333.309460 -74.890110 -175.657687
-299.799398 106.903218 -130.563818
-60.003926 18.472557 -166.332974
-224.569967 173.023018 -349.305319
-226.939405 -223.507005 -204.676989
-105.998756 -180.296136 -118.603684
-414.979048 -221.900747 -564.518761
-338.626713 -80.377369 -334.132535
-123.072926 -21.655977 -534.153978
9.305111 190.926071 -323.026819
-457.148765 -124.599290 -478.489980
-218.269358 31.084987 -335.406988
-390.026721 44.429896 -480.031834
-71.564826 -120.862375 -117.354405
-76.896070 45.625976 -55.740427
-221.189957 -17.306213 -78.047029
-166.716788 -89.453834 -410.884218
-111.037123 -207.523157 -103.371754
-447.384354 -200.235403 -125.104516
-343.641169 126.242592 -357.099706
-142.958062 205.740529 -157.640782
-132.145664 -166.632968 -63.042329
-30.864498 194.999237 -161.040819
-223.905216 -39.014036 -457.084653
-214.559486 -20.364714 -540.805657
-20.797527 -245.107789 -101.737990
-165.196614 23.919117 -243.782091
-246.790735 -82.386709 -392.566785
-354.217849 50.626011 -71.769963
-167.336481 -47.962273 -410.084378
-26.757266 201.802127 -127.566734
-335.331249 -197.158990 -25.540640
-412.304748 -60.109944 -124.595033
-220.610426 174.942177 -207.435737
-134.595204 -127.772032 -553.571619
-132.643365 -134.857498 -24.332609
-289.102338 76.755549 -67.672458
-21.220328 -68.719900 -234.016871
-188.311682 177.386862 -520.826135
-362.056452 -179.166060 -571.481174
-214.937127 -137.185415 -274.953740
-124.352000 -14.009033 -349.295623
-93.866736 211.356534 -65.810810
1.470013 -0.877651 -568.137977
-271.727580 -251.242960 -498.090451
-200.110606 -65.381617 -383.778524
-270.848633 -154.340408 -72.282156
-331.819583 -109.880460 -293.857527
-108.736352 24.843690 -412.087426
-129.448571 166.045908 -514.938528
-126.135757 153.827390 -414.298871
-434.327639 125.850855 -150.114589
-98.837097 120.115756 -365.954296
-66.136202 -16.155884 -100.291208
-140.024361 -152.225876 -478.059522
-287.709819 -89.639844 -74.233168
-94.633252 167.194257 -295.756060
-432.298528 -111.900047 -314.752638
-367.867397 170.917940 -40.940162
-46.842208 -223.899709 -478.159690
-300.117749 -17.629610 -370.971588
-53.319379 139.645180 -249.911076
-424.530133 -159.400441 -199.208710
-210.713830 -22.190817 -408.782348
-460.638829 30.384299 -79.617752
-254.606450 -182.252785 -552.943776
-122.204048 29.188334 -146.296211
-14.254882 -92.842053 -440.569349
-361.647819 26.949244 -451.773999
-59.734010 153.791509 -515.670327
-293.399511 60.643114 -113.250370
-337.487596 -198.031403 -70.728722
-280.696388 44.163333 -95.913879
-241.166412 -143.845302 -510.553052
-245.451160 67.086632 -170.801891
-452.747021 109.167769 -285.943308
-151.376122 19.059850 -497.116782
-162.013429 -248.477939 -45.475418
-5.310808 -16.761255 -456.640140
-458.601940 -151.104221 -98.015542
-151.688308 -151.770371 -186.611422
-389.484309 33.703432 -167.246497
-361.803502 76.376498 -152.447349
-294.664361 -202.589077 -242.212281
-62.000658 -16.814335 -358.783722
-358.905796 -258.048423 -42.951242
-295.950459 90.633659 -362.746737
-406.140066 -174.299891 -23.074535
-220.998284 -85.351716 -184.082539
-343.531568 84.584974 -12.947056
-447.468149 -128.772072 -490.686134
-128.532063 33.212482 -55.414898
-86.557165 -252.911316 -69.343892
-454.625533 -97.221621 -375.300135
-375.474961 212.036104 -311.384171
-189.931188 118.698979 -427.106966
-372.056285 146.848324 -379.541712
-381.228479 55.473749 -553.761905
-166.389349 39.629086 -215.487309
-426.145206 -114.651856 -119.154191
-73.398243 -8.503183 -126.188367
-105.593805 -234.471330 -347.014393
11.780438 -56.116792 -547.217456
-28.849978 187.528766 -280.891547
-157.532006 -113.948602 -72.420576
-454.956702 -106.558406 -371.155209
-364.977121 176.556733 -402.097313
-119.683949 -162.920470 -403.580055
-456.259384 126.766016 -151.988627
-114.969426 -38.238792 -96.413745
-13.753728 21.905094 -127.352908
-89.333130 -46.530448 -410.740725
-203.667250 -43.601757 -348.973188
-50.861704 -166.056763 -552.181670
-355.750752 -224.014306 -524.058058
-424.163301 -196.965950 -189.772949
8.561209 -49.650314 -573.495454
-157.913793 -130.581285 -340.610531
-379.167633 -134.227107 -415.608487
-312.093980 -144.969864 -406.007799
-157.307801 72.607659 -492.504363
-122.958969 14.146392 -143.154178
-210.316637 -97.708607 -475.742832
-352.768481 -83.511006 -527.731877
-15.433662 119.203857 -223.397183
-72.925749 -134.012695 -180.315288
-439.152076 171.445767 -564.348281
-13.456190 1.581823 -43.012893
-372.320537 88.884473 -89.570133
-229.505277 -51.859692 -191.159399
-361.871613 155.574157 -485.927236
-457.836001 136.682827 -570.182922
-36.013869 72.773516 -449.395907
-70.052891 -151.251846 -474.865999
-358.159970 62.779287 -480.844291
-240.966704 -113.546232 -297.403511
-44.555222 -134.832345 -454.794750
-108.024468 -27.192952 -107.319092
-279.213154 -244.207489 -549.853296
15.742863 20.890017 -460.067582
-67.359509 16.621597 -266.401449
-213.616028 98.895906 -322.745870
-36.715775 -217.720721 -195.975062
-133.983122 137.717408 -478.695367
-261.769194 -180.081179 -359.665905
-362.497094 187.402933 -223.265872
-223.774842 11.285735 -399.109503
-122.813505 46.915819 -554.180850
-98.419126 -17.270826 -63.276217
-325.674239 -88.618850 -268.278812
-445.301236 -125.486744 -405.729086
-187.237728 47.792435 -248.748464
-163.108097 106.159698 -328.104393
-90.701491 -217.189280 -409.072312
-319.862242 49.067218 -330.926929
-62.285715 2.002123 -390.310878
-21.402716 -260.348074 -315.682232
-441.098618 -171.650099 -421.494198
-327.747484 41.068492 -204.840966
-263.907902 -111.754688 -448.667779
-311.688726 -224.092949 -347.441873
-117.606898 -145.647697 -382.117358
-332.726861 -178.949515 -554.953993
-160.975704 63.385726 -265.325916
-325.708869 122.374554 -346.494459
-287.574058 -81.335440 -135.182930
-75.665392 58.152346 -251.229864
-263.944358 -51.666007 -500.031598
-204.559284 16.987305 -134.974103
-210.162857 110.089586 -455.305057
-409.130355 212.004324 -319.829180
-68.263529 -9.554355 -177.055035
-421.604084 -156.936499 -100.712555
-457.410641 61.186166 -299.387989
-235.224412 9.671901 -243.670996
0.407982 -189.712663 -84.576839
-216.683135 88.212136 -216.541529
-180.545535 138.319864 -464.588709
-387.345010 -248.808796 -462.666137
-419.105836 -144.892967 -210.593014
-391.207352 -241.647758 -62.833850
-114.308007 -209.508081 -175.255257
-293.198171 186.025732 -264.154020
-248.447767 208.241233 -120.334721
-434.798662 -259.979832 -88.502259
-373.601995 29.101462 -348.958181
9.666037 84.951610 -215.169971
-402.841693 83.126004 -435.998233
-34.854266 -64.492725 -256.904962
-10.846283 -33.287615 -571.315092
-198.476644 80.925786 -145.081751
-48.761516 -67.059554 -358.524946
-0.878994 3.364368 -227.889310
-46.073585 128.404438 -217.991349
-248.811464 -102.100205 -365.889938
-159.006868 172.333569 -572.636178
-209.502089 144.398520 -82.332484
-262.964603 121.357765 -417.838833
-274.597624 108.587925 -314.316115
-327.508576 -252.453118 -489.006163
-280.838248 -93.506199 -423.368176
-227.438320 -142.956270 -86.865489
-65.170702 -223.657781 -273.446982
-27.333143 -245.536197 -540.738615
-141.666553 -77.876086 -375.482498
-294.030158 107.654507 -504.709745
-2.123074 -216.227334 -77.710144
-117.952117 -99.196713 -294.331579
-134.080603 92.401494 -439.332992
-371.524634 11.682160 -316.043427
-314.325349 -101.807245 -433.736805
-363.161799 -169.494835 -149.051693
-438.245915 -176.839255 -536.609494
-261.375257 -66.912843 -253.983876
-298.410638 125.393430 -63.872687
-124.872559 -44.076261 -414.589872
-8.327360 -232.930215 -114.020551
-238.612688 -204.770777 -422.822960
-135.329446 3.509695 -319.922067
-64.905559 -73.374079 -52.019061
-152.797135 -116.235018 -126.853892
-117.072157 -134.482925 -293.085591
-388.623093 -158.422166 -484.016953
-221.056273 -210.514289 -49.075118
-237.543205 5.170063 -516.586780
-405.310093 -186.507563 -67.774875
-34.609143 -117.430593 -151.968733
-182.914436 -65.943964 -335.745847
-439.308015 -8.426921 -77.655287
-334.280239 167.765099 -69.503583
-338.288680 74.939620 -22.491608
-365.934297 7.334618 -268.497623
-353.678834 92.637141 -93.625210
-77.521514 -139.870885 -490.989807
-313.664319 -41.974829 -221.418367
-127.117157 169.123533 -28.678387
-69.200635 188.859209 -509.491087
-388.827602 7.583720 -473.098751
-63.192450 124.750113 -549.541877
-68.656927 16.431574 -498.060144
-67.446924 33.143199 -367.154820
-226.054899 -253.342068 -361.034692
-29.993386 -168.688567 -99.864561
-101.985554 127.436736 -495.987062
-296.934689 174.265079 -462.124541
-433.019104 177.565203 -160.284702
-136.025245 -253.974965 -308.468490
-273.379784 -109.379644 -135.441564
-20.713627 -206.008942 -375.227897
-246.910780 -137.788017 -202.099264
-193.269491 -52.255696 -458.133040
-151.258397 -183.383865 -100.426188
-80.319459 125.184889 -250.542786
-307.427068 -155.688768 -104.508875
