120.208490 23.462970 -282.070174
115.498428 -164.590407 -203.431355
70.566731 -88.721001 -53.392862
107.844932 109.134508 -242.407548
76.150230 -103.330047 -230.978229
23.246496 -10.158848 -157.689085
76.360359 -45.623576 -5.753266
135.073663 -127.419132 -0.459740
-12.393629 -75.825623 -256.893531
60.131380 56.100644 -338.193638
134.865362 -236.450938 -72.333008
124.054042 -0.994794 -32.882474
44.225844 -223.718593 -315.770519
50.852735 -154.321882 -51.646097
70.783109 -276.257279 -176.870873
53.630362 -28.979339 26.567877
39.980207 -57.014761 -12.447922
70.802287 -277.554223 -356.832168
11.928642 -145.419163 2.985943
117.913097 73.668883 -251.173665
27.057072 -9.189310 -83.157821
-22.590457 119.778477 -236.860869
72.135718 116.482230 -281.549076
-6.929836 -207.064421 -131.779288
61.561813 -81.591277 -14.635558
-12.787316 -251.732046 -108.230596
109.454315 -170.246100 -3.061612
13.503980 8.473188 -305.773797
-22.597930 96.656980 -100.123377
58.932583 -234.479177 -217.241070
68.260731 -50.576697 -113.268257
75.702843 -275.440124 -206.035725
99.706170 -216.165538 -50.514900
31.034215 -106.489777 -165.728631
62.344078 -125.671175 -264.567485
54.924873 93.128347 -334.629788
7.194274 -293.766794 -376.440031
14.260998 -189.387027 -45.369390
77.374827 -94.574566 -93.611330
111.762041 -205.827794 -392.351548
12.206346 -39.442823 -48.630657
51.390931 -208.116255 -271.166575
13.837501 -239.079701 -329.126858
49.840658 -97.155353 -144.953865
97.637731 -281.136298 -3.046166
20.707361 -157.562966 -119.994192
35.469453 110.703753 -38.558119
85.013261 -148.029055 -237.386981
49.797775 -87.840568 -126.881076
64.323761 100.770676 -126.153547
78.622056 47.473046 -121.134754
18.010545 120.494411 -74.920194
-12.740100 -187.122020 -387.415048
82.867317 -135.501200 -345.542643
100.192989 -225.623113 -191.569304
-6.868911 128.740341 -274.567297
26.835384 -173.534301 21.048856
70.899907 -58.871416 -112.728146
5.652812 44.752599 -0.153139
101.053063 -291.395770 -72.805564
9.709476 -34.580385 -97.388374
6.486230 132.288827 -318.002404
81.162403 -226.396534 -121.124797
71.074997 10.435880 0.251179
-4.084817 9.066687 -148.646821
74.539366 -162.491444 -197.560565
61.131595 31.530642 -146.812511
125.721619 -93.901489 -71.971845
20.566638 -232.546317 -86.068336
107.253398 10.244925 -131.473942
60.226123 -23.086066 -333.306708
16.539767 65.193295 -367.080543
85.039462 41.561816 -59.267880
63.336466 -67.680370 -147.066155
28.537609 -47.331135 10.461706
51.980269 -194.128622 -290.983087
93.527745 -295.107804 -226.535705
22.389597 80.756930 -0.252758
70.112715 106.878496 -72.243502
93.235426 -103.274763 -234.381799
-13.916439 -187.247187 10.265455
-4.465673 -266.380646 -74.838512
88.966486 137.682518 -211.485784
71.558150 120.676621 -139.349982
119.330805 147.092507 -37.110769
113.081714 44.964622 -88.677118
72.834569 -173.640952 -177.629684
-2.472841 -59.932457 -231.811961
39.572757 111.298051 -251.918990
112.208396 -142.665800 -105.887615
-17.106737 60.586197 -0.562709
87.037275 -2.404546 -369.417450
81.452386 -175.110173 -79.392480
122.021640 10.786792 -230.570095
104.422771 -66.964565 -199.598333
-17.375011 2.527592 -256.166915
65.823110 -89.359944 -54.614485
1.606944 -76.022235 -157.966678
50.715921 -59.340068 4.657673
64.373446 -16.927855 -87.421932
42.915147 -255.457201 -16.182208
131.448123 3.923269 -376.911489
5.962361 -98.964495 -202.731708
117.812212 84.117519 -340.588748
117.669203 120.467333 -199.224390
57.760215 55.891996 -148.912279
62.590497 46.787056 -279.862702
38.867307 23.117546 -358.818265
4.408952 -205.705072 -121.416241
35.543222 -218.609821 -128.976015
123.385660 -290.623414 -389.122362
16.153242 -258.738021 -45.463253
82.409467 0.241071 -395.953808
15.877023 -241.366101 -348.951999
-12.437017 -136.267269 -197.560748
-18.812463 -90.268083 -334.855407
21.502660 -47.471785 -356.539671
77.132548 43.584076 -143.862132
45.370144 -44.005699 16.951295
25.012151 81.618628 -262.750681
-17.166159 50.903713 -139.432574
132.177728 -180.540843 -49.368088
83.972060 -164.210081 -198.084678
80.237431 -181.015505 -346.589546
82.046896 28.652696 -57.976320
89.559680 -53.105991 -379.623597
2.083303 -212.171562 -261.412474
47.416154 -177.304674 -225.461677
47.945945 53.307621 -219.490366
41.039878 98.123950 -122.374659
-9.431549 -115.290493 -246.674597
-13.222054 108.040211 -252.594276
117.802595 -192.051605 -93.037142
48.669104 -4.389158 21.121982
-17.047187 -176.267189 15.027348
83.293917 -3.164566 -46.418136
82.567674 -65.481839 -332.574684
-9.310564 124.358511 -396.117218
30.185684 -64.970446 -8.536474
132.497539 -86.157870 -240.864027
19.561689 -52.867570 -156.565844
91.512632 41.516350 -174.938194
7.683507 -217.276378 -76.560373
95.274557 15.900515 -42.231115
55.122246 40.335865 -341.545273
110.522181 -188.572732 -319.225565
44.515614 -164.636917 -353.940753
84.837146 -93.849952 -364.283390
45.439955 50.613231 -39.391647
10.413320 6.081749 -3.199688
32.043014 -226.744712 -311.772703
-0.550274 -102.725617 -41.542540
-22.701023 -98.670242 -299.773193
56.000306 -63.119633 -242.917770
128.795373 -119.858832 -235.003041
88.442745 -282.465619 -174.381025
65.708208 -85.629053 -48.781462
-22.685688 -247.948843 -117.530264
89.174349 0.135012 23.067392
102.064417 64.091270 -43.679533
42.147930 -112.337184 -274.657644
115.949669 -242.618479 -2.755635
135.255662 -74.767676 -161.009898
127.102632 -83.646663 -338.286958
85.959976 -267.219082 -188.361522
57.107541 -304.748302 -229.523778
16.910093 -106.088998 -197.465258
99.764425 -43.207681 -208.899075
100.072383 -170.569455 -257.346536
108.522570 36.002851 -12.969820
45.199735 107.146553 -188.591055
110.227318 89.026867 -184.096044
41.722593 -111.656513 -259.526158
105.486975 -162.483116 -383.845057
57.136853 -30.607519 -60.141334
-20.952377 -125.052993 -345.586465
63.808534 -94.743451 -356.580585
85.534425 56.419347 -269.631655
131.923483 142.551295 -356.531242
131.037923 -14.155254 -215.126915
42.328968 -239.710445 -138.149957
-1.412789 -151.641365 -223.730401
-5.677725 -173.475618 -49.525459
58.545564 -116.804214 -355.239091
38.367726 100.763216 -216.906912
96.493650 -131.758618 -138.124558
105.492883 85.386302 -173.635086
124.077601 2.340342 -191.369333
110.957564 -136.825008 -183.792425
124.550685 -281.119739 -152.503936
20.322141 -41.300613 -11.728201
69.010069 -231.905447 -253.294455
107.092711 -36.783678 -256.583381
68.073828 -303.759743 -67.454519
99.079938 35.237130 -77.487590
39.437986 -300.950738 -333.239691
-9.515150 72.293304 -41.499111
73.260064 27.058043 -246.016889
115.552387 31.839909 -111.023352
131.860935 -50.750928 -57.492717
37.866146 100.658434 27.794585
67.679826 89.655118 -266.281866
19.699718 -50.322620 -361.478975
94.251925 -0.727508 -47.342142
116.329820 -199.961815 -337.208779
19.013451 -104.272192 -70.434806
26.639161 -248.985858 -156.155909
30.870204 129.434538 -146.339050
81.840483 -42.733195 -107.571963
131.059182 71.663278 -188.738035
-20.667921 -147.613210 -141.705122
5.235766 43.168919 -80.102497
-0.280565 -132.096808 7.895532
29.918315 102.920024 -244.408895
26.599335 29.061277 -199.881437
16.669488 92.843941 -355.191386
21.547606 -35.412114 -214.782465
48.173533 125.370426 -290.788795
16.888280 110.535210 2.195044
2.757464 -94.999471 -118.681334
13.428523 -278.561767 -330.581288
12.200473 62.878955 -102.243503
7.124412 -20.104532 -191.305770
73.307449 -202.151601 -297.959315
20.890189 -31.850647 -257.671605
7.525423 -235.276419 -68.017294
37.540218 -2.099746 -187.052169
-11.727989 -190.134820 -223.499351
10.281082 24.162007 -163.665299
98.450613 133.558522 -166.150381
65.980697 -229.202709 -335.330833
75.350806 -4.658823 -210.125573
-6.253335 -275.519648 -212.284277
102.749675 -216.014394 -31.849347
14.454997 -55.775804 -197.081374
135.615832 -88.015740 -129.303054
33.694091 68.476250 -126.235394
-4.732243 -191.530868 -364.990313
67.530535 74.407855 -370.548348
-8.896790 -271.061114 -16.941976
121.626129 73.312427 -358.529550
27.087603 -8.282776 -203.792119
131.171228 1.334613 -169.976801
52.571530 -64.668819 1.885936
79.938899 118.737362 -361.194921
81.961252 -197.966133 -316.277458
63.685648 -178.839043 -340.555538
127.517766 -93.093954 -394.341374
61.492675 65.482424 -172.422403
37.969919 -61.838817 -330.752957
42.101281 -250.631157 -106.291491
-3.065503 -31.677715 -292.232657
65.055070 47.643825 -315.565338
65.387212 -68.241874 22.987267
18.961043 -256.307964 -128.239049
24.564457 -111.420538 -174.090705
130.199766 -93.816836 -290.109381
117.518869 66.050495 -372.649998
19.009266 -120.503188 -100.875735
-8.374214 -293.301423 -131.835325
-7.524153 -278.938263 -288.087138
-13.280386 60.433411 -38.764909
80.218342 -171.311482 -356.721033
1.342401 56.292068 -53.837365
117.551981 131.481934 -82.488188
66.478092 -91.818467 -146.504065
-19.557669 140.559686 -109.817904
28.885790 119.407425 -161.750578
27.398642 -224.042127 -395.690536
119.505059 113.420906 -310.228760
71.115579 -232.548070 -167.319553
78.439550 -29.922935 -273.561162
22.224626 -299.993452 1.627962
48.541006 139.052805 -152.905418
58.377786 -171.120870 -63.217656
68.927314 -92.581591 -52.773025
-9.512472 -104.883462 -74.672192
135.558131 -212.433064 -200.453825
106.908483 -297.231876 -387.090250
6.688082 53.793510 -187.953740
-4.791207 106.644861 -303.985831
90.269344 -109.912877 23.197434
11.425804 53.931286 -388.034831
110.483265 -195.442352 -56.784574
54.668063 -65.569889 -344.285379
134.445030 -142.071271 -274.529992
-12.335948 -114.043470 -272.324706
44.613591 -93.900392 -89.246478
71.204996 -165.068089 -320.044337
103.802564 -221.241654 -151.961149
65.239410 -105.894172 -357.160811
35.949399 -84.949057 -214.611551
52.175723 42.045765 -125.519611
65.215654 -64.343907 -160.477283
9.100482 42.287964 -300.893463
130.217323 30.021411 -362.604665
92.910448 -268.353487 -26.224030
117.041323 45.910889 -119.076798
54.296754 88.237447 -308.762035
59.423454 -180.099270 14.419273
-6.747148 145.788994 -287.655753
69.037748 142.196366 -308.219762
57.971154 42.686724 12.547645
-0.551236 -260.815885 -225.635425
34.177069 -101.171431 -218.661823
41.229885 95.246863 -349.579925
63.721251 29.152971 18.585794
52.037196 -127.227362 -34.957396
113.428698 -234.257121 11.521752
125.497691 -77.418864 -357.778355
19.279567 26.006367 -75.261055
132.216520 103.959803 -219.685834
134.517143 -33.617680 -338.104339
130.643350 15.252780 -113.951247
49.499503 23.059373 -124.448415
82.957437 -254.442464 -97.357831
20.634252 89.610085 -338.082079
67.631077 50.915594 -102.281003
112.071851 -198.518084 -271.475866
45.271935 141.121679 -174.767171
35.985599 129.523156 -72.414309
13.221612 40.562092 -220.836090
70.968405 24.516692 -215.636421
-18.186028 121.660402 -252.395497
72.363044 -250.477276 -9.045207
90.194334 -50.178297 -168.652793
2.290672 88.570755 -60.559390
102.572262 -10.600308 -173.935306
2.322704 -282.093279 -391.739929
47.569470 -153.217353 -253.688908
84.639309 135.091950 -120.671431
39.961296 -273.444819 -153.369869
91.625223 -98.151033 -375.904839
54.552251 -301.825240 -268.022843
125.210743 -210.295136 -9.566389
111.471875 -170.329428 15.814340
-19.694044 -57.995482 -210.047638
46.923673 -196.143688 -275.215703
63.822440 63.929724 -71.026476
90.836784 -15.761179 -376.672914
70.382480 38.887127 4.916617
5.777389 -217.046736 -119.845595
110.060577 -171.879542 -120.240906
10.392875 -201.504731 -243.640239
34.139500 -190.887877 -138.859377
-7.645744 -289.589187 -181.841954
115.649535 -227.492561 -290.302653
122.319513 -163.934428 -247.279433
48.856818 -187.459149 -208.214968
122.521183 86.567520 -376.956848
104.481116 -176.408898 -359.356308
42.158669 -54.720196 -99.560263
109.244740 22.918522 -322.282282
48.321318 -62.939888 -20.822484
73.102643 -30.467633 -282.971086
-12.079439 99.152753 -295.676661
83.590316 144.142146 -218.959454
11.329830 39.346564 -259.956081
23.425815 74.098113 -295.805459
76.074454 -32.015434 -97.310313
48.852813 -110.829826 -390.894824
54.909710 138.116340 -53.665273
131.150226 -56.546461 -314.750136
59.739170 54.068869 -272.589700
35.285271 -123.392599 -301.081484
110.139765 -58.060036 -44.822939
23.986279 -179.169112 -326.400410
-13.490020 -24.317550 -148.923335
-16.665691 60.042566 -344.936308
13.946639 -64.172273 -239.323801
22.618031 -155.356989 -339.479936
110.929590 -73.289325 -292.809692
95.981565 38.129321 -341.685847
124.577640 -91.428631 -394.039738
34.636786 -127.695620 -73.040298
123.667735 -217.133798 -274.462238
1.960467 -166.365067 -14.117538
120.672288 -256.236801 -184.741441
37.361420 -200.773344 -119.652191
6.057551 69.209997 -158.439795
135.427798 124.150564 -183.486077
114.448702 -44.645658 -110.364282
78.309658 -45.707577 -154.437917
-0.240920 131.966434 -87.624125
-11.851563 -185.987934 -281.279003
81.538826 -63.647395 -158.890703
67.698323 106.529837 -26.467658
95.859334 137.606791 -281.787822
49.582036 -122.263313 -273.845284
4.444605 63.484598 -77.651405
102.628417 -250.219600 -209.797763
-20.528332 -107.233799 -108.568035
20.687378 -98.256527 -152.658649
59.134006 -190.123119 -39.660450
51.768999 63.835795 -341.697586
-2.854245 -224.973477 -309.023642
12.143085 -163.656599 -20.121806
33.547414 -9.870271 -343.360716
106.349067 -219.047532 22.033655
-0.791889 -187.344055 -360.128507
-16.564090 -125.234513 -264.580539
64.331080 -274.165187 -296.482660
23.573969 -244.129266 -228.134403
62.820490 108.187065 -339.124631
53.737385 -24.750237 -278.401170
61.565819 20.509878 -56.444184
97.830879 -229.191191 -348.631948
106.054648 67.911329 -232.894873
107.642790 33.788900 -355.155500
50.800314 -198.798198 -386.643216
35.818889 51.068474 -212.332354
-16.069274 113.634104 -378.282521
112.509343 20.841921 -133.749511
128.476386 86.379991 -195.779838
61.919982 -61.063424 -36.171280
18.300529 -8.353746 -143.125634
48.607565 -39.132394 -321.424175
67.061032 63.094113 -353.207396
62.102151 -29.924031 -248.820035
93.470769 7.734120 -375.840684
94.500950 -109.100975 -245.021073
17.211628 70.301482 -274.415533
130.491851 34.057087 -206.518142
19.134358 34.571914 -261.050291
23.201394 -147.044936 -167.739867
78.542200 115.233952 -93.164169
15.984854 -116.015621 -323.802623
71.921683 -274.454043 -39.016079
91.166576 112.326293 -0.791988
32.118059 78.616026 -171.701617
56.076486 -261.292106 -148.451063
22.263910 -27.316377 -11.130841
39.831432 126.108680 -292.267234
107.036394 -78.385287 -24.273040
-8.505215 58.994571 -54.192437
60.538133 22.905929 -70.667052
43.187151 -67.431720 -327.529211
6.388025 -50.059056 -218.199589
70.761647 -202.542283 -266.270979
-1.389693 25.260744 -0.383174
91.102840 87.813275 -93.720978
115.888458 1.637930 -112.170424
63.999530 -89.418445 -233.487967
-8.487762 18.503482 -149.148254
79.800024 -162.631496 -155.357529
67.684348 -55.076222 -170.965801
111.473196 -96.938689 -178.183586
87.819139 94.155702 -296.268016
15.123070 -122.775987 -132.056865
37.294611 147.696959 -218.288739
-11.274101 -295.556966 -233.067068
38.281750 -141.250868 -61.631163
118.230945 -141.022385 -251.144623
57.181952 -181.775240 -170.861346
112.675433 -24.860632 -67.539289
-8.273683 -250.997002 -388.231774
95.223412 -87.395811 -245.614760
-8.685477 61.537860 -306.840790
37.454222 -28.319814 -60.417757
70.592277 -149.304029 -328.054786
30.005674 144.782261 -149.026917
75.081626 -271.455476 -190.766527
105.824935 62.649841 23.016362
29.187200 120.117779 -116.557392
113.025938 -157.597815 -294.422705
7.077692 -286.233482 -350.623178
122.202465 118.123888 -343.860408
-0.435621 -25.365613 -167.502895
105.767734 -198.570534 -218.244496
27.942332 -65.661885 -114.063653
3.691216 -279.229188 -184.083970
22.353521 -259.012011 -148.361533
84.557304 -239.543596 -274.733439
44.602485 -230.519595 -101.121783
28.126673 37.167061 -167.816308
19.469391 -275.953512 -152.027218
130.373303 -162.180385 -57.089092
50.806719 -259.961451 -127.723927
52.833803 59.326837 -59.951264
25.297885 66.287117 -355.275065
68.233391 112.934545 -342.782542
23.994786 -93.924003 -52.777065
129.882555 139.860762 -126.506980
122.231009 -144.860510 -184.702709
105.972208 39.847250 -245.224421
68.314155 1.201442 -164.437959
83.690583 -256.183547 -317.965792
44.833589 -147.072860 -362.985547
79.787226 -161.316739 -19.601987
-9.391299 95.946943 -394.022176
4.289904 -200.970311 -0.513439
5.506685 125.483638 -237.467995
74.034727 -9.312369 -380.219843
110.156779 64.087229 -279.140100
65.450124 -7.655794 -25.675010
10.080403 -280.331286 -134.339380
125.769171 10.345895 -178.979460
88.951845 12.323897 -99.332891
-15.285147 -229.204164 -71.676729
13.732370 -254.236751 10.489610
-5.702815 -61.586745 -289.221050
96.716898 -158.485915 -186.319092
126.793298 122.211275 -46.176574
77.676551 -161.439522 -137.854804
-1.437314 -154.224907 -340.290045
118.822519 -202.258408 -201.521961
32.557083 -213.211316 -224.953539
64.868052 -37.415870 -229.785691
55.943753 -278.173689 -329.588706
23.932469 139.068549 -235.633504
31.831906 92.414001 -110.051272
116.838510 37.990739 11.447872
39.916758 141.623802 -171.241066
60.784382 77.457682 -106.968465
67.148121 -294.930882 -376.502291
52.149666 76.515990 -3.480313
52.369426 99.992092 -65.807690
13.317526 -10.440386 -344.255488
134.856905 -187.426018 -224.794276
102.939527 94.164891 -86.924456
-1.814823 -216.385753 -385.648532
72.516347 -71.208447 -114.063770
97.274670 -300.589570 -267.118116
121.096099 25.767219 -85.531880
84.660301 -278.300838 -123.845336
28.618504 120.382932 -160.899796
44.864329 -176.144760 -262.682116
6.601790 76.859644 -200.838050
0.252142 39.973491 -54.523527
-21.440056 -218.409924 -194.290360
43.968755 -142.908059 -277.711394
102.005250 43.724274 -282.980530
112.136573 88.514882 -195.103160
90.939594 -10.519119 -162.480053
57.477639 83.886975 -98.305778
28.870632 63.239442 -181.938931
53.243932 -75.835088 -15.807556
32.889096 79.544021 10.271157
36.722523 -238.792317 -206.610146
9.911362 74.066580 -377.383274
61.288437 -70.817408 -270.181512
52.580061 -188.682591 -130.619929
72.857162 -46.794594 -252.325218
113.982642 -167.363291 -345.832502
121.026314 -45.249953 -217.821548
-3.237615 -67.988586 -23.449985
80.741024 -163.514061 -74.891219
53.827608 -297.667026 -179.631807
-20.837043 -281.932467 -261.004067
116.575811 -38.740620 -188.557374
19.473946 -227.521594 -139.211596
-3.539316 27.700790 -182.407854
69.072159 144.544090 -249.220896
22.518637 -49.900850 -128.004563
63.292869 -109.863510 -170.480539
107.463459 -43.195776 -324.280619
133.036568 -20.459981 -135.096173
97.315758 -144.186383 -131.686063
114.534535 64.353534 -6.102564
124.894680 -191.813307 -16.783423
28.279084 96.268419 -174.073851
-1.691491 -194.914980 -340.441045
29.656124 54.456663 -255.692482
29.309749 -287.536492 -140.585322
100.566630 94.244517 -242.158575
-4.606996 -117.044325 -277.137602
114.366135 98.809693 -289.927601
90.791468 82.159889 -34.841075
90.999485 -296.682592 -393.120136
49.883551 -224.391145 -2.611914
-20.006800 69.708507 -209.307605
121.960785 129.888328 -195.234231
67.815513 100.823485 -288.616916
97.052848 107.650622 -35.413720
50.260820 119.768834 -210.116875
52.301472 -213.760364 -367.316074
62.962150 -3.327405 -58.453579
123.816046 -223.320591 -153.002339
60.735014 -14.114309 -145.332293
-13.504630 -18.531314 -366.076695
40.955832 -247.736209 -259.147365
61.867164 -74.787667 -142.830097
134.940117 -268.821359 -209.775673
23.766933 -6.416484 -63.909970
-2.271023 -0.655742 -99.265714
11.555727 118.927144 -60.662460
29.531742 -164.759110 -318.665105
26.309807 -172.396070 -148.431127
13.665049 117.981163 -322.187453
21.085732 35.523068 -8.024672
-6.618151 -128.765110 -225.303648
46.245642 -98.498559 -258.396228
124.113699 28.838181 -331.818370
13.976958 -229.636604 -278.645472
108.520222 -92.995311 -46.367224
69.840155 70.516247 -285.818704
11.270190 -127.687894 -108.112308
54.142660 -9.240314 -330.787916
41.178079 -10.899415 -343.922347
19.808025 -183.860000 -57.225819
77.546826 116.461535 -168.771204
4.276395 -305.020665 -346.411297
82.885663 -292.836281 -383.419757
114.436026 -3.155889 -343.335982
21.589745 -92.750867 -101.486362
-16.827267 68.190887 -50.136514
133.159027 125.746784 -17.489339
38.597040 31.333022 -299.183434
17.228544 28.272294 -392.474797
70.923430 -255.176189 -95.039134
-0.054638 -293.698022 -394.027753
79.899770 -98.555422 -370.359917
73.934018 -272.633779 -74.341137
-5.475129 30.543455 -226.581659
-19.778816 88.669886 -54.946788
114.132490 31.896146 -90.296268
19.491263 -31.194076 -180.082844
41.722894 74.219258 -162.049677
122.142484 -34.792025 -236.581739
111.328847 121.093327 -335.514120
71.599118 -10.795784 24.796489
88.469934 -169.812616 -241.315233
112.529005 -71.985882 -149.280019
123.829973 -147.704861 -76.446756
-21.831258 39.917543 -357.581500
124.642033 60.423889 -83.247764
13.983271 60.981242 -57.010356
100.499770 -97.508667 -216.409010
33.024706 -218.862886 -66.935878
-12.074647 119.360801 -4.170991
125.435851 10.780222 -47.806312
-14.822833 -49.091801 -124.295693
32.843885 -201.510190 2.490301
37.796790 -40.705980 -280.287627
-16.993513 -291.931612 -320.337778
30.198224 146.431597 -83.782998
5.592431 -3.017626 -84.353603
55.492950 72.720186 19.370610
43.905433 -38.581167 -340.520542
39.146642 -176.270590 -221.429199
16.340778 -273.527354 -143.401105
124.050007 -30.164768 -354.962735
66.604916 -83.052285 -149.016472
75.101909 -131.214885 -155.946510
102.956974 -88.003635 -42.172303
12.107223 -110.124082 -359.622617
49.123507 -239.167428 -19.442969
36.534031 -105.988543 -75.739834
-15.692012 66.081815 -56.417225
89.319423 -291.339213 -355.873287
81.642177 126.349982 -47.986273
20.722173 -114.467769 -36.597235
119.530221 138.110246 -115.610873
-6.975006 133.694544 -123.953638
84.276548 78.152838 -111.784305
35.182022 119.766833 -370.580007
27.563295 141.140764 -65.599695
52.324529 -6.583263 -149.256031
-15.146373 -203.231974 -41.624785
82.214679 -153.284034 -346.742304
56.774517 -174.075245 -116.625079
96.651521 18.846753 -347.789044
-2.340277 51.937758 -22.771338
123.425394 130.651298 -104.727583
122.161408 -112.115870 -113.140530
32.184104 -34.409501 -336.160730
114.070795 -20.725461 -69.206733
55.382770 52.457437 -307.812089
121.273503 -132.079310 -273.316527
-13.123906 -96.936108 -47.286997
33.577077 -43.551745 -139.240573
106.937357 97.508080 -339.787468
75.760497 -180.457669 -314.014841
97.364143 -87.807429 -106.171513
13.859787 -46.212932 -266.775508
-2.018491 -303.498545 -96.414961
22.259215 -172.170372 -161.722928
-20.851796 -288.738808 -393.943414
94.389284 -152.964205 -261.901897
132.269660 -135.098672 -307.245274
105.186585 16.260705 -291.866453
91.773647 -236.782705 -187.524946
58.611997 -15.070037 -209.506081
96.220563 -29.588061 -109.137549
49.954986 46.570357 -84.400340
97.146051 14.864700 -257.819153
126.075853 31.476533 -71.252729
58.260535 -183.937468 -141.231512
12.598742 -240.835652 -296.262259
115.443164 135.157590 -133.481232
-9.963003 -258.041504 -216.851988
73.308008 -39.690826 -154.876030
55.321984 -47.934034 -133.788845
48.637867 -231.042342 -4.113530
17.294841 -164.150691 -92.586539
100.030512 -289.053566 -178.258618
133.327263 -89.267677 -284.690458
109.157655 -173.673396 -329.607942
42.527548 116.503666 -184.843165
106.590489 -267.631992 -116.896243
67.386125 113.459451 3.435083
-18.710326 -281.985195 -240.038704
96.442267 -11.137308 -187.424658
1.540546 21.024588 2.963999
15.700824 -240.258641 -205.061224
57.790508 -220.230542 -181.577331
-5.092991 59.818356 -393.577140
17.885036 -283.059475 -93.006076
2.343086 -180.087030 -376.254000
-13.282051 -265.941905 -62.319662
44.179987 51.386828 -277.467081
62.512104 75.068959 -296.148980
27.558944 -169.426749 -317.160426
79.154068 -113.606487 -120.510923
29.230632 -301.103267 -99.797824
118.569557 -59.660584 -289.788071
93.499327 -161.537278 -355.737596
59.359829 -281.019902 -198.111177
33.776941 -27.884362 -250.455373
20.350104 -107.077196 -181.679692
44.356792 69.772942 -230.297909
-3.989170 -172.889335 -102.429754
12.964355 -186.579090 -81.612523
114.812307 -133.654170 -106.430958
93.821014 -46.674343 -274.589826
48.780681 -78.911165 -378.421863
-0.309856 -156.097254 -197.207745
64.140243 -276.723460 -260.602559
19.138283 -63.920231 -54.925876
113.718969 -95.429393 -363.543355
19.262359 -51.002036 -132.750432
90.769074 -205.837518 -331.610371
93.706605 -110.297269 -154.039881
52.644726 -45.425214 -27.508553
33.474655 120.792338 9.712555
95.509773 -277.853821 -318.697901
-10.854324 92.083684 -154.126679
-13.483572 -290.674352 -26.552467
108.065970 -80.017301 -294.295356
-20.630337 -196.035650 -59.932559
113.522229 72.812222 -315.157981
-6.685561 -45.329360 -150.407309
-17.952411 -19.116033 -268.246277
71.565388 -146.708078 -241.514512
104.970061 -210.248381 -237.992623
116.829413 -218.970244 -115.471702
86.427756 -73.884690 -376.623979
121.623054 64.930899 -291.912409
55.262075 -121.896028 -171.993571
19.922868 -258.085748 -313.680893
-13.146736 80.764864 -65.117874
81.374946 -269.032904 -186.682438
119.643669 -288.492560 -72.123169
79.160264 -59.132911 -122.501138
-13.035378 -73.269314 -288.788413
83.155661 112.768760 -241.567795
54.873758 -276.109489 -20.627572
121.798552 -240.172973 -33.033757
73.730800 -183.512813 -310.249076
46.119547 -82.880236 -381.569082
82.096238 -163.123786 -82.364210
89.088823 -102.658734 -86.823192
-7.843177 -228.501437 -360.779735
-4.229828 -117.556274 -355.793009
118.579013 109.286926 -166.364742
23.049845 119.712412 -301.635524
-11.157374 -12.708359 -262.866066
78.162140 -234.701193 -377.605823
-10.115663 -185.375142 3.965932
105.135683 -249.611261 -48.071659
101.046217 104.694385 -277.028693
20.722122 -44.490093 -290.599157
126.919671 -0.855292 -281.017184
120.655653 125.222070 -141.810559
4.067972 116.342518 -60.313068
71.446194 -85.966009 -108.776219
44.391237 -78.042385 -107.622663
51.991252 -44.014093 -152.792888
63.606365 69.767255 -75.737631
45.125221 10.067131 -12.762094
9.509266 -254.968638 -89.965570
42.604374 23.353620 -335.677677
56.110319 -179.248428 -70.643877
83.380711 -21.979533 -263.084459
91.284136 -179.955152 7.866053
106.970894 135.119122 -84.169507
-0.326111 -182.592918 -130.341036
40.650892 -18.441296 -1.700366
-5.934840 12.759718 -82.373715
-14.176643 -5.410740 17.345922
60.432546 -228.491204 -261.416359
12.600334 56.643694 -354.970799
119.702166 -226.972524 -366.930744
121.091179 -260.106456 -130.734514
59.900281 146.393674 27.034224
108.604434 65.316870 -389.152990
49.269135 -46.198810 -299.189751
104.403109 62.734962 -209.306805
34.011212 -47.253800 -344.104531
118.687510 118.378862 -373.583418
77.078140 125.101460 28.876426
25.279714 -14.125602 -277.192410
44.261163 -191.633223 -229.282425
109.226785 -42.187943 -145.082547
18.735655 65.288105 -39.898502
110.022416 99.256925 -346.464191
15.939247 92.545245 -126.268581
110.417371 36.507580 -155.646669
40.413295 78.348276 -60.621922
32.701948 -152.279678 -37.710342
25.835783 -256.161071 -286.249288
81.204436 -275.920697 -128.679825
-5.182253 -58.843566 -110.505800
74.135400 -251.030753 -190.430852
76.193653 -53.879744 -242.976321
87.389086 134.253110 -344.881720
116.249621 22.013347 7.912985
100.712106 -259.146423 -141.654975
115.170846 142.516562 -54.798178
107.780973 -9.774977 -176.259706
39.856204 -258.220373 -98.523108
37.236202 -107.261037 -351.048327
48.446907 56.327778 -356.905555
-14.188409 137.764603 -118.731166
24.112359 -273.282058 -5.238998
19.924705 -65.570796 -231.270355
-20.354700 77.570085 -253.805334
131.433815 -304.897943 -236.713888
33.317427 82.839793 -30.093321
97.125751 -104.708934 -138.318062
39.162807 -105.213773 -49.280287
-3.264240 -91.393247 -167.453997
107.240705 128.579733 -236.425556
86.360405 -270.344446 -9.459653
116.880099 63.590409 -308.727144
61.666026 107.754867 -284.614746
85.653263 113.462624 -266.789112
96.954445 -161.592341 -22.718772
54.547911 -155.819487 4.794202
70.676479 -176.663503 19.466721
97.169987 25.167108 -377.231321
52.383492 -137.931209 -251.048523
122.314601 -258.025265 -384.491352
-19.273392 -117.185714 -197.459793
121.431088 -122.487077 3.274277
100.787768 -139.107662 -312.156513
128.059325 -267.994906 -43.144498
59.436791 -171.072355 -225.933228
84.995946 31.430330 26.767970
64.438706 -288.716193 -268.659914
126.193433 -136.372885 -322.695411
63.803154 -162.662108 -266.920684
130.114921 83.637251 -89.272798
74.164758 8.480032 -297.363074
127.194288 -223.990866 -71.683212
15.790936 98.049264 -275.987076
-14.101792 -39.960025 -75.789978
105.360158 -72.549935 -109.404570
126.696495 -288.512257 -197.646098
-12.588627 94.289602 3.152731
78.910065 137.160523 -319.698672
11.579680 -184.000096 -72.238319
87.949535 -255.650734 -113.500195
81.881616 -247.606248 -202.551602
108.934600 -137.086697 -148.673872
22.897860 147.738050 -110.141958
0.267727 -41.193994 -329.466270
110.269429 91.370256 -211.878216
58.158848 -90.090198 -79.235899
115.023067 -300.591100 -257.935323
84.792196 -229.933389 -78.461818
132.992412 34.270199 -221.048127
35.854464 -299.579061 -379.778648
74.266811 -191.301711 -84.142930
36.720068 33.731152 -11.564780
94.974111 -58.277181 -332.204965
107.119315 -18.048409 -365.655614
25.182936 148.764860 -219.493317
116.302830 -158.678136 -376.075180
83.495111 4.801468 -147.048984
56.855009 -53.778647 -8.464943
37.275348 -257.566196 -21.732745
61.073655 -126.897264 -4.026480
114.338364 13.496315 -384.631010
122.599751 -300.118391 -189.078380
1.593018 -264.648279 -103.876281
26.550467 -263.854174 -348.605698
47.876443 -107.544806 -340.135902
107.049331 -120.382443 -145.091196
24.228363 -204.932294 -275.239699
42.884126 13.589291 -105.807967
76.567630 -229.174117 18.286624
32.296442 0.533855 -148.405492
10.530044 -271.847482 -388.643203
61.005358 135.853246 -119.985663
104.564164 -88.223124 -148.976260
129.771073 -7.554996 -248.103201
40.929379 -299.116121 -334.060018
46.470405 120.133331 -103.817195
47.944700 20.608463 -292.455649
133.212098 -205.925509 -304.551937
86.971900 -211.332429 -159.820437
84.944214 -194.224740 -279.382601
24.905924 66.376107 -89.702601
122.955756 -284.385151 -335.585862
106.177802 -63.499474 -283.094884
17.865233 -176.924238 -48.461935
95.209772 -211.069673 -128.931999
76.852275 -113.794002 -265.138303
59.770752 55.629051 -225.142101
-21.324740 0.253742 -361.185068
56.261226 -43.470752 -316.970493
25.043765 -114.120157 -351.723939
96.880798 -88.001346 -14.297405
-12.206119 98.938984 13.881708
80.362789 132.210479 -38.830986
85.575532 -165.575369 -287.628716
3.929863 56.014071 -323.819140
103.360582 80.356813 -310.235022
128.137525 99.606118 15.104475
59.781249 -131.997059 -335.167294
124.119602 -37.283496 -1.293766
12.138779 -3.178839 -370.685178
134.359016 -250.079164 -381.313687
61.312635 68.651686 -12.617082
73.633237 42.171409 -151.091781
87.476188 -207.292673 -376.047465
130.034937 -0.461711 3.112974
72.280842 36.298021 -230.315400
96.648089 134.931278 -258.990825
4.529472 -149.912353 -160.747376
37.794330 -118.834650 -182.532840
2.219102 -65.789911 -371.613408
87.192754 -110.591262 -175.267539
21.848192 -300.091681 -370.800514
70.507135 -18.029937 -25.509357
73.605388 -90.495979 -256.731660
60.391958 -77.103707 -167.225460
29.196264 -5.780466 -181.382960
-9.675732 -77.782429 -392.076079
5.817091 6.364272 -225.877673
134.166302 -48.359553 -191.663548
23.457884 110.767386 -268.270871
40.667394 104.428504 -310.155776
-1.229744 147.697589 -384.948275
100.107832 25.358430 -214.462785
-22.831120 137.717311 -236.155357
39.095899 41.586545 -227.046479
55.122115 41.977064 -36.037715
114.805575 -135.188518 -261.882744
-20.838827 -153.773491 -13.933754
43.950155 -26.043741 -119.114779
37.773293 15.214987 -78.962421
63.756840 -298.904004 -90.041305
-12.012375 83.277624 -82.268735
-6.930221 38.780280 -263.306694
46.859694 89.612845 -29.631747
0.519191 -287.800543 -372.010976
-14.065354 87.992917 -229.620255
50.431075 -127.322110 -23.304608
69.711944 51.291198 3.452301
36.270136 -264.969424 -90.685681
110.341355 -15.298004 -305.927314
107.131106 100.998983 -76.216474
127.108862 48.485116 -109.780656
104.872667 -13.651009 -232.747418
49.899242 92.258745 -75.189714
128.299498 84.224288 4.547187
4.605249 -67.146530 -86.201570
120.322947 -181.175302 -141.397222
-17.367383 -54.166830 -65.010257
-0.917489 127.575537 19.406375
-1.111242 -273.652496 -187.391060
105.896827 -283.624720 16.860410
80.016009 -45.135311 -381.077547
80.534141 59.087195 -272.105404
94.700785 -274.073130 -198.307154
130.898098 -166.172784 -145.985260
-12.055938 -93.973853 -384.511049
45.038888 -242.948615 -368.985304
73.184849 -231.146749 -30.442671
-13.277963 -54.514706 -143.946001
35.429685 -305.067702 -347.602172
23.382776 134.784565 -204.655965
16.528811 -57.891542 -37.792775
-0.436598 -73.517260 -201.386972
122.213633 -280.063795 -91.099929
23.786640 78.668806 -15.840718
51.418212 -239.815798 -64.732856
89.862772 -262.005809 20.461433
32.341850 -150.522228 -89.797699
103.514344 62.819340 -278.021454
1.015361 -42.678138 -249.010442
112.318851 -263.385544 -333.475267
134.305712 -275.738614 6.719778
25.613497 -33.812714 -255.902037
39.853872 7.145289 -343.545168
56.975774 -174.626124 1.975096
8.760393 -125.582503 -332.661297
-14.762375 93.275116 -271.053047
77.827349 43.278007 -52.073569
43.008618 124.411319 -191.016311
45.236627 -18.032480 -78.868336
86.628028 115.896582 -381.705863
110.188235 -148.367545 -265.688034
29.446919 -160.175397 -28.423199
133.286052 -56.817958 -79.610200
70.388626 -192.960462 -22.059920
-0.189662 -103.040897 -82.929069
112.013958 66.468069 -83.381688
53.864523 -52.977085 -250.376950
-1.905629 110.686023 -129.817258
83.687622 -295.664531 -161.005034
16.409005 10.319949 -386.553645
70.768388 -265.235333 -170.526556
62.463666 145.271339 -91.030719
80.761056 -146.557776 -193.925666
88.291845 -77.460214 -300.985152
44.827935 105.049028 -365.094500
22.451111 -73.352113 -113.605370
28.794141 -146.708020 -368.577121
83.704160 -125.218985 -306.742011
98.097966 -78.354004 -245.945413
80.645284 -260.246520 -175.536507
25.064407 -284.228152 -243.618813
107.787404 -24.315076 -228.084352
122.060433 -147.820327 -18.740401
87.113542 -189.932034 -133.905361
4.007476 136.888506 -184.532274
22.039609 136.817461 -39.225269
119.710322 -137.839445 -355.802842
34.134885 -118.581576 -352.819680
36.674295 -116.745722 -76.245062
90.175780 -103.137161 -6.671227
109.870521 51.784394 -81.342403
84.778076 -191.700959 0.481394
-12.721123 -286.062751 -78.498781
75.197282 -63.680758 -96.382516
-12.469864 -259.966849 -161.629979
57.152788 -174.697068 -313.156219
-7.375584 -24.548858 -346.436677
111.629821 -125.812999 -157.262818
114.108547 -208.079831 -216.894243
-20.880893 122.266014 -172.430785
-19.706247 43.071470 -252.199369
84.327442 -87.211058 -33.933203
54.235099 -86.864462 -365.510994
-16.444327 -138.454410 -271.253284
-11.573218 -87.315051 -132.840653
92.080447 -143.740347 -17.010184
67.131731 31.927374 -53.348089
66.362588 -282.859725 -382.200489
77.390488 -57.030714 -221.857800
8.385141 -206.562453 -199.137899
30.560591 -275.382721 -375.731277
124.405964 -262.642646 -388.806311
99.285817 -296.878479 -97.017290
2.635912 -264.974005 -383.906293
66.398167 -49.597914 -225.197413
126.374029 -132.555740 -263.384569
25.659029 -95.168285 -57.875703
93.871916 43.126110 -175.702814
-0.937987 -60.663153 -70.697213
2.450251 -108.306497 7.369878
98.030077 -58.011068 -0.794325
92.576758 -22.007392 -141.491900
51.335019 -127.558877 17.997483
116.549267 -60.927032 -284.080223
78.976612 45.990899 -267.966316
127.236632 95.654047 -337.655851
115.731104 38.787979 -298.361201
115.319560 -100.109607 -149.916504
67.762178 -290.781242 -212.530743
-2.681303 117.683959 -110.604572
126.302279 -274.156094 -206.094663
109.880562 -166.145561 -339.510667
58.511813 22.028902 -255.460932
39.239060 -89.400945 -61.009578
1.846214 -30.526911 -145.570150
43.109979 -39.142670 -52.462712
111.813511 -87.389773 -147.122613
103.630400 -130.988416 25.532898
48.083451 -94.930845 -222.475777
21.908619 35.487974 -391.512140
28.397435 105.741765 -59.833072
63.383445 -253.375866 -54.737866
28.004892 -197.785404 -325.291157
124.614717 -155.247757 -190.011250
7.299962 -268.701051 -116.020505
64.308309 132.164236 -5.687442
45.663783 -179.826514 -114.075310
124.666771 -55.467127 -244.382549
102.792784 36.442162 -295.329961
24.439371 90.478357 -29.448402
0.448934 111.552985 -304.486991
122.917356 31.583860 -162.873956
2.169945 -278.856908 -192.015591
74.132454 141.507102 -207.695166
86.514529 12.790395 -255.114493
132.212410 -196.320897 -371.275561
58.199658 -85.694231 -44.597636
78.616792 -191.146331 -236.335064
122.207666 -190.211900 -151.383282
-11.693925 -29.389199 -19.259365
-13.195297 -11.293671 -336.696252
44.814175 -21.237506 -200.491821
72.761759 -25.247520 -52.473299
63.305813 -179.192402 -321.694080
69.501120 41.868798 -77.172740
67.878407 -106.829801 19.569684
67.498530 114.693587 -42.097572
100.060077 -305.441813 -205.670146
78.034899 80.763628 -9.645105
-22.927917 22.957843 -167.283696
-0.007005 104.969897 -5.370219
34.300475 -251.972878 -96.227515
104.805480 -294.757092 -135.538711
49.863850 -100.718542 -50.880420
2.099086 75.891634 -2.873145
54.458363 -300.384831 -267.733702
-5.062066 -74.061663 -303.265595
1.553171 106.652470 -361.651387
42.207210 -290.743121 -199.824572
103.175691 -89.652446 -218.799895
80.981320 124.533823 -136.016723
-10.719708 -55.748644 -324.427828
90.917649 -250.422144 -176.877274
69.957343 69.997727 -101.486767
9.219626 120.457123 -38.782691
22.457904 -159.787233 -24.544110
5.315557 -76.105467 -245.315057
22.385405 101.864106 -335.261778
-19.916223 -50.959469 16.635610
46.170765 -298.044626 -48.999262
64.817337 -144.511213 -341.851883
66.507030 59.516007 -357.918076
-17.422784 -101.015993 -44.522258
-8.402393 126.211844 11.347468
113.013207 -262.200498 -319.964009
96.797151 -40.739742 -83.196832
100.425539 -301.105448 -22.743235
71.088309 -132.931059 -251.607362
123.349265 -187.166336 -23.516267
100.789439 -45.302311 -45.386506
111.694061 133.278784 -332.563628
129.728563 -6.044996 -10.543959
2.919182 -130.770712 -282.833321
116.342535 69.623568 -292.496515
91.107205 -289.796913 -220.428826
28.828742 -153.606799 -178.764782
47.170646 -269.112124 -293.447488
-15.895517 -171.733270 -3.750292
-2.463654 56.819996 -108.930721
132.579900 -119.467826 -209.379762
125.181199 -209.718181 -379.697513
-4.942637 -86.735025 -4.081592
-22.530056 55.477841 -309.718497
49.192600 125.503446 -314.656606
-5.442556 -13.590975 -217.950653
34.314380 20.662460 -276.699672
105.020100 -39.503927 -357.371605
72.212141 -137.845063 -77.236657
-20.305623 23.127640 -347.889507
105.598149 -299.367740 -248.503378
29.022262 -157.971798 -89.022095
43.816848 104.360400 16.504990
68.784065 142.649054 -19.944843
-13.633692 -89.414303 -46.699632
112.468963 -216.147959 -340.157722
8.718630 -222.688872 -282.782337
-0.621953 -150.956922 -354.769582
116.239012 75.338484 -37.915003
-9.220113 129.483492 -359.983877
127.175253 -57.705589 -87.396332
-8.889576 113.203104 -96.617255
-1.201910 -303.165219 -47.489237
123.500616 -27.324495 -116.956319
4.964197 -148.257065 -76.536010
130.563599 135.287836 -382.004189
-4.620081 -238.464707 -242.184102
126.650199 -11.774803 -159.562392
88.282352 49.509919 -322.756266
63.886933 -146.198968 -68.632695
23.918108 29.870674 -18.988324
39.155503 127.358878 -90.347523
18.560426 81.999717 -291.092259
61.413018 33.267694 -263.627798
68.547102 34.282727 -189.904618
28.711476 -67.353401 -173.030170
36.948606 18.335625 -220.058685
9.918590 108.448535 -25.981797
-20.609162 63.000479 -263.481418
72.903049 -101.131682 26.014741
90.803039 -126.226390 -383.553845
39.976766 -229.201332 -117.220385
66.275134 -197.139143 -354.511145
-2.943978 -220.433529 -242.275815
125.758803 67.637089 -108.037663
9.518265 -172.469744 -110.527562
102.860915 90.116877 18.912573
101.018151 -234.523338 -120.736661
62.987301 27.803445 -160.163170
16.054918 -297.039845 -271.623024
51.046749 145.607602 23.698580
87.091794 -256.876060 25.413040
-9.861348 -19.741720 -203.883986
77.756625 -105.407948 -326.655082
73.469447 -269.124945 26.422519
55.591099 -106.979931 -175.735858
-1.935552 35.697322 -40.980514
18.370869 -157.301429 -367.765575
115.156606 -178.834223 0.682803
113.121164 -19.790767 -313.104226
93.088301 -133.787980 -298.871093
74.013040 -197.468195 -310.276031
12.934727 -66.522506 -205.775333
-0.446723 -145.942042 -228.131139
1.186568 100.455941 -170.151546
43.019964 -137.662543 -329.008363
43.111536 3.355625 -48.053226
78.990322 129.423409 -118.118606
14.798694 -23.224941 -218.184886
82.158786 -133.560695 -66.435120
96.458420 -218.979860 -230.407407
33.876781 4.016722 -138.225822
33.133744 117.733624 -343.113901
87.504973 -236.444315 -219.890506
127.971006 0.585995 -350.649719
73.984921 -178.361821 -285.795067
39.490065 -65.986164 -392.063170
94.607028 -144.467385 -295.417697
31.421002 142.470869 -11.047729
22.545964 -14.905245 -4.125405
18.972830 -203.089200 -207.134136
121.385577 -111.964269 -373.045821
57.976524 -213.722569 -185.211594
31.125262 -161.483009 0.508622
26.870106 -200.511610 -163.589579
62.747621 69.798315 -158.112822
79.563763 -286.708856 -72.731328
116.604839 -255.751369 -199.760394
25.507159 -151.449490 -338.321623
58.152044 -6.235013 -373.199117
91.200628 107.181340 21.438184
49.117205 -50.079172 -207.857843
-4.612454 -4.817227 -15.137359
-18.213490 90.772427 -144.075260
131.479945 -22.142524 -104.090183
86.666176 -10.542452 -131.870325
69.506989 77.440900 -59.410188
52.176894 -20.206642 -349.593216
15.037187 -45.527455 -74.466374
96.002237 -291.322848 -315.989947
2.376347 -233.716060 -300.027469
60.937998 -90.915942 -91.350670
115.722809 95.443884 -205.124083
65.818524 64.240771 -72.307413
35.437061 -18.656833 -34.137155
82.888711 -98.742895 -228.107493
46.756351 -212.317005 -392.859084
106.362026 -66.453377 -277.004440
131.842391 -207.440577 -352.045256
112.556406 -302.857948 -228.943627
85.973060 -166.683522 -234.182779
-13.424165 -26.962754 -50.516256
58.740683 133.081174 -328.576136
65.498349 3.946689 -42.323239
40.743398 20.127929 -264.686443
28.272006 -300.097707 -275.017080
-16.122185 -67.276317 -160.699847
45.573763 20.601777 -138.816783
113.842691 -72.126082 -382.914119
22.247839 -269.626133 -214.608578
74.707322 26.345487 -145.040462
25.851175 -44.892108 -151.787074
73.300461 -302.648865 -351.315479
55.191494 -281.455943 -299.579150
46.763596 -163.357817 -170.678417
67.518790 35.672929 -358.195537
11.888167 -303.047480 -316.903916
-22.758431 121.251136 -202.288306
74.472468 -57.726970 -238.042202
34.884819 66.323785 -51.362309
83.407394 -7.235366 -277.689751
45.407380 86.182385 -137.600864
134.482178 -237.688346 -393.966257
40.007469 -277.356395 -260.101540
-3.715729 -27.893230 -138.048295
-12.216843 57.900817 -256.408420
109.398739 95.120215 -249.024694
85.077499 -278.306267 -36.744759
128.571135 -189.741874 15.275274
25.829660 -191.295133 -320.949266
95.201371 -270.067593 -107.399377
1.985692 -48.634113 -130.812989
86.724065 -156.625822 -356.780467
83.669830 -33.543694 -267.411866
9.427261 -279.844446 -267.824993
-8.310103 66.115975 -221.922562
106.247368 -32.087667 -338.700395
22.772885 -14.213642 -277.235467
13.451129 -43.452288 -122.509513
120.832040 -152.101457 -105.566961
124.316022 -56.341286 -200.000084
38.033208 -260.193477 -387.196585
104.014491 54.687523 -355.251231
14.897795 79.036359 -352.850731
129.573387 -288.131808 -82.044125
21.051453 -290.630309 14.492006
45.495664 -261.108493 4.763666
84.084797 -53.262365 -15.917401
133.876108 40.211385 -6.284957
45.715802 -104.242937 -27.710456
-8.721544 143.437758 -66.545311
112.897042 117.656414 -68.481087
83.773371 -190.875062 -239.199208
7.614549 85.246906 8.436004
65.519328 -159.324913 -208.296475
12.864459 -169.280552 -155.928643
60.107150 147.808800 -289.400582
13.706337 -9.380475 -111.862735
34.358166 -247.822350 -280.496330
77.590553 105.956198 -339.822434
130.223473 -109.309552 -132.147160
104.899103 -268.439009 -173.316791
69.280044 -33.657934 -100.507634
2.315024 28.050390 -51.527086
122.088454 -278.671116 -52.551595
-0.804776 -31.805071 -242.087930
56.326421 -30.940639 -108.664557
58.664191 -76.828911 -368.759979
60.042929 -193.935193 -298.781924
-11.196553 -277.693525 -83.686664
91.589425 54.650980 -321.561167
121.931012 -100.535239 -26.192865
18.164734 127.804480 -17.741583
66.810153 -112.925944 -92.819059
113.419661 -94.558167 -45.393939
114.595615 -159.859052 -234.661574
125.822305 79.873105 -187.683594
39.876452 -234.480366 -384.012717
60.270623 2.309240 -39.044138
55.546544 141.497002 -392.601263
-11.471158 -23.061686 -30.787513
-6.843127 -239.877779 -207.029389
-6.843360 -1.572397 -167.928323
39.118043 -270.210905 -62.539107
58.643329 65.276050 -277.887632
24.805608 -279.361237 -11.272787
43.883372 -42.355990 -241.626885
94.259923 -234.526050 -229.742538
37.566339 -42.384643 -153.605822
111.607886 -294.938894 -208.705339
-3.091355 -66.096769 -354.651801
123.587489 104.628156 -243.123209
79.117263 -174.287340 -173.538729
9.321008 24.841057 -382.713013
123.245922 -195.892460 -65.798882
83.956360 127.569130 -283.440640
-11.889535 -129.151197 3.047254
-19.252744 -42.639843 -155.311859
55.682413 -143.548037 -373.026436
107.260347 -251.402735 -334.038832
76.331121 -286.863405 -338.896930
71.543813 75.016512 19.531929
44.685450 -158.617976 28.765099
8.266082 -173.975093 -36.582063
33.466556 -204.206358 -256.955004
43.730260 -16.986638 -337.771825
101.701551 -238.680164 -245.912204
30.933421 142.364739 -379.356916
-15.518105 122.106505 -210.833553
-6.482543 -60.323946 -312.167194
133.805857 127.545102 -84.965859
-9.854453 41.837649 -117.032723
101.714614 -55.584734 -158.316241
78.166601 -164.749885 21.972784
6.311661 0.773998 -206.228213
-2.564585 -54.044478 -208.296326
64.222032 142.824447 -329.079602
49.501449 -127.446405 -63.228823
102.838507 -160.342817 -187.862472
25.809583 -173.538467 -111.969681
78.038024 -226.964074 -338.471097
2.073405 -66.824106 -296.207282
63.579609 -153.060834 -189.227436
8.588660 -263.703857 -386.507578
120.876050 -145.108321 -323.085281
64.506259 -61.813607 -326.998185
131.919384 7.835891 -112.846024
72.629223 -131.623272 -0.196440
119.827629 95.121287 -218.308334
65.259097 33.135761 -211.250674
59.492389 -69.260965 -240.178936
28.500074 51.949938 -345.168275
55.816873 -83.678085 -323.222603
25.231852 135.293596 -229.938010
52.799999 46.945420 -172.883991
132.637543 23.187779 -188.905480
87.689407 -212.366208 -281.290988
24.312384 -145.582248 13.377660
121.257267 -240.615558 -202.533657
47.905738 -81.301803 -121.526100
32.994793 -198.483794 -26.533490
2.524875 8.718436 -41.051703
24.182440 107.061437 -345.942159
50.745107 -38.912228 -128.559299
7.997917 15.399377 -373.704209
28.033580 120.822822 -315.546370
-23.122970 -74.715641 -198.043609
97.679446 -30.395185 -207.878533
44.139614 -220.175814 -216.418279
56.277630 76.218239 -321.524243
90.791264 126.187658 -98.818572
91.444322 -199.385752 -316.061574
35.145659 -264.407272 -184.799448
-14.727980 -100.293945 -127.795756
100.932472 35.810611 -206.544323
16.018763 -119.242347 -158.915509
102.350851 -10.676677 -317.335451
124.319191 28.575953 -373.102702
113.765401 -237.775415 -227.647637
28.487786 -122.025450 -55.602218
121.053378 -275.294624 -164.222527
108.072246 142.044847 -342.995479
70.750988 -148.459540 -217.370651
83.219306 -241.373428 -22.575981
-12.306015 -276.045212 -135.457942
93.336437 -55.218920 -47.587539
25.178795 91.253232 -207.564398
109.351777 -291.328841 -137.114796
117.400611 105.270481 -56.087641
60.637993 20.432106 16.266826
2.194942 -148.884168 -384.998476
35.694618 127.568615 -92.990561
40.815901 -139.781091 -153.421047
44.442831 -201.737193 -270.982863
-21.181946 85.448201 -73.023708
57.995713 131.220356 -42.829801
106.366976 84.723001 -394.960245
43.700949 -171.236160 -245.635394
96.298489 -149.875242 -364.584742
34.355189 21.074981 -271.032775
43.780335 -48.478798 -121.571859
47.320567 -285.573320 14.712862
65.261216 94.246213 -147.807551
69.298207 18.223780 -120.512286
61.331735 -142.595757 -212.961294
63.470479 124.717907 -174.966694
116.883053 -101.150683 -36.793999
115.244547 -105.893424 5.213908
75.175247 -252.943162 -253.118547
55.087324 90.473511 -23.624688
44.327096 -108.427024 -353.425993
