-389.626035 -102.967861 366.695680
-121.098336 -284.562791 430.064173
-180.793420 -96.216943 437.330085
-253.202089 35.023380 438.581764
-517.852644 -309.782194 360.781121
-325.669681 -346.275502 444.644626
-565.698109 -159.525437 385.056419
-81.836985 -137.029960 594.260786
-385.726773 -158.449739 368.559072
-265.556257 -275.956041 410.655790
-109.285883 26.086680 430.700024
-434.582200 -184.974856 453.264771
-390.400702 -215.438350 379.331116
-221.936160 -3.845483 374.568946
-397.560432 25.940794 448.888711
-567.609862 -275.868266 416.790953
-378.813944 -190.881523 546.593160
-416.733841 -353.797167 534.584304
-298.049455 -86.982151 561.819108
-158.513251 -199.689958 374.357794
-49.459236 -52.267453 381.461648
-102.337618 -370.741461 459.189794
-176.117211 -72.352133 386.403856
-169.234168 -149.113126 400.393189
-217.711282 -116.182682 551.700423
-95.396559 -270.758524 345.873706
-393.208023 -269.589942 447.153579
-271.881605 -34.442256 474.924719
-167.673204 -324.140807 570.986737
-371.613493 -7.740319 353.277040
-519.889379 35.494708 353.783750
-149.487496 -47.373639 447.417642
-343.216126 -119.561502 554.825161
-177.490241 6.725171 472.738076
-68.406528 -282.945390 407.349414
-160.563331 -361.787081 390.796197
-292.953479 -318.859594 509.680731
-314.129128 38.765341 450.080708
-81.270853 -247.221328 335.640181
-50.082220 54.782484 600.875560
-535.711056 -292.095287 413.860665
-363.292757 -270.175622 398.651137
-95.552752 -380.347743 415.467803
-459.114016 -173.564539 392.156690
-548.492969 37.367792 488.924245
-338.119728 -206.638150 349.703459
-299.981735 -67.029939 599.269336
-447.234682 -216.438411 332.369094
-382.838482 -18.891213 571.298500
-68.902468 -2.246054 376.049149
-547.677439 -377.936930 619.457299
-219.599224 -213.744912 419.365874
-244.656547 -354.635304 363.005220
-316.745125 3.371030 362.355080
-358.192739 -386.265678 617.184409
-389.066087 45.979557 557.057471
-534.574696 -109.554392 578.377391
-348.515567 -315.592066 431.611272
-404.483155 -179.700383 466.521750
-318.571119 -90.905553 533.449047
-326.514940 -142.829082 388.405902
-167.408797 -100.914592 519.661646
-257.946199 -129.540453 463.967054
-239.450943 -312.646303 482.228663
-212.847373 -353.130912 380.270035
-433.859109 -256.275738 454.453723
-308.169525 -285.295054 346.633642
-550.312512 -319.424962 464.693628
-299.006677 -280.002866 556.183556
-512.987762 -201.037007 560.808437
-223.719495 -306.965345 383.057019
-137.701426 -302.411498 370.434241
-430.314167 -313.491574 405.725214
-77.955555 -34.785455 373.499470
-99.820231 -11.142689 507.277664
-331.082403 -56.063417 533.291497
-115.571482 -255.774242 530.728478
-496.900411 -159.869880 338.066973
-513.031033 -224.179421 378.588010
-405.614550 -178.736774 549.197528
-175.956605 -388.404826 469.427898
-451.232939 -90.456340 607.788167
-550.846533 -135.349167 588.551811
-156.126578 -264.312910 610.238216
-106.751738 -19.231230 459.465325
-399.364262 37.670143 474.114194
-332.211766 23.416980 511.952769
-523.354661 -199.944189 499.764003
-256.952085 4.175753 441.019565
-290.428348 -353.227024 423.380562
-271.911106 -335.565637 466.529837
-489.387808 -322.602486 490.827188
-285.654953 -35.402442 445.422046
-302.661369 -255.468758 516.811055
-325.891940 -32.262114 539.525820
-381.537944 -173.596914 514.043093
-133.124311 -185.603107 554.883894
-496.779146 -155.073139 401.594784
-411.747237 -334.490938 600.899013
-61.970691 -73.971049 415.142130
-426.880176 48.437438 581.866980
-370.781224 -309.315746 458.751868
-446.749667 -132.305104 501.715430
-226.666558 -220.473687 444.003515
-452.717986 -131.610711 599.364333
-491.797708 -282.623612 548.516407
-414.709272 32.544684 497.026140
-456.211427 -68.279173 420.547929
-379.780316 -319.667024 332.364621
-345.619071 -294.188798 343.284888
-67.335869 -184.539418 460.943153
-289.438941 -201.813563 337.461859
-433.615108 -46.885127 425.285454
-306.783770 -164.972616 593.782832
-215.465789 -291.601473 467.622535
-141.820609 -92.326488 364.827076
-117.930220 -174.306601 410.346867
-550.104310 4.992376 561.037454
-276.464271 -137.250342 439.410930
-425.971657 -221.658357 454.246842
-426.186003 -137.896249 567.795474
-171.999030 -263.249645 465.376070
-246.547124 -119.643365 583.178765
-225.472436 -284.128802 569.214062
-53.802014 -369.147931 453.339440
-494.102128 -300.960483 534.529224
-552.575881 -169.252885 523.101700
-244.157270 -19.576853 374.661471
-541.440090 -243.969576 367.508999
-77.069266 -85.573926 535.942326
-418.378916 -66.332122 449.254101
-521.983148 -131.336896 531.560646
-170.861708 -92.017826 606.287531
-563.121101 -45.370995 465.765270
-256.003553 -16.593477 456.170356
-116.510713 -359.865843 442.308427
-122.833882 35.371438 586.296131
-327.691824 -222.198488 350.678144
-494.220995 -155.182494 421.773641
-98.075720 -149.720037 433.042248
-178.744858 -243.550599 330.813111
-183.001121 -375.557452 362.053992
-149.133174 -13.845097 483.558733
-55.466090 -151.716365 439.809406
-468.384506 -247.997802 454.146804
-441.353061 -315.787167 457.025055
-176.407164 -116.160462 561.901700
-213.971124 -355.605685 391.662047
-424.908612 -340.383667 363.789893
-420.454096 -289.705180 400.638137
-87.138043 -226.013073 404.521360
-416.350477 -195.958671 582.560354
-466.163901 -52.804643 601.563282
-71.913355 -25.520660 451.402917
-175.914017 -63.356375 461.469123
-531.065608 -44.711446 558.016643
-76.117021 40.233489 375.144002
-532.947175 3.627109 392.971975
-229.532360 -269.036493 544.192131
-500.157065 -292.300569 593.310514
-352.641095 -179.666781 448.930602
-266.444185 23.759375 561.127655
-498.711086 19.611084 611.373683
-486.130567 17.806146 331.145624
-547.914847 -13.242898 491.639466
-272.421094 -91.086597 455.779568
-88.181213 -114.996173 590.386966
-360.801082 -337.930217 440.499091
-229.501917 -146.034089 389.686432
-553.780427 47.079172 455.878440
-220.557869 -200.545342 560.616444
-483.143306 -381.072818 413.559538
-459.647318 -21.419843 376.601424
-210.316996 -39.539397 464.775510
-360.812960 -250.541262 616.638577
-562.405523 -330.060892 338.533755
-274.487940 -323.634427 581.792046
-119.046740 -329.882263 397.667471
-296.682313 49.065711 390.730333
-526.128975 -170.597861 348.839510
-85.782724 -111.346522 524.169874
-418.975354 -23.169957 489.115755
-365.077636 -177.094599 333.826246
-541.827297 -184.607785 548.931443
-347.296185 -230.919125 489.370975
-417.170075 -191.287316 398.362007
-409.636961 -18.726874 468.203286
-209.283479 -69.553136 514.319675
-454.826686 -285.079630 588.625649
-416.761354 -219.678665 442.148122
-312.078384 -75.729961 592.140303
-149.263046 -125.095980 521.426134
-428.955342 51.600125 349.032465
-98.045553 -56.378332 579.055175
-429.289932 -380.498548 397.967853
-416.327046 -285.620876 446.795209
-222.571835 22.261431 438.871467
-533.197012 25.630573 490.405847
-112.478786 32.773818 542.473102
-339.526859 -152.303772 414.046425
-120.402494 -232.185478 421.909502
-177.089313 -192.945131 394.835939
-527.922666 -301.842838 378.421307
-107.223192 -299.807597 361.455187
-163.981372 -57.357961 530.599049
-280.376798 -229.542707 609.044701
-398.225284 -213.223852 479.031501
-91.988876 -156.235474 559.708652
-200.765706 28.644764 421.547577
-148.859269 -381.480208 332.790563
-416.984269 -10.210794 491.953713
-531.325014 -346.372919 607.567658
-490.197517 -276.896789 358.312528
-430.381777 -18.563136 590.826166
-169.990736 -153.584142 346.551454
-474.381466 -311.145632 614.496388
-52.880903 -178.175089 544.019290
-555.176183 -196.628369 447.676440
-379.394702 -366.565974 533.940624
-569.308332 -144.381166 416.455890
-431.770590 -270.132875 389.667577
-230.876130 -195.618901 408.711382
-146.283059 -138.018215 341.395310
-502.008577 -185.210527 391.015540
-403.955297 -148.992367 356.884462
-144.983394 -68.479322 426.416409
-444.195035 -217.300700 345.137784
-290.286241 -242.527344 465.147296
-282.642290 -31.255677 566.240259
-209.377625 -381.334683 346.873693
-400.371110 45.102970 462.079487
-126.445879 -27.746062 495.276535
-143.364826 -205.924717 562.304682
-539.767947 -81.555879 440.598670
-468.338476 -350.260188 413.142181
-227.827456 -361.263091 532.050234
-560.582826 24.503615 396.157825
-260.467039 -32.908259 524.825445
-504.379404 -229.159786 515.960629
-488.419319 -156.080716 410.910877
-311.547624 -112.276905 571.956905
-405.762698 -127.786297 367.724165
-281.798929 -60.085156 455.768732
-388.465149 -225.005494 410.924437
-369.650440 -313.952346 367.471198
-290.523649 7.351644 534.212669
-149.837857 -200.073447 483.516359
-119.149633 -353.389357 430.145165
-397.071025 -155.533494 379.036764
-323.310545 -284.044364 579.029086
-82.521479 -40.719223 495.578377
-398.550357 -147.527109 385.255775
-478.340164 -176.160102 495.608864
-506.478296 -187.530098 411.569619
-69.190627 -253.364273 590.181864
-280.927626 47.199735 501.519937
-110.317469 -261.494792 355.394417
-564.167322 -195.948238 475.393954
-269.839473 -141.146986 597.065896
-303.275514 -317.659600 429.574091
-210.907095 32.857763 341.599003
-418.432119 -226.009375 394.300930
-515.098852 -258.875294 335.000914
-423.343468 -356.930085 370.787303
-76.321716 22.668019 465.500527
-429.155544 48.795767 347.926203
-548.624548 1.664645 469.611620
-330.079810 -299.747560 390.477491
-54.384712 -323.804046 453.110870
-295.945555 -168.083415 506.619527
-539.417508 -267.568704 478.654016
-435.024980 -0.985353 395.960656
-119.326560 -76.189106 409.264110
-245.702873 -136.318353 458.979285
-120.422896 -104.684468 609.556544
-489.758175 -378.436083 428.132815
-353.532340 -193.679989 443.437473
-132.036095 -326.229972 439.671514
-52.408243 -293.663043 424.871823
-94.044330 -349.744278 373.059984
-502.738446 -34.311997 351.440317
-476.795200 -127.547885 567.495483
-427.979926 -9.865452 583.170932
-368.160053 9.616102 582.029779
-104.237486 -112.783309 488.820844
-148.465840 -166.620831 482.300583
-346.166358 7.850875 434.089440
-109.853720 34.761134 421.112249
-106.015659 -67.233651 536.019903
-177.227722 1.159991 410.310901
-159.425378 -21.057345 504.747385
-134.277307 -86.634691 403.266209
-150.015644 -14.665552 387.289954
-369.673600 -316.926958 337.935114
-540.760950 -191.567509 534.257816
-561.220013 -115.158862 562.513699
-190.139630 -368.635619 495.193309
-77.739896 -247.437971 355.983886
-201.342938 -343.239369 598.833762
-229.501645 -149.603409 544.961723
-554.609209 -324.283543 603.585960
-360.670614 -314.566112 608.008317
-460.646411 -287.112548 520.355844
-571.211296 34.393645 452.876828
-373.017370 -235.797321 406.749109
-69.257968 -254.486618 485.972922
-115.414750 -222.924841 596.897045
-526.033257 -166.005245 463.655357
-547.450556 -368.233730 432.976621
-233.514820 -151.210838 573.783282
-395.468307 -326.938821 519.536733
-270.872831 -220.653166 406.361842
-61.819520 -84.373343 338.457506
-479.372111 -36.351774 540.814615
-341.473274 -62.940278 345.998232
-298.588414 -333.697085 396.490349
-334.205890 26.356117 563.126908
-154.183717 -303.732029 581.636976
-252.313750 -77.749722 412.395106
-58.282008 -347.750217 580.695634
-118.912301 -99.111397 509.637287
-255.335886 -92.329021 488.678962
-551.952667 -69.465883 400.971129
-390.509919 -96.998326 440.383660
-311.731452 -315.625547 431.617748
-339.889608 -318.060644 606.295472
-165.901270 -22.118258 414.335912
-181.457949 -378.282494 441.175447
-223.314393 21.421866 473.804971
-482.657201 -164.054399 383.549751
-66.080479 -223.026322 390.295882
-415.475863 -124.032286 529.611583
-557.008685 -371.846747 470.568050
-97.383758 -273.886293 346.593669
-332.927809 -27.140441 338.873620
-501.643488 -64.583553 413.284088
-570.535911 -52.418195 455.619570
-135.739517 21.942372 341.773993
-373.166474 -305.957863 570.422567
-146.754062 -359.511776 383.610831
-457.603079 -34.086195 543.704123
-264.849672 35.758751 604.993069
-470.466676 -255.837082 514.371653
-181.072951 -85.961124 577.928735
-338.779802 -375.584292 605.732618
-391.252262 -36.176618 615.242441
-425.590564 -75.584343 345.197959
-267.039468 -382.150456 580.116063
-152.003201 -6.165455 404.021195
-553.943774 -283.585541 544.359866
-287.015667 -198.228889 404.328918
-268.322765 -59.637875 575.814311
-544.248903 -317.814338 563.406589
-547.342759 -57.906828 386.701964
-499.388519 -254.477543 477.911397
-378.093076 12.176031 437.558257
-183.612685 -254.616231 375.244074
-424.420299 -273.796160 589.181438
-138.710633 -356.896320 492.983528
-495.465271 -176.023564 426.390263
-183.357705 -228.644886 365.870785
-137.534751 -253.984949 398.226319
-395.103105 -133.071110 336.858429
-372.955506 -199.462849 601.457228
-101.956983 -2.996222 502.657526
-396.360829 -145.581540 436.593684
-486.465265 -367.403558 365.241026
-355.841527 -220.326828 460.631641
-361.706667 -370.381486 616.497886
-451.084965 -361.537703 586.705362
-91.845861 -294.686617 614.395288
-400.506735 -352.406800 591.691849
-222.282806 -320.779293 580.718516
-440.870864 20.116754 502.198578
-143.578910 -6.780466 453.843480
-403.061600 -316.930775 517.845587
-229.775733 -195.037857 494.660691
-73.614950 -365.917949 538.124009
-244.443527 42.804546 562.101834
-174.067506 -63.371491 445.178512
-65.651072 -291.457294 531.937842
-475.398971 53.993473 411.897362
-287.713031 -87.810616 584.581751
-359.045717 -197.585352 584.305875
-68.755025 32.557330 472.861464
-341.593277 -323.911474 441.378802
-433.274841 -260.103422 419.200872
-225.615659 -202.133645 360.510105
-108.408506 -274.850166 367.262073
-497.577290 21.231100 615.964697
-102.478120 -63.251983 360.722057
-189.667937 -163.495707 425.371541
-388.205728 -378.446806 474.439023
-144.007567 -62.688664 460.502058
-287.162424 -231.157128 495.890833
-281.649035 -79.798659 565.715940
-321.375780 -241.562752 572.025902
-468.051497 -340.976931 563.409167
-184.194714 54.964612 375.034457
-396.500812 -207.239933 332.603432
-403.311543 -266.406990 578.286631
-119.929217 -329.827301 396.640574
-308.074875 -328.060789 473.256973
-416.195158 -211.332917 402.330727
-285.522935 -9.031511 488.711422
-467.613617 -65.317958 387.316828
-512.394383 -194.371940 567.892135
-180.003261 -292.458056 613.289512
-85.860942 -9.844371 535.098407
-535.843997 -32.853049 486.382538
-342.427721 -300.401158 453.277449
-408.969138 48.131427 524.168542
-229.506527 -149.988490 499.046823
-553.355705 -222.812960 409.426751
-563.495453 -208.838232 383.425636
-567.912874 -143.955484 510.252682
-318.297734 -162.291129 341.726260
-157.990064 -347.037405 342.162632
-160.727398 -202.298925 464.060332
-152.873706 -315.345306 402.333834
-237.194154 -137.816348 557.501492
-244.127405 12.493474 424.916388
-148.255264 44.980692 616.712388
-339.344388 -69.023603 392.080894
-368.049006 -172.667801 496.171990
-555.059486 11.410203 474.814160
-543.321082 -348.442578 371.873542
-153.128468 -273.669231 351.399836
-56.124323 8.625541 401.296857
-413.527636 -274.138375 581.259633
-544.140675 -202.159673 448.893547
-414.660779 -34.300542 492.373671
-563.300973 -199.936537 536.585623
-157.436166 -321.057967 503.101888
-410.676501 46.281648 526.738679
-102.635850 29.273349 577.715782
-148.539257 -135.208015 334.076808
-148.443990 -228.778296 454.023232
-272.846942 -33.599695 370.948020
-240.109195 -85.285348 543.763489
-143.044972 -223.256929 435.709186
-202.711895 -289.292101 397.701864
-405.191019 -204.275111 420.626389
-163.162422 20.299564 396.033926
-498.137801 -54.848807 396.478963
-111.642141 -124.526324 596.887142
-121.259767 -242.166038 607.323924
-541.011870 -291.128413 383.772015
-138.941566 -192.222371 470.462947
-412.909130 0.082508 498.458732
-225.326245 18.253194 379.610753
-304.024761 -111.987568 534.539584
-367.092402 -2.968036 398.259452
-415.514025 -278.471871 402.018624
-83.715611 -276.050686 472.695180
-415.180503 -382.787661 532.486914
-572.427662 22.115199 341.442686
-312.641215 -207.442076 503.316250
-506.040567 -77.216475 600.097597
-535.610805 -79.989924 396.043963
-306.075712 -6.597361 336.272038
-498.017671 -24.358891 398.628531
-360.541547 -144.092799 554.863400
-445.571343 7.519137 435.201901
-149.712775 -81.081176 475.935806
-85.830112 -347.997268 372.337661
-464.254930 -141.043224 438.478621
-362.387409 -94.236204 483.229691
-110.140250 -143.913507 407.301900
-232.372584 -355.419805 393.078320
-454.141923 -376.958567 532.957466
-359.519033 -299.003784 522.081676
-374.284289 -145.963599 540.464849
-111.874760 -312.281350 434.312301
-128.496000 13.849005 558.150586
-292.959039 -132.440751 367.067399
-152.574358 -144.301463 541.848974
-115.735689 -299.865984 334.130573
-379.755397 -325.787677 492.913617
-341.804896 -45.131095 577.015682
-125.892606 -296.386990 533.219367
-52.563227 -89.492228 542.458760
-129.299866 -388.108473 344.001166
-289.276051 -120.223740 501.565081
-209.966726 -335.846570 470.760849
-536.466609 53.139733 411.784038
-353.677556 -156.781953 458.225253
-480.231458 -6.419229 388.829234
-473.813034 -161.596106 360.061117
-72.867744 -257.195205 374.715175
-380.857092 -68.523180 413.956221
-482.879048 -182.076129 450.194891
-318.089198 -25.961173 602.946068
-324.018876 -283.279458 452.654090
-373.427802 -256.907663 587.219092
-568.348428 9.318249 363.269409
-433.008629 -119.718638 555.473417
-102.896726 -225.917651 462.460169
-374.804856 19.316638 432.812145
-57.262717 -78.554300 369.352752
-523.323724 -11.970564 512.054546
-372.431985 52.374408 596.711124
-348.966058 -175.626385 356.790446
-504.092221 -203.077278 559.989994
-544.390997 49.544505 504.395462
-321.205971 -43.085970 448.825349
-317.673155 -155.657360 544.564179
-536.188566 -208.432917 557.519312
-348.820293 -321.962664 617.636039
-221.723263 49.555008 602.261468
-502.288802 -16.902852 433.149835
-229.502979 -112.591938 571.998416
-367.255785 -310.458738 614.733061
-515.603363 -224.249682 416.712283
-371.306415 -199.834239 572.111565
-438.254860 -167.253387 350.000857
-519.966001 -284.059680 437.944587
-191.098547 21.134651 526.887243
-110.286750 51.732016 448.170629
-527.881536 -158.238483 432.773014
-347.061715 -120.256149 494.474651
-412.085773 -114.788050 467.512003
-162.671649 -284.233300 553.727772
-567.069358 -150.719257 494.946196
-489.512657 -339.766451 558.009341
-260.745557 -91.546415 595.265304
-119.176406 17.389103 561.835662
-84.104859 -128.765493 592.183190
-207.326193 -251.237590 530.597801
-312.095733 -208.984613 437.791899
-239.286491 33.215596 432.109876
-115.746371 -296.542295 359.330464
-205.725678 -356.727837 373.920926
-408.095708 -336.101571 556.936967
-174.724030 -133.453095 516.759924
-411.719497 -78.077762 598.978338
-266.886775 14.837139 539.072157
-530.304951 -292.507320 525.985361
-58.842279 -113.437394 560.874834
-201.112974 -318.694169 453.693886
-388.604507 -373.159319 386.998265
-162.860437 -257.573984 533.488220
-158.603343 -54.872119 488.998321
-518.255452 -235.845217 395.079672
-103.693954 -155.455212 545.351037
-54.873132 -275.704712 536.498825
-383.399892 -42.016602 385.475473
-187.165506 20.770411 405.037808
-159.093689 -188.794001 600.572096
-383.149409 -106.947694 367.741582
-561.911802 -134.932451 528.352916
-49.058590 -301.967066 365.210824
-132.044775 -94.720807 568.874114
-147.700454 13.216876 412.517000
-414.515545 -67.567736 506.702884
-275.377032 -170.190784 504.173202
-389.811364 -243.172372 362.121345
-529.939968 -382.391187 492.804924
-77.646856 -131.527130 399.095444
-500.341137 -117.237808 402.260155
-269.470119 -184.821958 363.617649
-432.754420 -212.704283 342.810553
-545.901212 -31.373045 477.046895
-495.974579 -369.158203 336.735585
-419.134335 -141.599460 335.432025
-291.338513 1.182564 582.681379
-569.293484 -335.712134 374.728054
-564.517121 -51.456741 451.519653
-135.098143 -17.100648 498.772835
-527.829880 12.612804 444.324130
-153.012444 -74.470555 330.916182
-333.751772 -89.614402 574.172795
-464.833763 -153.590821 429.683315
-397.391690 -358.379833 443.658513
-50.300699 -218.616178 511.402836
-160.923296 52.847436 567.037974
-370.908459 15.841467 530.152434
-129.091941 -19.519099 484.507444
-121.974704 -107.253974 503.225609
-210.834273 -162.723043 417.292104
-121.880098 -229.877806 507.617040
-67.303335 -46.097121 425.152239
-52.537542 49.664431 518.494645
-172.743447 -177.580695 399.182404
-175.871495 -76.094574 566.385831
-73.162091 -282.261423 341.728539
-555.303051 -222.759422 373.790320
-358.552151 -78.396682 454.756753
-417.226004 -259.661263 416.443201
-431.125747 -50.802761 393.576268
-382.709442 -270.492819 371.497357
-302.889412 -106.625381 400.138050
-400.368254 -56.567447 349.013101
-307.247337 -187.515843 399.195375
-273.299310 -309.898183 362.772674
-188.586990 -221.629415 529.487949
-508.669434 1.872920 450.650085
-326.413043 -310.508440 351.735524
-460.499064 -213.552282 348.970577
-510.813899 -346.440510 618.445781
-540.449682 -140.793814 549.036747
-253.680437 -122.492499 533.353663
-540.457388 53.374534 396.258887
-492.494204 -237.541737 465.366909
-203.959012 -259.187435 394.111826
-416.480223 35.979435 351.073581
-393.723502 -360.178863 545.264226
-500.864048 -228.176258 346.707652
-176.944523 -345.324417 596.366105
-286.092943 -251.725329 450.723871
-47.316493 -220.424397 604.934957
-275.760402 -265.112076 392.125004
-476.697310 -173.998663 485.229112
-361.456750 -17.165833 475.716532
-383.019899 -284.871305 429.953209
-506.185308 -202.051027 460.716552
-430.908714 -350.169785 373.062336
-409.559470 34.591141 441.767081
-173.673327 -288.201317 541.698236
-167.345167 -148.348292 376.909626
-316.594398 -298.430791 446.783220
-222.842511 -15.988468 371.725041
-512.101309 -135.810863 533.108428
-226.856830 -44.135609 571.719597
-233.317892 -0.234209 398.344142
-429.825480 -121.979525 501.004864
-148.531920 -218.045801 470.630342
-493.228905 -80.685223 403.246117
-561.304584 -272.110672 531.100850
-565.548251 17.429155 504.618941
-270.957977 -207.587019 549.370162
-99.888360 7.979798 502.736718
-505.485137 -358.938082 443.073893
-500.240051 -197.826602 392.123465
-462.589957 -115.472979 510.628894
-266.740007 -287.197677 441.261994
-464.058756 -148.038283 596.728222
-194.720527 -175.459794 396.836185
-231.876339 -225.484177 461.382056
-188.921287 -367.154337 565.014256
-107.732100 -204.176232 371.703365
-557.709867 -179.326588 468.119533
-367.024016 -182.433749 538.274083
-225.546064 -350.659318 547.719841
-355.904483 -110.072654 544.396660
-461.842181 -188.896605 553.933389
-556.038826 42.546949 573.016542
-46.604992 -34.654799 607.876703
-76.928350 24.377823 409.694857
-226.529614 -2.361621 531.110139
-85.981821 -362.969046 593.811089
-381.567722 28.238342 351.356449
-481.675715 -22.795202 614.026316
-519.900658 -85.098357 410.245113
-89.992486 -27.813950 520.710270
-420.522192 -202.292922 450.434780
-275.031864 -315.338221 368.853078
-392.129153 -329.480497 526.059725
-234.953937 -288.988861 448.274363
-325.472966 -148.848981 564.372251
-343.222208 -97.961411 354.016824
-311.249816 -313.833450 483.801473
-302.168854 -237.502665 506.579723
-312.597561 -255.804890 477.312756
-52.044397 -242.583179 404.714105
-148.477801 42.981324 392.915416
-196.943707 -3.585188 422.141284
-376.103438 -13.361105 389.383340
-506.738997 -208.377863 432.862344
-527.983443 -50.752408 401.079120
-441.788228 -185.043215 338.229249
-406.099789 -322.111887 450.880035
-325.056617 -72.455453 516.071073
-488.938265 -213.254254 463.314325
-327.968768 -306.506424 341.038076
-560.796901 -298.129207 341.873822
-317.375854 -92.800812 549.768068
-205.625978 -159.047374 375.454195
-302.209676 -239.558256 486.685016
-418.611720 -307.039811 400.135073
-436.393840 -181.116580 476.162757
-140.341902 -26.501310 460.046584
-501.070955 -148.065327 586.609840
-250.559566 -156.832344 427.070728
-558.316223 -237.125528 363.119698
-235.945329 -136.155943 408.576700
-303.805048 -164.695801 372.271347
-552.995969 -35.652256 459.129113
-219.275337 -270.519771 400.146319
-429.234705 -145.119664 461.687005
-117.393379 22.686622 538.097243
-288.222320 -131.910677 516.203688
-184.396047 10.284027 541.826981
-353.612835 -280.628120 577.298655
-489.158130 -333.039165 412.688225
-83.419485 -102.499996 477.029955
-361.763345 -83.663961 610.681108
-345.955396 -356.556580 489.924674
-247.065021 -361.883664 462.308046
-114.136334 7.513976 603.503742
-227.426848 25.451567 463.743168
-204.664262 -229.411316 529.514364
-143.319376 -135.894349 344.489787
-158.462866 -341.968932 582.604969
-347.013946 -30.616371 598.426187
-453.316313 -110.134326 593.063001
-160.562335 -56.349964 526.605313
-561.959782 -366.107492 346.349254
-83.727611 -265.431739 426.295669
-450.691050 -213.640151 412.671773
-379.273466 48.830142 495.690728
-563.419076 -161.197131 448.338092
-463.236978 -195.913877 394.737236
-136.853405 -303.617551 446.227854
-336.513049 -151.239963 462.382315
-297.371584 -243.525470 406.574887
-487.997947 -93.689118 344.098356
-217.077641 -94.496072 340.572675
-247.581429 -19.485671 495.754415
-498.108452 -5.556075 380.531703
-532.712975 -177.597944 585.751478
-100.825152 -168.798655 445.737091
-568.470922 -244.248024 468.986901
-51.968198 -123.953113 612.717511
-71.251875 -172.354804 469.117349
-301.364491 -292.911384 553.774510
-532.614742 -382.189865 401.413354
-439.738725 -341.021923 541.741550
-402.451014 -123.929229 351.397429
-486.166220 -140.651867 529.292119
-229.255545 17.605789 443.945681
-232.584935 -377.203407 492.120811
-274.231318 -329.124546 473.341376
-72.802383 -85.202263 541.191288
-478.099187 40.985062 384.347439
-283.049736 -49.555381 470.149589
-345.121058 -210.737959 572.624972
-195.214746 -151.614597 396.519903
-470.668113 -69.646806 515.412737
-383.125375 -293.780217 391.571525
-403.739968 -293.018899 362.047809
-383.204557 -367.064143 352.399655
-342.382009 -131.850274 513.246364
-99.143003 -381.142127 448.572032
-305.681902 -383.177768 604.743735
-277.665314 -4.702932 476.438914
-217.552856 -251.670208 466.058534
-309.762908 -342.617450 404.317419
-284.709691 -44.537588 520.041692
-217.290461 -121.474724 552.384767
-133.442595 -320.263904 590.515417
-264.162053 -163.068345 421.255505
-117.621729 -312.392041 605.795887
-264.236508 -333.667821 565.114690
-354.018419 47.910748 513.775269
-233.849152 -362.014656 466.865006
-107.124915 -17.801541 484.279250
-226.900997 -253.042265 460.627867
-184.687398 -223.966583 412.564099
-546.658586 -213.803087 490.982568
-235.350572 -123.472674 464.679854
-494.222089 -101.614987 407.224655
-502.511421 -224.807471 528.448633
-254.506106 -35.920233 413.168562
-109.193024 -168.315229 427.337541
-83.644688 -62.656344 506.086710
-52.782889 -120.705570 366.924508
-69.663351 -314.596024 350.471626
-338.898762 -79.485075 598.667376
-85.106045 -330.328914 373.228200
-375.462944 -282.518285 468.837458
-241.672628 -39.344325 450.777407
-215.572431 -212.408827 462.021062
-499.503835 -276.709876 329.164659
-246.310642 -365.245069 617.656337
-363.912254 -126.992906 555.611040
-205.903468 -248.518349 401.393913
-191.839028 -211.077168 596.051743
-266.195487 24.293517 607.089540
-542.692728 -5.862933 606.318864
-491.726745 -285.804213 619.327591
-288.147279 -285.778152 540.926665
-313.931799 -55.500805 510.730291
-261.695428 -260.898874 495.418909
-89.446645 -313.796011 574.414850
-386.273576 -254.037849 509.072664
-344.273214 -241.021875 466.322457
-483.168029 -70.028033 412.415514
-248.435776 28.117703 468.219676
-418.317601 -254.383918 436.760118
-417.571197 -203.639209 383.626068
-134.059407 -31.638636 582.070492
-212.336006 -98.950150 590.311670
-527.112925 -279.669030 604.696634
-546.457112 -190.104375 578.943389
-323.676924 -369.257242 444.107825
-138.678118 -237.270337 469.775057
-242.252563 -119.251276 496.283433
-272.331108 -356.000004 523.806502
-46.517545 -310.269300 375.424398
-158.229270 -94.817188 539.857421
-149.296226 -94.299035 478.149339
-250.039904 -36.159240 512.346146
-235.529019 7.974612 551.600361
-367.657026 -211.244663 331.459437
-375.686525 -175.389007 502.933084
-548.529704 -369.066477 445.494986
-555.019999 40.243549 510.662680
-401.513247 -79.319840 480.758572
-148.313152 -91.870459 478.714119
-511.011552 -125.386054 467.539983
-137.034081 -188.793653 551.936156
-80.524477 -226.415117 474.349009
-234.198724 -227.207102 526.535795
-153.868941 -286.892647 440.111795
-145.028224 33.928279 454.012022
-250.019492 -197.430232 369.464134
-395.835786 42.498527 545.589590
-107.401773 -6.411750 366.842395
-207.838902 -110.366761 499.162842
-106.360062 -210.317892 603.176744
-459.176073 -173.400779 401.206523
-450.579991 -123.259712 534.220582
-336.144676 -162.362076 570.672554
-379.784925 30.117758 567.475826
-238.927746 -374.270992 541.490066
-112.349902 -63.339369 375.127007
-505.757372 -230.065758 555.975815
-96.131497 -76.441894 480.396332
-73.906156 -125.814403 420.944106
-163.483043 -16.113103 579.182901
-401.460097 -13.088871 501.932591
-344.041007 -192.282714 381.391198
-420.874148 -77.111673 479.601059
-499.354994 -106.998560 400.177258
-188.663188 -349.518354 382.703477
-49.578276 -195.970528 426.382045
-358.174021 -185.759280 433.981743
-442.212730 27.728030 480.879815
-168.385801 -229.901721 532.015886
-355.391952 -156.809645 507.915965
-437.537101 -99.724430 386.426626
-208.032538 -61.196791 446.370683
-557.060577 -44.911023 475.652885
-263.817951 -254.788193 367.936085
-111.096079 -153.040892 538.951564
-339.996701 -2.473131 360.244921
-545.428015 -348.096542 486.365539
-202.037512 -215.509562 603.201525
-374.859088 -132.037208 548.724871
-396.063036 -342.467939 414.612501
-143.491709 -288.127916 608.288871
-507.949175 13.539610 601.849122
-68.446571 -294.713873 378.253135
-221.543228 -267.680077 473.007223
-384.956845 -110.981235 510.335865
-57.475209 3.724782 359.444828
-295.865160 -236.682529 492.752908
-442.922077 -55.162088 388.856833
-363.438435 -180.578773 434.446175
-457.951564 21.478354 339.642573
-505.289975 -292.537755 413.018051
-96.368366 -168.298397 452.245056
-192.163670 -329.896192 526.885566
-307.152049 -128.939786 381.135256
-400.792518 -166.184740 541.734401
-299.391713 -220.456876 411.708612
-411.340861 -145.499143 536.898591
-401.695787 -74.614604 544.013728
-166.266682 -127.364628 516.884119
-438.472666 -161.699990 437.239492
-354.589655 16.746759 524.244358
-179.335641 -236.767016 579.711539
-533.859992 -167.583146 568.003635
-67.178815 -257.056410 430.329355
-109.068583 -376.313413 520.838836
-334.767166 -342.589356 580.403491
-402.524615 -242.687342 464.537057
-175.837739 -307.340943 549.062228
-184.836517 -57.384509 478.779177
-507.168385 -177.845715 405.486359
-142.914098 -297.996780 395.837657
-478.383504 -181.543987 452.834923
-142.543579 -363.003095 442.355139
-559.785736 -226.124745 374.179179
-158.140282 -41.228548 500.697647
-428.906902 -242.941006 394.861887
-127.576523 -88.201364 404.863566
-261.857044 -368.372223 344.093811
-118.860346 -94.078967 372.110941
-354.735950 37.423345 488.240283
-56.575918 45.296865 556.471331
-121.433691 -120.253396 334.101247
-255.032265 -191.399018 450.665769
-502.475862 -50.169057 511.130047
-438.033311 -204.912896 401.509100
-136.966329 -7.204842 353.451237
-336.406622 9.384899 432.493193
-395.685839 20.064342 358.526703
-280.057192 -280.652386 385.284834
-205.513173 -158.778506 515.320200
-496.258748 -1.753387 349.029400
-325.002424 -38.399506 553.881803
-313.400503 -225.594458 529.430524
-333.463441 49.027039 338.199135
-332.729168 -69.402103 505.095804
-171.480529 23.510958 534.359066
-477.735836 -366.424598 481.724379
-209.926735 -114.362675 439.824665
-448.185246 -202.067477 584.514971
-562.406379 -155.130935 364.406275
-328.517430 -37.169965 468.222190
-268.643715 -374.141326 503.857983
-396.910181 -64.187071 607.284397
-432.654268 -114.003995 381.039076
-442.696569 -89.092644 445.358711
-108.887893 -166.606211 509.805231
-195.980606 -324.602639 398.812212
-391.489890 -44.495721 372.098679
-244.886419 -52.657630 481.568847
-169.973873 -112.296683 336.373545
-109.724674 -148.787263 460.256859
-184.376093 -342.241609 400.180993
-252.510455 -64.485250 492.470392
-334.435852 -345.284854 605.279727
-53.973960 -221.364310 333.338409
-81.270390 -51.316002 476.685507
-504.916867 -305.230415 575.167593
-179.121775 -381.248746 591.990814
-257.492232 -124.052207 368.576674
-344.756733 -59.066113 545.835317
-507.979150 -155.461387 458.697118
-487.494177 -128.204447 585.453567
-408.080420 -204.667160 377.274182
-117.062382 -26.238042 403.370384
-465.775899 18.066490 442.675353
-191.097913 -93.520113 470.165144
-321.814477 -294.781796 546.519144
-552.228999 -107.030877 400.798274
-348.713928 -159.913350 517.699347
-99.055873 -298.720578 498.858676
-333.470203 -61.315264 469.420724
-74.298504 -310.055398 544.220421
-503.911655 -45.697777 571.061083
-335.703276 -92.446115 357.653560
-92.519118 -384.411900 478.640901
-354.304109 -84.692783 553.063343
-438.999986 -382.833263 605.188769
-384.253124 -278.077559 605.690862
-526.936591 -116.322224 405.190868
-406.636286 -147.591342 476.426471
-447.678912 -165.001603 388.109189
-128.666415 -241.673240 498.622796
-212.260870 -381.983735 582.511820
-343.352565 22.269382 523.885906
-344.023307 -80.816456 417.429287
-301.764993 -172.069786 512.105334
-66.609721 -125.684406 412.010362
-309.732257 -195.609747 355.082907
-283.943219 -356.455848 498.052417
-288.052257 -139.573910 496.864084
-351.850731 -352.460199 337.714156
-432.490661 -161.210914 546.601960
-112.218758 -264.324057 418.692685
-161.692728 12.594324 573.919203
-529.858150 -154.703140 593.672314
-213.477575 -132.704875 614.905848
-492.060262 -12.882636 607.514775
-336.148749 -33.507040 383.939364
-384.364492 -77.330224 524.996868
-191.065245 -104.330493 473.499262
-147.765202 -296.634232 581.461969
-182.667186 -279.908556 584.776249
-428.385095 -331.135432 487.945054
-442.847265 -80.547805 487.623142
-117.317922 -243.379168 471.556708
-319.415639 -43.072224 563.906259
-346.287542 -383.787757 389.586693
-113.143644 18.669370 582.040944
-268.745681 -223.474927 580.282104
-479.503840 -270.285675 439.514809
-435.400459 -202.717114 511.943077
-245.276394 -254.698700 340.833066
-372.965611 -169.638706 529.382671
-273.903462 48.307574 505.803462
-96.338365 -299.699640 490.688128
-83.284246 -263.329116 478.839957
-566.696600 -278.580549 423.099798
-412.495884 50.350315 449.416155
-99.970554 -9.769401 613.423332
-159.262651 -224.821498 527.305638
-322.276372 -175.249351 402.619617
-199.496380 -375.722903 531.316870
-350.127659 -368.719454 588.622353
-313.155036 43.153637 565.497505
-124.753229 24.833957 442.109462
-322.700661 -94.703860 550.199139
-131.924908 -77.818404 446.102069
-560.542664 -358.437992 558.708257
-571.628075 -246.375619 617.876405
-472.755560 -191.720907 559.601509
-529.431262 -223.088163 333.874335
-397.923504 -345.008278 551.452320
-339.367752 -263.089755 371.628523
-469.628606 -28.248863 462.921457
-449.162495 -342.602958 606.691646
-276.388922 -380.949327 467.202954
-452.570551 -125.921984 364.907015
-270.866167 -210.858422 515.983561
-519.682658 -300.828485 451.043375
-517.999594 -37.361796 526.984997
-558.364831 -39.811628 492.018913
-290.910373 -210.922611 587.077148
-216.206836 -355.096390 331.162668
-274.995988 -26.800017 509.621398
-196.274577 -354.911808 458.573985
-421.642977 -150.163433 392.570396
-260.913885 -257.466801 402.429733
-277.621723 -211.476453 364.156838
-392.405725 46.656739 591.752903
-405.954577 -146.297034 483.002468
-450.073714 23.128488 331.268460
-125.821374 -303.348083 575.029178
-308.155229 -80.025254 556.007116
-459.255759 -228.026645 358.416702
-565.950530 -287.967591 365.096370
-555.387355 38.782313 462.586090
-291.775960 -376.083366 368.927841
-572.314066 -346.888282 570.398111
-554.117516 5.661539 475.520147
-170.186457 -24.660006 573.266854
-366.018858 -250.350995 374.190693
-497.756320 -252.147394 586.793966
-236.907016 -243.646868 555.010256
-320.634185 2.661454 495.928815
-229.585217 -79.162327 549.873959
-80.689070 -214.049748 606.346590
-249.639814 -148.545172 538.613265
-451.833672 -79.848290 558.350595
-497.172329 -263.089114 475.153567
-333.491536 -104.537439 338.154156
-145.508884 -104.985289 576.410620
-246.370131 -128.674966 369.416801
-485.196648 -41.798989 371.772592
-496.899355 -168.697898 336.705745
-61.062381 -85.324229 448.093443
-444.367756 8.193131 497.097449
-386.229499 -89.761310 607.721232
-407.091064 -256.563953 368.599826
-229.600333 -84.660692 534.304010
-433.941061 -207.944024 519.898695
-286.004791 -297.527821 386.578020
-105.330083 22.545707 510.184514
-233.568660 -363.455890 452.630749
-525.129926 37.292558 386.790008
-256.487645 -173.173947 421.247214
-187.390463 -239.295191 349.583810
-81.532790 -189.163923 560.635374
-184.557673 -317.773267 334.529750
-229.090524 -386.839608 480.487076
-406.352820 16.532946 432.515270
-572.286632 -161.404606 618.824255
-185.916672 -318.942946 350.378479
-160.061429 -187.637859 605.363492
-342.970352 -77.994314 385.083240
-542.010482 -194.931160 343.926341
-250.822693 -231.067684 328.958124
-411.284220 -205.530428 584.700697
-181.499967 -200.321572 614.193169
-484.125147 -303.003061 581.835993
-141.682019 -182.384562 407.763762
-450.717006 -376.341059 522.521638
-390.019886 -193.437876 590.156831
-160.214825 -150.285079 404.178233
-537.549978 -22.488101 386.359140
-381.046302 -374.622789 521.251399
-386.914799 50.205314 436.950638
-312.237433 32.264667 520.812693
-408.850623 -33.435994 579.960670
-402.046819 -376.591894 562.676222
-554.892444 -183.157284 365.596500
-95.625608 -154.472670 532.545309
-203.928958 -333.021039 344.283523
-420.721370 -64.071373 474.023830
-422.409894 -61.758170 581.075329
-66.069128 -387.744421 563.544899
-548.344082 -199.008366 532.633367
-124.262586 5.302947 495.494393
-490.051108 -286.626311 398.011675
-392.671380 -230.999220 591.953753
-188.613014 -319.559533 533.629717
-47.610421 -385.727300 330.968145
-294.084133 -92.542377 570.788644
-230.645802 47.987307 394.593992
-81.781217 -184.135399 359.769458
-174.832453 -111.780845 421.245896
-62.162893 19.252102 469.264625
-156.326917 -75.021578 582.677517
-433.437528 -302.282859 461.666466
-269.528000 -71.452065 558.079499
-221.402620 -162.639759 458.011562
-481.031846 -256.219835 602.287837
-471.296926 6.950549 349.047402
-329.835026 -104.596742 442.686063
-198.024622 -262.217864 426.588682
-424.381274 -329.825558 406.384876
-385.816398 -196.056550 356.825298
-535.047623 -241.549305 363.945418
-52.097418 -331.685635 525.062513
-299.310433 -19.740574 415.798755
-401.658018 -271.806795 549.715486
-480.367640 7.637526 490.088538
-92.819405 -13.687400 542.555333
-509.759884 -292.011607 451.914500
-275.568195 -292.754023 603.839242
-387.230097 -284.184702 418.161581
-296.893097 -212.365464 381.512050
-438.602664 -180.223487 379.336713
-267.124863 -384.633152 445.277968
-336.728387 -215.966118 491.956305
-148.421689 -266.629868 612.627789
-459.786303 -175.387859 457.876989
-337.598289 -271.541039 374.475323
-477.065371 -33.845686 352.082674
-501.164933 -339.470198 546.849174
-399.343426 -237.358651 570.277171
-193.918002 -273.328091 364.628321
-418.477117 -75.971604 424.234907
-414.770617 -174.928094 461.952327
-53.957803 -188.185614 608.990077
-85.571105 -183.426391 527.534170
-499.992911 -367.265600 577.113218
-221.040678 -297.168298 545.876479
-62.488978 -184.651138 392.022271
-466.022541 15.570905 412.225174
-361.654265 -361.581262 338.373610
-369.331206 -209.538068 425.848963
-359.289076 -309.432605 589.872032
-183.417791 -346.765524 380.845454
-256.348316 -276.703743 604.168168
-205.347319 -28.423098 353.554898
-368.804794 -327.734258 381.842033
-461.659483 19.624640 548.638622
-409.650390 9.384701 573.448455
-50.053428 -365.443512 485.755954
-173.310641 -158.689595 402.264096
-222.972847 -378.296983 366.891266
-126.830697 44.938155 580.712831
-471.822585 -350.930751 459.311088
-277.734382 -229.333303 363.603711
-522.176954 -373.643306 418.476585
-166.125558 -296.366362 358.460026
-548.361502 -28.493844 336.933762
-206.950143 -186.834168 442.406363
-290.441078 -218.226025 434.219100
-376.088600 -111.692728 519.842900
-254.961379 -116.057322 488.551771
-470.686568 -10.910149 614.175629
-252.607080 -247.108752 338.288225
-281.060017 -48.040016 609.576070
-328.427965 -31.593112 559.167332
-213.949547 -111.757027 409.521219
-450.531553 -192.326013 398.119282
-390.008792 27.996789 336.056589
-246.326469 -6.738919 468.912336
-50.762514 -41.959692 474.834232
-372.539499 -125.686621 604.860029
-106.354348 -358.398164 566.764461
-509.919168 -36.166411 365.271357
-431.864038 -114.776391 435.909994
-341.760303 -38.770465 599.710645
-204.363802 -320.905430 461.651173
-241.555306 -69.607110 434.563609
-566.990135 -384.772429 466.545224
-390.239550 -100.758208 436.652562
-557.534135 30.403739 598.235373
-434.895304 -253.792270 579.656059
-254.050445 -350.436643 396.890334
-186.295967 -154.486216 534.665161
-428.960554 -208.760958 534.348210
-475.921519 -262.109688 591.415786
-321.638140 -257.952308 372.683874
-120.729136 -182.631492 334.136077
-143.605632 -380.564792 359.500794
-454.202017 -60.834438 345.564894
-52.091973 49.672941 525.719571
-209.342498 -153.018897 337.261316
-489.519663 -149.954544 331.132606
-137.547001 -360.600105 368.801303
-257.263839 -353.436552 462.480498
-328.579656 -258.506015 398.126358
-336.108294 -37.829161 497.085160
-556.377361 -300.163180 596.191997
-96.325582 -346.862930 358.959293
-175.495084 -258.289513 397.125239
-318.189385 -98.860360 476.795838
-566.165901 35.729052 608.217498
-363.111850 -84.598753 348.861755
-235.357324 -107.774579 395.251169
-494.310161 -162.575449 381.637650
-527.251596 -323.044696 613.762291
-81.732738 -250.817011 378.623934
-48.045307 18.602274 343.660462
-285.634644 14.003322 466.420901
-265.725196 -258.923886 386.191970
-176.074780 9.425307 399.106181
-531.549588 9.730990 498.482169
-186.438123 -139.472076 395.191070
-305.518043 53.622691 583.041818
-419.367334 -198.109383 529.903988
-202.319319 -57.565907 511.918572
-164.510079 -258.373538 492.950809
-207.169440 -267.889005 383.983034
-160.159392 -44.909948 388.603788
-152.819916 -339.203728 432.610128
-109.802930 -56.869000 389.291561
-306.672396 -309.458851 478.368760
-249.771324 -110.464064 378.197261
-423.507685 -334.394643 397.039153
-303.413839 -208.649049 479.592732
-410.036597 -385.264962 537.139574
-240.616817 -208.315786 453.182077
-160.104854 -247.431478 407.185834
-476.605946 -311.288963 473.991776
-343.502105 -137.687981 575.147452
-415.349694 37.140449 435.819619
-276.743550 19.296526 485.650432
-49.221211 -80.025814 517.376708
-306.290449 -65.070536 332.321117
-274.878291 -264.384737 554.217086
-387.851588 35.705456 503.116999
-314.901642 -287.704031 434.494730
-179.042174 -231.939948 543.810210
-111.927049 -366.020756 353.935938
-402.833352 -229.656131 372.131817
-454.388325 -109.951508 545.505157
-291.307392 -142.137342 406.780724
-450.921298 -230.329177 396.213509
-76.917866 -319.649596 572.093745
-261.672292 -364.209895 443.561727
-513.378285 33.103895 408.181333
-356.686035 -233.185056 361.039852
-125.885401 -284.097212 496.363590
-116.883135 -61.122650 412.302511
-65.470204 -14.420249 405.758701
-133.865895 -297.155628 555.049949
-128.636670 -130.915636 558.436908
-481.232253 -264.429894 331.593665
-304.461497 -206.843873 534.454418
-112.934648 -242.056515 531.081521
-66.385952 -229.686574 491.554167
-421.455808 -336.040818 371.794445
-492.933962 -321.498733 555.739034
-120.021854 -340.838385 355.956352
-56.628579 -329.167141 435.835873
-374.557398 -277.172677 350.138669
-497.922803 53.672826 438.593406
-88.387811 -348.933116 333.052114
-192.210122 -342.921671 602.088550
-535.057275 -250.006131 613.097921
-351.346236 -25.132004 519.174704
-299.977035 -165.512703 367.673877
-138.179225 27.822781 414.498962
-175.847843 -173.237869 423.058419
-489.774985 -223.516644 523.327949
-522.632877 -156.983846 487.521456
-237.981016 -332.151693 607.885144
-356.391890 -236.490195 537.063997
-285.479479 -370.485144 578.956455
-214.386812 -216.250987 503.907740
-292.107280 -143.462046 517.058333
-336.808161 -202.283066 592.524285
-449.429773 -358.346960 540.493437
-89.566724 -161.722885 559.705113
-179.900631 -163.089273 486.555866
-388.613974 -108.941362 496.309779
-507.617699 -366.538549 375.153814
-393.340681 -270.747421 460.049582
-467.991842 -377.552399 542.759657
-217.644109 -375.140554 405.780200
-162.369663 -83.725322 501.521377
-564.517977 -328.371920 431.994897
-451.397498 -322.919735 540.849488
-45.887135 -381.266167 466.729365
-181.282199 -357.822747 352.993050
-511.047522 -362.166905 534.889878
-187.592778 -89.708623 330.010564
-481.870431 -236.996689 428.773132
-135.336978 -76.119800 489.797396
-286.420440 -324.466610 398.989071
-232.832563 -384.582925 538.229448
-130.165809 -191.852319 551.925104
-120.806803 -330.424380 503.822207
-152.191063 -313.627515 612.701572
-157.880448 23.712791 421.616421
-551.569147 -71.008447 389.704497
-456.607965 -184.830504 445.815211
-558.133037 -373.888135 480.153631
-473.819544 -147.282504 406.123951
-222.981169 -337.460394 430.745260
-114.497642 -213.544325 346.264808
-344.949036 -28.306656 414.293696
-235.443177 -12.899286 557.741635
-262.093057 -376.961948 514.730618
-442.147609 -96.511856 395.837321
-448.703891 -71.969176 499.541042
-310.899822 -133.489952 426.058279
-199.123335 -165.141217 427.774393
-49.010943 -82.675843 463.205424
-163.759627 -388.568273 374.817980
-322.645211 -36.028908 475.669503
-447.910757 -42.320496 535.823414
-192.870405 -147.048515 544.400501
-420.179049 -307.787752 533.006164
-529.894909 17.034385 598.356852
-540.439228 -114.679873 360.779143
-550.022266 -387.608995 369.614720
-66.411016 -168.841623 526.048010
-527.992730 -25.145652 504.225481
-375.637491 -374.215520 587.324666
-338.423951 -46.446692 501.159236
-211.594520 -280.558788 584.869631
-539.587088 -386.666553 396.048002
-144.353487 -177.616320 570.686503
-129.849316 -197.265020 487.562640
-321.641375 -56.309478 457.124207
-295.103028 -382.318013 551.028820
-213.318637 -358.089233 422.976211
-224.940721 -137.419956 574.548900
-232.681703 -242.635878 589.965223
-568.538653 -262.226422 411.154168
-450.593416 -88.726642 465.935970
-195.073558 -85.338231 522.249560
-242.863878 -349.597113 479.653723
-481.534137 35.738681 550.261071
-244.337216 -189.340856 427.042318
-87.358902 -131.982854 574.350584
-222.674537 -118.735508 360.802632
-107.046409 -177.304698 543.767494
-417.712682 -2.290829 484.083034
-91.472546 -325.145207 414.241078
-567.101294 -360.902804 518.233519
-376.233179 16.872493 351.683578
-50.848267 -117.272768 500.849164
-297.572877 -53.109025 558.987555
-144.026928 -247.988423 430.806399
-375.868973 -231.955507 611.119403
-114.993882 -90.136781 591.583097
-439.835999 -138.201791 579.600371
-431.959429 -221.433244 444.779411
-107.816721 -281.248201 584.940437
-289.197980 -315.130490 431.979700
-387.810865 -107.649912 389.555815
-267.824091 -94.355404 529.298856
-344.793313 -108.723868 393.848745
-227.838745 -100.747667 470.588310
-101.966892 -64.019254 411.966663
-445.301981 -377.274628 590.544004
-210.444315 -328.841797 404.433296
-439.743328 -108.116549 560.822846
-271.074088 -149.175817 372.976642
-58.008697 -105.745726 592.409263
-290.739655 -56.434311 397.816186
-430.971788 -99.191879 432.178639
-553.420880 -122.639812 457.515750
-494.092140 -7.536735 367.797118
-232.091988 -339.070740 613.936346
-216.124511 -284.677118 487.993127
-474.392114 -16.385561 495.842838
-102.773827 39.597168 443.415817
-173.206295 -295.219820 592.464997
-434.904536 -40.258845 382.785228
-290.432825 -312.228657 442.382509
-191.758155 -171.729829 591.872933
-309.943890 -106.173658 434.221029
-511.758617 -130.039507 591.565736
-387.185605 -161.118879 388.155553
-551.748828 35.563758 602.153562
-482.617550 -60.721327 388.865595
-240.102408 -248.289362 515.653087
-322.547474 6.480502 505.824045
-243.327426 43.278978 383.749452
-254.019276 3.120559 583.666672
-116.793433 -63.739681 329.357462
-103.194495 -231.144261 516.344039
-435.034182 -305.272109 337.048971
-249.362311 44.685379 566.884368
-183.693882 -125.772545 351.409154
-285.523628 -376.469977 474.963102
-349.551201 -276.559886 618.849181
-179.066255 -153.876018 392.023382
-403.184212 -352.791761 577.836798
-212.588181 -280.544045 519.785578
-427.273219 -184.568697 579.814390
