-47.241033 311.950183 135.154378
-160.452716 382.747759 95.370575
-77.306971 315.254413 110.716760
-208.180253 343.784042 155.260352
-77.700557 338.616311 25.661634
-121.211776 390.871716 18.246762
-115.750778 314.774717 85.365305
-141.680901 400.878048 104.976666
-184.258233 385.127304 29.657911
-221.918283 355.344998 240.577120
-45.617395 376.238708 205.144088
-249.039321 367.730966 36.478262
-73.257990 408.409458 196.228514
-219.496153 398.306082 160.068736
-45.733179 314.362198 166.504890
-95.862504 298.817094 23.580836
-145.870737 374.678478 61.947333
-143.014238 367.274465 63.437702
-76.804386 395.394815 199.014001
-129.374753 299.277974 46.993193
-149.447622 347.812086 163.181701
-202.650094 302.396084 53.629162
-65.873359 384.595468 196.416783
-112.360905 320.668940 217.858828
-122.800132 300.835152 256.554068
-72.543942 394.264547 144.773514
-256.912856 389.889625 177.761695
-212.914817 374.716012 236.122957
-177.990965 341.826206 58.829805
-231.859410 400.578707 122.903663
-200.212832 386.217636 34.890231
-275.076458 382.307955 203.769939
-165.651437 354.195020 87.036303
-244.921916 367.928337 110.969172
-259.183424 334.498940 220.660581
-110.762045 355.735299 16.033465
-67.513196 347.841679 162.971352
-275.143179 340.692612 199.270051
-271.543276 408.681261 238.638664
-63.374910 326.358911 118.795451
-99.925592 332.743544 135.881250
-62.302755 386.747379 29.647151
-195.083577 342.997445 15.236373
-113.689974 382.502556 87.299852
-229.064876 366.931533 129.834604
-102.747547 378.388179 17.527565
-110.895163 386.446399 17.096944
-205.057033 390.285721 151.256887
-84.625288 307.965249 147.802830
-164.339303 322.000023 136.691910
-199.560867 307.828575 72.518502
-269.168560 346.555066 52.364822
-117.594549 346.872927 144.216553
-71.121271 406.048336 62.712878
-147.508664 305.585708 256.198310
-196.146521 339.019233 9.810542
-261.155231 322.483451 67.804114
-135.033049 337.721247 89.192211
-48.566004 303.047735 215.904900
-113.478460 373.760277 26.425636
-102.873206 299.645398 49.921630
-176.178508 381.921533 31.358623
-214.386818 317.454140 24.627542
-47.807874 349.481065 215.241875
-125.021947 340.763697 145.048041
-223.713135 329.520581 250.379743
-169.570100 375.247227 87.958789
-76.105038 376.587399 114.680657
-88.551360 315.451913 142.991031
-106.772257 377.247310 150.985886
-164.586871 303.803236 174.878392
-144.672132 307.115169 56.830354
-46.268891 356.301895 206.184373
-262.821616 359.028207 119.023524
-184.437685 301.575932 79.924447
-206.888007 379.973436 221.713413
-76.993474 367.157296 223.253114
-248.503214 404.070739 101.825006
-240.684289 354.333565 79.748152
-293.354896 405.607327 159.398234
-134.469581 398.060205 141.071563
-84.752024 373.226953 26.157029
-116.555646 407.278606 182.899168
-292.004274 375.409233 138.440204
-174.915767 397.672925 22.776747
-42.130145 363.788170 129.043807
-160.047148 319.339944 210.961121
-175.068569 362.229182 65.917270
-204.645780 374.485015 35.650572
-97.163756 389.423707 71.111859
-169.404767 368.398290 221.520197
-188.968043 357.852510 28.763355
-75.813625 363.677113 75.257045
-188.263969 345.858975 121.852992
-136.360927 365.646124 118.289812
-46.099055 386.215446 11.245476
-106.820155 308.157319 254.617426
-172.857049 355.679669 206.157419
-184.496800 304.441290 228.298842
-237.494042 306.167477 53.600105
-138.830374 392.991003 34.495167
-63.479853 333.471473 182.204999
-62.258809 332.983627 47.661391
-67.042922 357.582268 222.335933
-189.064556 375.140907 245.088759
-195.563310 315.936547 17.384230
-221.486866 365.401614 185.585877
-92.557949 400.936227 46.293240
-91.335174 353.214435 96.771668
-213.162985 400.469903 72.521186
-168.202876 384.889529 218.830291
-85.104006 309.251135 69.051219
-73.266716 366.698886 125.852237
-217.897314 308.329145 12.953004
-260.684318 314.577057 200.959999
-257.902265 381.159862 73.633657
-89.059775 313.284084 65.814603
-168.496699 375.441894 42.846539
-291.166131 371.529538 115.281358
-79.493790 378.959027 178.531676
-244.317296 361.267359 44.810572
-287.174300 327.739838 181.673637
-157.873082 374.143247 15.598735
-247.025510 356.347232 45.497298
-120.281248 343.344077 136.499643
-80.484609 359.287177 55.984486
-47.291526 399.115623 176.449706
-180.479630 331.382305 218.300721
-65.203540 404.933987 65.558889
-250.949965 372.823719 132.151388
-190.180359 325.869458 21.201458
-177.867590 369.021579 228.616489
-43.568427 311.906719 178.905008
-84.136918 350.438065 71.934521
-136.344416 372.161431 70.051419
-160.333914 365.605905 245.117406
-236.195290 338.057572 100.877480
-73.770606 382.049985 88.862037
-65.297341 305.090391 201.768303
-63.002713 375.054775 78.258085
-123.236024 306.935712 152.472131
-163.506373 378.699926 173.741096
-279.951701 356.717961 134.514040
-180.262972 306.742442 105.629972
-277.320678 362.988591 107.568251
-184.810405 315.395480 150.444426
-285.907664 396.447311 68.419175
-288.965306 350.275263 224.706217
-216.192686 325.269284 33.463097
-217.496882 318.013945 88.928537
-55.163597 331.883244 27.720975
-72.585306 337.044021 15.699741
-126.922369 300.410684 68.598311
-216.378058 378.664679 226.511178
-268.295627 320.829184 212.498156
-236.948713 306.025465 89.290302
-109.929323 391.132836 73.621158
-109.156029 315.164045 21.126109
-75.229578 301.748523 130.497675
-148.662219 322.507688 18.127996
-129.586657 350.512508 203.088188
-81.168397 376.968108 72.969157
-171.495943 376.536707 107.259038
-146.024377 363.452122 72.507821
-146.690828 301.655499 217.490300
-194.307469 405.106633 128.664329
-282.902961 354.473217 70.991670
-90.742267 321.863556 30.894643
-243.745912 408.605309 196.893012
-110.901564 406.949525 165.850512
-86.754767 385.294051 161.147132
-172.731064 321.440390 178.061242
-165.981715 361.975070 214.015967
-103.793543 313.376132 134.500884
-53.353254 336.252670 124.550533
-263.287949 341.764122 155.728574
-238.745394 365.017412 45.521133
-175.737945 408.973960 166.581689
-247.339581 401.526795 159.454472
-276.745302 312.786874 246.988880
-105.673020 327.253243 180.607796
-212.539614 312.428390 247.463425
-55.191160 374.186169 203.010231
-152.047627 388.463835 110.365350
-248.978098 311.845589 7.934569
-188.255780 385.542938 223.681893
-235.041409 306.811412 102.934813
-188.168851 343.809709 119.615824
-198.897428 381.835485 121.989826
-136.683104 387.602198 14.442055
-225.295341 376.482796 219.504559
-195.577935 409.333324 255.906185
-216.002422 322.497135 217.779537
-230.510293 405.937067 224.875628
-172.883192 353.527355 72.418301
-200.444036 340.852069 180.503769
-71.474769 358.908120 49.603289
-212.713454 299.193154 121.985462
-48.257841 360.838865 61.705205
-94.947683 322.407683 249.735112
-57.880853 301.769578 206.459054
-216.643352 346.629404 76.435550
-99.276415 354.669799 216.220995
-212.137688 344.884530 16.128576
-196.221220 353.531799 75.878119
-142.250837 349.299640 201.510158
-237.769136 361.449125 211.085465
-269.521109 344.584761 230.865454
-252.197312 403.277329 51.656292
-228.301340 298.872429 185.581740
-167.959840 389.743955 45.052014
-123.089355 402.156950 140.987155
-147.820674 299.636129 211.862287
-251.909138 361.711570 24.234531
-163.518269 321.497859 86.541872
-207.793937 350.421645 132.571725
-63.681626 337.133834 119.511982
-193.336152 327.450910 110.775636
-170.918206 385.551922 178.741899
-217.584548 299.422343 96.231965
-256.351345 333.437306 150.234751
-101.687893 388.729790 233.628844
-194.571446 319.104162 173.489627
-194.224911 397.217351 129.768504
-175.661488 325.555322 27.329614
-277.842602 353.365228 209.143719
-184.796025 404.008116 171.789368
-266.168151 369.728800 142.595766
-110.969831 306.741156 27.865724
-68.400736 321.365347 204.147121
-132.234991 369.319225 13.300225
-257.618614 319.013465 92.310606
-120.099819 302.582178 20.743008
-204.845779 354.075126 55.580074
-192.982992 330.776002 144.555670
-230.578674 313.277466 154.469978
-122.894813 375.621558 65.029386
-50.164294 367.045749 102.885759
-107.376998 351.153733 24.927471
-72.630943 382.255427 209.399475
-221.125427 307.850356 95.805206
-131.234835 298.674540 26.567950
-191.915485 387.752637 216.898918
-55.776782 310.481149 200.372811
-215.029766 409.979498 115.438794
-257.340701 395.910102 113.822429
-157.877872 404.838396 105.939139
-147.197784 392.125226 155.566344
-181.185633 320.081210 223.758775
-117.443198 298.930146 75.428580
-213.018578 323.822666 89.128844
-263.490102 326.980923 132.594779
-260.849114 358.284025 251.332435
-169.103597 403.577287 160.704141
-238.652945 339.562549 93.152640
-150.073477 406.187404 111.858333
-245.002265 375.135683 137.028488
-145.800001 339.171526 100.331808
-261.453196 312.670874 104.177637
-211.087284 398.335484 23.754038
-52.388978 410.619828 91.853207
-103.311695 381.607373 217.983429
-238.249216 373.984043 128.213666
-239.351532 375.347363 152.461005
-106.964694 341.108246 237.438544
-196.934666 410.189681 76.998038
-180.905739 387.685175 74.142775
-241.173451 386.477253 56.271446
-77.713458 360.743820 96.217325
-127.013364 383.435437 103.006360
-111.360563 372.482579 70.783389
-167.312858 337.827341 223.046329
-267.839807 342.483884 184.514547
-273.116107 342.107751 60.566423
-111.166907 386.211392 183.366487
-89.824256 379.143798 59.908274
-110.295653 401.018008 91.738396
-284.904733 317.665674 193.156172
-92.695023 307.154035 201.702766
-193.566027 409.303527 136.426071
-281.632767 304.060629 158.271522
-156.593508 325.116620 45.428083
-46.848878 320.493423 108.357237
-212.203586 373.203376 169.761980
-87.908844 348.811733 171.532414
-199.377456 403.516577 29.342789
-86.454815 401.375828 44.987546
-98.394012 404.030674 52.615274
-164.051881 334.927527 23.992707
-138.082704 363.378849 97.470279
-182.259518 387.166137 115.134556
-134.832805 356.824143 52.287130
-153.359805 317.411420 191.103617
-144.002940 400.547406 62.557905
-113.641719 375.098352 229.601416
-230.907281 323.181760 77.292126
-246.671596 325.160743 87.022723
-294.926803 370.678537 214.358564
-143.607065 356.735653 33.122928
-42.498444 385.273300 21.428328
-208.835504 315.853366 174.600708
-263.795797 397.975457 78.067983
-59.775022 343.830567 185.596426
-136.132195 403.956962 155.624053
-77.438949 331.823941 36.245057
-252.707514 331.132716 73.762005
-74.093724 407.630746 139.602051
-224.665048 332.079776 224.380395
-223.782141 321.295539 195.767598
-249.747001 340.253649 140.620294
-161.009729 390.419604 238.692079
-254.347366 338.154341 72.524399
-171.439533 317.670332 202.872226
-49.215686 339.653128 106.804285
-230.262633 371.915665 65.958578
-118.065293 389.926393 114.995141
-260.640435 357.024091 50.247453
-177.009579 406.589112 19.646087
-252.112535 332.246523 231.914530
-70.521265 401.660818 203.720363
-287.156226 338.283233 136.127597
-266.674770 335.795261 227.879268
-175.402933 317.210829 75.935272
-213.182104 382.097456 52.944445
-208.993902 362.804941 228.589672
-122.007447 357.432412 232.515280
-45.308061 324.652089 239.047413
-59.452170 357.875086 104.971339
-94.373823 321.542652 69.915108
-69.903838 349.988029 60.484687
-56.641237 401.712495 39.147917
-96.903530 307.096189 10.493868
-268.803874 324.857628 231.178940
-122.654759 370.815574 83.378274
-277.624437 317.833115 163.269321
-91.579708 385.393364 10.883225
-107.789672 371.010355 195.320146
-133.012401 342.213834 210.453350
-272.480906 334.220846 218.084899
-44.222870 334.287221 128.378447
-125.531697 381.286031 183.239565
-171.070741 407.216839 159.901211
-93.402099 380.571811 9.594435
-243.305406 356.928565 176.049371
-206.228758 383.306670 113.300788
-132.545299 312.621965 59.103282
-284.236717 388.852274 19.482141
-50.250886 371.966020 17.040319
-217.445600 381.190242 16.340716
-182.314335 361.612567 206.447800
-58.684090 310.769591 187.739970
-47.474894 358.436529 166.676251
-288.755666 357.978307 62.039549
-102.613577 367.090071 195.501761
-143.554070 367.339131 190.930624
-44.591425 361.638440 37.524333
-216.279247 302.403362 159.724350
-241.997496 394.014699 104.150859
-236.297015 349.916587 223.634392
-161.005435 337.434046 19.116396
-57.697981 304.632326 113.049042
-122.976457 348.837328 195.922090
-95.930761 312.419228 142.647963
-212.703995 378.205501 17.563086
-171.148705 355.065799 171.487825
-263.319720 339.880126 142.175868
-69.406768 312.000843 51.564071
-270.377754 334.216839 29.537614
-139.283530 333.428430 245.165734
-103.548704 374.663491 20.444585
-265.747945 307.515851 46.942131
-181.409992 299.181251 245.103936
-57.067246 352.000548 254.394541
-58.401413 348.048012 178.530166
-46.288802 360.861686 38.203947
-178.578520 343.219033 151.189165
-227.460114 320.716340 86.170078
-127.925950 399.407433 72.506328
-117.641842 366.173477 230.223629
-226.453417 373.975938 99.028907
-123.387035 409.933598 195.292804
-122.044663 402.785330 223.858189
-225.350914 384.356816 60.589535
-126.410068 303.148550 112.915694
-168.610680 372.533022 170.900307
-180.417702 378.037120 11.539472
-161.328430 357.450537 206.981011
-170.779133 369.535266 103.635161
-210.075372 409.075070 107.263978
-103.256923 314.140049 15.949443
-151.178837 345.311039 181.451823
-241.452134 367.212266 21.885634
-220.100752 375.992215 188.868442
-72.970713 387.277286 249.871103
-227.050663 348.620247 251.261711
-213.975877 317.314403 145.904056
-240.611730 367.420104 111.955544
-142.005989 371.029952 64.633763
-282.397345 350.233536 29.767643
-150.658997 322.585925 197.449377
-212.550383 410.529486 234.114547
-143.336795 403.601309 143.500075
-119.302593 372.537147 166.055235
-275.025474 323.669176 113.145266
-81.293510 307.903237 12.787452
-85.678458 405.133557 131.678067
-155.471741 314.028012 91.214005
-215.246935 341.853165 187.166550
-183.181199 391.121365 165.057266
-223.940334 318.019918 78.310502
-52.741829 387.155981 132.738855
-182.092824 349.965952 54.924039
-286.375508 380.471740 45.524619
-149.899136 323.603390 186.283935
-95.574557 386.152725 92.459081
-116.037636 393.458957 18.882979
-204.781688 339.879527 20.508197
-61.178649 371.020541 93.669777
-205.886246 323.445797 90.225768
-197.321442 395.130301 133.846804
-111.981128 300.651724 41.097395
-68.543486 402.875568 155.805628
-188.258730 375.621419 123.470986
-119.687210 336.969885 59.220349
-81.689868 404.473846 199.065655
-200.909637 338.607021 144.482433
-276.797436 404.836549 240.876694
-92.328140 402.751875 142.560626
-148.324697 357.951305 156.787644
-222.366891 315.167566 197.469822
-97.931328 310.475833 48.423816
-55.285365 371.957823 88.756327
-54.952854 305.890567 38.096609
-244.289436 381.474022 174.541017
-228.867933 307.905909 27.810620
-210.785029 362.483840 73.740571
-275.011930 311.306469 23.275976
-280.716728 388.268813 188.453788
-240.233318 316.383616 220.643212
-256.493852 389.502211 198.462107
-242.548367 348.152193 86.769664
-236.119758 401.461706 115.098077
-235.057290 354.707892 76.463995
-55.169002 307.543929 32.001922
-263.837829 312.826445 180.391754
-133.410553 396.831552 170.494746
-57.223886 400.645619 190.457074
-240.598284 379.148752 166.868521
-270.279128 384.299357 168.987583
-140.690397 324.674885 251.577609
-235.832875 302.825841 27.607854
-68.110421 305.355496 216.389136
-200.882017 403.965700 231.012682
-228.064759 330.361465 16.410843
-247.356206 327.987336 226.919380
-270.608036 369.096978 79.019449
-243.385564 324.043106 81.668543
-246.486979 359.932044 58.391897
-147.542591 382.738986 175.534818
-266.594151 323.069233 167.568524
-114.844065 325.815394 49.272289
-148.517274 301.467951 116.189676
-123.625384 372.458407 127.434622
-276.397475 368.632022 43.456912
-197.008853 386.341350 27.470416
-237.710442 408.292939 209.646127
-80.259167 395.774281 191.377580
-169.174115 353.286741 245.289379
-220.364772 348.706836 75.819472
-218.585020 401.973971 230.302895
-65.571215 321.349967 165.911572
-121.936419 341.286096 55.967418
-248.507365 330.774174 64.017079
-278.614540 303.375989 147.858906
-214.053474 401.388003 248.265079
-56.947873 351.169424 70.313276
-211.109278 338.571662 93.835672
-174.323497 381.460712 16.533059
-58.372160 309.272608 30.400203
-168.090644 379.548729 174.471466
-204.278681 371.231973 9.335429
-256.910150 358.386100 29.440788
-137.350824 401.873732 229.084797
-175.359890 318.644495 78.658047
-174.416318 312.449470 86.369754
-215.181470 361.247215 148.449439
-277.343946 334.454549 227.260544
-47.763638 321.384396 126.780486
-119.639561 322.619349 231.269061
-280.777192 408.877579 14.225191
-66.959988 334.676615 159.392622
-79.449794 381.467297 121.535543
-142.385452 398.094913 186.588667
-95.358823 401.139525 131.449951
-267.780963 354.884045 203.766437
-97.047937 299.207383 110.070910
-243.784862 323.358321 97.228121
-271.143499 302.929793 228.726848
-276.100679 332.118926 156.869064
-47.402619 338.416753 38.366918
-215.551282 361.054608 64.920132
-114.784569 389.943544 109.892825
-59.236463 375.845070 39.747871
-84.093204 378.373522 32.912791
-290.590526 311.531027 177.666595
-242.428569 395.518255 145.023813
-125.272728 313.525914 124.451873
-122.008299 330.472877 153.506752
-79.894127 308.562593 54.862695
-232.031932 397.481166 124.387564
-176.737789 383.412182 132.220593
-107.487179 391.841965 136.460631
-83.731264 361.560595 67.664542
-121.073451 409.644168 240.111531
-270.943327 339.122450 122.578669
-245.660026 332.731036 233.495298
-277.249145 402.623603 141.639278
-240.397654 344.540759 191.492909
-56.184132 315.307081 256.614276
-226.926382 321.433088 38.071943
-51.601661 399.320492 26.578559
-286.779995 341.156462 138.789657
-54.090930 366.634337 31.326804
-215.298414 404.481940 114.636897
-288.894159 349.301531 67.669378
-263.967124 398.499162 254.544362
-161.141441 365.254585 109.741574
-283.380022 328.783392 61.759245
-84.601922 339.775919 94.130839
-193.088394 341.349932 28.206929
-184.119545 378.862467 9.000626
-231.292833 301.826285 223.383499
-83.247905 335.511430 187.993668
-193.979322 334.995541 11.182766
-144.235565 332.908353 65.395494
-265.262182 362.598803 163.264840
-259.799523 305.590220 78.519648
-143.246419 304.085987 247.572134
-160.824119 351.933351 164.720604
-261.929541 318.441009 51.079360
-166.994288 408.505301 251.742969
-201.962733 373.912391 119.120964
-143.195570 402.776700 24.758394
-46.288328 357.975171 151.326630
-256.875929 308.722431 179.252493
-171.229351 350.741819 195.610560
-171.961444 339.654060 79.388187
-259.654904 355.868381 72.446903
-111.037042 346.466310 153.648662
-215.039377 307.228758 91.588758
-228.589416 300.183360 170.286647
-260.354426 361.723764 221.979072
-263.480967 410.560843 58.597053
-274.991904 395.366341 19.793967
-127.293314 381.601938 188.524189
-72.737219 357.492916 223.072789
-148.898032 317.920604 60.331545
-253.639523 351.965377 84.416995
-132.868926 385.366335 199.559578
-92.926060 316.490226 64.075871
-158.727932 400.226949 91.884104
-75.509975 305.531249 71.457586
-209.960971 397.060957 179.744359
-166.784214 365.869189 42.450319
-255.419603 351.247570 125.242595
-195.375528 324.843233 207.324457
-124.535591 405.379475 228.655309
-252.884428 365.133571 236.379119
-205.730905 329.788772 186.708800
-93.848329 332.835820 149.762416
-59.189591 380.134967 163.138605
-243.407246 378.879394 243.314566
-283.177964 387.155784 85.665539
-51.608288 368.720412 23.746329
-84.908034 299.740568 159.455296
-139.146605 364.684873 193.849194
-61.667086 323.291144 12.591352
-52.592312 403.136900 202.393826
-138.993578 381.308538 242.300661
-224.210752 305.957771 228.837851
-90.101312 347.765520 119.383389
-150.310770 383.769126 232.803191
-95.318030 323.309324 171.160923
-84.209739 403.303340 40.220094
-183.892645 383.736575 209.933949
-250.591309 328.515010 53.933782
-258.354831 320.830464 39.748937
-274.568699 339.050621 7.789196
-192.748571 390.755575 244.248697
-238.095737 299.252051 175.876958
-172.564049 306.391302 220.124249
-233.651033 338.012650 170.462407
-290.874854 345.192945 24.370301
-48.694669 339.543440 121.968984
-253.695472 325.540436 228.496416
-134.554950 409.071564 92.012139
-233.657126 360.458950 181.441474
-256.987131 304.142772 133.064691
-230.250825 391.812638 171.373595
-284.976847 300.050669 89.601044
-269.794626 323.793475 68.918340
-61.456583 304.000510 195.934318
-200.805886 369.452803 242.886116
-267.748652 342.459969 234.382662
-188.198561 354.918359 61.188537
-214.612937 360.729872 232.946448
-190.165031 408.390642 102.717875
-286.103343 409.298919 141.434339
-186.872209 399.690764 228.014402
-207.605991 361.821528 174.342647
-72.886101 351.344477 143.232799
-256.546985 333.944873 121.180988
-192.307740 408.197920 123.849494
-222.390706 323.639162 135.314103
-224.265046 319.970788 103.411678
-93.251396 310.752711 84.059290
-282.166650 368.824740 150.058591
-178.368340 299.380501 195.675633
-141.902135 309.987926 92.765558
-196.002679 400.234209 190.202964
-74.790450 378.213552 155.025525
-102.718195 338.523706 80.731485
-169.551020 379.463304 15.841876
-189.447120 347.726101 23.467494
-185.478698 312.119281 192.906599
-98.836272 339.866593 123.217743
-249.803029 352.512835 116.935185
-87.712341 337.591394 121.545471
-70.197156 326.338178 79.779001
-256.504638 345.662305 76.806365
-207.551818 371.565862 20.409035
-239.244443 348.425481 20.628314
-100.786178 324.919594 223.211378
-96.141615 330.489949 177.005339
-290.677186 299.323898 209.396017
-170.183763 362.669299 170.532130
-262.493538 367.078228 125.970108
-116.515285 377.965388 235.249145
-177.685119 391.160760 167.168356
-65.028138 375.395747 132.688271
-65.690428 397.823787 249.282233
-238.088564 378.475558 126.576601
-73.529011 311.975660 81.811332
-235.714642 379.157429 37.123086
-263.977162 372.208603 36.249378
-204.686997 316.977203 97.213588
-273.883753 388.755703 57.702998
-79.866821 381.146655 205.525038
-106.306456 409.420578 123.443023
-154.383435 334.186867 53.911896
-209.417938 381.475158 178.282540
-258.580322 306.472814 176.587388
-62.618952 344.032170 168.889645
-200.944802 332.037287 167.862054
-46.728401 307.512106 159.493360
-289.855468 369.030570 166.104553
-249.534679 374.187450 213.485829
-146.224072 304.824940 154.132978
-263.003414 341.762394 121.606221
-270.830763 353.953170 153.191601
-188.031557 319.578877 134.840244
-277.403238 313.848948 74.790225
-151.546348 327.149488 51.147996
-184.473950 311.801672 53.242964
-228.386844 385.723611 101.561363
-177.785276 391.743323 243.956614
-115.762837 307.565984 46.537757
-136.256689 329.551118 61.798864
-176.142727 374.743528 10.913034
-229.860881 382.425981 239.369277
-219.765244 305.837691 79.284501
-118.904355 364.175692 220.573427
-146.187565 405.057682 136.196704
-232.884023 307.583256 118.839946
-176.432954 334.091373 186.086758
-134.194570 308.870547 146.170687
-135.215413 304.923764 84.578692
-214.977800 300.772364 156.754489
-62.524464 303.492113 228.319677
-293.897531 368.355506 227.008898
-175.860903 303.733152 109.052322
-94.225088 408.116837 122.926131
-48.787785 312.204135 11.965076
-192.780370 378.991873 196.300538
-99.641325 410.316161 52.710923
-97.384923 389.842985 241.765499
-187.264590 311.556799 14.930946
-80.143937 314.501132 135.054586
-74.084020 350.799678 211.541875
-63.186204 321.062395 117.310908
-204.431616 408.420210 37.744376
-278.593779 326.822818 178.324673
-225.365315 344.111944 28.861769
-264.982987 318.983457 153.564344
-193.283333 375.152232 44.580451
-283.484693 402.562890 37.910811
-119.563414 377.899076 148.663133
-249.640214 372.106450 100.346360
-138.861001 366.391065 80.843981
-274.160220 327.669268 223.055206
-237.663139 332.512910 172.210439
-250.412479 312.239271 23.654252
-209.873649 399.164476 76.255728
-83.110743 352.719753 201.498247
-240.002685 301.515418 11.373753
-263.547391 401.717801 110.185422
-182.532808 336.158694 157.466349
-90.258513 386.140906 94.202894
-117.404990 363.562774 69.424939
-258.768175 364.953109 164.767823
-260.017040 326.277905 112.778125
-71.535144 361.456891 135.309436
-231.626415 336.846220 107.009729
-281.046299 387.472337 202.412000
-233.669394 384.266897 170.141164
-100.844346 379.867266 223.106029
-190.295551 316.292940 149.775940
-195.028375 359.849279 101.898782
-278.621685 391.926498 127.312423
-238.584410 376.590512 184.548631
-56.192161 324.073505 159.647269
-201.158151 345.413817 77.819069
-243.914658 369.983190 240.583299
-64.309414 323.637822 18.777143
-192.970610 329.108451 75.085028
-43.114699 388.682270 248.883975
-274.401160 386.583816 127.399186
-92.670647 357.876017 176.524325
-83.943254 345.252951 61.392335
-253.730010 390.997776 242.068901
-203.006381 342.632346 222.751059
-118.580949 324.516058 218.536791
-192.130416 318.234961 106.745175
-249.260708 397.767273 181.441251
-285.422797 380.718705 89.759135
-279.256493 375.934740 165.424619
-110.232723 340.642965 132.853772
-172.793132 333.842278 66.969912
-104.540506 312.528142 159.023893
-158.819878 395.132217 99.857713
-207.497228 331.781576 48.369173
-247.143127 348.171977 180.888628
-165.351710 310.122949 146.928185
-261.728189 345.422409 29.175471
-86.451202 388.512098 100.959235
-214.035151 387.920718 120.431481
-284.039583 344.488354 206.531816
-138.322352 381.532021 79.374075
-205.478034 389.568601 188.393330
-256.066591 320.343286 9.408290
-150.484483 303.772624 242.712195
-162.360269 321.920478 145.062962
-122.467792 373.172836 109.674812
-289.280573 302.142583 130.147696
-197.777770 398.752183 44.919034
-205.640932 361.596216 172.871626
-180.228930 408.831621 186.171934
-244.445335 331.140334 57.126606
-145.687771 300.691211 251.800967
-182.196887 358.325843 138.179170
-84.253040 367.803145 184.859482
-171.551430 388.607435 100.935437
-101.442546 380.552491 31.980866
-88.786041 321.130831 32.880950
-258.784024 300.841446 90.028654
-216.544822 371.699040 246.942309
-79.082456 410.476717 182.912611
-63.439624 340.554670 235.991770
-287.509535 299.828756 67.272764
-139.143549 397.410939 219.197552
-52.255510 306.016868 219.613135
-272.936061 388.455477 123.401729
-271.068064 356.204418 75.458185
-66.944610 299.026181 105.709147
-249.372079 333.337869 99.013852
-87.413530 356.849678 192.426373
-129.903741 358.446518 186.381180
-90.791220 350.735560 153.385273
-143.178846 305.765855 187.845387
-43.254435 343.877470 40.253541
-152.897471 364.486166 71.922422
-157.871539 401.475593 20.442751
-127.141316 352.757628 182.189723
-231.620756 321.068058 226.316724
-66.110915 321.112812 55.390892
-71.092082 333.664316 253.557522
-83.329123 399.626054 24.969015
-174.916545 318.524972 84.007660
-133.162083 377.522161 99.762994
-263.188433 302.390535 62.436557
-91.143523 354.944442 77.991440
-193.813411 318.222410 37.701968
-223.941736 376.743128 50.494550
-119.419666 367.084212 133.471494
-226.270023 314.475247 145.971589
-149.164817 349.952544 32.671769
-113.152951 378.694522 33.179942
-180.571206 380.798308 21.048882
-198.096742 366.540395 152.237797
-194.990719 344.468465 16.199962
-173.306868 405.114739 227.652563
-103.810689 299.927216 27.975996
-292.754729 340.514777 102.370212
-273.114911 367.917034 56.402173
-254.305333 319.254923 8.319634
-185.606777 319.272979 232.670865
-97.655414 388.799461 167.523353
-167.956101 410.032979 127.154869
-50.659547 388.954738 77.824255
-208.200644 334.202971 101.853448
-166.756114 322.742470 159.687890
-172.035059 392.458846 142.236371
-103.972949 375.744072 220.529202
-94.327584 361.892677 196.164781
-192.934647 400.151889 233.460333
-206.058309 321.948310 116.899356
-194.965827 398.184137 252.613410
-152.703403 351.526880 236.142589
-67.615576 348.291852 211.300670
-64.057393 400.398972 148.452197
-140.507737 390.256266 18.588474
-93.067431 353.215592 33.693477
-233.606539 404.161269 60.085791
-70.441430 375.298273 64.969419
-64.287276 311.097907 225.637653
-271.026648 378.909922 214.490077
-280.305636 341.603080 234.383983
-164.232731 377.248420 70.931757
-173.901924 300.209787 129.022035
-163.170393 315.253358 85.422439
-244.808861 393.026590 192.641327
-272.545452 330.415801 183.223661
-133.931170 405.519345 170.700417
-220.740489 406.232712 235.597709
-118.090704 408.286410 160.639740
-281.933383 336.538322 112.880806
-154.324221 408.870233 25.032705
-264.830810 306.747794 242.390455
-265.608123 405.791850 169.087306
-260.488185 300.217285 175.672353
-81.425855 345.820505 52.921845
-254.826010 410.616132 42.540776
-154.585857 298.878308 96.367250
-207.352404 351.994890 256.418084
-223.192835 357.943106 97.742291
-77.637160 390.330047 45.430524
-151.368628 303.627730 136.210378
-70.557499 356.738064 200.869209
-272.928050 374.366046 248.759852
-170.995961 381.637125 54.524222
-165.847550 405.750419 194.013958
-53.801735 372.389705 112.169092
-259.751381 367.580300 157.580316
-62.034220 387.415613 202.831319
-83.431965 325.817706 84.770143
-74.285119 314.320486 151.211619
-176.127017 406.845207 155.041992
-235.935153 376.373390 138.466611
-151.285771 374.731492 216.198509
-294.214645 327.388192 148.794665
-43.208074 406.762272 200.435539
-61.694394 345.344607 211.172148
-53.851401 396.274906 82.056020
-266.972342 323.587862 92.969454
-69.865051 381.949502 69.372048
-266.261255 325.273558 45.795250
-67.954961 310.713167 240.331919
-270.185151 337.356001 146.720572
-270.232506 380.469091 193.383882
-289.303490 329.087338 49.779014
-183.760922 372.329956 61.985737
-170.231017 395.592896 77.499266
-267.006174 402.375005 139.627774
-88.756875 348.483002 149.417580
-178.708675 311.226290 78.056857
-79.723628 308.556212 33.906481
-226.027129 380.157200 59.488520
-241.974120 313.461513 194.991663
-109.413137 354.822725 168.416798
-138.649484 311.088919 69.002392
-46.646848 342.382821 29.631358
-186.830539 348.391227 224.372357
-220.686282 409.553734 32.134567
-124.784377 375.041356 126.206014
-255.425845 388.832566 166.626034
-179.996330 305.239870 113.945287
-79.234747 364.704031 71.714721
-124.795278 346.164287 32.333694
-122.365474 340.263652 221.974388
-217.733294 350.443715 243.226304
-149.753198 340.656612 36.164057
-72.850694 338.744611 178.717407
-184.740331 394.889411 175.973524
-241.401641 407.959517 253.990820
-262.375585 388.208422 108.714516
-122.442073 299.000560 75.672469
-269.800665 353.180955 9.651710
-61.334704 331.638167 122.914792
-166.266663 362.652215 177.975043
-256.470974 369.480615 101.905808
-242.399967 369.607776 67.190645
-184.298725 396.346252 117.676954
-194.238535 307.622107 211.286803
-272.440932 349.983754 217.660978
-89.685004 374.304325 100.725307
-85.923955 340.082821 113.162212
-60.024816 307.959696 92.377852
-148.497039 335.368855 114.224491
-74.231305 387.992963 16.690951
-51.708562 308.763494 172.607790
-203.717852 345.933982 144.780315
-169.611164 322.768872 245.031065
-131.555545 399.276990 220.150978
-98.783049 310.178673 59.495971
-67.404243 346.213365 206.072765
-224.178136 348.355168 102.255430
-221.178918 402.283285 10.105992
-209.039425 342.529854 214.714277
-163.722242 353.007344 165.652428
-234.495054 399.923682 14.984772
-282.045777 315.032445 249.978846
-246.456263 389.586001 70.101521
-276.449993 401.788635 114.775552
-173.222882 352.646275 176.722910
-151.381856 354.524785 226.592876
-46.145360 347.253619 50.498515
-197.760389 352.605751 27.694574
-83.190792 392.734125 159.765817
-277.363289 336.597677 225.500728
-236.168544 382.085081 101.394825
-174.041834 316.465417 99.306697
-239.146169 309.473946 127.923489
-258.496415 392.533448 112.966485
-208.439092 369.996023 99.021398
-193.914623 346.949309 154.202215
-117.359721 378.514671 198.057506
-246.436500 378.800041 95.592917
-156.116178 312.554122 79.170038
-201.916796 336.483594 139.358027
-85.326738 380.155831 94.953198
-268.081886 324.904596 222.367804
-280.993908 318.437683 114.154467
-246.998983 402.477065 86.441994
-249.804101 380.381485 222.075338
-211.239534 318.274468 148.651765
-253.658116 374.583492 120.805457
-123.036097 326.896393 72.447980
-257.607270 405.986520 224.929272
-159.024481 395.399314 220.894120
-101.094873 343.000483 229.285332
-107.954818 405.922577 223.155542
-276.691138 305.500161 205.969091
-46.622791 324.355531 120.551651
-130.983939 345.574880 89.902293
-118.988111 394.545762 252.651155
-68.824409 354.904722 70.079951
-57.542218 311.201617 7.947420
-289.804790 315.699214 136.199067
-67.236410 323.966650 250.367276
-86.328733 376.264351 76.721160
-201.799923 344.615881 169.163028
-192.247233 352.485990 253.701566
-278.782035 314.667562 193.431979
-162.918589 353.150681 205.702947
-164.590650 361.824621 70.570839
-226.264334 339.419082 161.290332
-291.948518 310.289520 72.481735
-262.118845 395.667783 128.492826
-90.382211 331.716406 59.696856
-228.074456 340.381183 158.507513
-259.088381 303.980503 94.771038
-228.629666 378.135329 75.591493
-165.241135 341.700261 11.118404
-154.491758 392.178675 224.939091
-248.354625 397.030268 256.282411
-272.104109 403.177601 37.347142
-111.256158 337.435988 161.467787
-123.492016 306.331204 21.628101
-197.711005 305.886614 173.044396
-59.234126 399.449497 74.951134
-121.878899 366.767638 18.722009
-222.175286 365.974488 87.947593
-110.106627 393.926828 158.858655
-89.440725 310.195181 98.993317
-116.407783 319.352104 56.785278
-48.096563 317.674589 133.006695
-92.786396 347.424723 106.433585
-246.639115 394.712841 43.742041
-85.910535 320.864590 96.763803
-71.330930 307.602753 161.681611
-79.045410 298.452518 135.447803
-163.497565 352.757399 125.317375
-115.722764 316.554867 169.180651
-109.593352 340.819632 165.810231
-220.191863 383.649324 178.836899
-125.791445 302.743695 95.737618
-70.471444 345.086160 197.904424
-228.014445 356.368187 212.260029
-123.718542 370.076566 189.534742
-232.977357 366.297853 8.587738
-166.337448 407.384231 56.473009
-47.371020 374.633928 167.978606
-94.165523 356.563779 75.864527
-284.041390 371.855332 25.486476
-243.231481 341.655532 154.766484
-240.244589 323.079529 168.226644
-56.741916 387.438439 225.067674
-246.831508 343.718088 185.352724
-264.827771 354.074972 81.491716
-188.993323 384.114447 169.150375
-77.435424 396.682669 252.468898
-207.382693 351.427435 183.977809
-256.769900 313.861770 222.143838
-282.472874 404.744985 187.225467
-150.218672 325.614722 238.807917
-247.031354 334.155673 177.534588
-233.228957 356.167235 239.190408
-127.593986 356.000190 19.219387
-227.488258 385.545479 181.761351
-243.513980 303.467551 250.599114
-171.263857 315.137457 123.195529
-253.353461 375.411370 205.592418
-122.840912 340.489056 235.717820
-117.150142 351.775763 103.385764
-253.532818 298.689810 11.140336
-214.986584 348.849239 48.980995
-283.111092 317.866027 101.349487
-281.234904 344.672057 11.037692
-174.532258 401.150477 44.222265
-235.606597 364.188404 96.843376
-284.935027 349.139454 90.657295
-171.497938 304.252791 67.432567
-182.666052 314.226034 31.762766
-45.217307 401.811059 54.531981
-193.275301 393.527976 170.527990
-248.686911 388.005611 129.088718
-105.335863 406.674411 34.370165
-214.302988 328.448576 247.620746
-144.476759 321.869867 14.220450
-236.704265 336.434621 18.153806
-151.271029 372.976465 198.693901
-122.093140 401.926226 236.639478
-262.237538 309.027033 186.102720
-224.269686 386.207052 164.577738
-285.938872 358.265755 143.877969
-67.045382 397.540926 97.092777
-172.188811 328.406811 82.673275
-112.646837 358.997848 26.062258
-192.709237 369.926627 253.911853
-152.263459 398.335805 171.803056
-215.845064 400.635636 214.046856
-218.067183 313.376442 219.367362
-114.060185 312.641639 188.328574
-259.214020 371.019001 198.017402
-275.550456 337.087704 56.125325
-286.789009 395.622213 205.238501
-227.077151 407.568205 223.821910
-64.815718 337.001191 44.581774
-202.599710 401.269417 81.130301
-93.768956 326.665391 94.901210
-273.839883 363.174907 163.850369
-205.410893 360.368762 181.002322
-83.300448 392.622421 97.588386
-59.141220 396.756653 192.905408
-208.223620 300.731149 127.606533
-162.597278 335.163123 93.491272
-279.487463 362.867572 87.194216
-137.927708 316.590961 219.786127
-223.421116 346.018215 197.435826
-112.596388 410.673922 36.935275
-68.804470 355.468912 192.886630
-107.383992 347.895470 235.014117
-235.376501 360.291710 78.387354
-228.864583 319.562697 28.458082
-71.902978 407.322460 61.633797
-82.153046 332.593313 12.020870
-224.896874 344.778046 128.296949
-249.138985 361.001249 231.940377
-247.203054 370.221577 197.477691
-171.433314 303.606911 139.297331
-84.461149 398.870240 164.988497
-135.554511 304.346021 35.706595
-159.564883 391.461057 121.735665
-201.077519 364.426380 129.741615
-128.037847 324.185593 51.731338
-119.938842 315.141046 165.581678
-246.076122 391.444674 172.100450
-141.545181 354.440871 166.646744
-139.092548 362.442393 126.686813
-281.445911 305.885789 178.986949
-176.506267 301.239617 175.415827
-84.208257 305.470483 250.423277
-118.699524 312.819882 90.253943
-283.782010 410.581436 218.665139
-167.988606 364.977180 70.723270
-171.815959 403.855519 105.593625
-181.696328 310.507791 252.242082
-182.660759 334.975199 62.110677
-172.532812 401.199980 176.687368
-46.524675 392.331105 193.531368
-151.308305 392.168786 222.297937
-284.902328 303.980055 179.795215
-181.262687 372.121632 85.834488
-72.632826 345.179045 80.344165
-243.530986 365.918159 94.574390
-141.097868 356.217956 170.574941
-103.592167 371.278763 202.891603
-214.399419 307.556434 240.880769
-95.657977 391.184180 171.447745
-117.663553 330.851422 157.014611
-277.223435 358.696788 73.181275
-107.036538 375.135374 44.393727
-257.955300 408.578567 174.513846
-88.533065 369.104981 184.842667
-193.620497 341.597490 138.128489
-236.431469 321.064511 108.622471
-249.671186 381.398296 55.845968
-200.545958 333.955383 55.789308
-285.613313 332.638629 55.729597
-152.196793 376.056458 251.490354
-189.835239 298.637019 92.948531
-176.558697 360.645644 249.589317
-103.620748 335.369851 58.802513
-52.344455 389.377054 141.609643
-293.113728 345.205044 94.339941
-108.988021 337.619591 213.256500
-55.206365 389.581206 8.609953
-272.830002 366.008449 104.368878
-156.339943 340.795439 34.892901
-137.549563 389.742924 16.359671
-114.249543 329.400140 74.539428
-178.494037 404.248145 44.577448
-222.919792 376.106815 122.757194
-140.134180 372.146061 8.069397
-119.671665 306.460720 243.907863
-89.823260 368.907523 64.670180
-217.653991 398.342191 30.188439
-235.244275 343.212624 247.420173
-67.826274 402.525140 154.132324
-205.972926 373.466558 94.057359
-238.001555 354.583097 151.265934
-258.894560 385.079305 204.566038
-164.107479 376.485611 79.003367
-54.855346 368.737277 25.431658
-291.921104 304.589847 104.278173
-47.436784 345.395854 25.532977
-159.174885 404.514999 27.494059
-178.149802 365.170976 71.675539
-170.206274 341.770416 50.379530
-116.989505 381.290186 148.002957
-155.859468 389.651987 77.148075
-96.248579 349.790459 254.149104
-52.562555 334.572475 38.614593
-173.615470 359.771101 96.142128
-293.899689 402.582821 193.825869
-93.116622 348.902745 254.332397
-117.401721 328.517058 237.946716
-249.754870 371.630789 160.879613
-143.871023 348.973665 36.182993
-46.951562 398.254312 91.246531
-184.741608 349.499191 197.076948
-243.455433 347.772367 62.156681
-153.501963 345.308207 227.655808
-172.912890 303.238671 16.476783
-195.522284 347.614791 208.237900
-116.099030 350.737880 98.817107
-80.864660 332.534792 16.535398
-270.427889 318.046556 249.304940
-187.892953 300.483702 203.836513
-100.342232 306.398352 248.210758
-184.001647 325.092617 120.914471
-258.832538 368.698136 152.063749
-260.772909 369.723749 108.804312
-236.966411 395.684222 223.512301
-221.967018 403.593319 90.363054
-106.289428 368.915661 250.721641
-103.698212 385.172100 30.800390
-130.956840 337.169793 121.370403
-288.014422 375.568365 198.007248
-281.122772 394.183523 166.620002
-210.355750 317.543103 49.983988
-147.863007 389.655695 97.243524
-144.138461 360.557634 143.548268
-74.271129 307.792236 222.997071
-234.691368 380.304225 69.750573
-170.244098 332.786320 126.424873
-64.124692 407.838246 183.582826
-253.351949 391.560755 213.958990
-68.536562 324.793685 154.406327
-229.980598 357.637760 41.619021
-70.320089 370.147975 12.335109
-132.427305 301.854735 66.078515
-228.419053 377.953634 140.151232
-112.394122 335.493354 211.935219
-271.289409 319.083325 64.701037
-249.002370 345.274906 243.334171
-230.242499 357.464369 25.793477
-211.909456 376.934571 11.165414
-94.106433 306.468598 41.612796
-217.592279 303.414970 77.394343
-117.871669 369.300751 169.223589
-79.959089 403.798567 246.083272
-48.510724 398.110740 212.800526
-290.085260 375.543881 85.293277
-244.758564 402.469946 123.650240
-294.079734 400.048173 180.954522
-266.772874 318.158421 83.134718
-176.366673 406.235695 61.564640
-137.824812 323.584664 94.909902
-239.961051 307.982591 225.323213
-98.219179 406.499297 89.573482
-284.454684 299.599151 119.486739
-206.830924 310.326701 127.174667
-131.034776 341.683858 142.422296
-162.819657 378.251324 93.034218
-188.790439 352.167015 67.007895
-139.723927 383.707151 178.637362
-208.739496 298.690693 235.567314
-64.286558 353.884090 30.737444
-66.434012 335.349241 22.572793
-121.650583 338.377942 197.042806
-102.696403 348.636947 173.351287
-270.890755 314.619248 245.782421
-70.348139 405.777457 32.542468
-215.438906 386.610276 214.956454
-73.842976 304.013161 122.035754
-104.717585 299.078060 196.132915
-189.961125 313.612654 198.571180
-120.075840 374.027379 235.243441
-203.577268 377.283648 226.113540
-219.598926 366.313931 61.607361
-201.043940 326.149900 81.149328
-120.646114 369.199198 146.113951
-126.980910 304.496904 216.245913
-221.816008 330.396522 140.339336
-100.527520 338.659723 36.429168
-249.582684 351.983188 94.208247
-139.801769 394.243011 57.031052
-57.573771 313.657763 138.000956
-195.673699 313.616798 210.896566
-246.712875 347.845803 92.789149
-288.271952 352.696538 129.527034
-169.327614 340.079015 98.459514
-43.532712 315.390565 66.421339
-165.538848 310.559050 124.881179
-124.633455 410.663531 239.802545
-268.117228 323.082608 138.909851
-286.142055 315.979646 201.331484
-275.555256 382.466496 75.451093
-152.566761 358.650542 86.394077
-63.773579 326.824594 116.680833
-204.852489 350.034412 213.703261
-92.967463 365.252877 181.032878
-144.336182 357.846618 149.243294
-208.275865 355.717967 71.736884
-288.161289 405.591301 196.814523
-129.081070 407.616228 36.491259
-193.837356 392.083293 179.437190
-294.956701 350.789052 123.358765
-147.254305 308.184392 97.726703
-284.657213 303.698700 245.158663
-149.263268 303.506430 79.944551
-49.550115 376.370490 170.361424
-210.977827 337.134421 235.641785
-102.601746 302.123424 206.027525
-213.144897 313.479246 90.983092
-120.499260 400.695268 171.775099
-59.159071 366.463150 138.362171
-225.002727 359.620700 192.156889
-173.731016 338.459772 20.143064
-140.794530 356.593048 65.917414
-245.078884 344.456264 149.794246
-239.593947 306.099026 120.662466
-210.110140 402.671220 151.058447
-153.761914 317.980256 199.295767
-200.646592 366.586388 35.312109
-255.942363 392.457119 9.704483
-122.298074 309.357182 82.375270
-155.708426 328.924014 124.731901
-158.763218 337.482144 238.864886
-70.882252 391.461405 229.293467
-295.029352 313.865560 25.266595
-77.555345 347.101563 106.106352
-245.205504 393.320331 238.738832
-66.984910 372.980891 121.564204
-184.760010 349.111780 56.803255
-101.174798 319.572133 16.754269
-234.350258 401.602295 41.483252
-70.692704 361.430493 78.352720
-97.612407 351.332356 120.175240
-75.781322 380.241142 132.214365
-136.108949 302.769194 219.414151
-174.530597 326.217419 213.557120
-57.052658 363.196841 135.570017
-244.377737 343.341384 13.148510
-214.104857 353.664748 29.873598
-229.127898 393.942048 19.875124
-167.323863 395.137419 11.419916
-81.245253 324.846818 50.131654
-220.595160 358.709346 211.938462
-48.191189 395.337123 16.499037
-44.159521 331.275910 184.141309
-243.008365 306.846459 62.620648
-146.590866 343.486534 86.582942
-136.240374 334.606151 69.616021
-121.359476 304.029238 135.242503
-267.842317 398.365424 171.242375
-127.660319 369.521626 47.551149
-232.363230 361.924170 149.641590
-89.278626 341.322708 233.417152
-197.256302 389.450595 235.763231
-219.716957 365.830330 8.657102
-202.215349 334.402736 195.809695
-136.116471 332.443481 227.980944
-53.412363 351.259203 121.454091
-277.426377 347.161656 96.691878
-269.715568 309.141758 128.975486
-152.457602 376.269869 52.881429
-278.180631 337.199053 12.385923
-272.800590 320.922229 52.376475
-275.616516 319.732964 220.814425
-231.511306 409.383265 119.465522
-85.016382 345.592578 196.061866
-238.606733 322.558526 105.707281
-185.151851 336.623981 214.817917
-289.768056 379.436154 120.660230
-255.100759 313.401503 50.041147
-151.387525 326.419767 164.492047
-135.402537 386.933909 231.306966
-213.454992 395.005114 58.985971
-171.030425 355.431951 30.253809
-152.820796 374.380008 237.449036
-156.725630 347.873045 85.513430
-239.463533 312.337902 172.045726
-97.909275 356.258172 179.571164
-78.902725 338.765777 204.456705
-163.656953 335.281539 142.524219
-67.067309 327.490360 32.928746
-140.309399 317.102021 61.405010
-97.501264 351.859346 106.843036
-266.778746 410.168251 61.332735
-141.569354 392.572207 44.910218
-159.511737 370.573378 231.536755
-84.752972 381.444086 60.738309
-68.078799 299.235077 87.654227
-203.991898 360.666905 143.046268
-92.654483 374.461441 13.293405
-142.426706 304.947117 186.795592
-160.500097 373.609100 88.699021
-89.714127 356.220370 10.813099
-191.351315 339.342587 118.266253
-87.704322 337.363700 250.689310
-76.614188 332.940472 122.963906
-86.833142 314.583512 42.540758
-271.107222 402.124833 86.547583
-176.852799 325.912672 39.787045
-271.003796 388.666694 80.976338
-282.089588 315.914388 247.606655
-198.774759 344.822605 219.316338
-132.158368 367.611121 73.047369
-119.948690 326.840817 153.097554
-227.440735 365.613157 198.558600
-292.172484 344.497768 39.840300
-201.648065 370.022095 36.553925
-263.697906 395.980599 131.885960
-270.024414 409.559159 213.625982
-58.813706 371.179095 14.947187
-49.812085 387.476714 250.881763
-286.908829 323.870706 121.351892
-231.290916 406.507026 79.121990
-233.362380 392.323734 160.792964
-275.479711 340.573257 87.430817
-89.409238 369.332844 56.552087
-184.241128 349.259564 252.668244
-72.774947 370.849538 232.183931
-116.227966 386.900736 18.842790
-141.013050 386.209407 139.992322
-78.397988 350.556222 23.855186
-188.669539 310.440938 220.189620
-96.616884 381.180422 224.134343
-113.366754 399.121217 141.272440
-196.544372 315.678050 76.993870
-200.019801 335.778419 253.340375
-287.115553 316.679485 238.964212
-142.261503 315.682692 128.298666
-47.141561 370.530054 104.304616
-267.445124 300.624376 19.455530
-177.022066 316.456872 214.824571
-207.619646 363.897988 56.773858
-81.069988 333.836769 18.143945
-149.491949 393.773237 18.572680
-129.967870 313.076868 184.263847
-43.525832 362.461369 180.551838
-44.913850 316.619810 230.152371
-177.150838 299.456694 125.680678
-258.467158 398.363340 11.842965
-88.492353 407.513584 11.096637
-181.694191 406.826847 243.980518
-83.154324 340.220797 83.216004
-136.471858 390.351367 16.347957
-101.819476 344.476729 141.085238
-207.330975 322.772777 105.603213
-47.205647 363.439384 59.962808
-120.354268 373.720754 85.519500
-277.354707 361.996701 249.233055
-137.351163 390.442764 121.342979
-252.147186 356.229905 227.323374
-291.427212 381.874030 33.232835
-261.216715 347.945123 243.877845
-114.721850 334.760798 100.395138
-84.904318 301.675873 98.855877
-102.719326 344.464577 9.233139
-64.664336 306.887037 71.435968
-147.819118 326.433907 46.161766
-215.318711 298.991798 198.279252
-220.036536 360.684119 36.137685
-135.662883 356.105535 86.393322
-131.795629 402.112130 86.124723
-49.513232 326.013112 229.690192
-73.056072 386.095906 43.408802
-115.735004 374.209485 40.263741
-114.018045 404.014399 253.660283
-65.721037 333.493215 89.401470
-278.589951 323.296732 100.953393
-214.670644 340.898200 69.742517
-89.473341 315.855605 187.123305
-215.791100 347.597839 224.188099
-134.230841 327.195007 84.483697
-202.289427 336.290874 94.799046
-233.118603 322.262882 205.885104
-263.103052 374.234349 181.127904
-250.093772 395.615520 103.361912
-57.750126 407.237540 12.689524
-217.277855 299.212335 186.028170
-193.582637 377.190286 184.032566
-187.067208 329.281176 213.641935
-121.533952 388.749287 10.410322
-47.608819 319.549144 164.754303
-226.219258 354.763385 10.604115
