-283.356691 -374.431592 -193.315628
-341.533171 -252.955748 -80.155175
-404.957334 -254.314995 -330.346958
-227.676757 -232.695623 -256.971553
-255.929724 -190.069877 -376.307496
-247.887475 -165.806788 -407.163418
-324.830073 -321.426929 -61.807757
-420.047766 -230.312962 -8.381530
-225.642759 -347.123966 -54.200475
-442.483692 -243.817238 -40.276873
-431.613351 -310.945428 -306.462249
-143.926584 -240.679890 -350.467212
-270.047191 -340.094494 -335.629490
-288.751804 -131.430926 -164.394695
-425.337099 -240.207813 -57.757059
-308.482253 -336.991580 -257.462491
-418.276176 -104.539157 -335.220714
-252.593751 -350.695127 -251.535442
-479.324445 -311.438610 -188.072709
-446.796998 -153.306980 -343.514732
-140.644380 -183.764076 -312.095210
-400.068207 -264.687539 -337.313523
-176.918116 -381.448834 -370.439771
-284.620457 -367.151825 -401.093481
-260.872099 -349.070026 -246.039634
-314.935289 -273.212351 -182.105699
-349.003716 -134.498922 -244.783560
-391.673947 -265.185987 -269.580975
-433.740916 -378.204527 -299.475550
-144.446656 -357.377967 -145.330277
-195.494917 -177.033029 -66.210425
-309.824932 -200.090396 -402.304545
-198.045136 -353.841436 -1.314863
-375.110901 -111.530303 -102.672584
-394.441667 -246.446688 3.799835
-228.479821 -131.240283 -223.689912
-468.239576 -223.400931 -347.717656
-271.133789 -160.226443 -408.552562
-356.996053 -133.273490 -399.904666
-475.882596 -147.128240 -320.145179
-342.217343 -274.643142 -117.354361
-201.912699 -95.951974 -229.118378
-210.255560 -88.335196 -268.027618
-181.921699 -246.456034 -115.285380
-469.406884 -366.801658 -12.326553
-339.966748 -235.117567 -118.152514
-305.627269 -107.325877 -377.279208
-210.216972 -251.957916 -207.212558
-404.743150 -381.285590 -346.704861
-170.658002 -309.607109 -53.072437
-339.409845 -191.409643 -263.481525
-369.921140 -173.581155 -301.908360
-417.673874 -355.414680 -309.501854
-294.372045 -111.077591 -273.283990
-146.773435 -118.950165 -228.413229
-298.231987 -305.674336 -275.606014
-409.238470 -180.122538 -26.659925
-160.308726 -182.176372 -235.835219
-257.984439 -376.548819 -223.487513
-289.344201 -359.720024 -264.840712
-409.894371 -257.111420 -277.956983
-139.635249 -93.576977 -232.543500
-343.312065 -329.832945 -283.895073
-172.954237 -385.090009 -32.904476
-346.757901 -173.969284 -285.225126
-378.565113 -243.830625 -377.129590
-365.353763 -372.996996 -145.141453
-259.792421 -243.109049 -350.301667
-205.100599 -203.930268 -43.366309
-132.685972 -257.529048 -241.268475
-386.580188 -290.237470 -17.938643
-385.768405 -135.898044 -420.410430
-410.529903 -131.084121 -286.206528
-283.483581 -135.916169 -81.074655
-282.319574 -167.426013 -358.653790
-334.999081 -187.102567 -121.320022
-453.191178 -294.793552 -419.847569
-384.685228 -150.781678 -247.105615
-305.470614 -192.920332 -392.259170
-357.178031 -210.558661 -23.630225
-283.303926 -159.821768 -111.066168
-396.262440 -149.107954 -124.420045
-201.670077 -337.721825 -15.765092
-260.724021 -301.697944 -312.338294
-486.456408 -188.963421 -338.367848
-267.534535 -223.006508 -368.128639
-230.462166 -162.148481 -108.760155
-190.096307 -228.401804 -224.230676
-298.364374 -379.904848 -364.902154
-324.821463 -348.263599 -233.381812
-172.233267 -152.847785 -373.674313
-206.020738 -157.837309 -318.356466
-421.711407 -83.698156 -354.679630
-303.523516 -352.754727 -292.588283
-492.291472 -192.974561 -100.782319
-392.540517 -380.193171 -55.563706
-481.597933 -331.653598 -126.610831
-297.197916 -274.314194 -259.693604
-227.704721 -107.270627 -132.410319
-349.259261 -373.235427 11.332478
-176.444734 -199.740074 -374.850827
-469.794031 -118.769826 -408.707742
-242.946504 -182.050095 -225.259907
-334.517125 -338.929897 -61.002948
-366.544704 -161.478164 -203.838626
-432.292299 -282.150001 -3.998479
-219.364528 -199.992393 -182.959619
-412.811831 -199.852190 -253.312224
-467.150298 -221.939938 -340.701770
-279.340791 -284.953139 -152.065596
-298.055900 -283.250613 -221.406321
-303.411255 -213.130572 -14.955516
-384.795781 -248.508114 -333.320726
-289.447413 -222.808605 -16.022455
-456.032717 -343.553965 -108.472655
-305.169111 -137.730756 -247.664196
-225.194968 -371.352015 -122.426025
-192.329583 -320.765605 13.121926
-463.795559 -113.560789 -321.568597
-436.016880 -369.258886 -398.242806
-298.775887 -291.388300 -219.515564
-387.893397 -210.324101 -344.611134
-484.081930 -147.597043 -286.100802
-246.130955 -151.734537 10.436996
-254.130195 -327.430642 -178.672087
-328.977428 -369.435030 -266.054945
-138.483182 -360.059593 -71.406535
-310.754911 -368.739821 -210.420701
-290.595931 -149.469594 10.002695
-419.862323 -335.802791 -269.114522
-226.095125 -344.905670 -56.028343
-351.954943 -262.093887 -40.874510
-484.299304 -308.426072 -216.095524
-244.039546 -329.059136 -57.863128
-233.100421 -318.934612 -343.387115
-328.416809 -304.996748 -329.038584
-473.822769 -265.922919 -212.149684
-235.262213 -277.698580 -256.876072
-247.899863 -280.802467 -143.807960
-439.338439 -274.209929 -406.243307
-345.566412 -166.393251 -348.099897
-153.591493 -323.919957 -212.126813
-349.495635 -365.566191 -251.387018
-156.493721 -353.387658 -179.197575
-456.584813 -210.167713 -26.632578
-400.456664 -335.416193 -256.058915
-378.433267 -244.805679 -53.401201
-261.568549 -382.808898 -360.662739
-290.060774 -340.750542 -175.241275
-320.138787 -176.840458 2.138749
-405.933865 -115.852137 -242.994964
-370.839223 -181.888642 -138.190563
-363.356426 -341.790842 -4.045840
-310.014090 -301.313808 -180.014600
-228.067511 -144.864669 -312.099238
-182.243345 -373.439386 -160.986527
-379.401802 -209.275007 -56.949000
-289.749250 -331.342505 -83.247298
-132.691216 -288.257864 -366.963800
-347.798327 -302.019513 -113.150671
-229.406899 -201.196072 -216.588059
-432.450776 -359.306404 -290.318112
-218.408750 -294.379956 -163.280688
-342.707415 -216.323350 -92.198158
-314.209557 -161.258577 -303.991892
-245.756810 -246.315751 -174.899516
-422.431560 -188.123103 -161.764043
-145.872154 -327.562991 -235.514294
-447.924096 -201.576450 -232.120912
-476.728650 -260.487587 -343.954709
-240.028488 -111.083606 -123.641880
-182.795162 -373.616222 -246.530533
-217.164106 -303.014959 -358.883573
-293.180347 -292.909925 -232.243722
-205.312676 -115.112059 -368.179038
-302.616719 -174.863220 -263.810876
-238.579718 -232.889563 -419.085275
-173.534506 -222.087163 -69.106412
-269.121660 -149.426423 -195.380317
-361.875133 -324.470476 -204.252410
-465.906282 -148.085412 -314.324927
-491.278260 -156.449909 -420.326422
-185.551743 -120.230790 -5.786550
-228.455873 -111.651740 -149.572966
-311.377511 -177.221642 -296.854868
-351.604715 -269.557958 -196.259841
-412.347157 -344.772168 -411.880377
-451.721370 -153.377347 -109.726478
-216.849223 -263.863272 -108.538570
-298.250632 -215.155901 -227.743503
-428.515756 -341.618772 -55.306946
-480.209800 -91.234865 -252.735921
-328.157432 -312.077874 -387.630595
-413.443086 -303.260847 -347.076518
-405.519316 -308.370366 -263.587143
-452.613759 -339.278809 -223.560803
-391.599305 -221.145950 -287.716191
-177.871616 -208.486335 -263.252820
-384.890650 -312.269487 -108.986362
-414.057468 -210.171620 -330.433287
-493.718812 -107.680336 -417.444214
-318.755114 -284.911017 -19.644935
-163.005429 -270.206769 -243.544247
-258.682592 -351.844922 -384.330723
-292.771909 -238.814838 -307.136199
-399.824193 -238.431704 -189.424391
-185.376067 -113.309209 -329.607753
-134.939646 -174.570701 -248.359331
-234.429419 -358.341910 -95.233046
-284.239382 -223.049974 -140.973554
-131.564323 -267.918084 -358.488413
-237.708599 -238.990696 -326.223018
-390.517520 -256.882078 -332.548428
-356.799043 -212.368414 -422.570653
-417.889575 -295.497151 -332.094619
-210.390308 -338.034235 -381.706527
-380.136519 -102.270503 -271.566183
-242.018994 -183.740268 -416.739061
-210.694292 -280.636253 -250.443203
-207.524372 -132.879394 -287.952038
-440.032262 -337.341341 -322.456404
-137.747259 -199.364542 16.454881
-415.304938 -338.882219 -421.125755
-168.350855 -191.679573 9.449533
-232.605372 -129.847414 -252.618017
-200.225279 -216.805807 -321.892623
-430.541887 -110.696637 -365.813764
-301.677761 -338.096370 -165.170671
-381.363518 -352.539421 -341.815388
-188.483683 -144.463217 -147.915411
-160.290733 -346.224781 -310.678398
-189.022236 -325.697948 -129.577498
-422.843554 -361.686356 -214.227599
-387.477413 -84.809059 -361.194604
-268.270090 -100.015672 -257.178193
-482.087811 -248.540273 -254.258415
-194.424556 -171.721604 -376.262424
-426.565847 -280.555119 -217.425702
-165.222131 -228.278825 -160.846687
-147.819833 -291.473771 -376.530324
-238.289462 -232.810257 -36.987013
-137.775683 -190.928932 -359.863118
-196.023402 -266.125996 -365.329274
-399.309191 -317.620856 -65.150176
-258.075449 -316.715726 -378.683313
-389.095165 -229.162382 -9.194054
-455.070440 -376.291348 -147.322087
-151.254079 -187.866771 -127.438921
-209.369508 -181.172289 -134.183608
-304.300177 -118.654239 -334.812404
-135.504141 -322.392538 -62.725962
-181.242940 -221.815588 -140.716576
-470.677577 -179.814813 -180.430284
-442.771607 -330.874194 -301.668340
-185.707417 -174.198670 -62.218921
-191.846613 -340.434248 -339.999370
-488.665010 -261.392405 -340.742766
-481.098322 -165.647393 -277.571316
-390.848149 -377.759524 -254.718891
-445.983106 -195.349155 -27.640210
-254.678895 -228.386192 -355.749036
-475.999517 -110.696579 -314.837106
-313.893825 -203.297268 -385.276137
-495.268231 -357.959126 -305.631112
-358.424009 -141.551514 -179.988637
-456.079418 -381.516756 -299.181334
-424.335968 -297.874502 -345.138333
-331.646707 -104.234594 -133.642541
-204.431859 -373.170668 -146.114993
-302.824652 -118.069238 -12.548343
-462.956103 -188.457143 -279.382588
-137.654769 -297.722514 -126.462056
-431.451803 -337.886051 -293.835800
-399.629003 -94.228482 -193.445412
-406.383832 -142.985904 -20.949306
-474.441338 -127.123127 -187.944513
-416.249627 -152.561169 -58.391184
-255.357267 -231.702233 -149.796638
-467.157315 -218.711930 -364.938403
-309.894484 -207.076833 -276.487245
-188.357888 -338.050528 -358.793918
-266.868388 -164.050902 -392.619690
-463.255937 -202.587033 -81.067237
-343.351571 -363.624578 -250.843734
-460.600922 -212.269257 -260.398440
-402.990204 -272.517069 -279.251535
-252.824614 -117.218157 -351.011421
-450.969530 -105.184363 -173.277417
-421.774335 -209.515551 -27.792011
-411.567206 -237.217316 -328.127683
-143.930394 -103.104954 -241.316676
-203.792092 -121.120140 -161.476891
-192.259298 -137.731369 -34.931996
-179.452804 -309.349847 -387.405004
-387.753837 -298.424465 -376.916378
-348.304548 -373.635489 -287.135761
-451.276633 -119.307888 -296.380175
-242.553528 -190.406832 -379.353021
-181.919625 -299.843446 -342.501889
-319.598024 -97.630409 -237.838000
-399.570342 -112.270586 -392.604994
-496.797919 -228.248824 -23.945138
-452.103810 -353.299838 -276.509715
-376.122719 -199.346634 -61.805411
-360.918566 -311.588974 -386.195179
-281.298270 -151.729220 -337.619538
-140.229820 -89.919481 -398.115223
-284.846684 -96.278670 -114.052708
-223.165173 -383.670920 10.017100
-356.370453 -314.616539 -197.218403
-403.333079 -318.469432 -114.027044
-390.948438 -222.570912 -409.720758
-493.397432 -334.292597 -121.737351
-389.060745 -92.816196 -202.886283
-239.793267 -174.165858 -307.863874
-417.174164 -317.289219 -153.427861
-365.567096 -300.097954 -228.558108
-382.120338 -330.152612 -243.564878
-216.100424 -297.433425 -151.954102
-169.331516 -85.821832 -398.869870
-346.151924 -126.500907 -352.889747
-487.060746 -264.123925 -321.188621
-349.160098 -295.856892 -53.323465
-150.772721 -322.629725 -16.814696
-287.889934 -230.887659 -366.252862
-390.437473 -299.522299 -150.000851
-491.670149 -206.981005 -210.840978
-253.127576 -223.815331 -274.493203
-469.545944 -218.882224 -418.667257
-289.433050 -260.351638 -164.021557
-287.784596 -84.662107 7.209851
-324.599899 -145.564449 -329.908037
-457.775404 -190.571324 -116.169621
-496.929805 -90.185170 -148.022161
-385.776613 -201.620127 -391.805920
-417.659897 -136.690150 -130.747223
-329.542312 -307.400230 -283.384752
-196.195710 -344.109519 -334.654217
-457.087368 -226.671792 -233.372417
-494.346949 -156.815746 -238.514920
-263.230643 -295.850386 -156.872500
-349.759265 -262.641668 -146.063216
-483.617346 -317.348561 -272.654302
-196.045742 -371.165223 -107.937765
-220.437647 -276.927534 -154.788391
-420.450788 -280.778754 -352.526612
-363.205897 -89.378371 -315.516629
-384.631866 -190.725265 -166.827328
-419.874430 -179.346965 -186.833451
-151.383644 -247.560245 -254.643120
-470.140839 -245.563454 -363.876418
-413.652553 -181.835535 -396.847041
-476.034823 -360.635395 -274.934499
-166.010068 -162.234651 -3.334319
-138.104344 -361.369598 -148.711110
-395.316159 -312.271916 -11.090859
-187.793158 -280.437078 -356.652219
-176.642357 -304.306918 -153.764704
-349.979471 -310.035260 -5.103951
-383.802413 -208.239813 -400.718752
-371.075128 -344.150296 -67.270418
-377.809465 -114.692188 -333.789153
-483.398163 -159.596829 -185.748437
-268.686928 -315.739639 -315.261852
-151.280185 -282.591745 -316.184198
-455.802530 -230.621763 -379.206459
-235.412549 -208.474279 -129.618050
-258.761409 -137.925412 -19.511686
-209.404903 -236.176326 -124.895203
-258.342314 -195.853385 -13.264791
-363.344296 -92.830493 -290.821705
-450.665420 -282.134477 -90.433486
-461.346098 -175.017625 -340.619147
-365.487416 -238.074987 -19.396423
-324.496152 -358.939788 -15.731695
-469.940121 -212.366473 -293.742230
-172.399190 -238.378951 -271.235311
-183.954387 -214.488735 -175.371331
-282.187835 -202.673607 -263.225778
-225.167604 -190.378720 -385.195231
-472.486228 -302.832814 -187.710075
-160.260716 -137.916396 -265.085236
-464.676355 -299.607696 -133.296320
-276.762727 -241.390782 -300.338530
-278.860086 -369.188080 -404.774314
-381.817803 -146.244194 -288.293441
-349.397640 -168.380663 -49.510549
-496.319821 -129.288341 -188.572091
-348.968523 -212.120618 -70.290495
-317.835976 -145.977007 -180.458611
-461.459560 -292.435231 -269.020523
-197.692310 -243.527804 -295.905236
-175.690669 -182.519379 -95.090233
-422.723302 -90.424116 -87.584244
-268.039669 -155.976313 -326.000563
-303.118925 -222.100013 -149.653001
-424.814700 -158.185667 -332.253873
-253.008938 -204.269055 -285.976264
-443.907647 -236.308481 -313.199475
-495.752663 -377.732799 -81.254162
-273.773119 -140.788136 -182.881888
-147.739479 -317.901116 -398.480353
-334.695459 -291.797315 -127.160365
-309.491155 -93.315968 -360.979560
-295.727497 -349.565056 -348.623664
-313.199137 -90.025948 -297.307171
-370.211913 -242.475529 -382.275974
-380.217568 -138.774142 -142.813289
-302.445965 -357.308369 -71.588161
-312.851819 -106.049825 -302.991824
-235.886806 -256.562601 -189.977220
-241.680784 -229.968627 -225.025997
-466.494311 -190.448365 -242.807036
-379.371490 -194.014550 -261.020249
-401.548649 -252.035906 -17.000441
-444.335526 -108.848609 -310.330929
-460.369942 -144.263314 -195.942729
-371.151729 -139.713046 -171.491115
-402.398726 -366.429816 -151.681640
-230.738269 -307.646995 -97.212377
-449.415790 -186.855699 -125.031308
-168.411919 -239.794040 -147.667165
-322.842715 -329.802741 -305.793752
-182.134353 -258.104605 -277.888934
-169.917822 -326.936797 -292.015014
-177.580686 -90.000881 -271.175865
-338.140589 -190.734958 -422.692787
-423.179288 -308.916216 -7.619732
-401.335326 -377.109238 -111.662063
-373.545570 -370.019683 -404.776990
-285.742744 -383.448606 -196.408819
-211.266260 -292.625355 -98.370957
-309.975518 -158.141412 -199.693390
-318.800085 -99.838770 -267.058742
-186.895431 -373.834628 -127.775446
-227.524248 -301.868874 -238.093252
-391.336461 -259.756161 16.119541
-300.032180 -338.186057 -145.193382
-258.476857 -160.386462 -302.439237
-343.511570 -296.463791 -57.622768
-137.346043 -92.410570 -374.961291
-370.322010 -209.791087 -296.173254
-164.638960 -318.820159 -364.555318
-414.540422 -106.486230 -300.831539
-181.395111 -240.744523 17.255004
-478.425953 -336.029549 -332.205018
-482.993573 -299.053282 -171.497783
-187.071693 -333.823542 -406.993367
-153.179706 -168.828690 -260.019820
-442.675596 -92.930667 -202.484535
-209.251764 -328.961434 -109.824850
-437.450058 -126.798071 -165.481470
-404.697608 -329.497224 -290.683572
-484.404507 -112.204307 -298.917211
-384.820906 -358.666389 -277.473566
-297.816884 -251.935310 -375.533522
-280.108751 -339.481742 -303.999937
-345.500263 -364.648575 -55.056164
-445.346838 -181.197019 -283.025470
-297.477039 -337.637730 -214.708136
-396.439093 -288.656601 -305.438962
-145.765030 -231.229885 -258.184003
-297.752956 -348.313561 -123.235144
-229.319979 -325.011806 -414.154838
-181.545826 -281.220123 -373.956385
-158.208587 -131.010504 -114.822865
-370.409240 -131.876829 3.249503
-212.979580 -250.338057 -231.495586
-305.344356 -162.837117 -138.260375
-301.402013 -252.841089 -1.255890
-244.120453 -90.546896 -14.344163
-489.469357 -233.094051 -125.251057
-274.092527 -174.652301 -262.534084
-268.099377 -192.278347 -259.895706
-181.887230 -99.604385 18.336946
-194.552455 -375.998525 -163.690965
-476.229697 -208.933393 -417.577867
-132.337548 -256.841933 -346.832595
-401.641925 -264.230765 -227.366957
-284.050755 -373.831105 -156.897743
-188.017005 -335.100017 -325.560636
-401.373233 -186.966370 -282.706344
-182.374439 -251.271471 -374.508058
-224.519300 -287.925925 -0.233068
-200.550473 -237.826552 -277.421237
-221.341917 -280.866392 -161.002493
-340.720032 -137.415635 -394.099812
-399.626486 -233.587235 -260.708925
-255.789079 -307.745595 -164.089245
-156.776468 -113.629066 -113.869078
-142.512516 -154.136969 -100.502703
-461.267035 -183.061389 -298.496204
-186.656818 -378.805039 -85.510808
-198.850697 -295.447208 -0.192844
-216.914349 -161.550252 -0.617996
-401.067791 -117.960993 -205.692995
-208.719699 -207.703209 -176.474975
-322.238441 -117.319301 -46.895632
-186.129466 -143.607100 -215.513111
-344.044235 -205.868071 -321.645749
-175.026132 -302.994670 -4.426242
-218.192665 -119.929311 -210.148037
-482.028724 -320.386867 -288.798981
-341.125589 -258.030087 -295.218009
-401.552754 -187.340312 -286.216601
-473.279661 -273.719137 -68.108795
-192.972089 -101.395633 -416.057139
-165.199210 -137.420456 -178.561520
-190.541454 -173.987571 -336.439312
-327.263655 -312.221003 -56.471162
-352.368150 -113.382954 -52.739229
-362.050354 -175.179649 -91.216992
-413.841497 -353.733303 -361.821852
-433.660315 -181.959814 -121.789360
-427.347127 -105.152155 -274.939258
-183.947377 -165.745797 -387.415706
-275.911972 -381.201426 -26.108119
-376.803777 -150.421729 1.125630
-291.948613 -256.007430 -303.688691
-336.849154 -316.421036 -174.576004
-326.547279 -127.570210 -400.407175
-481.005699 -306.477684 4.021189
-263.454810 -200.041545 -310.144548
-437.540125 -135.257600 -105.277031
-377.896947 -320.772719 -398.394996
-363.430181 -326.971950 -279.302038
-223.182479 -379.480792 -419.153007
-140.188352 -210.040417 -140.769423
-280.785254 -123.004175 -21.356614
-327.362459 -340.561786 -263.862669
-271.353271 -199.301704 -374.923320
-432.413279 -257.647111 -353.991628
-490.860295 -184.542314 -328.692637
-406.233942 -356.472500 -305.989160
-181.772730 -313.668014 -229.328350
-256.812733 -117.546488 -210.180451
-375.755472 -128.564892 -415.368020
-216.705451 -140.241309 -355.283523
-161.079468 -231.741326 -202.278844
-418.886405 -235.477194 16.085524
-155.696312 -381.524973 -89.091691
-262.421316 -371.059481 -9.362491
-464.321111 -138.335878 -422.342156
-478.639583 -238.099438 -418.439993
-187.210694 -346.549739 -403.829192
-300.630512 -291.564130 -63.683227
-421.312306 -90.071171 -30.008116
-171.768499 -245.567578 -62.070835
-293.640442 -218.103657 -172.219427
-253.695112 -262.517340 -338.722871
-163.426226 -249.445049 -125.944420
-476.846220 -138.437372 -37.217989
-259.414421 -275.477113 -325.107542
-195.340649 -270.607706 -18.938814
-197.274991 -205.406973 -374.736313
-147.942812 -342.757079 -162.942101
-143.379305 -323.427827 3.008970
-196.628599 -357.454987 -85.374216
-457.987565 -185.199770 -200.689605
-222.858382 -243.028236 -196.510602
-213.906196 -310.319981 -171.219908
-395.064005 -235.297466 -248.589838
-481.183617 -187.359139 -8.435809
-339.268893 -196.667417 -345.520868
-386.911342 -189.527759 -39.118039
-182.138853 -88.166733 -335.612546
-409.812212 -208.393871 -55.007697
-457.650981 -214.994141 -290.846264
-287.056851 -268.162332 -115.530640
-388.746313 -196.469765 -347.577938
-132.215164 -247.397792 -92.947290
-468.343867 -372.439538 -230.049515
-194.996337 -166.981238 -140.007285
-360.987591 -135.211681 -313.796263
-220.065377 -230.884214 -227.730597
-373.622176 -323.402922 -82.608422
-378.216123 -150.261814 -368.677292
-387.035810 -154.439935 -229.141796
-384.987183 -152.109958 -180.036083
-495.171594 -368.578662 -125.767228
-423.343754 -309.230699 -52.259837
-216.355118 -215.237250 -196.929610
-329.619100 -192.725227 -324.872908
-374.696379 -364.414733 -268.832928
-148.651310 -260.525739 -76.534862
-320.247666 -267.367963 -405.652924
-377.223792 -311.311241 -54.787290
-243.011365 -279.604219 -93.110475
-176.080183 -305.288951 -195.357804
-224.718596 -198.485556 -333.519221
-268.020149 -193.445322 -249.316351
-419.890838 -194.505896 -123.249782
-254.658625 -369.710677 -239.662846
-270.422682 -369.942401 -212.964042
-463.077879 -375.101709 16.604290
-361.428900 -340.204580 -278.251827
-136.826966 -176.070361 -95.413945
-488.999363 -244.895917 -310.542876
-242.335713 -324.598812 -401.850207
-305.535105 -168.408157 -117.260567
-445.191440 -370.721584 -143.678647
-489.654256 -98.359993 -51.752243
-278.749756 -129.644192 4.242728
-264.833941 -228.100348 0.001571
-256.136007 -321.415055 -343.569531
-472.299694 -229.001994 -400.715049
-184.284440 -221.373040 -184.709835
-351.519977 -324.061411 -173.374722
-431.107363 -227.965611 -268.763335
-384.825755 -300.129615 -245.661917
-260.698934 -217.203978 -145.676648
-250.265113 -287.855204 -422.846711
-351.125563 -234.803839 -138.144171
-487.250827 -274.824841 -59.643328
-468.357837 -108.080748 -336.645967
-462.759181 -347.372064 6.894337
-334.604306 -354.347799 -53.593250
-198.157342 -91.130575 -153.712876
-373.071842 -288.851723 -337.359528
-162.820939 -188.238705 -152.681972
-181.881642 -203.637317 -390.022336
-337.644835 -105.215816 -388.589476
-385.425934 -130.846286 -79.475113
-375.474164 -239.568659 -142.037077
-425.566015 -311.748263 -290.247390
-361.626116 -376.764406 -236.458204
-221.935777 -148.051554 -103.119970
-451.480651 -284.129052 -230.218013
-490.690526 -180.760405 -149.668514
-167.549761 -323.170521 -332.857382
-320.974383 -267.776816 -166.419256
-155.651196 -164.979877 -372.394518
-149.050614 -85.322445 -329.933021
-392.841737 -335.277531 -244.247130
-467.694566 -231.243223 14.201773
-453.369259 -215.656995 -317.839788
-305.672089 -301.344473 -17.640970
-369.844961 -146.700822 -300.346973
-235.756191 -285.048999 -138.247257
-316.634293 -319.847335 -398.178085
-195.436947 -293.010177 -203.572070
-135.112453 -298.693841 11.750790
-447.047393 -264.662355 -109.171644
-156.569206 -304.608797 -339.613383
-348.686162 -149.708316 -169.447148
-295.521308 -159.221486 -44.215482
-214.985753 -100.349898 -198.270456
-463.780516 -328.906905 -79.340447
-472.201048 -223.876967 -396.163814
-275.411289 -377.893112 -376.141369
-151.873527 -116.521213 -22.311738
-288.331017 -90.650705 -122.594424
-281.305779 -93.883407 -301.856847
-246.407200 -213.047527 -279.671908
-327.388463 -259.341107 -138.686814
-203.036070 -183.101863 -167.676167
-429.896545 -113.662831 -35.651188
-416.142577 -335.423899 -289.765969
-157.097309 -219.091574 -319.672582
-248.127111 -190.419553 -35.397011
-228.740717 -197.243587 -7.883021
-454.808893 -350.088686 -268.925361
-358.368057 -149.981195 -315.962583
-241.295174 -243.078536 -404.894488
-185.313043 -268.294225 -54.743995
-291.272828 -289.867067 -187.786795
-201.382259 -125.599135 -95.574771
-403.126725 -274.562150 -365.292862
-160.963953 -199.301029 -225.777618
-379.457730 -210.097672 -355.003031
-260.023112 -318.326146 -260.997026
-189.552544 -292.720384 -34.933657
-301.142645 -159.885974 -126.719085
-497.565591 -316.067668 -37.498119
-237.225536 -317.071882 -203.943341
-153.610748 -231.166621 -369.436148
-321.109222 -148.945955 -391.104858
-475.489385 -262.912800 -104.409881
-157.827706 -309.681369 -255.363706
-435.927642 -177.986970 -364.106075
-162.998610 -256.734288 -366.383964
-183.693949 -330.161297 -5.142545
-334.916222 -150.109898 -168.800961
-292.783280 -350.356547 -216.075950
-430.672014 -207.390159 -29.835710
-455.303020 -212.592969 -372.153507
-177.298840 -90.951891 -209.454469
-179.983026 -103.820413 -155.904114
-238.941651 -211.125056 -56.686810
-169.308259 -151.345355 -216.455511
-330.431015 -267.806464 -70.174271
-392.616893 -250.002810 -157.271801
-443.189349 -356.776795 -343.577982
-342.836444 -268.332843 -4.288593
-380.169650 -327.986159 -302.603030
-314.471309 -317.278140 -192.219758
-424.092632 -106.562060 -338.109242
-422.410534 -313.996792 -344.551466
-423.478281 -143.331361 -53.937866
-360.156403 -368.666158 3.141359
-151.818351 -147.679239 -8.791238
-158.500333 -146.262009 -165.377122
-230.573341 -215.243426 -145.000984
-492.704748 -179.025845 -74.633782
-235.992472 -174.254499 -113.724503
-465.567324 -260.734140 -3.989445
-374.572196 -233.580817 -2.485372
-463.660331 -173.196031 -174.414078
-157.265064 -280.497622 -192.319611
-137.780262 -85.656497 -21.496017
-251.264978 -239.074122 -332.427586
-455.647328 -276.553299 -136.502377
-208.994753 -109.490789 -255.854438
-464.549256 -232.073854 -150.646045
-381.284761 -147.059011 -164.366585
-492.794694 -107.767681 -249.359401
-186.699937 -107.975437 -406.671316
-457.011127 -240.815055 -97.379322
-165.288116 -272.014724 -234.185008
-443.414181 -345.999411 -372.926379
-451.608716 -302.332110 -15.443892
-446.228178 -338.031406 -339.641095
-423.378092 -263.736813 -390.282950
-190.036935 -131.434403 -262.076945
-470.078047 -299.574281 -232.805660
-200.530958 -332.474262 -278.753512
-239.740542 -111.400036 -74.674181
-392.666591 -224.915120 -359.319527
-237.522002 -291.366842 -132.935041
-204.328813 -204.926472 -300.228430
-276.727324 -317.892966 -232.039319
-192.101382 -272.990832 -177.913850
-314.103931 -89.831031 -19.523465
-371.298655 -225.765729 -69.422099
-486.838421 -150.876810 -52.926947
-366.194135 -165.014943 -177.070682
-355.664799 -225.601971 -176.480691
-153.836895 -299.482428 -291.942105
-215.233261 -135.948860 12.257412
-190.923192 -200.935522 -171.448288
-404.620978 -155.117109 -272.022070
-333.484385 -143.712360 -238.936643
-203.621117 -140.024311 -304.668327
-146.774683 -384.123009 -167.895535
-423.160512 -195.766882 -360.016586
-315.025076 -135.357995 -107.475987
-398.700473 -310.063600 -129.884710
-496.473107 -114.918737 -384.264278
-166.545898 -98.957273 -194.805949
-219.716991 -374.695010 -36.761649
-377.916012 -269.069114 -378.161685
-158.997930 -124.874224 -376.613683
-266.160530 -276.386819 -197.564356
-300.230956 -197.808902 -190.227762
-416.774735 -124.145538 -148.244013
-145.478775 -348.426972 -258.564145
-316.445623 -377.602036 -354.431010
-376.327296 -265.823278 -340.025121
-466.145906 -162.140052 -385.213592
-188.957008 -183.838601 -378.704331
-428.961563 -268.580067 -210.068303
-421.574379 -84.373660 -351.883117
-208.646808 -195.225385 -337.395373
-329.377842 -341.922597 -294.359564
-404.897842 -343.862194 -322.737678
-476.731773 -367.124420 -186.435585
-315.909710 -353.657230 -388.445984
-267.448254 -361.965025 -213.421440
-305.994390 -155.483610 -294.074919
-252.792538 -299.999216 -243.080944
-440.543153 -138.394066 -61.119991
-218.871755 -263.213135 -313.796386
-468.296085 -379.369899 -118.184160
-310.372564 -379.610252 -230.499092
-474.518508 -321.982689 -382.221961
-243.622391 -88.831172 -123.323715
-245.702336 -100.058710 -180.063611
-196.581647 -253.754706 -395.268743
-413.300500 -236.729940 -227.944833
-334.848046 -320.133618 -186.844401
-370.408191 -376.860812 -233.546130
-211.109796 -339.087309 -16.200138
-298.763745 -263.472935 -320.822060
-168.948898 -224.890371 -88.536435
-334.751267 -314.060960 -280.803127
-150.889351 -331.357836 -317.419022
-490.362863 -267.119888 -74.667727
-391.876188 -269.501398 -67.488119
-473.103136 -345.803196 -366.708542
-167.048835 -121.587181 -190.310460
-473.557072 -242.589167 -158.470139
-401.792922 -188.816351 -14.362557
-401.951798 -183.870987 -253.345427
-180.156292 -315.639254 -206.315438
-212.004996 -93.186675 -182.254513
-167.842585 -225.857324 -72.168387
-342.757250 -373.175294 -414.279018
-453.902026 -346.787538 -250.397520
-266.424475 -349.720358 -11.229999
-249.230028 -99.563188 -136.534782
-332.144698 -91.866946 -230.607980
-438.618235 -302.004753 -279.303984
-344.242697 -354.229982 -356.900990
-357.097052 -172.842118 17.982403
-175.836239 -116.869562 -91.338248
-341.376324 -180.288567 -380.084383
-251.411354 -143.615597 -157.867863
-431.465394 -84.716448 -259.819190
-347.233681 -308.770335 -256.118054
-394.219004 -359.599656 -371.856910
-242.459462 -118.777075 -69.203910
-447.762401 -158.920976 -276.399584
-467.568079 -161.750622 -370.628812
-318.350785 -132.612706 -231.188549
-375.631688 -137.690354 -274.582935
-410.692950 -348.158059 -75.210914
-421.795842 -317.348194 -358.495679
-169.984998 -134.970132 -100.406826
-132.762795 -145.390777 -85.995867
-217.262933 -280.392441 -20.609918
-401.197002 -321.586891 -313.115707
-424.594290 -115.169659 -130.570794
-290.354817 -282.876369 -308.747153
-295.127679 -358.721464 -322.043269
-463.680885 -380.110876 -156.522044
-357.133773 -86.165302 -171.805850
-174.408388 -289.368831 -298.639687
-411.538269 -372.584143 -337.917619
-373.475889 -335.990660 -70.831514
-264.843198 -243.487654 -244.123815
-264.034823 -225.951504 -308.621032
-436.926763 -224.065984 -92.658305
-326.519026 -177.185824 -422.132017
-255.502029 -363.377490 -5.605727
-213.023367 -250.751623 -424.292902
-343.836008 -364.996533 -75.016181
-135.882138 -133.102816 -29.546830
-452.107725 -157.372964 -324.176766
-207.903798 -358.328379 -80.654965
-483.371958 -124.791964 -150.839780
-401.494701 -146.422590 -55.681819
-468.206366 -121.327479 -400.105327
-138.216267 -197.980878 -10.838324
-281.798557 -177.901001 -275.723070
-317.271578 -370.816103 -4.044181
-227.783011 -367.208335 -104.774487
-167.667722 -190.609213 -149.513438
-248.949008 -102.528259 -305.728795
-400.674447 -274.294853 -270.257259
-487.756655 -158.924054 -296.722896
-472.055210 -169.689761 -58.658729
-498.287758 -208.414786 -398.218803
-418.793241 -359.836121 -350.921076
-488.394526 -167.428082 -12.218852
-279.656889 -106.131224 -40.408983
-418.614880 -210.735853 -60.640464
-153.003863 -210.391943 -351.546428
-488.284725 -216.946819 -85.506745
-296.761141 -215.896379 -320.109716
-369.860919 -317.374273 -148.483023
-493.407636 -316.084938 -142.237251
-303.148751 -251.690448 -22.788999
-201.651221 -166.464043 -411.987162
-435.027806 -278.180339 -262.875091
-424.403163 -240.535973 -303.794542
-154.838510 -220.045928 -292.072801
-274.607003 -158.265361 -332.268444
-154.163155 -381.720565 -96.762123
-310.003846 -228.042162 -392.477496
-433.501081 -337.293858 -382.984968
-251.461637 -261.038452 -14.200006
-453.412782 -365.216135 -420.634619
-261.342300 -138.658241 -18.530604
-391.949749 -164.142444 -241.498695
-146.375540 -161.411531 -117.297160
-458.466445 -89.973654 -250.507088
-157.004285 -222.747421 8.114285
-230.293835 -356.239320 -79.636161
-350.754722 -234.552666 -410.230157
-260.679417 -307.924172 -395.315566
-136.150109 -101.095070 -422.889086
-221.659545 -156.400178 -275.660937
-186.602518 -214.546436 -88.535396
-486.841331 -117.454632 -57.477962
-408.922175 -234.212760 -202.036700
-160.197690 -364.754398 -248.070435
-417.925889 -200.518118 -302.216027
-330.463282 -169.221749 -231.717506
-440.628937 -90.439945 -257.789526
-400.260657 -241.412025 -387.631433
-414.528674 -192.729060 -23.882134
-411.270870 -213.017235 -279.261686
-175.166966 -196.915586 -90.932880
-229.131796 -360.346727 -92.963255
-200.059757 -156.722583 -91.384691
-340.723849 -270.223267 -252.439770
-311.025593 -262.583707 -4.164974
-369.780088 -375.994888 -159.274088
-142.310866 -107.375708 -199.069091
-471.306610 -97.964620 -260.164054
-179.286223 -314.000788 -148.808534
-337.078559 -124.648719 -209.104254
-448.739163 -103.468493 -277.854821
-422.393036 -100.725847 -73.339583
-487.409989 -340.921618 -295.325593
-159.971433 -333.070357 -103.163367
-405.482969 -244.650118 -46.991445
-379.071578 -107.314992 -227.951838
-213.362875 -160.126245 -239.860551
-139.416236 -232.703423 6.039976
-400.481590 -215.646709 -237.346076
-233.134045 -280.804760 -182.964070
-478.519046 -215.153260 -170.957680
-378.852022 -152.410141 -241.758534
-406.033796 -94.428920 -211.835804
-151.561632 -207.551777 4.821840
-434.528508 -162.165039 -85.325854
-457.615626 -270.287642 -299.147716
-354.161587 -231.290674 -42.252604
-308.652155 -207.488169 -52.968995
-194.142443 -381.237360 3.564651
-235.291500 -205.431177 -252.679234
-200.070028 -361.794471 0.048502
-440.192974 -133.814512 -124.574401
-353.341063 -376.369300 -79.892809
-237.073825 -100.390570 -2.391516
-208.889377 -222.631492 -59.678672
-230.862508 -301.496786 -339.849879
-151.427488 -287.238466 -256.032027
-207.750113 -356.147494 -422.043201
-132.302700 -196.416696 -10.636160
-415.354179 -214.371889 -111.076481
-413.661564 -266.716606 -263.159029
-345.727188 -344.920908 -414.397071
-285.174372 -298.371645 -51.585651
-350.851234 -293.887829 -84.703736
-337.733668 -183.977815 -411.542668
-481.151102 -114.957291 -205.834463
-452.233805 -229.847480 -129.926144
-379.048913 -367.118977 -126.345595
-276.784387 -122.884584 -73.900437
-327.957132 -345.563435 -75.224799
-305.432380 -322.154537 -120.021616
-234.812332 -376.996784 -291.718147
-312.827404 -372.488292 -412.794561
-326.997013 -217.401079 -166.750201
-227.983928 -172.663011 -164.530103
-225.998419 -119.488313 -408.900459
-390.785073 -330.030623 -70.805628
-405.066491 -260.241314 -207.661745
-317.850805 -119.728481 -259.703127
-332.164227 -174.149530 -285.729682
-474.406969 -253.216516 -31.155314
-216.072550 -316.287139 -215.382730
-366.251860 -89.513527 -312.816637
-218.457886 -210.444794 -206.948302
-406.821566 -178.481064 -181.614115
-409.732548 -248.378305 -27.200839
-454.720660 -359.730244 -68.199984
-294.291450 -188.389049 11.209684
-209.763053 -222.515905 -290.259649
-167.064942 -137.183300 -14.966756
-463.850704 -202.108201 -342.843483
-340.016449 -157.283715 -27.170819
-395.613221 -240.557735 -206.208421
-498.015289 -210.349078 -38.348192
-369.495628 -296.612986 -151.603423
-315.835215 -346.538344 5.928552
-447.326442 -107.141263 -31.680314
-228.542844 -138.295265 -79.988958
-409.129862 -162.462382 -380.254340
-235.609704 -110.016753 -45.409421
-452.251592 -317.842679 -308.000184
-135.968214 -188.821735 -356.507618
-193.558381 -283.365263 -275.610136
-220.520636 -382.069369 -121.211131
-251.191395 -228.071393 -167.904429
-226.777159 -258.042539 -131.192846
-493.874482 -178.874803 -70.232256
-299.268122 -350.371096 -391.576372
-435.298170 -236.230422 -155.950438
-200.179639 -112.899011 -294.094681
-223.438205 -211.937883 -260.223380
-202.632252 -201.116806 -267.750733
-152.896225 -354.804112 -158.958509
-322.465917 -326.875943 -157.837599
-357.968241 -317.568942 -24.780836
-412.997760 -204.275173 -43.827988
-398.763523 -317.353784 -351.081632
-322.163469 -175.871042 -420.930177
-401.196716 -207.956274 -396.086263
-439.307551 -278.309161 -172.591741
-288.435201 -173.901846 10.733924
-272.432516 -135.623242 -232.329114
-243.414221 -167.386998 -209.257421
-293.007394 -192.871432 -66.566640
-367.524400 -229.240826 -124.041629
-453.546803 -217.879787 -137.251847
-317.279175 -346.624961 -277.237780
-356.375326 -175.382215 -405.984492
-461.277492 -155.644818 7.249028
-153.058207 -138.383702 -378.311190
-296.243537 -245.625973 -56.041115
-297.832473 -123.278966 -246.403480
-201.452423 -312.291378 -311.157816
-261.373448 -296.128467 -125.478037
-319.103430 -171.818757 -125.767796
-137.980322 -322.080107 -314.065500
-257.329419 -124.763366 -85.220100
-187.881195 -255.813987 -211.066587
-379.884018 -243.962547 -389.637164
-265.124282 -228.642378 -190.500644
-418.299366 -172.446447 -315.011467
-356.770106 -369.762994 -307.195057
-226.885944 -175.800275 -31.869800
-418.042954 -309.514526 -61.153646
-296.134830 -174.812155 -127.162463
-153.451306 -133.597791 -152.123676
-444.476263 -275.785950 -37.326149
-292.295406 -361.638943 -111.859125
-284.437812 -262.344239 -240.211281
-244.243674 -140.612335 -400.086993
-398.350722 -135.677345 -218.040513
-260.279954 -274.324547 -119.713805
-408.551065 -250.502022 -313.034193
-180.474147 -221.063714 -264.293092
-399.711187 -348.586403 -327.163089
-405.929112 -160.525878 -196.765961
-320.190976 -348.344216 -393.856203
-320.040649 -168.034572 16.191155
-358.339483 -164.625166 -322.947938
-353.749982 -259.749681 -392.427537
-387.136581 -139.576158 -383.566158
-371.612649 -311.378625 -56.610304
-218.195414 -319.504434 -27.486147
-180.613796 -321.653189 -404.660741
-311.375650 -232.048265 -311.497983
-377.647441 -238.286177 -352.894489
-352.534247 -259.685993 2.169070
-320.406593 -283.814560 -366.274914
-307.365650 -328.915266 -59.021622
-264.162883 -307.743809 17.730402
-419.615839 -331.247093 -399.771822
-154.275415 -260.822052 -266.065807
-446.529360 -382.735017 -367.261122
-160.523357 -295.009226 -69.651123
-132.052395 -212.711324 -134.252262
-398.054295 -168.674542 -277.586117
-185.151275 -354.044344 -174.897977
-171.834706 -286.776091 -26.661978
-395.650618 -360.902454 -213.823473
-229.824736 -356.636492 -258.795146
-344.135808 -375.143277 -48.501117
-284.602946 -150.402899 -243.630557
-352.390532 -292.386668 -33.924953
-133.435796 -378.105546 -280.013803
-484.368581 -233.567107 -72.371574
-181.845577 -340.586942 -371.185101
-333.518518 -118.068870 -391.594043
-169.862625 -182.935349 -111.118970
-209.366801 -368.996675 -100.713734
-418.598973 -216.891813 -47.957243
-208.611162 -227.595145 -231.396093
-280.608517 -148.433462 -152.698805
-389.948395 -358.146747 -368.521390
-461.854827 -225.514138 -166.070876
-257.683000 -148.306115 -402.744887
-250.794261 -289.190112 -72.627254
-160.445090 -350.214863 -1.544840
-274.504205 -154.004036 -261.460926
-400.564915 -305.479473 -51.023672
-469.528622 -304.765599 -146.353272
-441.023838 -195.876568 -181.494468
-140.819535 -302.418141 -110.731229
-247.930498 -230.331057 -266.611488
-448.939876 -222.042207 3.830592
-337.644679 -344.763071 -181.470369
-410.536199 -280.906509 -82.023342
-161.081778 -358.056362 -105.296813
-373.936137 -315.140886 13.788251
-275.852109 -267.423218 -28.099387
-365.901891 -91.016100 -259.618200
-291.000129 -347.407164 -240.572453
-151.545113 -129.240434 -229.041613
-304.243479 -342.984887 -33.653677
-278.474140 -330.260462 -310.747927
-248.982485 -356.467276 -171.593555
-247.186106 -283.601698 -381.259660
-429.514069 -348.614037 -382.244830
-335.996521 -272.298085 -203.721743
-245.102000 -246.499480 -349.643833
-190.701836 -104.846401 -130.580238
-350.773163 -345.722825 -317.932299
-209.346112 -134.918304 -313.928840
-215.295607 -359.165380 -224.302159
-256.111525 -185.484303 -40.333969
-387.654153 -210.671306 2.233636
-372.517353 -310.906262 -112.364935
-310.026468 -348.926025 -356.453456
-463.879620 -231.174992 -138.941362
-164.970605 -89.901563 -133.700827
-328.748632 -224.380300 -39.750776
-482.024778 -322.598354 -197.659459
-237.912450 -87.238057 -102.046711
-247.321756 -87.397917 -257.276513
-497.114511 -328.898182 -350.393565
-369.676007 -266.958858 -346.601301
-350.974936 -168.526141 -361.997697
-481.827482 -236.728161 -111.224824
-367.094943 -225.702223 -152.529365
-165.146597 -294.815358 -371.458120
-342.072629 -254.025678 -244.768614
-321.303301 -160.481567 -185.477974
-288.680951 -233.608267 -239.615370
-414.103758 -109.963571 -227.680127
-241.274412 -90.880085 -167.737206
-211.393924 -181.756673 -236.718748
-131.225294 -131.885467 -367.040365
-177.191375 -299.857593 -48.783003
-253.474213 -322.496810 -334.573629
-166.204463 -200.124955 -241.313669
-205.509883 -327.055049 -109.693676
-375.041982 -312.890341 -274.558811
-289.067696 -178.259592 -353.143842
-492.180604 -177.965624 -11.618609
-260.643011 -384.839757 -161.057517
-145.752229 -237.908122 -120.748031
-361.320474 -136.002389 -363.148214
-414.701861 -335.340856 -81.989790
-429.927031 -222.797925 -63.785966
-417.169715 -167.117488 -408.456578
-232.617506 -200.790849 -13.164512
-242.028197 -176.995046 -367.057203
-266.385153 -206.980938 -175.312639
-269.068009 -151.382332 -338.341537
-352.054319 -286.664619 -38.049341
-409.686115 -191.050304 -102.563164
-336.000681 -186.676790 -329.101198
-335.185362 -137.569752 -334.443669
-399.260114 -233.565280 -419.782544
-413.288581 -239.425630 -396.032594
-168.938663 -355.054851 -348.283279
-213.550327 -128.475520 -396.242259
-178.996573 -199.044188 -295.952385
-348.303328 -264.095451 -200.218636
-140.238598 -255.135191 -51.504225
-226.469470 -134.551899 -265.884624
-374.222830 -260.090092 -315.850016
-202.536066 -347.039044 -204.693197
-462.782952 -259.911267 -194.438576
-400.853741 -365.463187 -320.563181
-285.484046 -292.321646 -34.670471
-162.013691 -176.801299 -373.171246
-238.441294 -108.535962 -361.731546
-283.636195 -136.546840 -372.264399
-280.530515 -260.890889 -54.727273
-278.244057 -210.914746 -360.002121
-271.230476 -118.214953 -331.891465
-140.237544 -360.310923 -88.806300
-306.611312 -290.477950 -163.165678
-145.384928 -301.897257 -316.715985
-467.305680 -173.906601 -98.917622
-446.974406 -376.983692 -410.293458
-213.364879 -222.289655 -44.409578
-414.635722 -360.143082 -308.473970
-485.500098 -179.038712 -11.032538
-146.812614 -269.854604 -336.308772
-488.282195 -189.019675 -225.255657
-302.810315 -158.172743 -354.627154
-246.081971 -368.287484 -333.072936
-418.128783 -141.173515 -101.742546
-282.294714 -227.237395 -340.862107
-410.643230 -333.151485 -142.810641
-152.598861 -212.978440 -42.813938
-266.173225 -189.447472 -65.815809
-282.407871 -344.387040 -359.309420
-246.859346 -257.224875 -159.265651
-287.738022 -350.899351 -80.149431
-166.573966 -336.076440 -116.836145
-297.064869 -202.767897 -90.111500
-484.530559 -354.884305 -106.906474
-143.893617 -265.437360 -238.685034
-283.551225 -221.519000 -69.102586
-189.848534 -290.765526 -298.917413
-156.681762 -87.810778 -206.611443
-402.599509 -325.000127 -3.884975
-139.546187 -335.641971 -100.626659
-387.513812 -173.456732 -345.982040
-257.065846 -221.108642 -295.648070
-472.291986 -197.235728 -337.054600
-291.885673 -283.245467 -198.218305
-213.913347 -133.940831 -323.768332
-428.295133 -101.956613 -48.224079
-465.331054 -128.124198 -248.772178
-348.755934 -235.053323 -49.852414
-187.888434 -85.864423 -316.765118
-297.623487 -311.725409 -326.583479
-250.408933 -264.656830 -280.678871
-432.087348 -140.192575 -306.302340
-361.437953 -170.064174 -242.507255
-191.029479 -227.851711 -420.725536
-285.044346 -124.761858 -162.525720
-427.562093 -199.548085 -65.269257
-282.597621 -359.224614 -407.128706
-336.881899 -171.454895 -5.941004
-362.417310 -364.108287 -93.991423
-306.503762 -217.917551 -72.129878
-471.991129 -96.148302 -122.350461
-153.122748 -365.079554 -294.760457
-461.479635 -214.679513 -189.316554
-491.218396 -213.266499 -48.040525
-170.344844 -112.139185 -309.791250
-475.012092 -136.473618 -342.014478
-404.171819 -304.212520 -13.646997
-295.513692 -93.753592 -410.598927
-232.622733 -230.231480 -100.545081
-150.785329 -297.074800 16.231134
-445.341792 -90.846566 -97.618252
-393.136633 -348.566837 -5.562586
-335.549736 -254.647525 -386.474093
-227.229964 -139.832453 -19.599660
-190.417623 -320.889718 -357.324312
-135.199308 -366.235005 -241.007050
-261.970086 -236.562705 -41.446317
-463.740932 -215.268853 -375.256374
-171.672269 -85.461815 -391.485476
-304.239312 -361.956368 -247.154365
-445.513011 -143.377712 -142.691971
-376.334194 -324.066880 -176.427949
-408.093424 -319.609267 -170.882813
-158.987265 -148.394140 -178.141012
-384.841935 -257.597764 -231.822223
-316.953840 -338.001495 -291.743936
-145.903111 -349.766062 -272.378407
-191.267104 -365.827753 -121.833696
-193.561666 -271.967690 -109.777573
-342.244921 -321.227736 -34.365354
-249.806487 -168.071545 -234.337771
-267.877327 -290.590980 -236.172975
-347.167372 -196.190703 -390.663092
-485.766318 -227.522468 -58.744181
-293.890498 -301.553555 -143.308921
-495.351057 -128.823638 -185.112096
-166.081675 -191.300507 -272.576483
-187.928458 -356.000395 -58.429039
-144.377026 -383.870996 -174.073440
-171.583988 -146.368840 -409.424748
-482.592692 -172.902827 -269.792927
-202.548330 -134.807283 -12.694264
-230.984436 -281.014839 -379.681026
-154.445276 -312.664654 -239.779641
-240.518106 -314.399822 -223.386905
-211.503189 -329.456762 -186.175720
-287.448009 -308.821412 -33.763439
-305.254893 -179.587931 -235.219973
-312.108316 -149.451693 -82.227415
-289.958294 -171.234991 -281.258552
-303.934763 -304.075759 -273.334490
-420.697731 -298.524220 -296.899880
-146.324781 -290.210193 -38.611021
-358.582975 -252.968926 4.060309
-216.016160 -222.619470 -43.214288
-393.597684 -349.029267 5.325524
-401.706539 -253.901862 -201.172931
-144.703096 -319.423357 -421.356547
-350.277414 -206.950182 -160.802548
-265.544934 -97.303612 -395.548616
-377.446963 -369.627474 -387.901994
-334.506785 -281.872543 -325.181796
-196.168682 -324.604953 -302.900801
-312.716519 -264.981908 -79.431929
-479.150396 -185.661430 -24.640935
-414.472075 -134.951266 -281.205136
-388.284568 -249.185642 -17.913745
-225.352882 -369.407881 -238.894107
-232.798853 -159.758870 16.997723
-171.037235 -329.004684 -246.565487
-400.746578 -112.672460 -228.566945
-369.092643 -262.079225 -273.311759
-206.518480 -330.691718 -289.908596
-344.557096 -189.660953 -422.648763
-483.757456 -356.315821 -64.387021
-431.294597 -274.634292 -284.029398
-240.740511 -277.450318 -206.108058
-321.536903 -259.872284 -258.980060
-462.258835 -158.326053 -258.048110
-198.697111 -182.835304 -209.205232
-199.725170 -368.794246 -82.819055
-405.191329 -231.660440 -343.427467
-196.501306 -161.092121 -188.649294
-278.862609 -84.601822 -399.685210
-439.040691 -313.149743 -376.765576
-313.845518 -89.962993 -264.241490
-328.720962 -322.288036 -129.349261
-483.301075 -209.373050 -23.181623
-137.667859 -247.539947 -195.968488
-311.725382 -231.335486 -218.759587
-241.797366 -111.438471 -169.475243
-482.649457 -179.904433 -22.921929
-468.984530 -95.842708 -58.080853
-161.641829 -123.406946 9.282221
-231.286096 -156.837763 -332.854543
-138.065729 -246.643478 -53.216531
-146.947833 -245.508594 -3.790074
-338.718885 -217.725220 -19.668368
-351.509807 -258.176385 -153.018878
-175.212734 -178.573310 -239.514345
-395.135194 -112.360343 -176.441473
-168.157521 -194.979752 -240.188169
-256.126589 -179.170395 10.617612
-467.275446 -263.208492 -297.162966
-303.171191 -234.132858 -246.539745
-135.320479 -215.428535 -49.344460
-300.218146 -148.951193 -207.705725
-483.403322 -350.538955 -293.503246
-494.026973 -358.719462 -339.139552
-485.144842 -220.602780 -278.266682
-282.932795 -158.465971 -257.500632
-186.644269 -201.001997 -319.909386
-266.342847 -255.524530 -275.211891
-262.497006 -314.725150 -39.884274
-157.126620 -154.478518 -382.772126
-464.667586 -217.454091 -305.507340
-439.626933 -269.904329 -364.582248
-269.261687 -250.520682 -272.163535
-280.045588 -232.852210 -300.512805
-149.147887 -231.805547 -259.427243
-478.466641 -120.457005 -298.178180
-198.724997 -297.373191 -262.989052
-282.703764 -252.621970 -172.885241
-381.321671 -302.440773 -178.112741
-194.498936 -308.350913 -162.134514
-404.581499 -350.788692 -141.136732
-177.459084 -351.690421 -153.314697
-328.213360 -171.214544 -35.460744
-457.597201 -348.237562 -193.517224
-362.462535 -140.729815 -211.218077
-488.764079 -225.644102 -245.463791
-165.117729 -322.196597 -94.171939
-343.123638 -367.446032 -147.450851
-468.157072 -117.880968 -71.213054
-469.928576 -116.301725 -402.306185
-464.289147 -210.955427 3.423682
-269.603377 -149.538735 -281.098972
-211.218961 -184.939790 -61.800647
-295.449799 -244.157897 -170.654430
-364.813621 -298.272551 -392.859106
