17.945885 6.495352 -161.229126
11.345863 14.595361 -177.095261
19.336817 -3.504646 -162.585724
1.545887 9.995354 -178.160156
12.345884 -7.504647 -161.012451
9.919503 6.695117 -165.682159
15.345886 9.895354 -167.552292
15.045885 -12.604645 -196.436279
1.547422 9.492451 -178.385391
-3.154114 4.095353 -168.431641
-2.454113 3.795355 -167.631973
6.845884 1.675583 -159.885727
12.945887 9.595354 -180.893555
21.003593 7.295356 -175.785721
15.845883 8.695353 -165.550964
-3.256308 0.994370 -164.965363
23.545883 2.935939 -171.185715
-2.909418 -0.604645 -166.685715
-3.741868 5.193281 -170.486267
12.945887 0.532138 -156.585724
21.136799 9.795353 -169.185715
15.245885 12.481544 -171.385712
19.945887 11.095352 -172.241058
16.245882 -0.253194 -158.785721
-1.801766 -2.504647 -165.885712
21.235981 8.995354 -166.185699
10.545887 6.495352 -165.066589
8.245886 -2.904647 -157.805145
-1.854114 7.095352 -175.737244
11.345885 2.857304 -159.285721
-1.365736 -5.004644 -169.385712
-1.654115 -1.539723 -163.985718
0.745885 10.695354 -176.165344
-0.153349 -5.686416 -166.586212
10.545887 -7.204645 -160.681519
-1.132417 -4.704647 -167.585709
8.245716 13.191646 -178.785355
4.345886 8.042951 -170.485718
6.410975 12.895354 -176.485718
10.145884 -6.504645 -160.206436
10.045886 6.411116 -165.185715
13.445884 2.769510 -158.085724
4.945885 10.695354 -174.040024
2.345886 8.767017 -179.285706
-3.416762 0.495356 -169.985718
21.133408 3.095354 -163.485718
8.645885 10.640312 -172.085724
18.010918 8.595356 -178.785706
17.145710 8.595101 -179.585617
7.045887 11.111969 -173.585709
3.143155 -5.804969 -162.183914
16.545885 5.095354 -159.911270
-1.553676 2.895248 -165.886246
4.045885 -6.804646 -162.463745
21.485125 -2.804645 -164.785706
9.545885 -0.304648 -156.303040
-1.946851 -3.504524 -168.685379
20.358946 5.495353 -162.085709
12.345884 -2.004647 -157.740250
5.745884 11.895353 -175.363174
13.345886 13.395353 -177.603699
8.945886 14.288548 -177.585724
-0.154115 10.125217 -175.885712
19.545931 10.995220 -173.485291
-3.991406 3.495354 -170.785706
10.241207 -0.899862 -156.584213
-3.821723 1.495354 -167.285706
17.252037 13.593731 -171.994217
21.617952 6.395354 -165.385727
13.945885 9.824246 -168.185715
21.245886 -2.804645 -164.396317
17.992168 1.895352 -159.485718
23.058329 3.795355 -169.285721
-0.808537 0.595354 -178.485718
16.005039 2.295351 -157.585709
0.045888 2.210300 -164.085709
16.945883 7.695354 -163.511566
13.545886 13.640770 -177.285721
10.045886 -4.343842 -158.785721
22.551344 0.895223 -166.285461
2.775412 10.595352 -178.685715
5.845080 -4.004648 -159.107895
22.030569 6.795354 -172.985718
21.793655 7.995352 -170.385712
11.745885 1.234392 -156.785706
11.145886 -3.504646 -158.349899
-3.347967 1.695354 -172.385727
18.445883 9.246960 -164.985718
21.984148 -0.504647 -165.185715
5.545884 12.124180 -175.785721
7.245887 -4.761224 -159.285721
0.345886 8.818250 -173.585709
-1.419354 6.395355 -176.485718
6.154552 10.395189 -172.987701
21.496042 5.395352 -164.585709
22.245100 5.996241 -173.877045
18.245884 -0.304648 -160.430161
16.479197 11.502373 -177.283813
5.013295 -5.004387 -160.285706
5.245887 -7.404645 -162.218277
12.645885 14.640391 -175.985703
-0.142712 2.795354 -179.085724
6.145887 9.283837 -171.385712
1.945887 4.551574 -166.585709
11.345885 13.795355 -178.005997
6.345887 3.958947 -163.485718
15.545886 8.395351 -165.262054
0.988025 -6.004647 -164.785706
2.445888 7.525311 -170.685715
6.845884 -1.058479 -156.785706
21.124578 -1.405020 -163.987076
17.545887 4.795353 -159.097931
16.745884 8.095355 -180.357864
12.545883 8.570198 -167.085709
0.119418 -6.004647 -166.385712
14.545884 -5.504646 -160.420166
6.345331 10.723239 -180.086639
17.245886 8.895354 -179.234161
21.345884 -2.204646 -164.430023
5.245887 8.095355 -181.224380
1.045886 10.027360 -174.985703
18.643812 7.798920 -162.784088
2.745852 2.784418 -163.585129
16.629528 -2.604646 -160.085709
18.145885 10.569248 -167.085709
16.345884 -5.504646 -161.252823
4.445884 -2.045096 -158.085724
6.216823 4.197098 -163.886917
-0.054114 -1.764410 -161.485718
6.645885 6.234377 -166.685715
21.946438 0.495358 -165.085587
18.045883 9.912416 -166.185699
19.494652 12.095352 -171.885712
14.945884 3.807384 -158.885712
16.045883 8.723268 -180.285721
6.038605 2.496732 -161.486206
5.747371 8.475451 -170.387207
16.684141 14.195353 -173.885712
-2.054114 -2.104648 -166.018005
18.146503 -11.803967 -196.089600
17.936325 7.697095 -162.984314
14.744632 13.898414 -173.677734
17.545887 2.395353 -158.825912
3.045887 0.095352 -159.451202
9.345885 6.495352 -165.656540
8.145887 7.295357 -182.634644
21.247450 9.497020 -168.785736
17.545887 10.150448 -166.785721
7.145885 2.731181 -161.285721
-0.654113 3.602024 -166.485718
7.948722 13.876649 -177.192062
1.548491 1.586563 -162.403992
17.445885 9.844792 -178.085709
5.045028 -0.016981 -158.287781
1.845885 6.995355 -179.714859
0.445887 -2.837845 -161.985718
7.743320 0.198191 -157.270660
21.733135 7.695354 -167.185730
18.945885 5.395352 -159.937149
11.845886 6.195355 -163.961838
-1.100909 -3.204648 -165.085724
4.313354 5.895353 -167.385712
16.824930 -2.104648 -159.985718
1.737323 -5.804647 -163.585724
6.445885 7.895354 -169.225250
-1.731496 -0.704646 -176.485718
9.745885 -6.057051 -159.885727
17.145884 4.595353 -158.926453
-3.700100 2.795353 -171.585709
18.145885 11.234694 -168.085724
-1.254115 7.795353 -176.352158
13.396122 5.395352 -161.985718
14.214147 7.295355 -164.385712
9.783501 6.998574 -166.185410
22.195499 5.795352 -167.185730
-2.154112 4.868027 -169.085709
-1.092024 0.095353 -177.985718
6.245885 8.895354 -181.153763
18.645885 9.515692 -165.285706
15.845883 2.728554 -157.485718
-0.819255 8.995355 -176.485718
13.704494 9.795354 -180.485718
22.196352 -1.304646 -165.585709
18.698250 10.092955 -166.081451
6.745886 9.795353 -171.824905
17.845884 12.377875 -169.885712
15.745886 7.171478 -163.385712
-1.454115 -4.504647 -168.627457
15.545886 -1.004649 -158.658905
20.545601 4.395354 -162.385712
18.945885 4.295352 -159.958099
-1.954112 -4.090436 -172.185715
4.504938 -0.304648 -158.185715
-3.954389 3.895057 -171.285950
14.145885 -0.904647 -157.822769
-1.454115 -0.918091 -162.685715
23.208488 3.995355 -172.685715
14.004369 1.695352 -156.785706
6.545887 12.677092 -176.085709
0.945885 9.711577 -174.585709
16.745890 4.684576 -159.186249
17.202063 10.994499 -168.186005
8.045886 -0.604646 -156.477890
11.145886 3.195352 -159.938629
22.541634 -1.904672 -166.185440
11.345885 12.295352 -173.106644
11.145886 8.623659 -167.885727
-1.854114 3.495354 -166.913483
10.691281 9.695354 -169.685715
20.545885 9.526341 -164.685715
10.601700 3.795354 -161.085724
4.545886 -7.504646 -162.719879
19.045885 10.256629 -175.485718
11.445884 7.027611 -165.385727
-2.221566 4.595355 -175.585724
20.045883 -1.304646 -162.641724
18.245884 4.195354 -159.104584
-2.254106 7.995310 -173.785843
0.445887 -5.504646 -165.120789
1.045886 8.152571 -172.285706
4.606653 12.395353 -178.585709
-3.454112 4.968744 -169.885712
-3.750693 3.294223 -167.706436
4.345886 4.195354 -164.851532
6.045886 -2.755695 -158.085724
13.827584 -2.604245 -158.586334
22.754442 4.995354 -173.885712
15.844552 8.392095 -180.684830
16.145885 12.670087 -171.185715
16.874674 12.995353 -175.285706
6.045886 -5.704646 -160.420288
8.645885 -2.104649 -157.245316
9.091102 7.695354 -167.585709
3.445886 -2.804645 -159.251465
-2.047047 -3.504645 -173.185699
-2.033852 -3.204647 -174.085709
14.445886 -4.104645 -159.626190
-2.670344 -1.104645 -172.885712
18.845886 9.926260 -176.285721
7.644818 9.786882 -180.979538
2.545886 -0.004646 -159.559692
13.345886 9.395354 -180.940628
22.545885 5.159415 -168.285706
18.519085 9.995354 -176.685715
1.745887 10.795356 -177.934494
20.345886 9.018920 -174.685715
3.545888 0.212478 -159.385712
15.345886 8.995355 -180.452728
-2.054114 3.995355 -167.767532
17.445885 12.395352 -175.246857
16.545885 10.349662 -178.385712
22.233732 5.395352 -166.985718
12.845885 9.995353 -169.010178
21.345884 3.845326 -163.885712
8.645885 -7.704646 -161.210449
16.642879 -3.709090 -160.582489
14.445886 12.795353 -172.251709
9.445899 1.495607 -158.285110
-0.094730 6.995354 -171.185715
1.790248 7.395354 -179.485703
17.245886 -2.504647 -160.440033
14.445886 -4.904647 -160.060745
15.145886 -2.986928 -159.385712
-0.982180 -0.404646 -161.485718
10.345883 -7.604645 -160.941772
7.746895 11.496869 -179.891342
12.445886 10.805249 -170.385712
3.545888 -5.204645 -161.328201
-2.812427 -1.404647 -171.285721
20.345886 7.278085 -177.185715
6.382991 -1.004649 -156.885712
4.445884 -0.004646 -158.637375
7.245887 4.942484 -164.485718
12.343986 9.193057 -168.096786
22.345886 6.395355 -171.812897
-0.554115 7.459603 -172.085724
-3.514573 3.095355 -172.385727
5.545884 7.395354 -181.756409
19.802433 11.095352 -172.685715
22.161308 5.195353 -166.585709
9.538157 0.294861 -156.584732
20.245884 11.250754 -170.985718
21.545883 8.451630 -171.185715
16.043360 14.095391 -174.980301
18.318121 -1.104646 -160.785721
-0.057513 5.998023 -169.683014
1.445886 -6.073159 -164.285721
3.745888 2.236831 -162.285721
17.645884 11.995353 -175.467270
5.408078 7.395353 -168.985703
15.945886 9.548888 -179.585709
16.245882 -2.904647 -159.964569
11.545885 10.550355 -180.485718
12.345884 9.195354 -181.363403
20.315666 1.195352 -162.385712
19.109503 10.095354 -165.885712
4.845887 9.320885 -172.085724
11.145886 -5.804648 -159.800278
21.517735 7.795353 -173.185699
-4.087265 4.795354 -170.785706
-2.666574 -0.004645 -173.885712
1.819193 -5.304646 -162.985718
14.743622 12.093809 -177.984772
19.012526 -4.905352 -162.785721
16.246059 1.501647 -158.086151
21.075163 6.495353 -176.785706
21.745882 0.327020 -164.685715
8.486338 9.195354 -170.085709
14.945884 5.595352 -161.462967
4.945885 8.395352 -180.948044
-0.554115 1.695353 -163.626343
-3.884617 3.295355 -171.185715
17.745886 9.069813 -178.585709
12.145885 -4.904647 -159.402496
0.345886 10.072543 -175.385712
11.797469 8.395352 -182.085724
0.636008 8.495354 -178.085709
-1.254115 -0.204646 -161.815369
-1.884215 -4.004646 -173.585709
18.045883 8.481640 -164.085709
20.245884 10.395351 -165.868042
4.565015 -7.004646 -162.285721
1.545786 10.289742 -175.095139
17.545887 11.795353 -169.206512
19.345882 10.578450 -166.485718
6.248967 3.593748 -163.003754
-3.808934 5.595353 -171.385712
20.506573 1.595355 -162.585724
6.945886 12.895354 -176.197922
12.645885 3.595351 -159.724167
0.313420 3.095354 -165.285706
17.945885 13.095353 -173.721497
14.204510 14.495353 -176.085709
19.308958 11.695354 -172.985718
11.845886 3.095354 -159.417175
21.745882 7.912669 -167.785721
-1.475230 -5.304646 -170.985718
16.138639 -1.804647 -159.385712
23.555130 0.895355 -168.885712
18.546030 4.397444 -159.385422
20.245213 4.196391 -161.885590
16.945883 9.595353 -166.272522
-2.443030 5.695354 -175.085724
4.546131 -5.002528 -160.488037
19.990948 11.495213 -167.685684
2.548017 10.394917 -174.786011
-2.354115 1.736894 -164.585709
8.045886 12.719834 -175.385712
21.271885 6.395354 -164.285721
14.947017 8.492013 -165.687408
12.445886 -7.004646 -160.711029
18.545885 8.595354 -163.964844
13.644056 3.992827 -159.795471
23.000687 0.895355 -167.285706
10.345883 10.562294 -180.585709
3.745888 9.028357 -172.185715
-2.212699 1.495353 -164.185715
5.631428 0.595353 -158.885712
13.745885 7.195353 -164.444672
22.945885 4.708979 -170.685715
10.445886 -2.004647 -157.327408
-1.654115 8.842163 -174.885727
23.298435 3.795356 -173.085724
1.445886 1.857761 -162.885712
-0.751810 4.896697 -177.765335
10.446220 7.893307 -182.481934
19.304964 5.295354 -160.285706
16.783665 8.495652 -179.986176
5.603272 1.995354 -160.985703
13.945885 0.995352 -156.826324
4.545886 11.152992 -174.885727
15.316144 14.195353 -173.885712
13.245884 9.870444 -180.585709
9.445887 14.373358 -177.585724
-0.928558 -4.404646 -166.485718
17.595549 0.995352 -159.385712
7.145885 3.352396 -162.185715
23.135233 4.295353 -171.285721
17.215521 -0.404646 -159.585709
18.991276 2.095352 -160.485718
17.545887 7.767056 -180.085724
15.545886 11.395354 -169.638412
-0.854112 -1.832102 -162.685715
21.175291 9.395353 -170.585724
22.151043 6.897317 -169.085938
21.802307 5.795352 -165.685715
15.394025 3.995354 -158.885712
19.147154 7.695379 -178.489319
4.045885 0.095352 -158.950699
18.045883 10.918670 -167.685715
-1.055765 2.369830 -164.887695
10.745887 12.610892 -173.885712
-2.146170 -2.804645 -167.885727
-0.654113 0.295351 -161.634186
22.445883 4.007600 -166.885712
22.158697 2.795353 -165.585709
-3.200240 1.195353 -172.585709
2.545853 5.295364 -180.996368
18.243301 2.995816 -159.392609
-2.054114 0.695356 -175.948624
10.145884 -5.716589 -159.685715
-1.759599 6.098958 -170.684174
10.445886 -1.404648 -156.939545
12.245886 8.395352 -182.005432
-3.403194 3.595353 -172.885712
6.645885 -1.504646 -156.995789
21.245426 8.689035 -165.785477
6.845884 9.295353 -181.096878
8.345887 14.166051 -177.585724
19.515146 7.395354 -178.385712
2.535194 8.395352 -179.585709
20.593624 0.495355 -162.885712
20.874399 10.495354 -167.485718
10.645885 -5.604648 -159.647018
6.545887 11.395355 -179.723328
-3.053489 0.496277 -164.905334
-2.473958 -2.504647 -170.785706
22.545885 2.949368 -166.685715
-2.542157 0.095353 -174.385712
6.845884 1.950609 -160.285706
3.145885 7.495356 -180.413666
22.672766 5.595353 -171.185715
-0.536390 -4.304644 -165.385727
-0.554115 8.455120 -173.485718
7.845886 0.995352 -158.345016
9.306747 9.295352 -169.785706
7.745884 13.295353 -178.696960
10.298148 0.995352 -157.085724
9.845886 2.795353 -160.008820
8.645885 4.553742 -163.185715
13.488550 9.395353 -167.785721
6.545887 9.595354 -180.834045
8.445885 7.995353 -182.249008
21.019194 0.095352 -163.585724
-3.580421 1.995355 -171.485718
-0.254113 0.633567 -161.885712
5.145565 -0.605948 -157.501144
21.545883 8.062046 -172.285706
19.483879 4.295352 -160.685715
-2.293293 -2.304647 -167.585709
3.945887 6.323807 -168.185715
6.245885 -7.104647 -161.441147
19.345882 9.834569 -175.585724
11.345885 -7.754725 -161.085724
6.545887 8.295354 -169.753967
8.346068 3.094456 -161.185913
8.045886 10.895353 -180.296539
13.445829 12.295317 -172.068909
-2.254114 -1.704645 -166.133713
13.621356 14.595352 -175.385712
1.547008 4.094981 -180.584732
13.845883 11.895353 -171.247192
11.845886 10.895353 -180.165771
11.945885 13.895354 -177.752350
0.690758 8.095355 -178.285721
19.645885 9.095353 -175.978638
-3.854115 4.845440 -170.085709
20.345886 3.795355 -162.056610
5.538357 7.696483 -169.384201
10.645885 12.869097 -178.885712
2.945885 0.712103 -160.385712
17.970268 3.795354 -158.885712
1.947903 3.398847 -164.880524
14.946407 12.697318 -177.285767
10.745887 11.217638 -180.085724
-2.903283 -1.204647 -169.285721
-0.754114 3.795356 -178.006287
1.745887 4.895353 -180.455948
17.045885 11.635705 -176.585724
20.145885 11.160092 -167.085709
6.945886 5.495354 -165.443481
13.245884 -0.104648 -157.035400
8.345887 8.795355 -169.543503
5.486820 9.895354 -172.585709
-3.353644 0.096929 -168.485016
16.097586 6.695352 -162.485718
4.045885 -5.417266 -161.185715
19.824106 -2.704647 -162.785706
-2.019212 -3.904644 -170.785706
8.245886 -3.304646 -158.110092
-1.701422 -1.204648 -163.585724
9.345885 3.229971 -160.885727
-2.754370 -1.305176 -172.085663
20.123747 7.995353 -176.585724
16.345884 13.958167 -172.985718
19.245886 12.295352 -169.137009
12.145885 12.895354 -178.509247
11.245884 -14.904642 -196.211044
0.945885 4.281107 -166.685715
7.445999 7.690367 -168.396164
0.546261 7.995335 -172.285675
0.345886 4.885036 -167.885727
13.945885 9.395354 -180.720062
11.745885 7.595354 -182.634811
9.645886 -2.304648 -157.421707
12.845885 10.319534 -169.485718
11.145886 12.995354 -178.669434
-0.536124 8.296103 -176.983444
16.345884 9.895355 -179.000320
-1.954112 0.035781 -162.685715
13.845883 13.695354 -173.860626
22.896141 4.595355 -174.085709
4.645888 6.161603 -167.585709
-1.454115 7.095352 -176.254776
-0.606537 8.695354 -176.785706
21.129093 -0.904646 -163.885712
5.445887 12.842752 -176.885712
11.145886 14.442531 -177.485718
12.145885 11.385345 -171.385712
-3.833793 3.495354 -171.585709
15.745886 9.149754 -180.085724
23.332224 0.695355 -168.185715
18.545885 13.316147 -171.185715
-3.601044 0.995353 -169.685715
1.945887 3.863483 -165.585709
9.645886 14.380944 -177.185715
-0.660245 9.295666 -174.786057
18.745884 -4.604646 -162.461334
7.945131 -0.003881 -156.882446
9.145885 4.651244 -163.085709
0.845887 7.744656 -171.785706
-2.998762 0.595354 -172.885712
7.142182 9.095129 -170.582504
7.445887 8.295354 -169.242142
4.984263 0.895354 -159.685715
5.545884 6.608292 -167.785721
-1.455916 7.996367 -173.281342
11.567284 10.595351 -170.585724
14.446524 5.988607 -162.287628
6.145887 12.095353 -179.206390
1.745887 9.495352 -173.874496
0.145155 9.699677 -177.185898
20.845882 9.840865 -165.585709
2.045885 7.326647 -170.585724
13.190578 -6.004648 -160.285706
-1.354113 7.395353 -172.354797
16.245882 5.195352 -160.231293
0.745885 4.195356 -179.729080
-1.154114 -4.204646 -166.857437
4.345886 9.271857 -180.185699
9.501516 5.595352 -164.285721
4.045885 3.582839 -164.085709
0.045888 5.351934 -168.685715
2.337323 1.095353 -161.284836
17.845884 9.561144 -165.785721
15.624292 11.995353 -170.485718
20.835583 9.495352 -172.385727
6.646855 13.595563 -177.457748
22.205631 2.295352 -165.585709
17.828949 2.195354 -159.185715
6.636779 10.495941 -172.885681
21.856745 -2.904647 -165.285706
4.845887 13.049840 -177.985718
-0.988647 7.895354 -172.885712
8.224871 12.295352 -174.685715
21.045885 -2.504647 -164.122910
4.649167 9.795447 -172.889267
18.345884 7.976829 -163.185715
8.701678 6.495352 -165.985718
8.645885 14.105513 -178.085709
14.345884 9.495353 -180.495895
10.745887 13.230839 -178.585709
15.645884 11.566607 -177.885712
6.945886 8.662798 -170.085709
12.788359 12.795353 -173.085724
-2.256558 1.496242 -175.486435
14.446552 1.795669 -156.884415
0.866052 -4.604646 -163.385712
15.445885 9.353288 -166.685715
21.246349 9.395740 -167.184387
7.645886 12.224751 -179.385727
7.245887 -1.884227 -157.185715
-1.754112 -3.604647 -168.066406
18.145885 5.695353 -160.021530
-1.403715 4.095354 -176.985718
8.045886 -7.081115 -160.885727
-4.138134 4.595354 -170.385712
22.386211 5.295354 -167.585709
4.646879 2.695656 -162.511612
3.864061 5.695354 -167.285706
20.445883 6.921444 -177.485718
13.176436 -2.105081 -158.085815
21.274168 6.995354 -175.485718
-1.161626 5.001964 -168.784897
1.145884 -0.093003 -160.185730
22.384502 6.395355 -170.485718
14.296733 13.795354 -173.785721
7.697035 5.595352 -165.185715
11.745885 2.695355 -158.851837
15.156300 4.593629 -159.887909
15.945896 10.995336 -168.886261
5.668152 11.395355 -179.485703
15.745886 9.832412 -167.285706
1.645885 7.470660 -170.985718
15.945886 13.418149 -172.385727
8.345887 2.737551 -160.685715
16.645885 12.795353 -175.741699
10.745887 13.721470 -175.485718
6.045886 -5.204645 -160.019150
13.194408 7.695354 -165.485703
23.541828 1.695427 -169.486481
3.245886 11.795354 -178.319656
13.445171 -4.303796 -159.385864
3.345884 2.260494 -162.485718
3.345884 6.060369 -168.085724
5.545884 9.015140 -171.285721
14.445886 9.872958 -167.985703
-3.094692 -0.204645 -171.585709
-3.214523 6.795355 -173.385712
-3.173079 0.295352 -165.985718
21.622427 5.895353 -165.085724
4.012007 9.295352 -172.485703
15.388720 -0.604645 -158.385727
-1.635995 0.595354 -176.885712
-1.628432 7.595353 -175.885712
19.246090 -1.305396 -161.755981
-1.632966 -4.304644 -168.985703
17.445885 -3.415425 -160.985703
15.345886 3.547149 -158.285721
14.445886 -2.404646 -158.740906
16.541203 8.504524 -164.883591
21.845884 2.568885 -164.885712
3.245886 0.395353 -159.759644
10.745887 13.432102 -175.085724
17.743378 11.396399 -168.483658
22.423014 2.195354 -166.185699
20.730988 10.095354 -171.385712
0.546042 3.394116 -165.585907
-2.354115 -2.604645 -172.746353
12.145885 -3.304646 -158.406113
22.126549 4.795353 -166.185699
3.545888 11.152577 -178.785706
-0.687752 8.695296 -173.884705
7.646592 2.695266 -160.985886
9.845886 0.948916 -157.285721
14.845885 11.595353 -170.318329
5.044728 12.095822 -175.984238
14.845885 10.066609 -168.085724
7.245887 -5.527300 -159.885727
9.245884 -5.604648 -159.636490
20.089123 10.495354 -172.885712
3.497172 9.195354 -179.785721
21.677353 7.395354 -173.385712
0.446105 5.895003 -169.268936
18.308605 1.995354 -159.785721
-1.354113 5.811639 -170.085709
23.556150 2.395354 -170.285721
13.210416 -7.004646 -160.885727
11.745863 9.990561 -169.586029
1.945887 9.008781 -178.885712
1.518544 4.495353 -180.385712
-2.388854 -2.704646 -172.085724
20.758402 10.495354 -169.885712
11.845886 -4.178585 -158.885712
2.045885 1.742660 -162.385712
22.645884 2.252239 -166.785721
12.845885 6.095353 -163.266464
19.149090 -2.104088 -161.882523
4.732849 5.597824 -166.683914
1.145884 3.062814 -164.785706
3.948202 6.485639 -181.386520
0.214972 10.495355 -176.485718
11.867002 -3.004645 -158.185715
-0.021085 -4.604646 -164.785706
11.245884 1.215453 -156.985718
9.545885 -3.641387 -158.285721
16.645878 6.695463 -162.205414
18.392914 1.595355 -159.985718
6.946035 -4.390260 -159.085373
-2.654113 7.195354 -172.754562
-2.254114 6.704751 -171.785706
6.145887 8.041479 -169.585724
14.245883 6.170654 -162.685959
9.745885 12.620185 -174.385712
5.545884 3.340094 -162.985718
7.045887 13.818855 -177.785706
18.545885 1.195352 -160.260971
11.545885 14.195354 -177.625412
7.836066 6.697260 -166.783554
19.864056 3.195352 -161.385712
1.845885 -3.504646 -161.126160
0.545885 1.743253 -163.185715
-0.337653 2.395355 -178.885712
14.245887 3.184582 -158.285721
10.385621 12.295352 -173.585709
17.479515 6.095304 -160.886047
8.045886 3.531194 -161.985718
6.607067 9.095352 -170.885712
9.201367 1.194967 -157.984268
12.145885 4.265404 -160.985703
16.745884 11.995354 -176.473404
21.318541 9.295352 -168.385712
5.945888 13.362340 -177.485718
-1.255250 8.795436 -174.344818
17.945885 13.295353 -171.201767
-1.573954 1.095355 -176.985718
7.945884 14.063685 -177.785706
8.545887 10.876931 -172.485703
17.189785 1.695352 -158.785721
18.347435 10.696373 -176.086609
4.446105 2.894853 -162.886307
21.507904 7.695354 -165.985718
2.345886 4.758935 -166.685715
23.514818 2.095353 -169.685715
16.145885 3.630525 -158.085724
3.378481 5.795352 -167.685715
-3.454112 6.195355 -171.864456
12.945887 9.463836 -168.185715
21.475248 8.695353 -170.485718
22.010874 5.395352 -166.185699
14.745884 7.770266 -164.785706
15.345886 6.434563 -162.485718
15.623593 -4.104522 -160.185532
14.047503 4.188924 -159.889084
17.693602 -4.204646 -161.485718
12.345884 10.358255 -169.785706
-2.681237 0.195354 -164.085709
10.945887 3.395352 -160.329498
11.598073 9.995354 -180.885712
11.145886 -6.604646 -160.309830
8.745887 12.595354 -174.866089
18.253344 0.498637 -160.175934
15.945886 9.895355 -179.240524
7.345885 -4.204646 -158.865097
9.045884 12.851469 -175.085724
12.196478 1.395351 -156.785706
17.445885 9.495353 -178.461197
-3.018320 1.595356 -173.385712
22.776506 3.095355 -167.485718
-1.654115 0.295352 -162.430496
3.945887 4.215061 -165.085724
14.345884 -2.804645 -158.922012
1.503129 -0.404646 -159.585709
18.519190 -2.505074 -161.485977
4.921783 12.795354 -178.385712
1.108646 -4.504648 -162.985718
17.145884 -1.604647 -160.004379
12.345884 4.595353 -161.341537
16.745884 3.095354 -157.977600
7.245887 6.695354 -182.746857
5.593445 12.495353 -176.285721
2.745885 8.995355 -179.428040
17.483011 12.795353 -170.685715
21.145884 1.495353 -163.574371
16.146049 11.295808 -169.185593
0.645887 -2.204646 -161.042297
11.445884 10.840166 -170.985718
20.645884 10.643191 -166.685715
0.345886 -4.292145 -163.785706
2.145886 8.295355 -179.360962
17.645884 -2.404646 -160.673080
14.959800 9.294833 -166.886108
4.563291 6.795355 -181.585709
17.045885 7.436785 -163.085709
-3.654115 1.095354 -167.409149
20.234917 0.095352 -162.485718
1.245886 1.249998 -162.085709
20.445696 -0.203645 -162.860382
17.146048 8.095487 -180.085907
22.758774 4.195355 -168.285706
16.546030 12.894862 -171.292267
1.845885 6.495353 -169.526611
3.845885 10.418206 -174.185730
18.282089 -2.004647 -161.085724
16.245882 0.395353 -158.509186
0.945885 -0.875411 -159.685715
17.546181 13.095512 -171.065933
19.845884 10.465358 -166.085724
3.384501 5.295356 -181.585709
18.645885 8.495354 -178.201675
19.245886 7.895353 -162.602005
14.545884 2.619422 -157.385727
1.342192 9.496229 -174.070511
7.145885 6.014916 -166.085724
0.749468 9.013378 -173.677170
8.945886 11.995354 -179.650345
14.545884 0.295351 -157.452591
16.945883 5.974974 -160.985703
-2.132122 -2.104647 -174.585709
19.734203 6.895351 -161.385712
-0.154115 8.649402 -173.585709
12.845885 1.595355 -156.797791
-3.554113 0.730853 -169.185715
-1.599230 3.095355 -176.785706
5.345885 0.795352 -159.339584
5.145885 11.353950 -174.885727
18.579367 8.894998 -164.385162
19.345877 9.095759 -176.502762
20.792528 4.795353 -162.885712
6.645885 6.395356 -182.735764
-3.434703 1.695354 -171.885712
10.845884 7.295357 -182.906693
7.924269 9.492992 -181.193542
20.145885 9.095351 -164.035233
13.095248 13.795355 -177.385712
2.620194 -6.804646 -163.685715
-1.354113 2.695356 -177.262161
3.445886 8.195352 -171.158142
3.945887 5.375277 -166.785721
8.045886 10.095355 -180.833298
-1.995437 2.595353 -165.685715
13.845883 14.673359 -175.785721
12.345884 5.195352 -162.228806
22.245884 6.669145 -171.385712
21.645885 8.386150 -169.285721
18.658804 10.694122 -166.987793
16.845886 9.019647 -165.485703
16.245882 14.335099 -174.085709
16.445887 7.162936 -162.985718
5.945888 0.895354 -159.161499
7.824831 12.095352 -174.585709
-1.454115 7.695354 -172.849243
10.947623 6.694687 -165.190094
20.100206 6.995353 -161.785721
22.078655 5.895354 -174.885727
2.845887 4.044261 -165.385727
-2.554115 4.051223 -168.085724
22.125401 0.795353 -165.385727
7.745884 -4.404646 -158.946320
2.545886 7.195354 -170.163132
20.645884 6.995354 -177.001221
19.501366 11.695354 -172.485703
9.345885 11.395354 -172.838303
-2.254042 0.812782 -163.384796
4.545886 4.595354 -165.337967
2.045885 10.022863 -174.485718
-2.454731 -2.508133 -171.685669
17.545887 -3.804647 -161.199875
14.345884 10.563500 -169.085709
6.898995 7.295356 -168.085724
7.045887 9.672780 -171.485718
15.045885 11.465541 -178.385712
12.746582 7.594128 -165.588821
6.145887 10.038309 -172.485703
8.447161 2.495225 -160.256485
21.745882 -2.504647 -165.048218
7.245887 0.459841 -157.885712
8.345887 -5.560142 -159.685715
-2.122600 -2.504646 -174.285706
12.345884 3.695353 -160.048477
11.745885 11.995354 -179.341202
9.245884 -0.633956 -156.385727
11.489454 -1.104646 -156.985718
8.745887 7.235270 -167.085709
9.445887 0.727868 -157.185715
6.545887 13.346073 -177.085709
22.590641 0.395353 -166.285721
12.945887 6.795354 -164.249390
11.045456 10.919551 -180.286438
9.045884 8.595356 -181.932098
15.945886 12.647280 -176.585724
11.345885 13.522107 -174.885727
14.145885 8.695353 -166.434631
2.251651 0.192821 -159.986511
3.945887 -4.989290 -160.885727
-3.100991 -0.604645 -169.385712
-3.654115 3.095355 -171.942230
0.945885 10.495355 -177.478195
20.745470 -3.451287 -163.985229
2.445888 1.947156 -162.485718
-3.454112 2.595354 -172.375107
15.845883 11.795354 -177.499420
16.945883 8.795354 -165.107712
20.387869 11.595353 -168.485718
-2.568487 -2.204645 -171.285721
7.145885 -5.104647 -159.558121
-0.829168 -1.004648 -161.685715
4.045885 10.835036 -174.685715
20.722240 9.195354 -173.285721
22.107855 -0.904646 -165.385727
-2.354115 3.095355 -166.601135
2.145886 -6.104645 -163.443008
2.045885 -4.004647 -161.415375
-1.387206 -0.703958 -162.286011
-2.454233 -0.104501 -163.824722
22.745886 0.795353 -166.689728
8.745887 10.049767 -171.185715
8.445885 9.895355 -181.021973
10.746097 6.293489 -164.677322
-0.554115 5.595353 -169.344650
11.445884 -2.104649 -157.570541
-2.054114 1.695354 -175.970825
0.896364 -3.604647 -162.285721
21.614223 -1.304646 -164.685715
-0.198919 6.995354 -177.785706
2.346702 5.191799 -167.289642
2.745885 1.371848 -161.485718
17.545887 5.095354 -159.435455
-3.782954 2.295352 -166.585709
0.912342 -5.002977 -163.785019
15.345798 12.795397 -171.785660
-1.054112 2.995353 -165.809921
9.002723 -1.404648 -156.785706
6.045889 8.785443 -170.686600
0.445887 4.666324 -167.485718
0.222586 3.695354 -166.185699
-3.719632 1.195352 -168.385712
0.246662 6.898258 -170.870682
1.745887 5.595353 -168.209488
16.145885 3.995354 -158.523041
3.845885 11.695354 -176.020203
21.335632 7.295356 -174.885727
-0.087894 9.295353 -177.085709
12.881212 2.495351 -157.985718
11.445884 5.135770 -162.585724
21.790173 7.095351 -166.685715
18.128344 1.295353 -159.785721
7.046014 -3.206041 -158.179428
20.998497 9.995353 -169.685715
-2.154112 -1.204648 -164.840790
12.945887 13.495352 -174.061737
11.445884 -4.604646 -159.097275
4.545886 8.495353 -171.024353
7.845886 12.424739 -175.085724
21.460335 8.895353 -169.285721
5.545884 -5.004645 -160.049469
4.274968 10.495354 -174.085709
12.345884 7.960748 -166.285721
4.045885 12.576909 -177.285721
1.471896 5.894852 -168.785309
22.762415 4.895352 -169.285721
1.046299 9.496590 -177.986832
15.445885 5.595352 -161.235443
-2.920993 -1.004647 -171.085709
1.345888 -3.004645 -161.115326
18.545885 13.295353 -172.163132
10.845884 11.830509 -172.685715
-3.354114 2.270989 -165.985718
-3.807187 1.695353 -166.585709
7.545885 8.755241 -181.585709
15.946245 12.883134 -171.586029
13.045885 8.295354 -166.419479
0.445887 2.552025 -164.385712
14.645885 12.495353 -177.709732
-3.281828 0.095352 -167.485718
-3.234886 0.795353 -171.985718
15.145886 -1.504646 -158.668320
22.245884 4.695352 -166.646790
15.419104 1.395351 -157.485718
6.305147 4.895351 -164.885712
0.445887 7.461936 -178.285721
21.306015 8.495353 -172.385727
-2.250871 -1.204328 -174.784897
0.145886 2.395355 -179.564636
10.245886 12.595355 -179.126205
6.745886 -4.804646 -159.465347
19.045885 0.095352 -161.099121
4.345886 12.833637 -177.585724
18.444441 -3.304526 -161.692871
12.945887 -4.904647 -159.557678
1.345888 10.495355 -177.815460
-2.154112 4.266076 -168.185715
15.145886 11.795354 -178.013412
8.345737 3.895593 -162.385681
22.248466 6.497428 -168.671097
10.111179 14.495353 -177.285721
22.145885 4.295352 -166.062531
1.345888 -2.704647 -160.774826
3.545888 -4.351829 -160.585724
1.139817 10.605033 -175.774094
12.345884 8.914303 -167.685715
12.145885 9.395353 -168.471817
23.248131 3.909818 -171.681824
1.541503 10.999474 -176.175751
20.939362 9.695354 -171.285721
-3.654047 1.095384 -167.879807
19.584131 -1.304646 -162.085709
9.545885 4.852410 -163.185715
-2.233777 8.195352 -174.185730
20.345886 2.395354 -162.238510
-2.954114 7.095352 -173.940659
8.445885 7.954646 -168.285706
9.345885 13.905665 -178.285721
0.945885 5.518838 -168.485718
3.945887 3.932271 -164.685715
1.445886 0.195353 -160.405090
16.949392 6.597727 -161.885742
-1.853951 2.393766 -165.286011
17.045885 -5.004645 -161.406036
17.245886 -2.004647 -160.253769
21.945547 7.595353 -170.185715
0.579506 -0.804645 -159.985718
1.745887 -6.559477 -164.385712
-1.720689 7.095352 -172.085724
-1.636934 1.595356 -176.885712
10.845884 0.595352 -156.459152
17.845884 -3.404648 -161.262604
8.645885 -7.104647 -160.798874
-3.685005 1.495353 -166.185699
22.545885 4.795354 -167.810913
12.842380 3.295771 -159.185272
13.446778 -6.408071 -160.585648
2.545886 7.895355 -179.825943
-2.590477 -1.704645 -167.785721
14.545884 14.354374 -174.485718
7.685458 13.795158 -178.285416
15.378039 12.595355 -177.085709
-3.704924 1.295354 -169.285721
21.253342 9.195723 -166.686874
18.174417 3.495353 -159.185715
0.845887 6.081131 -169.385712
9.645886 -5.104647 -159.270996
5.545884 4.661888 -164.885712
11.391189 -2.504648 -157.785721
16.290001 2.795352 -157.685715
4.245885 12.595355 -178.250595
-2.790645 0.095353 -173.385712
1.992758 -0.404646 -159.285721
5.145885 2.869005 -162.485718
21.871500 6.695353 -174.085709
6.545887 3.344468 -162.485718
20.545885 10.455153 -171.185715
19.948420 5.295352 -161.283051
8.344681 5.196524 -164.280807
-3.612660 1.895353 -165.985718
10.845884 12.165412 -173.185699
3.645886 3.579426 -164.285721
13.812332 8.895212 -166.885956
10.945887 -5.304646 -159.445251
-2.442323 3.995356 -175.185715
21.450138 7.695879 -173.685577
6.845884 -3.804647 -158.695053
21.845894 7.195330 -167.278076
4.545886 0.263425 -158.985718
-3.603671 5.995352 -172.685715
22.445173 3.386899 -166.586060
21.895639 -0.004646 -164.985718
2.445888 -0.704647 -158.799530
-2.654113 -1.504645 -172.499222
11.145886 14.495353 -176.453506
20.795771 7.295355 -163.285721
12.750094 7.997117 -182.185089
6.545238 2.920853 -161.885071
-0.385292 4.395354 -167.485718
7.145885 12.276852 -179.285706
0.782032 2.695357 -180.285721
21.645357 1.395204 -164.485977
0.845887 5.137403 -167.985703
0.545625 -6.206931 -165.785858
7.545885 4.055384 -162.985718
-3.181659 6.395355 -173.685715
10.945887 -2.404646 -157.674072
-0.955861 0.995390 -178.190964
14.845885 2.955000 -157.685715
3.245886 5.128595 -166.785721
2.545886 9.195354 -173.059341
-3.154114 6.920002 -172.885712
21.804766 3.095354 -164.885712
3.045838 7.595652 -170.482117
-3.154114 2.632725 -166.285721
8.248616 11.393285 -173.389969
2.645887 -3.004645 -159.955505
-3.054112 0.095353 -172.239868
22.878866 4.795354 -170.085709
17.145792 0.727946 -159.084290
-2.324473 -2.204645 -173.485718
11.745885 12.456995 -178.985718
4.045885 0.454507 -159.485718
-2.654113 7.702534 -173.885712
1.145884 3.795356 -180.277008
13.045139 12.311343 -172.286407
21.342979 7.497450 -174.483612
21.545883 7.359844 -173.985718
7.845611 10.096053 -171.684448
23.345884 3.695354 -172.338089
-3.054112 1.724343 -165.085724
5.847087 12.794737 -176.585449
4.345886 5.795353 -181.961990
0.945885 8.795355 -173.260574
-4.183021 3.495354 -169.985718
-1.954084 -2.104027 -175.306000
17.945885 -2.058719 -160.785721
22.313774 3.095354 -166.085724
-4.122876 3.295354 -168.285706
12.645885 9.595353 -168.524384
12.645885 14.431156 -175.585724
8.945886 2.557746 -160.085709
-2.827860 1.495354 -173.985718
-2.854113 -1.157295 -168.085724
18.245884 9.566598 -165.585709
-1.254074 0.495765 -162.285339
16.945883 2.495351 -158.269241
8.445885 -4.404646 -158.852661
-2.886187 -0.504647 -166.185699
1.249790 5.493979 -179.783035
-1.654239 -2.105609 -164.885620
-1.154114 1.273348 -163.285721
6.397974 7.195354 -168.185715
2.596234 2.496172 -163.185532
0.110116 6.895353 -178.185715
6.493840 1.095354 -159.185715
-2.363980 0.295353 -174.985703
6.545378 -5.804866 -160.304626
19.845884 11.902293 -168.385712
-3.254112 4.430797 -168.985703
15.445885 9.062812 -166.285721
18.293213 9.695355 -177.285721
8.745887 12.795354 -179.060303
18.945641 -1.705331 -161.579117
12.945887 10.895353 -179.857071
3.845885 6.643552 -168.685715
9.145885 0.895354 -157.571548
18.988401 12.595354 -172.385727
1.945887 4.220347 -166.085724
10.645885 4.395354 -161.922592
5.876403 -0.804645 -157.085724
17.784067 3.395352 -158.785721
8.745887 4.253070 -162.685715
-0.454113 8.958142 -174.185730
13.579249 11.295353 -179.285706
7.145885 10.585889 -172.785721
11.945885 8.717318 -167.585709
12.794912 13.495353 -177.785706
10.245886 12.648033 -174.185730
7.445887 12.168210 -174.885727
0.845887 3.831837 -166.085724
0.845887 10.062405 -177.585724
7.946483 7.791124 -168.291061
10.245886 12.095353 -179.502792
6.045886 10.841168 -173.685715
-3.194883 -0.404645 -169.785706
-1.244746 -4.304644 -167.285706
2.245884 -6.504644 -163.770111
23.595438 2.895355 -171.685715
17.146488 11.898600 -176.185791
-3.251532 0.197899 -171.187683
5.367969 11.995720 -179.085602
1.345497 -4.305496 -162.474472
8.645885 -5.304646 -159.472382
0.346295 -3.197001 -162.485916
3.034491 -6.905209 -163.367508
14.445886 2.995352 -157.931778
11.845886 3.495353 -159.999725
-1.559070 5.196463 -169.283295
21.337095 9.095352 -170.185715
15.645884 0.295351 -158.161148
17.862875 8.695352 -164.485718
9.645886 11.123130 -172.285706
1.469157 4.596330 -166.887329
20.646168 0.994560 -162.884445
20.111839 -2.404646 -162.985718
8.945886 -1.004649 -156.529831
3.345884 -3.104647 -159.604889
11.345885 -2.904647 -158.019302
-0.851293 -3.299677 -164.686081
10.445886 -2.404646 -157.572891
-1.375839 -1.904645 -163.885712
-4.044160 4.795354 -171.285721
16.445887 4.795353 -159.538864
13.949394 13.795775 -176.887146
1.045886 8.295355 -178.502441
-3.031857 -0.504647 -167.185730
6.845884 -2.082587 -157.385727
11.863526 -5.304646 -159.585709
3.945887 -6.304645 -162.041092
4.545886 8.895354 -180.463730
15.145886 -4.304645 -160.053696
18.746000 7.288759 -179.385727
3.445267 -1.705344 -158.285629
-1.454677 -3.905745 -167.385269
18.046587 12.094626 -169.386703
-1.566183 -4.804645 -169.885712
22.161921 0.095352 -165.385727
16.645885 9.295352 -166.021698
16.247252 4.495583 -159.205154
20.708158 10.895352 -168.885712
1.445886 2.795353 -164.239563
7.245887 4.661351 -164.085709
4.092704 8.595355 -171.385712
-0.354115 1.995354 -163.958679
2.145886 11.595354 -176.772583
1.545887 8.455183 -172.485703
9.716257 11.495355 -179.985718
5.345885 -3.804647 -159.121948
5.745884 9.995354 -180.346924
22.924669 1.995355 -167.485718
-0.154115 6.495353 -178.014267
-0.088453 8.195353 -177.485718
22.238771 1.795355 -165.685715
0.472777 8.795356 -177.785706
7.945884 4.052795 -162.785706
6.346233 5.404204 -165.583633
12.845885 7.895354 -165.960617
9.845886 13.127415 -175.085724
16.645885 -4.204646 -160.771423
17.150124 -3.206839 -160.683823
12.721375 11.095352 -170.685715
7.645886 -3.446532 -158.285721
-1.853384 -1.503920 -164.412155
4.208793 9.096507 -172.087753
14.938944 -2.388853 -158.985260
-1.487192 8.395352 -175.885712
22.022043 7.195354 -168.585724
17.045885 3.395351 -158.156845
16.545885 5.754965 -160.885727
19.745882 5.595352 -160.896576
-1.988407 -3.004644 -174.485718
20.640820 8.695352 -163.785706
11.345885 6.044749 -163.985718
15.515275 13.195353 -172.285706
12.045886 12.322172 -172.785721
23.064215 -1.004648 -167.185730
21.326214 8.295354 -172.785721
18.823534 12.295352 -173.185699
8.345887 9.395354 -181.327515
22.945885 4.295353 -169.632111
7.945884 -5.304646 -159.592621
7.545885 13.573597 -176.885712
12.845885 1.195351 -156.502869
-1.754112 -0.854102 -163.185715
6.145887 -3.592116 -158.685715
4.845887 10.095355 -179.962311
-2.211902 -0.904646 -164.485718
14.345884 13.566401 -173.385712
2.945885 -6.104645 -162.647812
7.045887 10.844131 -173.185699
6.945886 11.762527 -179.585709
10.745887 6.028175 -164.285721
3.058601 5.495355 -181.285706
-2.165925 2.595354 -175.785721
7.245887 -3.604648 -158.444366
4.345886 5.659855 -166.985718
10.944901 13.689762 -178.180511
19.845884 10.817506 -173.085724
6.045886 3.031402 -162.285721
8.445885 -4.904647 -159.205200
11.045767 7.776483 -166.684982
21.145884 9.795353 -168.385712
22.908102 4.795354 -173.285721
5.645886 -0.204646 -157.749619
13.445884 4.895351 -161.229172
13.889995 -0.004610 -157.285538
4.045885 10.222372 -173.785721
19.445885 8.428317 -177.185715
14.645885 -12.904642 -196.526642
6.145892 6.494812 -182.485718
1.445886 3.395352 -165.160049
15.843058 13.095724 -171.983017
15.445885 -3.259664 -159.685715
7.546229 2.274697 -160.386917
4.145940 1.595226 -161.086029
17.445885 7.656291 -163.185715
23.243816 -0.004564 -167.685837
20.905003 8.795355 -173.485718
-1.779541 3.395353 -176.485718
4.045885 8.295354 -171.000458
-0.754002 3.994131 -167.095032
11.045985 -3.928584 -158.585388
18.320932 13.495352 -171.685715
1.042178 10.301342 -175.380112
8.045886 7.195353 -167.359329
-0.383507 -5.004645 -166.085724
5.945603 7.695475 -169.175247
-2.013244 -2.804645 -167.385712
7.945884 -2.604646 -157.620483
18.745884 -3.504646 -162.025482
19.445885 8.595354 -163.522339
20.696934 8.195351 -163.485718
0.145886 -4.504648 -164.357040
4.843884 4.889652 -165.590134
8.845739 5.376083 -164.284851
4.739219 12.896854 -177.381317
7.945884 2.535223 -160.585724
8.245886 11.495355 -179.933456
6.600406 13.595353 -178.185715
23.432701 2.895355 -170.285721
11.945885 14.395353 -177.345047
17.945885 4.995353 -159.257202
20.945885 9.895354 -166.154449
9.345885 6.795354 -166.118500
-0.754114 7.495355 -177.029617
21.200176 9.595353 -169.585724
17.645884 -0.304648 -159.914734
16.945883 11.395354 -168.927277
1.145661 -5.718098 -164.282257
2.945885 11.295353 -175.861008
-1.831155 1.495354 -176.485718
-1.454115 -2.504647 -164.911804
2.008811 1.995354 -162.785706
7.945884 -6.504645 -160.465118
13.645884 -3.404648 -158.943604
15.345886 8.251217 -181.085709
12.327085 7.397877 -165.484940
1.845885 4.895351 -167.138199
1.642516 6.095187 -179.885895
17.045885 1.095353 -158.836212
1.645885 1.253355 -161.885712
18.545885 -0.404646 -160.749283
-3.427129 1.195352 -165.385727
8.245886 11.663752 -173.785721
2.535772 -4.104639 -161.084412
19.663322 6.095353 -160.885727
4.145887 11.395355 -178.945068
1.145884 1.995354 -163.244949
-0.454113 -2.604645 -162.964706
2.811678 4.595355 -181.485718
5.745884 9.595353 -172.038055
23.074333 2.495352 -168.185715
22.245884 -0.404645 -165.645782
-2.325434 6.695353 -175.085724
0.945885 5.695355 -179.429001
-1.854114 7.729623 -173.085724
20.116720 -1.904645 -162.885712
3.645886 12.095353 -178.333344
9.245884 5.195353 -163.823898
18.045883 -3.704645 -161.531265
-2.002351 -1.004647 -175.685715
-0.654113 1.895354 -178.518311
4.245885 6.641850 -168.485718
3.045887 11.684771 -176.385712
21.380875 5.795352 -164.385712
14.982562 -4.704648 -160.185730
14.601171 10.995353 -169.585724
-0.854112 6.295353 -177.244873
3.945887 4.485808 -165.485703
-1.794904 -4.204645 -169.885712
12.845885 -2.404646 -158.144821
-0.589553 -1.404648 -161.785721
-1.571637 5.895354 -176.385712
17.384506 11.995353 -169.585724
10.045886 -7.104647 -160.621368
4.546212 11.269876 -179.185638
2.045885 5.262812 -180.585709
16.244961 -3.377964 -160.186493
8.712139 -2.904647 -157.785721
-3.853836 4.595613 -169.667328
18.945885 11.057878 -174.685715
2.245884 -4.647587 -161.885712
12.445886 13.795355 -177.644516
1.145884 4.095353 -166.310440
10.945887 8.359004 -167.585709
-1.637626 -1.204647 -176.685715
21.436270 8.995354 -168.785721
14.045887 -3.504646 -159.157745
0.419483 -6.404646 -166.285721
12.445886 -1.204648 -157.323929
-0.454113 -4.644968 -165.685715
11.340653 11.996363 -172.684967
18.116776 11.695354 -175.185715
3.445886 11.337306 -175.685715
0.543936 5.297605 -168.385635
21.119312 4.095353 -163.485718
2.645887 7.807609 -170.985718
7.621243 3.595352 -162.285721
22.309580 6.595355 -170.885712
10.045886 2.117312 -158.885712
3.653568 8.493789 -171.484329
20.645884 9.550877 -172.885712
18.185947 -2.504647 -161.185715
2.845887 -0.904647 -158.420181
-2.565902 -0.204646 -164.285721
12.687984 7.195353 -164.985718
10.645885 3.547619 -160.685715
-0.854112 2.695355 -165.254868
8.945886 -3.404649 -158.153244
14.978032 6.095187 -162.184982
12.545883 8.853507 -181.585709
10.741726 8.898024 -168.482956
21.645885 4.195354 -164.717590
19.305185 12.195353 -172.285706
4.445884 0.895354 -159.936371
19.736444 -0.702635 -162.088608
6.445885 -4.475960 -159.285721
2.545886 1.695353 -162.055573
6.645718 11.585773 -174.482513
12.745895 8.395828 -181.870499
20.019011 4.395354 -161.485718
18.188156 -3.104646 -161.385712
0.445887 3.795356 -179.528061
1.645885 8.136652 -171.985718
21.302946 6.995353 -164.685715
6.045886 12.495353 -178.952972
9.372037 13.592463 -175.982773
2.045885 4.795355 -180.777237
3.845885 7.995352 -170.621552
13.245884 10.257740 -169.185715
-3.454112 6.453831 -172.585709
21.793194 7.895354 -168.385712
18.445883 6.643071 -161.185715
1.172565 -5.404644 -163.885712
22.229172 5.395353 -175.385712
-2.290241 3.395352 -166.985718
-1.653183 -5.004261 -172.385864
1.545887 7.995353 -179.038635
21.468222 4.995353 -164.385712
22.439379 -1.505744 -165.987106
9.545885 1.118737 -157.685715
17.345882 5.595352 -160.222122
8.545621 -1.561597 -156.885941
21.292929 6.495353 -176.285721
0.045888 -2.659389 -162.285721
7.745884 8.295355 -181.922150
8.745887 12.395353 -179.368805
22.812523 1.795355 -167.085709
12.645885 9.895355 -180.741257
14.845885 4.048395 -159.285721
3.494348 1.895352 -161.885712
14.745884 4.650860 -160.185730
5.945410 0.496634 -158.564178
-0.353565 5.894425 -177.985214
5.645886 6.195356 -182.442734
-3.954036 5.198684 -170.982559
14.545884 9.333558 -167.185730
3.746818 2.994536 -163.396881
21.431353 8.195352 -166.185699
0.984050 -2.504647 -160.985703
5.445887 4.869773 -165.285706
0.121515 3.295355 -179.285706
1.245886 9.095353 -178.335892
14.945884 0.295351 -157.694473
17.150110 13.092821 -171.286438
9.708412 8.195352 -167.985703
0.845887 1.320004 -162.385712
0.015989 7.695355 -177.785706
3.945887 10.995354 -179.046600
12.045886 2.140618 -157.885712
-0.035252 -2.904647 -162.685715
-1.654115 4.841026 -168.785721
5.545884 -6.630779 -161.385712
-0.349326 2.286563 -164.391418
3.845885 -4.004647 -160.075241
-2.425663 2.595354 -175.285706
17.045885 9.967737 -166.785721
0.746600 -6.104102 -165.393646
-4.143782 3.095355 -169.785706
20.445883 -1.332373 -163.085709
9.845886 13.295353 -178.676331
6.545887 13.295353 -178.545410
-2.905797 -1.204647 -170.685715
-2.088327 8.395351 -174.785721
-1.102563 2.695356 -177.685715
20.131212 -2.904647 -163.185715
5.998394 -3.104369 -158.385742
0.446524 7.395137 -171.486557
21.111418 8.395351 -173.585709
22.930368 2.795353 -167.885727
7.245946 13.708757 -177.285492
12.284894 -0.004647 -156.585724
-3.454112 2.695355 -166.619217
15.245234 13.917569 -173.484467
17.745886 -5.404644 -162.051270
20.958220 8.695352 -164.485718
-2.394550 -1.704645 -166.685715
12.845885 9.195354 -181.256989
10.745887 14.569142 -177.185715
9.245150 7.276899 -166.886276
11.845886 11.060340 -171.085709
1.345888 6.895353 -179.342987
23.346102 0.199266 -168.081360
20.982637 9.795353 -170.785706
0.378828 -0.304648 -160.385712
7.312953 12.795354 -178.985718
23.701883 1.095354 -169.585724
11.345885 -0.304648 -156.467346
9.945885 -2.904647 -157.853806
4.745886 9.695355 -180.147141
8.745887 10.320019 -171.585709
14.245887 2.195353 -157.073776
18.745884 11.456083 -174.485718
5.645886 -7.304647 -161.912720
-1.154114 8.495353 -173.850830
-1.254115 6.795355 -176.623795
17.547031 -11.706292 -196.085297
0.945885 7.495355 -171.362900
17.314102 8.495352 -164.485718
21.622063 8.095354 -171.685715
21.248806 4.995353 -163.885712
15.145886 10.395351 -168.422195
18.845886 1.517258 -160.485718
9.145885 1.663162 -158.685715
9.156270 11.595077 -173.203308
16.845886 13.295353 -174.951675
17.945885 7.231652 -162.285721
8.245886 0.595352 -157.547211
10.145884 -0.504648 -156.360870
15.445885 10.195353 -167.966827
11.445884 14.395353 -176.119766
11.045883 9.195354 -168.750305
9.284500 2.795353 -160.285706
9.745885 14.171382 -176.685715
1.945887 11.630538 -177.185715
21.841547 5.673840 -176.184937
8.645885 8.395352 -182.033173
6.650474 -0.606687 -156.885254
8.945886 12.095352 -174.058044
-4.042070 2.695356 -169.585724
20.866875 -1.804647 -163.685715
15.945886 10.530740 -168.185715
17.345882 13.363812 -171.585709
21.121416 8.595355 -173.085724
16.745884 8.995355 -179.547974
13.689309 3.595351 -159.185715
4.745917 12.598718 -176.879944
14.445886 9.116922 -180.785721
-3.072809 4.795354 -173.885712
12.645885 5.479365 -162.485718
11.045884 14.169004 -175.985703
19.745882 12.228485 -169.085709
18.745884 11.744514 -174.085709
12.345884 -4.404646 -159.129593
12.845885 -1.837795 -157.785721
14.335415 -1.404783 -158.186493
-2.019066 -1.004648 -164.085709
11.945885 -3.704646 -158.610199
14.745884 10.783385 -169.185715
0.145886 0.595353 -161.656555
12.145885 9.795354 -180.917770
-2.258176 -2.705014 -173.185776
17.245886 13.910819 -172.585709
10.242496 5.998524 -164.484650
21.445885 -1.704645 -164.466385
8.745887 3.095354 -160.972931
17.201670 12.495352 -170.385712
0.878688 -2.804645 -161.385712
21.919693 4.795353 -165.585709
13.898630 3.395023 -158.785858
20.750694 10.199549 -170.785065
6.443726 10.697529 -173.285187
14.660718 11.293929 -169.985672
10.645885 8.795356 -181.866364
12.445886 11.828989 -171.885712
19.933681 2.495352 -161.585724
19.945887 9.327440 -164.385712
16.845886 9.504941 -178.985718
10.583993 13.995354 -175.985703
-1.455182 -0.403266 -177.186966
8.345887 13.568611 -176.485718
2.916124 4.895351 -166.585709
13.045885 5.464623 -162.285721
12.945887 5.795352 -162.807007
10.545887 10.895353 -180.348877
5.145885 5.195353 -165.921387
13.045885 8.845345 -181.485718
5.645886 -4.640417 -159.685715
16.345884 14.126267 -174.585709
8.089870 -16.504644 -194.385712
22.397869 5.695354 -168.185715
-2.303332 2.195355 -175.485718
16.245882 13.295353 -172.048126
8.845884 2.031497 -159.385712
1.750605 6.192897 -169.085678
12.845885 4.177156 -160.485718
15.945886 -12.304644 -196.413086
0.345886 6.395355 -170.051743
