27.545698 -10.504854 -187.560638
2.847710 -14.802875 -172.886551
3.989451 -11.204644 -187.885712
1.888055 -9.504646 -167.685715
29.504456 -15.304643 -180.485718
-0.683580 -5.504645 -178.085709
16.745884 -24.404644 -172.349411
14.345884 4.295354 -184.698166
24.856169 -6.704647 -170.585724
8.283045 -1.504643 -187.785721
17.739674 -14.803933 -166.685776
22.245884 -8.256842 -166.985718
10.945887 -22.554054 -172.185715
0.294149 -8.004645 -180.285721
7.346006 -24.404503 -177.085831
18.645885 -9.704647 -164.557755
4.046599 -14.004173 -188.384277
1.444707 -12.605345 -173.281540
18.495928 6.395356 -180.585709
17.945885 2.671370 -184.585724
25.890320 -4.404644 -181.685715
21.345884 -10.104643 -194.036072
21.145884 -6.535409 -190.985703
28.600208 -11.804643 -179.585709
0.429034 -10.404646 -179.185715
8.745887 -6.077470 -190.385712
14.345884 -23.252069 -171.685715
16.545885 -8.604644 -193.927002
15.445885 -11.104644 -163.865005
20.545885 -24.166687 -172.885712
5.570896 -25.304644 -182.585724
15.045885 -5.604645 -191.864120
11.945885 -9.604642 -193.731064
10.845884 -25.685192 -174.985703
1.407467 -10.704644 -170.185715
22.331755 4.895352 -175.985703
24.745598 -20.604628 -173.578796
19.892157 -2.004644 -187.685715
9.245884 4.295354 -184.723831
28.340637 -10.704643 -179.585709
6.945886 -4.904645 -188.736282
-1.117896 -6.504643 -174.285706
9.145885 -8.636908 -161.785721
12.745883 -25.804646 -174.124329
25.898918 -21.904648 -175.085724
2.975132 -17.704643 -177.585724
4.845887 -20.134483 -176.085709
22.744249 -21.603579 -172.588287
11.845886 -25.190287 -173.985718
22.824217 -8.304645 -167.685715
27.317724 -9.904643 -187.285721
-1.654115 -3.004644 -175.955276
23.245882 -23.704641 -173.840454
16.712345 -0.704645 -187.985718
24.745928 -5.307663 -170.385742
17.145884 -13.704646 -165.881393
9.245884 0.495357 -187.011719
0.295386 -8.704642 -179.985718
26.572071 -13.204645 -173.885712
24.945885 -4.404644 -184.443466
24.288506 0.695355 -172.385727
1.145884 -0.959407 -181.685715
11.145886 0.495357 -187.465683
5.145885 -3.904643 -186.942581
21.845884 -7.804642 -191.751984
0.863131 -4.704646 -181.885712
8.645885 -9.604642 -192.049896
23.629709 1.095355 -178.985718
3.049246 -14.105502 -186.384979
27.875931 -11.004643 -187.485703
12.407639 0.095354 -187.885712
26.645884 -6.585202 -183.185715
18.045883 -2.565952 -189.085724
15.245885 -8.633504 -193.885712
3.945887 -21.240107 -181.285706
7.745884 -16.504644 -194.017929
22.107805 1.195354 -182.085724
1.445886 -1.304644 -182.166916
24.921659 -1.004647 -177.685715
2.045543 -11.506030 -169.985596
20.245884 -18.504646 -169.713699
19.445885 -3.058987 -188.885712
24.283457 -2.404645 -169.785706
17.045885 -15.604645 -166.924728
20.145885 3.321828 -182.185715
21.645885 -0.104646 -184.228775
14.045887 -21.704643 -170.617096
24.145882 -2.069994 -182.685715
8.845884 3.295356 -185.240402
22.470634 3.695354 -177.785706
25.345884 -4.289108 -183.285706
22.825815 -17.604645 -170.885712
28.882980 -12.204642 -180.685715
-1.721948 -1.604646 -176.285721
20.630724 -9.404372 -165.885773
18.185795 -20.004644 -169.785706
22.045921 -24.355577 -173.585571
17.645884 -21.004646 -170.269287
6.645885 3.195354 -184.515030
-0.054114 -5.904644 -179.908157
7.245887 -13.204645 -166.146500
22.201483 -21.204643 -172.085724
24.545885 -2.404644 -182.220871
28.590120 -10.904643 -182.285706
3.045887 -18.370874 -179.085724
6.645885 -15.838087 -168.885712
29.386133 -16.404644 -179.585709
16.045883 -11.784552 -196.085724
14.946375 -9.005220 -162.480530
23.745884 -1.335098 -182.485718
12.245886 -17.626722 -167.885727
19.245886 -16.404644 -168.168503
0.818320 -9.604643 -181.385712
24.714184 -3.004644 -170.885712
0.445887 -9.604644 -171.249802
16.499918 -1.104644 -188.385712
16.945047 -4.205334 -190.684433
3.465064 -13.904646 -170.485718
24.446342 -2.495174 -182.685867
24.210453 -0.904645 -180.685715
20.945885 -23.804642 -172.811188
26.446304 -4.994859 -176.885330
23.644316 -8.504137 -168.785950
14.635510 2.793417 -185.785248
5.233180 -24.204639 -181.585709
0.422098 1.295355 -180.185699
24.545885 -12.349389 -170.785706
13.845883 -23.204647 -171.741135
18.845886 -1.404645 -187.740097
11.345885 -24.321287 -173.485718
24.625212 0.195355 -174.385712
6.058097 -16.604643 -170.185715
0.868767 -12.304644 -175.785721
16.127308 -9.104648 -162.985718
3.497746 -20.204643 -183.285706
24.966187 -11.104636 -192.485443
11.310689 -12.604645 -195.085709
11.245884 -14.504645 -165.754044
16.845886 -2.104646 -189.058334
0.251837 -3.504644 -180.685715
4.245232 -15.204639 -188.886292
0.777058 -12.204642 -177.685715
28.559134 -12.004642 -179.185715
6.897837 -23.204647 -176.385712
25.745884 -3.338210 -179.485703
27.311110 -8.604645 -176.785706
4.176140 -15.704641 -188.685715
23.478958 -8.204646 -168.485718
4.045845 -17.405291 -173.969070
3.050506 -7.600708 -164.086105
19.384939 3.395354 -182.885712
2.835397 -4.504646 -184.785706
10.748508 -21.400068 -171.302460
2.580326 -17.104643 -183.185715
-0.198726 -3.104645 -179.785721
23.745884 -23.204647 -173.927887
15.545886 -18.904646 -168.647232
21.294836 2.895356 -181.185730
3.845885 -11.804642 -187.773270
18.345884 0.395355 -186.415649
3.538072 -19.504642 -185.785706
-0.760332 -7.604643 -175.385712
2.045885 1.195354 -182.090637
27.345881 -10.955974 -188.885712
0.079840 -5.604646 -180.285721
3.745888 -16.925819 -173.885712
10.245886 -11.204647 -163.527054
18.222027 -6.604646 -162.885712
27.363495 -14.904644 -175.385712
18.445709 3.295448 -183.678421
12.745142 -22.551344 -171.486664
11.445884 -14.843706 -165.985718
5.430397 -19.404640 -191.285721
17.145884 1.495355 -186.035995
24.225340 -6.504644 -169.385712
25.745884 -18.604643 -173.866058
17.645884 -20.604641 -170.042175
17.945885 -4.152310 -190.385712
28.455465 -11.304642 -179.485703
0.169408 -10.104644 -177.685715
24.224144 1.295355 -173.885712
27.997896 -11.904645 -177.185715
6.745886 -15.004646 -168.057083
14.345884 -18.283461 -168.185715
21.645885 3.395354 -180.004730
9.193633 -15.604643 -195.085709
25.845886 -21.504641 -174.876511
4.912417 -21.404644 -189.785721
24.869946 -10.504642 -191.985718
18.445883 -5.488098 -162.585724
5.639378 -13.404643 -190.685715
28.492086 -10.604645 -182.685715
9.645886 -11.004646 -163.479691
11.445895 -9.992045 -162.586197
4.161995 -16.204641 -188.685715
9.896644 -12.404641 -194.185699
7.745884 -13.601172 -166.185699
-0.116158 -7.204644 -168.785721
24.512339 -13.604645 -171.085709
4.822347 -14.104644 -189.685715
11.779630 -17.203596 -167.686172
4.045885 -14.179420 -169.985718
11.748205 -12.204599 -195.085388
6.345887 -16.004644 -169.336761
8.745887 -16.404644 -168.051575
9.709351 -24.704643 -174.885727
24.245884 -11.204646 -170.124557
7.845886 -8.604644 -191.064438
24.945885 -22.104643 -174.343964
10.398093 -12.004644 -164.085709
4.745886 -16.304646 -171.375595
8.045886 -20.565420 -172.285706
18.545885 -6.504642 -192.070648
3.044777 -1.902689 -184.185959
1.545887 -0.304646 -182.046738
26.345886 -16.204643 -173.924316
2.845984 -12.804670 -170.188263
12.745883 -7.904643 -193.018372
4.845887 -12.304644 -189.365204
18.345884 -18.504646 -168.973373
4.241408 -21.007189 -187.587479
4.389919 -14.804641 -189.085724
25.333361 -2.004645 -177.985718
15.248575 -7.403704 -193.083679
4.072551 -22.004641 -185.185715
1.802228 -1.604645 -182.685715
19.944965 2.096712 -183.692245
2.802134 -18.104641 -182.685715
2.560772 -15.704641 -184.485718
1.637865 -14.704644 -177.985718
3.945887 -16.404644 -172.815186
28.376289 -14.304645 -177.485718
15.545886 -24.204641 -172.237274
7.203341 -11.904644 -191.885712
14.645885 6.438763 -182.885712
10.345883 -12.953421 -164.785706
20.196856 -7.004645 -164.585709
19.446522 -9.604587 -165.085419
0.262819 0.695356 -180.085724
23.680117 -0.004646 -168.985703
3.240192 2.795345 -182.586090
24.845882 -4.947546 -185.385712
4.254886 -10.903781 -188.184967
8.345887 -14.145476 -193.785706
6.542047 -16.404371 -192.586914
15.045885 -24.251789 -172.285706
11.745885 -9.204643 -193.464615
25.045883 -1.804646 -173.050186
0.345886 1.795356 -179.930893
24.982769 -1.304645 -173.485718
0.094455 -2.004645 -180.285721
18.045883 -4.904644 -190.957306
24.729631 -7.504644 -188.785721
19.098082 -11.604645 -165.685715
20.385656 3.795356 -181.385712
2.470128 -14.504645 -173.385712
28.393433 -11.204645 -186.085709
11.945885 -11.704644 -194.915329
11.345318 -2.302797 -189.287476
24.645576 -20.004560 -173.291733
8.945886 -5.650686 -190.285706
5.745884 -8.404644 -189.214920
24.145882 -5.504645 -169.220917
21.745882 -18.404644 -170.497162
25.591053 -4.104644 -173.285721
20.594303 -6.004647 -164.585709
-1.354113 -4.368964 -176.285721
4.545886 -12.304645 -167.340439
6.145887 -5.004643 -188.219543
3.519319 -20.104643 -180.985718
6.118659 -8.204644 -189.485718
20.183681 -17.904642 -169.385712
-0.654113 -7.204644 -170.954132
0.945885 -12.728813 -178.085709
27.841679 -8.805680 -181.686523
22.345886 -8.504642 -192.072922
28.745882 -12.314960 -179.685715
21.445885 -15.953936 -169.185715
1.486760 -13.404645 -174.785721
3.145885 -16.387135 -174.585709
22.143274 0.290917 -183.084381
16.985655 1.895355 -185.785706
10.445886 -12.563852 -194.585709
13.886667 -26.803595 -174.485428
23.445885 -7.027155 -189.785721
12.145885 -25.998085 -174.485718
23.345884 -22.404640 -173.318069
5.948806 -16.203554 -169.886154
24.564598 -22.204645 -174.085709
29.277704 -12.804646 -182.685715
28.283388 -10.204646 -183.885712
26.592665 -8.104644 -186.185715
19.145884 -21.204643 -170.759750
24.745886 -18.104643 -172.654327
2.094515 -15.604644 -182.185715
17.245886 -0.504645 -187.654327
27.118855 -11.504646 -174.985703
8.245695 -24.204771 -175.683411
16.845886 -19.904644 -169.439636
24.682627 -3.504644 -183.585724
21.145884 -10.204647 -166.604340
27.396210 -19.804646 -176.085709
20.745884 -3.930865 -188.885712
3.169309 -4.504646 -185.185715
16.945883 -19.204643 -169.050491
26.305273 -5.904644 -174.785721
17.145884 7.695355 -180.469223
20.545885 -1.004646 -186.255386
6.645885 -6.640418 -189.285706
2.051824 -9.104650 -184.384979
1.963563 -14.904643 -182.385712
13.345886 7.295357 -182.623047
16.045883 -0.904644 -188.328506
4.888524 -23.804640 -182.385712
15.345886 -7.804642 -193.375595
11.345885 -10.604647 -163.009064
15.645884 -13.204645 -165.146912
22.634521 4.295353 -176.085709
13.987329 -19.004642 -168.685715
26.555933 -5.204644 -178.085709
21.745882 -9.704644 -193.502457
17.945871 -2.904339 -189.385849
7.431861 -21.104641 -173.385712
9.845886 -19.104645 -169.763000
15.645884 3.438157 -184.985718
17.045885 5.948220 -182.185715
22.229843 1.395353 -181.685715
5.545884 -11.204644 -189.919891
10.445886 -11.404643 -194.016006
6.145887 -16.004642 -191.961761
18.978283 -15.704643 -167.685715
23.145884 -6.704645 -189.637817
4.144174 -7.099854 -187.085785
4.056342 -20.904644 -179.585709
1.310352 -13.804644 -178.785706
3.575142 -20.504644 -182.185715
12.745883 -23.804642 -172.470749
7.845886 -1.904643 -187.805206
28.362371 -11.304642 -178.885712
22.645884 -5.404642 -188.865601
5.379446 2.295354 -184.285721
2.484456 -0.604643 -183.185715
0.901420 -9.204644 -181.685715
23.345884 1.695354 -178.717407
2.902672 -15.404644 -185.785706
2.505764 -1.504644 -183.485718
1.412578 -14.104645 -178.185715
22.337317 4.092354 -177.485229
11.484597 -17.904642 -168.285706
12.745883 -9.604642 -194.052277
11.689949 -25.603863 -174.385651
17.645884 -7.604644 -162.997192
23.045883 -10.704644 -168.630295
-0.754114 -3.104645 -178.576920
18.445883 -6.204647 -162.863602
7.345885 -12.904644 -165.807724
7.345885 2.795355 -185.028885
23.945883 -12.904644 -170.225266
7.154001 -10.706013 -191.382263
2.743666 -7.812066 -164.586014
20.755224 5.595354 -178.685715
1.445886 0.195355 -181.798737
15.545886 -21.904648 -170.644714
-0.528481 0.795354 -178.885712
11.245884 5.495356 -184.174744
15.345886 -11.904647 -164.310760
1.331542 -10.204647 -169.685715
22.945885 -5.304645 -188.473282
1.452677 -13.504643 -175.285706
22.683109 -2.204646 -166.485718
27.771845 -8.704642 -182.385712
11.545885 -16.781427 -167.385712
16.945883 -5.973699 -191.985718
0.377458 -2.804643 -180.885712
11.744641 -19.304960 -169.284332
1.045886 -10.442756 -170.785706
0.455234 -11.304642 -176.585724
4.847008 -17.607960 -190.085098
23.880419 1.995355 -171.885712
5.645886 -19.240559 -173.485718
6.245885 -13.404643 -191.370316
4.045885 -12.304644 -188.246643
1.466826 -9.804643 -183.085709
13.445732 -26.823740 -174.685608
6.294649 -6.404644 -188.885712
20.645884 -14.904644 -168.203888
18.645844 -5.802880 -162.886078
25.345884 -7.204643 -187.511124
24.545885 -1.504645 -171.042603
0.933025 -12.104645 -180.085724
18.245884 -8.646218 -193.785706
14.445886 -27.304642 -174.670181
7.145885 -0.704645 -186.822372
19.545883 -25.676474 -173.485718
25.145969 -6.202420 -186.586014
7.745884 -2.386550 -187.985718
8.145887 -12.135536 -164.785706
21.545883 -4.058630 -165.085724
16.745884 -7.104645 -192.866409
11.245884 -14.417267 -195.985703
2.013408 -4.504646 -183.685715
25.445887 -8.836215 -189.385712
6.245885 -14.604643 -168.073532
20.845882 -19.236107 -170.385712
2.045885 -10.146413 -168.185715
-0.614718 -6.604645 -169.485718
23.887035 -6.304643 -188.485718
20.310253 -5.604648 -164.185715
18.420652 -3.004642 -189.285706
7.245887 -18.504646 -171.018112
17.545887 -16.804644 -167.741623
25.711365 -7.404644 -172.385727
3.068965 -15.104643 -186.285706
11.645887 -15.869878 -166.685715
9.145885 -17.504644 -168.796295
11.145886 -2.704645 -189.456680
25.757305 -6.004647 -172.785721
20.345886 -9.204645 -165.543747
3.922783 -21.604639 -183.785706
17.045885 -11.304644 -164.544403
19.245886 -1.348557 -187.485703
20.045883 -11.604645 -166.329025
24.944019 -20.202831 -173.586365
10.945887 -10.004642 -193.567429
15.445885 -10.617615 -163.585724
1.460999 -13.804644 -180.585709
1.745819 -14.505393 -181.486221
5.537238 -14.004642 -190.685715
3.345884 -7.494875 -163.685715
4.078142 -8.604647 -164.085709
9.745885 3.795357 -185.131836
-0.283062 -7.804643 -178.285721
26.293711 -7.504645 -173.785721
8.145887 -21.673061 -173.285721
27.837715 -16.204643 -176.185715
21.245886 -13.904646 -168.152908
15.445885 -9.604645 -163.023026
22.846224 2.895198 -178.111588
8.745887 -22.904642 -173.931030
13.745885 -9.804642 -194.420364
27.704329 -10.404646 -176.985718
12.845885 -11.304641 -195.037872
10.403715 3.095356 -185.685715
16.345884 4.395356 -183.942795
5.545884 -16.104647 -170.195007
2.845487 -12.006425 -169.185730
13.593066 -23.504644 -171.985718
0.815041 -10.304645 -171.185715
8.445885 -11.304644 -164.020584
24.764013 -0.904645 -178.585709
4.586425 -19.304642 -189.385712
4.795488 4.895353 -182.685715
23.228996 -9.504646 -168.485718
1.745887 -11.231826 -170.285721
24.502531 -2.004645 -181.685715
20.043196 6.094347 -179.183212
-1.554113 -4.604645 -174.926102
17.445885 -10.204645 -195.034271
4.373759 -22.104641 -187.285721
14.845885 3.095356 -185.524841
6.907691 -14.804641 -192.585709
23.943354 -16.204647 -171.285690
0.936720 -12.504643 -176.185715
2.867348 -18.104641 -183.485718
19.945887 -2.692620 -188.285706
23.945986 -0.407268 -180.683792
13.045885 -26.928194 -174.885727
1.945887 -9.704645 -184.218918
14.842416 -18.404408 -168.286270
17.145884 -21.104641 -170.242905
25.987030 -13.004645 -172.885712
28.481007 -11.104643 -179.885712
27.338125 -18.205233 -175.687210
5.745884 -14.304646 -168.201462
23.604229 -3.904645 -168.185715
15.045885 -23.225800 -171.585709
25.282606 -4.704647 -171.885712
10.345883 -16.904644 -167.834396
27.339979 -11.804644 -175.385712
20.745884 -17.404646 -169.458542
3.046244 -15.205830 -172.983887
1.575191 -11.704646 -171.285721
21.445885 5.295355 -177.815475
10.751908 -14.704987 -195.785217
22.845882 -10.404646 -168.325348
2.746033 -15.305590 -185.315598
2.479490 -15.904643 -175.885712
4.007421 -21.104639 -186.285706
10.545887 -22.578924 -172.385727
7.345885 -22.104643 -174.526581
15.245885 -4.504645 -191.087036
7.750266 -25.204708 -177.490692
2.192896 -4.804643 -183.985718
26.448128 -10.304553 -189.689285
1.486346 -5.904644 -183.085709
3.045887 -11.443175 -168.185715
11.545885 -8.104646 -161.343964
24.001963 -6.304644 -168.985703
3.716756 -19.704641 -186.285706
2.310194 -16.704645 -179.185715
26.547768 -11.404645 -173.785721
8.245886 -22.082634 -173.585709
2.445888 -15.889807 -183.985718
14.545884 -4.004644 -190.744553
-0.450209 -7.096001 -169.788071
22.245872 -19.900412 -171.485794
7.245887 -23.373373 -176.085709
18.545885 -9.104645 -194.095596
6.145887 -14.904644 -168.463852
4.045885 -17.104643 -188.422623
15.445885 -5.404642 -191.711960
23.915182 1.195353 -170.685715
17.908304 -22.604645 -171.285721
21.145884 4.746989 -179.085724
26.398190 -5.604647 -175.485718
15.345886 -18.304642 -168.231964
22.245884 -7.004643 -190.760300
-0.302467 -8.404645 -177.385712
21.445885 -6.904647 -165.736740
7.645886 -14.604643 -167.135986
23.688305 1.195353 -178.485718
23.954752 -3.504644 -185.085709
6.645885 -12.804646 -166.130386
13.445884 -17.004642 -167.337982
13.845883 -24.504646 -172.712753
6.845884 -4.304642 -188.372665
9.745885 -6.704645 -191.206955
13.545813 -21.619114 -170.582428
17.145884 -6.957983 -192.685730
12.345884 -9.004643 -193.547699
10.945887 -9.904646 -162.523712
7.726323 -15.804643 -193.785706
25.652592 -9.001692 -172.083359
-0.071734 -9.604644 -174.485718
26.893429 -6.104643 -179.085724
6.445885 -22.895046 -176.685715
6.145887 -9.204643 -189.846222
12.945887 -16.904644 -167.256165
8.145887 -27.424246 -179.485703
25.222179 -1.504644 -175.285706
4.532341 -17.404644 -189.485718
11.745885 -27.404644 -175.917007
27.546041 -8.304452 -182.585999
22.763201 -11.304643 -168.485718
18.045883 -23.904644 -172.146835
21.645885 -11.904646 -167.649261
2.545886 -17.416393 -181.385712
2.845273 -1.296372 -183.785583
1.944953 -12.925064 -172.385941
25.645882 -5.104645 -183.859909
18.845886 4.255191 -182.485718
19.905313 -10.504642 -194.885712
19.602581 -9.304645 -193.985718
23.645885 -14.304646 -170.344788
5.499300 -2.204644 -186.485703
25.814905 -9.004643 -189.085724
15.545886 -24.804644 -172.651825
18.145885 -6.304642 -192.033737
20.145885 -1.752025 -187.285721
5.945888 -9.604642 -189.848160
17.445885 -1.364189 -188.285706
3.010936 -18.104643 -178.485718
7.645886 -13.904646 -166.506256
11.845886 -11.704647 -163.742889
8.345887 -11.104642 -192.500244
15.945886 1.395354 -186.571960
15.245885 -1.404645 -188.848358
6.545887 -10.104646 -163.831818
24.345882 -15.304644 -171.364319
9.245884 4.695354 -184.469345
6.945886 -10.304646 -163.801529
18.525150 -6.104642 -191.785721
27.064636 -8.704642 -185.885712
9.112067 -13.604643 -194.185699
12.645885 -8.438089 -161.685715
4.445884 -11.278358 -166.385712
21.899599 1.795356 -181.685715
25.009714 -20.804644 -173.885712
21.982584 4.995354 -176.885712
4.523933 -12.304644 -188.885712
16.390301 -2.104646 -189.185715
18.213863 -11.304611 -165.085861
8.745887 -10.104643 -192.350174
26.826836 -6.004646 -178.585709
14.765278 -25.404648 -173.185699
20.745884 -8.204646 -165.520752
5.127952 -13.804643 -190.085709
13.245862 -15.299492 -166.185608
4.353318 -15.604643 -189.085724
28.905943 -11.804643 -183.085709
9.127748 -15.404645 -167.085709
1.245886 -2.304646 -182.151733
26.281342 -13.104644 -173.385712
23.545883 -12.704644 -169.732452
12.646141 -24.904652 -173.393600
4.945885 -5.227233 -187.285721
2.655626 -0.105649 -183.185242
22.445883 -23.584217 -173.385712
4.645888 -19.404642 -175.446121
24.216782 0.995353 -176.385712
2.102580 2.595355 -181.685715
12.345884 -10.204648 -162.759628
4.345886 -22.529213 -186.185715
1.606420 -14.204642 -176.285721
6.481569 5.995353 -182.885712
6.065037 -15.204646 -168.785721
12.846394 -20.304005 -169.791550
7.946270 -13.305644 -193.085526
15.545886 2.495353 -185.799057
11.745885 -1.504643 -188.831177
5.535963 -21.704700 -176.785172
23.212582 -6.804645 -167.885727
3.985196 -21.604639 -185.385712
0.721924 -7.204643 -181.585709
10.845884 -11.204644 -194.131165
2.196159 -9.704645 -184.685699
19.499008 5.895355 -180.085724
9.845886 -19.556232 -170.185715
-0.741839 -7.704645 -174.785721
27.860641 -10.304644 -186.285706
4.444087 -9.308688 -164.486877
27.945883 -9.804643 -184.832764
6.745886 -22.204645 -175.451797
10.345883 -12.204641 -194.331528
18.445883 -2.404644 -188.800461
23.696787 2.695356 -173.085724
26.892237 -7.504644 -184.185715
0.811353 -10.004642 -181.185730
21.145884 5.535361 -178.085709
22.845882 -1.004646 -183.731934
0.288326 -9.604644 -171.885712
5.145769 -18.883778 -173.885773
4.245885 3.523027 -182.985703
20.545885 -4.741257 -189.785721
19.627983 -14.899761 -167.584793
13.745885 -2.918711 -189.985718
18.745884 -19.004642 -169.396973
7.059423 -14.303391 -192.584732
11.345885 -12.104644 -194.857925
19.845676 -6.104784 -163.968872
2.625301 -15.404644 -184.885712
3.527135 -19.004642 -177.985718
6.077249 -21.104641 -175.085724
27.045883 -10.558599 -188.885712
16.745884 -11.404643 -195.859406
26.845888 -7.004644 -183.233017
3.646310 -18.987621 -177.485718
24.545885 -16.104647 -171.832169
12.945887 -18.171501 -168.185715
13.445884 -1.704643 -189.158066
24.245884 0.724853 -176.985718
12.065903 -8.904644 -161.885712
27.745880 -8.453108 -181.085709
24.345882 -14.804643 -171.226578
24.527666 -9.404644 -170.185715
0.430934 -10.604646 -173.485718
25.345884 -2.304647 -174.039169
9.445887 0.895356 -186.837646
22.845882 -3.304644 -186.413986
-0.715598 -7.604644 -172.885712
23.245882 3.195353 -175.971664
3.911603 -3.904643 -185.785706
0.273876 -10.504643 -177.885712
3.706008 -20.904642 -183.385712
23.030203 -3.904645 -167.185730
27.070768 -7.404644 -176.785706
4.110977 -18.304640 -188.385712
15.945886 -26.904642 -174.109100
4.643008 -21.310019 -178.285187
1.973573 -14.504645 -174.885727
21.614012 -14.004644 -168.485718
7.345885 -8.404644 -190.591385
10.145884 -23.227430 -173.185699
26.645884 -9.204643 -187.820251
10.245886 -11.004643 -193.720169
21.145884 0.795354 -183.776596
27.312689 -8.104644 -183.685715
14.545884 -26.904642 -174.373077
10.973291 -22.104265 -171.785690
4.105792 -22.104641 -183.785706
8.345887 -8.704644 -162.031982
7.387925 2.395356 -185.285721
28.317221 -14.704644 -177.285721
24.900875 -8.704642 -189.985718
26.897579 -8.704642 -186.385727
12.345884 -11.804642 -195.145157
10.345883 2.195356 -186.231888
18.045883 -2.204644 -188.796890
6.945886 -7.954462 -190.085709
4.045885 -18.389690 -175.285706
15.945886 -8.083170 -193.585709
-1.001302 -4.504647 -177.485718
-1.654115 -4.158534 -174.985703
1.414057 -3.704643 -182.685715
14.845885 -21.804646 -170.619919
4.345943 -21.202702 -187.981934
5.647424 -23.902185 -179.687592
11.945885 -20.565987 -170.185715
8.291684 -25.004641 -176.585724
-0.922218 -6.804645 -175.485718
8.945886 -9.267809 -192.085709
3.379278 -12.304645 -168.685715
16.745766 5.594739 -182.685318
7.345885 -15.104644 -167.735397
16.245882 -25.604643 -173.162018
21.445885 -6.404646 -165.617050
26.345886 -8.704642 -187.643097
23.157995 -1.404647 -167.385712
26.215702 -14.604643 -173.485718
2.994418 -8.704643 -165.285706
4.169818 -12.804645 -188.485718
20.845882 -14.504645 -168.141556
21.045885 -0.872864 -185.685715
19.845884 -18.304642 -169.426773
8.145887 0.795355 -186.456940
22.531010 -11.704646 -168.385712
19.589464 -11.504646 -165.985718
24.645338 -8.804509 -190.382858
19.690708 -8.904641 -193.685715
0.410412 -10.704644 -174.085709
25.510088 -11.704646 -171.985718
28.945885 -12.243363 -185.785706
17.446011 -21.905102 -170.783997
28.945885 -12.104645 -185.114426
22.145885 -12.104646 -168.189026
27.769945 -11.004644 -176.885712
9.746043 -13.928992 -194.785767
1.145884 -10.279148 -182.185715
26.745731 -9.007059 -187.284805
11.045884 -14.104644 -195.727951
22.645884 -7.004645 -167.146896
25.245882 -4.604644 -184.071793
24.426140 -4.004646 -169.885712
8.845884 -18.404644 -169.739288
14.845885 -10.356300 -163.285721
24.945896 -1.202818 -178.285858
3.945887 1.295355 -183.763763
28.386631 -12.504643 -178.185715
16.745884 -8.004645 -193.522903
24.547451 -4.598590 -185.486008
28.276712 -15.804645 -177.085709
13.145886 -21.755024 -170.785706
25.686510 -12.004643 -172.285706
24.974272 -3.704643 -183.285706
26.966959 -10.304645 -174.885727
1.845885 -14.404643 -175.307571
4.420348 -22.804638 -182.785721
8.346593 -6.104888 -190.185593
6.545474 -8.404702 -189.925430
3.070399 -11.904644 -186.485703
9.745885 -6.116474 -190.885727
-1.129922 -6.504643 -173.785721
3.523391 -17.704641 -186.885712
-1.154114 -6.204646 -175.139923
27.610041 -9.504645 -185.585709
11.745885 -16.404644 -167.080612
0.745885 -7.604644 -167.309723
23.345884 -19.104645 -171.873047
4.413597 -19.204641 -188.985703
27.329132 -10.604644 -188.385712
6.037708 -22.104643 -176.385712
10.845884 -17.943851 -168.485718
2.832525 -8.704642 -185.685715
5.642276 -7.304197 -188.692673
8.245886 2.095354 -185.754089
14.847822 -24.704021 -172.685959
25.745884 -5.551534 -184.185715
11.701759 -21.104641 -170.685715
2.845887 -9.222783 -165.985718
16.245882 -22.504642 -171.056610
4.045885 3.995356 -182.632370
24.942308 -5.303788 -170.887329
2.973776 -11.704646 -168.685715
10.245886 -11.804642 -194.112350
29.069036 -12.804646 -180.885712
29.025852 -12.904643 -180.385712
13.145886 -21.304646 -170.462769
21.345884 -23.604647 -172.871490
7.245887 -9.504647 -163.022293
19.647085 -22.704859 -171.785217
26.920996 -6.504643 -177.585724
22.969414 -1.504645 -166.985718
21.845884 0.437328 -183.385712
6.295450 -17.604645 -170.985718
21.145884 -16.504646 -169.230820
14.545884 -19.804646 -169.241257
25.277317 -3.104645 -172.785721
17.445885 -25.204643 -172.895386
23.845884 -3.114908 -184.785706
23.745884 -6.504644 -168.574005
9.444501 -26.704647 -177.085709
0.649276 0.595236 -180.677414
6.565802 -23.404642 -177.085709
0.492379 -7.504646 -167.685715
11.047055 6.302326 -183.586655
23.245882 -21.123365 -172.685715
15.245885 -0.004644 -187.812408
1.445878 -13.031521 -181.685745
1.945688 -13.605019 -173.385712
22.045647 -6.004214 -166.185623
5.345885 1.884275 -184.485718
22.845882 -8.804646 -167.833878
2.545016 2.795112 -181.987518
5.069137 -11.204644 -189.385712
16.145885 -11.404643 -195.812347
9.452931 -25.104641 -175.485718
19.297812 -25.304646 -173.185699
8.780185 -0.604643 -187.485703
20.545885 4.804631 -179.985718
4.067127 -19.004642 -176.185715
12.845885 -8.404644 -193.339020
0.345977 -10.734022 -174.585724
4.446074 -8.902573 -164.095963
9.211380 -2.104646 -188.485718
2.364319 -10.904644 -168.585724
4.197370 -17.904640 -188.685715
21.245886 -8.604646 -166.113220
17.145884 -7.333627 -192.985718
23.181963 -3.204648 -167.385712
22.545885 -10.680347 -168.085724
1.245847 -10.704302 -182.294098
5.045887 -19.580223 -174.885727
13.345886 -12.904642 -196.120331
12.245886 -14.381502 -165.585709
-0.554115 -4.304643 -178.871338
15.245885 -11.304641 -195.654800
3.154855 -10.004642 -186.385727
5.860694 -18.804644 -172.785721
23.545883 -17.704643 -171.458298
14.645885 -8.704644 -162.263687
7.045887 -16.995062 -169.685715
3.498118 -16.104647 -173.285721
6.019883 -23.704641 -178.485718
6.645885 -9.304647 -163.129272
9.745885 -2.004644 -188.620483
23.709867 -20.604641 -172.785721
27.500809 -14.504645 -175.585724
18.945885 -11.204644 -195.612549
23.677822 1.395353 -178.085709
-1.262419 -5.504645 -175.485718
5.046093 -14.504108 -169.086716
15.745886 -7.231394 -192.985718
5.626991 -19.504644 -173.885712
-0.658828 -6.705492 -177.484985
0.429671 -7.704645 -168.085724
17.945721 1.597716 -185.585724
9.945720 -8.707053 -161.783890
4.955940 -11.804642 -189.385712
9.345885 -15.154919 -194.985718
22.045885 -8.622711 -192.385696
28.126612 -9.504645 -181.485718
4.741806 -7.303969 -187.788879
28.009594 -18.404644 -176.685715
22.745886 2.795354 -178.544373
4.926517 -24.504644 -184.785706
23.132145 -8.004646 -167.985703
6.432675 -14.304644 -191.885712
6.845884 -11.271397 -191.285721
5.345885 -4.304642 -187.260300
2.176817 -7.104645 -184.385712
16.445887 -11.104642 -195.641281
12.445886 -21.560215 -170.785706
14.445886 -20.304642 -169.562469
0.945885 -12.637339 -177.085709
6.056365 -11.204644 -190.485718
5.610701 -2.704645 -186.785706
9.346771 -11.710588 -193.485626
1.803346 -12.104645 -183.485718
0.279430 -8.404646 -169.685715
14.945884 -21.004646 -170.041061
3.045887 -14.804643 -172.465775
18.545885 -9.704644 -194.533951
19.845884 -9.640721 -194.185699
13.445884 -13.304645 -164.839706
28.945517 -13.013392 -179.885910
10.745887 -7.270957 -191.985718
-0.371292 0.495356 -179.185715
8.345887 -19.904644 -171.421448
13.445884 3.095356 -185.762283
23.245882 -2.146843 -184.485718
18.945885 -10.649650 -195.185715
17.145884 -23.191252 -171.585709
7.537983 -25.504641 -178.185715
5.645886 -9.904643 -189.645111
22.862621 -1.904644 -166.785721
24.145882 -1.504645 -169.734680
24.125822 0.195354 -170.685715
1.624309 -5.504644 -183.285706
8.106951 -9.704647 -162.885712
24.270706 0.895355 -172.785721
5.773921 -22.204645 -176.985718
7.216632 3.295338 -184.685730
19.395996 -3.504643 -189.285706
3.445886 4.095354 -182.150513
2.485845 -12.304645 -170.185715
25.619663 -6.604644 -186.185715
22.153591 -5.304733 -189.186554
15.403970 -16.404469 -167.085373
26.845888 -13.204645 -174.367584
3.545888 -15.104644 -171.850571
7.145885 -20.318403 -172.885712
5.851681 -14.004623 -191.085861
5.447881 -6.707498 -188.285522
5.545884 -12.604647 -166.716812
27.591103 -15.304643 -175.785721
23.748312 -5.876280 -188.187408
1.586553 -4.004645 -182.985703
15.045885 -7.904646 -161.942184
5.534052 -20.606678 -175.385544
23.701902 2.695356 -172.585709
1.645885 0.695356 -181.840149
12.545883 5.377253 -184.185715
19.245886 -22.904642 -171.752182
27.393780 -9.604643 -176.385712
16.945883 -15.204646 -166.647079
17.860781 -5.902539 -191.785172
6.445885 -15.104642 -192.134476
22.745886 -8.104643 -191.398087
10.545887 -21.037907 -171.085709
6.340329 -17.704641 -192.585709
18.512163 -1.604645 -188.085709
4.544835 -15.104023 -189.394485
3.045887 -7.104645 -185.693527
26.245171 -8.104644 -173.488449
10.845884 -16.904644 -167.665405
2.301913 -15.404644 -183.585724
24.045885 -10.404646 -169.736496
18.445883 -0.380965 -187.085724
3.827158 -20.104641 -186.485703
5.628023 -17.504642 -191.485703
6.395642 -21.504641 -175.085724
13.445884 -10.304643 -194.619476
4.027102 -19.704641 -187.685715
18.346119 -14.306741 -166.685471
10.545887 -14.363261 -195.485718
9.345885 -23.844770 -174.385712
24.017443 1.695354 -172.385727
16.990934 -14.404643 -166.185699
5.072366 -19.904642 -190.485718
22.445883 -11.204646 -168.158554
0.054579 -6.604644 -180.085724
4.215732 -14.504643 -188.685715
6.345887 -21.729492 -175.485718
14.545884 -24.404644 -172.505280
-1.538038 -4.404645 -175.385712
16.945883 -11.704647 -164.723663
14.945884 7.995353 -181.498627
25.069897 -1.104645 -175.485718
3.545888 -15.804645 -172.740097
22.120401 -22.104643 -172.485703
-0.053555 -8.377831 -178.887497
23.114212 -6.404646 -167.685715
24.245884 -5.973524 -187.685715
7.245887 4.295354 -184.135468
5.232871 -21.304646 -176.885712
8.445024 -24.804752 -176.180496
5.192395 -17.004642 -171.585709
19.045885 -5.404644 -163.013535
19.545883 -4.992952 -190.485718
25.253403 -21.804823 -174.482895
4.586168 3.795357 -183.085709
0.650228 -11.273471 -174.154892
19.483938 6.295354 -179.685715
5.267900 -3.104644 -186.685715
-1.154114 -3.104645 -177.537399
26.130415 -21.204643 -175.085724
1.496721 -13.204645 -174.285706
7.390764 -16.004642 -193.485703
14.346234 -11.906163 -164.085526
23.219875 -9.104645 -191.985718
14.845885 -7.604642 -193.211670
21.845884 -6.804643 -190.854523
4.536685 -16.406977 -171.885300
9.445887 -18.804644 -169.755966
11.345885 -9.804642 -193.620499
14.345884 -7.404642 -192.996323
8.746056 -12.005191 -193.184601
21.045885 -24.904646 -173.412445
13.045885 -23.133642 -171.885712
12.845885 -7.704646 -161.247574
12.745883 -10.604644 -194.594742
2.775912 -9.704664 -166.585541
2.126753 0.295353 -182.485718
27.663036 -9.504645 -177.485718
26.831821 -6.104643 -180.485718
19.945887 -6.738153 -164.285721
12.945887 -3.904643 -190.559921
2.945885 -0.804643 -183.720383
23.222313 -1.904644 -167.485718
21.045885 -4.904647 -164.749771
26.294031 -8.604646 -173.485718
-0.398163 -8.504644 -172.985718
10.986950 -10.804644 -193.985718
2.346024 1.796492 -182.189758
5.165722 -15.304642 -190.385712
-1.548678 -2.804612 -176.385651
19.545883 -7.104647 -164.057434
15.445885 -20.504646 -169.709259
10.745887 -3.004642 -189.508728
24.639860 0.095353 -175.985703
13.945885 0.195356 -187.801422
8.245886 -14.387127 -166.585709
11.745885 3.195354 -185.776245
16.367626 1.195354 -186.585709
4.287556 -22.704643 -184.685699
9.445766 -13.304678 -194.300110
9.697351 -26.107061 -176.286377
10.645885 6.495354 -183.467987
17.445833 -1.804762 -188.685333
20.545885 -1.904643 -187.126892
14.445886 -7.004643 -192.766006
22.445883 -5.804645 -189.434601
2.545886 -17.291050 -179.185715
21.145884 -20.204645 -171.012634
21.402796 -5.804647 -165.385727
13.045178 -10.904630 -194.885757
-0.997312 -6.004647 -169.885712
5.545884 -11.922553 -166.085724
4.270986 -18.904644 -188.685715
8.645885 -13.004643 -193.522125
5.945888 -13.304644 -167.063385
0.645982 -1.404698 -181.103821
1.945887 -5.104645 -183.748978
5.145885 3.895355 -183.370209
27.857363 -9.804643 -185.285721
20.245979 -10.205211 -165.885162
19.172539 -13.504643 -166.685715
19.345875 -18.404779 -169.285645
1.790758 -13.504642 -182.785721
20.345886 -2.704645 -188.024734
2.172235 -1.404646 -183.085709
24.044941 -14.804359 -170.888000
26.584625 -5.504644 -180.385712
26.470974 -5.604647 -175.985703
26.145884 -10.204645 -190.003540
7.645886 -22.104643 -174.183838
23.962927 -2.104646 -183.185715
5.445887 -20.066563 -174.885727
12.545883 0.495357 -187.618576
-0.868153 -6.204646 -176.785706
26.888199 -9.504646 -174.885727
24.613958 -14.004644 -171.285721
21.245886 -10.604646 -166.815582
24.546522 -8.205027 -170.077240
15.445885 -14.504645 -165.861465
3.145885 3.768653 -182.085724
2.022635 -14.804643 -175.485718
15.845883 4.295354 -184.239716
3.709867 -16.504644 -187.685715
18.345884 2.454353 -184.585724
7.647496 4.995650 -183.881516
13.889008 -4.404644 -190.985703
2.678849 -9.304646 -185.485718
4.150059 -15.396413 -171.189941
5.145885 -12.304644 -189.731842
5.547420 -13.204322 -167.287949
17.277409 -14.904644 -166.585709
14.445886 -6.575083 -192.485718
18.045658 -15.480699 -167.185944
5.445795 1.497093 -184.685730
-1.574177 -5.204644 -172.785721
17.518152 4.295354 -183.385712
2.420567 -8.404645 -184.985718
21.445885 -17.404646 -169.833740
2.651561 -1.905569 -183.784958
14.845885 -16.604643 -167.107498
25.977888 -6.804645 -173.085724
25.747068 -4.304076 -173.746597
18.398754 -12.704644 -165.885712
3.745888 -8.204647 -164.018448
1.745887 -12.390166 -172.085724
16.945883 -10.204645 -195.040604
8.045886 4.895353 -184.073135
8.763972 4.495354 -184.485718
17.045885 -10.204648 -163.945557
2.778515 -12.404643 -169.785706
21.745882 -4.470703 -165.385727
23.745884 -10.055079 -192.585709
7.845886 -9.504644 -191.439987
24.245884 -9.642282 -191.685699
-0.053566 -1.704975 -179.979904
26.026211 -4.004646 -175.885712
3.891654 -21.304644 -182.385712
-1.881964 -3.604646 -174.385712
5.686503 -17.004641 -191.485703
28.145887 -16.404644 -176.767044
-1.535479 -5.104646 -174.185730
18.117870 -0.804643 -187.585709
25.245882 -4.204645 -171.951675
23.745884 -4.704645 -186.816193
11.245884 -19.204643 -169.371872
17.545887 -11.804645 -165.027725
5.052943 -3.505261 -186.685410
5.902834 -16.304644 -191.685699
25.473087 -4.704646 -183.585724
24.882841 -5.704645 -170.685715
9.245884 -21.904648 -172.616928
1.171198 -3.804646 -182.285706
25.805071 -5.504645 -173.185699
26.845905 -6.404639 -181.387848
22.245884 -9.804642 -193.311478
5.159438 -16.504644 -190.585709
25.345884 -1.941736 -175.285706
19.541826 -14.303886 -167.286957
8.147147 -16.405008 -168.387070
25.245882 -20.404644 -173.939041
8.586038 -18.604643 -170.085709
0.090364 -10.004643 -174.185730
17.845884 -1.704643 -188.429474
-1.154114 -5.929522 -175.585724
3.445357 -10.204645 -186.885712
16.545885 -11.304644 -164.357239
8.715458 -11.604643 -192.985718
21.631115 2.595355 -181.085709
22.734518 -1.704853 -184.685730
24.767387 -19.404642 -173.185699
7.545885 -7.304644 -190.244675
2.744836 -14.903678 -173.345657
8.232493 -27.204639 -179.085724
27.845882 -10.039295 -177.785706
3.337029 -19.704641 -182.985703
24.866179 -0.904646 -173.285721
28.406315 -11.104643 -185.585709
0.429921 -10.904643 -178.285721
17.245918 -8.904748 -163.385712
25.618158 -7.904643 -187.985718
23.045883 -20.352684 -172.185715
-0.585843 -5.304645 -178.485718
22.745886 -2.217567 -185.285721
13.945885 -20.386196 -169.685715
17.045885 6.495354 -181.674576
3.879666 -20.504646 -179.685715
19.094854 6.495354 -179.885712
4.345886 -21.804646 -180.436172
9.545885 -25.504641 -175.760376
1.682047 -14.104645 -181.685715
22.445883 -17.204645 -170.429138
23.598589 -4.404645 -168.185715
23.236134 2.795404 -176.984573
26.072615 -7.204643 -186.085709
2.526402 -17.404646 -180.885712
20.845882 1.895354 -182.964798
2.445888 -4.004645 -184.146881
27.953602 -9.103559 -180.487564
29.264017 -16.004644 -179.385727
25.272890 -14.904644 -172.285706
19.174591 -4.304642 -190.085709
17.787718 -18.804644 -168.985703
25.645882 -17.804646 -173.516357
21.145884 -2.204644 -186.927979
10.845884 6.895353 -183.171326
4.545886 -11.804644 -166.818344
3.745888 -18.404644 -176.121414
13.645884 -16.104647 -166.722610
7.145514 -1.802993 -187.386642
24.000462 -7.204644 -169.085709
5.445887 -10.304643 -189.540649
19.145884 -7.339527 -163.885712
24.144981 -5.004644 -169.185715
2.101179 -14.804642 -183.185715
22.345886 -1.869063 -185.385712
3.545888 1.223271 -183.485718
25.148222 -1.297401 -174.885147
2.187341 -7.604642 -184.485718
4.704885 -23.704639 -186.785706
22.945885 3.795356 -176.025909
7.546732 -5.017304 -189.185211
9.746571 0.104473 -187.386032
0.845887 -11.948778 -179.385727
12.845885 -17.704643 -167.865921
-0.276562 -5.704644 -179.385727
2.227978 -12.204225 -170.585526
4.948690 -24.704641 -185.885712
3.544450 -11.704644 -187.285721
7.645886 -11.804642 -192.222198
6.436594 -18.604643 -171.885712
27.983717 -10.204646 -178.285721
4.485138 -14.904644 -170.185715
16.145885 1.695355 -186.266754
12.345884 2.895357 -185.968262
3.543329 -10.604569 -187.087753
2.016921 -1.904643 -183.085709
5.789950 -25.704643 -182.485718
24.724148 -0.104647 -175.585724
0.803579 -12.104645 -178.885712
19.245886 -17.404646 -168.712616
4.067134 -19.204643 -176.585724
0.935737 -11.404644 -180.685715
-0.994999 -6.904647 -172.785721
4.834481 -9.804642 -188.685715
17.545887 -9.804642 -194.729919
6.545887 -6.004645 -188.936920
1.908302 -15.604644 -179.585709
7.445887 -5.904643 -189.532822
14.045887 -21.304646 -170.312332
8.645885 -15.523827 -194.585709
19.545883 1.495355 -184.603409
2.645887 -11.404645 -168.823624
13.945885 -13.204646 -164.837814
12.045886 0.495357 -187.571167
18.045883 3.395354 -183.910583
19.653519 -1.604637 -187.486557
27.344055 -7.905765 -177.685898
18.246189 -7.202211 -192.686447
23.920286 -7.604642 -189.885712
29.339649 -14.304645 -180.485718
13.945885 -1.204646 -188.800415
2.604548 -14.404643 -172.785721
11.645693 -8.617650 -193.081177
4.979398 -23.204647 -180.785721
27.945883 -13.604644 -176.542435
22.234188 -6.305565 -166.486588
28.366096 -11.704645 -178.685715
3.992874 -20.904644 -180.085724
13.846465 -12.203958 -195.896378
11.082571 -13.204643 -195.285706
14.048841 -10.206373 -162.985397
17.526087 -15.804645 -167.185730
17.980270 -12.704644 -165.685715
14.345884 -8.204644 -193.529694
4.845672 -9.304540 -164.190201
3.236949 -19.304642 -183.785706
6.255079 -23.004644 -177.085709
1.567252 -11.904645 -182.885712
-0.498332 -5.904644 -178.585709
23.813412 0.695356 -179.085724
27.515060 -9.104646 -184.985718
21.783079 -1.204646 -185.285721
23.304419 -8.404644 -191.285721
19.445885 -13.104644 -166.649414
24.793938 -4.904646 -170.585724
18.215153 -10.904645 -164.885712
25.245888 -2.933139 -181.085556
22.445883 -2.604645 -166.113220
1.446941 2.993529 -180.885559
4.648579 -23.303072 -182.785477
24.261810 -6.804644 -188.585709
17.345882 6.668367 -181.285706
8.645885 -21.104641 -172.312408
20.045277 3.795459 -181.784790
22.345886 -7.404642 -191.048477
26.745886 -10.204647 -174.321808
23.986221 1.295355 -176.885712
1.323782 -5.604646 -182.785721
8.945886 5.395354 -183.974777
-0.481624 -8.104644 -176.485718
8.745887 -20.104643 -171.310608
10.745887 1.995356 -186.435455
7.645886 -20.300653 -172.385727
13.645884 0.495357 -187.611832
27.645885 -13.304643 -175.944305
23.864758 -5.104646 -168.685715
9.745885 -22.604645 -172.902832
0.124563 -6.204645 -180.285721
28.800629 -11.704645 -181.185730
19.945887 -21.604641 -171.236816
3.345884 -19.722561 -181.185730
21.145884 -4.226929 -188.885712
0.945885 -10.939862 -171.985718
14.145885 -19.604645 -169.123703
21.945883 -1.804645 -185.814468
17.946079 0.801158 -186.285995
3.445886 -9.704644 -186.802704
26.244749 -20.504780 -174.963776
18.445883 -25.504641 -173.202271
3.325023 -14.404641 -186.985718
24.905540 -13.804645 -171.585709
14.345884 -11.204647 -163.664505
7.745884 -20.004644 -171.985718
21.645885 -17.704643 -170.125000
3.503464 -11.104642 -187.085724
7.246693 -22.694998 -175.285538
24.246063 -0.693543 -180.285172
1.345888 1.195354 -181.339569
19.345882 7.047632 -178.985718
22.545885 -0.204644 -183.120285
4.837542 -6.704386 -187.702408
15.546389 1.641067 -186.486496
4.345886 -20.740427 -178.385712
28.924927 -17.704643 -178.285721
0.268713 -10.304645 -173.885712
23.014780 3.195353 -176.985718
10.245886 2.714099 -185.885712
5.745884 -12.204641 -190.449890
5.545884 -13.504643 -167.627213
15.445885 -23.004644 -171.423035
25.024618 -9.704646 -170.985718
14.145885 -5.704643 -191.870422
16.645885 -19.523491 -169.185715
14.945884 -17.004642 -167.397324
-0.054114 -5.304645 -179.968521
6.345887 -9.604645 -163.524139
16.977776 3.295356 -184.585724
4.446384 -14.404073 -169.686310
20.689547 -8.604644 -193.085709
11.045884 -18.704645 -169.004913
21.545883 -10.696380 -194.485703
7.145885 3.895355 -184.348434
10.845884 -26.248760 -175.485718
23.586430 -5.104645 -187.485703
10.345883 -27.204639 -176.751846
1.445886 -10.851416 -182.785721
2.778072 3.795356 -181.785721
1.845885 -15.380512 -179.185715
27.545961 -11.933130 -175.985657
26.006445 -5.904644 -184.085709
6.746328 -26.604822 -181.096802
17.045885 -10.955645 -195.585709
16.545885 1.495355 -186.247406
28.330431 -10.904643 -179.085724
17.998417 -9.904646 -164.285721
3.229909 -4.004645 -185.085709
-1.254115 -4.187699 -176.685715
2.420586 -8.404646 -165.585709
13.545886 -10.304646 -162.959732
21.845884 -3.948255 -188.085709
2.914690 -18.504646 -180.685715
22.345886 0.825171 -182.185715
20.345543 -6.505534 -164.572906
14.445886 -12.304646 -164.338333
-0.082124 -9.404644 -173.485718
26.145884 -9.204643 -188.828659
5.045887 -10.904644 -165.531723
11.247010 -27.101395 -175.986603
18.245884 6.095355 -181.162231
2.006028 -15.804645 -178.985718
5.045887 -23.746637 -181.485718
29.393740 -14.904643 -180.285721
11.245884 -9.004643 -193.145905
29.389925 -13.404644 -181.985703
20.426552 6.195356 -178.485718
26.934855 -11.304643 -174.585709
10.645885 5.495356 -184.133377
8.245886 -5.222740 -189.685715
9.645886 -14.904644 -166.471481
27.714760 -14.604642 -175.985703
15.345886 -8.204644 -193.643005
23.518723 -19.704643 -172.285706
4.309449 -22.404638 -182.585724
24.645922 0.105238 -175.185532
3.145885 -17.404644 -185.651215
16.345884 -1.577365 -188.785721
21.620550 -1.404646 -185.685715
3.106520 -5.104645 -185.285721
9.768103 4.195356 -184.885712
5.245887 -9.272394 -163.885712
3.778756 -5.904644 -186.285706
12.194775 -11.103121 -194.685501
5.596262 -24.704641 -181.285706
27.292646 -9.204644 -186.085709
5.644453 -12.304488 -166.348755
27.829901 -9.204644 -183.685715
5.781651 -24.504646 -180.285721
20.588011 -7.404644 -165.085724
25.806696 -8.204646 -172.485703
23.103003 1.895354 -179.085724
16.945883 -9.604642 -194.647400
6.646417 -14.101580 -167.288391
5.145885 -22.004642 -178.022018
28.245882 -11.404643 -186.920227
26.193350 -10.904644 -173.085724
6.409846 -17.004641 -192.485718
16.545885 -26.904642 -174.050476
-0.805255 -7.204644 -175.685715
10.245886 -14.004644 -165.603638
-0.853890 -2.702407 -178.362396
1.145884 -11.804643 -181.351883
19.345882 5.395354 -180.875015
7.145885 -2.404644 -187.641769
-0.199661 -9.204645 -173.885712
1.945676 -6.704826 -183.989868
18.045883 -7.404644 -163.137009
5.945888 -13.648268 -167.385712
1.180857 -0.304646 -181.585709
11.845886 -15.304644 -166.264313
27.789957 -19.004642 -176.485718
17.445885 -11.104644 -164.627884
8.262261 -10.104643 -191.985718
2.365574 -11.404644 -184.985718
-0.136759 -8.404646 -171.085709
13.445884 -22.104643 -170.997711
9.345885 2.238148 -185.985718
23.945883 -4.604644 -186.413254
4.045885 -4.804643 -186.232330
6.632715 -17.404644 -192.885712
27.384348 -8.304644 -177.385712
17.545887 -3.104644 -189.669830
6.645885 -17.941271 -170.985718
2.624702 -17.304644 -178.485718
17.345882 -18.804644 -168.877380
10.545887 -18.563110 -169.085709
17.549496 -12.819032 -165.581924
27.844578 -11.215417 -187.978714
0.534933 -11.304642 -177.985718
9.245884 -10.771257 -192.985718
2.945885 -15.304644 -173.419922
11.845886 -2.004644 -189.155029
19.945946 -14.301299 -167.486572
9.245884 -21.004646 -171.812805
11.945885 2.595355 -186.169388
24.245884 -11.704646 -170.220612
4.387688 -14.204641 -188.985703
12.346198 -1.904963 -189.179749
10.475174 5.095356 -184.385712
9.483527 -27.504644 -177.885712
4.613932 2.995354 -183.485718
2.014201 -13.604644 -183.485718
9.045884 -11.259486 -163.785706
13.745885 -24.004646 -172.336227
13.345886 -14.904644 -165.910126
20.045883 -7.504646 -164.653183
4.475810 -21.404644 -188.385712
16.645885 -6.083381 -161.685715
2.045885 -7.519123 -165.085724
3.173839 -1.204133 -184.085999
28.595917 -10.804645 -181.785721
23.934216 1.895354 -175.385712
21.446997 -12.405608 -167.681351
4.545886 -15.804643 -189.461990
10.745887 -12.763147 -164.585709
21.845884 -3.904645 -165.465271
3.993522 -21.804644 -184.285721
2.413109 -16.904642 -181.785721
26.345886 -4.753417 -179.585709
3.174454 -19.304644 -181.085709
9.466447 -2.404644 -188.785721
8.645885 -20.555527 -171.785706
20.392374 1.395353 -183.985718
22.945826 -8.504707 -191.652100
19.478966 -21.404646 -170.985718
5.545509 -18.004745 -172.285721
24.205521 -0.904646 -170.285721
21.045885 -16.004644 -168.965332
17.245886 -17.604645 -168.156219
23.345884 -13.704646 -169.833572
17.046188 -8.104664 -162.885147
21.345884 -18.804644 -170.458847
4.010569 -21.604639 -181.885712
9.445887 -15.726879 -167.185730
10.045886 -13.004643 -194.556290
20.541622 -12.104331 -166.886276
25.624592 -10.403560 -190.985199
21.046021 -5.704619 -164.982346
3.914081 -19.304642 -187.485703
25.345884 -15.384138 -172.485703
23.445885 -20.304642 -172.457977
7.445887 -0.370106 -186.785706
21.045885 -4.388705 -164.585709
12.845885 -9.304647 -162.229858
21.245255 -24.101059 -173.092850
-1.654115 -4.704646 -173.860397
18.745884 -14.804643 -167.118958
2.841717 -0.403351 -183.488480
4.623830 -22.104643 -179.885712
3.532678 -15.604643 -187.285721
10.145884 -22.658363 -172.685715
24.045885 -10.504642 -192.748978
12.345884 -12.404641 -195.454956
28.321228 -10.404646 -184.285721
15.945886 -23.204647 -171.542618
27.745880 -8.634119 -179.485703
-1.152599 -5.704506 -175.983582
23.472282 0.695356 -179.985718
27.204350 -7.004644 -179.585709
6.945886 -8.404644 -190.246994
9.342157 -5.303789 -190.293732
24.845882 -12.954809 -171.285721
22.145885 3.376581 -179.085724
19.045885 -16.804644 -168.311478
12.745883 6.495354 -183.323654
26.689655 -8.104645 -174.785721
2.045885 -8.020293 -165.685715
23.080114 -11.204646 -168.785721
15.945886 -4.204643 -190.808273
8.471657 -18.104643 -169.685715
5.145885 -10.658776 -189.285706
19.138891 -12.902289 -166.385925
6.145857 -7.204587 -189.085770
27.074493 -13.204645 -174.785721
3.045887 -13.604644 -186.363037
9.545885 -8.904644 -161.924149
26.845888 -12.704644 -174.351364
15.445885 -8.625255 -162.485718
17.545887 -8.480446 -163.385712
14.945884 -15.773542 -166.585709
21.945883 -10.204645 -193.856537
26.293472 -11.904646 -173.285721
15.445885 -25.304646 -173.047958
13.445889 -10.704643 -194.885696
2.445888 3.393025 -181.685715
13.402632 -18.204485 -168.185760
21.944994 -20.288504 -171.488770
16.645885 -21.204643 -170.239105
7.445887 -10.304643 -191.448456
20.545885 -25.004641 -173.360046
20.538158 3.293567 -181.785294
1.445886 -9.682335 -168.685715
4.182454 -16.404644 -172.385727
27.045883 -9.404642 -187.254288
