28.745882 -25.304646 -179.104340
5.093701 -24.104637 -188.685715
25.516823 -22.804640 -175.085724
10.002036 -17.704641 -196.585709
17.945885 -15.604642 -198.758072
12.939243 -30.864023 -182.120407
27.445883 -12.204641 -190.419998
21.095068 -15.804643 -198.685699
24.267771 -29.504644 -177.285721
30.670317 -21.517540 -186.582993
14.463156 -19.550985 -197.794754
9.745885 -31.504646 -182.038971
27.440426 -16.908831 -194.956268
20.053345 -27.341658 -183.622208
19.970873 -27.681604 -183.167953
17.282471 -30.374599 -180.584518
11.151064 -17.304283 -197.285263
30.966877 -23.327541 -183.822952
10.011230 -21.584200 -197.156296
11.845886 -15.504641 -196.864807
30.608536 -16.504644 -185.485718
20.584297 -30.604239 -178.602966
24.045885 -29.204645 -177.023193
23.113487 -28.106003 -180.968964
10.982222 -22.271273 -195.664963
22.904425 -26.525215 -183.388519
19.706280 -12.004642 -196.085724
17.132860 -20.969913 -194.456985
12.669765 -26.188526 -189.103256
6.923297 -28.293058 -188.806976
6.629803 -25.349878 -193.193451
12.524250 -26.531525 -188.676193
25.341570 -21.986145 -188.740509
30.905090 -17.604643 -184.985718
15.996428 -24.377768 -190.063354
29.906078 -16.404642 -190.885727
22.256189 -22.203991 -190.010925
7.794780 -26.597235 -190.877792
10.373415 -23.998356 -193.441910
16.643024 -22.516066 -192.450577
9.845886 -20.604639 -197.523270
30.609287 -20.104641 -181.785721
24.048050 -23.234505 -187.601105
23.746958 -24.301157 -186.200302
18.745884 -14.050731 -197.685715
23.292702 -27.545536 -181.694077
16.767466 -23.290827 -191.258484
26.233831 -26.278473 -181.983429
23.570065 -24.624395 -185.824600
24.245884 -27.904644 -176.443283
22.709641 -27.389109 -182.228165
5.095210 -25.104641 -186.085709
12.238888 -21.960678 -195.483307
23.099695 -29.904642 -176.985718
20.680550 -20.852901 -192.836685
22.645884 -15.604642 -198.101807
27.488426 -17.966454 -193.473648
22.935509 -23.471668 -187.824280
29.945881 -25.719328 -180.873856
13.506122 -30.304640 -177.485718
27.112541 -27.268616 -180.066650
22.808756 -29.604643 -176.685715
15.625979 -20.605642 -195.748611
21.831125 -21.878513 -190.701721
25.645882 -14.604641 -195.444458
30.455164 -17.304642 -190.585709
6.345887 -25.730139 -192.485718
29.913910 -15.904641 -181.685715
30.845881 -17.304642 -185.350555
30.045881 -14.986320 -184.585724
19.230980 -24.878260 -187.700943
8.697614 -22.204643 -196.685699
7.624142 -21.704641 -195.285706
18.603161 -31.003233 -179.009628
31.373903 -19.704641 -184.785706
6.898682 -25.528109 -192.680405
28.545887 -22.304647 -178.139008
12.392900 -27.091602 -187.922272
23.443645 -21.338018 -190.680130
8.646984 -30.202957 -182.087082
10.087499 -23.024223 -195.010269
15.373168 -29.523930 -182.876923
10.845884 -19.704641 -198.114731
16.245882 -27.304642 -174.362457
20.845882 -26.004642 -174.018097
22.859507 -19.414570 -193.794739
18.030525 -29.917725 -180.877121
16.525162 -30.326712 -181.120239
20.245884 -28.004646 -175.023132
31.245880 -19.704641 -184.135910
23.776043 -23.788916 -186.935593
19.070894 -27.580063 -183.764954
21.797121 -18.431141 -195.803009
17.859324 -24.194448 -189.390182
8.476880 -28.053776 -188.409164
29.561522 -24.801691 -182.443024
21.450394 -27.239672 -183.074036
8.444004 -29.899296 -185.561905
17.805378 -29.191969 -182.052841
5.660336 -23.204645 -191.585724
13.150275 -29.208525 -184.447968
26.593285 -20.531933 -190.205811
9.729195 -24.940233 -192.371857
23.345884 -28.704643 -176.459579
22.545885 -27.304642 -175.353317
10.346082 -29.904383 -179.385773
30.645905 -19.812021 -189.027176
19.781136 -24.738356 -187.593445
23.795246 -29.122469 -179.118652
20.367815 -17.297209 -198.151550
16.613361 -26.062372 -187.296432
14.234110 -24.729187 -190.440750
27.245993 -20.804956 -176.185410
27.819038 -15.904641 -194.485703
4.808810 -23.704639 -187.785721
22.462811 -30.023827 -178.511337
11.089939 -27.699322 -187.662262
10.145719 -29.425283 -185.586823
17.299326 -27.763371 -184.470779
5.591322 -26.304638 -188.885712
18.846407 -28.380604 -182.710175
11.344880 -19.499931 -198.386551
22.745886 -12.704642 -195.609955
7.345885 -28.604639 -182.744919
31.857752 -20.904642 -185.885712
26.245884 -23.504644 -175.948883
29.542948 -20.550964 -188.621201
25.322140 -11.404643 -192.385696
15.903309 -28.173416 -184.577805
11.145886 -28.004646 -176.878036
28.745882 -15.136471 -191.885712
25.801872 -26.286798 -182.201111
29.964657 -20.122925 -188.984680
27.871683 -13.204643 -190.985703
26.250656 -18.240215 -193.743408
25.345881 -13.604646 -194.684769
25.519341 -28.204679 -179.544449
9.172721 -26.222572 -190.759506
15.540257 -24.355135 -190.326630
30.187929 -21.203678 -187.318970
11.169969 -28.805590 -185.999725
25.926924 -21.584984 -189.016144
5.445887 -25.804644 -184.746170
19.645885 -12.404641 -196.357849
12.654766 -31.244320 -181.669510
28.445885 -14.804641 -192.037140
15.245288 -26.102425 -187.928680
10.736785 -31.205229 -180.383011
29.872984 -16.104645 -190.485718
12.792974 -23.235407 -193.345566
21.344955 -18.904310 -195.341568
18.067808 -23.801586 -189.857574
30.429289 -16.604641 -189.085724
27.196064 -25.704645 -177.585724
10.507139 -22.563604 -195.478561
8.877024 -30.004641 -181.485718
28.931807 -22.681993 -185.838882
15.250336 -19.441387 -197.627090
13.629891 -22.677294 -193.736603
27.827106 -15.504641 -193.985718
8.045342 -25.150764 -192.871964
17.773331 -21.099407 -193.944916
14.823751 -31.555172 -180.192093
5.805485 -26.804640 -189.385712
10.546710 -24.203634 -193.056580
14.480565 -17.604643 -199.185715
26.218159 -24.193575 -185.043228
7.359271 -26.721243 -190.906982
23.770962 -22.020788 -189.519119
31.645954 -20.603136 -185.184967
9.053761 -25.274237 -192.209152
22.345886 -13.104642 -196.139572
29.406557 -17.650522 -192.756622
14.938584 -20.417534 -196.369797
29.885038 -15.904641 -190.085709
30.367323 -16.104645 -188.085709
24.745886 -12.504642 -194.134644
28.199646 -24.050886 -184.197968
14.859420 -19.687597 -197.473694
19.580923 -31.304642 -177.085709
24.360956 -20.268839 -191.775528
18.142387 -25.694111 -187.061371
28.076588 -22.275152 -186.888214
14.362921 -28.897291 -184.300278
10.442251 -26.012648 -190.451996
21.699732 -28.322969 -181.371017
24.887835 -17.988382 -194.833084
30.012823 -22.204645 -180.385712
16.215494 -21.758703 -193.770340
12.029746 -23.865183 -192.812866
16.324593 -24.130529 -190.258087
26.372574 -28.415884 -178.784958
20.147766 -17.629108 -197.786331
25.733749 -17.373568 -195.288162
27.217394 -26.262724 -181.483078
17.647192 -26.630600 -185.946335
24.601179 -22.161509 -188.877853
10.289536 -26.786337 -189.390472
16.120226 -26.019163 -187.608368
30.614672 -19.522232 -189.420319
24.350397 -24.314764 -185.859787
9.954866 -27.825407 -188.027649
28.938505 -24.697226 -182.879532
8.673502 -24.112202 -194.099136
13.009315 -26.314970 -188.747574
22.636398 -21.541836 -190.785736
16.369061 -20.477661 -195.560074
10.745887 -29.904642 -179.031235
29.824511 -14.304645 -184.685699
31.545885 -19.572092 -185.985718
29.890471 -17.271774 -192.396469
12.208449 -21.399199 -196.317093
5.618583 -24.204639 -190.885727
11.345885 -30.918211 -179.485703
12.376049 -29.575912 -184.284195
30.445881 -16.358225 -184.085709
30.345886 -15.874477 -187.285721
5.556863 -20.904642 -191.485703
20.589716 -24.918509 -186.885849
24.152716 -27.532434 -181.255600
22.736452 -20.463074 -192.312866
30.407228 -15.904641 -185.785706
6.145887 -27.278534 -184.385712
13.545886 -28.404646 -175.866028
13.904414 -30.182636 -182.652481
10.926192 -24.312771 -192.711349
19.645885 -14.831663 -198.185715
13.680472 -29.750130 -183.395538
28.798193 -19.004642 -178.085709
12.345884 -17.504642 -198.146759
29.231182 -23.604349 -179.386063
27.945883 -20.048193 -176.885712
6.162252 -27.141867 -190.720230
9.830219 -27.475676 -188.601410
13.836538 -28.652348 -184.922729
27.145885 -24.604641 -177.211792
15.445885 -14.704642 -197.818024
23.445885 -29.604643 -176.947540
23.050863 -24.099607 -186.851639
17.870510 -17.779488 -198.684982
22.145885 -29.704645 -176.547409
18.763456 -24.673685 -188.235199
27.845882 -14.816812 -193.085709
6.004900 -26.504641 -183.185715
28.288700 -20.008299 -190.100449
21.426529 -17.787184 -196.928726
18.082304 -18.719389 -197.257965
19.558098 -21.825708 -191.985321
27.461185 -15.804643 -194.885712
31.532713 -20.167934 -188.089737
23.667482 -18.404314 -194.853973
12.807979 -24.294086 -191.794861
26.103485 -22.212589 -188.003647
16.880890 -25.437328 -188.072464
30.045881 -18.556244 -180.785721
22.157955 -30.414307 -178.094864
17.134094 -28.924976 -182.858795
20.215250 -30.897400 -178.359802
23.249287 -25.004673 -174.485474
15.742282 -22.266064 -193.269669
20.745884 -28.504641 -175.440872
29.210503 -19.502312 -190.289566
21.845884 -14.740822 -197.685715
10.868371 -23.726311 -193.600174
14.078498 -14.304643 -197.185715
23.010786 -21.583902 -190.537689
6.767944 -27.941563 -189.402588
29.291035 -13.204644 -186.285706
5.447356 -21.304651 -191.285767
25.881840 -27.481529 -180.409958
11.000809 -25.708523 -190.627533
7.873355 -28.861097 -187.511368
29.645882 -15.704641 -190.429611
8.245886 -30.372856 -183.185715
29.247982 -22.069017 -186.569717
17.051916 -31.040594 -179.728943
18.837337 -18.370432 -197.384369
21.199017 -30.428411 -178.552582
5.495068 -23.804640 -190.685715
20.414074 -26.406008 -184.805771
17.984579 -27.728794 -184.165146
23.745884 -27.004644 -175.735123
20.545885 -15.904641 -198.842346
25.674448 -16.567909 -196.447617
26.910664 -26.107521 -181.873459
5.403605 -24.104637 -190.285706
20.237881 -25.955040 -185.550919
21.645885 -29.804640 -176.451050
23.598812 -27.404644 -175.885712
13.344139 -28.752346 -185.022202
19.913151 -29.473480 -180.585526
5.944079 -27.303537 -185.676315
30.090340 -15.804643 -182.685715
9.746172 -16.991451 -196.085999
27.816370 -23.604647 -177.585724
6.451446 -28.344313 -188.954544
6.106779 -27.904642 -187.285721
28.996590 -23.144360 -185.131683
23.645885 -11.304641 -193.820572
21.300594 -22.150133 -190.603073
31.406887 -21.104639 -183.785706
18.362886 -31.469501 -178.449982
29.545881 -23.660809 -179.785721
29.637665 -21.247416 -187.532730
23.235979 -29.446243 -178.942383
23.945883 -25.204643 -174.971542
23.245882 -13.904644 -196.422424
17.208246 -21.303883 -193.932144
10.245886 -17.945272 -196.885712
13.994784 -30.957611 -181.471191
5.626432 -23.704639 -191.185715
12.645885 -32.204643 -179.766907
6.869886 -26.048197 -191.959671
25.047047 -25.874083 -183.206848
7.163402 -22.904640 -194.685715
27.664862 -22.261005 -187.112747
12.345884 -28.457798 -176.485718
19.299973 -26.744087 -184.871017
10.346475 -15.903577 -196.093155
22.698942 -12.204641 -195.185715
27.545885 -13.204643 -191.536758
15.920174 -18.493822 -198.615021
8.449733 -20.708004 -196.084579
11.974810 -21.218689 -196.698135
5.621322 -20.004642 -191.685699
8.581933 -28.204641 -179.785721
19.223595 -23.066200 -190.346054
17.945885 -16.387499 -199.285721
25.745884 -27.277313 -177.085709
5.023967 -24.504644 -187.785721
7.200517 -19.404640 -194.185699
6.816599 -29.004639 -185.085709
26.737421 -28.156763 -178.985840
30.915140 -20.178619 -188.336029
12.832364 -31.479776 -181.230972
13.845883 -17.204643 -198.715271
25.679716 -16.946444 -195.951630
26.636549 -24.161709 -184.867218
29.670633 -18.841955 -190.905457
27.351618 -25.373098 -182.713699
29.913784 -15.304643 -182.285706
10.010741 -20.004642 -197.485718
30.806013 -17.904640 -183.985718
11.145886 -28.863661 -177.685715
6.115366 -21.404644 -192.685730
28.951296 -19.056555 -191.089737
23.089087 -23.128214 -188.248169
6.621663 -27.604637 -183.085709
15.994635 -19.562553 -197.082916
21.134907 -24.715363 -186.909958
25.045883 -11.568675 -192.885712
7.673960 -29.504642 -183.185715
4.945885 -23.756390 -188.385712
15.113285 -28.505331 -184.492828
28.498001 -13.204643 -189.585709
8.845884 -17.104643 -195.359772
30.432745 -16.904642 -189.985718
30.161158 -19.704643 -180.785721
24.214012 -22.081068 -189.201584
5.495835 -23.304640 -190.985703
27.930326 -23.004644 -177.485718
20.360432 -16.510477 -199.217133
24.806223 -21.423201 -189.849319
7.296379 -25.683935 -192.268906
30.045881 -15.804643 -189.134094
9.209349 -30.431526 -184.461395
23.888163 -22.629883 -188.570206
18.043980 -28.899376 -175.388626
10.375791 -29.404640 -178.885712
25.106419 -24.582455 -185.065674
26.783686 -21.567244 -188.586197
5.858377 -27.304640 -188.085709
16.245882 -28.204641 -174.992966
29.354111 -16.104645 -192.085709
31.859629 -22.090113 -185.085709
17.165874 -17.965940 -198.779190
24.658621 -18.645849 -193.992569
27.857014 -20.604641 -176.885712
21.645885 -12.704642 -196.122650
26.928146 -27.688950 -179.549561
26.750029 -27.802542 -178.063919
29.345560 -18.010298 -179.185791
26.345886 -27.804644 -177.721725
29.697157 -24.204641 -180.085724
24.640961 -19.364243 -192.950562
19.439533 -23.329483 -189.853256
31.115858 -22.268473 -185.257858
28.369884 -27.328312 -179.451965
27.862131 -21.315563 -188.414474
31.490862 -23.204645 -183.704834
24.519701 -19.811117 -192.361160
14.017640 -21.809589 -194.805649
19.004776 -24.163273 -188.857376
30.245886 -15.773283 -187.785721
28.775576 -26.392801 -180.464233
24.737095 -16.889362 -196.517624
21.645885 -15.337234 -198.185715
29.945881 -15.332835 -188.485718
26.471737 -21.872948 -188.304764
20.284931 -19.666910 -194.765106
26.401958 -11.504644 -191.185715
16.391346 -28.848055 -183.348099
17.773149 -26.921854 -185.458069
28.145887 -12.655565 -189.685715
17.245886 -14.824745 -198.185715
9.969854 -23.687052 -194.094543
9.670242 -31.104637 -181.585709
9.489277 -21.663216 -197.223923
6.529343 -28.987448 -187.845627
31.667736 -21.091801 -186.668884
27.934044 -13.004643 -190.585709
26.846252 -23.304819 -176.459885
6.107517 -27.904642 -186.785706
15.285693 -31.504646 -177.685715
27.545885 -27.968849 -178.891754
17.745886 -12.704642 -196.773758
10.973412 -24.759787 -192.033279
14.650085 -29.745989 -182.918243
14.083985 -23.779049 -191.901443
27.918579 -16.959509 -194.644318
17.545887 -26.668005 -173.885712
18.045883 -27.704641 -174.594604
8.445885 -30.235422 -182.485718
24.096804 -25.798948 -183.822479
28.939814 -13.204643 -188.185715
22.945885 -29.004641 -176.442978
16.451090 -17.540245 -199.704117
31.445883 -19.004641 -188.938843
11.845886 -15.023051 -196.585709
31.285107 -18.404642 -186.885712
10.545887 -20.038725 -197.985703
19.702057 -20.110262 -194.413101
12.540071 -30.405552 -178.085144
15.591729 -23.125546 -192.092911
8.250770 -27.786081 -188.911743
27.489027 -24.893948 -183.341873
30.514599 -16.304644 -187.285721
5.715638 -20.604639 -191.885712
8.345887 -20.204643 -195.818390
23.745884 -24.142817 -174.385712
5.531646 -26.304638 -187.385712
30.267281 -24.058769 -183.101868
8.873737 -26.942162 -189.848297
20.145885 -13.804642 -197.358749
27.445917 -14.300354 -193.101700
24.504471 -17.343140 -195.972733
23.723473 -28.822191 -179.596313
16.852552 -22.245594 -192.739075
13.419221 -30.960024 -181.746765
15.845883 -28.474890 -175.285706
29.575233 -21.752968 -186.855682
5.841050 -26.204643 -190.385712
24.459789 -29.918940 -177.685715
29.575712 -16.504644 -192.085709
20.794909 -30.205387 -176.486359
12.664473 -30.045467 -183.455124
22.745886 -13.304642 -196.117493
28.845884 -12.843529 -187.785721
9.286493 -22.104427 -196.672760
8.662059 -22.870523 -195.768097
25.701315 -17.646708 -194.903030
18.005495 -28.230577 -183.386948
16.447878 -31.466038 -179.433502
28.945885 -15.104642 -191.427887
31.042242 -21.708536 -186.089325
24.657919 -24.059576 -186.069641
30.269407 -20.104643 -180.985718
26.145884 -13.387600 -193.685715
16.645885 -31.004644 -176.970337
31.047039 -18.532516 -190.567963
9.802465 -29.301598 -185.934814
22.545885 -26.704647 -175.042862
17.668362 -18.953600 -197.125656
25.673685 -20.424883 -190.848831
16.945883 -31.304642 -177.136414
31.134184 -24.004644 -182.702423
13.312962 -31.498737 -181.004181
12.168324 -30.081863 -183.642303
29.639950 -25.285135 -181.664459
26.345886 -25.904640 -176.967880
15.305178 -28.752123 -184.036209
25.845886 -26.804642 -176.962082
20.686161 -28.104641 -175.185715
14.945884 -17.404644 -199.247467
15.645884 -13.204643 -196.951218
14.134306 -24.492535 -190.836075
16.445887 -31.452433 -177.385712
11.404875 -29.731234 -184.527145
16.545885 -28.504641 -175.158508
22.645884 -11.240447 -194.385712
20.145885 -14.904641 -198.149063
22.367554 -27.932411 -181.607086
20.010307 -27.004644 -174.385712
28.541218 -19.004641 -177.585693
14.689408 -28.904646 -175.885712
23.445885 -26.704647 -175.421310
14.900002 -21.893896 -194.237335
17.002714 -31.407293 -179.219040
5.957678 -27.504642 -186.085709
17.169863 -18.637651 -197.778000
5.590718 -22.604643 -191.485703
6.114851 -25.704643 -191.885712
30.645885 -20.604639 -181.818146
26.845888 -27.304642 -177.920166
11.845886 -30.904644 -179.046066
20.847471 -29.540045 -180.022507
30.245886 -16.204641 -189.230759
19.296873 -21.361019 -192.794510
19.522751 -22.152079 -191.527451
21.615894 -23.485773 -188.461899
17.845884 -30.304640 -176.340912
14.646401 -27.667147 -185.950256
20.247593 -28.427830 -175.284592
20.232691 -29.972300 -179.699234
26.392220 -25.334158 -183.281250
8.812111 -19.304642 -196.085724
22.389046 -23.701683 -187.761627
30.820639 -22.104641 -181.985703
15.245885 -14.369395 -197.585709
12.845885 -29.334106 -176.985718
15.233484 -22.881918 -192.628845
28.229595 -16.404642 -194.485703
20.645884 -31.436518 -177.325363
31.146460 -22.061453 -182.686615
9.169661 -29.804640 -180.785721
13.845883 -15.904641 -198.019531
5.945888 -26.704645 -190.452850
29.094286 -19.004642 -178.585709
9.482030 -29.504644 -179.985718
27.645885 -25.704645 -178.038330
9.145885 -27.840376 -178.585709
30.956924 -17.404644 -186.085709
14.697128 -18.917095 -198.595474
23.318996 -27.106417 -175.586838
25.278717 -21.679590 -189.222641
18.345884 -28.604641 -175.212265
11.280573 -19.104391 -198.186066
18.745884 -26.304640 -173.738632
16.353540 -29.867826 -181.879883
19.089363 -30.947903 -178.847763
31.639673 -22.832436 -184.085709
29.433670 -18.504803 -191.557358
13.619808 -29.143747 -184.314774
24.477510 -28.970182 -178.978470
17.845884 -29.404640 -175.718323
27.379057 -17.669916 -193.947540
13.850719 -19.933289 -197.624786
13.390970 -17.503599 -198.685135
15.547029 -15.904728 -198.585007
9.356174 -20.604639 -197.085709
24.945829 -22.538668 -188.142441
19.745882 -27.904644 -174.869522
13.245884 -28.853252 -176.385712
25.181108 -18.373581 -194.113235
7.501017 -19.404640 -194.585709
21.645885 -14.390697 -197.485718
17.166658 -31.004644 -176.885712
23.645885 -27.804644 -176.112762
19.456114 -18.770025 -196.490799
22.227951 -18.645872 -195.272339
16.045883 -13.404642 -197.126740
6.824028 -29.204643 -185.485718
11.945885 -16.030325 -197.185715
9.245884 -18.004642 -196.034698
29.945881 -14.613554 -185.985718
9.281807 -29.604643 -180.385712
31.482235 -19.204641 -189.385712
21.779318 -20.658613 -192.551590
18.345884 -13.804642 -197.542221
28.143398 -16.033562 -194.185410
21.745882 -14.004642 -197.116455
8.550589 -26.824427 -190.177811
17.455282 -17.519100 -199.274277
23.210045 -14.804640 -197.185715
20.545862 -12.282035 -196.085724
9.547263 -27.064381 -189.342300
28.045885 -26.004642 -178.526978
24.546007 -23.614298 -174.685730
7.131323 -29.404638 -184.685699
18.769764 -31.506315 -178.193420
7.573525 -24.556917 -193.779388
10.000620 -29.404640 -179.285706
12.745883 -15.168284 -197.185715
25.945887 -27.904644 -177.541626
24.645884 -13.904644 -195.566589
22.245884 -24.704643 -173.860748
28.444733 -23.202860 -178.190643
20.312679 -16.914371 -198.745117
17.762503 -22.548666 -191.837936
30.528978 -24.004644 -181.385712
8.416213 -18.204643 -195.285706
8.745307 -29.608665 -181.182053
8.434538 -19.004641 -195.585709
30.615471 -21.831745 -186.172165
23.605762 -16.524918 -197.668457
7.524811 -30.350559 -185.445984
12.545883 -16.304644 -197.664917
27.042473 -21.266457 -188.891647
31.118624 -17.904640 -186.885712
29.871077 -20.604641 -180.085724
22.945885 -27.704641 -175.710129
26.893650 -23.523918 -185.663864
15.427988 -25.263487 -189.059265
11.053272 -29.089491 -185.639587
28.311747 -26.123880 -181.103943
20.145885 -12.363488 -196.285706
31.575449 -21.304644 -184.285721
8.145887 -27.904644 -180.009125
30.190777 -19.780613 -189.316696
12.338062 -31.726751 -181.057144
16.548159 -18.095301 -198.901978
20.345886 -30.304640 -176.459137
15.345886 -28.486685 -175.385712
10.384278 -24.506191 -192.691208
28.997433 -17.873571 -192.692062
19.045885 -30.304640 -176.333603
24.745861 -15.193693 -196.685257
17.545887 -15.404642 -198.586716
12.345884 -15.504640 -197.137589
26.346546 -24.205187 -176.284653
27.564472 -17.212376 -194.456757
6.451096 -26.216146 -191.882172
18.681765 -30.729786 -179.368896
7.629497 -29.122290 -187.146988
17.201187 -26.016533 -187.066513
20.727407 -30.952448 -178.029175
10.245886 -28.847710 -178.485718
7.522304 -29.004639 -182.885712
6.550972 -23.704639 -193.585709
13.811837 -20.393932 -196.972961
5.645886 -25.804644 -183.230850
29.730169 -23.365128 -184.399811
15.345886 -32.304646 -178.413208
9.620353 -26.016623 -190.844727
22.221638 -16.938587 -197.768112
23.236811 -17.178122 -196.902634
15.745886 -27.236343 -174.385712
12.054340 -29.846691 -184.042755
12.997686 -14.804640 -197.085709
8.620730 -23.160389 -195.387146
17.545887 -28.904646 -175.415497
31.477369 -20.804642 -184.185715
21.608271 -18.146271 -196.313553
21.330557 -12.904642 -196.385712
15.253167 -27.946096 -185.237335
20.845882 -31.035416 -177.085709
28.914467 -14.804641 -190.985703
9.773083 -28.432547 -187.224655
22.145885 -27.704641 -175.420792
18.356796 -17.460426 -198.900177
22.945885 -26.204645 -174.951019
24.355574 -25.510622 -184.106766
19.886751 -29.056625 -181.206146
27.045883 -11.634717 -190.385712
14.516166 -22.137064 -194.076660
27.445883 -21.304646 -176.523834
23.540751 -18.109409 -195.359894
17.845884 -13.870352 -197.585709
5.945888 -26.904640 -184.529755
20.044994 -28.804619 -175.485748
22.045885 -29.104643 -176.143372
6.297700 -19.104643 -192.785706
27.139130 -22.019030 -187.736572
26.745886 -13.855332 -193.485703
29.532515 -25.962799 -180.700668
6.629697 -29.169060 -187.434616
24.147242 -19.471500 -193.049026
19.878824 -16.557339 -199.318741
9.645886 -20.004642 -197.196167
11.141712 -19.904966 -198.397812
19.482708 -30.697376 -179.016663
5.567424 -26.504641 -186.785706
10.719941 -23.455629 -194.068695
25.792458 -11.504644 -191.985718
6.792657 -23.704639 -194.085724
14.015172 -16.804642 -198.585724
30.999676 -18.204643 -190.185715
28.745882 -15.404643 -192.270752
10.545887 -30.262560 -179.585709
19.245886 -26.304640 -173.815552
13.192850 -23.487005 -192.776978
7.445887 -27.704639 -181.115005
21.528227 -27.937771 -182.017899
9.926586 -22.421280 -195.973007
14.185082 -20.683472 -196.362534
7.746028 -28.503767 -181.586349
21.485092 -22.415319 -190.106201
26.811178 -22.276314 -187.533752
8.145994 -29.507429 -182.185150
6.110679 -23.304640 -192.585709
30.411415 -21.104639 -181.185730
24.945885 -13.204643 -194.659805
28.377081 -17.573643 -193.523941
31.410732 -19.104643 -185.685715
23.749542 -25.235765 -184.831375
31.308620 -21.930952 -185.624344
19.708525 -18.179384 -197.224091
17.917290 -22.061626 -192.469727
19.045885 -31.838932 -177.485718
12.045696 -29.201796 -184.993515
21.161541 -30.024837 -179.159393
17.072752 -22.458384 -192.317719
31.584040 -20.804642 -184.685699
29.556513 -20.604496 -179.483444
25.845886 -15.404643 -196.050949
17.237419 -19.184301 -197.006927
16.288340 -25.182499 -188.743027
28.548145 -17.160872 -193.914566
7.135019 -29.204643 -184.185715
8.909523 -23.355366 -195.094406
31.985655 -21.204641 -186.285706
12.445886 -15.867966 -197.385712
11.745885 -18.104641 -198.068024
16.857214 -29.355841 -182.362869
8.345887 -21.404644 -196.118195
20.845882 -27.404644 -174.842621
6.225929 -28.304642 -187.485703
9.427328 -30.704638 -181.485718
18.345884 -15.404642 -198.622726
19.158295 -27.239563 -184.217407
13.146652 -17.130362 -198.384369
22.045885 -28.704643 -175.933075
18.628067 -21.798372 -192.494659
22.645884 -13.823589 -196.585709
28.711454 -19.325359 -190.808502
23.903252 -25.617983 -184.190353
25.950539 -22.573713 -187.556473
7.271539 -23.304640 -194.885712
6.591370 -26.728386 -191.052200
16.545885 -13.304641 -197.122101
23.549097 -14.605875 -196.889313
13.846001 -30.600664 -177.588226
5.626820 -19.504642 -191.685699
29.513187 -17.004642 -179.685715
22.245884 -14.274344 -197.185715
10.866200 -26.009991 -190.250320
29.144226 -13.109822 -186.883438
21.138216 -16.924763 -198.318176
21.945883 -30.104645 -176.702362
31.180605 -21.004644 -183.085709
27.345881 -26.084639 -177.885712
26.685617 -23.804642 -176.485718
6.649064 -28.702257 -185.386612
31.728540 -22.572851 -184.485733
28.989502 -12.704642 -186.685715
31.150928 -21.378813 -186.512100
15.988020 -19.048735 -197.763123
7.945884 -18.244682 -194.785721
26.245884 -22.004642 -175.433243
14.445362 -16.701439 -198.685455
20.987696 -31.096052 -177.688583
23.926559 -14.504643 -196.585709
22.272224 -17.327124 -197.172409
16.523203 -19.565756 -196.811432
30.318140 -20.444117 -188.315292
13.791824 -31.948668 -180.021378
7.782850 -17.904640 -194.485703
25.545879 -28.504641 -177.544113
23.145884 -24.204641 -174.055756
10.972959 -29.951611 -184.412796
29.943941 -23.602831 -180.389191
23.446018 -26.202606 -175.186157
28.445885 -15.204644 -192.563034
5.908750 -21.304644 -192.285721
29.961004 -15.704641 -182.085724
9.846687 -27.823435 -177.783447
30.445881 -18.104641 -182.131775
13.700663 -28.197922 -185.653976
31.135172 -21.404644 -182.885712
21.448849 -30.753515 -177.954376
6.676830 -26.904640 -181.685715
14.538491 -25.258305 -189.515839
31.208805 -18.104641 -187.385712
23.197849 -27.823275 -181.337891
11.579334 -21.019096 -197.188461
21.445885 -14.904641 -197.947433
11.745885 -30.540812 -178.785706
26.355169 -14.004642 -194.085724
31.632782 -21.652290 -185.856888
23.745884 -29.004641 -176.740097
9.043646 -16.703995 -195.389130
5.573545 -26.404640 -186.185715
7.921003 -21.704641 -195.685715
12.145885 -18.004642 -198.264542
15.045885 -15.704641 -198.341171
8.747262 -20.304276 -196.282211
13.857892 -23.589436 -192.291962
29.445887 -13.904644 -187.328354
8.693860 -30.387388 -184.715729
8.545887 -29.656960 -181.585709
27.845882 -24.704643 -177.958786
25.624237 -27.852392 -180.004227
28.127850 -14.304644 -191.985718
30.608885 -16.404642 -185.985718
21.895391 -17.561344 -197.021225
29.645882 -16.404642 -191.619339
29.726543 -15.304642 -189.385712
31.112120 -17.904640 -187.885712
26.746687 -25.804565 -177.260986
19.503223 -28.830986 -181.726242
31.491474 -19.004641 -188.285706
30.191570 -25.423809 -181.197006
15.845883 -30.904644 -177.063873
22.945885 -26.804642 -175.255478
15.655324 -29.691317 -182.490494
29.552830 -25.652113 -181.140747
10.822331 -22.047037 -196.072510
12.806885 -27.516195 -187.097473
18.424852 -28.050005 -183.403580
20.145885 -15.704641 -198.764328
24.245884 -27.204639 -176.102615
25.345591 -23.988632 -175.386246
14.626396 -28.629063 -184.558228
11.283433 -30.870813 -182.852997
9.187682 -24.164911 -193.772430
14.235674 -18.800230 -199.024918
12.898443 -21.282896 -196.138321
25.459513 -26.104645 -176.385712
15.078938 -24.230440 -190.741241
25.532171 -22.758606 -187.508499
17.946056 -21.617088 -193.103165
20.995661 -17.998148 -196.838715
27.331091 -11.704644 -189.985718
25.345884 -16.204641 -197.132614
7.345885 -29.004639 -183.337875
21.650709 -15.902392 -198.586426
20.603050 -14.204641 -197.585709
17.690651 -23.762756 -190.104568
12.345884 -31.357414 -179.085724
20.694845 -17.879255 -197.164276
30.469059 -16.104645 -185.185715
27.345881 -21.904648 -176.549026
7.141194 -19.904974 -194.187012
13.500258 -26.112360 -188.795059
19.086428 -28.087545 -183.017517
10.245886 -17.304642 -196.641922
17.445885 -30.604645 -176.569519
25.058043 -24.506662 -175.384415
13.645884 -27.859255 -175.385712
16.879513 -21.673389 -193.559494
5.632717 -26.204643 -184.485718
19.657139 -17.519913 -198.188873
6.453387 -28.504639 -185.785706
8.455091 -28.804647 -180.685715
13.749887 -19.082907 -198.833160
19.245886 -27.904644 -174.817505
16.565496 -17.798895 -199.313568
5.345885 -24.504644 -189.771118
12.345884 -29.604643 -177.521042
28.340458 -12.504642 -188.785721
4.998129 -21.804644 -189.985718
9.585730 -24.564478 -192.992935
9.309422 -22.387054 -196.307297
23.745884 -25.671244 -175.085724
8.162288 -27.465357 -189.425385
12.590052 -20.998510 -196.708496
29.928066 -16.804644 -181.085709
12.445886 -31.704641 -179.363617
11.345119 -28.604649 -177.285706
13.445884 -14.604640 -197.136963
15.784539 -32.404652 -178.385712
24.429142 -16.415478 -197.384903
18.745884 -15.204643 -198.505814
26.838301 -17.879196 -193.938309
29.672735 -15.504641 -189.985718
22.710257 -17.529497 -196.656296
12.024501 -27.846550 -186.992966
19.645885 -31.698915 -177.405624
6.211229 -26.504641 -182.485718
8.846142 -24.601728 -193.296906
30.971766 -18.804642 -183.685715
16.184452 -27.214689 -185.833328
21.045885 -12.422116 -196.085724
11.282537 -15.804643 -196.685699
15.665875 -26.189892 -187.588852
21.445885 -30.204647 -176.630661
25.665606 -25.180424 -183.892914
19.631983 -28.169357 -182.626190
30.584305 -18.104641 -182.585724
17.647642 -20.296080 -195.179306
16.345884 -17.104643 -199.452103
23.683426 -23.531734 -187.359726
31.608366 -19.404640 -188.785721
24.242807 -24.799767 -174.991196
26.945881 -13.270864 -192.585709
5.475312 -25.704643 -188.885712
29.029243 -14.004642 -189.385712
15.254359 -21.412992 -194.759415
7.843120 -17.402681 -194.390198
25.745003 -23.899357 -175.685699
29.922680 -17.004641 -191.985718
25.907312 -26.717171 -181.515106
29.566072 -24.704643 -179.985718
9.363726 -31.485855 -182.704681
7.113233 -29.231312 -187.219971
30.598600 -22.791553 -184.788834
24.433790 -20.819786 -190.930588
8.179895 -28.204641 -180.385712
10.894015 -15.904641 -196.485718
17.645884 -12.104644 -196.372574
25.046108 -15.606033 -196.881165
26.385235 -22.418056 -187.552994
28.868176 -25.042122 -182.418427
29.645882 -17.004642 -180.113052
9.615354 -30.215014 -184.599792
6.313293 -27.902447 -189.531586
11.045884 -15.494352 -196.385712
10.307796 -28.004646 -177.585724
30.826218 -17.404644 -188.985703
13.745885 -31.662703 -178.485718
7.045887 -29.493620 -185.185715
24.600040 -22.459124 -188.442856
19.845884 -15.368236 -198.585724
30.147223 -18.202154 -181.183823
8.446863 -29.206245 -181.163284
29.429712 -13.204644 -183.285706
11.573326 -27.527113 -187.680618
5.791236 -19.204641 -191.985718
23.223608 -12.708678 -195.386322
14.642630 -23.743713 -191.670944
30.166426 -15.204645 -184.985718
15.892012 -19.850912 -196.714432
9.545885 -20.936041 -197.385712
27.144646 -12.709401 -191.547195
19.323160 -25.955786 -186.034317
29.446617 -25.308308 -179.984222
14.440040 -30.817026 -177.487106
19.395254 -31.608343 -177.785507
12.397008 -28.532312 -185.805786
24.645826 -15.904712 -197.374481
18.255875 -22.434935 -191.754669
7.545885 -17.004641 -193.942368
21.759789 -26.779047 -183.590958
16.745884 -14.204641 -197.754700
12.518624 -25.963951 -189.506897
26.855129 -25.194515 -183.239304
5.907305 -21.804644 -192.285721
9.445887 -29.104643 -179.654099
21.191221 -16.567829 -198.743958
28.786337 -22.984240 -185.509369
6.088503 -22.804638 -192.585709
7.290546 -29.804638 -184.885712
5.845886 -26.504641 -190.054382
29.977114 -17.706854 -192.291473
7.704042 -30.204645 -184.285721
10.463916 -25.412050 -191.323029
13.946937 -28.601564 -175.885773
17.145884 -30.304640 -176.427673
26.145884 -14.178032 -194.485703
27.919661 -20.555077 -189.451324
13.684750 -25.773058 -189.196518
5.245887 -20.704639 -190.880005
18.618155 -28.858250 -182.128571
19.112158 -25.481359 -186.880325
14.235027 -21.094847 -195.737686
8.832306 -28.204641 -179.385727
30.945883 -17.385160 -186.585709
6.945886 -29.004639 -184.599472
28.135216 -23.775747 -184.635757
12.245886 -16.704643 -197.665604
6.232120 -26.804640 -182.885712
23.814907 -20.131794 -192.252640
14.757434 -26.329134 -187.844482
29.245884 -14.404641 -189.435989
7.407893 -19.904642 -194.585709
21.045908 -27.775827 -175.086411
26.655136 -23.004070 -176.185135
20.445883 -30.939051 -176.885712
29.645882 -25.604643 -180.333176
18.445883 -26.604645 -173.906616
15.041100 -20.934290 -195.564819
25.466377 -27.375097 -180.786804
20.603313 -11.904644 -195.785706
28.912947 -20.304642 -178.385712
22.903404 -30.604645 -177.401733
12.945887 -16.004642 -197.676865
26.143780 -13.027662 -193.282150
17.564613 -22.333927 -192.250839
14.520082 -27.965206 -185.579544
15.946124 -15.154246 -198.186264
13.245884 -15.104641 -197.367325
9.397294 -31.304642 -182.285706
21.454453 -20.504433 -192.953903
21.216793 -21.905466 -191.009537
28.537249 -23.254238 -185.197632
30.794413 -17.904640 -190.485718
21.145884 -25.504641 -173.822235
24.862217 -20.563662 -191.077545
6.345887 -27.821136 -184.685699
10.745887 -20.404642 -198.262360
30.578547 -17.738638 -190.965714
6.449084 -19.407927 -193.083618
6.873865 -22.004641 -194.085724
15.992347 -22.887474 -192.237686
27.565784 -12.104644 -189.985718
24.278900 -26.272978 -183.031799
22.815786 -28.104641 -175.885712
28.421253 -25.804646 -178.885712
23.170698 -18.460913 -195.047958
10.228198 -23.303572 -194.532120
12.075257 -27.341858 -187.709122
18.182495 -19.473574 -196.108200
17.323378 -27.195988 -185.285675
29.397867 -14.404641 -188.785721
24.620913 -28.491896 -179.602173
6.156933 -26.831057 -191.085709
8.522781 -26.101444 -191.252472
25.945887 -16.282869 -196.787521
27.338497 -24.904646 -177.485718
23.145884 -25.804646 -174.825775
19.844503 -13.205177 -196.981995
26.282785 -20.178734 -190.885132
30.556955 -21.704641 -181.485718
29.969067 -14.704644 -184.185715
7.836332 -25.758625 -192.088547
14.186853 -25.615604 -189.172546
31.220984 -18.727468 -190.191132
18.933390 -27.058372 -184.595200
19.548170 -19.601223 -195.232758
8.145887 -20.604639 -195.700317
13.845883 -28.204641 -175.600204
25.745173 -12.704785 -193.385544
25.945887 -14.504643 -195.077682
21.808126 -25.782110 -185.019653
28.345882 -26.704647 -179.114777
17.545887 -27.804644 -174.627243
4.966319 -24.104637 -188.085709
11.405654 -31.499355 -181.777496
29.945881 -16.404642 -181.371506
6.588299 -28.404644 -184.985718
20.057800 -30.363493 -179.216385
5.346133 -25.544226 -188.285522
27.793951 -15.104642 -193.485703
27.603125 -26.005049 -181.654953
24.247522 -26.706026 -175.885117
30.124031 -16.604641 -190.485718
20.930933 -18.925154 -195.520172
21.772287 -23.053139 -189.014694
29.766098 -23.304642 -180.085724
28.874538 -18.404644 -178.185715
6.630096 -28.904644 -185.985718
21.345884 -11.304641 -195.047592
7.523436 -17.504642 -194.085724
28.404877 -23.704641 -178.285721
21.455057 -17.379086 -197.509171
24.245226 -11.504353 -193.563187
14.821100 -28.096210 -185.236664
28.022783 -18.547102 -192.308777
19.903845 -19.186522 -195.657700
24.645884 -14.361495 -195.985703
15.377397 -27.665918 -185.583023
9.430814 -23.076426 -195.252182
29.918663 -14.704644 -183.685715
22.245884 -15.904641 -198.444046
26.346754 -27.205349 -177.483688
14.152178 -21.531193 -195.143509
10.776344 -18.604641 -197.585709
14.638143 -27.378719 -186.374817
28.969971 -16.995794 -193.879883
12.294974 -17.104643 -197.885727
22.845690 -25.224039 -174.384872
13.904593 -27.896935 -185.989746
31.365454 -18.604641 -187.285721
30.460693 -20.404642 -181.385712
29.645882 -16.904642 -192.517670
25.845886 -26.104645 -176.655914
27.145885 -14.334751 -193.585709
10.221917 -20.304640 -197.785706
21.697681 -24.612164 -186.779648
6.628294 -22.304646 -193.685715
5.912043 -26.104643 -182.785721
29.258358 -21.526970 -187.345963
24.905539 -17.457333 -195.600906
18.610235 -25.451521 -187.178818
5.623352 -26.004641 -184.085709
14.945884 -27.804644 -174.925827
5.941231 -25.704643 -191.385712
19.909229 -23.012724 -190.077805
24.845030 -26.212280 -182.819351
19.596388 -25.150702 -187.085281
22.148977 -12.104703 -195.385834
5.992085 -27.404642 -189.285706
29.725910 -14.604642 -182.185715
7.461433 -23.704895 -195.185318
30.339081 -17.817713 -191.885712
9.444178 -22.680155 -195.827347
19.285744 -29.236317 -181.244049
29.245884 -14.704643 -189.901321
8.477316 -25.249313 -192.525253
18.545885 -27.813204 -174.685715
28.003763 -25.182056 -182.646286
30.636562 -23.216614 -184.137634
26.842104 -12.707247 -191.986099
13.932149 -32.393612 -179.186264
21.131384 -22.658091 -189.940201
29.345884 -24.004646 -179.563675
30.344929 -15.705638 -185.386063
25.545879 -12.904642 -193.829712
22.173912 -15.504640 -198.185715
29.540688 -13.504642 -185.685715
25.445887 -15.819823 -196.785721
17.753077 -31.646603 -178.496857
22.187679 -23.206160 -188.584183
26.445881 -12.704642 -192.558670
5.226053 -21.304644 -190.785706
31.760454 -20.504644 -185.685715
21.145884 -28.204641 -175.367477
16.045883 -31.604641 -177.600891
19.847826 -26.222826 -173.885788
6.880764 -19.904642 -193.785706
5.095426 -23.604645 -189.285706
25.652407 -22.442554 -187.907104
30.673235 -23.404640 -181.685715
15.866657 -30.610653 -181.043793
19.930500 -24.384420 -188.039490
26.881193 -17.061836 -195.106995
12.595198 -22.839638 -194.022278
24.245884 -13.604643 -195.583435
13.022599 -21.533623 -195.710175
20.656879 -20.467260 -193.410736
25.845181 -28.942268 -177.985580
9.732139 -28.804647 -178.985718
30.945883 -19.104643 -183.309982
14.483383 -21.644957 -194.810486
20.198233 -29.404640 -175.885712
9.345885 -16.404642 -195.539902
26.445881 -13.404643 -193.333084
27.245886 -27.904644 -178.548370
5.945888 -23.004642 -192.210129
13.945885 -14.704642 -197.360458
5.731486 -26.904640 -187.685715
15.445287 -28.112967 -175.084763
30.745886 -17.304642 -189.427643
28.745882 -16.004642 -193.119675
16.540773 -22.108982 -193.095566
31.806684 -20.404642 -186.285706
12.245886 -18.904644 -198.747177
7.177081 -20.304640 -194.385712
9.071503 -28.696295 -187.177734
12.684485 -19.927000 -198.203720
15.645884 -13.604642 -197.202667
5.600102 -26.104643 -189.285706
23.645885 -15.004643 -197.158630
21.145884 -26.904642 -174.617737
23.412132 -24.910114 -185.485046
18.545885 -16.304644 -199.225861
26.245657 -12.304810 -192.385422
18.753691 -29.189577 -181.577530
26.204721 -26.026608 -182.367554
28.736668 -25.377424 -181.975494
14.945884 -28.650217 -175.585724
15.395874 -19.854931 -196.959015
20.456411 -18.496729 -196.384201
29.951967 -15.204645 -182.785721
8.117867 -29.264626 -186.725815
6.098297 -25.304644 -192.085709
6.510936 -28.904644 -187.085724
16.845886 -31.704641 -177.498611
19.404026 -19.075409 -196.071945
23.318821 -30.417631 -177.469864
23.250240 -19.872713 -192.911896
7.932317 -23.723551 -194.896713
13.345886 -29.378325 -176.785706
17.745886 -13.104642 -197.033966
20.101362 -17.905563 -197.424377
15.960092 -31.974911 -178.962570
15.645884 -28.804647 -175.560928
8.830109 -22.567556 -196.139114
24.905693 -23.304642 -174.785721
16.945723 -17.386766 -199.729370
30.246252 -16.405533 -182.727753
30.408754 -16.404642 -188.685715
21.345884 -25.829390 -174.085709
22.931944 -15.004643 -197.485718
7.177427 -29.804638 -185.485718
9.745885 -17.404644 -196.282364
5.122405 -25.104641 -185.585709
14.045887 -13.704644 -196.847885
12.507465 -30.694221 -182.578491
11.967022 -28.204641 -176.485718
13.066623 -25.459799 -189.965149
19.845884 -14.104643 -197.627396
24.745886 -28.404646 -176.964844
24.994228 -14.304644 -195.685715
30.745886 -24.574121 -181.985703
23.960550 -23.984318 -186.550873
27.605652 -23.391422 -185.479111
19.354303 -27.787870 -183.320602
11.580985 -29.288771 -185.091202
30.432663 -16.904642 -183.085709
10.117922 -30.004169 -179.785614
29.559586 -19.702414 -189.818130
13.646450 -26.740873 -187.805145
30.228443 -22.104643 -180.785721
29.439938 -23.023985 -185.063187
16.245882 -30.766741 -176.885712
6.844213 -26.403852 -191.416061
26.545883 -14.504643 -194.465927
17.546087 -32.002880 -178.107666
25.145885 -12.804645 -194.140945
30.403658 -17.104643 -182.685715
18.781214 -19.635124 -195.570496
22.232914 -25.003256 -185.942780
29.322117 -16.604641 -192.885712
8.154978 -16.904343 -194.585358
11.516433 -20.240900 -198.319504
26.917934 -14.904642 -194.485703
18.345884 -15.004643 -198.353653
30.964016 -17.904640 -189.785721
20.581860 -28.207775 -182.096451
17.345882 -29.404640 -175.750366
9.148026 -30.814287 -183.969986
6.937046 -28.704641 -184.085709
27.345881 -26.504642 -178.048111
12.644756 -16.703825 -197.895676
14.745884 -31.134352 -177.585724
6.564553 -20.104698 -193.386230
24.835060 -22.836321 -187.765717
29.958361 -18.104643 -180.685715
21.134556 -25.576639 -185.655029
20.901762 -28.327566 -181.762344
30.730478 -24.004644 -181.785721
25.307714 -25.509552 -183.601654
30.765652 -20.304640 -182.185715
7.945271 -28.904402 -181.783813
5.240958 -24.504644 -189.285706
16.459518 -18.708584 -198.040634
23.845884 -29.604643 -177.149338
25.470085 -19.665037 -192.069305
19.951075 -24.070551 -188.505035
17.613165 -25.657516 -187.381882
16.845886 -30.652039 -176.685715
7.712763 -28.104641 -181.085709
24.078943 -17.656078 -195.739166
8.045886 -30.404640 -183.646179
20.135098 -22.298763 -191.003860
10.575613 -26.997511 -188.941772
30.954197 -17.404644 -187.385712
9.617166 -29.959032 -184.970642
24.975706 -20.053730 -191.763474
24.445871 -11.304651 -193.185593
6.445885 -26.774017 -182.185715
21.697502 -11.204644 -194.785721
7.647392 -18.905544 -194.585495
9.402493 -23.340250 -194.878464
7.386678 -26.003321 -191.908875
12.345884 -31.004644 -178.801590
29.293470 -15.804643 -191.685699
13.801856 -31.388399 -180.932388
19.623800 -27.103777 -184.183090
13.244895 -28.006308 -175.684448
13.739565 -24.757914 -190.648514
21.638132 -16.885237 -198.128876
14.396008 -26.593451 -187.641663
15.845883 -27.951546 -174.885727
10.925987 -30.730288 -183.227310
29.378325 -14.104644 -188.285706
21.945883 -26.104645 -174.447479
14.254720 -27.613079 -186.226761
30.596056 -22.804638 -181.485718
7.900373 -25.488134 -192.454514
23.296581 -17.900045 -195.812256
18.803122 -26.831190 -185.020767
11.745885 -29.404640 -177.764450
24.445885 -13.275797 -195.085709
15.745886 -29.404640 -175.967697
24.145882 -28.304644 -176.617859
17.945885 -13.504641 -197.320465
29.945881 -18.804644 -180.401367
7.881493 -28.573116 -187.933487
29.894688 -22.604645 -180.185699
30.491449 -16.604641 -183.685715
28.145887 -19.704643 -177.115463
16.545885 -30.337631 -176.485718
16.245968 -14.205965 -197.679535
15.345886 -16.304644 -198.761490
18.675741 -20.218199 -194.773834
27.712091 -11.804642 -189.285706
18.545885 -30.404642 -176.407959
28.369499 -16.804642 -194.643982
16.056301 -27.894577 -184.907013
29.725603 -14.504643 -187.385712
21.990767 -25.295061 -185.638306
10.742570 -28.404819 -177.568527
11.510165 -28.505760 -186.274811
25.060003 -27.776222 -180.415970
20.943819 -28.815641 -181.030090
30.791126 -17.004641 -185.785706
8.953819 -23.645161 -194.648743
20.546627 -21.692150 -191.680634
13.545886 -31.904646 -178.850327
12.345884 -28.096706 -176.185715
18.443661 -25.227135 -187.589966
13.565282 -28.483456 -185.306015
24.268221 -27.754162 -180.869629
29.511816 -21.704643 -179.485703
8.056361 -24.044008 -194.376801
18.845886 -26.804642 -174.046692
25.645882 -25.650517 -176.285721
19.545883 -28.588490 -175.285706
14.570862 -31.252708 -180.758484
30.445881 -19.504642 -181.527054
25.123930 -19.212656 -192.915588
21.514971 -20.212120 -193.349487
10.645885 -17.404644 -196.964569
11.417362 -24.745525 -191.836609
28.625160 -26.104645 -179.185715
16.845886 -17.004641 -199.517899
28.245882 -22.404640 -177.767532
7.145885 -17.347275 -193.585709
5.134665 -21.604639 -190.385712
29.473940 -26.241829 -180.355911
12.739317 -20.452642 -197.428802
30.738420 -21.504639 -181.885712
11.716862 -23.082773 -194.111252
16.614218 -30.564247 -180.704056
28.303810 -19.304644 -177.285721
29.309027 -22.004642 -179.185715
15.776370 -18.232271 -199.077148
5.916431 -27.404642 -188.585709
18.545885 -31.004644 -176.805939
20.345886 -27.486771 -174.785721
21.360783 -27.508987 -182.726257
28.345974 -15.408407 -193.078049
11.115406 -31.304642 -180.085724
27.165779 -19.998098 -190.698227
29.399754 -13.504642 -186.685715
26.834949 -26.204645 -177.485718
21.733713 -30.289810 -178.487885
26.327879 -11.704644 -191.585724
6.735488 -24.939505 -193.704422
17.520988 -20.599043 -194.801636
22.927637 -25.392645 -185.028793
26.145884 -23.035475 -175.685715
18.445883 -27.304642 -174.355988
13.545881 -14.108088 -196.885376
28.842863 -13.905935 -189.785660
22.488956 -26.225754 -184.033569
15.045885 -16.994110 -199.085709
19.343498 -29.953535 -180.170059
29.188320 -20.304642 -178.785706
18.728268 -26.564444 -185.475204
23.345884 -25.404648 -174.730576
16.544968 -16.703239 -199.258026
12.081668 -23.542091 -193.257599
23.945883 -11.704644 -193.968231
30.952654 -18.404642 -184.085709
23.204058 -11.304641 -194.085724
23.380188 -18.722839 -194.535492
17.445885 -29.804640 -176.035614
17.599552 -21.535950 -193.396347
5.981028 -27.004642 -190.085709
27.311226 -24.045332 -184.678528
13.420265 -18.504644 -199.185715
17.732225 -25.959862 -186.881073
13.445087 -29.807491 -177.082428
17.645884 -31.069674 -176.885712
26.346132 -22.603226 -175.741745
28.013262 -16.573881 -194.885712
29.443537 -17.504778 -179.485931
22.219402 -21.035553 -191.749146
7.480141 -20.304640 -194.785721
10.862407 -21.616030 -196.680496
21.141041 -21.636145 -191.455826
16.045883 -13.841499 -197.385712
25.444548 -24.499254 -175.686264
31.400497 -20.688629 -187.328110
15.009382 -22.480452 -193.327148
18.845886 -29.804640 -176.010483
15.180688 -25.047062 -189.499573
27.747133 -21.804708 -176.980972
10.965836 -32.004639 -181.085709
25.961746 -28.817280 -178.435364
21.345884 -26.268497 -174.285706
8.145887 -28.504641 -180.836716
27.250822 -20.979670 -189.217499
5.216845 -25.504639 -186.285706
17.584820 -18.688433 -197.550293
21.377846 -26.495447 -184.194733
13.104522 -30.020636 -183.278152
27.945883 -21.204643 -177.147034
11.545885 -29.004641 -177.528275
18.799011 -17.458147 -198.703842
29.645882 -22.804640 -179.830917
29.072664 -15.704641 -192.085709
8.319734 -28.926577 -187.202316
22.372448 -19.988737 -193.217178
28.245882 -21.204643 -177.533752
29.645882 -16.134092 -191.185715
13.636087 -32.287598 -179.528503
23.348732 -21.069929 -191.118149
29.545881 -13.528760 -183.585724
12.745883 -28.466143 -176.285721
28.845846 -14.180874 -190.185745
11.945885 -18.604641 -198.419785
15.745886 -31.304642 -177.392517
18.345884 -15.804643 -198.921463
17.463734 -23.561562 -190.512375
31.445883 -22.856018 -183.385712
30.088902 -16.204641 -182.085724
6.045886 -27.874460 -187.785721
31.703680 -21.304644 -184.785706
13.945825 -15.309101 -197.680161
29.385895 -13.004644 -183.685715
28.644232 -12.810138 -188.384918
15.145886 -13.104642 -196.770615
31.344887 -22.274195 -183.179459
22.951082 -25.683962 -184.591888
15.167162 -30.145599 -182.074738
11.545885 -16.204641 -197.030777
25.245504 -26.705711 -176.479492
25.045883 -26.204645 -176.131668
17.845884 -28.504641 -175.128983
30.126207 -20.604641 -180.585709
24.645884 -27.804644 -176.623383
14.853279 -29.904964 -176.586014
19.917892 -17.214893 -198.493546
29.292585 -22.811102 -185.434143
13.959954 -24.264303 -191.256760
25.822315 -21.146740 -189.713226
19.790529 -19.813498 -194.800995
25.972874 -13.804643 -194.285721
6.642509 -24.206209 -193.689117
27.945883 -25.404648 -178.228058
20.645884 -13.804642 -197.253098
19.345882 -15.104641 -198.427231
17.245949 -31.904585 -177.585938
24.645884 -25.204643 -175.429764
8.145887 -17.404644 -194.722961
12.445886 -18.504644 -198.664795
22.591000 -30.490543 -177.757874
19.184811 -17.673950 -198.195084
6.921891 -27.304640 -181.685715
12.845885 -18.053307 -198.685699
30.712769 -17.504642 -189.985718
29.245855 -15.504583 -191.353348
7.589827 -29.418682 -186.720886
9.545885 -18.904644 -196.662582
15.046232 -30.904963 -177.293457
27.051397 -17.497152 -194.380478
24.745886 -14.804641 -196.328995
25.845886 -24.304644 -175.929016
29.142517 -18.353729 -191.967239
22.345886 -11.825333 -195.085709
19.945887 -26.604645 -174.125854
15.945964 -15.602528 -198.500916
24.745886 -25.604643 -175.666855
29.045879 -23.968107 -179.185715
16.686321 -26.917809 -186.012726
24.344393 -11.916636 -193.886047
22.745886 -14.604640 -197.224686
12.846111 -31.302166 -178.686951
25.408806 -26.525774 -182.060516
9.297829 -30.904642 -181.885712
11.749214 -29.904514 -178.186920
28.021614 -25.568926 -182.070572
24.745886 -27.304642 -176.447662
28.745882 -22.804640 -178.530228
24.927910 -27.158909 -181.389771
20.576937 -25.541647 -185.984436
25.722370 -13.904644 -194.685715
26.742359 -22.504442 -176.086105
