-0.216606 -0.159515 0.469352
-0.277063 -0.333047 -0.371881
-0.101789 -0.130649 -0.482758
0.008042 -0.216430 -0.450601
0.045944 0.445653 0.220991
-0.169178 -0.112375 0.482922
0.243451 0.468794 0.167265
-0.203371 0.272410 -0.419337
0.269137 -0.286091 0.405275
0.198870 0.463396 0.181545
-0.245932 -0.034741 -0.499034
-0.037569 0.444288 0.223761
0.154269 -0.193854 -0.460731
-0.166641 0.277701 0.411597
0.083858 -0.016662 0.495533
-0.016222 0.289774 -0.407698
-0.082978 -0.486622 0.101639
0.019515 -0.414852 0.272738
0.126826 -0.459705 0.188484
-0.167116 -0.480549 -0.130780
-0.084745 0.468651 -0.171937
0.044506 -0.128418 0.478794
0.019149 -0.471835 -0.159833
0.144379 0.239094 0.434946
0.204246 -0.487812 -0.099666
0.275154 0.409042 0.282793
-0.167693 0.428603 -0.256564
-0.098232 0.111736 0.483197
-0.049561 -0.037438 -0.498913
0.039292 -0.263050 -0.424673
0.284375 0.258943 -0.427980
0.099436 -0.103572 -0.489247
-0.147061 -0.027671 0.495110
0.102259 -0.158565 -0.474240
-0.255417 -0.471915 0.155707
-0.174315 -0.435020 0.239427
0.021506 0.146741 0.473807
0.253343 -0.307609 -0.393345
0.130319 0.498490 -0.012451
-0.127481 0.165637 0.467702
0.281400 -0.259841 0.422524
-0.039442 -0.304830 0.391213
-0.271520 0.488810 -0.100724
0.197004 -0.142522 -0.479135
0.284706 0.194503 0.456546
-0.133856 -0.065224 -0.495910
0.260030 0.477874 0.139829
-0.042813 -0.496404 0.031764
0.219731 0.473189 0.154526
-0.103220 0.418904 -0.272472
-0.171065 0.359043 -0.348069
-0.204370 0.363891 0.338393
-0.042111 -0.497480 -0.003651
0.228229 0.423996 0.260143
-0.109427 -0.452310 -0.209755
0.147910 -0.374351 0.325687
0.175527 0.472581 -0.161235
-0.141112 -0.159515 0.469352
0.038647 -0.471309 0.157693
0.065284 -0.003273 -0.500264
-0.102292 -0.286676 -0.408957
-0.041447 0.498491 0.000041
-0.289669 0.497642 0.027936
-0.250957 0.292931 -0.405316
-0.188775 -0.149454 -0.477020
-0.024962 -0.061856 -0.496274
-0.075228 0.498231 -0.018237
0.125164 0.293783 0.400350
0.157123 -0.211850 0.448289
0.264791 0.489980 0.089854
0.218122 -0.461771 0.183190
-0.209468 0.493177 -0.075359
0.087910 0.106174 -0.488789
-0.290231 -0.497498 -0.002655
-0.051717 0.483053 0.121069
0.258940 -0.002902 0.495781
-0.232321 -0.480187 0.128596
0.145004 -0.394765 0.300790
-0.154687 0.222987 0.443427
0.044372 -0.239233 -0.438687
-0.192823 -0.497603 0.005032
0.015497 0.455026 0.201622
0.200342 0.492888 0.072106
0.151952 -0.347770 0.353694
0.013956 0.498501 -0.000505
0.148748 0.162034 -0.473190
0.024347 0.088764 -0.492436
-0.020878 0.364246 0.338029
0.250991 0.112297 -0.487506
-0.173958 0.029855 0.494946
-0.163352 0.400730 -0.298748
0.070456 -0.484219 -0.116814
-0.219848 -0.006664 0.495713
0.001020 0.423717 -0.264577
-0.142168 0.464156 -0.183917
-0.099750 -0.000949 -0.500222
0.029483 -0.355265 0.346397
0.036304 -0.266485 0.418219
0.013759 0.126641 -0.483921
0.267781 0.147615 -0.478131
0.285634 0.054365 0.492841
0.215444 0.465378 -0.180662
-0.277340 -0.033419 -0.499094
-0.046447 0.382950 0.316779
0.226576 0.492128 -0.081448
-0.131329 -0.360743 -0.344927
0.222211 0.483238 -0.124543
-0.000825 0.460005 0.189679
0.003675 -0.471274 -0.161457
-0.135314 0.498325 -0.016145
0.062300 0.445738 -0.225370
0.154148 -0.293082 -0.404477
0.052099 0.035398 0.494697
-0.261298 0.258238 -0.428385
-0.152851 -0.004792 -0.500291
0.205532 0.478534 0.137436
-0.229851 0.474875 -0.153719
0.271291 -0.089036 -0.492024
-0.180895 0.474662 -0.154417
0.182503 0.437348 0.237016
-0.154697 -0.224625 0.441993
0.148261 -0.063575 -0.496088
-0.068611 0.240980 -0.438281
-0.217856 0.451108 0.209920
0.099876 0.345700 0.356996
0.112324 -0.397103 -0.301918
-0.011611 -0.242024 -0.437218
-0.033206 0.498607 -0.009837
0.074652 0.209247 -0.454430
-0.051049 0.093249 0.487121
-0.039286 0.408007 0.284362
-0.249455 0.493469 0.068089
-0.037335 0.187346 -0.463764
0.018182 -0.268475 0.416905
0.037427 -0.388059 0.309201
0.231357 -0.452360 -0.209653
-0.119657 -0.491111 0.077054
-0.111352 0.191893 0.457718
-0.040730 0.395334 -0.305716
0.014863 0.482378 0.123514
0.116783 0.208545 -0.454775
0.072540 0.164834 0.468003
-0.066289 0.428220 0.252935
0.162143 0.458633 0.192972
-0.137008 0.425310 -0.261966
0.220660 -0.041544 0.493986
0.179129 -0.045451 0.493669
0.194865 -0.496335 0.033309
0.275509 0.496376 0.043566
0.176762 -0.081995 0.489009
-0.213687 -0.495570 -0.045214
-0.169490 0.349919 0.352745
-0.237423 -0.495699 -0.043624
-0.154875 -0.472040 -0.159237
-0.280457 0.171979 -0.469760
-0.035681 -0.414508 -0.277316
0.173909 0.356726 -0.350325
0.028109 0.432635 0.245235
-0.112157 -0.075149 -0.494414
-0.214932 0.278595 0.410972
0.121286 0.056205 -0.497234
-0.074831 0.480261 0.131182
-0.277202 0.496256 0.045044
-0.088292 0.038045 0.494579
-0.209185 0.323851 0.376785
0.257148 -0.497113 -0.024023
0.072887 0.187635 0.459447
0.139631 -0.380579 0.318582
0.030057 0.329298 0.371851
0.152867 -0.437494 -0.239328
0.072992 -0.452338 -0.209698
0.203493 0.264951 0.419786
-0.209714 -0.462972 -0.184458
0.238883 0.417742 0.269616
0.171938 -0.262601 0.420783
-0.039090 0.190742 0.458234
-0.258111 -0.374368 -0.329940
0.138426 0.473193 -0.159230
-0.009760 -0.043101 -0.498301
-0.126437 -0.489818 -0.090087
-0.055111 -0.474611 0.146871
0.220386 0.150253 0.472735
-0.199853 0.317315 0.382069
0.030499 0.468938 -0.171174
-0.080893 -0.144422 0.474376
0.082188 0.442184 -0.232120
0.216791 -0.496671 -0.031633
-0.015536 -0.491056 0.077374
-0.031663 0.380229 -0.324659
0.243156 0.184338 -0.465018
0.271629 0.137142 0.476736
-0.032117 -0.479574 0.130606
0.138911 0.202280 0.453057
-0.191353 0.047135 -0.497969
-0.063812 -0.340330 -0.365285
0.171373 -0.488876 -0.094585
0.252015 0.143113 0.474914
-0.208184 -0.488499 0.092226
0.024797 -0.177005 -0.467405
0.186845 -0.389931 0.306853
0.071599 -0.357580 -0.348176
-0.273792 0.163060 -0.472837
-0.006119 -0.320485 -0.383077
-0.012970 0.470718 0.161689
0.154981 0.317532 0.381896
0.094739 -0.494955 -0.052810
-0.096465 -0.458497 -0.195193
0.092576 0.162491 -0.473033
-0.121735 0.493027 0.071144
-0.108212 -0.440048 -0.234640
0.196968 -0.361890 0.339445
0.124415 0.411898 0.278468
0.045812 -0.378869 0.320699
0.238397 -0.345757 -0.360321
-0.012464 0.469132 -0.170656
0.167297 0.495819 0.050447
0.145034 -0.232170 -0.442406
0.116282 0.314361 -0.388996
0.093734 -0.369456 0.331091
-0.278875 0.313372 0.385213
0.139131 0.432656 0.245198
-0.014654 0.043330 0.494033
0.158931 0.014148 0.495650
0.188159 -0.497410 -0.007545
0.261086 0.384885 -0.318820
-0.106028 0.150284 -0.477244
0.118000 0.464505 -0.182988
-0.072748 -0.468442 0.165411
0.116439 -0.440000 0.229968
0.285403 0.274000 0.414185
0.125437 -0.492540 -0.071780
-0.121808 0.076797 -0.494262
-0.265234 0.189681 -0.462790
0.057267 0.435527 -0.244763
0.282102 -0.430050 -0.252310
-0.289878 -0.484584 0.110213
0.078717 -0.102203 -0.489572
0.243240 0.498157 0.018618
0.259811 -0.026017 -0.499426
0.117251 0.379925 0.320304
-0.274880 0.445322 0.221664
0.004943 0.018228 0.495467
0.024552 -0.144827 0.474265
-0.189081 0.338493 0.363523
0.248043 0.358283 0.344154
-0.228056 0.482115 0.124464
-0.074474 0.466480 0.173973
-0.160954 0.355993 0.346505
0.163179 0.269686 -0.421135
0.020561 0.286368 -0.410122
0.202390 -0.492476 -0.072222
0.146625 0.337549 0.364379
-0.086154 -0.035592 -0.498996
-0.086519 0.456078 -0.203205
0.198535 0.495484 0.054163
0.232860 -0.355873 -0.349930
-0.049953 0.313175 0.385370
-0.029438 0.436560 -0.242801
0.285777 -0.479110 0.132126
0.266295 0.496123 -0.050538
0.161019 0.497902 -0.025571
-0.131510 -0.262340 -0.425106
0.017692 0.463066 0.182338
0.007334 -0.493556 -0.064759
-0.184642 0.162107 0.469026
-0.161558 0.370117 -0.335847
0.285865 -0.370170 0.330303
0.003714 -0.488009 0.095073
-0.244774 -0.490444 0.080926
-0.180621 -0.393384 -0.306847
-0.069339 -0.346518 0.354912
-0.014491 0.463162 0.182109
-0.233637 0.274491 -0.417963
0.233500 0.498567 -0.004171
-0.089448 -0.489982 -0.089308
0.151108 -0.283270 -0.411339
-0.080023 0.476413 0.145120
-0.056068 0.416859 0.270954
0.095572 0.446613 0.219042
-0.086413 -0.491813 0.072976
0.222435 0.497496 0.029742
0.142202 -0.254631 -0.429806
0.040544 0.017524 0.495499
-0.149601 0.158655 -0.474356
0.020423 -0.245627 0.430676
-0.178065 0.395401 0.301178
-0.010719 -0.023779 0.495405
-0.140470 -0.393882 -0.306187
-0.221915 0.404625 0.288952
0.178543 -0.097183 -0.490621
0.273078 -0.085253 0.488537
-0.004464 -0.475234 -0.149979
-0.116627 -0.443717 0.222909
0.130733 0.476011 0.146343
-0.275498 -0.108290 0.483777
0.251934 -0.495660 0.040992
0.144592 0.218365 0.445839
-0.171605 0.482256 -0.128676
0.118639 0.468291 -0.172897
-0.180933 -0.271720 0.414762
-0.216050 -0.191576 -0.461754
-0.022220 0.309232 -0.393018
-0.261539 -0.492812 -0.069900
-0.223524 -0.081529 0.489076
-0.058637 0.148656 -0.477805
0.120917 -0.003306 -0.500264
-0.188851 0.160821 -0.473609
-0.227155 -0.124880 0.479771
-0.043145 -0.496895 0.020810
0.038047 0.491657 -0.084185
0.232006 -0.489358 0.087233
0.096284 -0.223973 -0.446722
0.283915 0.139740 0.475943
0.205732 0.084354 -0.493169
-0.141774 0.147178 0.473674
-0.209522 -0.018945 0.495492
0.035381 0.244054 0.432335
0.207062 0.255794 0.425368
-0.206777 -0.276900 0.411342
-0.251180 0.456944 0.197022
-0.035529 0.402813 -0.295770
0.189059 -0.494142 0.055037
-0.166682 0.392137 0.305505
0.071357 -0.491389 0.075438
0.016606 0.401839 0.292644
-0.005204 0.000456 -0.500197
0.171508 0.135317 0.477293
0.117525 0.231537 -0.443446
0.076965 -0.456665 -0.199588
-0.237301 0.054590 -0.497365
-0.024539 -0.113400 -0.486912
0.072988 0.483532 0.119331
0.111001 -0.060648 -0.496404
-0.092081 -0.447353 -0.219815
-0.232432 -0.490137 0.082711
-0.235716 -0.138150 0.476108
-0.235562 -0.497274 0.012367
-0.119310 -0.282398 -0.411949
0.162989 -0.290977 0.401663
-0.157979 0.490009 -0.093761
-0.206036 0.359669 -0.347382
0.164478 0.319012 -0.385006
0.212379 0.487921 0.099684
0.162275 0.068024 -0.495532
0.172351 -0.316974 -0.385877
-0.075677 -0.076638 0.489784
-0.194867 -0.015008 -0.499919
-0.141694 0.450180 0.211803
0.197742 -0.433064 -0.247054
0.198796 0.472958 0.155194
-0.248606 0.388318 0.310523
-0.193001 0.442416 0.227561
0.275082 -0.362223 -0.343408
-0.019434 0.330418 0.370837
0.146029 0.284749 0.406668
0.252733 0.122823 -0.484975
0.226474 0.456044 -0.203281
0.263160 0.051077 -0.497650
-0.217485 0.442697 -0.231145
0.159464 0.383763 0.315832
-0.233357 0.043029 -0.498302
0.131648 -0.397246 0.297679
0.220781 0.109509 0.483726
0.257051 0.117327 0.481868
-0.288534 -0.065091 0.491454
-0.018210 -0.439113 -0.236505
-0.184936 -0.495071 0.046441
-0.078631 -0.097472 -0.490571
0.223141 -0.095879 -0.490846
-0.053321 0.332646 -0.373306
-0.153760 -0.056213 0.492739
-0.232031 0.248547 -0.433942
0.190408 0.498309 0.010184
0.200375 -0.358728 -0.346997
-0.198770 0.455854 -0.203702
-0.196145 0.451123 0.209890
-0.119434 0.192198 -0.461741
-0.156673 0.398022 0.297704
0.259713 -0.497102 0.016192
-0.216983 0.490976 -0.088143
0.184601 0.491703 0.080293
-0.030344 -0.422423 -0.265326
-0.139474 0.480680 0.129664
0.086629 0.472605 0.156217
-0.083220 -0.476942 -0.143845
-0.121011 0.368556 -0.337570
0.042959 -0.455026 -0.203518
-0.201209 -0.459361 -0.193121
0.278633 0.452543 -0.211081
0.191891 0.345986 0.356737
0.047992 0.498516 -0.001328
-0.265058 -0.173304 -0.468794
0.151919 0.357871 -0.349210
-0.018644 0.119625 0.481322
0.055254 0.497433 -0.036034
0.114151 0.110449 0.483503
0.243454 -0.482499 -0.123713
0.197253 0.497989 -0.023630
-0.072725 0.164784 0.468022
-0.035392 0.159115 0.470031
-0.225431 0.337256 -0.369280
0.063082 0.348736 0.353960
0.023941 0.373077 -0.332578
0.034080 0.492068 0.077773
-0.184467 -0.191588 -0.461748
-0.010134 -0.270516 -0.420122
-0.028873 0.398817 0.296651
0.241708 -0.487597 0.097464
-0.166540 -0.469530 0.162511
0.154749 -0.443366 -0.227907
-0.132283 0.127153 -0.483780
-0.061103 0.498139 0.019605
0.067110 0.280997 -0.413668
0.250620 -0.461826 -0.187207
0.045584 -0.380700 -0.322560
-0.089623 0.007896 0.495931
0.022305 -0.398248 -0.300400
0.075530 0.126464 0.479697
0.119687 0.250768 0.428432
0.026680 0.281273 0.409099
0.179890 0.336084 -0.370356
-0.224268 -0.424493 0.257271
-0.198538 -0.346147 0.355274
-0.001484 0.490187 -0.092727
0.095225 0.491665 -0.084139
0.181890 -0.452973 -0.208410
-0.101325 0.279616 -0.414579
0.191758 -0.469781 -0.165785
0.131152 -0.481814 0.121872
0.201223 0.409889 -0.285653
-0.076774 -0.127630 -0.483530
-0.202370 0.162647 -0.472979
0.094394 0.021584 -0.499816
0.156410 -0.113952 0.482591
-0.233290 -0.392707 -0.307744
0.258456 0.186113 0.460019
0.025549 0.478630 -0.141411
-0.126114 -0.244387 -0.435973
0.254545 -0.039962 0.494114
0.115356 0.241770 0.433538
0.258460 0.441269 0.229887
-0.110511 -0.489474 -0.091730
0.235134 -0.371480 0.328856
-0.096112 0.258619 -0.428166
0.107753 0.247326 -0.434642
-0.074685 -0.421776 -0.266307
-0.285596 -0.496003 0.037818
-0.213456 0.479944 0.132331
-0.085904 -0.441672 0.226792
-0.266873 -0.410862 0.278442
0.236486 -0.162235 0.468414
-0.197663 0.212304 -0.452923
-0.168217 -0.490661 0.079665
-0.146162 0.195670 0.456023
-0.202628 -0.209107 0.449640
-0.143408 0.449001 -0.218974
-0.187620 0.475348 0.148264
-0.036397 -0.347782 0.353681
-0.014803 -0.297986 0.396376
-0.215194 -0.480187 0.128596
0.058061 -0.497043 -0.027041
0.126726 0.237002 0.436048
0.176576 0.023496 0.495231
0.054154 0.475005 0.149260
0.081830 0.498297 -0.016755
0.002490 0.462930 -0.187185
0.054120 0.470761 -0.166315
-0.118010 -0.368803 0.331812
-0.138778 0.210326 -0.453898
-0.081498 0.450660 -0.215279
0.281211 -0.368754 -0.336482
0.156179 -0.259440 0.422755
0.286012 0.093103 -0.491527
-0.228600 0.372717 -0.332976
-0.105818 -0.427303 -0.257100
-0.081929 -0.065366 0.491415
0.188541 -0.219882 -0.448876
0.110186 -0.164583 -0.472067
-0.162341 -0.494692 0.049946
0.248200 0.271048 0.416069
-0.069868 0.480183 -0.136321
0.219939 0.204147 0.452219
0.264720 0.379248 0.321093
0.049720 0.398444 -0.301815
-0.205397 -0.412774 0.275709
-0.067359 -0.338810 0.362416
-0.192245 0.200629 -0.458226
-0.030149 0.496529 -0.046785
0.182735 0.223433 -0.447439
0.135506 0.466756 0.173173
-0.234281 -0.012098 -0.500050
-0.259870 0.326989 0.373943
0.216195 -0.152865 -0.475979
0.001648 0.149935 -0.477364
-0.018716 0.489230 0.093432
-0.030764 0.168281 0.466710
-0.150566 -0.013982 0.495581
-0.167129 -0.300072 0.394802
0.283809 0.236759 0.436176
0.236901 -0.167934 -0.470809
-0.218068 0.016323 -0.499911
0.143985 0.403459 -0.294846
-0.037414 0.357378 0.345083
-0.052918 0.446978 -0.223015
0.248869 -0.009030 -0.500187
-0.134119 -0.182658 -0.465284
-0.048075 -0.044864 0.493717
-0.007534 0.348908 -0.357936
0.285626 0.383900 -0.320055
0.204139 -0.269918 0.415952
-0.015029 -0.177023 -0.467399
0.205508 0.441791 -0.232866
0.116320 -0.422535 -0.265157
-0.152860 -0.480608 0.126946
0.003053 0.409321 -0.286465
-0.182835 -0.497124 -0.023388
0.249949 0.098424 0.486230
-0.268428 -0.236927 0.435665
-0.038136 0.258663 -0.428141
-0.138552 -0.408826 -0.285923
0.231144 0.368368 0.333773
0.251579 -0.278928 -0.414375
0.104552 0.247349 0.430517
-0.046955 -0.380631 0.318516
0.070408 -0.218646 0.444940
-0.200521 -0.027493 -0.499359
-0.068064 -0.222429 0.443075
-0.158459 0.171455 0.465519
0.014103 0.373905 0.327319
0.158199 0.288608 0.403969
-0.010523 -0.079523 0.489366
-0.025971 0.237584 0.435742
-0.194377 -0.052054 -0.497333
-0.091270 -0.003988 0.495761
0.201450 0.030049 -0.499353
-0.107535 0.493795 0.065835
0.285834 -0.411143 0.278040
0.237363 0.102725 -0.489511
-0.099089 -0.496252 0.035146
-0.236940 0.495979 0.048468
-0.165887 -0.082303 0.488964
0.024814 -0.158294 -0.474323
0.222543 0.495800 -0.053530
0.264403 0.175423 0.464030
-0.044960 0.368439 0.333690
0.160529 -0.494677 0.050090
-0.230921 -0.231604 -0.442704
0.140633 0.498116 0.020857
-0.223310 0.440275 0.231906
-0.214332 -0.493861 -0.062649
-0.029127 0.487366 0.102332
-0.240618 -0.415824 -0.275322
-0.249265 -0.473623 -0.154650
-0.021180 0.129367 -0.483169
0.046991 -0.475617 0.143574
0.180539 0.498394 -0.014596
-0.096287 0.478286 0.138335
-0.120099 0.123619 -0.484755
0.068198 0.395866 0.300562
-0.274108 -0.439752 0.230440
-0.058773 0.247627 0.430347
0.140154 0.441202 -0.233985
-0.201262 -0.490140 0.082692
0.172092 0.406428 -0.290601
0.122891 0.450087 0.211994
0.147906 0.397295 0.298668
0.198978 -0.478654 0.133621
-0.177983 0.498569 -0.004276
-0.020312 0.455482 -0.204533
0.192783 0.295840 -0.403121
-0.142390 -0.082135 -0.493212
0.233446 0.295831 0.398918
0.231013 0.123493 -0.484790
0.054350 0.456259 0.198665
-0.283404 0.090358 0.487619
-0.241756 -0.135841 -0.481174
-0.252331 -0.409855 0.279882
0.198242 -0.021378 -0.499634
-0.222172 -0.111191 0.483170
0.246075 0.459924 0.189875
-0.010160 -0.424162 0.257814
-0.175255 -0.213936 -0.451720
-0.207097 -0.042636 0.493897
0.277503 -0.424280 0.257620
0.032200 -0.479899 0.129542
-0.199061 -0.464214 -0.181480
-0.153224 -0.142970 0.474777
0.248727 0.486573 -0.110510
0.171549 -0.307979 -0.393049
-0.170471 -0.247288 0.429723
0.119421 0.330008 0.371209
-0.008518 -0.225105 -0.446126
0.017758 0.477070 0.142743
-0.120187 -0.197895 0.454585
0.049591 0.168062 0.466792
0.054045 -0.468312 -0.170045
0.039269 -0.318338 -0.384790
-0.080000 0.461428 0.186267
-0.043038 -0.448926 0.212504
0.159761 -0.449025 0.212285
0.171164 -0.096166 0.486317
0.029982 -0.254976 -0.429595
0.131519 -0.073523 -0.494694
-0.156712 0.495338 -0.057802
-0.096699 0.498342 0.008343
-0.196784 0.437155 -0.241671
0.271267 0.245544 0.431550
0.082653 0.385162 0.314201
0.221870 0.105500 -0.488930
0.193598 -0.323192 -0.380807
0.209435 0.491522 -0.084968
0.088492 0.312870 -0.390273
-0.164598 -0.054908 -0.497025
-0.151882 0.276792 -0.416444
0.133516 0.491166 0.084005
0.146267 -0.497413 0.009264
0.033888 0.198432 -0.459142
0.219203 -0.067613 -0.495652
0.237595 -0.115801 -0.486341
-0.130428 -0.292995 -0.404537
-0.135029 0.240207 0.434360
0.032900 -0.301881 -0.397912
-0.050166 -0.477989 0.135799
0.206670 0.000635 0.495844
0.050153 0.282106 -0.412936
-0.253463 -0.042241 -0.498394
-0.078753 0.182638 -0.465726
-0.069464 0.490441 -0.091248
-0.103989 0.475314 -0.152279
-0.127622 0.469436 -0.169845
-0.203661 0.494538 -0.065211
-0.076505 0.442517 -0.231487
0.176357 -0.171195 -0.469585
-0.262867 0.476362 0.145306
0.125475 -0.417981 0.267952
-0.026906 -0.370510 0.329928
0.144584 -0.177602 0.463045
0.281820 0.327044 0.373893
0.078996 0.384511 -0.319289
0.037991 0.265622 -0.423818
0.064521 -0.492197 -0.074153
0.136856 0.114766 -0.486989
0.041259 0.173823 -0.469124
0.106224 -0.494886 0.048150
0.030857 0.495450 0.054397
-0.195268 0.382681 -0.321584
-0.156471 0.297229 0.397940
0.011284 -0.332524 -0.372355
0.042457 0.330355 0.370895
-0.288837 0.497954 -0.024409
0.083827 0.341947 0.360395
0.244859 0.497846 -0.026808
0.114910 -0.452402 -0.209569
0.100570 0.377879 -0.327276
-0.218977 0.497296 0.032205
-0.271947 0.089918 0.487695
-0.172421 -0.238528 -0.439058
0.160218 0.311624 -0.391214
-0.176139 -0.187502 0.458918
0.249599 -0.324465 0.375094
-0.193479 -0.496392 -0.035074
0.216963 -0.432651 -0.247773
-0.171645 -0.030679 0.494866
-0.104720 0.485848 0.109578
-0.025174 -0.430005 0.248229
0.025619 0.395369 0.301221
-0.044550 0.073624 -0.494722
-0.006897 -0.433590 0.242143
0.224516 -0.222617 -0.447436
-0.141873 -0.417264 0.269128
-0.035816 0.441762 -0.232922
0.138744 -0.294477 0.399023
-0.042234 -0.313556 -0.388603
0.133088 0.057597 0.492492
0.135440 0.497458 0.030210
-0.018372 0.318247 0.381326
0.203576 -0.472451 -0.158048
-0.288649 0.390521 0.307646
-0.254789 0.401505 0.293087
-0.131434 -0.436497 0.236622
0.010702 -0.325127 0.374526
-0.075476 0.428780 -0.256274
0.253740 0.303852 -0.397077
-0.286343 -0.201864 0.452930
-0.274439 0.363952 0.338330
-0.007044 0.184510 -0.464946
0.098644 -0.005631 -0.500306
-0.269881 -0.429882 -0.252602
-0.259955 -0.465522 -0.178134
-0.095197 0.083415 0.488814
-0.029883 0.435922 0.239502
0.162176 0.472902 -0.160185
0.022374 0.485087 -0.116765
-0.042291 0.220577 0.444696
0.012723 0.494369 0.061868
-0.212848 -0.426596 0.253821
-0.035246 0.452164 -0.211926
-0.236496 -0.461082 0.185026
-0.218408 -0.490065 0.083126
-0.226973 -0.493299 -0.066535
0.042545 0.073686 -0.494712
-0.063274 0.220023 -0.449119
-0.261827 0.268773 -0.421738
0.145602 -0.076704 0.489774
-0.043329 0.471208 0.160267
-0.277635 0.454622 -0.206449
0.005985 -0.497409 -0.007597
0.154397 0.495338 0.055170
0.262935 -0.336294 -0.368940
-0.258267 -0.496199 0.036003
-0.030937 0.456399 -0.202488
0.075115 0.488807 -0.100740
-0.178005 0.447739 0.216758
0.090894 -0.415427 -0.275923
-0.258633 -0.496010 -0.039786
-0.191637 -0.226788 -0.445240
-0.287293 -0.489720 0.085129
0.100462 -0.390528 -0.310633
-0.015920 0.485056 -0.116894
0.045018 0.477407 0.141522
0.163813 -0.428788 -0.254509
0.191407 0.174239 -0.468980
0.040270 -0.040427 0.494076
0.186072 -0.365773 0.335157
-0.042434 0.153837 -0.476018
-0.209733 -0.081701 -0.493286
-0.000853 -0.276807 -0.415859
-0.061786 0.492131 -0.081435
-0.122982 0.394280 -0.307038
-0.141071 -0.469072 -0.167843
0.080691 0.401080 -0.298248
0.025869 -0.407636 0.283055
0.042390 -0.459758 -0.192169
0.190123 -0.400168 -0.297854
-0.059841 0.495101 -0.059999
0.072289 -0.195620 0.455533
0.065755 -0.199023 -0.458412
-0.139308 0.443476 0.225410
0.066944 0.143295 0.474858
0.241760 0.320760 0.379322
0.038448 0.498127 -0.020546
-0.045702 -0.223253 0.442670
0.181464 -0.462445 -0.185724
-0.207349 0.141162 0.475509
-0.086102 -0.325187 -0.379000
0.187388 -0.353784 -0.352076
-0.012586 -0.099843 0.485547
-0.205583 0.046023 0.493742
0.141854 -0.329093 -0.375462
-0.113021 0.315780 -0.387779
-0.061856 0.087309 0.488144
0.256513 -0.249460 0.428477
0.089414 0.033786 -0.499051
-0.224132 0.486262 0.107601
-0.109020 0.498225 0.014824
-0.049630 0.403474 0.290478
0.151564 0.470746 -0.166355
0.261170 0.494945 -0.061439
0.048870 -0.275385 0.412343
-0.195306 -0.338128 -0.367279
0.016160 0.391504 0.306343
0.058163 -0.496773 0.023530
0.173482 0.463281 -0.186249
-0.246274 0.465522 -0.180277
0.098001 0.416996 -0.275491
-0.022504 -0.482717 0.118072
0.013129 -0.315157 0.383080
0.185312 -0.345909 -0.360164
-0.275712 0.028340 0.495014
-0.012915 -0.417158 0.269302
0.108915 -0.347178 0.354269
0.145520 0.377371 -0.327837
0.132735 0.477544 -0.144970
-0.043207 0.494907 -0.061792
-0.139220 -0.376870 -0.327024
-0.178950 -0.317672 0.380923
0.133327 -0.488972 -0.094125
0.169967 0.494568 -0.064930
-0.191592 0.464780 0.178227
-0.235981 0.336741 -0.369781
0.285706 -0.496468 -0.034141
-0.133784 -0.111988 0.483003
-0.109331 0.498120 -0.020696
0.001933 -0.477830 0.136321
-0.277851 -0.329860 0.370464
-0.235674 0.346345 -0.360431
0.267991 0.039830 -0.498561
-0.016004 -0.088236 -0.492161
0.248754 0.350236 0.352419
0.142329 -0.314111 0.383978
-0.108335 0.452234 0.207635
0.028961 0.474448 0.150875
0.286432 -0.409368 -0.285102
-0.168641 -0.473819 0.149466
-0.155075 -0.169409 0.465939
0.000735 -0.159729 0.469279
0.154871 -0.127355 -0.483595
-0.127186 0.485188 -0.116340
-0.283976 0.329553 -0.375960
0.177688 0.303763 0.392875
-0.252492 0.090825 -0.492004
0.168342 -0.091467 -0.491605
-0.009437 -0.446471 -0.221604
-0.095601 -0.219089 0.444722
-0.055267 -0.347460 0.353995
-0.040811 0.497947 -0.024559
0.037949 -0.312230 0.385592
0.149693 0.196317 0.455733
-0.122055 0.401916 -0.297052
0.117478 -0.216617 -0.450516
-0.025681 0.496022 0.047935
-0.211514 -0.210997 -0.453039
0.013658 0.462640 -0.187957
-0.086562 0.498495 -0.012347
0.098720 -0.093043 0.486971
-0.064553 -0.489016 -0.093918
0.244266 -0.443038 0.224198
-0.212032 0.497524 -0.033983
-0.112181 0.317283 0.382094
-0.126013 -0.339182 0.362054
-0.271064 0.352118 0.350486
-0.059834 -0.097604 -0.490549
0.254377 -0.297350 0.396856
0.284036 -0.470686 -0.163162
-0.080214 -0.018103 0.495507
0.228265 0.461428 -0.191189
-0.273357 -0.057127 0.492606
0.078242 0.497323 0.031884
-0.149779 0.486054 -0.112694
0.137871 0.130582 0.478718
-0.165653 -0.496385 -0.035164
-0.167465 -0.416450 0.270453
0.176305 0.019946 -0.499845
-0.108793 0.327092 -0.378073
-0.113202 -0.470773 0.159199
0.192949 0.401633 -0.297458
-0.007003 -0.478538 -0.138065
-0.245718 0.341430 -0.365216
-0.019486 0.001475 -0.500178
-0.028398 0.293971 -0.404531
0.153305 -0.485989 -0.108366
0.000270 0.485896 0.109346
0.252633 0.097813 -0.490540
0.155450 -0.497399 -0.008140
-0.062055 0.040345 -0.498519
0.121360 0.226355 0.441654
0.069196 -0.123931 -0.484409
0.024755 0.483435 0.119684
-0.056115 0.496454 0.042602
0.135272 0.360461 0.341916
-0.242078 -0.097104 0.486121
0.149417 0.334211 -0.371963
-0.060674 -0.117309 0.481861
0.144221 0.467047 -0.176213
-0.151702 0.074781 0.490300
0.105080 0.497709 -0.029877
0.136619 -0.416026 0.271059
0.038367 0.254164 -0.430721
0.248905 0.409900 -0.285637
-0.178250 0.467015 0.172423
-0.202360 0.478935 0.135984
-0.041872 -0.004920 0.495744
0.030143 -0.491131 -0.081521
-0.197302 0.342890 0.359540
0.152744 0.366148 -0.340229
0.284269 -0.026714 -0.499394
0.053722 -0.135092 0.476952
-0.064732 -0.212680 0.447880
0.272081 -0.153359 -0.475828
-0.205145 0.345604 -0.361153
0.046445 0.359179 -0.347922
0.107145 -0.234578 -0.441138
0.279108 -0.270190 -0.420320
0.117522 0.455610 0.200221
0.009142 0.066630 -0.495733
0.104520 -0.494761 -0.055203
-0.133914 -0.221623 0.443473
-0.150813 -0.407890 -0.287340
-0.262303 -0.482163 -0.124931
-0.247010 0.391815 -0.310130
-0.223612 0.121742 -0.485273
0.202885 -0.397754 -0.301055
0.253925 0.087567 -0.492687
0.264741 -0.377141 0.322607
0.058884 -0.151058 -0.476531
0.213150 -0.269706 -0.420616
0.135090 0.247383 0.430496
0.090728 -0.130597 -0.482774
-0.193001 0.374465 0.326667
0.283334 0.493569 0.067395
-0.231450 0.443062 -0.230453
-0.038192 0.271945 -0.419644
-0.273798 0.456932 0.197052
-0.275163 -0.347377 -0.358656
-0.288778 -0.496541 -0.033229
0.101841 -0.487996 -0.098787
-0.230003 0.213092 0.448205
0.016754 0.221304 0.444314
0.077173 0.323377 -0.381260
0.282954 -0.092588 0.487067
0.060421 -0.485561 0.106104
0.137550 -0.427438 0.252439
0.154136 0.496323 0.044223
-0.112283 -0.377344 0.322382
0.058556 -0.312421 -0.389507
0.086006 0.494675 -0.063940
-0.148451 0.440313 -0.235673
-0.021048 0.247206 0.430604
0.108775 -0.005657 -0.500307
-0.185057 -0.434064 0.241242
-0.186542 0.327651 0.373344
-0.172623 0.067358 0.491437
0.261079 0.498270 0.012308
-0.227773 -0.185908 -0.464064
-0.035367 0.474110 0.151855
-0.230451 -0.263082 -0.424654
0.092001 -0.025214 0.495309
0.166445 -0.380162 -0.323187
-0.098107 0.184788 -0.464830
-0.081034 -0.108758 -0.488015
0.027063 0.257609 0.424262
0.025336 -0.170537 0.465550
0.209145 0.227052 -0.445656
-0.234192 -0.494753 -0.055302
-0.260263 0.201642 0.453343
-0.038555 0.120121 0.481205
0.005005 0.434839 0.241392
-0.179143 0.057606 0.492491
-0.134000 0.493026 -0.076236
-0.125185 0.235045 0.437078
-0.174733 0.086424 -0.492870
-0.169643 0.495862 -0.052958
-0.271569 -0.099682 -0.490172
0.262990 -0.453960 -0.206074
0.159295 -0.101070 0.485290
0.025644 0.415796 -0.277206
-0.036220 0.200286 0.453952
0.189690 0.215135 -0.451528
0.146410 0.348359 0.354347
-0.123348 0.152517 0.472045
-0.015982 0.219848 -0.449206
0.199705 0.114290 -0.487088
-0.117262 0.146290 -0.478497
-0.103629 -0.119294 -0.485511
0.049621 -0.044448 -0.498155
0.214941 0.493340 -0.074409
-0.072885 -0.497310 -0.013074
-0.290153 -0.293243 -0.404364
-0.084810 0.339694 0.362435
0.094938 0.489503 0.092132
-0.269848 -0.342054 0.359258
0.285357 0.431057 -0.252537
0.044529 0.497435 0.030494
-0.040075 0.176208 0.463735
0.160844 -0.282276 0.407793
0.195739 -0.231450 -0.442785
-0.158865 -0.157115 -0.474683
0.196652 0.294352 0.399952
0.254122 -0.497521 0.006865
-0.024707 -0.497414 0.009240
0.039252 0.332367 -0.373546
-0.100884 0.040090 -0.498540
-0.244900 -0.493171 -0.067417
-0.089499 -0.415811 0.271367
-0.189839 -0.130502 0.478219
0.282689 -0.350807 0.350737
0.198199 -0.290122 -0.406547
-0.036188 0.462046 0.184784
0.242776 -0.292234 0.400715
0.032401 0.496822 0.038062
0.173335 -0.329097 0.371119
0.275997 -0.494341 0.053195
-0.204325 0.487116 -0.108227
0.004662 -0.300016 0.394844
-0.262357 0.263695 0.420551
-0.241969 0.228887 -0.444752
0.151826 0.012073 -0.499987
-0.026099 -0.274109 -0.417746
0.089842 0.484294 -0.120098
0.026178 -0.484652 0.109929
-0.109977 0.498651 -0.008799
-0.184573 0.203033 0.452719
-0.065509 -0.191618 0.457202
-0.219409 0.167125 0.467144
-0.086480 0.165746 0.467661
0.202472 0.344685 -0.362047
0.285630 -0.430867 0.246814
-0.104136 0.456209 -0.202913
0.016264 -0.277587 0.410889
0.033630 0.081094 -0.493641
-0.241789 0.294590 0.399785
0.169684 0.043936 -0.498228
-0.022235 0.302985 0.393495
-0.238484 -0.000677 -0.500217
-0.054607 -0.426826 0.253444
-0.011532 -0.260478 -0.426241
0.027743 0.026935 -0.499606
-0.255727 0.490840 0.085749
-0.123419 -0.330150 -0.374505
0.033011 -0.486881 -0.104109
0.100914 0.475508 0.147803
0.190134 -0.474724 -0.151457
0.024760 -0.198680 -0.458566
0.252140 0.173643 0.464698
-0.198048 0.097147 -0.490680
0.161722 0.105340 -0.488963
0.181685 0.035132 -0.498942
0.110725 -0.187163 0.459059
0.251807 -0.203406 0.452287
0.130788 -0.033436 0.494642
-0.068759 0.147134 0.473687
-0.181162 0.425481 -0.261685
-0.144389 -0.221381 0.443592
-0.204467 -0.430266 0.247801
0.227665 0.043209 0.494046
0.067205 -0.157976 -0.474420
0.073670 0.472830 0.155564
0.184008 -0.423039 -0.264393
-0.168056 0.422450 -0.266656
0.046102 -0.295164 0.398504
-0.068977 -0.370453 -0.334502
0.231318 0.286231 0.405631
0.266832 0.426421 0.256072
-0.268816 0.486564 0.106162
-0.111763 -0.448191 0.214142
0.222396 0.344998 -0.361743
-0.032119 0.476474 -0.148477
-0.242284 -0.496250 0.035195
0.092597 -0.497615 0.003856
0.037501 -0.345786 0.355624
-0.193134 0.408980 0.282888
-0.101568 -0.407279 0.283565
0.069859 -0.440531 0.228960
0.031184 0.353180 0.349395
-0.200499 -0.424197 0.257755
-0.189245 0.491424 0.082224
-0.027308 -0.255171 0.425202
-0.176184 -0.488435 0.092593
-0.073434 -0.214217 -0.451594
-0.261018 0.234457 0.437388
-0.163141 -0.435847 0.237856
0.279135 0.008866 -0.500045
0.039541 0.378550 -0.326536
-0.129400 0.175391 -0.468583
-0.046803 -0.432282 -0.248417
0.134627 -0.495393 0.043459
0.235439 -0.496464 -0.034181
-0.050801 -0.310345 0.387052
0.117465 -0.236837 -0.439949
-0.205935 -0.463693 0.178068
-0.196255 -0.118399 0.481560
-0.105565 -0.059129 0.492317
-0.090839 -0.060126 0.492173
-0.126575 0.209357 -0.454375
-0.183120 0.487431 -0.106898
0.001711 0.428645 0.252193
-0.083960 -0.253472 0.426177
-0.124656 0.281923 0.408644
0.255467 0.321950 0.378373
-0.181880 -0.473711 0.149821
0.043498 0.209685 0.449734
0.122830 0.497173 0.033733
0.136859 -0.497336 -0.011614
0.097911 0.432303 -0.250494
-0.135127 -0.300778 0.394269
-0.073090 -0.363071 -0.342536
-0.186183 0.336698 -0.369823
0.145432 0.478660 -0.141312
-0.276884 0.419347 0.267184
-0.284166 -0.054275 0.492954
-0.188698 -0.428810 0.250190
-0.241837 -0.432364 -0.248274
0.037789 -0.178016 -0.467026
0.283357 0.394981 0.301735
-0.134054 -0.280590 0.408907
-0.152991 0.468989 -0.171039
-0.098595 -0.289967 0.402425
-0.130228 -0.040130 -0.498622
0.099979 -0.465019 -0.179549
0.128194 -0.174893 -0.468198
-0.277147 0.380436 0.319708
-0.275300 0.022334 -0.499802
0.053836 -0.483955 -0.118075
0.036747 0.451451 -0.213514
-0.259736 -0.014992 -0.499920
-0.199792 -0.397873 0.296894
-0.232543 0.498109 -0.020944
-0.014041 -0.495078 0.046379
-0.178925 -0.400708 -0.297139
0.053159 0.288676 0.403922
-0.087578 -0.456214 0.196263
-0.016931 -0.376990 -0.326883
0.077300 0.448392 0.215433
0.022174 0.493446 -0.073792
0.215848 0.139739 -0.480305
-0.158370 -0.447812 0.214988
0.099078 0.322890 -0.381677
0.120175 -0.339521 -0.366018
-0.115973 -0.186001 -0.464029
0.142677 -0.470748 0.159265
0.222267 -0.305396 -0.395109
-0.049762 -0.471823 -0.159866
-0.268809 -0.305972 -0.394650
0.216886 0.317971 -0.385899
0.083911 -0.487071 0.099747
0.012859 0.054886 -0.497341
-0.061913 -0.320646 -0.382949
-0.195985 0.402526 0.291733
0.062934 0.463601 -0.185396
0.086475 -0.496003 0.037815
0.010823 -0.483745 -0.119077
0.181453 -0.279721 -0.413821
0.227183 -0.491657 0.073882
-0.106229 -0.466810 0.169760
0.210535 0.328990 0.372131
-0.228135 -0.155781 0.470640
-0.285709 0.332831 0.368652
0.075193 0.078400 0.489678
-0.285024 0.494886 -0.061988
0.179808 -0.036952 -0.498935
0.040742 0.496082 0.047201
0.095087 -0.385019 -0.317526
0.282942 -0.330298 -0.374371
-0.015084 -0.464029 -0.181924
-0.139191 -0.474085 0.148594
-0.196540 -0.040799 -0.498550
0.043673 -0.354039 0.347590
0.111365 -0.267486 -0.421969
0.274637 0.175446 0.464021
0.017214 0.182487 -0.465789
-0.287648 -0.105104 0.484445
0.190827 0.372729 -0.332963
-0.114396 -0.024524 -0.499493
0.178184 -0.487009 -0.103499
-0.096482 -0.495252 -0.049141
0.184272 0.380494 0.319641
-0.126422 0.258787 0.423543
-0.100524 0.443299 -0.230003
0.077234 0.146952 -0.478314
-0.091718 0.492678 -0.078256
-0.172329 0.457278 0.196220
0.069974 -0.497395 -0.008374
-0.230730 0.353992 -0.352987
0.165988 -0.057401 0.492567
-0.171619 0.487439 0.101985
-0.221336 0.069535 -0.495313
-0.130352 -0.497277 -0.014925
-0.258319 -0.443579 -0.227473
-0.236351 -0.041431 -0.498481
0.076272 0.064976 -0.495973
-0.027451 -0.299115 0.395524
0.253929 0.478614 -0.141463
-0.246590 0.113478 0.482783
0.049830 0.228784 -0.444803
0.076842 -0.219936 -0.448848
0.066557 -0.497587 0.002284
0.150496 0.418728 -0.272762
-0.290246 -0.251171 -0.431915
0.096718 -0.241334 -0.437581
0.099144 -0.490857 0.078528
-0.048016 0.498644 -0.008458
0.268846 0.295951 -0.403037
0.051474 -0.321502 -0.382267
-0.117881 -0.229356 -0.443888
-0.222931 -0.066408 -0.495782
-0.229290 -0.468959 -0.168170
-0.226233 -0.476308 0.141309
-0.285240 -0.491704 -0.077560
-0.043993 -0.275874 0.412020
0.169637 -0.165670 0.467229
0.169067 0.422492 0.262421
0.042257 -0.394128 -0.305861
-0.189099 -0.061443 -0.496319
-0.023337 -0.169800 -0.470109
0.109945 0.277482 0.411750
0.028431 0.404991 0.288466
-0.157337 -0.000654 0.495821
0.057847 0.480803 -0.134288
0.182697 0.432789 -0.249697
-0.258449 -0.092506 0.487084
0.249690 0.479273 0.134760
-0.100831 0.165275 0.467838
-0.087769 0.250516 0.428586
0.153869 0.449495 -0.217873
0.025658 0.480022 0.132048
-0.288249 -0.421940 -0.266059
0.072366 -0.268860 0.416650
0.089041 0.428007 -0.257541
0.035815 -0.083931 -0.492902
-0.219707 -0.097804 0.485974
0.080700 -0.436640 0.236349
-0.123760 0.496946 0.036529
0.169023 0.349764 0.352904
0.138661 -0.439676 -0.235395
-0.047639 0.336459 0.365365
-0.251963 -0.330980 -0.373753
0.196679 0.406500 0.286467
0.047715 0.273451 -0.418649
-0.044047 0.174051 -0.469045
-0.218728 0.427692 -0.258057
0.127536 0.424864 -0.262696
0.099019 0.495784 0.050870
0.129210 -0.497516 -0.001635
0.093698 0.422580 0.262287
0.085821 0.233770 -0.442346
-0.026956 -0.495932 -0.040746
0.264600 0.473197 -0.159219
0.120723 0.383689 -0.320321
0.087245 -0.461925 0.182779
-0.149792 0.177761 0.463153
0.228466 0.463474 0.181359
0.153668 0.498401 0.005069
-0.014440 0.494426 0.061474
-0.130526 0.430843 0.248361
-0.105207 0.427435 0.254304
-0.016158 -0.423213 -0.264130
-0.103119 -0.496984 0.018832
0.086371 0.497659 -0.030974
-0.033771 -0.338112 0.363095
-0.085986 0.045233 -0.498123
-0.133339 0.237272 -0.440407
-0.048234 -0.128502 0.478771
-0.290235 -0.221825 0.443373
0.100262 0.038118 -0.498700
-0.242446 0.168836 0.466502
-0.289963 0.479599 0.133578
-0.211338 -0.387350 -0.314810
0.186520 0.479552 -0.138390
-0.052908 0.446699 0.218868
-0.036757 -0.009268 -0.500177
-0.250808 -0.099569 -0.490199
-0.024329 0.322819 -0.381739
0.170166 -0.007233 0.495703
-0.155871 0.461975 0.184955
0.131870 0.496536 0.041596
-0.220043 -0.459650 -0.192427
0.044450 -0.456079 0.196564
0.145432 0.436207 -0.243471
-0.268833 0.184071 0.460785
-0.037543 -0.105849 -0.488706
-0.104354 -0.258891 0.423069
0.252465 0.015628 0.495584
-0.104459 -0.494787 0.049070
-0.035141 -0.483227 0.115924
-0.211963 0.369936 -0.336046
-0.004171 -0.091402 -0.491616
-0.013602 0.153129 -0.476262
0.273904 0.463029 -0.186922
-0.118502 -0.037931 -0.498860
-0.010417 -0.485148 -0.112381
-0.148669 0.397599 -0.302875
-0.184922 0.417994 -0.273966
-0.039707 0.388130 -0.314750
0.256096 -0.469355 -0.167022
-0.259101 0.488718 -0.101257
-0.159221 -0.307608 0.389117
0.257582 0.155682 -0.475382
0.127473 -0.489422 0.086860
-0.130344 0.494787 0.058977
-0.220645 -0.372436 -0.332191
0.244933 -0.172312 0.464938
0.286926 0.355870 -0.351159
-0.193678 -0.444384 0.221642
0.113788 0.497756 0.026533
-0.088393 0.111830 -0.487604
-0.241876 -0.363033 0.338183
-0.223134 -0.487528 0.097825
0.087430 0.418371 -0.273347
0.279265 -0.492543 -0.071759
0.003217 0.436861 -0.242230
0.242128 0.212167 0.448620
0.007134 -0.448715 0.212974
-0.119171 -0.199208 -0.458329
-0.069225 0.475687 0.147282
-0.289088 -0.494452 0.052165
-0.037450 -0.130887 -0.482685
0.044121 0.417671 -0.274495
0.096912 0.454462 0.202976
-0.247286 -0.207614 0.450376
0.246477 -0.355561 0.346108
-0.149812 -0.313693 0.384336
0.150540 0.287246 -0.409542
-0.131311 0.322969 0.377561
-0.191878 -0.278242 -0.414856
0.248154 -0.412885 -0.279773
-0.260749 -0.403169 0.289443
0.040934 -0.075137 0.490001
0.271326 0.364944 -0.341558
0.199618 -0.490556 -0.085493
-0.289759 0.021899 -0.499810
-0.196340 -0.098375 0.485855
0.205062 0.177639 0.463199
-0.056546 0.388000 0.310894
-0.284358 0.203962 0.452302
0.144590 -0.103543 -0.489254
0.259108 0.438426 -0.239258
-0.000826 -0.438546 0.232729
-0.048088 0.237400 0.435839
-0.151780 0.096363 -0.490844
0.023784 -0.297847 -0.401129
0.210858 0.108779 -0.488243
0.201404 0.207060 0.450912
0.107824 0.468293 -0.172891
0.180491 -0.491659 0.073867
0.097614 0.487413 -0.106975
-0.287481 0.363446 0.338850
-0.270535 0.010993 -0.500007
0.269002 -0.127473 0.479055
0.028909 0.361659 0.340686
-0.069329 -0.308471 -0.392657
-0.129793 -0.146639 -0.477879
0.168038 -0.481675 -0.126699
-0.199776 0.160661 0.469560
-0.221809 -0.205319 -0.455586
-0.069022 0.474901 -0.153634
0.052435 0.008303 0.495913
0.114945 0.218397 -0.449921
-0.010523 0.459801 -0.194907
-0.005026 -0.319051 0.379739
-0.126180 -0.426330 -0.258797
-0.057604 0.423028 0.261610
-0.123496 0.362954 0.339356
0.265326 -0.497515 -0.001718
-0.074063 -0.443328 0.223647
-0.246164 0.490488 -0.090976
-0.105498 -0.310795 -0.390804
0.107687 0.344100 -0.362618
0.266947 0.467244 -0.175687
-0.139377 0.376426 0.324381
0.003926 -0.035073 0.494510
0.242636 0.047898 -0.497907
-0.023791 -0.468076 0.166385
-0.137102 -0.143200 0.474714
0.277703 -0.057256 0.492588
0.248890 -0.134949 -0.481446
-0.016911 0.476244 -0.149232
-0.263705 0.346890 0.355856
-0.250243 -0.144276 0.474417
-0.126874 0.449087 0.214021
-0.013081 -0.415714 -0.275489
-0.056436 0.214680 0.447492
-0.229604 -0.342807 0.358525
-0.166083 -0.122970 0.480298
0.020520 0.073190 -0.494784
0.257561 0.450638 -0.215327
0.286251 -0.475735 0.143186
0.004111 0.473825 0.152682
-0.268774 -0.435276 0.238940
0.189262 0.025175 -0.499748
0.100108 0.130144 -0.482954
0.053681 -0.343788 0.357570
0.076583 -0.227810 0.440424
0.092048 0.281992 -0.413011
-0.027725 0.493027 0.071142
0.119211 -0.479296 -0.135317
0.271401 0.268077 0.417880
-0.038638 0.281843 -0.413109
-0.148852 0.445571 0.221157
-0.122514 0.190030 0.458549
-0.100847 0.337716 -0.368832
-0.261668 0.490913 -0.088506
0.035524 -0.482645 0.118372
0.054006 0.028237 -0.499500
0.215510 -0.493173 -0.067401
-0.038115 -0.063423 0.491696
-0.174552 -0.492697 0.067838
0.111998 0.480202 0.131396
0.192747 0.122720 -0.485003
0.003621 -0.481239 -0.128278
0.016118 -0.463860 -0.182330
0.014976 -0.183278 0.460679
-0.245264 -0.408781 -0.285991
-0.240060 -0.151163 0.472234
0.153726 0.255370 -0.430029
-0.076122 -0.473294 0.151189
0.090651 -0.204932 0.451651
-0.024746 0.494700 0.059580
0.074555 -0.424511 0.257241
0.178525 -0.490763 -0.084060
0.270268 -0.023498 -0.499539
-0.042914 0.245085 -0.435927
-0.032231 0.249679 0.429096
0.154356 0.238486 -0.439711
0.260942 0.290067 0.402949
-0.060392 0.140670 0.475659
-0.155093 -0.286700 -0.408940
-0.087294 0.464615 0.178622
0.218887 0.450087 0.211993
0.227735 0.355742 0.346763
-0.073342 0.255139 -0.430162
-0.263977 -0.126774 0.479248
-0.089897 0.228727 -0.444830
0.116695 0.343872 0.358652
-0.203004 0.076311 0.490037
0.157706 0.399627 0.295577
0.276005 0.488604 0.096421
-0.169471 -0.444763 -0.225072
-0.041401 0.482496 -0.127666
0.076691 -0.334428 0.366545
0.138366 -0.241758 -0.437358
-0.095113 0.209400 0.449862
0.243896 0.334124 -0.372039
0.140789 0.478424 0.137837
0.272512 -0.138966 -0.480220
-0.266016 -0.329728 0.370578
-0.172480 -0.310869 0.386656
-0.135839 -0.449501 -0.215456
-0.057140 0.195068 -0.460544
0.065374 -0.093606 -0.491237
0.047013 0.430131 0.249601
0.072106 0.267821 0.418036
-0.175845 -0.426862 0.253384
0.158707 0.054938 -0.497337
0.272716 0.489750 -0.095264
-0.208757 0.303884 0.392778
0.108373 -0.109035 -0.487949
0.089707 -0.483288 -0.120856
-0.137291 0.036850 -0.498802
-0.061249 0.105447 0.484692
0.116283 -0.496344 -0.035661
0.089644 0.036450 0.494650
-0.152158 0.252792 0.427199
0.155492 0.412611 -0.281761
-0.110289 0.030664 -0.499304
-0.085320 0.431051 -0.252548
-0.126712 0.162188 -0.473137
-0.246612 -0.459886 0.188082
-0.193330 -0.496615 0.027054
-0.260272 -0.051189 -0.497427
0.017583 0.397805 -0.302618
-0.246292 -0.424895 -0.261299
0.133664 -0.484311 0.111365
0.095486 -0.331216 0.369301
-0.221760 -0.092069 -0.491501
-0.199897 0.333683 0.367880
0.220364 0.227129 -0.445618
0.271108 0.304938 0.391938
0.122514 -0.073823 0.490191
-0.060144 0.031360 0.494878
-0.240162 0.204556 0.452036
0.057866 -0.231225 0.438741
-0.224658 -0.489417 -0.092002
-0.148923 0.239919 -0.438890
-0.103718 0.051693 0.493130
0.284975 0.159393 0.469947
0.053377 -0.279314 -0.414105
0.197819 -0.305770 0.390503
-0.066565 -0.465021 0.174529
0.180927 -0.287499 0.404287
0.033670 0.278052 -0.415612
0.214348 0.469960 0.163884
0.191644 -0.152677 -0.476036
0.164410 0.321535 0.378704
-0.136428 -0.382544 0.316118
0.201161 -0.269209 -0.420919
0.012786 0.143276 -0.479329
0.072263 0.429392 -0.255269
-0.251239 0.264163 -0.424781
-0.228657 0.283486 -0.412024
-0.010881 -0.454238 0.200668
-0.290176 -0.028776 -0.499302
0.012900 -0.477362 0.137855
-0.152392 0.204133 0.452225
0.019974 0.222845 -0.447729
0.008428 0.337126 -0.369407
-0.009754 0.067041 0.491471
0.278449 0.039317 -0.498602
0.041105 -0.483955 -0.118073
-0.020151 0.141784 -0.479741
-0.062000 0.449045 0.214107
-0.087854 0.414107 -0.279621
-0.013448 0.328380 -0.376967
-0.261618 -0.190178 0.457802
0.258301 0.239070 0.434959
-0.034695 0.297191 0.397966
-0.266313 0.214736 -0.451725
-0.057566 0.151302 0.472415
-0.251060 -0.497565 0.001066
0.145457 0.490984 0.085063
-0.031793 0.370446 0.331351
-0.004111 0.479596 0.133589
-0.179997 -0.056293 0.492727
-0.131662 -0.104923 -0.488926
0.247764 -0.495259 -0.049062
-0.234400 0.485550 0.110999
0.088525 -0.168502 -0.470596
0.094892 -0.119578 -0.485443
-0.282409 0.287769 -0.409197
0.197748 0.240407 -0.438610
0.228908 -0.237395 0.435396
-0.060148 0.020094 0.495384
-0.035448 -0.094534 0.486659
0.144485 -0.265923 0.418589
0.177846 0.060138 0.492217
-0.268421 0.393189 0.304110
-0.100570 -0.400657 0.293034
-0.008962 -0.164335 0.467690
-0.129331 -0.303941 -0.396269
-0.043746 0.087368 -0.492728
-0.196999 -0.471396 0.157407
0.137723 -0.322386 0.376878
-0.150118 -0.421890 0.261540
-0.288330 -0.016152 -0.499868
-0.252525 -0.355601 -0.350209
0.144403 -0.494065 0.055749
-0.023019 -0.227459 -0.444886
-0.089834 0.484845 -0.117780
-0.100691 0.436784 0.237999
-0.077445 0.422634 0.262206
0.209995 -0.233398 0.437671
-0.018872 -0.316641 0.381807
0.174280 -0.331672 -0.373127
0.111349 -0.355099 0.346558
0.073382 -0.172967 0.464712
0.173368 0.380110 0.320088
0.158865 0.059623 0.492273
-0.068230 -0.483881 -0.118428
-0.250623 -0.079302 0.489398
0.129577 0.235923 -0.441181
-0.112445 0.494816 -0.062640
0.161231 -0.471230 -0.161586
-0.009813 0.474435 0.150913
-0.009951 -0.038335 0.494246
-0.094321 0.468172 0.169067
0.034539 0.320918 0.379196
-0.194456 0.221585 0.444165
-0.212722 0.389092 -0.313544
0.229522 0.253536 -0.431081
0.225590 -0.250859 0.427675
-0.029918 0.022952 0.495256
-0.171434 0.417152 -0.275267
-0.061047 -0.363775 -0.341814
-0.059970 -0.398096 -0.300601
-0.057516 0.332437 0.369009
0.055485 -0.464681 -0.180360
0.283233 -0.342647 0.358681
0.051816 0.492077 0.077711
-0.082858 0.434332 0.242276
-0.058381 -0.280531 0.408946
0.247559 -0.179943 -0.466303
-0.159771 -0.482861 0.117463
0.281548 -0.312767 -0.389231
-0.172469 -0.116606 -0.486150
-0.290105 -0.168855 -0.470463
-0.075843 -0.481137 0.124719
0.176048 -0.474827 -0.151160
-0.133194 0.448225 -0.220647
-0.076150 0.455271 0.201035
-0.069436 -0.403273 0.289293
0.262579 -0.039357 -0.498705
0.113147 0.256649 -0.429296
-0.204106 -0.122655 -0.484712
-0.058314 -0.478367 -0.138682
-0.110325 0.446884 -0.223193
-0.066568 -0.330510 0.369906
-0.244024 0.495921 -0.052407
-0.062979 0.472144 0.157555
-0.182623 -0.234613 -0.441120
0.015784 0.287631 0.404652
-0.036764 0.479468 -0.138665
0.042368 -0.112608 -0.487100
-0.234184 -0.334449 0.366527
-0.191699 0.494495 -0.065609
-0.212942 0.025901 0.495123
-0.276131 0.112698 0.482968
-0.231745 0.070851 0.490977
-0.084083 -0.493834 0.057883
-0.172919 0.485404 -0.115431
-0.194900 0.205453 0.451633
0.285417 -0.479699 -0.133857
-0.200601 0.442337 -0.231828
0.217301 -0.087741 -0.492247
0.124827 0.257581 -0.428762
-0.282743 -0.497489 0.007567
-0.265945 -0.044685 0.493731
-0.204251 -0.090530 -0.491766
0.277135 -0.492236 0.070517
-0.099146 0.087061 -0.492777
-0.136901 0.358097 0.344344
-0.191797 -0.044743 0.493726
-0.096057 -0.199112 -0.458372
0.271921 0.283847 -0.411786
-0.289244 -0.400241 -0.297758
-0.239403 -0.237689 0.435228
-0.056396 0.497154 -0.041000
-0.166701 -0.159661 0.469302
-0.034778 -0.425524 0.255580
-0.003658 -0.172625 -0.469049
-0.026589 -0.193925 0.456240
0.018424 0.090162 0.487653
-0.243874 0.395783 0.300672
-0.125388 -0.456548 0.195520
-0.176452 0.388064 0.310818
-0.087608 -0.288604 0.403454
-0.028910 -0.365552 -0.339988
-0.146762 -0.497165 -0.021157
0.091133 -0.329916 -0.374717
-0.180277 -0.293818 0.399520
-0.188139 -0.190002 0.457876
-0.010470 -0.280535 -0.413252
-0.204439 -0.183380 0.460636
0.138389 -0.134086 0.477230
-0.151816 0.405042 -0.292582
-0.159664 -0.485680 0.105604
0.243995 -0.104007 0.484675
0.178435 -0.119694 -0.485416
-0.062562 -0.438160 0.233463
0.221490 -0.046450 -0.497939
0.054086 -0.471681 0.156473
0.276159 -0.483551 -0.119905
0.226587 -0.378435 -0.325200
0.068360 -0.263720 -0.424265
0.284999 0.068291 -0.495493
-0.093936 0.470642 -0.166631
-0.220766 0.251303 0.428106
-0.138496 -0.311480 0.386196
-0.184952 -0.389006 0.308014
0.221265 0.397607 -0.302865
0.187920 0.342578 -0.364099
-0.277606 -0.255673 0.424915
0.147882 -0.387972 -0.314020
0.214337 0.036189 -0.498856
0.176444 -0.153615 0.471388
-0.171160 0.181534 0.461737
0.262717 -0.435727 -0.242408
0.230186 -0.348656 0.352831
0.007093 0.498320 0.009574
0.267404 -0.300246 0.394671
0.137825 0.259225 -0.427819
-0.175526 -0.039798 -0.498658
-0.194854 0.351416 0.351207
0.267570 0.312876 -0.390269
0.140832 -0.300473 -0.399035
0.152653 -0.349520 -0.356455
0.053551 -0.098007 0.485932
-0.086695 0.497881 -0.026045
-0.020900 -0.193748 -0.460779
0.053771 -0.459801 -0.192065
-0.286907 0.259883 0.422876
0.260295 -0.496449 -0.034365
0.191703 0.191539 0.457877
-0.212505 -0.400866 0.292735
0.284771 -0.496516 0.029277
0.146848 0.493568 -0.073088
0.217655 0.247505 0.430422
0.088424 -0.179132 -0.466607
-0.040568 0.216761 -0.450727
-0.202446 0.431598 0.247044
-0.014951 -0.380567 0.318596
-0.233668 0.437206 0.237263
-0.063804 0.189563 0.458724
0.177331 0.091403 0.487439
0.241507 0.388998 0.309666
0.186512 0.464037 0.180009
0.078320 -0.152373 -0.476129
-0.181010 -0.176286 0.463567
-0.169375 0.080798 0.489265
0.232428 -0.272234 0.414423
0.215134 0.498254 -0.017724
0.009243 0.084844 0.488568
-0.246437 0.146098 -0.478550
-0.204665 -0.049414 -0.497619
-0.251872 0.498185 0.017021
0.135046 -0.282774 -0.411686
-0.019068 -0.337682 -0.367683
0.211694 0.230270 0.439593
-0.111847 -0.477552 0.137233
0.247149 0.498346 0.008109
0.063402 0.345135 -0.361610
-0.152164 -0.078050 -0.493915
-0.096313 0.216089 -0.451058
0.103321 0.496674 -0.045444
0.231711 0.181137 -0.466352
0.240601 0.496768 0.038731
0.203090 0.399284 0.296032
0.024454 -0.075703 -0.494319
0.031714 0.494557 -0.065030
-0.030865 0.285924 0.405846
0.248202 0.456838 -0.201511
0.121190 -0.166247 -0.471442
0.200189 -0.314993 0.383222
-0.016815 -0.496269 -0.036588
0.247161 -0.493428 -0.065644
0.285906 0.281466 -0.413358
