-0.171613 0.434881 0.095501
0.197842 -0.211442 0.389504
-0.132206 -0.429294 0.114224
-0.127009 -0.160006 0.413223
-0.261809 -0.408168 0.174451
0.240305 0.399792 0.194863
-0.164789 -0.136138 -0.426100
-0.287679 -0.330175 0.295962
0.284437 0.178625 0.405861
0.065051 0.438578 -0.082355
0.023919 0.234284 -0.381171
0.017110 -0.156714 -0.418762
-0.104501 0.376762 0.236235
-0.180992 -0.440705 -0.062456
-0.221167 -0.442867 0.038239
-0.239711 0.274417 -0.353167
0.131282 0.332261 -0.299112
-0.020873 0.311053 -0.321266
-0.032369 0.423240 -0.142342
0.230640 0.443054 -0.051454
-0.034441 -0.068820 0.437607
0.130029 0.117258 0.427530
0.013384 0.048821 0.440457
0.083747 0.390521 -0.217323
-0.267126 0.358774 -0.266708
0.042793 -0.200098 0.395284
0.268494 -0.111429 -0.433279
-0.276586 -0.053902 0.439880
-0.141697 0.353484 0.269174
0.268737 0.219613 0.385494
0.036287 0.445864 0.000474
-0.268832 0.139533 -0.425316
0.226133 -0.110081 -0.433658
-0.157365 -0.210480 0.389994
-0.050689 -0.005177 0.443079
-0.163420 0.129127 0.424081
0.262112 0.174441 0.407671
-0.233719 -0.443419 -0.036751
0.181557 -0.437690 0.077142
-0.188029 0.368340 0.248662
-0.039659 0.176502 0.406779
-0.111666 -0.305609 0.321331
-0.187054 -0.011101 0.442893
-0.170224 0.336532 -0.294268
-0.116045 0.380738 0.229512
-0.214585 -0.288884 0.336218
0.001527 0.445471 -0.017345
0.278160 0.129588 -0.428301
0.140268 0.217595 -0.391040
-0.268057 0.423067 0.138468
-0.095794 -0.356723 0.263678
-0.036997 0.085871 -0.439299
-0.175395 -0.433577 -0.101103
0.235620 -0.315013 -0.316281
-0.219888 0.144247 -0.423619
-0.003437 -0.379113 -0.234881
-0.079776 0.238578 -0.378631
0.199379 0.266161 -0.359571
0.286695 0.398924 -0.200920
0.192704 0.400720 0.193042
0.214673 -0.423264 0.134979
-0.170698 -0.442507 -0.046404
-0.251862 0.366461 -0.255780
0.097092 -0.142963 0.419359
-0.239372 -0.438901 0.069495
-0.067594 -0.192617 -0.403449
0.126079 -0.223481 0.382600
-0.154154 0.017082 -0.447091
-0.105390 0.331475 0.295651
-0.231918 -0.433163 -0.102954
-0.191068 0.405332 -0.187724
0.217597 -0.358121 0.261875
0.200565 -0.442154 -0.050141
-0.084635 0.357079 0.264539
0.267640 0.288868 -0.341490
-0.140992 -0.273430 0.348784
0.177404 0.394803 0.204655
-0.018573 -0.432308 -0.106778
0.200849 -0.406401 -0.182885
0.249376 0.066253 0.438176
-0.020805 0.329314 0.298102
0.050964 0.035994 0.441669
0.173037 -0.410992 -0.172277
-0.142195 0.422128 0.141076
0.206084 -0.356356 -0.268504
0.113299 -0.444454 0.012736
0.212312 0.283239 -0.346324
0.233837 -0.354704 -0.270633
0.113913 0.312423 0.315542
-0.219288 0.094295 0.433063
0.125776 0.136233 -0.426370
0.094913 0.022970 -0.446906
-0.152077 0.128045 0.424396
-0.125185 -0.201188 -0.399082
-0.051727 -0.392848 0.206480
0.092833 -0.112058 -0.433096
-0.078126 -0.318824 -0.312469
-0.152021 -0.398155 -0.200419
-0.004478 0.077185 0.436444
-0.270960 -0.435363 -0.093113
0.003718 0.355534 0.266532
-0.118096 -0.357370 0.262843
0.251189 -0.032960 0.441859
0.285973 -0.430713 0.109339
-0.060022 -0.282092 -0.346419
0.053545 0.436697 -0.091730
0.201754 -0.444181 -0.025787
-0.196318 -0.031399 -0.446360
-0.278443 0.123598 0.425688
-0.052110 -0.414185 0.160293
-0.132045 -0.354495 0.266550
-0.217060 -0.389080 0.213673
0.061672 0.203263 -0.398547
-0.179701 -0.118079 0.426993
0.047036 -0.415275 0.157264
-0.071173 -0.251850 0.364615
-0.191835 -0.131074 0.423218
0.198964 0.304799 -0.327444
0.128274 0.360097 0.260649
-0.266139 -0.383879 -0.226822
0.152474 0.444933 -0.031575
-0.181862 -0.147162 0.417847
0.034830 0.422016 -0.145739
-0.194464 -0.404979 0.181819
-0.181318 0.441109 0.062021
-0.199215 -0.021721 -0.446913
-0.288769 0.015642 0.442783
-0.121992 0.327067 -0.305004
0.033118 0.440370 -0.071043
-0.042417 -0.441319 0.054229
0.153719 -0.444214 0.020361
0.001071 0.229331 -0.384099
-0.046259 -0.355534 -0.269563
-0.185537 0.360885 -0.263985
-0.121192 -0.083854 -0.439521
-0.018086 -0.077413 -0.440600
-0.247310 -0.281313 -0.347024
0.226471 -0.192643 -0.403436
-0.289710 0.444226 0.034707
-0.156442 -0.342176 0.282350
-0.149850 -0.304569 0.322372
0.016139 -0.329921 -0.300604
0.027872 -0.298407 0.327823
0.179002 0.022354 0.442572
0.113111 0.165998 0.411325
0.282555 -0.286354 -0.342802
0.105696 -0.016565 0.442722
-0.102352 -0.335247 -0.294563
-0.021132 -0.325839 -0.305234
0.205323 -0.311337 -0.319956
-0.110030 0.230475 0.379070
0.170563 0.130219 -0.428118
0.280887 -0.441058 0.055874
-0.271429 -0.008729 -0.447321
-0.017602 -0.205045 -0.397117
-0.012001 -0.040627 0.441134
-0.135228 -0.444491 -0.015909
-0.259454 -0.153470 0.415576
0.115670 -0.315415 -0.315879
0.185473 0.441473 -0.064077
0.041232 0.287175 -0.342982
-0.099224 0.032566 0.441993
-0.277415 -0.437396 -0.083348
0.040554 0.394957 -0.208706
0.206354 -0.385141 -0.224688
-0.072268 0.424277 -0.139374
0.095190 -0.125230 0.424916
0.264812 -0.024705 -0.446819
0.046039 0.427915 0.122499
0.096466 -0.232565 0.377228
0.283255 -0.305012 -0.326282
-0.189052 -0.227288 0.380348
-0.182752 0.068000 -0.442253
-0.245048 0.445188 -0.026333
0.186186 -0.420897 0.141649
-0.265332 0.302240 0.325347
-0.253851 -0.388631 0.214432
0.047996 0.372460 -0.246953
0.028852 0.186492 -0.406810
0.211066 0.001142 -0.447592
-0.256849 -0.345948 0.277569
0.147236 0.043280 0.440981
0.214954 0.184107 0.403488
0.085943 0.422516 -0.144353
-0.000359 0.310323 0.317642
0.137636 0.397543 -0.203631
-0.059163 -0.133426 0.422535
0.251854 -0.436406 0.084094
0.237594 -0.237229 0.374469
-0.139616 0.430601 -0.117605
-0.173822 -0.368024 0.247619
0.260524 0.399660 -0.199476
0.151771 -0.430542 -0.114283
-0.035709 -0.037536 -0.445780
-0.144838 -0.096972 0.432235
-0.177982 0.235465 -0.380472
-0.231451 -0.246143 0.368494
0.249591 0.292159 0.334234
-0.128941 -0.420420 0.142974
-0.233020 0.086691 0.434762
-0.189285 0.075958 0.436639
0.026735 0.277844 0.346156
0.276911 0.354790 0.267491
0.129059 0.028875 -0.446696
-0.106941 -0.101403 -0.435598
0.277287 -0.336729 -0.292882
-0.024325 0.432570 0.105838
0.067687 0.024664 -0.446853
-0.085417 -0.074989 -0.440983
-0.232643 0.113777 0.428541
0.146962 -0.111289 -0.433319
-0.275162 0.307183 -0.325136
0.067095 -0.293353 0.332279
0.041883 -0.434408 0.093034
-0.220871 0.098704 -0.436430
0.064119 0.319848 -0.312470
-0.233147 -0.077307 0.436263
0.022368 0.032861 -0.446319
-0.127911 0.376366 -0.241206
0.125879 0.418022 -0.156834
0.225915 -0.440423 -0.064236
0.265919 -0.399152 -0.198461
0.072237 0.087181 0.434653
0.167409 -0.021067 0.442580
-0.256560 -0.437416 0.078867
0.134255 -0.271977 0.349912
-0.210081 -0.427965 -0.123151
0.139887 0.066065 -0.442559
-0.189338 0.115380 0.428075
-0.016778 -0.420624 0.142408
-0.134590 0.437425 -0.088475
0.069081 -0.143038 -0.423685
0.058992 0.445397 0.015346
-0.181824 0.390543 0.212933
0.002415 0.103582 -0.435340
-0.241480 -0.134807 0.422133
-0.215312 -0.006585 -0.447389
-0.181208 -0.086319 0.434616
-0.147125 -0.410374 0.169352
0.012416 -0.277122 0.345921
-0.031678 0.445867 0.000381
-0.124373 0.141001 -0.424788
-0.210177 -0.325062 -0.306115
-0.078025 0.210244 -0.394990
0.217461 -0.443513 0.031409
0.178730 0.013326 -0.447209
0.178104 -0.444304 0.017512
-0.228473 -0.404290 0.183412
0.214307 -0.291289 -0.338451
-0.122289 0.434609 0.096717
-0.214326 -0.402856 0.186725
0.028560 -0.400988 0.190505
-0.185253 -0.364764 0.252416
0.008818 -0.398949 0.194507
0.075472 -0.249341 0.366321
0.260295 0.296433 0.330467
0.015171 0.165239 -0.416006
0.240558 -0.035165 0.441651
-0.035526 -0.203495 0.393553
0.099296 0.366888 0.250798
-0.196596 0.055510 0.439824
-0.126090 0.282431 0.342598
-0.203364 0.231290 -0.382941
0.251652 -0.080172 0.435809
-0.206085 0.429726 0.116265
-0.246796 0.365047 0.253507
0.087044 0.194342 -0.403092
-0.119550 0.414899 -0.165508
-0.106359 -0.134237 0.422299
-0.061398 -0.123847 -0.429671
-0.114321 -0.204235 0.393176
0.116613 0.256406 -0.366569
-0.248605 0.345505 -0.283814
-0.125916 0.421159 -0.148121
0.225163 0.438193 0.080437
0.153786 0.416739 -0.160398
-0.029180 -0.014818 -0.447130
0.072174 -0.442794 -0.043363
0.161517 -0.213363 -0.392879
0.111444 -0.414714 -0.163176
0.240314 -0.062810 0.438559
-0.042463 0.071999 0.437266
0.036102 -0.428559 0.116755
0.150565 0.197595 0.397081
-0.073321 0.015873 -0.447129
-0.288262 -0.032900 -0.446218
0.274373 0.343268 -0.286627
0.029543 -0.372356 0.241245
-0.268422 -0.394126 -0.208326
-0.260887 -0.383316 0.223420
-0.273894 -0.363211 -0.259054
0.146553 0.406113 -0.185920
-0.281218 0.438284 -0.084212
-0.237318 0.391597 -0.215300
0.229846 -0.360818 -0.262575
-0.150141 0.182779 0.404063
0.066215 -0.283367 0.341077
-0.157836 0.110422 -0.433811
-0.026097 0.031521 0.442092
-0.227235 0.103266 0.431057
-0.018125 0.283321 0.341908
-0.257219 -0.428027 -0.122938
0.138751 0.270080 -0.356532
0.006897 -0.382027 -0.229952
-0.228219 0.023745 0.442528
0.034238 0.285913 0.339741
-0.106089 0.360945 -0.263897
-0.137306 -0.384550 -0.225687
0.075709 -0.399368 0.193684
0.224889 0.395727 0.202841
-0.147649 -0.346824 0.276440
-0.036203 0.090324 0.433950
0.075716 0.347425 0.276986
-0.265700 -0.046368 0.440592
0.105376 0.437330 -0.088899
0.041881 -0.410068 -0.174412
0.224596 0.402429 0.189687
0.219726 0.023141 -0.446901
0.142809 0.166810 -0.415327
-0.197789 -0.318031 0.308909
0.202910 0.100639 -0.435998
-0.175021 0.134248 0.422594
0.186189 0.318453 0.309512
0.062194 0.386572 -0.224000
-0.049959 -0.080819 0.435707
-0.075833 0.153949 0.415773
-0.024940 0.436054 -0.094606
0.096503 -0.240886 -0.376420
-0.114255 0.445845 -0.005446
0.279276 0.440373 0.066669
0.244074 -0.439976 -0.067062
0.243228 0.434651 0.096529
-0.003375 -0.097207 0.432183
0.089995 0.162837 -0.416926
-0.172773 -0.284310 -0.344604
0.089181 -0.369706 -0.249498
-0.189359 -0.042321 -0.445328
-0.240731 -0.411607 0.166503
-0.215830 -0.438513 -0.076297
0.146191 -0.135723 -0.426221
0.274246 -0.286875 0.337990
-0.052499 0.132792 0.423017
0.052359 -0.434203 0.093950
-0.273297 0.406099 -0.185953
0.237447 -0.406559 -0.182523
0.261850 0.366451 0.251442
-0.124450 -0.247170 0.367796
0.138498 -0.372834 -0.244895
0.280037 0.106716 -0.434639
0.110830 -0.407980 0.174885
0.134871 -0.144624 0.418761
0.014745 -0.246576 -0.372553
0.262881 0.045277 0.440792
-0.133958 -0.348883 -0.278138
0.244449 0.314975 0.312991
0.286724 -0.442341 0.043802
0.119048 -0.437154 0.080524
0.075969 0.025468 0.442474
0.023178 0.428004 -0.126545
0.127760 0.255571 -0.367136
-0.157065 0.299094 -0.332474
-0.174077 0.235334 0.376196
-0.239877 0.102070 0.431325
-0.022337 -0.337460 0.287699
-0.037804 0.416412 0.156953
0.265554 -0.087178 0.434424
-0.254570 -0.178956 -0.409627
-0.063191 0.389374 -0.219262
0.221089 0.443630 -0.045358
-0.288640 0.148860 -0.421958
-0.118354 -0.066460 0.437981
-0.228798 0.429430 0.117285
-0.261503 -0.170349 -0.413352
0.159484 0.249063 -0.371559
-0.234827 0.003929 -0.447504
0.107499 -0.356692 -0.268071
0.217105 -0.305495 -0.325798
-0.048454 -0.142292 -0.423954
0.167332 0.098884 0.432037
0.257887 -0.444358 -0.020134
0.106847 -0.170839 -0.413140
0.017289 -0.004891 0.443088
0.104079 0.004865 -0.447475
0.198608 -0.352428 0.269215
0.163423 -0.289559 -0.339977
0.202520 -0.443569 0.030817
0.147143 -0.271704 0.350124
0.003302 0.441971 -0.060932
-0.279606 0.327164 0.300540
0.252652 -0.177928 -0.410072
0.093649 -0.393033 -0.210472
0.097337 0.343177 -0.286730
0.129364 -0.211526 0.389461
0.275367 0.149452 0.417392
0.211047 0.032572 -0.446346
-0.252510 -0.354630 -0.270729
-0.148924 -0.182735 -0.407992
0.163242 -0.353749 -0.271865
0.081943 -0.263290 -0.361004
-0.000084 -0.391245 0.209627
0.190538 -0.372127 0.241581
-0.072381 -0.323394 0.303546
-0.110011 -0.313757 -0.317537
-0.274881 -0.156630 -0.418792
0.277432 -0.380026 0.228983
-0.035948 -0.401875 -0.193118
0.133941 0.403114 -0.192697
-0.054099 -0.387149 -0.221293
0.032973 0.378277 0.233673
0.111527 -0.165107 0.411267
-0.064312 -0.444811 -0.005721
0.036457 0.298080 0.329015
-0.076335 -0.298753 -0.331871
0.045351 -0.029988 -0.446494
0.258178 -0.419225 -0.150646
-0.048505 0.425731 -0.134368
0.109812 -0.240619 -0.376601
-0.053918 -0.188435 0.401172
-0.140450 -0.369924 -0.249177
-0.148274 -0.376876 0.234309
0.173334 -0.040927 0.441106
-0.138559 -0.413202 0.162817
0.217686 -0.232470 0.377284
-0.156693 0.318539 0.309426
0.220241 0.445510 0.011729
-0.258221 0.443356 -0.048257
-0.027192 0.417540 0.153819
-0.209215 0.205817 0.392892
0.030090 -0.010871 -0.447254
0.209121 -0.418523 0.148243
0.089958 -0.434480 0.092710
-0.272580 0.038023 -0.445831
-0.007588 -0.351686 0.270171
0.285879 0.445396 -0.019729
0.122116 -0.000608 0.443223
-0.145485 -0.129058 0.423804
0.007051 0.445620 0.008232
0.105161 0.363869 -0.259593
0.059698 0.216140 0.387548
0.034255 0.166365 -0.415519
0.260658 -0.291851 -0.337956
0.084216 -0.443217 -0.038890
-0.256586 -0.210269 0.390102
0.123182 -0.236240 0.375054
-0.188778 -0.324289 -0.306992
-0.223935 0.442722 -0.054966
-0.031750 -0.321563 0.305377
0.247977 0.169692 0.409726
0.131929 0.443921 -0.042282
-0.134788 -0.306732 -0.324562
-0.200871 -0.140355 0.420298
0.117704 0.381824 0.227676
-0.268844 -0.113562 0.428306
-0.001281 -0.443853 -0.032158
-0.083190 0.228036 0.380512
-0.097557 -0.311332 0.315608
0.199108 -0.043062 0.440904
-0.165816 0.340145 0.285816
0.256340 0.204894 -0.397716
0.114437 0.388510 -0.220723
-0.289410 0.214203 0.388619
0.281953 -0.444527 0.010425
-0.174404 0.443070 -0.051285
0.262108 -0.435466 -0.092652
0.214323 -0.244077 0.369898
0.089620 0.215311 -0.392391
-0.190819 -0.312112 0.314828
-0.212394 -0.035948 -0.445930
-0.004873 -0.273357 -0.353195
-0.275738 0.429751 -0.120531
0.244662 0.046357 -0.445043
0.132027 0.433202 0.103014
-0.012110 -0.440998 -0.060608
-0.151374 -0.269318 0.351975
-0.048634 0.261586 0.358695
0.274522 0.305985 0.321980
0.204125 0.078649 -0.440566
0.188680 0.238142 -0.378889
-0.169460 0.438742 0.076969
-0.115905 -0.290590 0.334715
0.031206 -0.383075 0.223827
-0.250463 -0.325982 -0.305072
0.200943 -0.251842 -0.368974
-0.213862 -0.354236 0.266883
0.143178 0.318574 0.309391
-0.235126 -0.371333 0.242750
0.185257 -0.224099 0.382234
0.103943 0.317019 0.310946
-0.013160 -0.268642 -0.356853
-0.252503 0.388887 -0.220086
-0.078953 0.426353 -0.132227
0.132620 -0.041470 0.441055
0.095820 0.224508 0.382599
0.027570 0.148698 -0.422017
0.062111 0.034776 -0.446138
0.100679 -0.373289 -0.244225
0.045309 0.130050 -0.428167
0.286824 0.056237 0.439756
-0.254049 0.132401 0.423130
0.212324 -0.370633 -0.248133
0.284947 -0.341849 0.282721
0.085541 -0.293415 -0.336578
-0.117867 -0.163093 0.412112
0.143331 0.445801 0.002473
-0.009877 -0.239801 0.372804
-0.271533 0.136996 0.421795
-0.132444 -0.203255 0.393675
0.016408 -0.399646 -0.197492
-0.193560 0.079712 -0.440398
0.271191 0.380516 -0.234241
0.020333 0.407388 0.178620
-0.057328 -0.135667 -0.426237
0.195476 -0.296049 0.329902
-0.101215 0.215619 -0.392209
-0.042158 -0.281668 0.342394
0.086889 0.047907 0.440543
0.049753 -0.407572 0.175826
-0.087535 -0.008431 -0.447331
-0.270854 -0.420782 0.141968
-0.192705 0.402771 0.189018
0.098100 0.441882 -0.061498
0.073816 0.250909 -0.370305
-0.223223 0.273801 0.349292
-0.192144 0.416220 -0.161839
0.078562 0.178968 -0.410066
-0.108990 0.351610 0.271590
-0.159182 0.445357 -0.020973
0.034779 -0.443416 -0.036785
0.115697 -0.137358 -0.425730
-0.064081 -0.411619 -0.170829
-0.115188 0.167104 -0.415199
-0.035820 -0.368926 0.246292
-0.012250 0.423582 0.137038
0.254719 -0.221068 0.384027
-0.004943 0.163352 0.412387
-0.171667 0.095369 0.432822
0.033252 -0.191244 0.399795
0.055857 0.178584 0.405879
-0.186734 -0.438125 0.074396
0.204525 -0.324491 -0.306763
-0.017123 0.442333 0.054293
-0.049749 0.420727 0.144968
-0.242786 -0.412865 -0.167949
0.226179 -0.437506 0.078303
0.017610 0.274060 -0.353445
0.235789 -0.158849 -0.417993
-0.226599 -0.444065 0.025125
0.013558 0.437513 0.083726
0.157130 -0.282751 -0.345908
-0.136021 0.120757 -0.430866
-0.050627 0.377241 -0.239779
-0.045239 -0.236303 0.375017
0.203831 0.412323 0.167218
-0.008655 0.068716 0.437786
0.029314 0.250348 -0.370686
-0.169773 0.172606 -0.412819
0.043810 0.399094 0.196233
-0.186810 -0.442378 -0.047772
-0.088922 0.433469 -0.106172
0.206270 0.276007 0.347580
-0.023690 -0.362506 0.255738
-0.018053 -0.444362 -0.020006
0.001566 0.329653 0.297717
0.286003 -0.310016 0.316924
-0.067552 -0.442164 -0.050031
0.074994 -0.104950 0.430452
-0.054920 -0.210433 0.390018
0.158619 0.000334 -0.447606
-0.176314 -0.209994 -0.394595
0.256342 -0.363248 -0.259000
0.278644 -0.144354 -0.423211
0.262328 -0.425228 -0.132573
0.201142 0.402998 -0.192926
-0.070610 0.161495 0.413056
0.093887 0.400026 -0.198758
-0.220820 -0.434163 -0.098481
0.030488 -0.444746 0.003433
-0.139930 0.215719 -0.392150
-0.147500 0.387580 -0.222296
-0.079665 -0.318110 0.308830
0.141521 -0.271181 -0.354883
-0.023945 0.269813 -0.356739
-0.008449 -0.321849 -0.309445
0.093531 -0.330966 0.295065
0.205089 0.418092 0.152288
0.252817 0.022334 -0.446926
-0.034517 -0.218636 0.385465
0.190409 -0.415084 0.157796
-0.245299 -0.340661 -0.288421
0.258681 0.092107 0.433552
0.208822 0.239829 -0.377834
0.039812 -0.442293 0.044316
0.180769 -0.425429 -0.131881
-0.108135 0.285492 -0.344466
0.095374 0.395248 0.203781
-0.198721 -0.075909 -0.440838
0.278028 -0.029546 -0.446535
0.127751 -0.255010 -0.366821
0.255860 -0.047153 -0.444871
0.146776 -0.033381 0.441819
0.229867 0.241517 0.372334
-0.238354 -0.292471 0.333056
-0.018883 -0.375564 -0.240878
-0.150810 -0.290992 -0.338714
0.254091 0.035207 0.441744
0.051938 0.023635 0.442532
-0.248551 0.250246 -0.370755
-0.088679 -0.342889 -0.285866
0.084773 -0.014610 0.442783
-0.244330 -0.349558 -0.277267
0.236471 0.407576 0.178187
-0.265160 0.086835 0.434730
0.255392 -0.426982 0.122183
0.239696 0.439049 0.075031
-0.105474 0.202055 0.394809
0.263250 0.444377 -0.037461
0.271446 -0.444016 0.026081
0.268272 -0.385034 0.220514
0.265374 0.431890 -0.113171
-0.087162 -0.309300 0.317640
-0.033705 0.151316 0.416721
0.214463 0.139323 -0.425392
0.157491 0.314717 -0.317601
-0.072001 0.445845 0.001074
0.242649 -0.240513 -0.376673
0.270352 0.015103 -0.447153
0.227645 0.034766 -0.446139
0.133729 0.231685 -0.382707
-0.119474 0.335178 0.291450
0.229572 -0.406178 0.179048
0.047182 0.329860 -0.301836
0.154699 -0.128204 -0.428405
0.153535 -0.395553 -0.205526
0.048017 0.292519 -0.338270
0.055942 0.051183 -0.444587
-0.113177 0.143342 0.419592
0.239451 -0.329474 -0.301111
0.032592 0.136574 0.421918
-0.240736 0.322691 -0.309628
0.010655 -0.172595 -0.412380
0.115022 -0.175701 0.406683
0.167535 0.087736 0.434529
0.238844 -0.111187 0.428996
0.067483 -0.380581 0.228045
-0.086832 0.202926 0.394365
0.126626 -0.322858 0.304083
0.097327 -0.399755 -0.197279
-0.269296 -0.422437 -0.141726
-0.077814 -0.260222 0.358926
-0.252929 -0.093392 -0.437389
0.237696 0.167195 0.410807
0.146535 -0.400597 -0.195626
-0.027012 -0.122505 0.425708
-0.099670 -0.078927 -0.440360
0.096335 0.435127 0.094401
0.246121 -0.444339 0.016394
-0.287657 0.224195 0.382784
-0.232333 -0.285625 0.339092
-0.179619 0.372602 0.242390
-0.059236 -0.352420 -0.273578
0.221765 -0.297732 -0.332771
-0.003899 -0.264622 0.355617
-0.133473 -0.378940 -0.235173
-0.003232 0.409639 -0.177772
-0.263443 -0.321611 0.305329
-0.122277 -0.314594 -0.316700
-0.089588 -0.444205 -0.025010
-0.237144 0.375885 -0.241913
-0.277876 -0.433038 0.099160
0.238284 -0.315470 0.311470
-0.255874 0.334659 -0.296392
0.043801 0.103756 -0.435301
-0.136277 -0.314672 -0.316621
-0.142224 -0.097417 -0.436489
0.274671 -0.155921 -0.419047
-0.211240 -0.160860 -0.417269
-0.055930 0.272231 0.350510
-0.248281 -0.439526 0.065548
-0.047514 0.431120 -0.115821
-0.053708 -0.254874 -0.366914
0.044259 -0.351791 -0.274389
0.017250 -0.442359 -0.047971
0.196392 0.444322 0.033691
0.131956 0.418643 0.150757
0.245101 -0.307177 -0.324117
-0.274765 0.070900 -0.441793
0.175406 0.445196 -0.026096
0.143839 -0.086193 0.434644
-0.239928 -0.041992 -0.445359
0.129520 0.330238 0.297053
-0.049073 -0.020267 -0.446959
-0.049405 0.014281 0.442826
0.135692 -0.105628 0.430300
-0.045827 -0.297969 0.328209
-0.132532 0.362387 -0.261775
0.098727 0.445115 0.024322
-0.157207 0.336050 0.290461
-0.226420 0.303421 0.324306
0.152671 0.284508 -0.345333
0.193317 0.296510 0.330399
-0.212200 0.445945 -0.002085
0.159984 -0.412401 -0.169022
-0.122159 -0.341297 -0.287700
-0.066747 0.361543 0.258663
-0.268730 0.186597 -0.406764
-0.052673 -0.342979 -0.285749
0.196494 0.442907 0.048657
-0.188306 -0.022223 -0.446897
-0.101101 0.443350 0.043970
0.096265 0.366277 -0.256050
0.234240 0.214229 0.388606
0.163643 -0.407666 -0.179965
0.067016 0.406203 0.181360
0.239996 0.236612 -0.379794
0.037068 -0.055087 -0.444121
-0.275219 0.178131 -0.410428
-0.237371 0.181455 0.404636
0.033655 0.020920 -0.446970
-0.191087 0.298130 0.328970
0.001149 0.136019 -0.426433
0.280025 -0.444858 -0.004219
-0.088246 0.301691 -0.330184
0.185768 -0.253716 0.363347
-0.000548 -0.136906 0.421524
0.269879 -0.444914 -0.001892
-0.275057 0.064547 0.438446
-0.250349 0.035453 -0.446074
-0.209567 0.412095 -0.172096
0.027384 0.410756 0.170837
0.278844 0.092834 -0.437742
-0.002000 0.090338 0.433947
-0.102477 -0.299374 -0.331323
-0.038910 -0.435859 0.086539
-0.056032 0.222655 0.383694
0.074077 -0.269289 0.351997
0.189599 0.083904 -0.439734
0.260364 -0.441800 0.049533
-0.155992 -0.124246 0.425202
0.065787 0.362017 -0.262320
0.061115 -0.201214 0.394715
-0.224266 0.392012 0.210132
-0.257690 0.189183 -0.405645
-0.083158 -0.060144 0.438981
0.061246 -0.086300 0.434620
-0.289972 -0.403339 0.185610
0.159986 -0.233502 -0.381027
-0.153816 0.098842 0.432046
-0.166375 -0.440941 0.056614
-0.013341 -0.370708 -0.248023
-0.203453 0.408324 -0.180810
0.256517 -0.381677 -0.230545
-0.055902 -0.414413 -0.164013
0.029410 -0.285276 -0.343753
-0.063796 0.130895 -0.427921
-0.290287 0.311610 -0.320708
0.176953 -0.082610 -0.439776
-0.257792 -0.287861 0.337120
0.062053 0.302821 -0.329188
0.253457 0.337210 0.289146
-0.179254 0.073638 0.437006
0.137229 -0.391774 -0.212941
-0.204378 -0.357902 -0.266511
-0.063897 0.041815 -0.445472
0.189315 -0.288337 0.336701
0.218392 -0.052233 -0.444391
0.035191 0.431815 0.109075
-0.004584 0.146252 0.418544
-0.073715 -0.307728 -0.323566
0.255165 0.371631 0.243819
-0.277205 0.291500 -0.339169
-0.000817 0.258480 0.360806
-0.255702 0.436942 0.086279
-0.148721 -0.032465 0.441906
0.207262 0.357624 -0.268190
0.084974 0.205240 0.393186
-0.087865 -0.233798 -0.380852
0.169491 -0.443970 0.026569
-0.026178 0.011628 -0.447262
-0.184742 -0.415432 -0.161181
0.057760 -0.444321 0.016961
0.105104 0.441143 0.061807
0.177162 -0.124514 0.425124
0.020615 0.027958 0.442396
0.242056 -0.298504 -0.332091
0.282502 -0.410838 -0.172633
0.140554 -0.235118 -0.380071
-0.103886 -0.433435 0.097384
0.195201 -0.193961 0.398411
0.089897 0.445273 0.019282
0.048126 0.095258 0.432847
-0.064690 -0.437609 0.077653
-0.013267 0.269056 0.352973
-0.159702 -0.408197 -0.178737
0.066537 -0.438691 -0.075174
0.219990 0.094907 -0.437279
0.066083 0.244888 -0.374397
-0.085645 0.171587 0.408906
-0.114719 -0.272308 -0.354009
-0.148075 0.330860 0.296348
-0.199460 0.369368 -0.251502
0.073354 0.439816 -0.074541
-0.042861 -0.427864 0.119147
0.141843 0.287125 -0.343026
0.040001 0.054563 -0.444267
0.129777 -0.073511 0.436864
-0.093673 0.110101 0.429529
0.221953 0.445429 -0.018669
0.224529 0.343648 -0.286196
-0.282872 0.171893 -0.413127
0.076193 0.252458 0.364899
0.005472 -0.052314 -0.444383
0.158122 -0.365803 -0.255241
0.268288 0.279796 -0.348995
-0.013340 0.438955 -0.079978
-0.127392 0.076604 -0.440890
-0.096442 0.440082 -0.072863
0.095011 0.195690 0.398052
-0.154445 0.383517 0.224813
-0.251521 0.102952 0.431127
0.239569 -0.433361 -0.102072
0.047480 -0.444281 0.018235
-0.160294 -0.297762 0.328392
0.185600 0.362024 -0.262309
0.138543 -0.379707 0.229522
-0.085563 0.159298 -0.418200
0.110120 -0.220291 -0.388840
-0.191465 0.039267 0.441360
-0.042217 -0.372397 -0.245537
-0.098771 0.158319 -0.418553
-0.192347 0.104188 0.430851
0.040923 -0.068961 -0.441938
-0.253963 -0.068969 -0.441937
-0.140045 -0.111646 -0.433216
-0.147841 -0.008515 -0.447328
0.101011 0.155280 -0.419647
-0.192516 0.183573 0.403720
-0.196567 0.412083 0.167771
-0.243025 -0.188695 0.401059
-0.077026 0.410407 0.171643
0.083992 -0.279129 0.344364
0.129827 0.014714 0.442812
0.247371 -0.325161 -0.306003
0.061446 -0.012575 0.442847
-0.032183 0.377029 -0.240137
-0.153062 0.444933 -0.031580
0.184791 0.279289 -0.349389
0.026627 0.218929 -0.390251
-0.177990 0.385933 0.220727
0.265326 -0.426928 0.122370
-0.077557 -0.238042 -0.378342
0.237334 0.134431 -0.426894
-0.145820 0.161679 0.412990
0.073767 0.355030 0.267181
0.146085 0.441236 0.061219
0.257490 0.313270 0.314695
0.053999 -0.344919 0.278895
-0.113367 0.234080 -0.381291
-0.062755 -0.306882 0.320058
0.210417 -0.210088 0.390194
0.138300 -0.325674 0.301068
0.146188 -0.242795 -0.375123
-0.022264 0.413630 -0.168549
-0.023325 -0.025477 -0.446795
0.015369 -0.073229 0.436909
-0.241080 0.425425 -0.135422
-0.156279 0.439781 0.070410
-0.080012 -0.002516 0.443163
0.189190 -0.140579 -0.424571
-0.004481 -0.340413 0.284350
0.028640 0.196182 0.397801
0.168032 0.245663 0.369517
0.022311 -0.277863 -0.349699
-0.118113 -0.323879 -0.307415
0.250852 -0.147930 0.417571
0.203743 0.434482 -0.101639
0.106665 -0.059238 0.439125
0.176951 -0.372016 -0.246098
0.110045 0.085157 0.435105
0.077839 0.165181 -0.416032
0.190289 -0.429981 -0.116212
0.216536 0.419455 0.148500
0.011429 0.249806 0.366701
0.155758 0.423029 0.138573
-0.216656 -0.185303 0.402527
-0.226717 0.433089 0.103516
0.052522 0.252612 -0.369147
-0.002885 -0.059422 -0.443449
0.206626 0.394445 -0.209712
-0.056711 0.113755 0.428547
0.127239 0.364804 -0.258219
-0.190766 -0.349760 0.272654
-0.079104 -0.345289 -0.282772
-0.225576 0.130639 0.423642
0.180555 0.113676 -0.432924
0.033968 -0.316849 0.310091
-0.265327 -0.018447 -0.447016
-0.288812 -0.426029 0.125462
0.118095 0.401808 -0.195260
0.216623 -0.444242 0.019493
0.286711 0.240082 -0.377663
0.082563 -0.402980 -0.190793
0.024339 0.356245 0.265615
0.012513 -0.443769 0.028701
0.160616 0.409365 0.174052
-0.121295 0.348598 -0.279827
-0.073442 -0.435302 -0.093386
-0.075904 -0.444117 0.023449
0.246696 -0.133593 -0.426840
-0.178877 -0.435815 -0.091090
-0.177913 -0.378419 0.231700
0.165876 -0.442679 0.040227
0.272706 0.253839 0.363960
-0.023100 0.402025 -0.194834
-0.055780 -0.426597 0.123507
-0.192645 -0.370396 0.244129
0.048042 -0.444636 0.006946
0.216596 -0.374405 0.238229
0.116907 0.406346 -0.185382
-0.039296 -0.011294 -0.447241
-0.076660 0.394445 0.205358
0.132713 0.076056 -0.440977
0.205619 -0.276708 0.346242
0.241920 0.308904 -0.323414
0.031776 0.073572 -0.441370
0.217863 0.377890 -0.238681
-0.220755 0.064034 -0.442881
-0.057160 0.032542 -0.446349
-0.038820 -0.438948 -0.073554
-0.239568 0.431438 -0.114724
-0.201904 0.313021 -0.319298
-0.213988 -0.047424 0.440492
-0.062523 0.417618 -0.157957
-0.156037 -0.165921 -0.415268
0.072118 0.443931 0.037823
0.003511 -0.155256 -0.419286
0.009633 -0.110515 0.429191
-0.163909 0.415626 0.159137
0.080145 0.380130 -0.234894
-0.137926 -0.049312 -0.444667
-0.200537 -0.087234 -0.438765
-0.165063 0.289435 0.336636
0.269213 0.251645 -0.369804
0.083292 0.045436 -0.445130
0.258485 0.425763 -0.134258
-0.202806 0.401109 0.192280
0.162735 -0.255551 0.362100
0.159588 -0.083653 0.435212
0.285165 0.049440 -0.444752
-0.060072 0.088677 0.434318
-0.128334 -0.398084 0.196204
-0.266914 -0.441713 0.050452
0.118925 0.408009 0.177185
0.273676 -0.350278 0.271987
-0.013044 -0.219631 -0.389230
0.178509 0.411206 -0.174151
0.234369 0.357148 -0.268804
-0.039514 0.246660 0.368839
-0.105891 -0.443938 0.026913
0.283261 0.314839 -0.317480
0.192072 0.135097 0.422347
-0.051741 -0.391853 -0.212786
-0.253200 0.225071 -0.386619
0.112198 0.419101 0.149484
0.163765 0.301970 0.325585
-0.193009 -0.444459 0.012588
0.086264 -0.443632 0.030147
0.081159 -0.444527 0.010415
-0.078146 0.437213 0.085066
-0.289594 0.445516 -0.015896
0.254371 -0.428722 -0.120546
0.133975 0.024787 0.442495
0.190030 0.199275 -0.400579
-0.182230 0.194670 -0.402925
-0.106522 0.177697 -0.410616
0.090328 -0.419455 -0.150006
0.113352 -0.442364 0.043561
0.100311 -0.296641 0.329379
0.280722 -0.421951 -0.143074
0.131240 -0.377114 -0.238260
-0.105533 -0.367133 -0.253284
-0.135071 -0.423766 -0.137606
0.283496 -0.427316 -0.125386
0.050340 0.170749 0.409269
-0.009605 -0.131246 0.423168
-0.177914 -0.406758 -0.182063
0.148220 -0.444838 0.000527
0.174653 0.329748 -0.301963
0.090913 0.424709 0.133534
0.272762 -0.342323 0.282183
0.077258 0.276310 0.347346
0.113927 -0.444874 -0.000616
0.240998 -0.358980 -0.265121
0.253215 -0.371138 -0.247390
-0.194944 -0.001202 0.443204
0.009509 -0.092827 -0.437515
-0.096142 0.049420 0.440400
-0.113411 0.432107 -0.112263
-0.125933 0.341636 0.284126
0.137322 -0.279648 -0.348315
-0.178606 0.083518 0.435441
-0.186231 -0.094319 -0.437182
-0.245765 0.231512 -0.382810
0.128223 -0.325160 -0.306004
0.225994 -0.340173 0.284622
-0.133492 0.442061 0.056013
-0.068886 -0.352953 0.268538
0.117951 -0.313147 0.313794
-0.275959 -0.437425 0.078816
0.189960 0.020233 -0.446992
0.129571 0.147514 -0.422443
0.116903 0.431472 -0.114608
0.248898 0.110309 -0.433836
-0.032225 0.444020 -0.041232
0.252444 0.141256 0.420342
-0.191142 -0.383040 0.223886
-0.155167 0.308160 -0.324158
-0.161198 0.079637 -0.440410
0.055536 0.136011 -0.426435
0.172952 -0.093644 -0.437332
0.156990 -0.404646 -0.186943
-0.211954 -0.217746 -0.390345
-0.288004 0.205479 0.393064
0.255705 0.416614 0.156391
-0.010096 -0.213484 0.388464
0.086550 0.375656 0.237897
-0.212014 -0.444818 -0.005500
0.229575 -0.019760 0.442621
-0.260716 0.070677 -0.441829
-0.191322 -0.118887 0.426759
0.250210 0.021401 0.442602
0.089891 0.170953 0.409181
-0.104127 0.435695 0.091858
0.256730 0.409395 -0.178337
0.179171 -0.014261 0.442794
-0.246536 0.385226 0.221923
0.146152 -0.440398 -0.064397
-0.117915 0.385881 -0.225168
0.122781 0.391471 0.211195
-0.038745 0.180508 -0.409399
-0.147139 0.361804 -0.262633
-0.038417 0.318891 0.309074
-0.092433 -0.162425 0.412352
-0.212982 -0.283036 -0.345687
0.166483 0.428369 -0.125290
-0.226207 0.425179 -0.136268
0.005549 0.396934 0.200473
0.183681 -0.442448 0.042675
0.109230 0.386895 0.219101
-0.290248 0.445068 -0.030154
-0.287376 0.027978 -0.446749
0.239396 -0.422969 0.135895
-0.200335 0.363283 0.256103
-0.153130 0.411206 0.169797
0.114627 0.041571 -0.445495
-0.189673 -0.158339 0.413823
0.177029 0.271444 -0.355474
-0.063994 -0.244853 0.369370
0.004708 -0.175341 0.406839
-0.119630 -0.433768 -0.100247
0.276295 -0.006126 -0.447403
0.095153 0.206456 -0.396920
0.094608 0.097672 0.432308
-0.278365 -0.101819 0.431151
-0.156058 -0.125598 -0.429162
-0.161894 0.200174 0.395767
0.150893 -0.370581 0.243857
-0.259939 0.445836 -0.005710
0.144213 -0.150928 0.416491
0.036238 -0.015051 0.442769
0.163375 0.142282 0.419973
0.043025 0.442002 -0.060738
0.106201 0.384014 -0.228326
0.108247 0.185135 -0.407397
-0.020866 0.427831 -0.127142
0.226420 -0.150161 -0.421121
-0.188561 -0.385399 -0.224251
-0.100234 -0.234120 -0.380661
-0.146840 -0.006369 0.443042
-0.146019 -0.416483 0.153909
0.013652 -0.320475 0.306465
-0.119230 -0.441389 -0.058138
-0.033336 0.291930 -0.338789
-0.035497 0.234025 -0.381324
-0.188594 0.194027 0.398900
-0.025399 -0.287677 0.337282
0.075199 -0.093708 0.432965
-0.011827 -0.182275 0.403838
-0.041319 -0.255611 0.362059
0.162668 -0.431991 0.103846
-0.166598 0.311470 -0.320848
0.131763 0.257780 0.361282
0.126103 0.051555 -0.444552
0.001723 -0.352089 -0.274005
-0.285712 -0.438242 -0.078006
-0.097147 0.314941 -0.317377
-0.290113 0.264935 -0.360522
0.064757 -0.414715 -0.163174
-0.205701 -0.241532 -0.375981
-0.285960 -0.173772 -0.411871
0.192695 0.442706 -0.055142
0.212745 0.230144 0.379265
0.285963 -0.398295 0.195791
0.125110 0.442602 -0.056243
-0.023718 -0.356728 0.263671
0.159505 -0.266583 -0.358449
0.040171 0.318244 0.309721
-0.082472 -0.177418 -0.410293
0.212615 0.121146 -0.430754
0.027898 0.444430 -0.036898
-0.216675 0.194775 -0.402872
-0.146527 -0.055722 -0.444035
0.279976 -0.376862 -0.238687
0.190819 0.445115 -0.028663
-0.105841 -0.169748 0.409259
-0.090990 -0.214749 0.387764
-0.116320 -0.272934 0.349169
-0.145161 -0.430475 0.110158
0.230021 -0.323444 0.303496
0.163811 -0.072066 -0.441446
-0.198515 -0.352266 -0.273777
-0.015535 -0.193684 0.398552
-0.276440 0.210692 0.390408
-0.028592 0.203831 -0.398257
0.019773 -0.197305 0.396707
-0.135745 -0.001331 0.443200
-0.128478 0.423794 0.136450
0.151553 0.292558 -0.338237
0.164950 -0.351905 0.269889
-0.033833 -0.396864 -0.202953
-0.135063 0.213882 0.388783
-0.270351 0.368106 0.249006
-0.265370 0.194047 0.398889
-0.109497 -0.123841 0.425319
-0.163245 0.250195 0.366436
0.138555 -0.192981 -0.403264
0.152064 -0.091039 0.433561
0.196927 -0.022518 -0.446888
0.211686 0.432433 -0.110805
-0.199231 -0.407396 -0.180588
0.010183 -0.345463 -0.282547
0.099589 -0.183025 -0.407866
0.093117 0.410254 0.171999
-0.268331 0.414170 0.162948
0.208657 0.089047 0.434235
0.122731 -0.345459 0.278200
-0.085591 -0.404249 0.183506
0.149400 0.360650 -0.264289
-0.282710 0.137657 -0.425957
0.108950 0.254879 0.363253
0.222607 -0.138057 0.421125
-0.136577 -0.165853 0.410944
-0.234077 0.281464 -0.347701
0.084756 0.385327 -0.226105
0.073666 0.307802 -0.324516
-0.101357 0.406381 0.180948
-0.007942 0.445349 -0.021211
0.283143 0.444604 -0.035064
-0.119422 -0.259520 0.359403
0.112031 -0.400820 -0.195188
0.105945 -0.367765 -0.252354
0.205116 0.111819 -0.433463
0.226833 -0.199444 0.395617
0.023181 0.432997 -0.108280
-0.274564 -0.202306 0.394159
-0.232366 -0.375990 -0.240161
0.048787 -0.331724 0.294205
0.163756 -0.319635 0.307306
0.215949 0.424418 -0.138887
-0.147842 -0.434434 -0.097268
-0.185198 -0.052181 -0.444396
0.040251 -0.244845 -0.373729
-0.160194 -0.285921 -0.343184
0.279275 -0.059849 0.439028
-0.100916 0.269857 -0.356705
-0.204203 0.302037 0.325526
-0.209510 -0.234031 -0.380714
0.098225 0.422512 0.140009
0.226418 -0.258152 -0.364686
-0.121677 0.045404 -0.445133
-0.142308 0.409670 -0.177700
0.232868 -0.442419 0.042980
-0.217144 -0.345654 0.277947
0.002676 0.339603 -0.290784
0.286353 0.381564 0.228115
-0.059751 0.144172 -0.423646
0.256879 0.225702 0.381892
0.019671 0.233305 0.377396
-0.070545 -0.427867 -0.123489
0.205475 0.366168 0.251858
0.210340 -0.020817 -0.446941
-0.114895 0.421647 0.142413
0.068234 -0.208683 -0.395263
0.103736 0.337157 -0.293559
-0.237518 0.416394 0.157004
0.163232 -0.067313 0.437846
-0.143771 0.078051 -0.440661
-0.234184 -0.395888 -0.204869
0.134646 0.351096 0.272254
-0.216280 0.445193 0.021844
-0.056465 0.004379 0.443137
-0.253739 -0.362279 0.256072
0.062900 -0.197478 -0.400972
-0.077433 0.259301 0.360248
0.022798 -0.434032 0.094714
0.261209 0.397160 0.200030
0.261855 0.101838 0.431377
-0.251071 0.444601 0.030741
-0.087078 -0.367709 0.248082
-0.275397 -0.386385 0.218230
0.051963 -0.436414 0.084059
0.223388 0.144858 0.419046
-0.241747 0.444303 -0.038242
0.107675 -0.444470 -0.016573
0.226791 -0.436552 -0.087795
-0.219535 0.129313 -0.428381
-0.245744 0.400823 -0.197193
0.286748 -0.435622 -0.091955
-0.156088 0.295687 0.331124
-0.186647 -0.242763 -0.375145
-0.065752 -0.261340 0.358163
-0.065405 -0.300424 -0.330398
-0.151935 -0.441867 -0.053173
0.035547 0.328469 0.299060
0.273135 -0.230056 0.378711
0.003963 -0.270173 0.351311
0.134642 0.380146 0.230513
0.233217 0.026560 -0.446793
-0.123976 -0.439580 0.065206
0.226361 0.267104 -0.358840
0.284254 -0.098003 0.432005
0.284465 -0.353254 -0.272503
0.232783 0.082539 0.435596
0.166767 0.293962 0.332645
0.156896 0.102791 -0.435517
-0.235144 -0.098997 -0.436136
-0.125038 0.392437 -0.213652
0.022779 0.253942 0.363890
-0.042616 0.000556 0.443257
0.283107 -0.168397 -0.414197
0.082165 -0.434433 -0.097272
0.006448 -0.066410 0.437989
0.135379 -0.295521 0.330367
-0.095808 0.056879 -0.444014
-0.258762 -0.444621 0.007427
-0.260113 0.133085 -0.427285
0.095074 -0.196490 0.397122
0.010238 0.290352 -0.340181
0.199759 0.010550 -0.447296
-0.113230 0.366462 -0.255779
-0.003550 0.346509 -0.282520
-0.202723 0.213081 -0.393545
0.166501 0.412601 0.166575
-0.165650 0.422849 -0.143426
0.250539 0.009673 0.442970
-0.049471 0.437923 -0.086243
-0.243603 0.395925 -0.206807
-0.139989 -0.442429 -0.047228
-0.103948 0.445331 -0.021802
0.039604 0.192486 -0.404038
0.147951 0.436534 -0.092457
-0.253381 -0.363318 -0.258896
0.117608 0.210945 -0.394633
0.183423 -0.130463 -0.427749
0.186762 -0.332547 0.293272
-0.235030 0.370340 0.245720
-0.127795 -0.247984 -0.371596
0.028254 -0.139913 0.420457
-0.064319 -0.225428 -0.385802
-0.166851 0.011023 -0.447282
-0.076712 0.123874 0.425608
-0.149331 -0.193116 -0.403195
-0.132532 0.308738 0.319227
-0.226874 0.221586 -0.388680
-0.140128 0.357606 -0.268214
-0.147527 0.113059 -0.433103
0.178499 -0.174242 0.407314
-0.051063 0.445093 -0.029366
-0.035896 -0.207191 -0.396023
-0.091104 0.421089 -0.148315
-0.289300 -0.314193 0.312748
-0.130804 0.427982 -0.126620
0.166932 -0.102533 -0.435345
0.007084 0.164518 0.411965
0.068737 -0.431427 0.106369
-0.214891 0.085659 -0.439346
0.140073 0.410501 -0.175780
-0.091489 -0.444625 -0.011659
0.285093 0.193750 0.399041
0.209715 -0.434078 -0.098861
-0.096434 0.444988 0.026644
-0.137905 0.350745 -0.277059
0.277530 -0.118233 0.426949
-0.206983 0.091609 0.433663
0.098144 0.402396 0.189753
-0.063550 0.107718 -0.434415
0.090349 0.405454 -0.187444
-0.189621 -0.182564 0.403713
-0.238637 0.133889 0.422698
0.148981 0.445842 -0.005525
0.274707 0.169899 -0.413990
-0.061484 -0.412294 0.164916
0.071359 0.361172 0.259210
0.239644 0.445498 -0.016475
0.217685 -0.044988 0.440722
0.077209 0.317191 -0.315128
0.066339 0.438255 0.080045
0.067534 -0.444072 0.024900
-0.241592 -0.308975 0.317965
0.123737 -0.382059 -0.229899
0.138230 0.098187 0.432192
-0.104850 0.118522 -0.431516
-0.033572 -0.375570 0.236515
0.235396 -0.165123 0.411260
0.253249 -0.439138 -0.072354
0.143508 0.229347 0.379737
-0.160574 0.069501 -0.442015
0.063960 0.392834 -0.212872
0.277810 0.181727 -0.408872
-0.225964 -0.144794 -0.423053
0.275768 -0.023681 0.442498
0.016948 0.127150 -0.429009
-0.021488 0.371506 -0.248357
0.055242 -0.440238 -0.065405
-0.115347 -0.444658 -0.010612
0.167433 0.006311 -0.447430
0.182771 0.056177 -0.444115
-0.051194 0.416268 -0.161706
-0.088268 -0.012240 0.442858
0.152583 0.174040 0.407845
0.023502 -0.440799 0.057509
-0.079374 -0.241649 0.371548
-0.034122 0.115521 -0.432388
-0.055219 0.125386 -0.429522
-0.057238 -0.443769 0.028703
0.107836 -0.423909 0.132761
0.249983 -0.135844 0.421832
-0.080462 -0.398959 0.194488
-0.182508 -0.033823 -0.446131
-0.208647 0.445287 -0.023183
0.253054 -0.394538 0.203164
-0.190487 0.045008 -0.445171
0.196758 -0.441229 -0.059152
0.104196 0.050407 0.440307
-0.221581 -0.202907 0.393853
-0.175248 -0.444797 0.001827
0.068181 -0.347834 0.275137
-0.178557 0.196903 0.397434
-0.226641 -0.044023 0.440813
0.187041 0.445816 -0.006370
-0.254470 0.086986 -0.439050
-0.018954 -0.303267 0.323538
-0.150960 -0.178409 0.405511
0.097836 0.360738 0.259823
-0.028806 -0.438211 -0.078201
0.179963 -0.221967 -0.387849
-0.093947 0.125980 -0.429349
0.118005 -0.119094 0.426698
-0.026088 0.298685 0.328481
0.202291 -0.129788 -0.427945
-0.096390 -0.325754 0.300977
0.202737 -0.162507 -0.416676
0.156614 0.126566 -0.429179
0.006883 0.376573 0.236547
-0.048584 -0.134176 0.422317
0.240464 0.359744 0.261104
0.154845 0.265996 0.355346
0.012430 -0.245438 0.368973
-0.103479 -0.214989 -0.391975
-0.001884 -0.373583 -0.243792
-0.289513 0.026252 0.442449
-0.088064 -0.063024 -0.442878
-0.211800 -0.351512 -0.274749
-0.197581 -0.410547 0.168953
-0.068827 0.027794 -0.446754
0.102479 0.253894 -0.368276
0.059179 -0.426994 -0.126495
0.239466 0.250242 0.366405
-0.049441 -0.418004 0.149685
0.241539 0.072070 -0.441608
-0.268047 -0.392033 0.208080
-0.219982 -0.104381 0.430579
-0.270676 -0.432625 -0.105363
-0.217516 0.227023 -0.385464
0.140901 0.414951 -0.165366
0.133700 -0.096503 0.432340
-0.131335 -0.403555 -0.189464
-0.202391 -0.009293 0.442950
0.080545 0.445726 0.004860
0.092978 -0.301835 0.324800
-0.219997 -0.426862 0.122595
-0.128322 -0.290652 0.334659
0.198191 -0.352844 -0.273032
0.014092 0.358581 0.262604
-0.147403 -0.444661 0.006157
0.065140 -0.153044 0.415730
-0.263391 -0.284730 -0.344234
0.065474 0.197032 0.397368
-0.288924 0.171550 0.408922
0.001003 -0.431285 -0.111356
-0.230084 0.246540 0.368920
0.213734 0.438084 -0.085473
0.045079 0.445574 -0.014059
0.285846 0.268472 -0.357779
-0.201762 0.420581 0.145372
0.069898 0.342569 0.283067
0.239743 -0.393803 0.204606
-0.263392 0.390651 -0.217104
0.281228 -0.362375 -0.260284
0.113158 0.285624 -0.344349
-0.175113 -0.352786 0.268753
-0.159427 -0.418389 -0.152968
-0.268848 0.127618 -0.428873
-0.017466 0.195231 0.398286
-0.040821 0.445195 -0.026104
0.026331 -0.346928 -0.280659
-0.146859 -0.318056 0.308885
0.061676 0.336967 0.289421
0.090322 -0.376820 -0.238757
0.016482 0.444025 -0.041181
-0.048448 0.354144 0.268324
0.156682 -0.100530 0.431440
0.151143 -0.347889 0.275067
-0.172695 -0.124364 0.425167
-0.261128 -0.422547 0.137067
0.060417 0.425074 0.132275
-0.124136 -0.444507 0.011063
0.006764 -0.396464 -0.203737
0.232752 0.433600 0.101233
-0.201396 -0.342392 0.282106
0.047292 -0.148709 -0.421644
0.000561 -0.215644 0.387235
0.207686 0.439751 -0.074949
-0.116824 -0.323762 0.303179
0.231333 0.077642 -0.440725
0.042320 -0.178581 0.405436
0.214966 0.383607 -0.229014
0.138267 0.363853 -0.259618
0.166248 0.319415 0.308551
-0.088460 0.208038 -0.396114
0.218585 0.443635 0.040956
0.282126 -0.213542 -0.392787
0.200427 0.241492 0.372351
-0.229110 0.273867 -0.353595
0.202050 -0.276158 -0.351022
-0.080064 -0.390271 -0.215892
-0.017822 0.115310 0.428096
0.004967 -0.423918 0.132729
0.139688 0.122740 0.425937
-0.267389 0.228637 -0.384510
-0.252141 0.139149 -0.425454
0.079422 -0.081835 -0.439899
0.100706 -0.419335 0.145988
-0.081481 -0.351894 -0.274256
0.184954 -0.058125 0.439301
-0.124088 0.023469 0.442537
0.110823 0.377507 0.234976
-0.209942 0.340604 -0.289649
-0.098589 0.432580 0.105795
0.023714 0.099218 -0.436315
0.111995 0.362563 0.257163
0.262128 -0.437831 -0.080603
-0.097395 0.225616 -0.386297
0.275034 0.374934 -0.243312
0.191137 0.429764 -0.120488
0.050704 -0.077290 -0.440619
-0.268040 -0.425957 -0.130064
-0.022985 -0.441258 -0.058964
0.269440 -0.315139 -0.316155
-0.111263 0.445701 0.005671
-0.272232 0.400053 0.194351
-0.161363 -0.364165 0.253298
-0.270802 -0.336446 0.288849
0.153387 -0.398531 0.195327
-0.242939 -0.012602 0.442846
0.016790 -0.394344 -0.207898
-0.008134 -0.434326 -0.097752
0.111655 -0.332883 -0.297244
0.090077 0.107621 0.430084
-0.086055 0.391326 0.211480
0.098332 0.419135 0.149391
-0.177212 -0.423507 0.134144
0.188989 0.285786 0.339853
-0.092576 -0.386200 0.218543
0.113033 -0.382595 -0.228993
-0.150147 0.392882 -0.212780
0.059965 -0.441051 0.055921
0.139816 0.147199 0.418203
0.254046 -0.442650 0.040538
-0.222618 0.151565 0.416631
-0.087884 0.289612 -0.340834
-0.176975 -0.003118 -0.447498
-0.263152 0.292518 0.333918
0.108461 -0.351019 0.271031
-0.039251 0.104214 0.430845
0.262865 0.304369 -0.327823
0.012513 0.299705 0.327582
0.053426 0.316081 -0.316237
0.058975 0.376587 -0.240880
-0.278662 0.416118 -0.162123
0.017209 0.413228 0.165126
0.230602 -0.426765 -0.127284
-0.213860 0.358050 0.263288
-0.076081 -0.044445 0.440773
-0.269025 -0.125052 0.424968
-0.148563 -0.138606 0.420927
0.104409 0.218952 0.385884
-0.096167 -0.138449 -0.425338
0.010200 0.424167 -0.139752
0.246932 -0.192592 -0.403462
0.272233 0.442001 -0.060746
-0.244378 0.288944 0.337069
0.134959 0.311898 0.316067
-0.256322 -0.052509 0.440011
-0.143052 0.347645 0.276702
0.241999 -0.179564 0.405011
0.173427 0.390440 0.213107
-0.049587 0.443346 -0.048370
0.121106 0.253248 0.364362
-0.087885 -0.360448 0.258767
0.208277 -0.017591 0.442689
-0.287305 -0.250482 -0.369899
-0.009657 0.404482 0.185336
0.222177 0.339664 0.286362
-0.012535 -0.409476 -0.175782
-0.077482 0.431899 -0.113138
-0.075587 -0.304672 0.322269
-0.033479 0.416411 -0.161308
0.050222 0.301971 -0.329937
-0.260532 -0.411950 0.165709
0.048156 0.134633 0.422482
0.120147 0.176218 0.406902
-0.278634 0.349545 0.274252
0.252091 0.417866 -0.157267
-0.180741 0.395105 0.204062
-0.141821 -0.365276 0.251663
0.266945 0.134442 -0.426891
0.221121 -0.418448 0.148451
-0.073308 0.389855 -0.218450
0.109367 0.143967 -0.423720
0.131420 -0.073821 -0.441168
-0.008905 0.029534 -0.446633
-0.159930 0.422237 0.140772
0.071026 0.272668 -0.354524
0.059623 0.443886 -0.042654
0.284143 -0.019962 -0.446968
0.041608 -0.353125 0.268316
0.282104 0.251359 -0.369999
-0.122692 -0.402343 0.187846
0.172205 0.380126 0.230547
0.024335 -0.261193 -0.362620
-0.230798 -0.051742 -0.444437
0.262888 -0.156888 0.414346
0.206043 0.445401 0.015201
0.127282 0.406517 -0.184986
-0.275427 0.001713 -0.447574
0.131422 -0.188742 0.401039
0.043884 -0.405068 -0.185966
-0.016308 -0.432584 0.101191
-0.258377 -0.356794 0.263586
0.259100 0.076647 0.436530
0.048656 0.221399 0.384437
0.028812 0.102914 0.431136
0.282311 -0.296716 0.329314
0.274394 0.075659 0.436686
0.038716 -0.346135 -0.281680
0.028218 -0.399082 -0.198600
-0.066042 0.273199 0.349759
-0.157238 -0.144841 -0.423036
-0.027899 -0.434977 0.090485
-0.139472 0.144683 0.419109
-0.220001 -0.161471 0.412696
-0.026189 -0.354157 -0.271339
0.118248 -0.214450 0.387941
0.074259 0.188045 -0.406137
-0.065124 0.445087 0.025190
0.000523 -0.184314 0.402956
-0.216932 -0.226643 -0.385083
0.102078 -0.204063 0.393264
-0.159508 -0.433512 -0.101393
0.024537 -0.334805 -0.295065
-0.283282 0.417340 0.154376
-0.277175 -0.429318 0.114143
-0.201138 -0.437862 0.076052
-0.272774 0.326329 -0.305841
-0.114827 0.058296 -0.443790
0.097412 -0.067339 0.437842
0.000564 -0.281181 -0.347126
0.283398 0.443951 0.037609
-0.051546 0.428556 -0.124646
0.181055 0.442874 -0.053361
-0.241929 0.441125 -0.066277
-0.062271 -0.037618 0.441419
0.077295 0.423033 0.138563
-0.218576 -0.172840 0.407920
0.162578 0.361084 -0.263692
-0.078741 -0.286925 0.337946
0.231421 0.316922 0.311043
0.137104 0.402960 0.188646
-0.128699 -0.431836 0.104538
0.218833 0.032034 0.442044
-0.008147 -0.005218 -0.447432
-0.077019 0.411709 -0.172988
0.172516 -0.003079 -0.447499
-0.106688 -0.443409 -0.036864
0.286725 0.340175 -0.290136
0.096969 0.197267 -0.401602
0.052935 0.438813 -0.080875
-0.100590 -0.074240 0.436749
-0.273193 0.171107 0.409114
0.196082 -0.327413 0.299096
-0.104481 -0.192980 0.398911
0.120002 -0.341415 -0.287566
0.106303 0.017506 -0.447078
-0.190308 -0.442321 0.044012
-0.010258 0.401400 -0.196061
-0.030318 0.198023 0.396863
-0.130978 0.262812 -0.362169
0.014450 0.442528 -0.057019
-0.248001 -0.400321 0.191814
-0.287186 -0.043668 -0.445200
-0.217330 0.261992 0.358419
-0.253480 -0.234728 -0.380302
0.154938 -0.376620 0.234743
-0.029122 -0.182834 0.403596
-0.180473 0.416988 -0.159708
0.054468 0.188683 -0.405862
0.251019 -0.059989 0.439006
-0.063072 0.137101 0.421765
-0.209282 -0.058062 -0.443664
-0.235775 -0.443630 0.030173
-0.275075 -0.411958 -0.170046
-0.161163 0.088066 0.434455
-0.078998 0.193277 -0.403635
0.213119 -0.317156 -0.314138
-0.065341 0.247420 -0.372676
0.170657 0.442782 -0.054331
0.231697 -0.215171 -0.391868
0.030609 0.434749 -0.100446
-0.278913 0.396446 -0.205784
-0.022417 -0.310883 0.316058
-0.172810 0.115743 0.427970
-0.050286 0.122554 0.425991
-0.243227 -0.131163 -0.427546
-0.009349 -0.329266 -0.301347
-0.029190 0.444733 0.029345
-0.243109 0.164556 -0.416302
0.202168 0.445100 -0.029156
0.202172 0.115171 0.428136
0.115811 -0.071764 0.437141
-0.013902 0.096538 0.432561
0.173025 0.348116 -0.280448
-0.158873 0.441550 -0.063590
0.147617 0.336007 -0.294863
-0.197254 0.343585 -0.286268
0.239853 -0.401790 -0.193285
-0.084073 0.259669 -0.364352
0.220105 0.259804 -0.364259
0.021704 0.420523 0.145534
0.244124 -0.444436 -0.017649
0.095928 -0.345007 -0.283135
0.269311 -0.363385 -0.258799
-0.025639 -0.390181 -0.216069
-0.136854 0.194217 0.398802
-0.156669 0.240430 -0.377426
0.020180 -0.133785 -0.426784
-0.135686 0.320295 -0.312023
-0.276029 0.275630 0.347873
0.050540 -0.299085 -0.331578
-0.264336 0.392582 0.209014
0.223789 0.072140 0.437244
0.197339 0.445704 -0.009913
0.210576 -0.397700 0.196959
-0.253267 0.302986 0.324689
0.107094 0.353764 0.268813
-0.163634 -0.073306 -0.441250
0.065283 -0.182687 -0.408013
-0.253637 -0.381218 -0.231321
0.065207 0.429628 0.116602
-0.103007 0.410903 0.170497
-0.184568 -0.388504 0.214647
-0.010434 -0.134171 -0.426672
-0.168811 -0.012920 -0.447190
0.114204 -0.389802 0.212453
0.107107 0.134507 0.422518
