0.286960 0.474581 0.055380
0.286960 -0.388183 -0.256914
0.286960 0.041902 -0.455810
0.286960 -0.374511 -0.271527
0.286960 -0.367536 -0.269473
0.286960 -0.431202 0.185393
0.286960 0.433697 0.141653
0.286960 0.412067 -0.173962
0.286960 -0.318409 0.332994
0.286960 -0.363804 -0.337089
0.286960 0.492430 0.064427
0.286960 -0.386179 -0.272163
0.286960 -0.343888 0.301874
0.286960 -0.460416 -0.074364
0.286960 -0.445324 0.205018
0.286960 -0.337954 -0.313731
0.286960 -0.168241 -0.426611
0.286960 -0.373117 -0.245316
0.286960 -0.463342 0.039541
0.286960 0.458629 -0.163807
0.286960 0.428854 -0.208904
0.286960 -0.103566 0.472832
0.286960 -0.401252 -0.258116
0.286960 -0.382725 0.315490
0.286960 -0.255904 -0.367540
0.286960 -0.147851 0.442796
0.286960 0.442186 -0.205368
0.286960 -0.366966 -0.315224
0.286960 -0.323668 0.323134
0.286960 -0.299329 0.327245
0.286960 0.460222 0.037044
0.286960 -0.437654 0.082894
0.286960 0.459928 -0.040448
0.286960 0.249023 -0.384141
0.286960 0.024315 -0.488839
0.286960 0.099262 -0.470375
0.286960 0.447116 -0.004357
0.286960 0.398488 -0.279725
0.286960 -0.448691 -0.031181
0.286960 -0.267919 0.412468
0.286960 0.306669 -0.379046
0.286960 -0.403576 0.221272
0.286960 -0.476143 -0.031669
0.286960 -0.464736 0.026564
0.286960 0.130210 -0.437899
0.286960 0.203408 -0.435303
0.286960 -0.452403 -0.060392
0.286960 -0.232918 0.396232
0.286960 0.432110 0.235028
0.286960 0.195850 0.399771
0.286960 -0.003466 -0.449587
0.286960 0.396038 -0.242021
0.286960 0.437932 0.111298
0.286960 -0.460759 -0.050816
0.286960 0.191461 0.433053
0.286960 -0.267694 -0.376670
0.286960 0.146671 0.472388
0.286960 -0.463278 -0.076556
0.286960 0.431971 -0.234237
0.286960 -0.316860 -0.380572
0.286960 -0.073065 -0.461144
0.286960 0.082715 -0.486081
0.286960 0.071760 0.451743
0.286960 0.017220 -0.495743
0.286960 -0.259062 -0.402601
0.286960 -0.229468 -0.416089
0.286960 -0.457368 -0.037308
0.286960 -0.442280 -0.157629
0.286960 0.253216 -0.374243
0.286960 0.444824 -0.090463
0.286960 0.377652 0.238265
0.286960 -0.105204 -0.445162
0.286960 -0.032164 0.459264
0.286960 -0.233923 -0.433620
0.286960 0.122932 -0.441848
0.286960 -0.028108 -0.460011
0.286960 -0.276576 0.389429
0.286960 0.400394 -0.277047
0.286960 -0.443746 -0.036340
0.286960 0.140262 -0.453768
0.286960 0.034623 0.453787
0.286960 -0.166567 0.433142
0.286960 -0.217848 0.435624
0.286960 0.481510 0.106610
0.286960 0.394616 0.290967
0.286960 -0.288789 0.362266
0.286960 -0.015141 -0.465080
0.286960 0.474724 0.084829
0.286960 0.452431 -0.178302
0.286960 0.429513 -0.188849
0.286960 0.374925 -0.330187
0.286960 0.438461 -0.179195
0.286960 0.306453 -0.327077
0.286960 0.282838 0.354720
0.286960 0.451462 -0.155185
0.286960 0.418521 -0.172684
0.286960 -0.334221 0.299009
0.286960 -0.289877 0.383882
0.286960 0.373178 0.317387
0.286960 0.448441 0.152682
0.286960 -0.471451 -0.053571
0.286960 -0.194085 -0.455954
0.286960 0.347078 -0.350262
0.286960 -0.470212 -0.047174
0.286960 -0.476881 -0.036455
0.286960 -0.412873 -0.168316
0.286960 0.009450 0.495400
0.286960 -0.006072 -0.478261
0.286960 0.430827 0.212950
0.286960 0.474337 0.140791
0.286960 0.488497 0.070878
0.286960 0.225983 0.436086
0.286960 0.193221 -0.446854
0.286960 -0.275139 0.412435
0.286960 0.477796 -0.019927
0.286960 -0.353080 0.283574
0.286960 -0.473148 0.079364
0.286960 -0.309238 -0.374967
0.286960 0.376596 -0.263067
0.286960 0.227036 -0.386295
0.286960 -0.091352 -0.462543
0.286960 0.355341 -0.271377
0.286960 -0.454136 0.110415
0.286960 -0.451778 0.080323
0.286960 0.059470 0.479131
0.286960 0.457897 -0.152516
0.286960 0.295579 -0.365323
0.286960 0.033912 -0.466541
0.286960 -0.325057 -0.338591
0.286960 -0.011293 -0.466195
0.286960 0.456261 0.133039
0.286960 0.488485 0.053741
0.286960 -0.327628 0.355914
0.286960 -0.401495 -0.293538
0.286960 -0.327839 0.317321
0.286960 0.099033 -0.466955
0.286960 0.460087 -0.037369
0.286960 -0.111004 0.470231
0.286960 -0.072227 0.468352
0.286960 0.352746 0.321655
0.286960 0.479481 0.071525
0.286960 0.319422 0.319134
0.286960 0.158673 -0.453858
0.286960 -0.120675 -0.483808
0.286960 0.458401 0.172283
0.286960 0.066428 -0.447012
0.286960 -0.416324 -0.239231
0.286960 0.271213 0.356731
0.286960 0.081805 -0.472385
0.286960 0.477941 0.126729
0.286960 -0.441186 0.080715
0.286960 -0.443704 -0.074050
0.286960 0.219715 0.412398
0.286960 0.151700 -0.431784
0.286960 -0.449342 0.035858
0.286960 0.450747 -0.104202
0.286960 -0.442129 -0.227117
0.286960 -0.211664 0.404640
0.286960 -0.367682 -0.263281
0.286960 -0.359349 -0.341354
0.286960 -0.410910 -0.280739
0.286960 0.261383 -0.368353
0.286960 0.084440 -0.465322
0.286960 0.306134 0.325646
0.286960 0.254842 0.412868
0.286960 0.497207 -0.018556
0.286960 -0.198063 -0.445235
0.286960 0.199004 0.434438
0.286960 0.495593 0.041912
0.286960 0.367470 0.331195
0.286960 -0.430448 -0.197720
0.286960 -0.373479 -0.296762
0.286960 0.076775 0.486193
0.286960 -0.334412 -0.358714
0.286960 -0.275935 -0.361537
0.286960 0.342059 0.345147
0.286960 -0.002029 -0.486693
0.286960 0.390350 -0.219161
0.286960 0.460263 0.186319
0.286960 0.145436 -0.466598
0.286960 -0.274760 0.401726
0.286960 0.152216 0.454408
0.286960 0.328764 0.321108
0.286960 -0.449093 0.139307
0.286960 0.464998 0.138211
0.286960 0.482539 -0.061051
0.286960 -0.170259 -0.446617
0.286960 -0.455928 -0.185845
0.286960 0.449168 -0.059808
0.286960 0.212743 0.426179
0.286960 0.332052 0.333698
0.286960 0.449978 0.211709
0.286960 -0.071815 -0.484779
0.286960 -0.430895 -0.223303
0.286960 0.369874 0.300774
0.286960 0.182014 0.435586
0.286960 -0.416802 0.191385
0.286960 0.153703 0.436126
0.286960 0.437935 -0.153870
0.286960 0.453081 0.001208
0.286960 0.317537 0.329478
0.286960 -0.456602 0.088316
0.286960 0.138825 0.454916
0.286960 -0.085961 -0.453637
0.286960 0.298729 0.363363
0.286960 -0.260524 0.378537
0.286960 0.376083 0.263425
0.286960 0.174931 0.415779
0.286960 0.410786 0.246117
0.286960 -0.079509 -0.446207
0.286960 -0.316648 0.360472
0.286960 0.438796 0.182492
0.286960 0.487348 0.013629
0.286960 0.452181 0.048211
0.286960 -0.354286 -0.312721
0.286960 -0.258685 -0.419517
0.286960 0.057840 -0.453745
0.286960 -0.108641 0.453905
0.286960 -0.399920 0.276616
0.286960 -0.158118 0.430294
0.286960 0.280663 -0.352125
0.286960 -0.469391 -0.030713
0.286960 -0.022732 0.456327
0.286960 -0.449875 0.012820
0.286960 -0.341752 -0.297862
0.286960 -0.130766 0.424852
0.286960 0.121780 0.427034
0.286960 -0.458005 -0.157986
0.286960 0.178267 0.440695
0.286960 -0.060851 0.454854
0.286960 0.270445 -0.380586
0.286960 -0.464840 0.166093
0.286960 -0.375882 0.271123
0.286960 0.448934 0.192118
0.286960 -0.400748 -0.289120
0.286960 -0.169993 -0.469223
0.286960 -0.446557 0.198018
0.286960 0.432503 0.167487
0.286960 0.466624 0.052969
0.286960 -0.442293 0.118575
0.286960 0.037759 0.453380
0.286960 0.362554 -0.341608
0.286960 -0.418789 -0.199954
0.286960 0.324793 -0.370018
0.286960 -0.169998 -0.435247
0.286960 -0.470490 0.012394
0.286960 -0.475098 0.098572
0.286960 0.291399 -0.347153
0.286960 -0.413056 -0.186320
0.286960 -0.462320 -0.094717
0.286960 0.490591 -0.028573
0.286960 -0.250041 -0.422343
0.286960 0.362446 -0.323550
0.286960 -0.464913 -0.174151
0.286960 -0.212577 0.396293
0.286960 0.427936 -0.148947
0.286960 0.462972 0.169909
0.286960 0.448031 0.122443
0.286960 -0.462667 -0.180315
0.286960 0.314999 -0.335893
0.286960 0.412680 -0.196398
0.286960 -0.128622 -0.463503
0.286960 0.326205 0.310771
0.286960 -0.318333 -0.326088
0.286960 0.430780 0.114703
0.286960 0.325927 0.363333
0.286960 -0.490702 0.003999
0.286960 -0.156538 -0.474592
0.286960 0.246420 -0.425964
0.286960 -0.320775 0.349031
0.286960 0.138202 -0.480654
0.286960 0.303533 -0.334901
0.286960 0.444709 -0.073317
0.286960 -0.489881 0.082886
0.286960 -0.097087 0.477554
0.286960 0.466809 0.080167
0.286960 -0.452649 0.177388
0.286960 0.171769 0.427802
0.286960 0.377731 0.301352
0.286960 0.019293 -0.490528
0.286960 0.447751 -0.103610
0.286960 -0.365911 0.300035
0.286960 -0.365925 -0.291253
0.286960 0.278524 -0.374399
0.286960 -0.267898 0.358557
0.286960 0.459682 -0.092876
0.286960 0.235756 -0.384658
0.286960 0.489321 0.021506
0.286960 -0.224106 0.407672
0.286960 -0.455276 0.077360
0.286960 -0.203024 0.442675
0.286960 -0.261397 -0.421711
0.286960 -0.307954 -0.329903
0.286960 0.180081 -0.441444
0.286960 -0.065831 0.448564
0.286960 -0.372062 0.286894
0.286960 -0.273079 -0.412222
0.286960 0.046078 0.487857
0.286960 0.335759 -0.310562
0.286960 0.219436 0.388044
0.286960 -0.459446 0.080173
0.286960 0.410727 -0.252190
0.286960 -0.473206 0.050063
0.286960 -0.364509 0.276928
0.286960 0.187844 0.438509
0.286960 -0.444563 -0.022173
0.286960 0.439982 -0.114193
0.286960 0.038533 0.447369
0.286960 -0.449047 0.054303
0.286960 0.427531 0.214972
0.286960 -0.389117 -0.273377
0.286960 0.189619 0.404434
0.286960 0.144174 -0.461922
0.286960 -0.401889 0.290703
0.286960 0.452128 -0.121102
0.286960 0.088844 -0.480374
0.286960 -0.078695 -0.478833
0.286960 0.479584 0.099836
0.286960 -0.442953 0.089291
0.286960 0.301369 0.360652
0.286960 0.488205 0.018270
0.286960 -0.472293 0.140854
0.286960 0.434557 0.128197
0.286960 -0.483013 -0.049314
0.286960 -0.038119 -0.453886
0.286960 0.268656 0.369878
0.286960 0.478193 0.050546
0.286960 -0.213696 0.407591
0.286960 0.473246 -0.037462
0.286960 0.262548 -0.390079
0.286960 -0.468081 0.006023
0.286960 0.438927 -0.208422
0.286960 0.245870 -0.394461
0.286960 0.248243 0.420971
0.286960 0.254802 0.381447
0.286960 -0.423249 0.202313
0.286960 -0.408550 0.273967
0.286960 0.163490 0.447060
0.286960 0.259798 0.369026
0.286960 0.468032 -0.094429
0.286960 -0.106939 0.470702
0.286960 0.261954 0.385523
0.286960 0.017155 -0.485044
0.286960 -0.351346 -0.280007
0.286960 0.236755 -0.411283
0.286960 -0.069525 0.455863
0.286960 0.091944 -0.465911
0.286960 0.191659 0.407464
0.286960 -0.441484 -0.198304
0.286960 -0.312663 -0.324952
0.286960 0.340020 0.286015
0.286960 -0.461151 0.017043
0.286960 0.367930 0.311092
0.286960 -0.387459 0.266131
0.286960 0.474642 -0.007017
0.286960 0.212305 0.446153
0.286960 0.398534 0.260350
0.286960 -0.296243 -0.373592
0.286960 0.066884 0.484617
0.286960 -0.488623 -0.031037
0.286960 -0.357942 0.330322
0.286960 -0.245135 0.378223
0.286960 0.329354 -0.365934
0.286960 -0.376914 0.317023
0.286960 -0.480249 0.052961
0.286960 -0.021242 0.494948
0.286960 0.493567 -0.071359
0.286960 -0.248005 0.381178
0.286960 -0.156504 -0.432432
0.286960 -0.242309 -0.391151
0.286960 -0.157883 0.436481
0.286960 -0.037557 -0.447671
0.286960 0.491568 0.031334
0.286960 0.329807 0.355861
0.286960 0.471452 -0.082305
0.286960 -0.471059 -0.144634
0.286960 -0.317597 0.329321
0.286960 0.356945 -0.282591
0.286960 -0.464831 0.087757
0.286960 0.259946 0.422338
0.286960 -0.433014 0.150364
0.286960 -0.361741 -0.261643
0.286960 0.439010 -0.122464
0.286960 0.230537 -0.433778
0.286960 0.261307 0.413195
0.286960 -0.064200 0.468751
0.286960 -0.469649 -0.073234
0.286960 0.139248 0.445707
0.286960 0.271536 -0.402417
0.286960 -0.040508 0.455332
0.286960 0.136809 -0.432308
0.286960 -0.434380 0.147002
0.286960 -0.294857 0.389108
0.286960 -0.059618 -0.462278
0.286960 -0.491281 -0.009122
0.286960 0.292128 -0.343571
0.286960 -0.378975 0.265716
0.286960 0.173985 -0.453594
0.286960 -0.117671 0.466644
0.286960 -0.406035 0.200809
0.286960 -0.430860 -0.201084
0.286960 0.297157 0.392374
0.286960 -0.159568 -0.428064
0.286960 -0.383324 -0.302698
0.286960 -0.244201 -0.410197
0.286960 -0.469533 0.063823
0.286960 -0.144898 -0.460426
0.286960 -0.447966 -0.201076
0.286960 0.435667 0.212158
0.286960 -0.191311 0.425325
0.286960 0.006115 -0.492658
0.286960 0.046474 0.491165
0.286960 0.038455 0.476678
0.286960 -0.141667 -0.474203
0.286960 -0.327584 -0.374350
0.097125 0.116291 0.482115
-0.254230 -0.184237 -0.464691
-0.039970 -0.314489 0.383654
-0.104531 0.457358 -0.200352
-0.071402 0.418969 -0.272365
-0.179778 -0.457186 0.194098
-0.229284 -0.257619 -0.427984
0.002722 0.023302 -0.499785
-0.033600 0.321180 -0.383145
0.215096 0.498187 -0.019204
0.088374 -0.328085 0.371987
0.140011 0.412213 0.277991
0.171106 0.218363 -0.449937
0.220759 0.432674 0.245167
-0.250663 0.498071 0.022641
0.189687 -0.111757 0.483051
0.109546 -0.364703 -0.340859
0.154558 0.253360 0.426852
0.090258 -0.497609 0.003510
-0.049266 -0.438359 -0.237820
0.022351 -0.027535 0.495121
-0.235722 0.153396 0.471776
0.210746 -0.481771 -0.126354
-0.143087 0.235263 -0.441560
-0.034159 0.416053 0.272174
0.055270 0.492535 0.074544
-0.250997 -0.300603 -0.398931
-0.073727 -0.467368 -0.172783
0.026110 0.125602 0.479902
-0.212039 0.483085 0.120951
-0.105329 0.387220 0.311802
0.192292 0.480586 0.130004
-0.116566 -0.211524 0.448449
0.241392 0.211053 0.449120
0.032780 0.492459 -0.079527
0.011359 0.345182 0.357465
0.075712 -0.418529 -0.271224
-0.113250 -0.285077 -0.410075
-0.249507 0.494766 -0.063100
-0.070362 0.319779 0.380104
0.103337 -0.313942 0.384123
-0.091194 0.375419 0.325555
0.159219 0.167888 0.466857
-0.081333 -0.391354 -0.309538
0.083861 0.122106 0.480733
-0.199810 -0.460819 -0.189624
-0.037284 -0.469354 0.162979
0.211296 0.402285 0.292054
-0.017063 -0.411177 -0.282361
0.060677 -0.187091 0.459089
-0.287845 -0.475817 0.142918
0.135912 -0.486635 0.101583
-0.036889 -0.494777 0.049156
-0.119795 0.001657 -0.500175
-0.174531 -0.479203 -0.135656
0.143878 -0.156561 -0.474851
0.114286 0.368609 -0.337512
-0.275686 -0.489066 -0.093678
-0.204187 0.072987 -0.494814
0.016575 -0.423594 0.258745
0.171394 -0.345375 -0.360713
0.133171 0.234033 -0.442216
0.096089 -0.259912 -0.426586
0.185595 0.316907 -0.386812
0.223152 0.217374 -0.450425
-0.157750 0.221998 -0.448146
-0.255746 -0.486502 0.102144
-0.109250 -0.088852 -0.492055
0.068957 -0.341713 0.359590
-0.150251 0.243482 0.432636
-0.164194 0.215622 0.447069
0.018745 0.119352 -0.485933
-0.191011 0.468198 0.168994
0.159178 -0.274059 0.413218
-0.260860 0.342603 0.359801
-0.195378 -0.441037 -0.232633
-0.191490 0.492985 -0.076471
-0.105973 -0.408939 -0.285751
-0.058112 -0.443010 -0.228629
-0.098146 -0.438234 -0.238038
0.131438 -0.474079 0.148614
-0.095512 -0.283308 0.407112
0.054599 -0.192726 -0.461237
0.253941 0.235627 0.436772
0.261355 -0.497304 -0.013418
-0.127462 0.489433 -0.097106
-0.054408 -0.189456 0.458103
-0.169831 0.221430 -0.448426
0.079127 0.470439 0.162497
-0.284243 -0.161549 0.468651
0.071719 0.211144 -0.453495
0.054035 -0.473542 0.150376
0.074012 -0.310037 0.387284
0.090668 0.072439 -0.494893
0.270565 -0.331460 0.369092
-0.011681 -0.361304 0.340091
0.016865 -0.391581 0.304784
-0.086805 0.161990 -0.473206
-0.097681 -0.401707 -0.295815
0.236504 -0.136881 0.476458
-0.098414 0.388240 -0.314613
0.233020 0.391579 -0.310425
-0.111801 0.307102 -0.394625
0.088022 0.239269 -0.439262
-0.275297 0.477331 0.141795
-0.209644 -0.330107 0.370252
0.248734 0.481889 0.125283
-0.206667 -0.171258 0.465302
0.220079 0.451528 -0.213344
0.106986 0.303527 0.393063
-0.044938 -0.376666 -0.327261
0.257924 0.488378 -0.102913
-0.002637 0.269962 -0.420953
0.106636 -0.172635 0.464827
0.220577 -0.460333 0.187021
0.273474 0.489881 -0.094500
0.228953 -0.112427 0.482911
-0.109251 0.156797 -0.474997
-0.282196 -0.436821 0.236005
-0.252707 -0.331238 -0.373519
0.175775 -0.455721 -0.201851
0.198056 0.223070 -0.447618
-0.133498 0.362351 -0.344421
0.101528 0.129960 -0.483005
-0.063822 0.034877 -0.498962
-0.025345 0.458245 -0.198376
-0.163508 0.308483 -0.393583
-0.028707 0.059577 0.492278
-0.247907 0.334323 -0.371868
0.283774 -0.091899 -0.491531
-0.265594 0.470115 0.163435
0.052717 -0.405646 -0.290594
0.173848 0.347771 0.354951
0.271982 0.043167 -0.498290
0.281108 0.215686 -0.451257
-0.073068 -0.476643 0.140213
-0.075284 0.406870 0.285976
-0.016414 -0.497297 -0.013822
-0.029658 -0.054308 -0.497090
-0.168255 -0.150664 -0.476651
0.284769 0.447779 -0.221493
-0.156100 -0.492118 0.071205
0.194705 -0.292951 0.400174
-0.190920 -0.055780 0.492801
-0.067994 -0.487356 -0.101843
-0.055936 -0.453812 -0.206429
-0.143473 -0.486285 0.103056
-0.190646 -0.212709 -0.452270
-0.108733 0.406941 -0.289867
0.101903 0.473178 -0.159279
-0.178600 0.120278 0.481167
0.166201 0.497778 0.026266
0.048065 0.489752 -0.095254
-0.201349 0.488712 -0.101294
0.075580 -0.458708 0.190706
-0.274483 0.183966 -0.465173
0.013318 -0.387900 -0.314116
0.085714 -0.264543 0.419500
0.075123 -0.436090 -0.241776
-0.190839 -0.004706 0.495748
0.233167 -0.395186 0.300262
0.080066 -0.471205 -0.161658
-0.121587 -0.384922 0.313135
0.185114 -0.334210 0.366732
-0.010438 0.152380 0.472086
-0.238291 0.323808 0.376824
0.059927 -0.263788 0.419999
-0.016839 -0.493087 -0.067997
0.282209 -0.327030 -0.377331
0.033184 0.133737 0.477775
-0.027205 -0.247473 0.429617
0.014141 -0.238103 -0.439282
-0.172857 0.415452 0.273085
0.100690 -0.251619 0.427239
0.129101 -0.261951 -0.425344
-0.215357 -0.359927 -0.345766
0.021679 -0.122784 -0.484681
0.164026 0.485186 -0.116347
0.183185 0.132836 -0.482211
0.034253 0.349937 0.352726
-0.108267 -0.175747 -0.467877
-0.164864 -0.474866 0.146035
-0.058288 0.261316 0.422002
0.272067 0.364135 0.338143
-0.155435 -0.233162 0.437787
-0.072217 -0.262787 0.420660
-0.062401 0.491000 -0.088000
0.088501 0.158605 -0.474373
-0.005413 0.309160 -0.393073
-0.224467 -0.298536 0.395961
-0.191706 -0.378085 -0.325608
-0.133278 0.359096 0.343319
0.263890 -0.409904 0.279812
-0.004487 0.380470 0.319669
0.246747 0.454466 0.202966
0.213815 -0.126527 0.479316
-0.128058 -0.058939 -0.496589
0.133041 0.298624 -0.401021
0.181097 -0.471801 -0.159932
-0.052603 0.014740 -0.499939
-0.276649 -0.425740 0.255225
-0.193114 -0.452108 -0.210164
0.050870 -0.181500 -0.465719
0.058348 -0.443882 0.222594
-0.169767 -0.305527 -0.395005
0.285176 0.121502 0.480876
0.069824 0.433501 0.243725
-0.268237 -0.379560 0.319859
-0.037556 -0.460313 -0.190838
-0.218314 0.362478 -0.344281
-0.233176 0.327063 -0.378097
0.190965 -0.463009 -0.184371
0.061158 0.295783 0.398951
0.119385 -0.432774 0.243687
0.052709 0.028323 0.495015
0.257522 -0.100315 -0.490021
-0.253788 0.493532 -0.073298
0.044156 0.404230 0.289475
0.247972 -0.228186 0.440239
0.172025 0.080882 -0.493671
0.071780 0.489437 0.092447
-0.053114 0.477506 0.141163
0.011477 -0.459081 -0.193791
0.154418 0.248502 -0.433968
-0.221350 0.060652 -0.496598
-0.097605 0.495548 0.053721
0.268959 0.221962 0.443967
-0.100561 -0.182697 -0.465269
-0.017788 -0.255476 0.425028
0.235870 -0.160436 -0.473622
-0.216695 0.407828 0.284632
-0.182743 -0.443538 -0.227557
-0.248178 -0.493893 0.057337
0.202872 -0.497381 -0.009150
0.012713 -0.058700 -0.496615
-0.001214 0.430776 -0.252999
-0.092432 -0.248475 0.429042
-0.173522 -0.097777 -0.490519
0.141440 -0.390565 -0.310584
0.285225 0.422613 -0.266389
-0.264304 0.160516 0.469604
0.199566 -0.493883 0.057430
-0.000676 -0.484807 0.109277
-0.139595 -0.162154 0.468442
0.029029 0.336067 -0.370371
0.025224 -0.432547 0.244059
-0.156962 0.301790 -0.398632
0.237369 0.156075 -0.475246
0.123604 -0.099066 -0.490297
-0.141541 0.442980 -0.230608
-0.122344 -0.265449 -0.423211
-0.232994 0.365848 0.336383
-0.008127 -0.167023 -0.471151
-0.062906 -0.322079 -0.381807
-0.192149 0.333020 -0.372986
0.221426 -0.451668 -0.211059
-0.079977 -0.496829 -0.029686
0.198264 0.021641 -0.499815
0.093134 -0.063994 0.491613
0.199291 0.454454 -0.206822
-0.092030 -0.048511 -0.497716
-0.268387 0.382577 0.317214
0.260697 0.012223 -0.499985
-0.119262 -0.172981 -0.468915
-0.277584 -0.471886 0.155801
-0.179185 -0.012618 -0.500027
-0.032949 -0.022549 -0.499581
0.032668 0.317465 -0.386333
0.137522 -0.438609 -0.237383
-0.091050 -0.226327 -0.445483
0.025621 -0.440959 -0.232791
-0.250733 -0.112412 0.482914
0.213321 -0.302801 0.392744
-0.220178 -0.467333 0.168366
-0.101872 -0.310123 0.387220
0.118316 0.453683 0.204695
0.173221 0.359701 0.342697
-0.072490 0.436478 -0.242956
-0.235310 -0.386886 -0.315351
-0.092703 0.498359 -0.015367
0.145292 0.232637 -0.442904
-0.238754 -0.433508 0.242299
0.076933 0.460838 -0.192596
-0.187630 0.457464 -0.200114
0.172177 0.498564 -0.003977
0.097914 0.478441 -0.142031
0.108991 0.415943 -0.276996
0.097480 0.244395 -0.436323
0.100186 -0.221811 0.443380
-0.006627 -0.409649 -0.284675
-0.130556 0.379357 -0.325645
0.176820 0.488508 0.096879
-0.251798 0.436060 0.239263
0.044463 0.434824 0.241417
0.066126 0.498138 0.019628
0.121466 0.010379 0.495819
0.215186 -0.289351 -0.407086
0.156671 -0.089871 0.487636
-0.059216 0.311507 -0.391301
-0.240177 0.024584 0.495182
-0.125147 0.353768 0.348791
-0.155084 -0.100952 -0.489870
-0.015139 0.497721 -0.029595
-0.059105 -0.487120 0.099542
0.199227 0.096368 -0.490843
0.227846 -0.497184 -0.020085
-0.069460 -0.005705 0.495730
0.052789 -0.341283 0.360009
-0.113020 -0.010737 0.495640
0.190744 -0.192300 -0.461429
0.226868 0.296883 0.398181
0.229086 -0.495548 0.042022
-0.186946 0.107859 0.484119
0.216566 0.347235 -0.359565
-0.242503 -0.481029 -0.129039
-0.162422 -0.363061 -0.342546
-0.128802 0.112733 -0.487415
-0.288058 0.031999 -0.499195
-0.250493 0.120705 -0.485560
0.115184 -0.464782 -0.180117
0.225493 -0.319136 0.379667
-0.262072 -0.437970 -0.238498
0.012461 -0.406181 0.285136
-0.203866 0.099751 -0.490134
-0.179977 0.212493 -0.452830
-0.079705 0.351595 0.351023
0.203939 -0.284840 -0.410241
-0.195049 -0.037524 -0.498904
-0.121712 -0.031824 0.494773
0.022736 0.225369 -0.446485
0.093540 -0.277735 -0.415210
-0.257311 0.468662 -0.171911
-0.122243 0.412726 0.277214
0.228348 0.479057 -0.140011
0.208727 0.165819 0.467634
-0.240279 -0.465463 0.173349
0.110592 0.230354 -0.444029
0.043030 -0.453269 0.202828
-0.096227 0.460219 0.189167
0.101306 -0.478248 -0.139116
0.202287 0.429698 -0.254767
-0.245049 -0.338604 -0.366848
0.227153 -0.478895 -0.136771
0.177211 -0.410674 0.278712
0.048500 -0.325430 -0.378780
0.017153 0.484544 0.115667
0.155439 0.151330 0.472407
-0.258670 -0.470702 -0.163116
-0.092139 0.480352 0.130851
0.101456 -0.194794 0.455878
0.267439 -0.265560 0.418829
0.049417 -0.102445 -0.489515
-0.045369 -0.427653 0.252088
-0.173402 -0.479037 0.132365
0.101849 0.038923 0.494510
0.107666 0.369866 0.332027
-0.131299 -0.213073 -0.452107
0.221068 -0.259724 0.422592
0.272534 -0.378329 -0.325324
0.253037 0.004038 -0.500132
-0.286947 -0.395250 -0.304374
0.120292 0.139367 0.476057
0.137676 0.163613 -0.472646
0.145370 -0.496465 0.030401
-0.090617 0.331488 0.369868
-0.264959 0.377887 -0.327267
0.150653 -0.303955 -0.396259
0.055987 0.054950 -0.497336
0.169506 -0.277422 0.410998
0.240600 0.411551 -0.283276
-0.017004 -0.233964 0.437364
0.089500 -0.360574 -0.345101
0.232248 -0.198538 0.454317
-0.091850 0.230496 -0.443959
-0.045114 0.378699 0.321733
-0.026261 0.339863 -0.366742
-0.032421 0.249301 0.429326
0.099548 0.203309 -0.457108
0.045180 0.183487 -0.465372
-0.248933 -0.489529 0.086242
0.044790 0.136345 -0.481242
-0.255149 -0.380153 0.319116
-0.125259 0.013635 -0.499959
-0.173923 -0.282143 -0.412127
-0.007809 0.385651 -0.317860
0.156931 -0.352726 -0.353162
-0.158311 -0.487771 0.096451
-0.256630 0.108357 -0.488331
-0.089867 -0.486081 0.103915
-0.025155 -0.243460 -0.436462
0.107597 0.061569 0.492062
0.148887 -0.486975 0.100154
0.025490 0.495767 -0.053832
-0.082899 -0.438275 0.233245
-0.106831 0.498241 -0.018006
-0.128295 0.158396 0.470251
-0.049152 -0.497157 -0.021603
0.236057 0.487697 0.100754
-0.010824 -0.301378 0.393817
-0.068571 0.471708 0.158818
0.088388 0.352882 -0.354068
0.001354 0.423981 -0.264145
0.233127 0.189934 0.458585
-0.230937 0.269607 -0.421187
-0.253473 0.098194 0.486270
0.224462 0.093702 -0.491401
-0.271305 0.409384 0.282276
0.229891 -0.407944 -0.287258
0.152890 0.367520 0.334666
0.043356 -0.184286 0.460259
0.078046 0.258814 -0.428054
-0.178411 -0.167875 0.466469
0.214573 0.461219 0.186768
0.019103 -0.196772 0.455053
-0.287494 -0.496198 -0.037474
0.275591 -0.496858 -0.029321
0.219724 -0.206270 0.451038
0.144931 0.205201 -0.456320
-0.075465 0.420630 0.265242
0.191672 -0.495921 0.038578
0.032737 -0.259478 -0.426851
0.214894 -0.465318 0.173737
-0.012223 0.089005 -0.492385
0.160816 0.212210 -0.452969
0.114964 0.382269 -0.322100
-0.147581 -0.497191 -0.019686
-0.216299 -0.385217 0.312765
0.265949 0.396077 -0.304784
0.151040 -0.494016 0.056203
-0.161670 0.104457 -0.489148
-0.210229 -0.215915 0.446285
-0.022422 -0.459822 0.188224
0.243270 0.228173 -0.445103
-0.095495 0.477697 0.140469
0.046162 0.451503 -0.213400
-0.073536 -0.235307 0.436593
-0.289163 0.489898 -0.094404
-0.168369 0.498402 0.004988
0.167656 -0.183245 -0.465064
0.256374 0.287317 -0.409495
0.085366 -0.180285 0.461927
-0.212647 -0.036691 -0.498947
0.046558 -0.489299 0.087580
0.004359 -0.417552 0.268656
-0.205943 0.487978 0.099411
-0.058138 -0.147757 0.473408
0.184557 -0.285829 0.405448
-0.288261 0.155666 0.471084
-0.221080 -0.253056 0.426415
-0.245716 -0.005899 -0.500311
-0.223748 -0.487628 -0.100542
0.040355 0.055053 0.492767
0.176262 0.191813 0.457754
-0.079028 -0.418169 0.267643
-0.194030 0.131033 0.478600
0.014035 0.244075 0.432324
0.173174 0.487903 -0.104914
0.239128 -0.381441 -0.321696
-0.040722 0.375991 -0.329361
0.008766 -0.355431 -0.350384
-0.021960 0.004428 0.495913
0.141662 0.279497 -0.414658
0.281529 0.496021 0.047943
0.067780 0.487422 -0.106938
0.276453 0.355625 0.346884
-0.037883 0.477161 -0.146226
-0.258929 -0.210328 0.449038
-0.030805 -0.418656 -0.271032
-0.173811 0.278430 0.411087
0.097895 0.274340 0.413948
-0.171931 -0.484046 0.112477
-0.091544 -0.497089 -0.025366
0.098526 0.358828 0.343594
0.175159 0.009911 -0.500026
-0.198123 0.436279 -0.243334
-0.250342 0.206409 -0.455816
0.245271 0.118937 -0.486048
-0.062600 -0.288871 -0.407422
-0.104619 -0.123491 -0.484514
0.249550 -0.261987 0.421188
0.028715 -0.290534 -0.406258
-0.058492 -0.490863 -0.083375
0.054879 0.268136 0.417844
0.255893 0.498292 -0.016864
-0.018591 -0.220547 -0.448526
0.059523 -0.224801 -0.446286
0.074950 -0.109836 -0.487759
0.201967 0.473172 -0.159299
0.286087 -0.467766 -0.171629
-0.121464 0.485594 0.110789
-0.199440 0.024922 -0.499756
0.006638 0.220679 -0.448796
0.045744 0.008751 0.495892
-0.078881 -0.486097 -0.107852
-0.263986 -0.478360 0.134584
-0.023119 -0.342305 -0.363496
0.028217 -0.330237 0.370141
-0.217108 -0.468300 -0.170080
-0.133926 0.481127 0.128044
0.069663 -0.205618 -0.455452
-0.123523 0.054033 -0.497410
0.131403 -0.495584 0.041691
0.161543 0.498434 0.003205
0.176556 0.340712 -0.365916
-0.248629 -0.475189 -0.150109
0.200399 -0.069278 -0.495425
0.218727 -0.493015 0.065463
0.108309 0.212686 0.448387
0.175230 0.496828 0.037986
0.216401 0.118506 0.481588
0.135565 0.390435 -0.311860
-0.257893 0.384223 -0.319650
0.074566 0.494522 0.060812
-0.169108 0.026403 0.495101
0.232760 0.110083 -0.487970
0.123102 0.144474 -0.478998
0.242025 0.197385 -0.459578
-0.121337 0.166171 -0.471764
0.056438 -0.096480 0.486251
0.057229 0.143288 -0.479326
-0.161329 -0.399017 0.295379
0.122382 0.304012 0.392677
0.185031 0.496573 0.041138
0.045828 0.206512 -0.455773
-0.066362 -0.451738 0.206238
-0.016799 0.372740 -0.332950
0.232153 0.218449 0.445801
0.054276 -0.496346 0.033048
0.052350 0.394935 0.301796
-0.207938 -0.470138 0.160892
-0.201502 0.036759 0.494636
-0.126328 0.012877 0.495707
0.196936 0.132719 -0.482243
-0.051329 -0.252335 -0.431206
-0.216159 -0.153781 0.471330
0.092515 0.485789 -0.113807
0.166680 0.480564 -0.135072
0.098517 0.388172 0.310693
-0.101894 0.357402 -0.349667
-0.091915 0.404687 0.288869
0.025155 -0.492590 -0.071436
-0.253043 -0.163729 0.467899
0.160687 0.075877 -0.494395
0.214228 0.158466 -0.474421
-0.027136 -0.366633 0.334208
0.121124 0.484275 0.116641
0.142722 -0.289762 -0.406798
-0.148041 -0.322960 0.376385
0.282122 -0.047626 0.493493
0.107369 0.389276 -0.313313
0.158752 0.437935 0.235993
0.061390 0.430533 -0.253397
-0.145164 -0.119540 -0.485453
-0.214448 0.493643 0.066884
-0.265597 -0.232455 0.438135
0.024594 0.498268 0.012436
-0.205998 0.459912 0.189902
-0.288249 -0.101145 -0.489824
0.277442 0.497794 -0.027981
-0.055337 0.234022 -0.442222
0.188843 0.142712 -0.479485
0.019739 -0.362114 -0.343519
-0.024152 0.243374 0.432693
0.285442 0.464777 -0.182264
0.108819 0.239232 -0.439284
0.224597 0.195156 -0.460507
0.151466 0.351218 -0.355687
-0.257137 -0.048769 0.493400
0.004270 0.069820 0.491155
-0.192387 -0.422387 0.260726
-0.072058 0.434528 0.241935
0.057632 -0.490364 -0.086820
0.191974 -0.269778 -0.420571
0.252210 -0.491087 0.077190
-0.202379 -0.285154 0.405894
0.205561 0.480167 -0.136375
-0.086463 -0.495011 0.046994
0.140572 -0.137673 -0.480614
0.215523 -0.175543 0.463824
0.093749 0.446345 0.219586
-0.148898 0.337028 0.364850
0.102918 0.301848 -0.398589
-0.241810 -0.283347 -0.411285
0.126747 -0.451112 -0.212186
-0.145404 -0.495426 -0.046996
0.166985 -0.465567 -0.178004
-0.085964 -0.338002 -0.367393
0.082982 -0.063909 -0.496052
0.068970 -0.348059 -0.357956
-0.033934 -0.223544 -0.446948
-0.162454 -0.468719 0.164674
-0.129798 -0.386412 -0.315903
0.254361 -0.006654 -0.500294
-0.116226 -0.308258 0.388626
-0.176513 0.267476 0.418246
0.028885 -0.497273 -0.015135
0.109312 0.485383 0.111797
-0.288012 0.062805 0.491929
0.111466 -0.483442 -0.120301
0.040245 -0.148793 0.473051
-0.015917 0.202993 -0.457240
0.055882 0.483241 0.120385
0.062255 -0.308290 -0.392801
-0.089150 -0.236371 -0.440194
-0.264500 -0.114139 -0.486736
-0.160906 -0.167322 0.466659
0.229236 -0.370321 0.330137
0.146722 -0.491952 -0.075841
-0.146091 -0.394932 0.300581
0.047488 -0.479821 -0.133415
0.072071 0.452768 0.206551
-0.114705 0.039783 0.494417
0.107786 0.210639 -0.453744
0.217677 0.275087 -0.417570
0.051403 -0.393734 -0.306383
-0.095881 0.037468 0.494604
-0.223604 0.210089 -0.454014
0.108449 0.409299 -0.286496
0.201920 -0.352863 -0.353022
0.229738 0.366926 0.335275
0.020530 0.384987 -0.318693
-0.042700 -0.204749 0.451727
0.149024 0.200821 0.453711
-0.070776 -0.396543 -0.302659
0.265975 0.440755 0.230931
-0.214170 0.498468 0.001312
-0.155006 -0.401206 -0.296478
-0.271079 -0.473083 -0.156216
-0.237081 0.190268 0.458447
-0.214445 -0.037871 0.494283
-0.076555 0.485246 0.112453
-0.021220 0.253644 0.426679
0.031844 -0.249979 -0.432642
0.246940 -0.411539 -0.281813
-0.072972 -0.040639 0.494059
0.127743 -0.062634 -0.496190
0.266598 0.232597 -0.442923
-0.207751 0.292807 -0.405410
0.055529 0.318522 0.381107
-0.188235 -0.102156 -0.489584
-0.226593 0.237179 -0.440461
-0.266663 0.458283 0.193810
0.135351 -0.470998 -0.162257
0.085085 0.424057 -0.264020
0.124194 0.275991 0.412793
-0.218251 -0.497166 -0.021074
0.266902 0.112614 -0.487439
0.268796 0.373841 0.327394
0.176894 -0.163646 -0.472418
0.031447 -0.494226 -0.060129
0.114395 -0.479709 -0.133824
0.066792 0.443583 -0.229463
0.216164 -0.364186 -0.341391
0.266329 -0.371041 0.329341
0.021106 0.452664 -0.210811
0.285754 -0.279323 0.409743
0.280190 -0.366922 0.333889
-0.245368 -0.173863 -0.468584
0.216831 -0.164025 -0.472276
0.003390 0.249456 0.429232
-0.272352 -0.486905 -0.103994
-0.235923 -0.364044 0.337067
-0.142987 -0.103260 0.484831
0.145079 -0.168655 0.466200
-0.114263 -0.484410 -0.115902
-0.231377 -0.321132 0.377953
-0.228837 -0.468238 -0.170260
-0.028244 0.410813 0.280111
0.265995 -0.278505 -0.414671
0.157000 -0.235123 0.436699
0.182742 0.369080 -0.336991
-0.278820 -0.329390 -0.375193
-0.069038 -0.480840 0.125967
0.194739 0.480163 -0.136386
-0.264084 0.149776 0.472881
0.113621 -0.292962 -0.404561
0.021273 0.023878 0.495214
0.018600 0.487496 -0.106626
-0.116998 -0.105410 -0.488810
0.175602 0.471032 0.160779
-0.262183 0.472174 -0.162551
-0.234929 0.498566 -0.004123
-0.209149 -0.456127 -0.200877
0.057947 -0.383373 0.315078
0.124303 -0.228555 -0.444309
-0.088550 -0.321081 -0.382602
0.246881 0.349574 0.353099
-0.224214 -0.439815 0.230319
0.056090 0.402071 0.292337
-0.064417 0.406199 -0.290929
0.105718 0.401040 -0.298305
0.268082 0.448270 0.215680
-0.017336 -0.454328 0.200467
0.073293 0.116194 0.482138
0.125993 -0.466806 -0.174411
-0.024691 0.450119 -0.216484
-0.261294 0.224470 0.442647
-0.106568 -0.496502 0.029583
0.012316 -0.371754 -0.332985
-0.201503 -0.263523 0.420174
-0.148340 0.497838 0.025527
-0.097084 -0.238729 0.434631
-0.191784 0.337271 0.364631
-0.090996 0.133582 0.477822
-0.134848 -0.494579 -0.057454
-0.139776 -0.490291 -0.087322
-0.118321 -0.472997 0.152159
-0.102716 -0.432400 -0.248211
-0.141270 -0.199101 0.454082
0.214164 0.270126 0.416631
0.026169 0.012132 -0.499986
0.124556 0.416536 -0.276148
0.022624 0.373776 -0.331807
-0.011591 0.265512 0.419444
-0.188879 -0.495146 -0.050454
0.072082 0.476885 -0.147130
-0.042825 0.487796 0.100278
0.187344 0.489212 0.093518
-0.108628 0.321951 0.378372
-0.192212 -0.206884 0.450736
-0.139750 -0.138629 0.475976
0.195387 -0.365550 0.335404
0.283191 0.242985 0.432898
-0.161978 0.483681 -0.122680
0.003418 0.372658 -0.333041
-0.268769 0.424316 0.259658
0.070416 -0.429330 -0.253565
0.145711 -0.329435 -0.375152
0.065855 0.187772 0.459396
-0.164368 -0.117972 0.481678
-0.078039 0.305115 -0.396124
-0.037298 -0.495079 -0.051282
-0.007378 0.492759 -0.077786
0.228072 -0.387548 -0.314579
0.237437 -0.434327 0.240743
-0.095966 -0.395143 -0.304515
0.175781 0.124114 0.480256
0.141585 0.490406 -0.091454
-0.205165 -0.408529 0.281778
-0.062141 0.375602 0.325342
0.209369 0.456655 -0.201919
0.023374 0.429772 -0.254645
-0.241853 -0.255020 0.425289
-0.045689 0.251359 0.428072
-0.002001 -0.399595 -0.298614
0.128031 -0.072788 0.490341
0.083701 0.214212 0.447702
0.130519 -0.116492 -0.486177
-0.046326 -0.076924 -0.494109
-0.160778 0.238710 0.435149
0.225786 -0.427605 0.252165
-0.079097 -0.291711 0.401110
-0.099488 0.493895 0.065141
0.126708 -0.137917 0.476172
-0.286961 -0.383735 -0.319023
0.168214 0.114801 0.482469
-0.247951 -0.423482 0.258929
-0.186970 -0.317680 0.380916
0.052566 -0.267424 -0.422007
0.248774 -0.476861 -0.144140
-0.187305 -0.301794 0.393503
-0.270399 -0.406333 0.284918
0.108277 0.200070 0.454049
0.017714 0.360929 -0.345990
-0.287721 0.479341 0.134516
0.039068 0.018479 0.495456
-0.162480 -0.251963 -0.431432
0.014538 -0.031141 -0.499196
-0.277120 0.168816 -0.470851
0.099662 0.355513 -0.351506
0.129559 -0.340235 -0.365370
-0.243254 0.480501 -0.135281
0.122979 -0.036171 -0.498970
-0.250246 -0.436594 -0.240897
0.046597 -0.469322 -0.167118
0.144677 0.496878 -0.043552
-0.080534 -0.457038 -0.198693
0.086788 0.277806 -0.415774
0.227147 0.013865 -0.499955
-0.216143 0.300118 -0.399894
0.087625 -0.117721 -0.485885
-0.215233 -0.351494 -0.354427
0.044336 -0.234232 -0.441320
0.209860 0.495954 -0.052108
-0.205539 -0.312552 0.385316
-0.115096 -0.495682 -0.043833
-0.224012 -0.441886 -0.230909
-0.160828 -0.250892 0.427656
0.070283 0.210275 0.449469
0.245835 -0.470265 -0.164384
0.073847 -0.497321 0.011308
-0.147833 -0.427991 0.251533
-0.044149 0.267346 0.418326
-0.008847 -0.212669 0.447885
-0.216683 0.484279 -0.120164
0.030926 0.138551 -0.480633
-0.173917 0.442213 -0.232064
0.271728 0.254951 -0.430270
0.071795 -0.408502 -0.286413
0.009484 0.339954 -0.366653
-0.146398 -0.223911 0.442345
0.209360 -0.057918 0.492492
0.075077 -0.496084 0.037068
0.285957 0.211113 0.449093
-0.078093 0.222345 0.443765
-0.013858 0.473333 -0.158771
-0.105098 -0.423423 -0.263811
-0.178080 -0.435949 -0.242022
0.000599 0.497390 0.031054
0.133959 -0.482187 -0.124847
-0.092803 0.498133 0.019958
-0.223332 0.097162 0.486448
0.220299 0.305723 -0.395665
0.056585 0.451328 -0.213789
0.229047 -0.146254 0.473871
-0.288195 0.471296 -0.164889
0.083517 -0.260400 -0.426289
-0.210611 0.443939 0.224470
0.159347 0.081015 0.489227
0.129666 0.325376 0.375404
-0.028625 0.403797 0.290049
-0.026363 0.467619 0.170672
0.224463 -0.186582 -0.463811
-0.058728 -0.262912 0.420577
0.281430 0.450469 0.211218
-0.012208 0.494265 -0.067733
0.104815 -0.295699 0.398101
-0.056708 -0.383126 0.315388
-0.220013 0.495200 0.056123
-0.191477 -0.465643 0.172871
0.047522 0.293357 0.400648
-0.022007 0.477096 0.142648
-0.149711 -0.490011 0.083444
0.054725 0.425520 -0.261620
0.018363 -0.406467 -0.289496
0.150414 -0.369629 0.330901
-0.036874 0.384529 -0.319267
-0.091973 0.396102 -0.304753
0.130130 -0.124644 0.479836
0.184859 0.408604 0.283457
0.116472 0.482302 -0.128483
0.279500 -0.180546 0.461818
0.004332 0.468562 -0.172177
0.083984 -0.173853 -0.468588
0.057863 0.231131 -0.443646
0.213344 0.070741 -0.495139
0.105792 -0.057959 -0.496695
0.112948 -0.407928 -0.287283
-0.118474 0.177125 -0.467985
-0.017748 -0.258905 -0.427200
0.102814 0.459758 0.190272
0.042493 0.461328 -0.191454
-0.110152 0.260617 -0.427020
-0.032618 -0.097190 -0.490620
-0.152584 -0.437062 0.235549
0.122613 0.496953 -0.042864
0.069894 0.255283 0.425680
-0.275911 -0.461552 -0.187865
0.286104 0.069045 0.491254
-0.175325 0.476593 -0.148087
0.188705 0.081696 0.489110
0.272159 0.154532 0.471430
0.020056 -0.485300 -0.111656
0.247792 0.419271 0.267300
0.116262 0.346138 0.356599
0.204081 0.484903 -0.117538
-0.205867 0.388967 -0.313700
-0.124116 0.372796 -0.332888
0.286790 0.349266 0.353416
0.093728 0.434606 0.241797
0.106824 0.102827 0.485314
0.280196 0.080920 0.489244
-0.000001 -0.301175 0.393970
0.088941 0.331310 -0.374453
-0.132437 -0.075769 -0.494308
0.275361 0.373843 -0.331732
-0.176028 0.367974 -0.338212
0.204483 0.480741 0.129443
-0.059251 0.418045 0.269157
-0.092237 -0.490219 0.082235
0.049537 -0.452633 -0.209100
0.258682 -0.092222 0.487144
-0.190166 -0.337934 -0.367455
0.126467 0.437556 0.236653
0.211629 -0.496795 0.023048
0.057228 -0.135777 0.476763
0.115194 -0.457955 0.192383
0.157707 0.208734 0.450161
0.025500 0.460645 0.188145
-0.201203 -0.440325 0.229350
-0.147795 0.106191 -0.488785
0.182342 -0.461169 0.184794
0.006393 0.380174 -0.324729
0.106262 0.264334 0.420162
-0.286929 0.297518 0.397737
0.143857 0.096247 0.486605
-0.082726 -0.475245 0.144793
0.269543 -0.398516 0.296087
-0.111735 -0.235438 -0.440686
-0.058442 0.436465 0.238557
0.013244 0.101855 -0.489694
-0.190091 0.491724 0.080151
0.219377 -0.335429 -0.369724
-0.049389 -0.494471 0.051989
-0.200962 0.197756 -0.459424
0.001862 -0.074581 0.490081
0.116147 0.417455 0.270051
-0.231381 -0.238605 0.434702
0.130721 -0.143297 -0.478898
-0.091175 0.304343 0.392413
0.018074 -0.416087 0.270972
0.057925 -0.494599 0.050806
-0.027101 0.100611 -0.489954
-0.275664 -0.210521 0.448943
0.014120 0.482786 -0.126448
-0.009448 -0.273710 -0.418025
-0.286417 -0.469536 -0.166497
-0.153541 -0.190646 0.457607
0.121053 -0.445670 -0.223231
0.284664 0.193952 -0.461009
-0.016508 -0.124081 0.479991
0.199096 -0.083610 0.488775
-0.270225 -0.211498 -0.452814
0.180387 0.091804 0.487370
0.024083 -0.482271 -0.124542
0.063941 -0.290205 -0.406489
-0.115786 -0.117561 0.481791
-0.285638 -0.133367 -0.481928
-0.116616 -0.457156 -0.198409
0.019448 -0.439894 0.230170
-0.074250 0.459137 -0.196388
-0.195697 0.079713 -0.493841
-0.278044 -0.254917 -0.429631
-0.090158 0.052431 0.493050
0.090551 0.105423 -0.488946
0.112105 0.027174 0.495066
-0.156957 0.150830 0.472559
-0.015794 -0.336515 -0.368740
0.210104 0.297168 0.397983
-0.135599 0.239002 0.434995
-0.026076 0.181540 -0.466184
-0.109256 0.484385 0.116243
0.238150 0.107378 0.484233
0.149749 -0.423181 0.259423
0.096895 -0.459666 0.188570
0.024950 0.372791 0.328619
0.110358 -0.033763 -0.499078
0.204432 0.449629 -0.217576
0.091918 0.455190 -0.205184
0.010056 0.490176 0.088919
0.067150 -0.461863 -0.187119
0.051640 0.214777 -0.451705
-0.128927 -0.399607 -0.298598
-0.162509 -0.023017 0.495418
0.171014 0.465086 -0.181439
0.181204 -0.263517 0.420178
-0.275062 -0.308814 0.388207
0.029839 -0.496148 0.036472
-0.138796 0.405420 -0.292043
0.233978 0.234364 0.437437
-0.195352 0.456865 0.197210
-0.278962 0.465650 -0.179936
0.233280 -0.219970 0.444287
-0.107512 -0.372142 -0.332534
0.124967 0.375686 -0.329697
0.197591 -0.478719 -0.137408
-0.233400 0.478509 -0.141809
0.263324 -0.167466 -0.470984
-0.034439 0.171286 0.465582
0.179303 -0.303186 -0.396871
-0.050398 -0.141130 -0.479560
-0.246498 0.374605 0.326504
-0.240389 0.456189 -0.202958
0.187436 0.153279 0.471812
0.200747 -0.359027 0.342606
-0.119554 0.291924 -0.406076
0.159965 -0.024388 -0.499499
-0.145870 -0.149395 -0.477038
0.178169 -0.494087 0.055546
-0.059207 0.486636 -0.110245
-0.215495 0.247471 0.430442
-0.133223 -0.113966 -0.486777
0.252171 0.210463 0.449384
0.112352 0.156324 0.470883
0.271402 0.495704 0.051858
0.068271 0.450828 -0.214904
-0.145695 0.497025 -0.042194
-0.028664 0.111381 -0.487698
-0.063623 0.455812 -0.203797
-0.252517 0.277606 0.411664
-0.049357 -0.415785 0.271404
0.285722 -0.037884 0.494282
-0.280166 0.184270 0.460710
-0.252842 -0.259860 -0.426618
0.011619 0.088768 -0.492435
0.052946 -0.375038 0.324928
0.244662 0.126882 0.479598
-0.226164 -0.427805 0.251838
-0.042462 0.454672 -0.206336
0.053236 0.093603 -0.491422
-0.125738 -0.436585 -0.240914
-0.022155 0.397733 0.298087
0.076327 -0.443592 0.223146
0.063000 0.439248 0.233704
0.192679 0.388872 0.309832
-0.208966 -0.450733 0.208478
0.177131 -0.416832 -0.273795
-0.289998 -0.494907 0.047959
-0.171293 0.497938 -0.024760
-0.028167 -0.494161 -0.060578
0.060310 -0.411396 0.277679
-0.041086 0.367690 -0.338526
-0.141606 0.020853 0.495350
-0.073883 0.330034 0.371185
0.232942 -0.286118 0.405257
0.261035 -0.497082 0.016640
0.215779 -0.497083 -0.025711
-0.109390 0.285944 -0.410402
-0.169677 -0.471871 0.155851
0.092243 0.178417 0.462907
0.011786 0.498314 0.009864
0.081312 0.461884 0.185173
0.085769 -0.284090 -0.410765
-0.191538 -0.129858 0.478397
-0.081185 0.479817 0.132790
0.075741 0.479929 0.132383
-0.049666 0.498603 -0.006163
-0.192344 -0.369946 -0.335093
0.112156 0.051775 -0.497593
-0.275619 0.452078 0.207952
-0.286782 0.489721 0.091091
-0.246544 -0.374960 0.325014
-0.025355 -0.477396 -0.142201
0.097854 0.424502 -0.263289
0.057755 0.496896 -0.043386
-0.007127 0.387973 0.310925
-0.144994 -0.486953 -0.103764
-0.012223 -0.000367 0.495826
-0.159792 0.142778 -0.479466
-0.219862 0.220849 -0.448712
-0.043793 0.401938 -0.297022
0.179807 -0.225922 -0.445696
-0.268798 -0.495554 0.041968
0.201086 -0.069172 0.490864
0.142967 -0.181201 -0.465831
0.143327 -0.495631 0.041255
0.121408 -0.488104 0.094522
0.240550 -0.458115 -0.196108
-0.148517 0.059579 0.492277
-0.174315 0.104692 0.484871
0.277797 -0.316864 -0.385965
0.180132 -0.428104 0.251347
0.272487 -0.471106 -0.161945
0.181174 -0.430125 -0.252178
0.107016 0.471384 0.159756
-0.026244 0.156517 0.470824
0.233076 0.480947 0.128695
-0.009966 0.443251 0.225866
-0.286471 -0.002478 0.495788
-0.090804 -0.458827 -0.194400
0.019759 -0.311093 -0.390567
-0.154231 0.496246 -0.049400
0.198098 0.498250 -0.017816
0.263392 -0.149378 0.472849
0.052372 -0.435410 -0.242963
-0.069101 0.256651 0.424846
-0.143217 0.343130 -0.363562
-0.272208 -0.497112 -0.024054
0.272852 -0.485421 0.106691
0.082325 -0.345531 0.355873
0.241292 0.246459 -0.435139
-0.280859 0.488170 -0.103791
-0.235708 0.004004 0.495905
-0.226311 0.113569 -0.487239
-0.193544 0.498463 0.001592
0.137519 -0.067280 -0.495688
-0.286824 -0.206742 0.450805
-0.001210 -0.222137 0.443219
0.178892 0.481702 -0.131008
-0.269391 -0.487987 0.095200
0.018685 0.406633 0.286290
-0.159688 0.327963 0.373061
0.172504 -0.445797 0.218959
0.206436 -0.458751 -0.194584
0.055113 0.389232 -0.313369
-0.231009 -0.089345 -0.491970
-0.158130 0.036042 -0.498868
0.187082 -0.482877 0.117396
-0.129806 -0.006532 -0.500300
-0.138826 0.025896 -0.499690
-0.289892 0.347580 -0.359229
0.255837 0.224293 0.442739
0.001431 -0.474614 0.146860
0.105773 -0.394105 -0.305891
-0.077161 -0.458580 0.190992
-0.094471 0.479057 -0.140012
0.210121 -0.487643 0.097199
0.264124 -0.491099 0.077121
-0.242654 -0.440913 0.228234
0.181260 0.301084 0.395011
0.105035 -0.338789 -0.366680
-0.149313 -0.338590 0.362630
-0.220396 -0.288465 -0.407705
0.239110 -0.433601 -0.246116
-0.098409 0.379798 -0.325158
-0.212605 -0.497247 0.012966
-0.060374 -0.478104 0.135423
0.116593 0.437511 -0.240995
-0.221707 -0.126923 -0.483698
0.212090 -0.268650 0.416789
0.189158 -0.252587 -0.431052
-0.288116 0.482978 -0.125637
-0.230263 -0.318190 -0.384907
-0.214899 -0.282326 0.407761
0.067801 0.192650 -0.461552
0.263460 -0.496219 0.035819
-0.206467 -0.144320 -0.478586
0.058958 -0.489002 0.089305
0.007528 0.124286 -0.484571
-0.067725 0.219414 -0.449420
-0.028985 0.251057 -0.432503
-0.244553 0.105653 0.484643
0.221167 -0.449804 0.210549
-0.181386 0.411815 0.278594
-0.182052 -0.086098 -0.492529
0.159303 -0.426939 -0.257733
0.096885 -0.321848 0.377339
-0.042199 0.198434 0.454782
-0.016815 -0.382286 0.316441
-0.278530 -0.378586 -0.325023
-0.264636 -0.007925 0.495690
0.211029 0.433229 -0.248975
0.205359 0.497927 -0.025018
-0.048133 0.387344 -0.315737
0.135395 0.265090 -0.424169
-0.289986 -0.336968 -0.368329
-0.130454 0.446363 0.219550
0.194561 0.411907 -0.282766
-0.000728 -0.476645 -0.144920
-0.077118 -0.225132 -0.446112
0.088784 -0.195932 0.455403
-0.202626 -0.389563 -0.311912
0.151815 -0.337699 -0.367668
-0.103465 -0.381443 0.317499
0.244639 0.486979 -0.108802
-0.156499 0.358851 0.343570
-0.181222 0.041266 -0.498445
-0.163330 0.129205 0.479046
-0.180667 -0.373299 -0.331185
0.170722 0.392222 0.305392
0.112034 0.038975 0.494504
-0.129974 -0.361499 0.339876
0.089532 -0.093842 -0.491196
0.145057 -0.313341 -0.388774
0.041056 -0.096177 -0.490794
-0.262265 -0.489978 -0.089327
0.065341 -0.242513 0.432461
-0.263178 0.487410 0.102120
0.144616 0.112173 0.483093
0.202133 -0.438210 -0.238079
-0.276212 0.050392 -0.497705
-0.126393 0.442961 -0.230645
-0.233089 0.098747 -0.490344
0.035087 0.483943 -0.121577
0.086102 -0.494849 0.048495
0.031783 0.162575 0.468851
0.225345 0.255752 -0.429810
0.168862 0.452820 0.206446
0.232713 -0.462654 -0.185222
-0.254281 -0.481290 0.124074
0.230843 -0.096747 0.486196
-0.007719 0.356433 0.346054
-0.055917 0.489198 0.093587
0.284612 0.083609 -0.493277
-0.180398 -0.010004 0.495653
-0.056523 -0.374993 -0.329211
0.180893 0.012746 0.495713
-0.082506 0.452202 0.207701
0.005149 -0.231344 0.438682
-0.244562 0.498320 0.009556
-0.157717 0.415837 -0.277148
-0.233051 0.495810 -0.053438
0.011102 0.414785 -0.278652
-0.188179 -0.429076 0.249752
0.088204 0.171553 -0.469907
0.072044 -0.497336 -0.011641
0.163717 -0.361977 -0.343659
0.191316 0.426564 -0.259908
-0.020660 0.388128 -0.314753
-0.272408 -0.363096 0.338113
-0.042913 -0.194195 0.456127
0.249836 0.455802 -0.203819
0.004030 0.180266 -0.466715
0.160374 -0.407276 0.283569
0.068439 0.140103 -0.480205
-0.086890 -0.366309 -0.339211
-0.289010 -0.299189 0.395468
-0.202328 -0.364127 0.336975
-0.266954 0.159243 -0.474153
0.074915 0.489883 -0.094491
-0.115029 -0.490784 0.078950
0.155875 0.236223 -0.441009
-0.289462 -0.375331 0.324605
0.217879 -0.065402 0.491409
0.062482 -0.219038 0.444747
0.146095 -0.398932 -0.299492
-0.079627 0.439979 0.232428
0.003592 -0.497492 -0.002957
-0.018596 0.498407 -0.014317
0.282489 -0.152313 -0.476148
0.135850 -0.208633 0.449873
-0.254553 -0.439984 0.229998
0.250657 0.427258 -0.258769
-0.035879 0.275157 0.413376
0.001288 -0.405044 0.286761
0.114496 0.283073 0.407840
-0.082819 0.205183 0.451754
-0.226790 -0.472548 -0.157766
-0.286900 -0.186135 -0.463979
0.230167 -0.331028 -0.373710
-0.059834 0.251082 -0.432488
0.059542 0.067063 -0.495671
0.168025 -0.384005 -0.318709
-0.168291 -0.337576 -0.367779
0.103101 0.498194 -0.019064
-0.087023 -0.497545 -0.000021
0.006446 -0.496443 0.030900
0.126935 0.383625 -0.320401
0.249958 0.437006 -0.241955
0.037012 -0.335363 0.365742
-0.041102 -0.025145 0.495314
0.062400 -0.481084 0.124940
-0.193420 0.039942 -0.498552
-0.106058 0.027610 0.495047
0.061031 -0.254327 -0.429991
-0.143928 0.495913 -0.052482
-0.104478 0.276586 -0.416580
0.162557 -0.496834 0.022186
-0.114045 0.497709 0.027111
-0.128268 -0.101863 -0.489653
0.019813 -0.488916 -0.094393
0.028897 -0.487566 -0.100840
-0.193644 -0.397688 0.297125
-0.182132 -0.380472 -0.322826
0.088985 0.449157 -0.218628
-0.038107 -0.493471 0.061248
0.285570 -0.134335 0.477161
-0.286966 0.166358 0.467431
0.077906 -0.493753 0.058634
0.242586 -0.313532 0.384475
-0.060969 0.446310 -0.224284
0.074569 -0.479186 0.131876
-0.069210 -0.452621 -0.209125
0.105488 -0.108122 0.483813
-0.195092 -0.016470 -0.499854
0.100402 -0.493697 -0.063785
-0.219064 0.191368 0.457954
0.004069 0.065726 -0.495864
-0.126861 -0.495387 -0.047476
0.190793 -0.481217 -0.128360
0.246707 -0.438482 -0.237604
-0.138974 -0.489555 0.086091
-0.177073 -0.497396 0.009638
0.264042 -0.226194 -0.445553
0.073050 0.021849 -0.499811
-0.050734 -0.153604 -0.475754
-0.272549 -0.476048 0.142161
0.196392 0.155467 -0.475456
-0.069086 0.127442 -0.483700
-0.005287 0.225301 -0.446519
0.194611 0.385128 -0.318516
0.045069 -0.048117 -0.497759
-0.181786 0.488076 -0.104186
0.153019 -0.066615 0.491234
0.176796 -0.256063 -0.428933
