0.094756 0.202578 -0.457413
0.029602 0.457260 -0.200570
0.189615 -0.471795 0.156100
-0.201928 -0.481811 -0.126207
0.188183 0.425840 0.257085
-0.247077 0.456932 -0.201301
0.257714 -0.227922 0.440369
-0.231015 -0.316435 -0.386307
0.110691 -0.294991 -0.403142
-0.102584 -0.214510 0.446978
0.073816 -0.089067 -0.492018
-0.180447 -0.315583 0.382715
-0.000454 0.382677 -0.321589
0.195885 0.201186 -0.457993
-0.248226 -0.472976 -0.156524
-0.269077 0.338314 0.363685
0.221912 -0.359820 0.341730
-0.077354 -0.442247 0.225701
0.014985 -0.056534 0.492692
-0.184089 -0.419627 -0.269562
0.126688 -0.187949 -0.463299
0.166352 -0.493636 -0.064205
0.060682 -0.179635 -0.466418
0.195497 0.069993 -0.495247
-0.066671 0.497158 0.033911
0.159330 0.260994 -0.426804
0.141192 -0.393228 0.302718
0.009373 0.347893 -0.358925
-0.010178 -0.261752 0.421343
-0.079216 0.221901 0.443999
0.251664 -0.243132 0.432106
-0.140684 -0.061562 0.491965
-0.178459 0.415341 -0.277856
0.175786 0.382940 0.316790
0.054490 -0.456450 -0.200102
-0.014114 0.472287 -0.162199
0.245892 0.492110 0.077480
-0.054620 0.316383 -0.387262
0.228672 0.241575 0.433640
-0.029854 0.064775 -0.496002
0.057476 0.476367 0.145287
0.105742 -0.383819 0.314518
0.149462 0.209662 0.449744
0.007489 -0.422180 -0.265694
0.048430 0.488142 -0.103909
0.259601 -0.497607 0.003386
-0.244762 0.410867 0.280030
0.206326 0.399717 0.295457
-0.180864 -0.073034 0.490305
0.283898 0.472485 -0.161553
0.234940 0.211579 0.448884
0.286904 -0.272416 0.414303
-0.037688 -0.418681 -0.270994
0.192837 -0.382481 0.316197
-0.063734 0.133588 -0.482003
0.269754 -0.316208 -0.386488
0.147359 0.330874 -0.374827
-0.086146 -0.454093 -0.205756
0.008916 -0.496325 0.033523
-0.122621 0.024045 0.495207
0.055544 -0.465115 0.174277
0.215094 0.100269 0.485913
0.188817 -0.198166 0.454472
0.019778 -0.133106 0.477500
-0.158543 -0.038530 -0.498795
0.153701 0.494936 0.057949
0.025134 0.344021 0.358516
-0.223182 0.091581 -0.491846
0.249509 -0.106949 0.484058
0.038524 -0.446060 0.218459
-0.288983 -0.016286 -0.499862
0.174933 0.064342 -0.496064
0.228788 -0.418028 0.267875
0.092048 -0.014644 0.495569
-0.158940 -0.368369 0.332291
-0.190646 0.492538 -0.079072
-0.215886 -0.445385 0.219741
0.080585 -0.324361 -0.379748
-0.030292 -0.174275 -0.468429
0.065511 0.121772 -0.485265
0.117295 0.498469 0.001296
-0.243354 -0.478599 -0.137842
-0.179634 -0.383300 0.315170
-0.271681 0.374267 -0.331265
-0.289710 0.331648 0.369723
0.286560 0.150652 -0.477117
-0.050952 -0.082130 -0.493212
-0.195633 -0.347247 0.354203
-0.056040 -0.481810 0.121888
0.069808 0.381691 -0.322826
-0.010647 0.055801 0.492686
-0.066496 0.017985 -0.499881
0.228584 0.194845 -0.460637
0.093637 0.058272 0.492419
0.061301 0.239604 0.434678
0.263726 0.278727 0.410879
0.153850 -0.047225 -0.497855
0.039432 0.142993 -0.479407
-0.000051 0.233144 -0.442654
0.209180 -0.310917 -0.390707
-0.103406 0.465550 0.176380
-0.074045 0.150667 0.472609
-0.289775 0.017616 0.495495
0.070049 -0.426855 0.253396
-0.038645 0.413785 0.275610
-0.060777 0.434743 0.241559
-0.215562 -0.497057 0.017207
0.100038 -0.278399 -0.414746
-0.113992 0.413725 0.275701
0.082936 0.258015 0.424014
-0.010311 -0.448606 -0.217273
-0.207876 0.485325 0.112075
0.228289 -0.495045 0.046684
0.139743 0.402694 -0.295940
-0.237206 0.406696 -0.290218
-0.259710 0.435107 -0.245560
0.081078 -0.188098 -0.463243
0.122321 -0.117016 0.481942
-0.286658 -0.431959 -0.248980
-0.011489 0.492033 0.078017
0.136849 -0.262779 -0.424838
-0.158666 0.346024 0.356702
-0.157462 -0.468315 -0.170038
-0.038025 -0.214360 -0.451529
-0.180017 0.226445 0.441607
-0.111800 -0.479254 0.131653
-0.192657 -0.316281 -0.386430
-0.118677 0.484517 0.115763
0.140965 0.367325 -0.338929
0.136454 0.154314 0.471496
0.059474 0.418030 -0.273906
0.126343 -0.486108 0.103800
0.260167 -0.390729 0.305853
0.042285 -0.457327 -0.197998
0.006109 -0.469838 0.161691
0.179899 0.428797 -0.256245
0.207521 0.482618 0.122643
0.170133 0.389446 -0.313100
0.024856 0.298707 -0.400958
-0.099424 0.001239 -0.500183
0.191022 -0.194595 -0.460399
0.097032 -0.047313 0.493518
-0.063621 -0.217278 -0.450220
0.082876 -0.440889 0.228280
0.081704 0.346650 0.356103
0.113203 0.179889 -0.466872
0.146305 0.188254 -0.463385
0.102617 0.082471 0.488977
0.152248 -0.227062 0.440792
-0.066666 0.355209 -0.351802
-0.238450 0.184294 0.460701
0.052294 -0.037739 -0.498880
0.026883 0.476015 0.146333
0.229145 -0.313659 0.384366
0.227451 0.378027 0.322516
0.285419 -0.462822 -0.184818
0.148379 -0.470161 0.160831
0.014145 0.129367 -0.483169
-0.282993 -0.045190 -0.498075
0.236861 -0.488721 -0.095325
0.241409 -0.118289 -0.485750
0.285637 0.441163 -0.234059
-0.225343 0.031279 -0.499254
0.184220 -0.489395 0.087022
0.274156 0.492189 0.076940
-0.078632 0.261718 -0.426389
-0.160626 0.000780 -0.500191
-0.110688 -0.476469 -0.145560
0.181838 -0.072971 0.490314
0.130676 0.494192 -0.068407
0.032497 0.169337 0.466314
-0.086324 0.338678 -0.367895
0.122773 -0.130659 0.478176
-0.170380 0.075723 0.490138
-0.150537 0.377933 -0.327217
-0.187101 -0.059029 -0.496579
0.004256 0.478682 -0.141241
-0.106403 0.349934 -0.356937
-0.163433 -0.472089 -0.159097
-0.119765 -0.339361 -0.366162
0.109751 0.431126 0.247867
-0.024253 -0.017397 0.495520
-0.157029 -0.496931 0.020011
-0.159995 -0.011015 -0.500098
-0.113341 0.385845 0.313405
0.002271 -0.077542 0.489653
-0.141692 0.175750 -0.468459
-0.214945 -0.464229 -0.181443
0.070445 0.289192 -0.408137
-0.026970 -0.092206 0.487147
0.250262 -0.343755 0.357602
-0.072528 -0.431957 -0.248983
0.280757 -0.303702 0.392063
-0.249768 0.008165 -0.500058
-0.144897 -0.242212 0.432634
-0.197183 0.425540 0.257607
0.117476 -0.242540 0.432445
0.124764 0.425125 0.258332
-0.121030 0.305110 0.391801
-0.145673 -0.413268 0.275002
-0.266527 0.404702 0.288850
-0.055508 -0.439355 0.231194
-0.177783 0.361546 -0.345310
0.256455 0.284197 -0.411555
0.217378 0.130355 -0.482896
0.008347 0.238224 0.435405
0.247160 0.434856 -0.246037
-0.238831 -0.186117 0.459495
-0.050831 -0.347162 0.354286
-0.168188 0.445771 0.220753
-0.195521 -0.178749 0.462567
-0.084683 0.483909 0.117965
0.215835 0.485914 -0.113284
0.021084 0.032297 -0.499171
-0.124622 -0.256635 0.424363
0.223129 0.311066 0.387052
0.068345 -0.487710 -0.100153
-0.191357 -0.486789 0.100937
0.054255 -0.381250 0.317741
0.012370 0.367157 0.335038
-0.136065 -0.260295 0.422264
0.168418 0.467824 -0.174144
-0.234504 -0.494951 -0.052857
-0.261025 -0.330288 0.370097
-0.058900 0.457651 0.195327
-0.221046 -0.066111 0.491307
-0.036514 -0.269661 0.416121
-0.102199 -0.089502 -0.491943
0.236063 0.409654 -0.285988
-0.017783 0.372665 0.328765
0.228563 -0.336137 0.365019
-0.129946 -0.487458 -0.101356
0.016301 0.466262 0.174607
0.049758 0.344718 -0.362016
-0.128386 0.425800 -0.261161
0.166266 0.497747 -0.029018
0.144879 0.284037 -0.411661
-0.205905 0.497236 0.032951
-0.059331 -0.358965 -0.346754
-0.263556 -0.307636 0.389095
0.230379 0.385749 0.313517
0.210894 -0.490790 0.078914
-0.232672 0.162859 0.468745
0.244094 0.109185 0.483803
0.152322 0.484681 -0.118473
-0.215882 -0.491420 -0.079520
-0.151152 0.360186 -0.346811
-0.207894 -0.496338 0.033238
0.033810 -0.019338 0.495485
-0.076894 -0.488916 -0.094393
0.091946 0.485171 -0.116408
-0.251343 -0.443917 -0.226788
0.013138 0.136273 0.477001
0.157304 0.497410 -0.036546
0.271486 0.100918 -0.489890
0.077884 -0.402847 -0.294304
0.129721 0.284542 0.406813
0.187619 0.395773 -0.305165
-0.055642 -0.242567 -0.436932
0.056467 0.225746 -0.446299
-0.211547 -0.132226 -0.482277
-0.043485 0.061997 -0.496404
0.010255 -0.349637 -0.356335
0.062502 0.449751 -0.217303
-0.021673 -0.455512 0.197829
0.123253 0.358865 -0.348243
-0.261722 0.053078 0.492980
0.074986 0.373665 -0.331929
-0.208408 0.317620 0.381825
-0.244029 -0.236807 0.435733
-0.271368 -0.156176 0.470504
0.238321 0.496689 -0.045302
0.248496 0.425519 0.257645
-0.237548 0.254646 -0.430445
0.260100 -0.474065 0.148661
0.018528 -0.179960 0.462062
0.203968 0.325769 0.375048
0.081290 -0.386057 0.311712
0.285422 0.371886 -0.333894
-0.213449 -0.479703 0.130181
-0.038591 0.282564 -0.412633
0.086732 -0.487580 0.097565
-0.074809 -0.030518 -0.499224
0.036419 -0.280008 -0.413620
-0.161481 0.497747 -0.029013
0.010841 -0.357013 -0.348758
0.135157 0.264202 0.420242
0.256462 0.338740 -0.367835
-0.239025 0.494046 0.064103
-0.239235 0.153542 0.471732
0.182096 0.498263 0.012709
0.183375 -0.426411 0.254125
-0.014267 0.475214 0.148653
0.182038 0.471962 -0.163116
-0.268289 0.076327 -0.494330
0.073147 -0.155579 0.470710
-0.127110 0.491230 0.083564
-0.045939 -0.371945 0.328343
-0.278407 -0.303344 -0.396745
0.135405 0.129830 0.478897
-0.154345 0.198538 0.454736
0.115916 -0.350153 0.351373
-0.106441 -0.045004 0.493705
0.130352 0.225357 0.442179
-0.132531 0.484442 -0.119479
-0.044377 0.313665 -0.389593
0.240035 -0.161406 -0.473258
-0.000337 0.487147 -0.108096
-0.163833 0.412426 -0.282025
-0.031663 0.498189 0.016834
-0.275987 0.497701 -0.030052
0.103365 0.208923 0.450076
-0.101754 -0.459778 -0.192120
-0.052886 -0.313804 -0.388405
0.241488 0.492467 -0.079483
0.244530 -0.082452 -0.493157
-0.143133 -0.496239 -0.036958
0.053236 0.392326 -0.309488
-0.175263 -0.456646 0.195300
0.066986 -0.381995 0.316806
0.240452 -0.466637 0.170220
-0.056623 0.485908 -0.113310
-0.222982 -0.495011 -0.052122
-0.181207 0.491172 -0.087006
-0.110420 -0.369378 0.331177
0.145711 0.362866 0.339446
0.053758 0.424274 -0.263664
0.048606 0.496282 -0.049071
0.110065 0.192466 -0.461629
0.174107 0.485621 0.110660
0.271247 -0.267201 0.417746
0.142794 0.063029 -0.496254
-0.215713 0.436199 0.239020
0.274190 0.476594 -0.148083
0.034363 -0.184788 -0.464485
-0.128482 0.045237 0.493827
0.137603 0.486887 -0.109188
0.064511 -0.036056 -0.498975
-0.183161 -0.368538 -0.336733
-0.094132 0.114387 -0.487068
-0.220551 -0.242069 -0.437194
-0.259388 0.133665 -0.481982
0.285612 0.036712 -0.498814
0.010467 -0.294456 -0.403516
-0.053866 -0.484968 -0.113237
-0.214672 -0.342858 -0.362995
0.110399 0.428194 -0.257235
-0.134142 0.118433 0.481606
-0.026259 -0.494178 -0.060458
-0.163512 -0.479253 -0.135474
-0.218888 -0.340103 0.361158
0.057575 -0.109595 0.483504
-0.084781 -0.302531 0.392947
0.224677 0.496682 0.039788
-0.271733 0.369704 0.332216
0.158029 -0.497049 -0.026964
-0.025334 -0.080424 0.489236
-0.114203 0.435227 -0.245334
0.045661 0.485289 -0.115914
0.149734 -0.379990 0.319320
0.191138 -0.452139 0.205344
-0.030271 -0.150792 -0.476612
0.117401 -0.231028 -0.443007
-0.160919 0.434123 0.242640
-0.168566 -0.327789 -0.376643
-0.165506 -0.232791 0.437970
-0.285326 -0.246761 0.430025
0.098909 0.305469 0.391514
-0.165292 0.368236 -0.337924
0.166527 -0.083266 0.488825
0.015915 -0.107618 -0.488286
-0.154409 -0.460275 0.187176
0.243097 -0.115220 0.482325
-0.278099 -0.495416 -0.047126
-0.095969 -0.007079 0.495705
-0.038100 -0.083201 0.488834
-0.005068 0.306687 -0.394938
0.046185 -0.492864 -0.069541
0.135061 -0.285385 0.405741
0.066568 -0.351031 -0.354904
-0.282104 0.141880 0.475290
-0.075415 0.341478 0.360820
0.157492 -0.486832 0.100756
-0.149835 0.441080 -0.234216
-0.213496 -0.417325 0.269028
-0.074305 0.288221 0.404240
-0.141273 0.455221 -0.205113
-0.090197 0.270375 -0.420680
0.116138 0.140472 -0.480103
-0.093713 0.302890 -0.397803
-0.250721 -0.108667 0.483698
-0.271248 -0.380472 0.318715
-0.179000 0.376080 0.324785
-0.253731 -0.462840 -0.184775
-0.218545 -0.380339 0.318883
-0.027405 -0.307765 -0.393220
-0.174465 -0.445846 -0.222873
0.091067 0.223874 0.442960
-0.123921 -0.497026 -0.027248
0.038779 0.137774 0.476543
-0.026817 -0.283919 0.406709
-0.224764 0.493106 0.070598
-0.157113 -0.487848 0.096006
-0.073318 0.498559 -0.003725
0.153524 0.355017 -0.351989
0.103230 0.348567 0.354133
0.132204 0.052850 0.493005
0.194170 -0.336413 -0.368832
-0.218768 0.142630 0.475061
-0.137617 -0.183785 0.460468
-0.201256 0.475782 0.147007
-0.146847 -0.256456 0.424465
-0.126343 -0.354024 -0.351829
-0.019884 -0.477062 0.138839
-0.250368 0.360348 0.342032
0.142671 0.359128 -0.347979
0.111847 -0.071160 0.490576
-0.105651 -0.123838 0.480059
0.044481 -0.480688 0.126608
-0.157967 0.206680 -0.455695
0.100758 -0.185220 -0.464323
-0.200835 -0.464146 0.176859
0.033236 -0.497502 -0.002434
-0.117949 0.350236 -0.356643
0.136518 -0.472790 -0.157064
0.273090 0.484373 0.116284
-0.197708 -0.303023 0.392576
-0.285020 -0.147458 0.473511
-0.113128 -0.392584 -0.307907
0.164037 -0.140043 0.475585
0.286004 0.320113 0.379838
-0.116474 -0.204338 0.451899
0.236407 -0.473503 -0.154997
-0.046888 0.144141 0.474600
-0.198539 -0.497426 -0.006666
0.028424 0.141445 0.475423
0.035238 -0.194904 -0.460260
-0.034256 -0.495083 -0.051226
0.264773 0.270608 -0.420526
-0.128984 -0.332549 0.368157
-0.029154 -0.446790 -0.220957
-0.199288 -0.315675 0.382636
-0.117358 0.479587 0.133624
-0.096303 0.380587 -0.324211
0.146902 0.310745 0.387308
-0.087023 0.384525 -0.319271
0.178085 0.430730 0.248558
-0.040047 0.490501 -0.090900
0.108889 -0.333831 0.367057
0.052127 0.479058 0.135539
0.284613 -0.009710 0.495658
0.230359 0.303092 -0.397650
-0.249623 0.359387 -0.347693
0.181705 0.097681 0.486358
0.284440 0.130776 -0.482779
0.098814 -0.399966 -0.298122
0.284423 -0.438405 0.232998
-0.020047 0.498274 0.012087
-0.046923 -0.403197 0.289402
0.139887 -0.274316 0.413049
0.045245 -0.242623 0.432398
-0.139119 -0.086557 0.488330
-0.134026 0.221853 0.444024
-0.115567 -0.406385 0.284843
0.183088 0.077493 -0.494162
-0.256277 0.286889 0.405171
-0.208515 -0.142779 -0.479057
0.184545 -0.156742 0.470309
0.261372 -0.373510 0.326616
0.191359 0.189698 0.458673
0.033469 -0.427563 0.252235
0.074463 0.498404 -0.014373
0.194878 0.057934 -0.496991
0.169971 0.133435 -0.482046
-0.173516 -0.391139 -0.309822
0.024592 -0.471711 0.156376
-0.153399 -0.351255 -0.354674
0.236962 -0.458093 0.192077
0.270565 0.319943 0.379973
0.126126 0.216891 -0.450663
-0.004331 -0.472071 0.155195
-0.001594 0.400497 -0.299081
0.196446 0.481164 -0.133106
-0.089585 0.139562 0.475997
0.156990 -0.318828 0.379930
-0.221731 -0.322381 0.376882
-0.208840 0.189438 0.458771
-0.013480 -0.295155 -0.403027
0.238661 -0.212032 -0.452574
0.218603 -0.316764 -0.386044
-0.102700 0.473642 0.153210
-0.082183 -0.136536 0.476553
-0.247006 0.393174 -0.308425
-0.191282 0.219801 0.445105
-0.203031 0.465104 -0.181392
0.242421 0.230838 -0.443790
-0.222552 0.133007 -0.482164
-0.053339 -0.303924 -0.396283
-0.082224 0.061049 0.492118
0.042646 -0.463657 -0.182816
0.231137 0.314344 -0.389011
0.257543 0.172307 -0.469647
0.190154 0.157517 -0.474749
0.000457 -0.128083 0.478887
-0.215471 -0.233921 -0.441484
-0.051324 -0.046526 -0.497931
-0.165849 0.328189 0.372856
0.028684 0.266109 -0.423497
-0.013751 0.495894 -0.052663
-0.008899 -0.319091 -0.384189
0.120808 0.393055 0.304288
0.277810 0.139882 -0.480266
-0.234053 -0.463896 -0.182242
0.128038 -0.379668 0.319724
-0.199838 -0.193827 -0.460744
-0.170440 0.404059 -0.293989
0.200209 -0.493138 -0.067647
0.189150 0.424042 -0.264045
-0.052118 -0.184114 -0.464738
0.233386 -0.377639 0.322057
-0.257747 0.320896 0.379214
-0.047984 0.294353 0.399951
-0.239879 -0.388420 -0.313426
0.207674 0.462232 0.184339
0.193116 0.493472 0.068066
-0.022364 -0.433234 0.242817
0.266369 0.145176 0.474284
0.274313 -0.494271 0.053846
0.043331 0.247352 -0.434627
0.031574 -0.272406 0.414310
-0.012298 0.025419 0.495145
-0.147338 0.201028 -0.458060
0.069063 -0.492138 -0.074557
-0.250956 -0.437880 -0.238656
0.120390 -0.349360 -0.356620
-0.228062 0.356919 0.345554
0.286799 0.485608 0.110723
0.121300 0.242370 -0.437484
0.201827 -0.339609 0.361639
0.121718 -0.414575 0.273133
-0.092139 0.161268 -0.473455
0.224050 -0.225387 -0.445977
-0.289745 0.151413 0.472382
0.254914 -0.141429 -0.479468
-0.025204 0.196700 0.455561
0.054998 -0.416518 0.270352
0.135551 -0.497236 0.013213
-0.029253 -0.433447 -0.246385
0.016980 -0.479193 0.131855
0.160425 -0.187552 -0.463447
-0.189772 0.091149 0.487483
0.103065 0.026404 0.495101
0.218814 0.385886 -0.317564
0.275335 -0.002927 -0.500258
0.185025 -0.419649 -0.269528
-0.084161 -0.292834 0.400262
0.155013 -0.471743 -0.160100
0.281359 0.429504 0.250695
0.285061 -0.166245 0.467031
0.222329 -0.453909 -0.206196
0.187891 -0.226551 -0.445364
-0.140213 0.495772 0.051017
0.212677 0.138399 0.476352
-0.118044 0.257089 0.424579
-0.157964 -0.211943 0.448243
-0.288816 -0.418561 -0.271176
0.275603 -0.120081 0.481096
-0.023842 0.417645 -0.274538
0.130619 -0.311223 -0.390463
0.062018 -0.023277 -0.499548
-0.004799 0.283171 0.407771
-0.215356 0.464818 0.178136
0.244216 0.468367 0.168503
0.064255 -0.496882 0.021096
-0.161783 0.023224 0.495243
0.151927 -0.446542 -0.221462
0.127706 0.498333 -0.015961
-0.072580 -0.155506 -0.475173
0.246012 0.279268 -0.414810
0.267385 -0.491469 0.074970
-0.281814 0.431457 0.247290
-0.211492 -0.468793 0.164477
-0.040591 -0.487125 0.099520
-0.046530 0.422294 -0.266912
0.137592 -0.112283 0.482941
-0.042052 -0.483646 0.114160
0.282615 -0.234393 -0.441236
-0.088552 0.479391 -0.138919
0.224681 -0.200826 0.453363
-0.262017 0.230224 0.439617
-0.235310 -0.349610 0.351902
0.241798 -0.441028 -0.232651
-0.260084 -0.217696 0.445408
-0.229563 0.498607 -0.006387
-0.113340 -0.012434 -0.500035
0.285372 0.496605 -0.046077
-0.207046 -0.263702 0.420056
-0.167746 0.340911 0.361333
-0.034084 -0.438306 -0.237912
0.060618 -0.112908 -0.487029
0.149270 0.114657 0.482503
-0.050891 -0.084173 0.488694
0.206598 -0.468747 -0.168784
0.244325 0.484066 -0.121058
-0.278518 0.490202 -0.092639
0.271094 -0.181829 0.461283
0.121152 0.456382 -0.202526
0.271087 -0.468938 0.164090
0.048119 -0.424920 -0.261255
-0.094249 0.053428 -0.497459
-0.082993 -0.457680 0.192998
-0.080666 -0.138178 -0.480461
-0.074266 -0.496376 0.032386
-0.117934 -0.497601 0.003073
-0.212900 0.151349 0.472401
-0.024771 0.474277 -0.155679
-0.039943 0.492570 -0.078882
-0.113799 0.374584 0.326529
0.029397 -0.351511 -0.354410
-0.026802 -0.336088 -0.369126
0.119289 0.455286 0.201000
-0.268759 0.473578 -0.157968
0.007132 -0.482124 0.120566
0.127821 0.417990 0.269240
0.075592 -0.497433 -0.006243
0.223570 -0.110811 -0.487527
0.194442 0.176592 0.463591
0.141215 0.482773 0.122081
0.087579 -0.408233 0.282202
-0.052534 -0.201128 0.453237
-0.155701 0.355145 0.347377
0.101453 -0.075356 0.489969
0.063597 0.203335 -0.457097
-0.246194 0.494416 -0.066340
0.229447 -0.484812 0.109253
0.053218 -0.313080 0.384863
-0.101350 0.255411 -0.430006
0.164370 0.016108 0.495563
0.254827 0.134693 -0.481698
0.259617 -0.442048 0.226078
0.026068 -0.494657 -0.056494
-0.230192 0.288563 0.404000
-0.217729 -0.003171 0.495776
0.191923 -0.461223 -0.188653
-0.223137 -0.493742 -0.063471
-0.271153 0.328935 0.372181
0.019176 -0.406198 -0.289862
0.047468 -0.296461 0.397526
-0.065786 0.261016 0.422185
-0.141688 -0.282130 -0.412136
-0.170618 0.355329 0.347188
-0.195435 0.398497 -0.301749
0.191041 0.373095 0.328264
0.196037 0.120258 -0.485683
-0.259912 0.260446 -0.427119
0.004079 0.064470 0.491749
0.142457 -0.317052 -0.385815
0.069714 -0.472794 0.152827
0.014352 0.422109 -0.267216
-0.289614 0.330582 -0.375077
0.238113 0.498021 -0.022908
0.047864 0.412858 0.277013
-0.160606 -0.005771 0.495729
-0.072868 -0.075545 -0.494346
-0.201172 -0.339408 -0.366120
-0.110814 0.248262 -0.434105
0.151261 0.475149 0.148842
0.065384 0.114563 0.482525
0.122462 -0.448715 -0.217052
0.230431 0.483949 0.117823
-0.289342 -0.043845 0.493799
-0.116450 -0.484013 -0.117798
0.099495 -0.451478 -0.211443
0.105762 -0.199722 -0.458098
-0.055953 0.064590 -0.496028
0.048871 0.159496 -0.474066
-0.258673 -0.092136 -0.491490
0.249851 -0.259506 0.422716
0.181003 0.375989 0.324892
0.024268 0.017767 0.495488
-0.264535 -0.431255 0.246178
0.009260 -0.047119 -0.497867
-0.053810 0.412825 0.277064
-0.193878 -0.442730 -0.229197
0.235965 0.460405 -0.193563
-0.054050 0.202687 -0.457368
-0.018665 -0.000798 -0.500219
0.157517 0.173632 0.464702
-0.022336 -0.479484 -0.134637
0.170098 -0.490028 -0.089085
0.017449 -0.401617 0.291662
-0.236077 0.218987 -0.449630
-0.083340 -0.420827 0.263285
-0.106548 0.498582 -0.010406
-0.020278 0.450605 0.210941
0.093034 -0.494956 -0.052797
-0.026398 -0.262480 0.420862
0.003012 0.382944 0.316785
-0.179889 0.251117 -0.432469
0.063899 -0.218969 -0.449357
-0.115130 -0.216338 0.446077
-0.257647 -0.303170 -0.396884
-0.004332 -0.336166 0.364991
0.160647 0.464195 -0.183813
-0.184645 -0.121073 0.480822
0.074659 -0.197066 -0.459290
-0.227071 0.338180 -0.368381
-0.140131 -0.458268 0.191686
0.206866 -0.257883 0.423648
-0.068978 -0.060261 0.492153
-0.058882 -0.492014 -0.075415
-0.273154 -0.451608 -0.211179
-0.046401 0.475902 0.146660
-0.274289 0.361636 0.340709
0.054838 0.128678 -0.483359
0.144204 -0.214297 -0.451558
0.096787 0.495552 -0.055821
0.209709 0.090718 0.487557
0.103296 0.258956 0.423441
0.240285 -0.400152 0.293756
-0.186822 0.408579 0.283495
-0.091219 -0.178395 -0.466884
-0.209357 -0.424109 0.257901
-0.245906 0.172942 -0.469428
0.117895 -0.202778 -0.456727
0.099630 0.429249 0.251139
-0.035545 -0.466409 -0.175561
-0.220415 0.304581 0.392223
0.163385 -0.314172 -0.388111
0.059087 -0.094365 -0.491106
-0.246984 0.161254 -0.473460
-0.168575 -0.235060 -0.440884
-0.086244 0.312309 0.386060
-0.180406 0.025036 -0.499754
0.079920 -0.266731 -0.422429
-0.042104 0.058080 0.492439
-0.063094 -0.376007 -0.328029
0.166761 0.253942 0.426497
-0.093988 0.450186 -0.216335
-0.049356 0.299149 -0.400625
0.082626 -0.445085 -0.224417
0.109231 -0.343471 0.357879
-0.186034 0.239128 0.434928
0.034621 0.266237 0.419002
0.027089 -0.056355 0.492718
0.161646 0.338378 0.363628
-0.133556 -0.233560 0.437591
-0.203657 0.484822 -0.117878
-0.070957 0.438740 -0.238661
-0.046132 0.469541 0.165099
0.056826 0.088387 -0.492515
0.256241 -0.345003 -0.361052
0.023408 -0.281322 -0.412701
-0.086012 0.341581 0.360726
-0.039816 -0.308792 0.388223
0.059925 0.268012 0.417920
0.111117 0.492489 0.074864
-0.197939 0.384118 -0.319782
-0.144582 0.038649 0.494539
-0.065802 0.455321 -0.204892
0.075223 -0.462098 0.182319
0.258386 -0.460416 -0.190589
0.076241 -0.475074 0.145355
0.184545 -0.494914 0.047895
0.262618 0.436002 -0.243861
0.108656 -0.252778 0.426575
0.281489 -0.262354 -0.425098
-0.278704 0.447031 0.218195
0.075165 0.061437 0.492077
0.120452 0.324814 0.375912
-0.206145 -0.040534 -0.498578
0.066356 0.344017 -0.362698
0.245534 -0.178503 -0.466843
0.193963 0.065834 0.491601
-0.082286 -0.360365 -0.345316
0.174114 0.458164 0.194096
0.058200 0.495818 0.050459
0.068078 -0.397778 -0.301023
-0.055614 0.056587 0.492601
-0.191708 -0.191003 0.457458
0.258772 -0.495901 -0.041134
-0.255216 0.025218 0.495154
-0.004639 0.210371 0.449426
0.009985 -0.076035 -0.494262
0.171519 -0.244920 -0.435693
-0.071296 0.221032 -0.448622
0.049548 0.183294 -0.465453
-0.045476 -0.491708 -0.077533
0.065907 0.488045 0.099089
-0.017916 0.204685 0.451977
-0.081196 0.486120 0.108280
-0.021640 0.052087 -0.497568
-0.152013 -0.495506 0.042412
-0.104096 0.445809 -0.225236
0.161621 -0.386594 -0.315691
0.144095 -0.296710 0.397338
-0.245308 0.128482 -0.483413
-0.153005 0.070814 0.490983
0.257972 -0.239345 -0.438628
0.052425 0.104401 0.484940
0.031593 -0.063912 -0.496052
-0.075782 -0.474746 0.146428
-0.216886 -0.493667 0.059433
0.145727 -0.114552 -0.486638
-0.062924 -0.150349 0.472514
0.133329 -0.497581 0.001973
0.098805 0.144007 -0.479127
0.049096 -0.270166 0.415788
-0.175896 0.283819 0.407318
0.131417 0.445967 -0.224934
0.215217 -0.233826 -0.441534
0.023085 -0.427056 0.253066
0.215976 0.490258 -0.092312
0.154117 -0.167571 0.466574
-0.139448 0.427458 0.254263
-0.095322 -0.472763 -0.157142
0.035207 0.492282 0.076291
-0.183941 -0.199715 -0.458101
0.152862 -0.439345 -0.236067
-0.274832 -0.124250 0.479945
0.238499 -0.342594 0.358733
0.093468 -0.493005 -0.068566
0.216674 0.427282 0.254570
0.027757 0.106993 0.484324
-0.028295 -0.308557 0.388401
0.008125 -0.201345 0.453147
-0.289591 -0.492938 0.066178
0.214560 -0.181955 0.461231
0.017522 -0.373479 -0.330975
-0.108595 0.329852 -0.375704
-0.141698 -0.494827 0.048697
-0.221982 0.393199 -0.308394
-0.161573 -0.050547 -0.497496
-0.059790 -0.468174 -0.170446
0.103295 -0.200535 0.453484
0.209241 0.437591 -0.240844
-0.199087 0.239037 0.434977
0.067872 0.496217 0.045531
-0.003929 -0.424569 -0.261868
-0.288808 -0.455084 -0.203378
0.204399 -0.402280 0.290713
0.249285 -0.451041 -0.212330
-0.057328 -0.092677 0.487048
0.044893 -0.418601 -0.271116
-0.168242 0.495309 0.055370
-0.183803 0.497001 0.035852
-0.206466 0.494444 0.061350
-0.250778 -0.463384 0.178889
0.283769 -0.375372 -0.328769
0.271619 -0.369481 0.331063
-0.132149 0.264618 -0.424481
-0.006069 0.367914 -0.338278
0.106513 -0.090427 0.487520
-0.046067 -0.356196 0.345490
-0.104448 0.296397 -0.402701
-0.187746 -0.480744 0.126375
0.183932 -0.490541 -0.085597
0.070467 0.071245 -0.495066
-0.235454 0.441429 0.229564
0.200155 0.170545 -0.470254
0.072752 0.489812 -0.094902
-0.075639 0.191778 -0.461916
-0.064148 0.423078 0.261534
0.093530 -0.436104 0.237367
-0.058905 -0.192628 0.456781
-0.283764 -0.496592 0.027571
-0.225577 -0.288101 -0.407960
0.080197 0.491181 0.083903
-0.242492 0.196613 -0.459900
0.184716 0.239305 0.434836
0.035501 -0.323487 0.375933
-0.242502 -0.497438 -0.005978
-0.286219 0.248966 0.429531
-0.063033 0.234172 0.437538
-0.034442 0.472309 -0.162127
-0.126173 -0.484972 -0.113222
0.285418 -0.212990 0.447727
0.233611 -0.186567 -0.463817
0.205140 -0.426826 -0.257930
0.023773 0.288809 -0.408426
0.214452 -0.440234 0.229524
-0.165265 -0.044880 0.493715
0.201869 0.409383 0.282277
0.038891 -0.485958 0.104431
0.031672 0.384190 -0.319691
-0.040854 0.045503 0.493799
0.162254 -0.469752 0.161919
0.165090 0.478074 -0.143233
-0.125041 0.496881 0.037328
0.107741 0.169531 -0.470604
-0.139284 -0.491804 0.073027
0.213536 0.421055 -0.268945
-0.275820 -0.491770 -0.077103
0.192194 -0.313842 0.384209
0.110193 -0.368603 -0.336658
-0.123829 0.389401 0.309131
0.002496 0.494760 0.059168
-0.159609 -0.241371 -0.437562
-0.160733 0.109826 0.483651
-0.073138 0.206368 0.451222
-0.203153 0.310411 -0.392128
0.252191 0.361917 0.340421
0.158096 -0.334381 0.366585
0.153700 0.109593 -0.488072
0.076097 0.497009 -0.042342
-0.099789 -0.302973 0.392613
0.022172 -0.358820 0.342834
0.048508 -0.039484 0.494152
0.154492 0.493029 0.071129
0.246253 0.067601 -0.495593
-0.126270 0.409249 -0.286567
-0.251544 0.046574 -0.498015
0.124424 -0.496254 -0.036775
0.107500 -0.119975 -0.485349
0.004464 -0.350924 0.350623
-0.126332 0.156896 -0.474963
-0.157079 -0.322639 0.376661
-0.223867 0.355837 -0.351190
0.157281 0.493455 -0.073741
-0.130924 0.494532 -0.065262
-0.130784 0.493203 0.069924
0.010004 0.397486 -0.303017
-0.007939 0.493404 0.068535
0.260426 -0.095329 0.486493
0.239901 0.070921 0.490965
-0.061344 -0.407914 -0.287303
-0.268519 0.239349 0.434812
-0.050983 0.498388 0.005767
0.062349 -0.494241 -0.060020
0.066364 0.415760 0.272619
-0.230104 -0.478183 -0.139351
0.009254 -0.127233 -0.483624
-0.139401 0.408452 0.283687
0.204194 0.459715 -0.195098
0.113238 0.394012 -0.307374
0.074105 0.244236 -0.436414
0.124872 0.083432 0.488811
-0.257774 -0.008249 -0.500222
0.167169 -0.417785 -0.272351
-0.266716 -0.493867 0.057581
-0.032587 0.467362 0.171417
0.178991 -0.119349 -0.485498
0.073756 -0.497269 0.012478
0.248154 0.061240 0.492098
-0.029130 0.437627 0.236530
0.286714 -0.059955 -0.496479
0.090027 -0.227351 -0.444943
0.098145 -0.461358 -0.188331
0.072436 -0.014704 -0.499933
-0.021724 -0.109395 0.483546
-0.178280 -0.183192 -0.465084
-0.183466 -0.470911 -0.162510
0.117086 0.345740 0.356960
-0.088930 0.200050 -0.458467
0.278107 0.027346 0.495058
-0.237427 0.172161 0.465254
-0.288229 -0.326895 -0.377453
-0.052486 -0.223776 0.442412
0.235829 0.496899 0.037113
0.281531 0.497699 -0.030099
0.096425 -0.483065 0.116606
0.012425 0.484199 0.116917
0.265518 0.134508 -0.481749
-0.188800 -0.058311 0.492435
0.098350 0.330337 0.370910
-0.273239 0.132189 -0.482390
0.099569 0.196847 0.455495
0.144025 0.487304 0.102629
0.011268 0.347332 0.355402
-0.108120 0.470606 0.162013
0.279385 0.292485 0.401257
-0.137354 0.399665 -0.300272
-0.263260 -0.495494 -0.046153
0.283987 -0.186567 -0.463817
-0.060017 -0.288405 0.403604
-0.224967 -0.044238 0.493767
-0.228486 -0.483399 0.115199
0.218919 0.032069 -0.499190
-0.108842 0.133479 -0.482033
-0.184607 0.498513 -0.001163
0.146070 0.497009 0.035749
-0.203378 -0.289393 0.402859
0.157611 -0.220929 -0.448325
-0.044582 -0.418336 0.267370
0.160145 -0.219054 0.444739
0.237561 0.086887 0.488216
-0.016183 0.146169 0.473981
0.022206 -0.295922 0.397933
0.100502 -0.100777 -0.489911
0.151151 -0.415903 0.271235
-0.151924 0.283243 0.407721
0.127142 -0.322414 0.376854
-0.284440 0.134030 -0.481881
-0.028453 -0.383450 -0.319356
-0.165814 0.355012 -0.351994
0.195271 -0.248017 0.429305
-0.126891 -0.080910 0.489166
-0.035421 -0.489396 -0.092104
0.232510 -0.152334 0.471830
0.075287 -0.349866 0.351653
-0.288518 -0.133769 0.477317
-0.008105 0.369249 0.332746
-0.274307 0.492724 0.073241
-0.231764 -0.260123 -0.426457
0.006515 0.320939 0.379179
-0.065166 -0.315290 -0.387220
-0.087140 -0.496612 0.027127
-0.024743 -0.199247 -0.458311
-0.187805 0.476483 0.144868
0.063576 -0.478860 0.132947
-0.225812 -0.104114 -0.489118
-0.059902 0.498196 0.016446
0.075458 0.081983 -0.493512
0.205557 0.142843 -0.479448
-0.064694 -0.495405 -0.047256
0.282314 0.423846 0.260370
-0.130856 0.358318 0.344117
0.106729 0.019737 -0.499849
-0.158356 -0.283526 0.406968
-0.290154 0.270268 0.416544
0.157341 0.498109 0.021251
-0.185814 0.497882 0.024975
-0.043117 0.174395 -0.468926
-0.204066 -0.197862 0.454598
-0.132695 0.481654 -0.131211
0.167648 -0.313794 0.384251
0.270946 -0.256803 0.424266
-0.100590 0.498494 -0.000122
-0.146633 -0.450630 0.208708
-0.098236 -0.490252 0.082040
0.255305 -0.451518 0.206730
0.128901 -0.281718 -0.412424
-0.091899 0.064793 -0.495999
-0.053226 -0.477656 -0.141259
-0.248520 -0.489683 0.085349
0.239554 0.498507 -0.012088
0.054715 0.409714 -0.285902
0.088887 0.121230 -0.485415
0.205770 -0.330224 -0.374438
-0.162593 -0.113773 -0.486823
-0.020862 -0.143267 -0.478908
-0.102617 0.438074 0.235751
-0.101403 0.321564 -0.382816
-0.011796 -0.244496 0.431324
-0.021638 0.330842 0.370453
-0.276096 -0.497131 0.015553
0.056472 -0.347872 -0.358148
-0.270840 0.427950 0.253404
-0.244198 0.280884 0.409371
-0.073953 0.210068 -0.454025
0.142594 0.441704 0.229006
-0.122836 -0.430160 -0.252117
0.037723 0.414631 -0.278872
0.062389 -0.441491 -0.231712
0.231379 -0.470072 -0.164944
0.093161 0.497571 0.028811
0.167231 -0.183388 0.460633
-0.176018 -0.477458 -0.141976
0.148179 0.414248 0.274908
0.037685 0.497975 -0.023937
-0.113253 -0.427483 -0.256785
0.018261 0.492007 0.078197
0.221248 -0.496320 0.033629
0.008732 0.207042 -0.455516
-0.207506 0.204600 -0.456570
-0.173952 0.064395 0.491757
-0.228255 -0.492261 -0.073708
0.141489 -0.074809 0.490048
-0.150147 0.343988 -0.362727
-0.046357 0.485546 -0.114832
0.235422 -0.497530 -0.000896
-0.163205 0.266248 0.418995
0.191902 0.498634 -0.009240
0.122778 0.251016 0.428281
-0.216010 0.385627 -0.317890
0.065605 -0.209514 0.449439
0.219750 -0.004913 -0.500293
0.078271 -0.003857 0.495763
-0.004792 0.464312 -0.183501
-0.229510 -0.496579 -0.032762
0.198257 -0.455163 0.198605
0.149504 0.160739 0.469536
-0.125525 0.232495 -0.442974
-0.030399 -0.475030 0.145500
0.059950 -0.357717 0.344009
-0.062219 -0.428718 0.250341
-0.230494 -0.362998 0.338222
0.216223 0.156472 0.470838
0.229661 -0.313147 -0.388928
0.275881 0.165610 0.467712
0.213740 -0.491131 -0.081521
-0.081671 -0.474435 -0.152295
0.177480 0.487931 0.099632
0.167411 0.294770 -0.403928
-0.262907 -0.031078 -0.499199
0.047282 -0.324973 -0.379194
-0.029702 0.176784 -0.468103
-0.251226 -0.496800 0.022941
0.006111 -0.186247 -0.463937
-0.201212 -0.403458 0.289030
0.213394 0.475917 -0.150304
0.029465 -0.440825 0.228402
0.049952 0.266993 -0.422913
0.215086 -0.087665 0.488098
0.021673 0.365642 -0.340787
-0.169120 0.441070 -0.234236
0.013296 -0.317715 -0.385286
0.256585 0.036078 0.494667
-0.233264 -0.384207 0.314032
0.067577 -0.052489 -0.497286
0.035136 -0.298430 0.396041
-0.080394 0.461248 -0.191667
0.103103 0.479174 -0.139629
0.096511 -0.363859 0.337271
-0.153682 0.244615 0.432039
-0.100269 0.207428 -0.455326
0.010768 -0.337896 -0.367489
-0.009671 0.296914 -0.402311
-0.286865 -0.188115 -0.463236
-0.207828 -0.073904 -0.494629
0.068268 0.229969 -0.444219
-0.190159 0.304516 -0.396576
0.058564 0.305641 0.391377
0.080858 0.495760 -0.053900
0.109088 0.093656 -0.491411
0.103806 0.467331 0.171508
-0.151951 0.434349 -0.247000
0.202264 -0.431715 0.245424
0.286435 0.432690 -0.249859
0.132028 -0.394871 -0.304875
0.092767 0.300026 -0.399963
-0.205587 0.234583 -0.441945
0.158098 0.100051 -0.490071
0.020200 0.175819 0.463881
-0.054121 0.497802 -0.027801
0.281516 0.490217 -0.092549
-0.031490 -0.109925 -0.487737
-0.012228 0.113525 -0.487249
0.070953 -0.476620 -0.145011
-0.280096 -0.070255 -0.495257
0.041976 -0.269902 -0.420496
-0.058419 -0.021850 0.495439
0.178612 0.442144 0.228113
0.199877 0.483514 -0.123381
-0.203902 0.473899 -0.156917
-0.061788 0.350833 0.351806
0.285431 0.172362 0.465178
0.118631 0.485126 0.113022
-0.078928 -0.479858 0.129675
0.061225 0.145130 -0.478817
0.054130 -0.488389 -0.096910
-0.152888 -0.248836 -0.433339
0.014917 0.066777 0.491499
0.009704 0.475761 -0.150815
0.017565 -0.487603 -0.100660
0.008171 0.088142 0.488000
-0.218571 -0.262260 0.421007
-0.176885 0.328445 -0.376912
0.171310 -0.496464 0.030430
-0.152165 0.485007 -0.117102
-0.156967 -0.312751 0.385145
0.031974 -0.454470 0.200150
0.100070 -0.392232 -0.308374
0.202319 -0.101482 -0.489744
-0.026350 0.293987 0.400207
0.194867 -0.478653 -0.137647
-0.150677 -0.039720 0.494133
-0.251101 -0.266081 -0.422825
0.120417 0.482549 -0.127445
0.129355 0.269162 -0.421481
0.052410 -0.497152 -0.021871
0.063491 -0.247732 0.429468
0.036828 -0.492992 0.065674
-0.136218 -0.065880 -0.495839
-0.121459 -0.424406 -0.262151
0.087225 0.387447 -0.315607
-0.111950 0.006091 -0.500095
-0.032116 -0.496124 0.036698
0.185255 -0.470238 -0.164461
0.286751 0.297552 -0.401830
-0.244556 -0.393695 0.302133
0.105859 -0.426825 0.253445
0.008735 -0.368951 -0.336253
0.281562 0.357660 0.344793
-0.192869 0.402126 0.292264
0.266358 0.159026 0.470059
-0.003862 0.465858 0.175642
-0.144570 -0.399492 -0.298751
-0.015382 -0.488901 -0.094468
-0.279573 -0.347216 -0.358822
-0.112433 0.200019 0.454071
-0.202737 0.062885 -0.496275
-0.125748 -0.126632 -0.483767
0.247092 -0.359339 -0.346370
0.017683 0.001156 -0.500184
-0.285412 0.410948 0.279907
0.236062 -0.384781 0.313312
0.237254 -0.254425 -0.429932
-0.052893 0.183462 0.461013
-0.239029 -0.157971 0.469885
0.033176 0.421417 -0.268351
-0.120340 0.356728 0.345750
0.184153 -0.363725 0.337418
0.264255 0.000655 0.495845
-0.185366 -0.139718 0.475675
-0.060533 0.390800 0.307277
-0.077977 0.478302 -0.142486
-0.002743 0.489420 -0.097181
0.188181 -0.293183 -0.404406
0.257929 0.497756 -0.028826
0.167464 0.438757 -0.238629
-0.081445 -0.381010 -0.322199
0.051763 0.150285 -0.477243
-0.251848 0.379281 0.321054
-0.192289 -0.356011 0.345671
-0.230850 0.101944 -0.489675
-0.069356 -0.045178 -0.498076
-0.271265 -0.427917 -0.256028
-0.230353 -0.278341 0.410391
0.262484 0.400545 -0.299014
-0.119384 -0.098599 -0.490377
0.019519 -0.069389 -0.495406
-0.173143 0.469861 -0.168713
-0.028043 -0.497235 0.013235
0.137903 -0.360743 0.340711
0.059016 0.015781 -0.499921
0.176653 0.495980 0.048459
0.210728 -0.392361 -0.308203
-0.277206 -0.360497 0.340982
0.174296 -0.400427 0.293363
-0.164139 -0.346580 -0.359475
-0.090559 -0.461253 -0.188582
-0.005184 -0.108735 -0.488020
0.166729 0.034539 -0.498990
-0.121948 -0.036927 -0.498936
-0.007903 -0.495286 0.044451
-0.127941 0.452459 -0.211268
0.079609 0.309381 -0.392906
0.170325 0.409480 0.282131
-0.170772 0.232886 -0.442781
0.177481 0.255657 0.425451
0.139780 -0.151527 -0.476388
-0.047846 -0.474378 -0.152459
0.222121 0.110190 0.483564
0.130838 -0.142749 0.474838
-0.276053 0.452379 0.207342
0.115557 0.466428 0.174125
0.189962 0.380570 0.319553
-0.229810 -0.452982 -0.208392
-0.076119 0.176312 -0.468265
-0.064130 0.444313 -0.228077
-0.191305 -0.401362 -0.296272
0.189866 -0.413512 0.274653
-0.048469 -0.466177 -0.176235
0.128831 0.080259 -0.493762
0.223305 -0.244671 -0.435824
0.216686 0.050412 -0.497704
0.039164 -0.367934 -0.337437
-0.029411 -0.228646 0.440012
0.111533 -0.137036 0.476415
-0.286965 0.417890 -0.274136
0.182697 -0.033863 0.494608
0.246412 0.419478 0.266986
-0.040171 -0.009915 -0.500148
0.221899 0.331381 0.369965
-0.171910 -0.008276 -0.500221
0.242288 -0.184650 0.460107
-0.015697 0.264579 -0.424507
-0.038950 0.497671 0.027578
0.193459 -0.009949 0.495654
-0.052932 -0.230273 -0.443405
0.206965 0.151371 0.472394
0.126770 0.495790 -0.053622
-0.078317 -0.497028 0.017849
-0.102036 -0.491642 -0.077984
-0.182250 0.445190 0.221932
-0.075344 -0.009077 -0.500185
-0.107392 0.166192 0.467494
0.093652 0.400873 -0.298543
-0.273989 0.399422 -0.300590
0.102864 0.475259 0.148522
-0.177004 0.331023 0.370289
0.217219 -0.497143 -0.022375
0.272746 -0.469769 -0.165822
-0.193135 0.431295 0.247572
0.046239 -0.026238 -0.499416
-0.140017 0.361705 -0.345134
0.272387 -0.459018 0.190016
0.195759 -0.323767 0.375692
-0.144464 -0.452689 -0.208985
-0.060049 0.312441 0.385955
-0.128858 0.025019 -0.499754
-0.023952 0.472993 0.155093
0.086519 -0.284822 0.406112
0.208366 0.336069 0.365719
-0.240773 -0.347739 -0.358284
-0.212539 -0.103142 -0.489349
0.278331 0.423264 -0.265321
-0.240664 -0.180162 -0.466221
-0.035503 0.365125 0.337126
0.131812 0.435903 -0.244049
-0.205394 -0.488356 0.093054
-0.019515 0.157807 -0.474648
-0.231668 0.369060 0.332967
0.156083 0.498230 -0.018243
-0.093415 0.171563 -0.469903
-0.220119 0.430003 0.249824
0.010443 -0.357042 0.344666
-0.205896 -0.317264 -0.385646
0.146163 0.075354 0.490202
-0.097807 -0.079638 -0.493641
-0.042269 -0.234573 -0.441141
0.024184 -0.496959 -0.028072
0.236920 0.490501 -0.090904
-0.263248 -0.371963 0.328323
-0.126427 -0.478411 -0.138523
0.176168 -0.229511 -0.443806
0.036330 0.034300 0.494747
-0.207641 0.131916 0.478330
0.219644 0.216888 -0.450664
0.249475 0.144252 -0.479059
0.002614 -0.378626 0.320967
-0.170766 0.477084 -0.146478
0.043738 0.383508 -0.320547
0.274037 0.032337 -0.499168
-0.258818 -0.495434 0.043081
-0.246505 0.239228 0.434876
0.046750 0.302294 0.394047
-0.170730 0.127257 -0.483751
0.286138 -0.496253 0.035138
0.261948 -0.105577 0.484346
-0.203380 -0.493154 0.064182
-0.230291 0.242070 -0.437656
-0.289782 0.226236 -0.446058
0.022259 0.243619 0.432564
-0.103511 -0.068770 0.490922
0.233825 -0.363263 0.337929
-0.077155 -0.492366 0.069763
-0.230220 -0.032078 0.494753
0.255933 -0.140113 0.475566
-0.279490 0.313265 0.385298
-0.050500 -0.353144 -0.352733
0.217745 0.400398 0.294555
-0.255610 0.370646 0.331118
-0.236765 -0.308817 0.388204
-0.168035 -0.107075 0.484032
0.032025 -0.399581 0.294573
-0.072413 -0.286121 0.405255
-0.202448 0.224292 0.442740
-0.274065 -0.220528 0.444012
0.226997 -0.344105 0.357261
-0.135079 0.478747 0.136668
-0.004801 -0.460421 -0.190577
0.180843 0.493017 0.071214
0.085606 0.420601 -0.269690
0.264839 -0.438175 -0.238141
-0.268507 0.000441 0.495841
0.167068 -0.253305 -0.430614
0.105942 0.077440 -0.494169
-0.005884 -0.303322 -0.396763
-0.194839 -0.368246 -0.337074
0.073133 0.491812 -0.083287
-0.101943 0.187698 -0.463617
-0.265631 0.171218 0.465608
-0.090231 -0.243759 0.431747
0.286220 -0.481080 0.124957
0.266994 0.021423 -0.499819
0.156505 -0.494863 0.048368
0.283091 -0.236570 0.435869
-0.217087 -0.333980 -0.371036
-0.084342 -0.253496 0.426163
-0.194716 0.469142 -0.170630
-0.223501 0.459679 0.190463
0.080517 -0.468950 -0.168194
0.128384 -0.492018 -0.075389
0.253393 0.221627 -0.448329
-0.287628 0.109187 0.483803
-0.187883 0.494594 0.060312
-0.119306 -0.137439 -0.480686
-0.198788 -0.469708 0.162037
0.019442 0.210313 -0.453904
0.270219 0.017770 0.495488
0.132149 -0.405589 -0.290670
-0.150841 0.129153 -0.483228
-0.088733 -0.448882 0.212602
-0.152904 0.475859 -0.150493
-0.154035 0.482376 -0.128173
0.085182 -0.153725 0.471350
0.000330 0.487213 0.103063
-0.225274 0.482285 -0.128555
0.010835 0.095702 -0.490983
0.039771 -0.147995 0.473326
0.202666 0.491660 0.080595
-0.249665 0.121694 0.480831
0.148113 0.048319 0.493494
0.043632 -0.089457 0.487723
-0.248010 -0.426489 -0.258519
0.263769 0.293876 0.400285
-0.096533 0.336915 0.364953
-0.203855 0.214058 -0.452059
-0.285950 -0.090582 -0.491757
0.212320 0.308654 0.388976
-0.237080 0.423727 -0.264561
0.216955 -0.225858 0.441386
-0.101636 0.238088 -0.439940
-0.070148 0.302935 0.393536
0.243636 0.128996 -0.483271
0.096661 0.369784 0.332123
-0.148720 -0.093796 0.486814
0.236741 0.455465 -0.204569
0.007834 -0.113948 -0.486781
-0.066118 0.357960 0.344485
-0.199446 0.279271 -0.414807
-0.053639 -0.495481 0.042643
0.078910 -0.482847 0.117523
-0.021049 -0.376959 -0.326920
-0.105040 -0.470227 0.160655
0.218661 0.261986 -0.426218
-0.182979 -0.483895 0.113115
0.213398 -0.497597 0.002864
-0.056493 0.482259 -0.128664
0.216579 -0.317332 0.381214
-0.261819 0.153862 -0.476010
-0.247901 -0.316281 0.382116
0.269923 -0.062255 0.491865
-0.279005 -0.474621 0.146839
0.070060 0.426211 -0.260486
0.181894 0.263235 -0.425394
-0.116391 -0.118436 -0.485715
0.114661 0.206384 0.451215
0.019889 0.397313 0.298644
-0.217029 -0.179510 -0.466465
0.254596 0.282234 0.408426
0.228671 0.130810 0.478664
-0.094377 0.467339 0.171483
0.116681 0.083587 -0.493280
0.037802 -0.176464 0.463506
-0.148745 -0.334031 -0.370990
-0.003130 0.260570 0.422457
0.171983 -0.219077 -0.449300
0.094152 -0.201500 -0.457300
0.247277 -0.401737 -0.295775
-0.160413 0.315754 -0.387801
0.091110 -0.133759 -0.481809
0.230597 0.334665 -0.371574
-0.046841 0.303577 0.393023
-0.065834 0.191179 0.458038
-0.202894 0.343464 -0.363236
0.228686 -0.411632 0.277341
-0.206961 0.469498 -0.169681
0.017715 -0.488151 0.094243
-0.069572 0.337764 -0.368786
0.205592 0.297599 0.397681
0.161357 -0.242096 -0.437180
0.286322 -0.473658 0.149994
-0.057057 0.032424 -0.499161
-0.227262 -0.416683 0.270082
-0.000705 0.408530 -0.287595
-0.021202 0.390635 -0.311609
-0.238653 -0.488782 0.090580
0.169829 0.496952 -0.042870
0.274340 -0.492998 0.065618
-0.101113 -0.110157 0.483386
-0.031473 0.250341 0.428693
0.019342 0.494960 -0.061300
-0.047287 0.001792 0.495865
-0.034948 0.301460 0.394712
-0.236294 -0.122873 0.480325
0.005051 0.008833 0.495889
0.026889 -0.053619 -0.497164
-0.210628 -0.367303 0.333468
-0.179383 -0.263088 0.420461
-0.003715 0.202246 -0.457552
0.258082 -0.352146 -0.353758
0.211620 -0.456096 0.196528
-0.148246 0.415180 0.273496
0.020535 -0.269515 -0.420732
-0.129480 0.496295 -0.048951
-0.214500 0.441950 -0.232565
-0.096466 -0.122135 -0.484836
-0.252883 0.380795 -0.323950
-0.125611 -0.490277 -0.087423
-0.103225 -0.148044 -0.477450
0.233922 -0.263112 -0.424635
0.143876 0.347885 -0.358933
-0.121250 0.271876 -0.419689
0.054669 -0.338683 -0.366776
-0.084797 -0.239916 -0.438327
0.067567 0.021107 -0.499825
0.159084 -0.472785 0.152855
-0.111579 0.032942 -0.499119
0.141599 -0.493959 0.056733
0.140075 -0.328175 0.371910
-0.170375 -0.428300 0.251027
-0.072929 0.151269 -0.476904
-0.186433 -0.248420 -0.433593
-0.141483 0.489099 -0.099047
-0.126769 0.248739 0.429669
0.026476 0.126093 -0.484072
-0.144083 -0.049099 0.493373
0.169334 0.377514 -0.327680
-0.141372 -0.349693 -0.356277
0.101173 -0.035264 0.494494
0.131332 -0.161898 -0.473074
0.242535 -0.319380 -0.383959
0.144050 -0.462839 0.180342
-0.252560 -0.226942 0.440852
0.123782 -0.483441 0.115025
0.152412 -0.136308 0.476616
0.240255 0.463876 -0.184664
0.146624 -0.399310 -0.298992
-0.052100 0.495716 0.051712
-0.152097 -0.018908 -0.499744
-0.207133 0.471372 0.159792
-0.009749 0.355823 -0.351204
0.264491 0.497180 0.033649
0.020893 0.279351 -0.414755
-0.233471 0.459000 -0.196692
-0.061887 0.471524 0.159350
-0.011522 -0.040795 0.494046
0.049941 -0.119429 0.481276
0.178707 -0.490837 0.078643
-0.027188 0.398815 0.296653
-0.203498 -0.427963 -0.255949
0.133256 -0.434370 0.240660
0.145459 -0.416827 -0.273803
-0.248699 0.214314 0.447656
0.085017 0.189510 0.458744
-0.065032 -0.398017 -0.300705
0.063296 -0.230749 0.438976
0.118710 -0.308258 -0.392827
0.194421 -0.490407 0.081143
0.092570 0.380490 -0.324332
-0.038181 -0.451690 -0.211013
0.150560 0.496411 -0.047877
0.024661 -0.025107 0.495317
0.234588 0.221057 -0.448610
0.224308 -0.273002 -0.418520
-0.155737 0.267582 -0.422524
-0.118684 0.464935 0.177856
0.044976 0.053988 0.492882
0.163062 -0.040271 0.494089
0.204316 0.128193 0.479286
-0.172418 0.280546 -0.413965
0.257214 0.496076 0.047266
0.185967 0.480130 0.131657
-0.034762 -0.058172 -0.496672
0.277311 0.350669 -0.356222
0.251053 0.117218 -0.486475
0.100352 0.458730 -0.197295
-0.002136 -0.273213 0.413777
-0.178701 -0.297962 -0.401037
-0.011452 0.355961 0.346538
0.193619 -0.376113 -0.327906
-0.139748 -0.250366 -0.432406
-0.170926 0.138396 0.476353
-0.084374 -0.158192 -0.474354
0.010322 0.406501 -0.290496
-0.244098 0.309237 0.388510
-0.023365 0.477524 -0.145036
-0.200837 0.423388 -0.265117
-0.061311 -0.265194 -0.423366
0.286272 0.480626 -0.134869
0.025874 0.219366 -0.449443
-0.134623 -0.413457 -0.278907
-0.192358 0.164449 0.468148
-0.099506 0.321608 0.378646
0.156818 0.409466 0.282152
0.251596 -0.327933 0.372118
-0.035084 0.320532 -0.383701
-0.267973 -0.463897 -0.182240
-0.034068 -0.282019 -0.412214
0.284084 0.409352 0.282325
0.178315 0.476019 0.146319
0.109013 0.442718 -0.231106
0.135719 0.216197 0.446811
-0.077248 -0.200396 0.453542
-0.131854 -0.497557 0.000618
-0.140937 -0.430127 -0.252176
-0.251120 -0.260682 0.422042
-0.250416 -0.291965 0.400918
-0.049221 -0.159323 -0.474009
-0.128044 -0.469548 -0.166461
-0.287244 -0.431917 0.245092
-0.182579 0.471114 0.160539
0.188923 0.144976 -0.478860
0.116990 0.230529 -0.443943
0.064460 -0.446873 0.216914
0.224344 0.241347 -0.438071
-0.254720 0.328773 -0.376630
0.113340 0.460690 0.188036
-0.059762 -0.323996 -0.380079
-0.264457 0.395783 0.300672
-0.070021 0.378570 0.321883
-0.163446 -0.497397 -0.008262
-0.123155 0.491576 -0.084660
-0.167856 0.490101 -0.093227
-0.092296 -0.272289 -0.419018
-0.238818 -0.464682 0.175430
-0.127822 -0.248482 -0.433554
0.252796 0.430518 0.248927
-0.170672 0.345585 -0.361171
0.272719 0.269758 0.416855
0.076395 0.425698 0.257332
0.071571 0.245347 0.431654
-0.012177 -0.240702 -0.437914
-0.156054 0.494911 -0.061759
0.080972 0.207767 0.450594
0.094821 0.115479 0.482308
0.020942 0.350044 -0.356831
0.023369 -0.316780 0.381688
-0.228185 0.029427 0.494965
-0.021073 -0.235615 0.436417
-0.050969 -0.453062 0.203288
-0.026701 0.301789 -0.398633
-0.137102 -0.489568 0.086014
0.274885 -0.442251 -0.230168
0.262128 -0.494830 0.048667
0.177175 0.156618 0.470793
-0.116256 0.237699 -0.440163
0.194872 -0.414695 -0.277033
0.029306 -0.481712 0.122301
0.012007 -0.490105 -0.088607
-0.112218 -0.433739 -0.245875
-0.082694 -0.283637 0.406895
-0.054307 0.367455 -0.338786
-0.111643 0.021356 0.495327
0.265702 0.231782 -0.443325
0.009038 -0.496121 -0.038415
-0.225255 -0.229808 -0.443650
-0.248585 -0.166245 -0.471443
-0.246998 -0.334250 0.366697
-0.249397 -0.193400 -0.460935
-0.193556 0.496929 -0.043081
-0.153605 -0.457777 -0.196920
0.256445 -0.435118 0.239240
0.242367 -0.495344 0.043913
-0.221640 -0.194740 0.455900
0.268920 0.148440 -0.477880
0.272981 0.497372 -0.037376
-0.217668 0.180057 0.462291
-0.181235 0.440273 -0.235749
-0.112258 -0.483629 0.114233
-0.227717 0.386812 0.312278
-0.065286 -0.017397 -0.499812
-0.277050 -0.365546 -0.339993
0.124321 -0.046764 0.493563
-0.032972 -0.080076 -0.493566
-0.040094 0.225061 0.442335
0.057364 -0.411786 -0.281439
-0.155390 0.158692 -0.474343
-0.025312 0.477278 0.141987
-0.188970 -0.320969 0.378094
0.276235 0.460616 0.188215
-0.083703 -0.265740 0.418711
-0.195853 -0.489785 0.084754
0.267449 -0.080520 0.489222
0.152669 0.103612 0.485128
-0.104285 0.077715 0.489795
-0.030086 -0.497596 0.002796
0.239527 -0.099359 0.485648
-0.289837 -0.126792 -0.483729
0.007016 -0.327278 0.372680
-0.048680 -0.328404 -0.376087
-0.220687 0.047582 -0.497933
0.017502 -0.241939 0.432790
-0.175243 -0.389777 0.307046
-0.274322 0.189168 0.458872
-0.269495 0.497860 0.025256
0.166368 -0.495813 0.039574
0.271635 -0.432524 -0.247994
0.079418 -0.285731 -0.409617
0.175072 -0.471437 -0.160985
-0.277245 -0.466802 0.169780
0.240681 0.008091 0.495922
-0.183323 -0.431856 -0.249160
-0.142591 0.485127 0.113019
-0.278423 -0.291549 -0.405549
-0.095414 0.329354 -0.376131
0.240149 0.407878 0.284557
0.242482 -0.490583 -0.085307
0.265013 0.262245 0.421436
0.283791 0.498279 -0.017159
-0.193323 0.448577 0.215058
