-0.167632 0.478467 0.137681
-0.228862 -0.360952 -0.344713
0.011513 -0.033802 -0.499076
0.223872 0.467606 0.170709
-0.244014 0.466285 -0.178245
-0.280576 -0.468633 0.164901
-0.204423 -0.029282 -0.499279
0.048221 -0.398094 0.296616
-0.196799 0.453209 -0.209597
0.182972 -0.497357 -0.010474
0.051750 -0.308648 -0.392516
-0.097439 -0.427313 -0.257083
0.093389 -0.199426 -0.458231
0.229498 0.389440 0.309079
-0.099630 -0.136357 0.476603
0.193115 -0.489782 -0.090260
-0.198963 0.490274 -0.092223
-0.145993 0.495431 -0.056941
0.059622 0.476869 0.143470
0.109650 -0.002796 0.495783
-0.136538 -0.497062 0.017102
0.073644 -0.218437 0.445043
-0.114284 -0.061947 -0.496264
-0.099486 -0.405192 0.286549
0.093448 -0.252572 -0.431061
0.284694 0.339012 0.363054
0.052989 0.488285 -0.103307
0.256333 0.100972 -0.489878
0.192644 -0.487466 -0.101313
-0.254698 0.496129 0.046613
-0.022977 -0.290222 -0.406477
-0.070651 0.210818 -0.453656
0.067650 0.411777 0.278651
-0.269926 0.292729 -0.405468
0.012752 0.163936 -0.472534
0.144992 -0.339550 -0.365991
0.222118 0.296397 0.398522
-0.215948 -0.094524 0.486661
0.002515 -0.449020 -0.216433
-0.120007 0.228345 0.440606
-0.096522 0.446260 0.219760
0.168209 0.067673 0.491403
-0.134605 0.455960 0.199382
-0.239050 0.111522 -0.487668
-0.058758 -0.375480 -0.328644
0.180138 -0.300397 0.394557
0.092415 0.135186 -0.481562
-0.270543 -0.116857 0.481983
0.130007 0.464482 0.178943
-0.267684 -0.492635 -0.071123
0.211183 -0.238202 0.434933
0.123533 0.302287 -0.398258
-0.234068 -0.222442 -0.447528
-0.287104 0.056985 0.492558
-0.127604 0.251526 0.427970
0.007337 -0.413853 0.274166
0.253808 0.493256 -0.074900
0.129195 -0.402555 0.290320
-0.200641 0.121072 -0.485458
0.037349 0.054547 0.492821
-0.039517 -0.478674 -0.137573
0.073430 -0.001325 0.495809
0.200615 -0.296580 0.397437
0.085570 -0.239385 0.434255
-0.165284 0.486943 -0.108955
-0.279698 -0.447539 -0.219438
-0.127155 -0.315186 0.383056
-0.053921 -0.497174 -0.020611
0.067605 -0.349746 -0.356223
-0.040784 -0.233495 -0.441708
-0.240209 -0.367859 0.332854
-0.025521 -0.425083 -0.260971
0.167173 0.322122 -0.382337
0.068488 0.084715 0.488590
-0.232142 0.167779 0.466898
-0.146902 -0.168043 0.466411
-0.277599 -0.477516 -0.141768
0.007847 0.445191 0.221928
0.074655 0.161974 -0.473211
0.101919 -0.457084 -0.198581
-0.172559 -0.354787 -0.351046
0.267230 -0.497226 0.013432
0.277147 -0.337293 -0.368035
0.085238 0.378586 0.321865
0.076936 -0.412168 -0.280860
0.158644 -0.379025 -0.324512
0.108259 -0.352528 -0.353365
-0.013626 0.491693 0.080367
-0.138996 -0.489751 0.084952
0.285163 0.189488 -0.462870
0.219059 0.493999 -0.070193
0.070152 0.221325 0.444302
-0.105295 0.175130 -0.468673
-0.036905 0.462459 -0.188439
0.166748 -0.423368 -0.263896
-0.034744 0.468447 0.168273
0.075039 -0.041671 -0.498455
-0.119136 -0.361758 0.339591
-0.043750 0.326445 -0.378627
0.074165 -0.056077 -0.496899
-0.214070 -0.314162 -0.388119
0.223033 -0.190818 -0.462094
0.245380 0.198869 0.454587
-0.030336 -0.392951 0.303066
0.110224 0.492514 -0.079210
-0.061040 0.117735 -0.486367
0.025203 -0.496569 -0.032894
-0.093268 0.098904 0.486148
0.103562 -0.205057 -0.455704
0.177572 -0.247917 0.429362
-0.076617 0.429405 -0.255248
0.239257 -0.169310 -0.470292
-0.283679 0.492084 -0.081707
-0.217108 0.259333 -0.427757
-0.155274 -0.249584 -0.432883
-0.098907 0.210320 0.449449
0.097309 0.055764 -0.497270
-0.058411 0.029652 0.494955
-0.057648 -0.338324 0.362890
-0.132981 0.452780 -0.210553
-0.004883 -0.284970 -0.410150
0.279385 0.491982 0.078365
0.092061 -0.119741 -0.485405
-0.099716 0.477375 -0.145523
-0.206153 0.253799 0.426585
-0.270370 -0.255865 0.424804
-0.184314 0.454205 -0.207379
0.120212 0.421269 -0.268593
-0.138640 -0.487156 0.099391
0.215025 0.082661 0.488944
0.237472 -0.463392 -0.183452
-0.087385 0.310414 0.387571
0.088141 -0.102436 0.485004
0.150751 -0.408318 0.282080
0.257713 -0.434709 0.240017
0.005060 -0.371171 -0.333666
-0.267262 -0.128558 0.478756
0.019969 -0.321452 0.377679
0.015608 0.431543 0.247140
0.284636 -0.405451 -0.290853
-0.228355 -0.336415 -0.368831
0.048295 0.454355 -0.207044
0.242855 0.378160 0.322361
0.207609 0.245876 -0.435474
0.235961 0.421316 -0.268516
-0.018074 -0.098211 -0.490444
0.124426 -0.307278 -0.393609
-0.075110 -0.121329 0.480751
0.214120 0.475889 -0.150396
0.270596 -0.463798 -0.182478
0.221325 -0.276510 0.411600
-0.112781 0.433962 -0.247735
0.032274 -0.459893 -0.191843
0.148733 -0.487595 0.097476
-0.102121 -0.088822 -0.492060
-0.061749 0.495931 -0.052317
-0.046417 0.068239 0.491341
0.183653 0.233961 -0.442251
0.194919 -0.286595 -0.409014
0.250541 0.266496 -0.423241
-0.064432 0.493410 -0.074005
0.275586 0.086986 0.488199
-0.127042 0.238957 -0.439442
0.110843 0.337658 -0.368889
-0.067685 0.276432 0.412484
-0.219846 -0.497389 -0.008687
0.027476 0.379977 0.320243
0.225762 0.146742 0.473807
0.285113 -0.306407 0.390023
-0.157598 0.176436 -0.468222
0.112245 0.409917 0.281468
-0.144211 -0.005043 0.495742
-0.177121 0.007897 -0.500063
-0.173059 -0.406246 0.285043
-0.211892 0.497665 -0.030839
-0.054893 0.455765 0.199850
0.188535 -0.414130 0.273770
-0.050487 0.418918 0.267834
0.108485 -0.152621 -0.476054
-0.082679 0.419599 0.266803
-0.155496 -0.273047 -0.418489
-0.121133 -0.164364 0.467680
0.189339 -0.293067 0.400087
0.234033 0.496473 -0.047305
-0.259537 -0.400489 0.293275
-0.256207 -0.495208 0.045169
-0.003157 0.042901 -0.498312
0.218960 -0.497199 -0.019232
0.068358 -0.289274 -0.407140
-0.156398 0.496295 0.044561
0.049904 -0.037314 0.494328
0.168175 -0.493757 0.058599
0.185650 -0.484696 -0.114537
0.228852 0.060762 -0.496582
0.219467 -0.035643 0.494464
0.153259 -0.370158 -0.334846
-0.103260 0.171514 0.465497
-0.127558 0.430251 0.249392
-0.019527 0.437789 -0.240467
0.273370 0.175122 0.464143
0.227451 -0.142912 -0.479016
0.225527 0.290137 -0.407424
-0.213885 -0.289308 0.402922
0.132486 -0.396290 0.298878
0.149780 0.342409 0.359976
-0.273318 0.104614 -0.489115
0.093076 0.141750 0.475330
-0.159198 0.220622 -0.448824
0.229334 0.380508 -0.324309
-0.115670 0.161512 0.469250
0.188485 0.057685 0.492482
0.015012 0.496762 -0.044625
-0.002296 -0.479788 -0.133535
-0.237193 0.367604 -0.338621
-0.000840 -0.491285 -0.080458
0.050397 0.494026 0.064238
0.124500 0.410743 0.280218
0.160668 -0.223664 -0.446885
-0.090731 -0.045782 -0.498011
0.234618 0.229396 0.440053
0.010513 -0.485036 -0.112914
-0.021490 -0.494654 -0.056525
0.007952 -0.408394 -0.286577
-0.223524 -0.116484 0.482061
-0.268153 -0.006282 0.495720
0.249386 -0.284453 -0.410511
0.253154 0.302191 0.394128
-0.039340 -0.494788 -0.054871
0.132937 0.083180 0.488855
0.127045 -0.472792 0.152834
-0.193459 0.272217 -0.419464
0.199926 -0.484220 -0.116811
-0.229381 0.115819 -0.486768
-0.143946 0.416357 0.271714
0.105178 -0.411914 0.276938
0.199244 -0.448100 -0.218299
-0.187013 0.344390 0.358182
-0.143791 0.154252 -0.475875
0.247828 0.393136 -0.308473
-0.265640 -0.380738 0.318383
0.136487 -0.496657 -0.031799
-0.112297 -0.496704 0.025069
-0.246199 0.059820 0.492251
-0.070659 0.495054 -0.060436
0.045667 -0.427265 -0.257166
-0.107307 -0.413566 -0.278742
-0.009924 0.474233 0.151497
-0.037397 0.169122 -0.470746
0.100826 -0.207041 0.450658
0.053890 -0.493533 0.060676
0.093818 0.348734 -0.358106
0.273505 0.435088 -0.245598
-0.105607 0.088499 -0.492491
0.246348 -0.462322 0.181721
0.247592 0.497781 0.026228
0.222501 -0.399786 -0.298361
0.109505 -0.485565 0.106088
-0.244927 0.484679 0.115157
-0.190011 0.150804 0.472567
-0.156035 -0.314941 -0.387498
-0.252016 -0.337205 0.363979
0.116277 -0.282393 -0.411952
0.173223 0.116955 -0.486530
-0.214908 -0.494113 0.055304
0.031966 0.132786 0.478065
0.114580 0.390358 -0.311956
-0.165735 0.331479 0.369877
0.001644 -0.471083 0.158372
0.110041 -0.472222 0.154701
0.198239 -0.391108 -0.309864
0.196091 -0.268667 -0.421249
-0.165706 -0.047631 0.493492
-0.252486 0.382334 -0.322020
0.134962 0.298702 -0.400962
0.071349 0.199635 0.454244
-0.285333 0.360302 -0.346683
0.181417 -0.487803 -0.099705
0.219885 0.125977 0.479813
-0.256191 0.046692 0.493670
0.052079 -0.490982 0.077799
-0.097370 -0.487465 0.098093
0.089576 -0.482340 0.119659
-0.146300 0.276548 -0.416605
-0.023560 -0.147052 -0.477753
0.178078 0.021035 -0.499826
-0.149046 -0.327680 0.372335
0.220692 0.167479 -0.471312
-0.246372 -0.198771 0.454220
0.041201 -0.185556 0.459729
0.136000 0.480033 0.132009
-0.099715 0.047102 -0.497972
0.221732 0.443246 -0.230103
-0.240026 0.259615 0.423039
0.174826 0.159168 0.470015
0.104578 0.357744 0.344707
-0.171975 0.365550 0.336689
-0.183919 0.088906 -0.492406
0.016904 0.453023 -0.210012
-0.252217 0.401562 0.293011
-0.080911 0.498441 0.002843
0.228297 0.472452 0.156661
-0.014224 0.035061 0.494712
-0.278855 0.483452 -0.123642
0.101433 -0.072872 0.490329
-0.183885 -0.047636 0.493492
0.209493 0.497554 -0.033333
-0.217254 -0.022804 -0.499570
0.186024 -0.207372 0.450495
0.020313 -0.115770 0.482210
-0.066732 -0.256717 0.424316
-0.218845 -0.467861 -0.171354
0.159721 0.255546 -0.429929
0.066590 0.097871 0.486326
0.240597 0.130866 0.478651
-0.274245 0.466003 0.175292
-0.288363 0.088312 -0.492531
-0.187765 0.186987 -0.463913
-0.097499 0.395878 0.300545
-0.240096 -0.460009 0.187807
0.141223 -0.391552 0.304820
0.152725 -0.393321 -0.306931
-0.165738 0.233036 0.438136
0.220077 0.011786 -0.499993
0.014162 0.307905 0.389573
-0.140015 -0.293629 -0.404094
-0.168563 -0.361071 0.340349
0.013276 -0.473164 -0.155980
-0.063410 0.481621 0.126256
0.061143 -0.137952 -0.480529
0.243437 -0.009059 0.495670
-0.001407 -0.395522 -0.304014
-0.252984 0.408694 0.283321
0.024194 -0.073062 -0.494773
0.078596 -0.048370 0.493433
-0.083663 0.289506 0.403341
-0.254738 -0.065209 0.491437
0.047095 -0.286118 0.405257
0.002261 0.112844 -0.487391
-0.140791 0.470069 -0.168161
0.040768 -0.155718 0.470662
0.236072 0.467831 0.170057
0.006018 0.472675 0.156015
-0.168610 -0.075256 0.489984
-0.030215 -0.053584 0.493010
-0.094370 -0.342687 -0.363150
-0.191305 0.029165 -0.499425
0.011301 0.371592 0.330016
-0.086566 -0.418850 0.266527
0.277109 -0.372643 -0.331950
0.112814 -0.361690 0.339666
0.056443 0.012563 0.495722
0.110766 0.206148 -0.455925
0.256108 -0.438561 -0.237467
-0.183406 -0.446902 0.216860
0.271265 0.162956 0.468708
0.118169 0.135071 0.477368
0.212726 0.333966 -0.372174
0.040647 -0.297357 0.396851
-0.203540 0.394259 -0.307064
-0.054717 -0.472694 0.153154
-0.234662 0.089398 -0.492303
-0.203661 -0.411197 0.277963
-0.043962 -0.275014 0.412588
0.036866 -0.399520 0.294660
-0.070519 -0.379052 -0.324481
0.075632 0.439965 -0.236334
0.004536 -0.489352 0.087271
0.201069 0.094400 -0.491255
0.256527 0.144938 -0.478870
-0.020698 -0.493161 -0.067488
-0.093593 -0.497317 -0.012704
0.055862 0.497499 -0.034558
-0.025763 -0.396079 -0.303274
-0.212342 -0.496594 0.027517
0.048116 0.480719 0.129524
0.062953 0.133633 0.477806
-0.140934 0.360737 0.341633
0.231297 -0.183978 -0.464789
-0.051581 -0.159771 0.469264
0.269730 0.139317 -0.480422
0.174388 -0.379247 0.320252
-0.122120 -0.479105 -0.136010
-0.166622 -0.271337 -0.419621
-0.093651 -0.402521 -0.294736
-0.182520 0.346606 -0.360178
0.066084 0.392265 0.305335
-0.174280 0.497559 -0.033216
0.107699 0.474444 0.150886
0.042312 0.478813 -0.140811
-0.069927 -0.411738 -0.281511
0.200350 0.477054 -0.146575
0.194986 -0.426635 -0.258265
-0.181159 0.078289 -0.494047
0.080979 -0.320104 -0.383382
0.103049 0.296640 -0.402518
0.205128 0.498128 0.020199
-0.242100 -0.073478 0.490241
-0.262885 -0.301955 -0.397853
0.027837 0.064832 -0.495993
0.115403 -0.187644 -0.463413
-0.208501 0.498192 -0.019105
0.282042 -0.496467 0.030352
-0.079601 0.279408 0.410403
-0.222022 0.268613 -0.421844
0.137436 0.471107 0.160559
-0.258909 -0.295778 0.398042
0.249323 0.188545 -0.463264
0.201735 -0.417463 0.268801
0.128443 -0.463015 -0.184356
0.130911 -0.467237 -0.173160
0.250750 0.246777 -0.434957
0.122829 0.168594 -0.470928
0.188783 -0.294269 -0.403647
0.080508 -0.197274 -0.459196
0.123485 0.405299 -0.292215
-0.094009 0.071197 -0.495073
-0.216155 0.076343 0.490032
-0.219124 -0.314852 0.383342
0.246389 -0.403717 -0.293150
-0.094089 0.169504 -0.470614
-0.118939 0.433864 0.243091
0.027891 0.471220 0.160233
-0.089730 -0.464789 -0.180101
-0.073575 0.070005 0.491123
-0.047010 0.174321 0.464443
-0.005504 -0.029428 0.494967
-0.015212 -0.013834 -0.499972
-0.174861 -0.261669 0.421398
-0.110959 0.458729 -0.197296
0.094813 -0.385545 -0.316913
0.181139 0.405701 0.287525
0.114674 -0.403215 -0.293816
-0.088704 -0.012583 0.495606
-0.090716 0.373087 -0.332567
-0.288685 -0.051307 0.493195
0.183476 0.496624 0.040503
-0.089038 -0.052108 0.493130
-0.194051 -0.396347 -0.302920
0.181997 0.067590 0.491412
-0.047101 0.203343 -0.457094
0.199392 -0.219946 0.444299
0.000678 0.451002 0.210137
-0.155535 -0.495126 -0.050697
0.123427 -0.114462 -0.486659
-0.193463 0.434585 0.241834
0.182608 0.404021 -0.294043
0.016299 0.468150 0.169133
0.285560 0.300454 0.395513
-0.202202 -0.460936 -0.189343
0.249849 0.368450 -0.337686
0.170562 -0.371832 -0.332895
0.095541 0.405606 -0.291777
-0.204992 -0.042967 0.493870
-0.071799 0.361482 0.340868
0.052645 0.463543 0.181193
-0.186154 0.456267 0.198646
-0.241947 0.217886 0.446054
-0.187673 -0.063200 0.491728
-0.288333 -0.249458 0.428479
0.103113 -0.461847 0.182986
-0.206893 -0.198727 -0.458545
0.226316 0.483428 -0.123742
-0.102942 -0.465403 0.173510
-0.281423 0.441782 -0.232883
-0.209281 0.247851 -0.434341
-0.197552 0.064219 -0.496082
0.200209 0.411430 0.279177
-0.013513 -0.436282 -0.241442
0.122091 0.493149 -0.075522
0.128202 -0.495817 -0.042174
0.276592 -0.441241 -0.232219
-0.046048 0.370207 -0.335746
-0.162032 0.203612 0.452459
-0.123505 0.438543 -0.239036
0.117725 0.339905 0.362244
0.241205 0.497469 -0.035223
-0.242291 0.310013 0.387891
0.090956 -0.493953 0.056784
0.007055 0.341440 0.360854
0.196005 -0.023117 0.495417
-0.233536 -0.005412 -0.500302
0.069012 -0.308839 -0.392364
0.251838 0.103221 0.485221
-0.020139 -0.192236 -0.461458
0.019838 0.471509 -0.164321
0.052680 -0.224499 0.442055
-0.039910 -0.121850 0.480607
-0.180277 -0.195809 -0.459854
0.131224 0.189113 0.458893
-0.113089 -0.416525 0.270341
-0.199601 -0.496751 0.024031
0.135318 -0.154482 -0.475486
0.199012 -0.058787 -0.496606
-0.236346 -0.302371 0.393068
0.187597 -0.021176 -0.499643
-0.187633 0.076462 0.490011
-0.288014 -0.351965 0.349610
0.070563 -0.177486 -0.467225
0.048736 0.104610 -0.489116
-0.186874 -0.029706 0.494945
-0.022278 -0.468131 -0.170571
-0.048541 -0.079761 -0.493620
-0.183061 0.227565 0.441017
-0.145076 -0.132781 -0.482107
0.075337 0.288321 -0.408794
0.256807 0.216874 -0.450671
0.212462 -0.040130 -0.498622
-0.247618 0.136384 -0.481231
0.048404 0.487780 0.100355
-0.205469 0.176081 -0.468345
-0.176043 -0.373131 0.327034
0.040368 0.415443 0.273098
0.176987 -0.127911 0.478934
0.095727 -0.495842 0.039308
0.240614 -0.419395 0.265633
0.015257 0.169871 0.466113
-0.083933 -0.164724 -0.472014
-0.266405 -0.076263 0.489838
-0.274975 0.189572 0.458721
0.201525 0.404976 0.288487
0.166673 -0.471905 0.155740
-0.008495 0.485582 0.110847
0.026860 0.487034 -0.108569
-0.222492 -0.230748 -0.443155
0.168223 0.210986 -0.453573
0.033533 0.497731 -0.029386
0.261760 0.313872 -0.389416
0.085784 -0.422119 -0.265787
0.217883 -0.441012 0.228047
0.105229 0.212839 0.448318
-0.028581 0.487337 0.102468
-0.159080 0.161887 -0.473241
0.286075 -0.160246 0.469100
-0.224661 0.318252 -0.385658
0.269704 0.115114 -0.486916
-0.267406 0.370596 0.331177
-0.097902 -0.496951 -0.028171
0.112785 0.498148 0.019071
-0.130248 0.018392 -0.499873
-0.057154 0.443647 -0.229342
0.283602 0.397321 -0.303224
0.124153 0.291804 -0.406166
-0.227545 -0.481505 0.123170
-0.142299 0.426719 -0.259653
-0.107616 0.487574 0.101341
-0.090332 -0.492139 0.071081
0.036986 0.453902 -0.208054
0.273859 0.208209 0.450396
0.094057 -0.466000 0.171919
-0.002146 0.498555 -0.011016
-0.041245 0.341725 -0.364930
-0.026094 0.019518 0.495410
0.165006 -0.364859 -0.340699
0.149275 -0.175419 -0.468000
-0.269814 -0.425611 0.255436
0.254805 0.498365 -0.015244
0.017807 -0.323282 -0.380726
-0.213369 0.296352 -0.402735
0.220586 0.497732 -0.029346
-0.140966 -0.496899 -0.028822
-0.144879 -0.203884 0.452088
0.103956 -0.378986 -0.324558
0.013936 -0.077432 -0.494021
-0.137987 0.312364 0.386017
0.047498 -0.007139 0.495704
0.254923 0.464180 -0.183853
0.011710 0.467214 -0.175770
-0.254445 0.211864 0.448756
0.106808 0.142323 -0.479592
0.261469 0.095632 0.486711
-0.160793 -0.403478 -0.293468
-0.225696 -0.398874 -0.299570
0.083316 -0.399862 -0.298260
-0.112021 -0.117238 0.481881
-0.161206 0.089922 -0.492193
-0.233167 0.211701 0.448829
-0.239883 0.463011 0.182470
0.137798 -0.235835 -0.440476
-0.208504 0.214232 -0.451973
0.158773 -0.058294 -0.496659
0.218856 0.373893 -0.331677
0.153754 -0.432044 -0.248832
0.282589 0.326486 -0.378593
-0.258624 0.334057 0.367541
-0.224211 -0.496282 0.034492
-0.192717 -0.438373 0.233058
0.041925 -0.239882 0.433970
0.217041 0.056877 0.492569
-0.048146 0.466874 0.172831
-0.177209 -0.428974 -0.254185
-0.070143 -0.079263 0.489404
-0.152529 0.498350 0.007884
0.157891 0.201344 0.453477
0.280716 0.264507 -0.424554
0.030063 -0.482465 0.119130
-0.235842 -0.180346 0.461901
-0.101801 0.287197 -0.409575
0.162544 -0.031840 -0.499164
0.198137 0.496371 0.043623
0.188093 -0.143350 -0.478882
0.081185 0.445277 -0.226245
0.210275 0.410189 0.281057
0.254439 -0.209912 -0.453526
-0.069336 -0.058948 0.492343
0.190005 0.459468 0.190967
0.018486 -0.345685 -0.360395
-0.268582 -0.314865 0.383331
0.239799 -0.275645 0.412171
-0.239510 -0.159926 -0.473814
0.087367 -0.497105 -0.024444
-0.048459 0.484644 0.115302
0.250415 -0.497131 0.015559
0.188380 0.338807 0.363239
-0.058214 0.268325 0.417729
-0.014121 -0.152491 0.471775
0.060849 -0.474413 -0.152359
-0.201528 -0.438082 -0.238302
0.262707 0.486264 0.107590
0.236577 -0.333375 0.367448
-0.174523 0.483427 0.119713
0.074403 -0.103398 0.484802
-0.188808 0.016030 -0.499916
-0.095583 -0.454258 0.200622
-0.154436 -0.282815 0.407437
0.084669 -0.493149 -0.067572
-0.232299 -0.485259 0.107375
-0.237798 0.444199 -0.228292
0.238745 -0.263343 0.420293
0.245427 0.378130 -0.326999
-0.257478 0.425059 0.258447
-0.012526 -0.369845 -0.335211
0.265499 -0.490604 -0.085159
0.120152 0.328354 0.372707
-0.213149 0.496602 -0.046110
-0.288822 -0.444926 -0.224740
0.220270 0.498467 0.001392
-0.209453 0.167927 0.466843
-0.265612 0.427184 -0.258891
-0.248789 -0.133479 -0.481894
-0.060573 0.362202 0.340128
-0.073257 0.158906 0.470095
0.261449 0.497863 0.025217
-0.190138 0.283415 0.407601
0.064046 -0.434374 0.240654
0.243207 -0.200881 0.453340
-0.179240 -0.365195 0.335796
0.211447 -0.408734 0.281486
-0.163093 -0.477817 -0.140677
-0.231811 -0.123235 0.480225
-0.131324 0.400760 -0.298705
-0.038314 0.113503 0.482777
0.200043 -0.423416 0.259038
0.057916 0.360538 -0.346423
-0.032013 -0.471787 -0.159973
-0.104143 -0.448708 -0.217065
0.179025 0.000416 -0.500197
-0.100572 0.498464 0.001550
0.286669 -0.134431 -0.481604
-0.080536 -0.490298 0.081774
-0.099725 -0.264919 -0.423534
0.071444 0.453894 -0.208071
0.037143 -0.285686 -0.409649
-0.092070 -0.495552 0.041986
0.075261 -0.244641 0.431241
-0.286385 -0.024907 -0.499475
-0.216521 -0.463916 -0.182194
0.192093 -0.070785 -0.495165
-0.290277 -0.463577 -0.183009
-0.269437 -0.366308 0.334567
0.055555 0.211700 -0.453221
0.127000 -0.121093 0.480816
-0.044718 0.490211 -0.092586
0.060416 -0.400473 0.293297
-0.212713 0.455085 0.201480
0.184577 0.383851 0.315729
-0.070721 0.471575 0.159205
-0.083082 0.498031 -0.022683
0.022600 0.492486 0.074884
0.266082 0.462321 -0.188808
-0.270464 0.488918 -0.100095
0.266740 -0.302857 -0.397133
-0.240815 -0.447015 0.216645
-0.209957 -0.060873 0.492064
-0.105152 0.343095 -0.363596
-0.180685 0.032457 0.494829
-0.026066 -0.458045 -0.196275
-0.288279 -0.184963 0.459976
-0.051838 0.459046 -0.196591
0.130957 0.251590 0.427931
-0.064753 0.498337 0.008618
-0.213696 0.096694 -0.490775
0.104135 -0.468915 0.164152
0.020897 -0.410293 0.279256
-0.053982 0.157636 -0.474707
0.139426 -0.282992 -0.411533
0.213190 0.148358 0.473314
-0.256915 -0.419366 0.265681
0.007811 0.038182 0.494572
-0.184426 0.301215 0.394907
-0.049553 0.462614 0.183421
-0.187559 -0.077029 0.489727
-0.226727 -0.357988 0.343745
-0.244533 -0.344162 0.357206
0.145731 -0.398515 0.296088
0.168616 0.167952 0.466833
-0.067623 0.316862 0.382430
-0.289970 -0.469658 -0.166142
0.135158 0.098966 -0.490299
0.072770 0.486637 0.105811
0.000239 -0.304671 0.391333
0.167403 0.497941 -0.024702
-0.276285 -0.497109 -0.024221
-0.154728 0.427187 -0.258886
0.129634 -0.416164 -0.274808
-0.213217 -0.395050 0.300434
-0.196711 0.491784 0.079735
0.093485 -0.442615 0.225002
0.083188 0.295793 -0.403157
-0.270222 0.490833 0.085781
-0.219530 0.068820 -0.495417
-0.016071 -0.392582 -0.307909
-0.038970 0.459448 0.191016
0.166074 0.424708 -0.262953
-0.270706 -0.407277 -0.288268
0.053955 0.208733 0.450161
0.047558 -0.295421 -0.402840
0.234378 0.406479 0.286494
0.165155 0.473652 -0.157728
-0.076860 -0.497615 0.003862
0.076645 0.038937 0.494508
0.280713 0.154882 0.471323
-0.253889 0.096401 -0.490836
0.157942 -0.447863 -0.218780
0.123219 0.074127 -0.494649
-0.072479 0.117493 0.481829
0.046105 0.178337 -0.467519
-0.111606 -0.269122 -0.420972
-0.270810 -0.490591 -0.085253
0.217888 0.041991 0.494178
-0.176233 -0.466771 0.169864
-0.290095 0.417998 0.269228
-0.044123 -0.493773 0.058451
-0.041133 -0.306111 -0.394539
-0.208264 -0.154290 -0.475544
-0.202498 -0.033074 0.494672
0.155989 -0.420377 -0.268425
-0.009070 -0.223303 -0.447075
0.271524 -0.318508 0.380205
-0.143548 0.347150 -0.359648
-0.154198 0.294526 -0.404113
0.046386 -0.477574 0.137159
0.147442 -0.272109 -0.419144
0.201872 -0.135029 0.476969
-0.073724 -0.452736 0.204015
0.199182 0.151693 -0.476758
0.004630 0.432208 0.245979
0.131043 -0.419477 0.265499
-0.023257 -0.490499 0.080607
0.199804 -0.494076 0.055645
0.226125 -0.462900 -0.184630
0.241881 0.101745 -0.489716
-0.215162 -0.034894 0.494524
-0.156574 -0.375544 0.324369
-0.040968 0.446972 -0.223026
0.267674 0.468588 0.167862
-0.012940 -0.173578 -0.468691
-0.066676 0.186888 0.459728
-0.122961 -0.316990 -0.385864
0.178111 0.132225 -0.482379
0.153249 0.276091 -0.416907
-0.230092 0.070828 0.490981
0.226935 -0.010584 0.495642
-0.169453 0.300792 0.395244
-0.102379 0.222945 -0.447680
-0.103720 -0.353961 -0.351894
0.286054 0.185537 0.460235
-0.193131 0.199967 -0.458502
0.270229 -0.382323 -0.320668
-0.022009 0.385921 0.313317
-0.208355 0.305183 -0.396073
0.173270 0.104540 0.484907
0.279898 0.412495 -0.281926
0.022118 -0.053717 0.492999
-0.239996 -0.136772 0.476488
0.279468 0.274686 -0.417834
-0.091399 0.337441 0.364476
-0.216196 -0.371670 0.328647
0.086337 -0.253947 0.425904
-0.015554 -0.422129 -0.265771
-0.040817 -0.464724 -0.180256
-0.182568 -0.051470 -0.497396
-0.052498 0.412735 0.277200
0.195514 0.488395 -0.102841
0.067228 0.317514 0.381910
0.096291 0.491330 -0.086086
-0.221156 -0.496958 -0.028083
-0.088290 0.178328 -0.467523
0.072211 -0.126708 0.479266
0.266747 0.254868 -0.430317
-0.204935 -0.226377 -0.445456
0.030074 -0.169406 -0.470257
-0.149558 -0.383494 0.314926
-0.022808 0.319817 -0.384314
-0.176629 0.495616 0.052951
-0.011260 -0.473522 -0.154941
-0.285354 0.365465 0.336776
0.231642 -0.355533 0.346136
0.270847 -0.198710 0.454245
0.188587 0.059923 -0.496704
-0.077756 -0.135725 -0.481209
0.096929 -0.029546 -0.499267
-0.065008 0.425770 -0.261210
0.153108 0.337196 -0.369339
0.087514 0.412731 0.277206
0.084119 -0.494924 0.047803
-0.017468 -0.025471 0.495288
-0.208351 -0.258845 0.423096
0.159907 0.085996 0.488370
-0.214336 0.498509 -0.000938
-0.151250 0.494014 -0.070054
-0.089223 0.053566 0.492927
0.056126 -0.277195 0.411148
0.183440 -0.396066 0.299160
0.268440 0.494262 -0.067766
0.181528 0.032955 0.494807
0.240436 -0.186846 0.459191
0.084008 -0.049812 -0.497576
0.057509 0.279619 0.410256
-0.142465 0.480141 0.131617
-0.090353 0.473983 0.152222
0.213326 0.241869 0.433485
-0.190707 -0.362670 0.338584
-0.046012 -0.166370 -0.471396
0.207934 0.217902 -0.450165
-0.273641 -0.277452 0.410979
0.024152 0.351919 0.350690
0.191164 0.481137 -0.133194
0.078739 -0.122148 -0.484833
-0.122698 0.027837 -0.499533
0.009767 -0.458649 -0.194828
-0.142288 -0.415229 -0.276223
-0.235656 0.302359 0.393995
0.144085 -0.071352 -0.495068
-0.207871 0.491290 -0.086318
0.125858 0.090644 0.487570
0.053478 0.004501 -0.500124
-0.227798 0.477251 0.142087
-0.164392 -0.496205 -0.037382
-0.008545 0.406509 -0.290485
-0.142627 -0.348499 0.352983
0.204681 0.489342 0.092899
0.009797 -0.330181 -0.374477
0.167784 0.488679 0.096063
0.035485 -0.087359 -0.492312
0.054201 -0.415405 0.271946
-0.000094 -0.484113 0.112198
0.025884 0.314435 0.384365
-0.095577 -0.461764 0.183207
0.091825 -0.043553 0.493823
-0.194930 -0.405902 -0.290254
-0.052649 0.130553 0.478725
0.142026 0.412684 0.277277
0.240449 0.255583 -0.429907
0.014509 0.387570 0.311395
-0.290137 -0.485955 -0.108528
-0.254204 -0.463692 -0.182733
0.024273 0.205637 0.451550
0.026629 -0.142300 -0.479203
-0.247765 -0.263275 -0.424536
-0.178167 -0.125331 0.479646
0.114489 0.245588 -0.435639
-0.178162 -0.201037 0.453275
0.095580 0.472620 -0.161108
-0.163928 -0.072321 -0.494901
-0.272671 0.363574 0.338719
-0.238617 0.272065 0.415449
0.158763 -0.318480 0.380229
-0.167978 -0.256603 -0.428604
-0.020800 -0.495522 0.042263
-0.030232 0.330438 -0.375201
0.073488 0.498293 0.011061
0.259344 -0.048330 0.493436
0.181098 -0.034397 0.494565
0.067942 -0.474857 0.146065
0.027134 0.396914 0.299173
0.120765 -0.001482 0.495806
0.161353 -0.175498 -0.467971
0.034911 -0.489369 -0.092233
0.118988 0.191519 0.457886
-0.214793 -0.261003 -0.425921
0.200077 0.444052 -0.228573
0.193010 -0.478327 -0.138828
0.282091 -0.363785 -0.341802
-0.191006 -0.018508 -0.499762
-0.143212 0.178878 0.462734
-0.031608 -0.454551 0.199969
-0.135484 -0.374759 -0.329484
0.103891 0.494195 0.063072
-0.179533 -0.167911 -0.470818
-0.142325 -0.178045 0.462860
-0.009590 -0.001997 0.495797
0.042304 0.325709 -0.379259
0.148510 0.083307 0.488833
0.185477 0.497553 0.029033
0.147468 0.398921 -0.301218
0.108649 -0.276435 0.411649
0.002729 -0.021344 -0.499635
-0.276561 -0.198260 -0.458754
-0.235314 -0.411458 0.277590
-0.228513 -0.046479 -0.497936
-0.000550 -0.487575 0.097590
-0.010473 -0.473560 0.150315
-0.260156 0.488314 0.097806
0.198311 -0.358029 -0.347716
-0.173967 0.498229 0.014588
-0.112782 -0.025140 0.495315
-0.039688 -0.049074 -0.497655
-0.033855 -0.196165 -0.459694
0.271444 -0.282128 -0.412137
-0.221773 0.497272 -0.039613
0.236173 0.495608 0.053051
-0.155662 -0.436828 -0.240490
-0.264456 0.239421 0.434774
-0.071006 -0.197800 -0.458961
-0.040304 0.498383 0.006036
-0.080997 0.037459 -0.498753
0.275864 0.042261 0.494149
0.137852 -0.492870 0.066803
0.076629 0.234234 0.437506
-0.249990 -0.003301 0.495774
0.131598 0.490939 -0.088357
0.118967 -0.227403 0.440625
-0.167978 0.491536 -0.084892
0.260924 0.474942 0.149443
0.143304 0.294827 0.399620
0.098966 -0.295232 0.398454
-0.288284 0.278336 0.411153
0.183642 -0.335916 0.365234
-0.057443 -0.403994 0.288263
0.107332 0.142811 0.475006
0.145141 0.485799 -0.113767
0.197722 -0.327985 0.372074
-0.193521 -0.430555 0.247327
0.078724 -0.022883 -0.499566
0.229848 -0.315968 0.382385
0.240889 -0.486792 -0.104535
0.114946 0.488718 -0.101260
0.137877 -0.497463 0.008162
0.103486 0.275572 -0.417249
-0.040666 0.241862 0.433489
-0.105156 -0.433479 -0.246329
-0.112269 -0.490629 -0.084986
-0.262280 0.359921 0.342470
0.030836 0.494956 0.057812
0.206511 -0.423986 -0.262883
0.183928 0.135202 0.477328
-0.061605 -0.161776 0.468573
-0.062357 0.398214 -0.302104
-0.100020 0.309605 0.388217
0.127057 -0.284364 0.406415
0.230686 -0.002882 -0.500257
-0.229643 -0.434381 0.240639
0.057029 -0.421929 0.261477
0.200194 0.192449 0.457469
-0.041179 -0.331060 0.369435
-0.162899 -0.325346 0.374338
0.129641 0.337808 0.364144
0.049006 -0.143402 -0.478867
0.286142 -0.258182 -0.427641
-0.002912 0.177980 -0.467669
0.088938 0.474833 0.149758
-0.213458 -0.378048 -0.325651
0.161260 -0.264161 0.419753
0.181468 0.493959 0.064700
-0.101619 0.497670 0.027596
0.033212 0.084893 0.488560
-0.253819 0.453962 0.204129
-0.076527 0.435681 -0.244471
0.199782 -0.054514 0.492935
-0.005791 0.251856 -0.432044
0.029545 -0.442151 -0.230371
-0.200114 0.481297 -0.132671
0.048799 -0.485427 -0.111048
-0.080995 -0.489510 -0.091559
0.062279 0.369083 -0.336988
0.151561 -0.030528 -0.499223
0.018804 0.342729 -0.363952
-0.059616 -0.165413 -0.471755
0.083064 -0.033934 -0.499071
-0.032437 0.129516 -0.483127
-0.109107 0.010583 0.495810
-0.220242 -0.025773 0.495263
0.076983 0.388141 0.310729
-0.009524 0.336240 -0.370222
0.059825 -0.393961 0.301799
0.249455 0.235903 0.436627
-0.219253 -0.155075 -0.475305
0.273521 0.325461 0.375327
-0.061206 -0.476731 -0.144611
0.172129 -0.105588 -0.488768
0.182302 -0.102160 -0.489583
0.266651 0.224743 0.442502
-0.036167 0.117836 -0.486346
-0.027917 0.271946 0.415521
0.209145 0.319717 0.380154
-0.284355 -0.416777 0.269928
0.018848 0.299500 0.396274
-0.202031 -0.312712 -0.389276
-0.141918 0.257261 -0.428945
0.074370 -0.262573 0.420801
-0.062358 -0.115377 0.482293
0.269125 0.021974 0.495299
0.005516 -0.323969 0.375520
-0.177905 0.153209 -0.476235
-0.002068 -0.471736 -0.160119
-0.247524 0.487968 -0.104640
0.202195 -0.330490 -0.374197
-0.269617 -0.448628 -0.217226
-0.130271 -0.446748 -0.221043
-0.191944 -0.441089 -0.232528
0.153172 0.360408 0.341970
0.087842 0.467454 -0.175129
-0.057316 0.471752 0.158692
-0.098898 0.157450 -0.474772
0.223176 -0.212348 -0.452432
0.284757 0.284502 -0.411354
-0.225010 -0.304966 -0.395452
-0.210832 -0.488750 0.090767
-0.223207 0.133099 -0.482138
0.286451 0.379706 -0.325259
-0.095507 0.363834 0.338451
-0.269730 -0.089927 -0.491870
0.019730 0.481707 -0.130988
-0.040135 -0.441207 0.227676
0.247810 0.290592 -0.407081
-0.204139 0.498602 -0.009955
-0.138280 0.339155 0.362924
-0.141051 -0.422245 -0.265596
0.135572 0.387413 -0.315650
-0.076986 -0.417122 -0.273356
-0.238947 -0.211908 -0.452630
-0.078416 0.243100 0.432837
-0.252406 0.008902 0.495886
-0.098569 0.009543 0.495857
-0.038361 0.085296 0.488490
0.237704 -0.467221 0.168666
0.004035 -0.489813 -0.090113
0.236240 -0.424600 -0.261812
-0.027600 -0.434049 -0.245335
-0.253853 0.067375 0.491435
-0.200297 0.418875 0.267899
0.046535 0.470128 -0.168003
-0.187485 0.198038 0.454960
0.156076 0.492127 0.077367
0.012837 -0.075290 0.489979
0.150306 -0.437530 0.234659
-0.070322 0.432284 0.245847
-0.225388 0.388966 -0.313702
-0.249275 0.276326 0.412559
-0.027747 0.458375 -0.198085
-0.055445 0.422557 -0.266481
0.003450 -0.119809 -0.485389
0.173148 -0.455115 -0.203304
0.247986 0.493370 0.068770
0.286535 -0.490122 -0.088491
0.178304 0.484582 -0.118890
0.270304 -0.497353 -0.010689
-0.095663 0.488704 0.095945
0.010192 -0.483201 0.116032
-0.089136 -0.000081 0.495832
-0.163970 -0.349837 -0.356129
0.214303 0.363324 -0.343346
0.057960 -0.482908 0.117268
0.075648 0.424481 0.259408
0.008466 -0.265771 -0.423014
0.268347 -0.412724 0.275780
-0.269714 0.440367 -0.235572
-0.148805 0.497828 -0.027212
0.018477 0.351211 -0.355694
0.005649 0.475426 -0.151913
-0.016154 -0.496831 0.022239
0.154686 -0.201077 0.453258
0.266353 0.010300 0.495823
-0.138178 -0.244320 0.431425
-0.200052 0.498127 0.020245
0.114174 -0.208280 -0.454258
-0.130306 0.233567 0.437856
0.169846 0.456396 -0.202497
0.027475 -0.289208 -0.407186
-0.169647 -0.396702 -0.302449
-0.250630 0.008463 -0.500052
-0.118323 0.497352 -0.037819
0.163407 -0.309582 -0.391771
-0.256005 0.115235 -0.486890
0.164978 -0.045175 -0.498077
-0.131980 0.485723 0.110174
-0.183381 0.116585 -0.486608
-0.089529 0.300490 -0.399613
-0.190163 -0.462931 -0.184558
-0.233470 0.482838 0.121845
0.229068 0.048410 -0.497866
-0.052896 -0.488121 0.094419
0.184682 -0.491223 -0.080882
0.086102 -0.480379 -0.131395
-0.090445 -0.314993 0.383221
-0.114732 -0.490292 0.081808
0.028312 0.497087 0.034795
-0.290024 -0.063011 0.491755
-0.271668 -0.454848 0.199309
-0.083248 0.497535 0.029258
-0.227928 0.188262 -0.463382
0.163916 -0.350765 -0.355177
-0.149793 0.233071 -0.442690
0.056312 -0.411361 -0.282082
0.135736 -0.131036 0.478071
0.118553 -0.481525 -0.127244
0.163034 0.065885 -0.495841
0.032568 -0.446602 0.217430
-0.045493 -0.281286 -0.412726
-0.167001 0.110757 -0.487828
-0.023412 -0.496465 0.030394
0.222625 -0.237476 0.435350
0.084669 -0.450137 0.209807
0.285790 0.375651 0.325286
-0.083509 -0.137581 0.476265
0.158371 -0.203996 -0.456180
-0.125483 0.118344 0.481627
0.108301 0.489791 0.090757
-0.233983 -0.235757 -0.440518
-0.062146 -0.195955 0.455394
0.059084 0.433936 0.242966
-0.241308 -0.494235 0.054171
-0.064037 -0.459709 -0.192285
-0.161673 -0.000804 0.495818
0.125110 0.485956 0.109061
-0.051691 0.141290 0.475470
-0.033910 0.489625 -0.095990
-0.127974 0.207220 0.450840
-0.097970 -0.461963 -0.186879
-0.039429 -0.321418 0.377708
0.187575 0.106697 0.484395
0.148147 -0.304651 -0.395703
0.017831 -0.296853 -0.401839
-0.246857 0.490322 0.088220
0.002665 -0.256431 -0.428708
-0.207238 -0.446124 -0.222308
0.112004 -0.222717 -0.447383
0.113544 -0.388542 0.308595
0.217326 -0.015339 -0.499905
0.233067 0.430102 0.249652
0.049675 -0.247262 0.429738
-0.175264 -0.418580 0.266971
0.274258 0.106992 0.484325
0.130122 -0.483449 0.114991
-0.064892 -0.049583 0.493334
0.226101 0.255606 0.425483
0.201356 -0.093495 -0.491256
0.148181 -0.484132 -0.117229
-0.137405 -0.317348 -0.385579
0.010586 -0.440174 -0.234383
-0.161952 0.233407 -0.442524
0.143979 0.456948 -0.201265
0.232286 -0.496027 0.037594
0.081498 0.433280 -0.248891
0.122833 0.364635 -0.341899
-0.078891 0.266817 -0.423029
-0.165480 0.254575 -0.430485
0.283303 0.427651 0.253927
0.252755 -0.014051 -0.499962
0.140493 -0.463008 -0.184373
-0.274654 -0.496426 -0.034656
0.277720 0.199697 -0.458614
0.099266 0.286499 0.405444
-0.190877 -0.093355 0.486906
0.145286 -0.413724 0.274351
0.266535 0.492317 -0.080355
-0.215607 0.460192 -0.194037
0.048263 -0.139481 0.475740
-0.072513 0.341830 -0.364828
0.237749 0.474366 0.151113
-0.166066 -0.322703 -0.381250
-0.068900 -0.013829 0.495584
0.225390 0.234216 0.437515
0.208951 0.441820 0.228770
-0.019774 -0.268866 0.416646
0.156741 0.471583 -0.164125
0.262154 -0.283333 0.407096
-0.163078 0.262034 0.421564
0.032340 0.490388 -0.091559
0.143446 -0.364314 -0.341259
0.183194 0.303028 0.393461
-0.140269 -0.146716 -0.477855
-0.239877 -0.355560 -0.350251
-0.197406 0.249898 -0.433167
0.125884 -0.452388 0.204790
-0.128060 -0.496736 0.024366
0.198949 0.352367 -0.354568
-0.160408 0.270879 0.416172
-0.209707 -0.141754 0.475113
0.276861 -0.420131 -0.268798
0.285623 0.007336 -0.500073
-0.156815 0.100961 -0.489881
-0.201782 0.109189 0.483802
0.044873 0.198320 0.454834
0.255152 0.374682 0.326415
0.023822 -0.419549 -0.269680
0.217672 -0.220700 -0.448445
-0.006890 0.470611 0.161999
0.191213 -0.469346 0.163003
-0.276028 0.498600 -0.010009
-0.239144 0.019866 -0.499847
-0.163981 0.493493 -0.073519
0.090651 0.071756 0.490821
0.090749 0.496690 -0.045293
0.001748 0.468043 -0.173560
-0.175434 0.042265 0.494148
0.242485 0.263472 0.420688
-0.265919 -0.198826 -0.458500
0.100614 0.134772 0.477459
0.115204 -0.490692 -0.084554
0.051450 0.496706 0.039498
0.243114 0.355970 -0.351061
0.024750 -0.352890 -0.352994
-0.245635 -0.384628 0.313504
0.035866 0.325457 0.375330
-0.111338 0.311636 0.386598
-0.107758 -0.156245 -0.474948
0.135787 -0.485727 -0.109618
0.118020 0.496155 0.046294
0.142931 0.051688 -0.497600
-0.177620 -0.297869 -0.401111
-0.244765 -0.410034 -0.284093
-0.055517 -0.495200 -0.049791
0.147912 -0.466222 0.171327
0.101862 0.168687 -0.470895
0.077566 0.496223 0.045453
0.051899 0.485555 -0.114794
-0.131638 0.443502 0.225357
0.047184 -0.425689 0.255308
0.264352 -0.329529 0.370748
-0.070802 -0.492841 -0.069697
0.029904 -0.163438 0.467999
0.137956 -0.470154 0.160849
-0.044865 -0.416444 -0.274383
0.168972 0.114093 0.482637
-0.219120 0.088695 0.487905
-0.285956 -0.479504 0.130834
-0.206318 -0.495143 -0.050493
0.286788 -0.466284 -0.175925
-0.007788 -0.376233 -0.327766
-0.143163 0.437049 0.237538
0.100207 -0.121693 0.480651
0.280154 -0.126687 0.479272
-0.054761 -0.110017 -0.487716
0.031132 -0.425934 -0.259487
-0.222005 -0.455163 -0.203189
0.238726 0.433359 -0.248762
0.113045 -0.484214 -0.116837
0.208000 0.475184 0.148740
-0.134597 0.497148 0.034033
0.178163 -0.057415 0.492565
-0.113747 -0.173711 -0.468641
0.160683 0.245198 -0.435862
-0.109711 0.182942 0.461209
0.175302 -0.358738 -0.346986
-0.157692 0.361412 -0.345458
-0.190978 -0.489939 0.083862
-0.185187 0.264677 -0.424442
0.140386 -0.360268 0.341235
0.055169 0.287126 -0.409622
-0.218809 0.498561 -0.010874
-0.247128 0.230422 -0.443996
0.260115 -0.488012 0.095054
-0.116085 0.331545 0.369817
0.024450 0.459557 0.190754
-0.163230 -0.182736 0.460905
-0.127255 -0.048767 -0.497689
-0.039076 0.045411 0.493808
-0.183967 0.257777 0.424159
-0.165828 0.322357 0.378048
-0.108807 -0.330190 -0.374469
0.061995 0.432429 -0.250287
-0.098927 -0.361685 -0.343960
-0.237489 0.041188 0.494265
-0.082677 0.439896 -0.236465
-0.244382 0.358974 0.343444
0.034091 0.425708 -0.261313
0.135845 0.123050 -0.484912
-0.084461 0.078617 -0.493999
-0.143806 -0.464039 0.177144
-0.104114 0.196393 0.455698
0.268758 -0.487879 -0.099342
0.257145 0.455862 0.199617
0.067781 0.326379 0.374496
0.120363 -0.459849 -0.191949
-0.088326 0.146206 -0.478520
-0.095703 -0.108060 0.483826
-0.149147 0.411916 -0.282754
-0.160839 0.079796 0.489437
-0.112649 -0.443802 -0.227021
-0.209310 0.384604 0.314851
-0.023036 -0.323141 -0.380853
-0.057959 -0.495468 0.042764
0.170408 0.293030 0.400876
-0.286704 0.497620 -0.031851
0.227393 0.484266 0.116675
0.070510 -0.341567 -0.364165
-0.062879 -0.299144 -0.400094
0.240779 -0.116853 -0.486091
0.253873 -0.495655 -0.044168
0.269735 0.317745 0.381726
-0.070348 0.498494 -0.000128
0.155728 -0.487004 -0.103521
-0.166141 0.021456 -0.499818
-0.037810 0.478929 -0.140430
-0.064971 0.044178 0.493942
0.141685 -0.318472 -0.384682
-0.259548 -0.030737 0.494861
-0.019575 0.181625 -0.466149
-0.086881 -0.407559 0.283166
0.200569 -0.409310 -0.285190
-0.278066 -0.208801 0.449791
-0.251344 -0.497487 -0.003273
0.118732 -0.497202 -0.019104
-0.257648 -0.281328 -0.412697
0.116062 0.371364 -0.334470
-0.061131 -0.444065 -0.226487
-0.187088 0.465631 0.176186
0.068980 -0.318486 -0.384671
-0.151508 -0.148689 -0.477253
0.281794 -0.019166 -0.499733
-0.024322 0.034155 -0.499021
-0.065656 -0.497106 -0.024393
0.247135 -0.069427 -0.495399
0.219695 0.324503 0.376195
0.185469 -0.383372 -0.319446
0.042324 -0.221289 0.443638
-0.144795 0.318402 0.381202
0.129993 0.417553 0.269902
0.184151 -0.189740 0.457985
0.189754 0.429023 -0.255875
-0.052252 0.280517 0.409628
0.156128 0.399276 0.296041
-0.094841 0.497202 -0.040553
-0.205667 -0.365179 0.335813
-0.067130 -0.434593 -0.244387
0.232746 -0.466897 -0.174146
0.108512 0.421381 -0.268409
0.215792 -0.028436 -0.499317
-0.130406 0.063668 -0.496162
0.056291 -0.490972 -0.082621
-0.076300 -0.497259 -0.015901
0.259645 -0.176928 0.463326
0.238482 0.075558 0.490167
-0.216564 0.193396 -0.461241
0.146926 -0.371955 0.328332
-0.099275 0.419514 0.266931
0.152562 -0.079280 0.489402
-0.251151 0.365419 0.336824
-0.179470 -0.460111 -0.191321
-0.276018 -0.151690 0.472052
0.027111 -0.108201 -0.488147
0.068299 -0.082110 0.488992
-0.269907 -0.419283 0.265816
0.286865 0.496505 0.041979
0.014046 0.116255 -0.486677
0.218527 -0.364171 -0.341406
0.202642 0.328137 -0.377176
0.064446 -0.497381 -0.009149
0.019625 -0.425148 -0.260857
0.215018 0.495018 -0.060767
-0.225055 0.052841 -0.497507
-0.176870 0.271316 -0.420059
-0.060830 0.341906 -0.364753
-0.011855 0.199359 -0.458755
-0.173095 0.498163 -0.019754
0.018057 0.027535 0.495050
0.156674 -0.497184 0.014362
-0.138469 -0.480253 -0.131852
0.160873 -0.497346 -0.011061
0.071602 0.364794 -0.341724
-0.277215 -0.247885 0.429381
-0.096277 0.495171 0.056321
0.056672 0.311234 0.386918
-0.070902 -0.443931 0.222501
-0.060986 -0.233693 0.437519
-0.278971 0.497877 0.025034
0.227209 -0.324785 0.374819
-0.270109 0.455811 0.199740
0.015151 -0.274812 0.412721
-0.169119 -0.497425 -0.006720
-0.191092 0.381208 -0.323431
-0.138404 0.362768 -0.343960
0.120047 0.201094 -0.458032
-0.024335 0.442508 0.227374
-0.005837 -0.230665 0.439017
-0.027229 0.480189 0.131441
-0.176963 -0.328492 -0.376007
-0.103782 0.427906 -0.257707
0.065733 0.498073 -0.021761
0.266324 0.323345 -0.381287
0.116054 -0.157215 0.470146
-0.258741 0.497730 -0.029390
0.235265 0.498437 0.003057
0.124795 -0.268533 -0.421331
-0.156539 -0.410025 0.279639
-0.149109 -0.492401 -0.072743
-0.149313 0.488153 0.098576
0.265317 0.302465 0.393910
-0.124436 -0.303374 -0.396722
-0.233503 0.273494 -0.418621
0.111383 0.161972 -0.473212
-0.061369 0.136879 0.476816
0.218223 -0.116811 0.481992
-0.007958 -0.464354 0.176305
-0.015440 0.432712 -0.249823
-0.073515 0.370860 0.330868
0.090929 -0.019867 0.495475
-0.069310 -0.253258 -0.430643
-0.105203 0.490128 0.089148
0.038972 -0.490433 0.080990
-0.163831 -0.085414 0.488514
0.054976 -0.314426 0.383708
-0.107092 0.114852 -0.486971
-0.192126 0.484814 0.114511
-0.160315 0.497317 0.031953
-0.141074 0.274067 0.414138
-0.143981 0.255448 0.425579
-0.160020 -0.359389 -0.346318
0.217650 -0.002862 -0.500256
-0.284911 -0.360419 -0.345260
0.060533 0.379153 0.321204
0.189554 -0.433652 -0.246028
0.175752 0.056588 -0.497186
-0.188363 -0.361039 -0.344624
-0.152261 0.497087 -0.041623
0.010142 0.124751 0.480104
-0.288393 0.465854 0.175651
-0.122261 -0.199297 -0.458289
-0.034712 -0.430181 -0.252081
-0.027977 0.249767 0.429043
-0.253085 0.194913 0.456363
0.241052 0.277413 -0.416034
0.115520 0.060004 -0.496692
-0.102873 -0.187172 0.459055
-0.203608 0.444234 0.223872
0.090949 0.459909 -0.194667
0.035132 -0.073775 0.490198
0.204070 -0.344694 -0.361333
-0.119905 0.345544 0.357137
-0.169192 0.054969 0.492776
-0.213951 0.226543 -0.445907
-0.037940 0.375634 -0.329755
-0.241440 0.421472 -0.268260
0.260434 -0.477382 -0.142253
0.227048 -0.493829 0.057930
0.226875 0.279845 -0.414429
0.058292 0.322958 0.377569
-0.009766 0.358680 0.343746
0.048096 -0.086916 -0.492389
0.003803 0.467867 0.169953
-0.068622 0.398081 0.297626
-0.269376 0.497843 -0.026881
-0.020982 -0.497291 0.011998
-0.259398 -0.416082 -0.274931
0.099962 -0.143630 0.474595
0.131482 -0.199999 0.453708
-0.061976 0.485035 0.113458
0.000381 0.458520 0.193241
-0.036428 0.233719 -0.442371
-0.146242 0.064597 0.491735
0.075571 -0.496576 0.027934
0.129788 0.246143 -0.435321
0.016687 -0.210931 0.448741
-0.248570 0.266751 0.418689
0.247255 -0.041778 -0.498444
-0.083875 0.363413 0.338884
-0.219398 0.017489 0.495501
0.009231 0.393861 -0.307563
0.228274 -0.199774 -0.458075
0.225888 -0.433043 0.243180
-0.254350 0.329054 -0.376389
0.216393 -0.202352 0.452727
0.258385 0.481561 -0.131601
0.061277 0.149222 0.473050
0.149894 0.098327 0.486247
0.030274 0.006520 -0.500087
-0.180178 -0.256251 -0.428818
0.015216 -0.490885 -0.083220
0.214574 0.470251 -0.167675
0.172016 -0.188502 0.458501
-0.250699 0.389929 -0.312494
-0.183788 0.430393 0.249144
-0.085658 0.460746 0.187903
-0.140410 0.497032 -0.042127
0.126410 -0.218575 0.444974
-0.053818 -0.497443 -0.005726
-0.080581 -0.369609 -0.335486
-0.170175 0.251756 0.427830
-0.134168 0.424213 0.259814
0.255894 0.375122 -0.330320
-0.052213 0.449352 0.213485
-0.251792 -0.095286 -0.490948
-0.167221 -0.490717 -0.084379
0.011069 0.452851 0.206383
0.067478 -0.123550 -0.484500
0.252253 0.207071 -0.455502
-0.051917 -0.229621 0.439532
-0.208622 -0.384615 -0.317997
0.192368 0.452845 -0.210410
-0.089140 0.498121 0.020611
0.087701 0.362125 -0.344670
-0.203801 0.339930 -0.366677
0.219386 -0.324124 -0.379963
0.256409 0.348431 -0.358401
0.054631 -0.487793 0.096326
0.286765 -0.329083 0.371131
0.044486 -0.175596 0.463805
-0.103826 -0.060807 0.492074
-0.246824 0.350593 0.352052
0.225655 0.145650 -0.478674
0.060188 0.370481 0.331311
-0.276998 0.476578 0.144524
0.282890 0.422189 0.262880
-0.023052 -0.239226 -0.438691
-0.022445 -0.319023 0.379764
-0.244422 -0.232030 -0.442480
0.135078 0.272372 0.415261
-0.280164 -0.093864 0.486799
0.016762 -0.254489 0.425594
0.284858 0.081721 -0.493550
-0.269239 -0.260535 -0.426207
-0.034850 -0.267200 0.417746
0.255400 -0.302826 -0.397158
-0.128809 -0.255424 0.425058
0.028440 0.479789 -0.137613
-0.271280 0.095705 0.486698
-0.282544 0.006501 -0.500088
-0.015524 0.496630 0.040431
0.051489 -0.395552 -0.303974
-0.112107 -0.473825 0.149447
-0.059645 0.202950 0.452756
-0.057297 0.359075 -0.348038
0.103245 0.121290 0.480927
-0.008524 -0.063653 -0.496080
-0.016376 -0.292238 0.400712
-0.022133 -0.099252 0.485671
0.245813 0.407646 0.284909
-0.242893 0.430204 0.249473
0.118660 -0.273378 0.413668
0.281966 -0.187391 0.458964
-0.219847 0.451750 0.208618
0.091656 -0.338763 0.362462
-0.094579 0.285603 0.406070
0.185301 -0.047249 0.493523
0.169645 -0.005857 -0.500310
0.117350 0.457693 -0.199606
0.211913 -0.127700 0.478992
0.140586 -0.351753 -0.354162
-0.021456 0.303317 0.393230
0.245442 0.486534 0.106304
-0.059637 -0.456516 0.195592
-0.186742 0.393265 0.304009
-0.014308 0.230870 -0.443774
0.179034 -0.419086 0.266139
-0.210945 0.237232 -0.440430
0.157584 0.498128 -0.020534
0.168888 -0.203212 -0.456532
-0.073881 0.147156 0.473680
0.106724 -0.164207 0.467734
0.174084 0.032168 -0.499182
0.186034 0.356675 -0.350375
-0.257761 -0.046482 0.493586
-0.268707 -0.491363 0.075586
0.184035 -0.018490 0.495500
-0.045189 0.429222 -0.255548
0.209019 0.498408 0.004659
0.055136 -0.155697 -0.475115
-0.055804 -0.016028 0.495544
-0.135538 0.432220 -0.250631
-0.019389 -0.402366 -0.294942
0.078261 0.156085 0.470956
0.078471 -0.389642 0.307216
0.246272 0.226910 0.441362
0.258707 0.488638 0.096258
-0.106671 0.468311 -0.172844
0.112048 -0.307555 -0.393388
-0.049407 -0.243915 -0.436222
0.016618 0.195825 0.455953
-0.125798 -0.241600 0.432985
0.016962 0.275037 0.413460
-0.195428 0.352079 0.350526
-0.039316 0.397420 0.298502
0.127335 0.423457 0.260960
-0.194091 -0.041297 0.494006
-0.095563 0.431063 0.247976
0.196724 0.360269 -0.346719
-0.210226 0.151980 -0.476659
0.266983 0.049201 0.493399
0.198258 0.448500 0.215214
-0.019890 -0.358926 0.342717
-0.024498 0.448190 0.215843
-0.189216 -0.183473 0.460597
0.284982 0.449149 0.213897
0.244092 -0.340219 0.361044
0.137686 0.486318 0.107336
-0.142997 0.174266 -0.468971
-0.182231 -0.475049 -0.150516
0.035660 0.360117 -0.346887
0.173393 -0.077245 0.489696
-0.254589 -0.144420 -0.478556
-0.263163 -0.358336 -0.347400
0.136510 -0.114752 0.482424
-0.101869 -0.055052 -0.497009
0.074360 -0.312428 0.385423
-0.034075 0.085128 -0.493057
-0.216688 -0.046956 -0.497884
-0.172799 0.393712 0.303417
-0.271705 0.129491 -0.483134
-0.041253 0.124507 0.480162
-0.171733 0.145277 0.474254
-0.033424 -0.428815 0.250181
0.205265 -0.009208 -0.500179
0.012598 -0.406121 0.285221
-0.276539 0.241076 0.433903
0.214881 -0.493792 0.058272
0.169888 0.182451 -0.465804
-0.216082 0.421725 -0.267845
0.130824 -0.479272 0.131594
0.038011 -0.332630 0.368088
0.231636 0.345343 -0.361407
-0.033299 0.205498 0.451613
0.230220 -0.492489 0.069050
-0.039227 0.215927 0.446933
0.105772 -0.063524 -0.496094
-0.150226 0.076536 0.489998
-0.242113 -0.482360 0.119571
0.067724 0.474981 -0.153371
-0.272501 -0.497365 -0.010039
0.119472 0.121220 -0.485417
-0.206031 -0.493381 0.062078
-0.123758 0.129157 -0.483226
-0.129292 -0.038605 0.494224
0.076072 0.478657 -0.141325
-0.198079 0.367111 0.335086
0.007805 -0.186596 -0.463806
0.117638 -0.250092 0.428115
-0.119716 0.229587 -0.444407
0.004782 0.379802 0.320447
-0.267437 -0.031680 -0.499172
0.094382 0.020433 0.495369
-0.190501 0.309650 0.388181
-0.045250 -0.399722 0.294371
0.093274 0.315866 -0.387705
-0.277796 0.373858 0.327375
-0.128332 0.369988 -0.335989
-0.000155 -0.434838 0.239772
-0.067491 -0.396929 -0.302148
0.210067 -0.288167 0.403783
0.108325 -0.495491 0.042558
0.131804 -0.031740 -0.499169
-0.287719 0.386709 0.312398
0.140610 0.433161 -0.249086
0.130851 0.437371 0.236976
0.031705 -0.217313 0.445596
0.227171 -0.337011 0.364168
-0.110627 0.335490 -0.370866
0.185972 0.484762 0.114761
0.202375 -0.443303 -0.228034
-0.229114 0.103338 0.485193
0.172165 -0.497172 0.014650
-0.010726 0.443295 0.225776
-0.080222 0.333381 -0.372676
0.177053 0.387419 -0.315642
-0.062940 -0.494523 -0.058076
-0.087370 -0.101330 -0.489780
0.215393 0.250554 0.428563
0.217778 0.250800 -0.432650
-0.222316 -0.373688 -0.330732
-0.082915 0.491507 -0.085057
-0.215758 -0.466257 0.171233
0.118810 -0.144651 0.474313
0.267891 -0.401711 0.291528
-0.076725 -0.043470 -0.498261
