0.115238 0.473054 0.154916
-0.241258 0.044939 -0.498147
0.011250 -0.297221 0.396953
0.281543 0.032395 0.494832
-0.273592 -0.156326 -0.474923
-0.157104 0.314862 0.384025
-0.138526 -0.250678 0.427779
-0.259656 -0.418486 0.267124
-0.192997 -0.149486 0.472812
-0.106901 -0.185799 0.459628
0.236826 0.339387 0.362714
0.179824 -0.497566 0.001140
-0.115317 0.453786 -0.208312
0.000893 0.138077 0.476451
0.171232 0.320726 -0.383535
-0.253695 -0.167127 0.466727
0.205540 0.425174 -0.262187
0.264069 0.495070 -0.060283
-0.025560 -0.221725 0.443423
-0.289378 -0.178913 0.462499
-0.007550 -0.068340 0.490984
0.081006 -0.074728 -0.494487
-0.260719 -0.494868 0.048320
-0.158810 -0.272175 -0.419098
0.166897 -0.478746 0.133319
-0.211743 -0.221802 -0.447865
0.145062 -0.437941 0.233878
-0.081749 -0.109920 0.483436
-0.008729 0.141916 0.475279
0.150018 0.269761 0.416853
0.198316 -0.487334 0.098644
0.220698 0.134976 0.477397
-0.272281 0.010506 0.495814
0.115075 -0.334874 -0.370226
0.040492 -0.426593 -0.258337
-0.131486 -0.431272 0.246151
0.249027 -0.196509 -0.459540
0.219050 -0.326608 0.373255
0.283975 -0.432611 0.243954
0.053350 0.493753 -0.072014
0.065309 0.485286 0.112259
-0.023528 -0.435545 0.238429
0.174722 -0.093999 -0.491169
-0.282235 0.421043 0.264616
-0.128681 0.166695 -0.471582
0.085323 0.211680 -0.453231
0.046668 0.342727 -0.363954
0.004421 -0.458379 -0.195476
-0.000499 0.314726 0.384133
-0.162055 -0.330702 -0.374005
0.211038 -0.225588 -0.445872
-0.191332 0.493222 -0.075096
-0.091456 0.277967 -0.415668
-0.105656 -0.059283 0.492295
-0.057521 0.294616 -0.404045
-0.064196 0.483764 0.118491
-0.284570 0.453189 -0.209642
0.096783 -0.003161 0.495776
-0.246812 -0.322605 -0.381339
0.273648 0.322973 -0.381607
-0.007168 0.225524 0.442092
0.108733 -0.046068 -0.497980
0.255740 -0.060532 -0.496417
-0.199004 -0.487125 0.099523
0.042286 0.475539 -0.151542
-0.105425 0.472814 0.155611
0.072797 0.049537 -0.497774
0.086707 0.309971 0.387925
0.143053 0.356803 0.345674
-0.052266 0.384073 0.315470
-0.078164 -0.494564 -0.057638
0.253014 0.310259 0.387696
0.226451 0.496563 -0.046473
0.208585 0.479035 0.135624
-0.103407 -0.259769 0.422566
0.000330 0.496525 0.041725
0.232946 0.330554 0.370714
-0.289404 0.015077 0.495609
-0.178148 -0.228631 0.440020
-0.177240 0.435811 0.239697
-0.161637 0.259145 0.423325
-0.008271 0.373246 0.328088
0.048624 0.345032 0.357601
-0.248482 -0.351372 -0.354553
-0.147822 -0.486008 -0.108275
-0.201790 -0.253502 -0.430494
0.188813 -0.257907 0.423633
0.240242 0.480222 -0.136195
-0.275897 0.497808 -0.027664
-0.044935 0.461695 0.185627
-0.174391 -0.443045 0.224185
0.009996 -0.031467 -0.499181
-0.208508 0.387551 -0.315477
0.107936 0.099365 0.486068
-0.136275 0.450742 0.210663
-0.228016 0.248089 0.430065
0.244234 -0.398669 -0.299841
0.076643 0.439633 -0.236966
-0.204710 0.419609 0.266788
-0.165253 -0.494974 0.047338
0.281065 -0.365019 0.335990
0.199212 -0.455004 -0.203569
0.176852 0.411344 -0.283571
-0.028380 0.112126 0.483104
-0.190218 0.489292 -0.097927
-0.221763 -0.353313 0.348297
-0.272722 0.433712 0.243356
-0.147209 -0.441413 0.227284
-0.214950 0.176873 -0.468072
-0.225440 -0.022449 -0.499586
-0.285151 0.374048 0.327153
0.222513 -0.487840 0.096051
-0.232424 0.483697 -0.122614
-0.246738 -0.275992 0.411942
0.013818 -0.400028 -0.298040
-0.055990 -0.439363 0.231178
-0.144092 -0.448045 0.214468
-0.077086 0.475298 -0.152332
0.243280 -0.153751 -0.475709
-0.286946 -0.425197 0.256115
0.272469 0.386535 0.312601
0.149852 0.303877 -0.397058
0.266855 -0.226669 0.440986
-0.134420 0.456513 0.198057
0.250899 -0.456370 -0.200295
0.213485 -0.155319 0.470800
-0.275938 -0.388535 0.308604
0.033962 0.458513 0.193260
0.263218 -0.489041 -0.093799
0.084068 0.153940 0.471611
0.041098 0.463267 -0.186286
0.091823 -0.275948 -0.416459
-0.197372 -0.390198 0.306518
0.004555 0.420914 -0.269176
0.149242 -0.497533 0.006598
0.129264 -0.023314 0.495413
0.259392 0.163183 -0.472794
0.107410 0.014485 -0.499944
-0.062028 -0.208614 -0.454108
-0.045943 0.294669 0.399730
0.125446 -0.351397 -0.354527
-0.153584 -0.002093 0.495795
-0.169208 -0.252013 -0.431402
0.101508 -0.081584 -0.493306
0.142272 -0.481868 0.121644
0.167769 -0.497586 0.002238
-0.233106 -0.279791 0.409434
0.112041 -0.497222 0.013529
-0.173750 -0.345775 0.355635
0.235312 -0.158227 0.469797
-0.038978 -0.493525 -0.064973
0.286151 0.203112 0.452683
-0.155810 -0.162062 0.468474
0.238788 0.449093 0.214011
0.145014 0.388310 -0.314525
-0.019826 -0.359145 -0.346569
-0.057129 0.363295 -0.343378
-0.125294 0.410939 -0.284151
-0.255124 -0.113685 -0.486844
-0.267248 -0.435503 0.238510
-0.269185 0.309632 0.388195
0.108482 0.243673 -0.436737
0.050954 0.124376 0.480193
-0.289347 -0.352949 -0.352933
0.165615 -0.327353 -0.377038
-0.031051 -0.440182 -0.234368
0.033849 0.482389 -0.128116
-0.194839 0.490857 -0.088832
-0.254677 -0.004422 0.495753
0.250300 -0.074493 -0.494527
-0.254486 -0.236243 0.436057
-0.082588 -0.092060 -0.491503
-0.145001 -0.494474 0.051961
-0.270753 -0.485927 0.104565
0.107769 0.280055 0.409951
-0.196494 -0.415137 0.272331
0.273419 -0.119935 -0.485359
-0.209513 -0.483535 -0.119962
-0.185085 -0.205556 0.451390
0.264285 0.185544 -0.464515
0.062571 0.246291 0.431157
-0.067708 -0.147536 -0.477605
-0.178630 0.185804 -0.464406
0.043205 0.380402 -0.324443
-0.145154 0.473992 -0.156611
-0.170602 0.128002 -0.483545
0.075393 -0.003618 -0.500270
0.065045 -0.427541 0.252271
0.124391 0.397605 -0.302868
0.219373 0.148827 -0.477746
0.092351 -0.148149 -0.477418
0.247188 -0.384627 0.313505
-0.027412 0.481808 -0.130560
0.018096 0.496745 0.039010
-0.267090 -0.000227 -0.500209
0.135352 0.496402 0.043250
0.079379 0.224268 0.442753
-0.000527 -0.039513 -0.498689
-0.012105 0.422610 0.262242
-0.217956 -0.492318 0.070040
-0.188251 0.484149 0.117097
0.150307 0.468915 -0.171234
0.247263 0.057629 0.492488
-0.065522 -0.276945 -0.415762
-0.153207 -0.041166 -0.498510
0.141412 0.341278 0.361001
-0.046563 0.485835 0.109640
0.175688 -0.090559 0.487492
-0.028886 0.445169 0.221973
-0.016068 -0.056414 0.492710
0.272819 0.213894 -0.452139
-0.005377 0.495864 -0.052938
0.018474 0.110735 -0.487833
-0.142914 0.094176 0.486962
-0.053125 0.267113 0.418468
-0.279008 -0.177638 0.463030
0.130796 -0.287088 0.404598
-0.088219 0.036710 -0.498814
-0.084165 0.421828 0.263426
0.062731 0.078760 0.489615
-0.140814 -0.496193 -0.037533
-0.265998 0.488192 0.098388
0.285079 0.445198 -0.226396
0.266879 -0.344854 0.356532
0.185192 -0.068342 0.490984
-0.062330 0.283768 0.407354
-0.160992 0.476239 -0.149246
-0.004748 0.101870 -0.489690
-0.078294 -0.482479 0.119073
0.206884 -0.208908 -0.453976
0.231133 -0.087558 0.488121
0.028083 0.475450 -0.151835
-0.195058 -0.435797 -0.242286
0.064537 0.306383 -0.395168
0.024092 0.399970 0.295122
-0.280748 -0.481048 0.125093
0.275167 0.385214 -0.318407
0.206468 0.467802 0.170140
-0.019285 0.498410 0.004559
0.058544 -0.051652 0.493167
0.037100 -0.193410 -0.460930
-0.026137 0.119878 -0.485788
0.149656 -0.082660 0.488913
-0.131401 -0.342072 -0.363707
-0.170959 0.305578 0.391428
0.125812 0.478441 0.137775
-0.036169 0.481086 0.128192
0.071560 -0.432014 0.244933
0.122537 0.265039 0.419732
-0.146120 -0.251789 -0.431539
-0.272109 0.388471 0.310344
0.046987 -0.444997 -0.224597
0.235732 0.234141 -0.442163
0.189483 -0.497111 0.015990
0.219487 0.490584 -0.090421
0.062079 0.450610 0.210932
0.247928 -0.280107 0.409225
-0.103234 -0.203588 -0.456363
-0.160216 0.176008 0.463811
-0.103024 0.497943 0.024221
0.145739 0.466298 0.174502
-0.289776 0.441936 0.228534
0.044891 0.466855 0.172886
-0.033153 -0.411498 -0.281875
0.180112 0.498206 0.015899
0.175743 0.387663 0.311287
0.043305 0.110618 -0.487858
0.067885 -0.309524 0.387671
0.224549 0.196435 -0.459974
-0.264344 -0.080938 -0.493418
-0.115655 -0.383837 0.314496
0.097854 -0.145422 0.474100
-0.084931 0.148764 -0.477768
-0.251757 -0.497545 -0.000033
-0.050694 -0.480817 0.126066
0.209738 -0.150343 -0.476749
0.262848 0.464013 0.180068
0.270348 0.494173 -0.068585
0.225770 -0.441211 0.227669
-0.050197 -0.389318 -0.312236
-0.231803 0.015831 0.495575
0.179262 -0.470278 -0.164344
-0.182208 -0.099372 -0.490244
0.285722 -0.480542 -0.130805
0.280627 -0.325675 0.374055
0.149864 0.486934 -0.108993
0.117109 -0.422934 -0.264552
0.064809 0.038600 -0.498661
-0.152530 0.488946 0.094791
0.016639 0.341792 0.360535
-0.224214 0.301167 0.394945
0.108670 0.464378 -0.183326
0.074070 0.055083 0.492763
0.012309 0.238650 -0.439618
0.107287 0.477428 -0.145351
-0.179562 -0.241916 0.432804
-0.070122 0.486452 -0.111019
0.262465 0.474084 -0.156311
0.091271 -0.289916 -0.406691
-0.147159 -0.497158 -0.021520
0.185627 -0.251346 -0.431809
0.216825 -0.192725 0.456740
-0.208381 -0.452491 0.204560
0.135155 -0.325335 0.374347
-0.264991 0.072252 -0.494920
-0.175573 -0.181391 -0.465759
0.001061 -0.491940 0.072236
-0.206768 -0.410848 -0.282860
-0.077995 0.437512 0.236729
0.106965 -0.016695 0.495532
-0.278396 0.380282 -0.324592
0.099519 -0.386797 -0.315454
-0.016757 -0.228683 0.439994
0.040050 -0.302513 0.392961
-0.125458 0.000909 -0.500188
-0.215695 -0.239718 0.434064
0.059664 -0.303188 -0.396870
-0.286950 0.398992 0.296419
-0.144481 -0.426106 0.254625
0.105335 -0.484788 0.109355
-0.190592 0.151442 0.472373
0.098057 -0.358059 -0.347684
-0.089093 0.266278 -0.423385
-0.107851 0.130541 -0.482845
-0.165714 -0.103126 0.484859
-0.262993 0.495132 0.056591
0.073900 0.212007 -0.453069
0.075348 -0.492436 0.069352
0.047422 -0.222489 0.443046
0.084870 -0.240020 0.433891
0.009233 -0.247603 0.429542
0.164994 -0.437813 0.234121
0.078756 -0.312595 -0.389369
-0.092794 -0.477027 -0.143538
-0.285755 0.498257 -0.017640
-0.061270 -0.300141 -0.399299
-0.129972 -0.488122 -0.098183
-0.032257 -0.185477 0.459762
0.147862 0.313620 -0.389632
0.150433 -0.287132 -0.408638
-0.263926 -0.372533 0.327694
-0.135992 -0.396104 -0.303241
-0.179993 0.170932 0.465715
-0.211283 0.186908 -0.463946
-0.253892 0.082229 -0.493477
-0.042366 0.137140 -0.481023
-0.290103 -0.473388 -0.155331
-0.072026 -0.027951 0.495087
-0.204915 0.490421 0.087748
-0.130607 -0.382755 0.315852
0.286414 -0.442239 -0.230193
0.062703 0.323386 0.377206
0.139919 0.331190 0.370138
-0.239173 -0.477665 0.136863
-0.187423 0.462662 0.183307
-0.231642 0.248494 -0.433973
0.192913 0.067024 -0.495676
-0.265768 0.482327 0.123696
-0.057462 0.498646 -0.008975
0.111951 -0.428665 0.250427
-0.270039 -0.489095 0.088760
-0.051057 0.089833 -0.492212
-0.221000 0.498030 -0.022722
0.273990 -0.494227 0.054245
0.129983 -0.290611 -0.406205
0.053507 -0.450323 -0.213788
-0.216079 -0.444256 -0.226100
0.154776 0.127072 -0.483802
-0.134906 0.026247 -0.499661
0.196085 0.439482 -0.237251
-0.201678 0.455978 -0.203427
-0.206788 -0.196057 -0.459743
0.282096 -0.142014 0.475041
-0.067115 0.100407 0.485889
0.085695 -0.484117 -0.117303
0.209090 -0.001931 -0.500240
0.273556 0.469565 -0.169504
0.213648 -0.482237 0.120088
0.265175 -0.243197 -0.436600
-0.186402 0.448411 -0.220289
0.130250 0.290743 -0.406967
-0.060864 -0.075214 0.489990
-0.080542 -0.487935 0.095500
0.180371 -0.320821 0.378221
0.202695 -0.214046 0.447206
-0.131813 -0.275543 -0.416743
0.234508 0.185052 -0.464720
0.201668 -0.468311 0.165760
-0.167786 -0.232066 0.438327
-0.158835 -0.495162 -0.050253
-0.166691 -0.427044 -0.257550
0.178948 -0.103291 0.484825
0.005476 0.454639 -0.206410
0.107976 0.152276 -0.476557
0.018779 0.186356 -0.464176
0.163010 0.317983 0.381537
-0.036122 0.153863 0.471634
-0.043369 -0.427331 0.252616
0.238563 0.489278 -0.098005
-0.284849 -0.033560 -0.499087
-0.174495 0.364258 0.338016
-0.155677 -0.412967 -0.279650
0.099178 0.008683 0.495896
-0.260091 -0.319481 -0.383878
-0.171816 0.378383 0.322102
-0.276002 0.022587 0.495272
-0.261123 0.014785 0.495622
-0.287239 0.459912 0.189903
-0.096439 -0.412378 0.276275
0.284065 -0.077194 -0.494062
0.129461 0.006585 -0.500086
-0.090733 -0.274992 0.412602
-0.126275 -0.343838 0.357521
0.087587 0.064253 -0.496077
0.270494 -0.075889 0.489892
0.212950 -0.131853 0.477846
0.207916 0.419477 -0.271533
-0.240945 -0.361976 0.339349
-0.227470 -0.478336 -0.138796
-0.069742 -0.497042 0.017543
0.273847 -0.311785 -0.390015
-0.112728 -0.496597 0.027463
-0.093061 0.441135 0.230160
0.014237 -0.491212 -0.080960
-0.010791 0.245317 -0.435794
0.048130 -0.332292 -0.372565
-0.152072 -0.151344 0.472171
0.067200 -0.336726 0.364445
-0.273955 0.355089 -0.351919
0.228016 0.363424 -0.343236
-0.112328 0.364641 0.337623
-0.152660 0.156338 -0.475155
-0.084840 0.307416 -0.394388
0.189285 0.481973 0.124979
-0.049482 -0.259929 -0.426576
0.021122 0.471548 0.159280
0.281579 0.227615 -0.445378
0.090059 0.433501 0.243725
0.028820 -0.265873 0.418623
-0.047148 0.182229 -0.465897
0.274887 0.496999 -0.042437
-0.001622 0.488731 -0.101185
0.286398 0.123435 -0.484806
-0.139971 0.092728 -0.491605
-0.282070 0.484307 0.116525
0.025878 -0.495994 0.037899
0.205465 -0.412476 0.276135
-0.001291 -0.493567 0.060357
-0.166527 0.496790 -0.044367
0.101519 -0.452157 0.205305
0.049656 0.228209 -0.445086
0.059191 0.393825 0.303267
-0.136413 -0.218322 0.445099
0.165789 0.221948 -0.448171
0.011558 -0.493444 0.061498
0.042653 -0.493813 0.058081
-0.059087 0.478120 0.138937
0.060060 0.483355 -0.124050
-0.188746 -0.055400 0.492856
-0.019511 -0.458611 -0.194920
0.094069 -0.078079 0.489575
0.004639 0.491031 0.084836
0.168259 -0.343248 0.358096
-0.103480 -0.478594 0.133819
-0.178863 0.359624 -0.347431
-0.036030 0.317425 0.381981
0.150324 0.477027 0.142896
-0.066461 -0.169009 0.466078
0.075028 0.246244 0.431182
0.072637 -0.483856 0.113278
-0.176873 -0.468729 -0.168837
0.064515 0.346716 0.356035
0.263299 0.490866 -0.088779
-0.255285 -0.380804 0.318300
0.111457 -0.121161 -0.485067
0.279472 -0.426820 0.253454
0.256137 -0.338245 -0.367174
-0.096976 0.114472 0.482547
0.059359 -0.472414 -0.158155
-0.107681 0.491263 0.083336
-0.141451 -0.483372 -0.120554
0.048964 -0.387284 -0.314887
-0.277749 0.476207 0.145775
0.200108 -0.155529 -0.475166
0.113473 -0.383120 -0.319740
0.286329 -0.414397 -0.277483
-0.194180 0.342688 -0.363992
0.236764 -0.182786 -0.465236
-0.249341 0.320555 0.379486
-0.119487 0.083397 -0.493308
0.014523 -0.486935 0.100321
-0.160738 0.451741 0.208637
-0.151879 0.448021 0.216185
-0.045541 -0.424627 -0.261766
0.261537 -0.491085 -0.081839
0.040245 0.478989 -0.140234
-0.236799 -0.496764 0.023731
-0.181054 -0.272692 -0.418737
0.132243 -0.185206 -0.464328
-0.170221 0.439721 0.232877
0.249081 -0.248168 -0.433746
0.031801 0.180390 -0.466663
0.049852 0.321634 -0.382756
0.038596 -0.006295 -0.500310
-0.186107 -0.388528 -0.313284
0.174401 0.347911 -0.358907
0.199519 0.476458 0.144958
-0.235874 -0.137152 -0.480773
-0.035342 0.186116 0.460018
-0.108377 0.133220 0.477933
-0.288290 -0.298308 0.396133
-0.006151 0.271737 -0.419781
0.231230 -0.483914 0.113036
0.108180 0.387120 0.311920
0.217349 0.337228 0.364669
0.053157 0.485755 -0.113952
-0.261289 0.095635 0.486710
0.125604 0.088445 -0.492503
0.012631 0.398566 0.296983
0.065994 -0.277834 0.410726
-0.260489 -0.196589 -0.459504
-0.255512 0.492537 0.074533
0.184500 0.352853 -0.354096
-0.241170 0.498204 0.015987
0.219821 0.204625 0.452005
0.184249 -0.481995 -0.125540
-0.047215 0.199364 0.454365
-0.210967 -0.030634 0.494870
-0.160918 -0.091654 -0.491573
-0.219601 0.432370 0.245698
0.031676 0.489363 -0.097510
0.061921 0.061665 0.492052
-0.058321 -0.457066 0.194365
-0.179928 0.478685 0.136892
0.072221 0.352049 0.350556
-0.278539 -0.494007 0.056288
-0.246753 0.137957 -0.480797
-0.165989 0.339488 -0.367108
0.200432 -0.093939 -0.491179
0.087008 -0.480898 0.125726
0.075975 -0.026915 0.495171
-0.084870 0.197977 -0.459331
0.180965 -0.329402 0.370858
0.073030 0.375779 0.325136
0.128646 0.356670 0.345811
0.129829 0.135629 0.477198
-0.171896 -0.497122 -0.023535
-0.054023 -0.469762 -0.165843
0.182228 0.001500 0.495860
-0.123414 -0.493707 -0.063713
0.240876 0.116981 -0.486525
0.067825 -0.495550 -0.045467
-0.027936 0.011700 0.495760
-0.220592 -0.350037 -0.355924
-0.045665 0.290206 -0.407372
-0.201962 0.457761 0.195062
0.058100 -0.392843 -0.307564
-0.288997 0.493534 -0.073286
-0.056214 -0.452536 0.204460
0.170983 -0.136678 0.476514
-0.168692 0.212288 0.448566
-0.154845 -0.234351 0.437142
0.218185 -0.437260 0.235173
-0.154415 0.330522 0.370743
0.175084 -0.214032 0.447213
-0.055000 0.074470 -0.494599
0.008421 0.411494 -0.283357
0.011148 0.453590 0.204885
0.074295 0.391534 -0.310482
-0.169689 -0.493260 0.063194
-0.098781 0.251253 -0.432390
0.093859 0.496681 0.039802
-0.237150 0.451433 0.209262
-0.212658 0.304247 0.392489
0.216642 0.270929 -0.420315
0.164030 0.020942 -0.499828
0.084285 0.179052 -0.467221
-0.278994 -0.218177 0.445171
-0.001202 0.443237 0.225895
0.263282 -0.463208 -0.183892
-0.005979 0.401288 -0.297951
0.035436 0.046151 -0.498049
0.098866 0.115878 0.482213
-0.010374 -0.425624 0.255416
-0.243407 -0.158861 -0.474150
-0.023304 -0.391080 -0.309901
0.237722 -0.469059 -0.167880
0.266822 0.165504 0.467752
-0.194348 0.498264 -0.017495
0.274711 0.498281 0.011725
-0.268087 -0.381192 0.317813
0.203889 0.333784 -0.372330
0.023602 0.479287 -0.139259
0.240810 0.283027 -0.412328
-0.242585 0.437910 -0.240236
-0.119949 -0.402258 0.290745
-0.039399 -0.453909 -0.206196
-0.180830 0.411676 -0.283097
0.145867 0.172551 0.465108
-0.247503 0.298351 -0.401227
0.087921 0.472340 0.156986
0.175623 0.209814 -0.454150
0.247954 0.411101 -0.283920
0.253912 0.480948 0.128692
0.010988 0.498187 0.016910
0.027647 0.468070 0.169363
-0.192952 0.428114 -0.257365
-0.031822 -0.479370 -0.135051
0.280372 -0.266745 0.418047
0.070244 0.287943 0.404434
0.162898 0.432441 0.245573
0.197578 -0.204666 -0.455879
0.269908 0.227498 0.441052
0.163703 -0.089442 0.487726
-0.207232 0.481315 -0.132610
0.231432 0.107440 0.484218
0.155490 -0.485734 0.105374
0.206914 -0.452310 -0.209755
0.034110 0.415259 0.273376
-0.119164 0.351533 0.351086
0.072167 0.432890 -0.249531
0.262105 -0.425370 0.255832
-0.281520 -0.439911 -0.234917
-0.015881 -0.187621 -0.463422
-0.288120 -0.254722 -0.429751
-0.130102 -0.409701 -0.284597
-0.286263 0.073926 0.490448
-0.066710 0.223809 -0.447254
0.021246 0.347489 -0.359318
-0.038045 -0.490435 0.080976
0.172863 0.444638 0.223051
0.053644 0.498165 -0.019712
0.103248 -0.157855 -0.474456
0.134718 0.278858 -0.415080
0.249587 -0.223010 0.442789
-0.274231 -0.166933 -0.471184
-0.270566 -0.293669 -0.404066
0.189367 -0.468841 -0.168511
0.271398 -0.436888 0.235879
0.068253 0.466122 0.175009
0.060147 -0.140295 -0.479814
0.184423 -0.423988 0.258099
0.192582 -0.491402 -0.079643
-0.018011 -0.269685 -0.420628
-0.030518 -0.497212 -0.018532
-0.267665 -0.244582 0.431274
0.076429 -0.444483 0.221453
0.162783 -0.424679 -0.261675
0.103557 0.108130 -0.488379
0.113454 0.245580 0.431531
-0.032740 -0.340235 0.361029
0.248013 0.003404 0.495894
-0.184116 0.119099 -0.486003
0.018131 -0.489127 -0.093387
0.170842 -0.255602 -0.429214
-0.052638 0.021701 0.495312
-0.142133 -0.169327 0.465968
0.049972 0.106749 0.484382
-0.244298 0.423988 0.260155
-0.200167 0.426053 0.256713
-0.102778 -0.329788 -0.374833
0.246228 0.125081 0.480026
-0.202266 -0.480092 -0.132436
-0.246172 0.031115 0.494889
0.087553 -0.101179 -0.489816
0.097322 -0.089833 0.487644
0.243227 -0.497187 -0.019901
-0.197748 0.163912 0.468349
-0.126330 0.353584 -0.353384
0.123862 0.145857 -0.478616
-0.141950 0.492664 0.073653
-0.009030 -0.491311 0.075892
-0.083793 0.105802 0.484607
0.155834 -0.036023 0.494433
0.178908 0.460844 0.187669
0.274986 0.489748 -0.095275
-0.245970 -0.203219 0.452365
-0.282158 0.486632 0.105836
0.243809 -0.487037 0.099891
0.064239 -0.406985 0.283987
0.198344 0.460070 0.189524
0.267483 0.351105 -0.355797
-0.141824 0.223095 0.443370
0.204752 -0.437622 -0.239105
0.201118 -0.158103 0.469840
-0.258205 0.302947 -0.397760
-0.091288 -0.402641 0.290197
0.195093 -0.488824 -0.094832
-0.237708 0.480839 0.129088
-0.028080 0.468249 0.168846
0.235495 0.449598 -0.217644
-0.255902 -0.460631 0.186229
0.282320 -0.210749 0.448831
-0.091822 -0.039650 0.494139
0.192489 0.447155 0.217943
-0.267842 0.077170 0.489889
-0.166477 0.494107 0.063677
0.095445 -0.250619 -0.432252
-0.031327 -0.392989 0.303018
0.146101 -0.124505 -0.484272
-0.188669 -0.435520 0.238476
-0.270813 0.206730 0.451060
-0.081728 -0.428296 -0.255367
0.221970 -0.332288 -0.372569
0.214531 -0.435277 -0.243194
0.230462 -0.215341 0.446568
-0.042491 0.249470 0.429224
-0.289563 -0.478787 -0.137161
-0.258459 0.268625 -0.421836
0.175193 0.388126 -0.314755
0.255208 0.441254 -0.233886
0.261670 -0.097916 0.485951
-0.038266 -0.471435 0.157282
-0.031708 0.153316 -0.476198
0.214859 0.135462 -0.481486
-0.062595 -0.426327 0.254262
0.218493 -0.260872 -0.426001
0.019623 -0.405344 -0.290994
-0.037669 -0.453355 0.202635
-0.016983 -0.413099 0.275244
0.044650 0.064028 0.491797
-0.204473 0.155834 -0.475329
0.219895 0.412922 0.276917
0.045659 0.249196 0.429391
-0.129631 -0.482201 -0.124794
0.038819 -0.181936 -0.465555
-0.288938 0.241187 0.433845
-0.288842 0.345204 -0.361542
0.115930 -0.343466 -0.362444
0.053428 0.496119 -0.050580
-0.101664 0.036512 -0.498830
0.110887 0.329215 0.371927
-0.276553 0.127037 -0.483812
0.161652 0.467791 0.170173
0.027195 0.257645 -0.428725
-0.013849 -0.496224 0.035773
-0.289544 -0.017391 -0.499812
0.254237 0.374481 -0.331028
-0.035976 -0.276714 -0.415924
0.183498 -0.477855 -0.140537
-0.000077 0.318519 -0.385429
-0.243494 -0.396997 0.297991
0.091564 0.376347 0.324474
-0.257352 0.470795 0.161465
0.076917 0.105448 0.484691
0.274532 0.244211 -0.436428
0.235551 0.489142 0.093854
0.022033 0.423992 0.260149
-0.129834 0.481901 0.125240
0.244671 -0.407328 0.283495
-0.258401 0.354750 0.347783
-0.217685 -0.101357 0.485230
0.263843 -0.362956 0.338268
0.143915 0.492857 0.072320
-0.019708 -0.492524 -0.071888
0.153327 -0.169338 0.465964
0.110739 0.496784 -0.044428
0.020776 -0.328410 -0.376081
-0.071035 0.359848 -0.347184
-0.211253 0.131456 0.478471
-0.173908 0.135437 0.477256
-0.121220 -0.492920 0.066341
-0.068570 -0.494592 0.050873
0.171764 -0.256783 0.424278
-0.039087 -0.205583 0.451377
0.220861 0.494167 0.063265
-0.289093 -0.162167 -0.472973
0.095277 -0.064865 0.491487
-0.099546 0.316290 0.382886
0.173442 -0.449005 -0.216462
-0.130987 0.114089 -0.487130
-0.031437 0.289839 -0.407649
0.109481 0.493988 0.064502
-0.159183 0.487524 -0.106508
-0.261124 -0.124322 -0.484316
0.132026 -0.214293 -0.451560
0.254976 -0.347114 -0.358927
-0.023017 0.489883 0.090316
0.224816 -0.224667 0.441973
-0.042332 0.492817 -0.077449
0.163516 -0.460498 0.186582
0.097318 -0.395020 -0.304679
-0.284137 -0.490253 0.082038
0.092179 -0.494188 0.054614
-0.266718 0.142670 0.475049
-0.200418 -0.140426 0.475479
0.142755 -0.426809 0.253471
-0.040536 -0.406867 -0.288889
-0.059488 -0.257915 0.423629
-0.235861 0.050513 0.493257
0.014940 -0.496611 -0.032376
0.188819 -0.343176 -0.362707
0.257502 0.492476 0.074954
0.131946 -0.035323 -0.499008
0.240551 0.032570 -0.499149
0.245938 -0.130635 -0.482762
0.193834 0.244205 -0.436432
0.122008 -0.110659 0.483281
0.135300 0.385135 -0.318506
-0.057352 0.349011 0.353677
0.088662 0.250831 0.428394
-0.059418 -0.182633 0.460948
0.065521 -0.461921 0.182788
0.148883 0.370194 -0.335761
0.038441 0.406980 0.285830
0.081607 0.348798 0.353896
0.284098 -0.307241 0.389393
0.221384 -0.149718 -0.476939
-0.035302 -0.358172 -0.347569
0.263896 0.221177 -0.448551
0.176589 -0.475546 0.143806
-0.220563 0.452420 -0.211356
0.275101 0.376369 0.324448
-0.193025 0.097076 -0.490695
-0.259755 -0.146466 -0.477932
-0.244206 -0.052645 0.493086
-0.164374 -0.130027 -0.482948
-0.280852 -0.398098 -0.300599
-0.273515 -0.491494 -0.079011
0.269641 0.450386 0.211387
-0.196823 -0.303140 0.392487
0.263414 -0.465925 0.172118
0.047794 0.270828 -0.420381
-0.213850 0.492160 0.077134
-0.219141 0.498137 0.019716
0.172986 0.164083 -0.472484
0.143244 0.037463 -0.498753
-0.157172 0.418613 -0.272949
0.252020 0.115531 -0.486828
-0.232777 -0.393161 0.302802
0.056187 0.157694 -0.474687
-0.059905 -0.454050 -0.205859
0.087609 0.421320 -0.268510
0.202171 0.098689 -0.490357
-0.102044 0.335020 -0.371270
0.053858 0.008198 0.495917
-0.082888 0.350848 0.351791
-0.237405 -0.455931 0.196895
0.130070 -0.490601 0.080013
-0.141074 -0.228284 0.440190
0.261016 0.356223 0.346269
0.160764 0.457453 0.195800
-0.230568 0.370949 0.330764
-0.265109 0.163803 0.468390
-0.132759 0.213243 -0.452461
0.047800 -0.488650 -0.095663
-0.118353 0.391523 -0.310495
-0.141725 -0.468132 0.166237
0.006227 -0.269139 -0.420961
0.029778 -0.220856 0.443851
-0.145575 -0.430451 -0.251610
-0.023740 0.432322 0.245780
0.042529 -0.118377 -0.485729
-0.139118 -0.487393 0.098392
0.177910 -0.295998 -0.402437
0.009500 0.180715 -0.466528
0.016974 -0.037753 0.494293
0.191248 0.498155 0.018717
-0.232172 0.213037 0.448229
0.275502 -0.459299 -0.193269
-0.056028 0.002545 -0.500159
0.157704 0.349146 0.353538
-0.000873 -0.432736 -0.247625
-0.287542 0.496698 -0.045218
0.151071 -0.262986 0.420528
0.264795 -0.273388 -0.418250
0.221905 -0.353614 0.348004
-0.022596 0.352044 -0.354883
-0.032089 -0.156441 -0.474888
-0.030685 0.334933 -0.371344
0.037456 -0.496286 0.034396
-0.247772 -0.251496 -0.431717
-0.187322 0.225360 0.442178
0.076326 -0.115074 -0.486514
-0.275072 -0.052379 -0.497298
-0.278915 0.476032 -0.149925
0.177983 0.303768 -0.397140
0.263873 0.421377 0.264110
0.099585 -0.497033 0.017741
-0.163674 0.151955 -0.476667
-0.230171 -0.294571 -0.403436
0.070446 0.492851 0.072359
0.173018 0.128568 -0.483389
0.138039 0.478174 0.138741
0.256770 -0.452577 0.204368
0.006386 -0.377992 0.321667
-0.249220 -0.496640 0.026494
-0.099067 0.359287 -0.347804
-0.042320 -0.037705 -0.498884
0.284399 -0.491626 0.074058
-0.225816 -0.446088 -0.222383
-0.243425 -0.446027 0.218522
0.224225 0.274138 0.414089
0.199008 0.005091 0.495925
0.127469 -0.453942 -0.206117
-0.017965 -0.224547 -0.446420
0.163249 -0.475564 0.143749
0.079115 0.277518 -0.415964
0.150754 -0.089705 -0.491908
0.249267 -0.122625 0.480393
0.234429 0.457722 0.195156
0.267799 -0.085711 0.488471
0.248746 -0.198520 0.454324
0.163681 0.051710 0.493128
-0.119762 -0.296606 0.397417
0.138489 0.330152 -0.375446
-0.069696 -0.325311 -0.378888
-0.028777 0.099528 0.486040
0.060631 -0.289117 -0.407250
0.098752 -0.434248 -0.244988
0.233730 -0.132512 -0.482189
0.111423 -0.048261 0.493441
0.186663 0.468659 -0.171917
-0.230317 0.161451 -0.473392
0.164373 -0.240417 -0.438064
0.160522 -0.495809 0.039612
-0.133084 -0.063680 0.491658
-0.065708 0.354952 0.347575
0.137111 -0.088765 -0.492070
-0.120720 0.359653 0.342746
-0.097422 -0.290024 0.402382
0.026481 -0.450072 0.209951
-0.201965 -0.431814 -0.249233
-0.206449 0.461213 -0.191761
-0.177156 0.496938 0.036633
0.213168 -0.422823 0.260010
0.031314 -0.063585 0.491672
0.245277 0.496872 0.037447
-0.101314 0.060041 0.492227
0.250740 -0.483967 -0.118018
-0.212605 -0.269992 0.415903
-0.034926 -0.408836 0.281340
-0.229353 -0.246598 -0.434703
-0.084154 0.126408 -0.483985
-0.015835 0.498208 0.015775
-0.178718 -0.437185 0.235315
-0.125754 -0.213843 0.447306
0.235253 0.427782 0.253698
-0.252105 -0.178985 0.462468
0.189191 0.497567 -0.033035
-0.030322 0.314667 -0.388734
-0.220336 0.284304 -0.411485
-0.033565 0.102522 -0.489554
0.281496 -0.469303 -0.167174
-0.089410 0.238791 -0.439537
0.025628 -0.226633 -0.445322
-0.050201 0.341504 -0.365144
-0.118084 0.115883 0.482212
-0.011052 0.375238 -0.330192
-0.091154 -0.443585 0.223159
-0.127713 -0.438439 0.232934
-0.212819 -0.400714 -0.297131
-0.236407 -0.447681 -0.219150
-0.277507 -0.048306 0.493438
-0.235709 0.301745 -0.398666
0.151666 0.090671 -0.492036
0.123031 -0.085561 -0.492622
-0.223070 -0.219234 -0.449217
0.271295 -0.461331 0.184362
-0.281748 0.058197 -0.496953
-0.001580 0.348078 0.354635
0.268903 -0.266084 0.418483
-0.159557 -0.010326 -0.500129
0.248957 -0.009109 0.495669
-0.289618 -0.266589 -0.422516
0.206206 -0.283995 -0.410832
-0.062634 0.498252 0.013327
-0.244639 0.357245 0.345220
-0.228790 0.026567 0.495093
0.192103 0.451794 0.208528
-0.086814 0.203882 0.452338
0.004152 -0.489808 -0.090136
0.286765 -0.308122 -0.392936
-0.251267 -0.474066 0.148658
-0.141575 0.493684 -0.072413
-0.105960 -0.232303 -0.442336
0.001095 -0.180554 -0.466073
0.219023 -0.471146 0.158206
-0.275526 -0.459962 -0.191677
0.072641 -0.021849 -0.499613
-0.125411 -0.491682 -0.077711
-0.051875 0.498314 0.009907
-0.082902 0.214094 -0.452041
0.001417 0.468119 0.169221
-0.143997 0.498150 0.019008
0.087173 0.021698 -0.499814
0.174522 -0.490129 0.082754
-0.008054 0.430776 -0.252998
-0.058974 -0.496820 0.022479
0.128394 0.427892 -0.257729
-0.227676 -0.297864 0.396468
-0.062060 -0.095882 -0.490845
-0.143863 -0.368948 -0.336256
-0.194024 -0.454870 -0.203893
0.014676 0.107420 0.484223
0.081588 0.406497 -0.290503
-0.163788 0.349821 -0.357048
-0.066209 0.441198 -0.233992
-0.225562 -0.143862 -0.478726
-0.207738 0.435461 0.240306
-0.027671 0.088576 -0.492475
0.017562 -0.481865 0.121657
-0.253948 -0.421650 -0.266497
0.103231 0.169846 -0.470496
-0.114025 0.182550 -0.465763
0.286689 0.498219 0.015156
0.094379 0.161661 -0.473319
-0.000605 0.061494 0.492070
0.080320 0.496768 -0.044573
0.073777 -0.404173 -0.292546
0.284363 -0.013454 0.495591
-0.289659 -0.462352 -0.185946
0.135993 0.497683 -0.030441
0.191590 0.498134 -0.020384
-0.255041 0.421256 0.264293
-0.130687 -0.450021 -0.214400
0.084878 0.401580 0.292988
0.020133 0.194784 0.456421
0.096819 -0.071923 -0.494970
0.258380 0.467978 -0.173733
0.025825 0.423119 -0.265559
0.145975 0.050312 0.493279
0.154202 -0.430227 -0.252001
0.159820 -0.460234 -0.191026
-0.098380 0.224048 -0.447136
-0.239323 0.445481 -0.225859
-0.184325 -0.430357 -0.251773
-0.214931 0.331113 0.370208
0.201591 -0.378739 0.320842
-0.273234 0.181634 -0.466145
-0.019219 0.066467 0.491533
0.197590 -0.182063 -0.465507
-0.224552 -0.493868 0.057570
-0.054970 -0.396591 -0.302596
-0.024017 -0.484732 0.109592
-0.210463 0.289290 -0.408063
-0.005661 -0.466284 -0.175924
-0.226864 -0.483192 -0.121203
-0.264098 0.429914 0.249980
-0.081524 0.480856 -0.134117
-0.077227 -0.312351 -0.389563
-0.281643 -0.288771 -0.407491
0.167965 -0.394131 -0.305856
0.265284 0.126295 -0.484017
0.073569 0.141155 -0.479914
0.113962 0.139447 0.476033
0.088378 0.486384 0.107019
-0.281295 -0.390975 -0.310041
-0.149698 -0.278345 0.410389
-0.106795 -0.124511 0.479873
0.112709 0.175953 0.463831
0.053190 0.254023 -0.430802
-0.239744 0.033607 -0.499065
0.071162 -0.356102 -0.349694
-0.269349 0.291256 -0.406580
0.049336 0.042007 -0.498385
0.179754 0.349975 0.352688
0.123048 0.356080 -0.350954
0.283766 0.497886 -0.025919
-0.025785 0.299608 0.396188
0.125736 -0.144997 0.474218
-0.195918 -0.487030 -0.103396
-0.287857 -0.268035 0.417195
-0.160785 0.490657 0.086623
-0.236523 -0.487449 -0.101396
-0.121091 0.467600 -0.174740
-0.208919 -0.405294 0.286404
0.173167 0.130175 0.478815
0.270456 -0.338830 -0.366644
-0.162677 0.459491 0.190912
-0.117960 0.486205 0.107875
-0.275577 -0.466170 0.171467
-0.258839 0.415797 0.272562
0.060983 0.128571 0.479196
0.239569 -0.096563 0.486234
0.251210 -0.495251 0.044778
-0.247891 0.493764 0.066051
0.101744 0.248096 0.430061
-0.116390 -0.414861 -0.276780
-0.271548 0.414010 -0.279760
0.172953 -0.476701 -0.144719
-0.015956 -0.145242 -0.478305
0.073667 0.475117 0.148935
0.210563 0.108935 0.483863
-0.158668 -0.066111 -0.495814
0.090799 0.275077 -0.417576
-0.274981 0.220443 -0.448912
-0.286251 0.269639 -0.421167
0.232542 -0.054384 -0.497081
0.236501 0.491940 0.078660
0.112986 -0.242332 -0.437056
-0.181224 -0.148212 0.473252
-0.046912 -0.338873 0.362355
-0.153705 0.000321 -0.500199
-0.278853 -0.329009 -0.375539
0.134501 0.476086 -0.149749
-0.159233 -0.404007 0.288245
-0.238472 0.211677 -0.453232
-0.091440 0.498514 -0.001225
-0.104432 -0.491161 0.076762
-0.290221 -0.394312 -0.305617
0.181535 -0.306230 0.390156
-0.064119 -0.382008 0.316790
0.185491 0.498429 0.003525
-0.197949 0.363393 -0.343270
0.100457 0.463529 0.181228
0.274758 0.362211 -0.344575
0.246628 -0.132646 0.477627
0.135015 -0.077203 0.489702
0.179981 0.472956 0.155199
0.043086 0.116477 0.482070
-0.108254 -0.396726 0.298331
0.134502 0.494197 0.063058
-0.029780 0.362960 0.339350
0.112688 0.200514 0.453849
-0.183505 -0.459802 -0.192062
0.210486 0.141006 0.475557
-0.053601 -0.347625 0.353835
-0.176256 -0.030859 0.494851
0.200479 0.402201 0.292165
-0.151991 -0.021224 -0.499641
-0.168833 -0.093535 0.486868
-0.030475 0.393586 -0.307908
-0.216803 -0.008518 -0.500210
0.242462 -0.271803 0.414708
0.053495 0.135511 -0.481473
0.250891 0.494798 -0.062804
0.048102 -0.169962 0.465749
-0.001334 0.201382 0.453460
-0.277132 -0.121590 0.480679
-0.049688 0.304472 0.392310
0.196404 0.372035 0.329499
-0.119897 0.446989 -0.222993
0.103108 -0.288417 -0.407739
-0.070216 -0.243372 0.431968
0.101005 0.439208 -0.237772
0.017127 0.470734 -0.166389
-0.211300 -0.351588 0.349976
-0.154647 -0.123556 -0.484498
0.173189 0.370279 -0.335667
0.038715 0.482245 0.123993
-0.211633 -0.065471 0.491399
0.058636 -0.355250 -0.350570
-0.175464 -0.490860 0.078509
0.284733 -0.374929 0.325049
0.252827 0.097277 -0.490652
0.266540 0.488205 0.098326
-0.188374 -0.257106 -0.428297
-0.188855 0.422521 0.262377
0.233620 0.401200 -0.298077
0.286725 0.058670 0.492376
-0.281312 0.384576 0.314884
-0.250355 0.108827 -0.488233
-0.153964 -0.455725 0.197354
-0.177057 0.220990 0.444479
-0.224573 0.195730 -0.460268
-0.022528 0.266599 0.418781
0.043554 0.487645 0.101001
-0.277293 -0.252268 0.426867
0.282443 0.050892 -0.497665
-0.228950 -0.413642 -0.278627
0.154323 -0.052601 -0.497274
-0.174506 -0.171007 0.465388
0.022724 0.279166 0.410573
-0.285438 0.232513 0.438412
0.182184 -0.190027 -0.462449
0.257737 -0.495469 -0.046463
-0.088179 0.457407 0.195912
0.155632 -0.240814 0.433436
-0.073398 -0.253089 -0.430746
0.275174 0.063910 -0.496127
0.204396 0.028726 -0.499461
0.070054 -0.354917 0.346736
0.004340 0.412041 0.278251
0.119302 -0.042825 -0.498331
-0.199375 0.224172 -0.447075
-0.144090 -0.197633 -0.459036
-0.040622 -0.091960 -0.491520
0.127266 0.039904 0.494404
0.181352 0.492801 0.072703
-0.106797 0.049453 -0.497781
0.229302 -0.429980 -0.252431
0.277390 0.490200 0.088806
0.211337 0.291191 0.402162
-0.090029 0.474322 -0.155531
0.102879 -0.338110 -0.367296
-0.054677 0.282456 -0.412704
-0.096681 0.454244 -0.207291
-0.238587 -0.169176 -0.470343
0.270071 0.498095 0.022047
-0.009415 -0.013387 -0.499992
0.093435 0.495571 0.053507
-0.169521 -0.489334 0.087375
0.062373 -0.479704 -0.133840
-0.268714 -0.497493 -0.002949
-0.226704 0.435457 -0.244897
-0.101977 -0.370918 0.329478
0.202663 -0.147302 0.473565
-0.143371 0.439880 0.232601
0.156873 -0.478114 -0.139601
-0.189974 0.275917 0.412845
0.178359 0.434669 0.241688
0.123900 -0.477556 0.137219
0.284925 -0.332279 -0.372576
0.030985 0.056388 -0.497215
0.013511 -0.435730 0.238078
-0.185910 -0.444452 -0.225702
-0.181256 0.439684 -0.236868
0.160992 -0.040089 -0.498626
-0.231763 -0.079870 -0.493602
-0.023578 -0.429501 -0.253266
0.165366 -0.444388 -0.225833
0.044749 0.458503 0.193283
-0.076068 0.456146 0.198936
-0.213986 -0.226576 0.441032
-0.241906 -0.022881 -0.499566
0.008050 0.033790 0.494769
-0.057728 0.155274 -0.475522
0.108098 0.179657 -0.466969
0.108167 -0.495273 -0.048880
0.166781 0.471212 0.160256
0.182972 0.428987 0.251596
-0.159771 0.009977 -0.500025
0.117762 -0.497366 -0.009950
-0.116746 -0.308274 0.388614
-0.214677 -0.188167 0.458641
0.084190 -0.192226 -0.461462
0.015735 -0.447711 0.215213
-0.112570 -0.494735 0.049552
-0.069853 -0.176793 -0.467485
0.169427 0.497482 -0.034930
-0.256373 -0.308603 -0.392552
-0.061081 -0.005063 0.495742
0.245560 -0.329887 0.370441
-0.283218 0.096958 0.486483
-0.013768 0.284283 0.406994
0.120009 0.134794 -0.481671
-0.205577 -0.419889 -0.269164
-0.214774 0.270037 0.416685
0.015659 0.331325 0.370016
-0.197082 -0.100669 0.485374
-0.039005 -0.140597 0.475432
0.178919 0.075830 0.490120
0.176746 -0.471662 0.156535
-0.025238 -0.083279 0.488823
0.241703 -0.106744 0.484101
0.069165 0.119015 -0.486026
0.013883 -0.144881 -0.478415
0.182991 0.138901 -0.480537
-0.027936 0.478986 0.135802
0.286954 0.325872 0.374954
0.051716 -0.164503 -0.472096
-0.030855 0.492137 -0.081399
0.083085 -0.466534 -0.175199
-0.106437 0.282785 -0.412488
0.108575 -0.134268 0.477179
-0.241330 0.446509 0.219254
0.116993 -0.160928 -0.473438
-0.201876 -0.391242 -0.309686
-0.170110 -0.462684 -0.185149
0.234205 0.497363 0.031380
0.172585 0.493687 0.066584
0.221193 -0.345344 0.356055
-0.197978 0.441009 0.230416
-0.100301 -0.162966 0.468162
0.206302 -0.409410 -0.285037
0.145945 0.287196 -0.409576
-0.052348 -0.424656 0.257003
0.079256 -0.220097 0.444225
0.104589 0.280002 -0.414325
-0.216150 -0.169123 -0.470363
-0.145843 0.045762 -0.498080
-0.058908 0.470307 0.162879
-0.179613 -0.355744 0.345931
-0.138238 -0.305633 0.390607
0.062710 -0.331865 -0.372951
-0.160199 0.462523 -0.188270
0.107781 -0.247141 0.429807
-0.223583 0.059522 -0.496762
0.280576 0.005775 -0.500101
-0.237251 0.381427 0.318554
-0.114839 -0.490016 0.083411
-0.048724 0.108296 0.484015
-0.140656 0.495997 -0.051711
0.247572 0.177168 0.463375
0.270703 0.320163 0.379798
0.176311 -0.483438 0.115039
0.065049 0.496909 -0.043270
0.062189 0.193699 -0.461115
0.151641 -0.306940 0.389620
-0.060248 0.130016 0.478853
0.101385 -0.327613 -0.376803
0.035440 -0.497568 0.005806
0.033783 0.067814 0.491387
-0.132664 0.433820 -0.248005
0.107066 0.305359 0.391602
-0.062285 0.207307 -0.455385
-0.206804 0.247744 -0.434403
-0.034523 -0.040291 0.494087
0.206915 -0.477082 -0.143339
0.157862 -0.435164 -0.243392
0.017174 -0.274742 -0.417303
0.249308 0.283983 0.407203
-0.020955 0.056120 0.492651
0.226147 0.453769 0.204521
0.155107 -0.360126 -0.345561
0.254840 -0.497532 -0.000767
-0.138211 -0.085908 -0.492562
-0.109029 0.262257 0.421428
-0.249390 -0.108150 0.483807
-0.104675 0.498253 0.013245
0.159142 0.473939 -0.156786
0.084237 -0.175119 0.463970
-0.290224 -0.442478 0.225263
-0.065042 -0.497295 -0.013922
0.227882 0.097491 -0.490608
-0.019577 -0.438528 -0.237526
-0.081662 -0.447835 0.214936
-0.067210 0.284367 -0.411443
-0.157410 0.497882 -0.026018
0.178848 -0.431244 -0.250227
-0.142321 -0.464145 0.176863
0.155722 -0.143723 0.474569
0.166516 -0.012978 0.495599
0.253134 -0.407056 -0.288604
0.070515 0.113330 0.482818
-0.072408 -0.471532 0.156962
0.283951 -0.186782 -0.463736
-0.036052 -0.131997 -0.482347
0.207987 -0.161683 -0.473155
0.257866 0.224347 0.442711
-0.174300 -0.456364 0.195928
0.160473 0.377186 -0.328042
-0.218804 0.361180 0.341178
-0.254584 0.279741 -0.414497
-0.289951 0.469726 0.164563
-0.194222 0.351496 -0.355417
-0.003801 -0.477130 -0.143166
0.263618 -0.432426 0.244257
0.180493 -0.173925 -0.468561
-0.212067 0.487888 -0.104976
0.040424 0.386663 -0.316591
0.188717 0.379238 0.321104
-0.151199 0.464134 0.179776
0.010483 0.091740 -0.491813
0.208020 -0.227797 0.440431
-0.258066 -0.465412 0.173487
-0.193427 -0.163680 0.467916
-0.087612 0.215775 0.447001
0.066577 0.401159 0.293546
0.048661 -0.060001 0.492191
0.024098 0.386591 -0.316681
0.229750 -0.041104 -0.498517
-0.085108 -0.071949 0.490462
-0.035123 -0.003775 -0.500273
-0.035485 -0.375120 0.324838
-0.036554 -0.466069 -0.176548
-0.266962 0.394551 0.302304
-0.260343 -0.351990 -0.353918
-0.168231 0.112673 0.482974
-0.264967 0.492765 -0.077750
-0.188116 -0.283055 0.407279
-0.255161 -0.258516 -0.427437
0.152814 -0.331661 0.368919
-0.289574 -0.123055 0.480275
0.005703 0.111082 -0.487760
-0.178318 -0.318563 0.380158
-0.242761 0.388103 0.310774
-0.145595 0.165694 0.467681
0.041437 0.200762 -0.458170
-0.019817 -0.413224 -0.279260
0.195839 0.490400 -0.091491
-0.231661 0.269135 -0.421499
0.276959 0.296109 -0.402919
0.008767 -0.495109 -0.050906
-0.278756 -0.320457 0.378533
0.107587 0.407588 0.284997
0.058307 0.286586 -0.409978
0.158277 0.242076 -0.437653
0.030909 -0.126175 0.479413
-0.051323 -0.288374 0.403627
0.164658 0.148608 -0.477822
0.176452 0.485961 -0.113087
-0.050406 0.435680 -0.244473
-0.285868 0.153671 -0.476075
0.085632 -0.390512 -0.310654
-0.103074 0.066919 -0.495692
0.083211 -0.447005 -0.220521
-0.041332 -0.494766 -0.055142
-0.008910 -0.483302 -0.120806
0.116407 -0.496736 0.024353
-0.005324 0.110576 0.483473
0.033963 0.217278 -0.450472
0.220398 0.107334 -0.488546
0.032090 -0.101553 0.485189
-0.123812 0.005788 0.495937
-0.145427 0.427650 0.253929
-0.228586 0.488630 -0.101770
0.095376 0.320428 -0.383791
0.114856 -0.487985 0.095207
-0.152695 -0.201956 0.452892
0.225679 0.492141 0.077268
-0.207372 -0.468422 0.165465
-0.224280 0.491703 -0.083918
-0.211154 -0.342997 0.358340
0.075928 -0.064901 -0.495945
0.031531 -0.493965 -0.061932
-0.201470 -0.421847 0.261610
0.007540 0.419180 0.267438
0.104826 -0.259430 0.422760
-0.053106 -0.460924 0.185448
0.188957 -0.371666 0.328651
-0.265469 0.493317 0.069138
-0.230779 0.281745 -0.413174
-0.059539 -0.489876 -0.089814
0.043715 0.498176 0.017525
-0.277407 -0.191343 -0.461858
-0.049754 -0.490724 -0.084335
-0.091505 0.193407 0.457038
0.039718 -0.453334 0.202681
0.096449 0.321165 0.378999
0.204470 -0.497523 -0.001242
-0.172610 0.041717 -0.498408
-0.049768 -0.312363 0.385478
-0.165425 0.273328 0.414655
0.029020 -0.248850 0.428827
0.028765 0.290871 -0.406870
0.057468 -0.497351 -0.010821
-0.069380 -0.449201 0.211891
0.197236 -0.222334 0.443123
-0.125819 0.336293 0.365516
-0.037238 -0.387639 0.309728
-0.060960 0.426670 -0.259734
0.203723 -0.492297 -0.073460
0.140794 -0.194662 -0.460369
0.037052 0.393248 0.304032
-0.005477 0.493481 -0.073589
-0.133285 -0.051718 0.493161
-0.077378 -0.497268 -0.015393
-0.101727 0.205210 0.451742
-0.171227 0.472901 0.155361
-0.216739 0.231957 0.438704
0.003451 0.483962 -0.121495
-0.288383 0.126437 0.479704
-0.078295 -0.362700 -0.342917
0.151846 -0.494042 -0.061400
-0.100067 -0.348824 0.352667
-0.104467 -0.339831 -0.365736
0.158944 -0.120275 0.481042
0.211799 -0.095892 -0.490843
0.151300 0.098245 0.486261
-0.029131 0.024566 0.495183
0.072366 0.265189 -0.424104
0.251822 0.232274 0.438537
0.261448 -0.113098 -0.486983
-0.139119 0.013926 -0.499954
0.112710 0.340665 -0.365962
0.042593 0.289065 -0.408233
0.106823 -0.344890 0.356497
0.159563 -0.497091 -0.025224
-0.121361 0.244782 -0.436101
-0.025028 -0.497508 -0.002119
0.283636 -0.496232 0.035602
0.016584 0.198602 -0.459071
0.027993 -0.411847 -0.281346
-0.055390 0.319806 -0.384324
0.086893 0.109878 0.483639
-0.160891 0.132422 0.478176
0.138663 0.445660 0.220977
-0.192053 -0.440630 -0.233459
0.202374 -0.495341 -0.048048
0.054897 -0.154053 -0.475617
0.108837 0.409181 -0.286665
0.084847 -0.493229 -0.067021
0.108077 -0.066456 -0.495777
0.284316 -0.381348 -0.321805
-0.145667 0.369109 -0.336960
0.259064 -0.478465 -0.138329
-0.044161 -0.382808 -0.320104
-0.079980 0.451014 0.210112
-0.247709 0.450438 0.211280
0.218913 0.180731 -0.466521
-0.270936 0.487933 -0.104785
-0.229922 -0.399877 0.294149
-0.179531 -0.263463 -0.424421
-0.117160 0.166840 0.467251
-0.163387 -0.382804 -0.320108
0.097955 0.075272 0.490216
-0.134679 0.174814 0.464258
0.059130 0.167120 0.467146
0.224650 0.449185 -0.218566
0.064725 0.451178 -0.214123
-0.139939 0.421309 -0.268527
-0.060827 0.404857 -0.292847
0.142095 -0.443224 -0.228195
0.169482 -0.066947 0.491186
-0.158837 -0.497192 -0.019637
-0.045326 0.225695 0.442002
-0.203888 0.296507 0.398445
-0.247383 0.382362 -0.321985
0.009607 -0.466765 -0.174531
-0.212301 -0.387146 -0.315047
0.186932 0.105613 0.484652
0.180742 0.396436 -0.304334
-0.241906 0.280007 -0.414322
-0.145077 0.272773 -0.419097
-0.256021 -0.445838 0.218880
-0.007591 0.329962 0.371250
0.177610 0.272671 -0.419165
0.257969 0.019552 -0.499853
-0.191568 0.477268 -0.145876
-0.178115 0.202598 -0.457405
0.146505 -0.204866 0.451678
-0.280051 0.470290 -0.167572
0.050336 -0.466831 -0.174338
0.033105 0.092028 -0.491752
-0.040659 0.432810 -0.249663
-0.106146 -0.411324 -0.282138
-0.271028 -0.483291 0.115653
-0.072380 -0.318133 0.380527
-0.191440 -0.137404 -0.480697
-0.208471 -0.496354 0.032876
-0.271287 0.093246 0.487122
-0.137729 -0.480337 0.128084
0.227345 -0.284086 0.406599
0.135211 -0.495072 -0.051360
0.027284 -0.318329 -0.384797
-0.223006 0.409880 -0.285665
0.093048 -0.197930 0.454570
-0.240718 0.176718 0.463544
-0.233654 -0.484462 0.110728
0.186407 -0.082206 -0.493199
0.200986 -0.368128 -0.337212
0.108136 -0.497082 -0.025746
-0.062707 -0.310298 0.387087
-0.175952 -0.497594 0.005238
0.166004 0.286095 -0.410302
-0.030851 0.443998 -0.228674
-0.166548 0.227899 0.440841
0.134583 -0.172671 0.464814
-0.185881 -0.471468 -0.160896
0.081088 -0.133721 -0.481820
0.007025 0.284730 0.406681
-0.018403 0.498620 -0.007101
0.087224 -0.354207 -0.351641
-0.089618 0.469706 -0.169128
-0.103159 0.498266 -0.017456
-0.164188 -0.394961 -0.304756
-0.275148 0.045897 0.493756
0.049293 -0.447590 0.215483
-0.059962 0.251143 0.428204
0.061866 0.145558 -0.478699
0.177777 0.334434 -0.371772
-0.051997 -0.496625 -0.032199
-0.229605 -0.437777 -0.238835
0.241918 0.433811 -0.248020
0.025985 -0.336194 -0.369031
-0.009146 -0.429393 -0.253455
0.030474 0.106701 -0.488678
-0.165286 0.004222 0.495909
-0.217403 0.462797 -0.187539
0.223921 0.429254 -0.255495
-0.193904 0.481155 -0.133137
0.170834 -0.112424 -0.487144
0.062177 -0.064533 0.491535
-0.182951 -0.118690 0.481480
0.130559 -0.390078 -0.311229
0.131581 0.487198 0.103133
-0.084059 0.341440 -0.365207
-0.021143 -0.191470 0.457263
0.088914 0.030177 0.494931
0.037142 0.204928 0.451869
-0.053775 -0.190028 -0.462448
-0.243777 -0.474078 -0.153331
0.184833 0.488156 0.098558
0.135569 0.465070 -0.181481
0.124239 0.387200 -0.315917
0.166010 0.248527 -0.433953
-0.107375 -0.324313 0.375224
0.245005 0.457967 -0.198994
0.193833 -0.295018 0.398615
0.157542 0.176348 -0.468253
-0.282358 -0.340371 0.360897
-0.116170 0.471854 0.158394
-0.026433 -0.491218 -0.080915
-0.111689 0.313020 0.385494
0.062539 0.244683 -0.436158
-0.124288 -0.327780 -0.376652
-0.136188 -0.486011 -0.108260
-0.066728 0.411129 -0.283879
-0.088223 0.498270 0.012318
-0.096631 0.485218 -0.116213
-0.054380 -0.483656 0.114120
0.203851 0.498146 -0.020130
0.229672 -0.242147 0.432671
0.268890 0.046735 0.493665
0.007372 -0.439401 -0.235953
0.109583 -0.326819 0.373074
-0.082843 -0.283053 0.407280
-0.029229 -0.115601 0.482246
-0.096370 0.411054 0.279746
0.101761 0.480553 0.130125
-0.289258 0.367221 -0.339044
-0.008149 -0.288252 -0.407854
0.165366 0.491082 0.084585
-0.095598 0.360592 0.341782
0.028328 -0.387556 0.309832
0.061276 0.180633 0.462075
-0.211377 0.298580 -0.401054
0.286442 -0.145642 -0.478183
-0.133900 0.270885 -0.420343
0.221383 0.285704 0.406000
0.185707 0.407184 -0.289521
0.097282 -0.228401 0.440133
-0.144340 0.145805 -0.478631
0.087279 -0.431709 0.245434
0.162122 0.136257 -0.481266
-0.159025 -0.209366 0.449512
-0.034348 -0.115666 -0.486373
-0.030469 0.135318 0.477292
0.177480 0.498557 -0.003596
0.038358 0.498560 -0.003766
0.146156 -0.340285 0.360980
0.170313 -0.418389 0.267283
0.237444 -0.445594 -0.223384
0.145500 0.365843 0.336388
0.044693 -0.463536 0.178486
-0.078215 0.300938 -0.399275
-0.064190 -0.461266 0.184535
-0.181938 -0.314826 -0.387590
-0.074907 -0.479967 0.129317
0.046293 0.489714 0.091123
-0.078125 0.260874 -0.426873
-0.173815 -0.483934 0.112951
-0.003152 0.136958 -0.481073
-0.011636 -0.321942 0.377259
-0.289014 0.478756 0.136634
0.042791 -0.480201 -0.132039
0.074560 -0.424582 -0.261844
-0.050011 -0.485084 -0.112685
0.092104 -0.492187 -0.074219
-0.266355 -0.352956 0.348644
-0.070134 -0.421936 0.261465
-0.119008 -0.495195 -0.049844
0.199642 -0.495922 0.038567
-0.049235 -0.455250 -0.202980
-0.235413 0.399425 0.295844
0.274572 -0.200695 0.453417
-0.090061 0.449741 -0.217325
0.193631 -0.460253 0.187234
0.164098 -0.484426 0.110878
-0.062591 -0.374697 -0.329556
0.012883 0.127711 0.479401
0.051531 -0.310418 -0.391105
0.237752 0.410482 -0.284805
0.034647 0.442196 -0.232097
-0.253885 -0.247169 0.429791
0.130134 -0.419008 0.266268
-0.125897 -0.039783 -0.498659
0.250720 0.089941 0.487691
-0.264951 0.252974 -0.431403
-0.121335 0.464278 0.179431
-0.233729 -0.046345 0.493597
0.076815 -0.436779 -0.240574
0.280665 -0.024259 0.495386
0.010374 -0.259987 -0.426540
0.169479 0.498077 0.022567
-0.097705 -0.115806 -0.486340
-0.150794 0.477582 0.140886
0.019035 0.352628 0.349962
-0.239791 -0.497397 -0.008233
0.212419 0.175557 0.463980
0.080446 0.492123 0.077395
-0.093087 0.298174 -0.401361
-0.082099 -0.418140 0.267691
-0.272759 -0.457107 0.194274
-0.117669 -0.093419 -0.491269
-0.228395 0.495587 -0.055500
0.018280 -0.452803 -0.208755
0.045403 -0.201093 -0.457483
-0.178779 -0.486469 0.102284
0.226910 0.493245 -0.074963
0.224052 0.489860 0.090428
-0.169439 -0.349438 -0.356540
