-0.238203 0.342735 0.359681
0.129492 -0.496708 0.024983
0.286468 -0.430326 0.247703
0.114845 0.089883 -0.492201
-0.081098 -0.206302 0.451022
0.271918 0.399968 -0.299839
-0.198817 0.207477 0.450725
-0.020917 0.486983 0.104158
0.249806 0.285018 -0.411013
-0.160937 -0.271069 0.415192
-0.158550 -0.461930 -0.186957
-0.285845 0.435166 -0.245449
-0.240496 0.013939 -0.499954
-0.079653 0.335245 -0.371076
-0.095729 0.470208 0.163165
0.241451 0.361845 0.340494
-0.157290 0.423183 -0.265453
-0.063438 -0.235371 0.436557
-0.100040 -0.065784 0.491354
0.091823 0.401106 -0.298212
0.275000 0.083164 -0.493341
0.172769 0.391504 -0.310519
-0.085895 -0.016999 -0.499830
-0.283767 -0.390218 -0.311043
-0.119961 -0.328453 -0.376042
0.038175 0.170414 0.465910
0.166044 -0.264279 0.419675
-0.054598 -0.488406 0.092764
0.116668 -0.464524 0.175852
-0.048159 0.028973 -0.499440
-0.219989 -0.492061 -0.075088
0.075701 0.014013 0.495656
-0.191477 0.031671 -0.499222
0.050392 0.486800 -0.109554
0.198471 -0.270730 0.415416
0.174336 -0.496227 0.035707
-0.125857 0.236793 -0.440682
-0.031378 0.209196 0.449953
0.197511 0.218737 -0.449753
0.194262 0.477643 -0.144647
-0.270455 0.457690 -0.199613
0.063312 0.286838 0.405207
-0.071843 0.373956 -0.331608
-0.159448 -0.466843 -0.174303
0.003911 -0.491026 0.077547
-0.120866 -0.031124 0.494830
0.096050 0.210799 -0.453665
0.035118 -0.365857 0.335065
-0.047236 0.064246 0.491773
0.075476 -0.413763 -0.278444
-0.087643 0.157928 -0.474607
-0.180520 0.125903 -0.484125
-0.158079 0.025853 0.495125
0.062635 0.342608 0.359797
0.168102 0.483024 0.121174
0.220907 -0.494829 -0.054370
0.188206 -0.313626 -0.388547
-0.175789 0.229940 -0.444233
0.276691 -0.401625 0.291650
0.157223 0.331985 0.369418
-0.065580 -0.353989 0.347639
0.001352 0.471765 -0.163639
-0.090572 -0.476868 0.139474
-0.106019 -0.490845 0.078595
0.108769 0.000752 0.495847
-0.160833 -0.495903 0.038739
-0.220646 0.222617 0.443622
0.210819 0.472750 -0.160681
-0.172556 0.438038 -0.239995
0.055440 0.495262 0.055697
0.115496 0.497717 -0.029682
0.240312 0.090997 0.487509
0.211159 -0.385387 -0.317098
0.082221 -0.214007 0.447226
-0.186080 -0.050506 0.493259
0.145563 0.481114 -0.133270
-0.282007 0.482122 0.124440
0.090836 -0.234158 -0.441359
0.187693 0.496999 0.035874
-0.106111 -0.492713 0.067744
-0.015167 0.443657 -0.229323
-0.140494 -0.159238 -0.474035
-0.201431 0.473827 0.152676
0.162866 0.403997 -0.294077
0.080804 0.251778 0.427817
0.074848 -0.277756 -0.415195
-0.161647 -0.211046 -0.453017
0.011899 -0.023816 0.495404
-0.157486 0.282827 -0.412460
-0.265423 0.498253 0.013265
0.255810 -0.280710 -0.413129
-0.003934 -0.088101 0.488007
-0.059335 0.460583 0.188293
0.011798 0.260285 0.422630
0.111033 0.470962 -0.165781
-0.202145 0.487691 0.100778
-0.115368 0.176770 0.463525
-0.153290 0.482726 0.122253
0.115475 0.428191 -0.257240
0.038906 0.475999 -0.150033
0.154767 0.468319 -0.172824
0.130506 -0.478626 -0.137746
-0.059523 -0.270835 0.415346
-0.128849 -0.243033 0.432163
0.036362 0.360244 0.342139
-0.271699 0.405520 -0.291900
-0.184815 0.049943 0.493319
-0.000927 -0.443222 0.223850
-0.002454 0.304558 -0.396544
0.192475 -0.167060 -0.471137
-0.268488 0.465244 -0.181018
0.202123 0.401884 0.292585
-0.169809 -0.282883 0.407393
-0.247432 -0.497227 -0.017668
-0.171138 0.140412 0.475738
0.195311 -0.225885 -0.445715
-0.267335 -0.488510 0.092158
0.084055 -0.497445 -0.005569
-0.049539 0.310547 -0.392026
-0.092386 -0.123884 0.480046
0.113089 -0.409714 0.280084
-0.206485 0.371016 0.330687
0.247605 0.170799 -0.470167
-0.194666 -0.384861 0.313211
-0.251701 0.345028 -0.361714
-0.160601 -0.401312 0.292098
0.087313 0.158001 -0.474582
0.033363 0.052126 -0.497565
0.007107 -0.472349 0.154285
0.083641 0.420680 -0.269559
0.248581 -0.249499 0.428455
0.274607 0.261769 -0.426360
-0.220028 0.498306 0.010302
0.120747 -0.494215 -0.060201
0.123959 0.417743 0.269614
-0.193447 -0.406943 -0.288775
0.159399 -0.440424 0.229164
0.198934 0.205272 -0.456290
-0.260101 -0.010569 -0.500118
0.074669 -0.235560 0.436448
-0.180988 -0.470571 0.159738
0.283294 0.308409 0.389170
0.175255 0.491233 -0.086648
-0.153496 -0.484073 0.112364
-0.049596 0.084725 0.488589
0.253266 -0.411571 -0.281765
-0.143912 0.237415 0.435831
0.233702 -0.422564 0.260434
0.162829 0.028986 -0.499439
-0.215161 0.254183 -0.430710
0.204085 -0.156592 -0.474842
-0.188777 0.160429 0.469630
-0.164923 -0.010354 0.495646
-0.126639 0.037111 -0.498781
0.214077 0.498283 0.011624
-0.048336 0.095873 0.486670
0.144665 0.244312 -0.436371
0.256590 -0.310926 -0.390700
-0.174278 0.358704 0.343721
0.046516 -0.296436 -0.402131
-0.012324 -0.115632 0.482239
0.072509 -0.236763 -0.439988
0.056098 -0.497214 -0.018409
-0.020955 -0.404090 -0.292656
-0.210334 0.053804 0.492901
0.022845 0.451712 -0.212934
0.069048 -0.149703 0.472737
0.174549 -0.381718 -0.321373
-0.209159 -0.110515 -0.487597
0.163409 0.438246 0.235451
-0.285166 -0.037895 -0.498863
-0.272073 -0.043386 -0.498270
0.214393 0.078280 -0.494048
0.085733 0.487951 -0.104710
0.041420 -0.497351 0.010661
0.147986 0.369229 -0.336826
-0.006112 0.098063 -0.490488
-0.252350 0.385158 -0.318478
-0.025049 -0.292493 0.400520
-0.244652 0.030195 0.494931
0.208219 -0.209363 -0.453772
-0.141783 -0.350254 0.351275
-0.229964 0.493700 -0.072321
0.283726 0.353753 -0.353220
0.138235 0.040954 0.494290
-0.141567 -0.496498 -0.033768
-0.084212 -0.493470 0.061254
0.061432 -0.226885 0.440880
-0.169520 0.498344 0.008228
-0.286086 0.328402 0.372663
-0.066448 -0.043212 0.493850
-0.112789 0.478629 0.137093
0.014973 0.473546 0.153488
0.211409 -0.484062 -0.117566
0.032445 -0.495584 -0.045042
-0.028295 -0.004484 -0.500286
-0.101734 0.284000 0.407192
-0.231185 -0.397006 0.297981
0.199486 0.402779 -0.295819
-0.226772 0.446963 0.218333
0.091647 -0.049605 -0.497598
-0.048491 -0.490824 0.078719
-0.047908 0.399674 -0.300258
-0.222265 0.485308 0.112155
-0.023715 0.404536 0.289069
-0.288594 -0.280839 0.408742
-0.206284 -0.481036 -0.129016
-0.141840 0.400880 -0.298534
-0.070463 0.049056 0.493415
-0.125224 0.450785 -0.214999
-0.151229 -0.202823 -0.456707
0.037995 -0.054445 0.492940
0.092762 0.089229 -0.492338
0.284685 0.440421 -0.235468
-0.288991 -0.174094 0.464324
0.049483 0.352055 0.350551
0.252988 0.401004 0.293752
-0.129559 -0.144939 0.474234
-0.019183 0.428794 0.251933
0.281010 -0.346972 0.354470
-0.089029 -0.067282 -0.495688
0.164189 0.330895 -0.374809
-0.063973 -0.200079 -0.457938
0.061220 0.394455 0.302432
0.177342 0.478126 -0.143064
-0.077152 0.313707 -0.389557
-0.159499 0.271668 -0.419826
-0.035654 -0.494637 0.050454
-0.286935 -0.259306 -0.426956
-0.072501 0.398527 0.297035
-0.249270 -0.386418 0.311259
-0.022210 0.467504 0.171005
-0.006709 0.229416 0.440042
-0.251455 -0.354513 0.347128
-0.249465 -0.490102 0.082911
-0.200247 0.257312 0.424443
0.199706 -0.363082 0.338128
0.273333 -0.491136 0.076909
0.066654 -0.023949 -0.499518
-0.009467 -0.384443 -0.318197
-0.144365 0.086370 -0.492878
0.215382 0.482201 -0.128906
0.098752 0.484695 0.115079
0.020845 -0.122058 0.480550
-0.170192 0.027235 0.495063
-0.035597 0.393036 -0.308598
0.037427 -0.462646 -0.185240
-0.057482 -0.298800 -0.400369
-0.178330 -0.059083 0.492323
-0.020535 -0.462482 0.181294
-0.096415 0.264255 0.420210
0.269502 0.476049 0.146234
0.125410 0.306909 -0.394770
0.055883 -0.053582 0.493010
0.217786 0.254254 0.426307
0.101290 -0.367960 0.332743
0.095002 -0.487860 0.095934
0.273241 -0.102801 0.484927
0.076706 0.321055 -0.383252
-0.064282 -0.302101 0.393271
0.073985 0.039240 -0.498609
-0.160151 0.371408 -0.334421
-0.110344 0.299463 0.396304
0.011794 0.428870 0.251800
0.155101 -0.114560 0.482464
0.081378 0.421284 0.264250
-0.103844 0.476896 0.143373
0.014356 0.434313 0.242309
-0.058606 0.422168 0.262912
0.039188 -0.040510 -0.498581
0.284403 0.497721 -0.029609
0.016107 -0.457827 0.192670
0.035983 -0.496494 -0.033817
0.120972 -0.015864 0.495547
0.230528 -0.411298 0.277820
-0.137310 -0.248657 -0.433448
-0.279238 0.498353 0.007722
0.188335 0.178192 0.462991
0.148704 -0.381908 0.316915
-0.046626 -0.497313 -0.012908
-0.087655 -0.180101 -0.466243
-0.286489 -0.268012 -0.421648
-0.026915 0.496427 0.042942
0.242553 0.498505 -0.000708
0.072591 -0.165083 0.467432
0.208328 -0.393288 0.302643
-0.274298 0.485469 0.111384
0.221050 0.490237 0.088629
-0.029135 -0.080040 -0.493572
0.064407 0.489733 -0.095360
0.199698 0.334920 0.366760
0.086902 -0.492385 -0.072854
-0.102577 0.493213 0.069859
-0.149470 -0.090953 0.487409
-0.042339 0.481287 0.127466
0.066646 -0.449185 -0.216097
0.071994 0.416243 0.271886
-0.253138 -0.299151 0.395497
0.229242 -0.486019 0.104177
-0.273193 0.420598 -0.269694
-0.237914 -0.382775 0.315827
-0.176234 -0.190605 -0.462189
0.245861 0.412880 -0.281376
0.139276 -0.026434 0.495210
0.141617 -0.497133 0.015511
-0.272714 -0.428578 -0.254876
-0.014995 -0.147371 0.473542
-0.124350 0.436825 -0.242298
-0.046963 -0.492894 0.066586
-0.198165 -0.448327 0.213840
0.017189 -0.470720 0.159340
0.235197 0.434081 0.242714
-0.003496 -0.023631 -0.499533
-0.152920 -0.280103 0.409228
-0.067791 -0.493927 0.057024
-0.043851 -0.468915 0.164149
0.173253 -0.355353 -0.350463
-0.288194 -0.497544 0.006350
-0.165552 -0.471061 -0.162076
0.135527 0.122381 0.480667
-0.249284 0.498549 -0.003138
-0.087979 -0.237903 -0.439387
0.195832 -0.329663 -0.374946
-0.069052 0.158500 -0.474409
-0.286768 -0.402697 0.290117
0.286793 0.467940 0.169741
0.226322 -0.495726 -0.043292
0.140270 0.301226 -0.399058
0.171392 0.042048 -0.498381
-0.092030 -0.412611 0.275942
0.050046 -0.289307 0.402923
-0.257456 0.285406 0.406208
-0.163680 -0.388478 0.308675
-0.119952 -0.468665 0.164816
0.146579 -0.368639 -0.336616
0.089786 0.058636 0.492379
-0.201791 -0.226780 -0.445244
-0.095218 0.407672 -0.288822
0.109410 -0.441138 -0.232428
-0.156586 0.256692 0.424821
-0.041573 -0.170934 -0.469683
0.072514 0.157149 0.470631
-0.102240 0.236770 -0.440696
-0.090457 0.454867 0.202003
0.099377 0.451115 -0.214263
0.156572 0.247473 -0.434558
0.052273 -0.156606 -0.474838
0.243544 -0.212046 0.448192
-0.092093 -0.386802 0.310778
0.127271 0.474808 0.149831
-0.224028 0.451994 -0.212304
0.147929 0.023677 0.495223
-0.287053 -0.245111 0.430971
0.066143 0.060278 -0.496652
-0.289252 -0.495436 0.043064
0.196667 -0.355397 0.346268
-0.250649 0.329736 -0.375804
0.113221 -0.380338 -0.322982
0.190559 -0.496977 0.018983
0.120401 -0.397137 -0.301872
0.090295 -0.154376 0.471125
-0.007480 0.359424 0.342981
0.146343 0.225740 -0.446302
-0.074600 0.033926 -0.499039
-0.200336 0.141331 -0.479866
0.142209 -0.273313 -0.418303
-0.110252 -0.354784 0.346865
0.174916 -0.121400 0.480731
-0.253795 -0.496664 -0.031716
0.235529 0.426389 0.256126
-0.208539 0.477088 0.142677
-0.112025 -0.368169 -0.337164
0.028296 0.498302 0.010538
-0.090956 0.478018 0.139307
0.111444 -0.252899 -0.430862
0.094199 0.044664 -0.498169
-0.218445 -0.308076 0.388763
-0.036191 -0.497159 0.014923
0.182899 0.231439 0.438977
-0.069767 -0.469532 0.162506
0.077617 0.287531 0.404722
-0.243857 -0.186920 0.459160
0.145315 0.446741 -0.223466
0.127650 -0.296776 0.397289
-0.281549 0.147599 -0.478136
-0.096535 0.246930 0.430772
-0.087229 -0.366668 -0.338841
-0.149828 0.153600 -0.476100
-0.139054 0.313327 0.385249
-0.035401 -0.066852 0.491200
0.001541 -0.149101 -0.477128
-0.049346 0.355743 -0.351282
0.068018 -0.048743 0.493402
-0.084104 -0.066650 0.491229
0.052955 -0.078133 0.489568
0.226941 0.455074 0.201506
0.140299 0.486353 0.107167
-0.129473 -0.404378 -0.292274
0.251689 0.435083 0.240966
-0.128092 0.387539 0.311431
-0.060986 0.451769 -0.212807
0.284261 -0.337342 0.363845
-0.211287 -0.021499 0.495446
0.160057 -0.480439 0.127658
-0.167360 -0.347571 0.353887
-0.161722 -0.360994 0.340434
-0.122420 -0.484627 -0.114870
0.253509 0.482380 -0.128155
-0.012946 0.417351 0.270207
0.188813 -0.474542 -0.151986
0.242013 0.249398 0.429267
-0.192482 0.003138 0.495890
-0.039164 -0.374173 -0.330167
-0.003639 0.068291 0.491336
0.136064 0.368636 -0.337482
0.284787 -0.294900 -0.403205
0.280412 0.192865 0.457282
-0.077241 -0.256146 -0.428882
-0.213776 0.150199 0.472752
-0.059991 0.447165 -0.222661
-0.278976 -0.286931 0.404716
0.023289 -0.278155 0.410514
-0.250176 0.491929 0.078732
-0.222879 0.082537 0.488965
-0.133283 -0.334251 -0.370790
-0.201101 0.353285 -0.353676
0.158296 -0.147764 -0.477535
0.068258 0.365079 -0.341409
-0.244802 0.487134 -0.108148
0.189602 0.498618 -0.006988
0.040783 0.457170 0.196481
-0.272628 -0.092957 0.486989
-0.151020 0.439525 0.233220
-0.205793 0.186505 -0.464114
-0.199361 0.363882 0.338402
0.248432 0.039931 0.494401
-0.005705 -0.011764 0.495621
0.067248 -0.454225 -0.205438
-0.242362 -0.134029 0.477245
0.149928 0.436477 0.238534
-0.174367 0.186549 0.459855
0.052327 0.486254 0.107639
-0.041762 0.106103 0.484536
-0.157713 -0.064981 0.491470
-0.182505 -0.105747 0.484310
-0.129945 -0.495659 -0.044123
0.225770 0.482264 0.123927
0.040647 -0.459257 0.189483
-0.179561 -0.333541 0.367306
-0.041191 -0.262755 -0.424853
-0.070036 0.005271 0.495928
-0.123770 0.024794 -0.499758
0.048762 0.360868 0.341498
-0.109778 -0.260823 0.421956
0.148632 -0.476143 -0.146741
0.047765 0.497748 0.026632
0.225101 -0.431905 -0.249074
0.124094 0.210198 0.449504
-0.241789 -0.430010 -0.252378
-0.009174 -0.176643 0.463444
0.102052 0.231323 0.439038
0.136521 0.320324 0.379670
-0.142555 0.434175 0.242550
-0.231006 -0.447744 -0.219022
-0.068160 0.498099 -0.021182
-0.118514 -0.347271 -0.358765
-0.165843 0.485454 -0.115218
-0.205863 -0.217376 -0.450176
-0.161853 0.360652 0.341720
0.103218 0.396553 -0.304187
-0.041030 0.274095 -0.418224
-0.102904 0.387008 0.312050
0.237686 -0.423115 -0.264278
-0.284249 0.463932 -0.184514
-0.248866 0.143610 0.474762
-0.136089 0.391342 0.306558
0.225512 -0.355102 -0.350721
0.133519 -0.486539 0.101989
0.175470 -0.465372 -0.178568
0.129703 -0.187074 0.459096
0.069565 -0.181363 0.461477
0.246996 0.013810 0.495666
0.081529 -0.307811 -0.393184
0.263962 0.465483 -0.180381
0.045668 0.121033 0.480988
-0.199718 0.246941 0.430765
-0.192280 0.427924 0.253450
-0.109648 0.127685 -0.483633
0.157339 -0.222881 -0.447297
-0.140635 -0.123702 0.480096
0.071824 0.225716 0.441990
-0.287779 0.414993 -0.278354
-0.254442 0.202361 -0.457504
-0.219366 -0.220524 -0.448538
0.115183 -0.228879 -0.444139
-0.125301 0.102099 0.485487
0.286094 0.476631 0.144332
0.255124 0.067964 0.491371
0.177143 -0.496853 -0.029383
-0.058519 -0.475704 0.143288
0.178488 0.409430 -0.286309
-0.226459 -0.497456 -0.004996
0.142810 0.430175 -0.253985
-0.162432 0.435592 -0.244640
-0.146184 0.050345 0.493275
0.214726 0.424136 -0.263891
-0.021035 -0.486319 0.102915
-0.020559 -0.066806 -0.495739
-0.147038 0.282562 -0.412635
-0.173495 0.231129 0.439141
-0.269502 0.498164 -0.019714
0.091676 0.128616 0.479186
-0.277135 -0.473282 0.151226
-0.153704 0.193362 0.457058
-0.173339 0.459096 0.191861
-0.126645 -0.309235 0.387889
0.230191 0.330025 0.371193
-0.007849 -0.493000 -0.068598
0.021029 -0.485807 -0.109235
-0.209540 -0.307659 -0.393304
0.047783 0.030661 0.494910
0.272502 0.134425 0.477565
-0.213953 -0.079703 -0.493630
-0.159243 0.384425 -0.319397
0.103127 0.489479 0.092244
0.100567 -0.437296 -0.239673
0.039880 0.491384 -0.085770
-0.196463 -0.479026 -0.136296
-0.196017 -0.461085 -0.188985
-0.179639 -0.109124 -0.487928
-0.145172 0.266956 -0.422937
0.149488 0.462208 0.184396
0.090192 0.326863 0.374057
-0.086459 -0.417134 -0.273338
0.033062 0.202834 -0.457306
-0.261679 0.498488 -0.012504
0.022988 -0.288296 0.403686
0.168233 0.259636 0.423026
0.046790 0.439031 -0.238108
-0.252383 0.373871 0.327360
-0.042790 -0.496369 0.032542
-0.185537 -0.358255 -0.347483
-0.094497 -0.305187 -0.395276
-0.236416 -0.332807 -0.372099
-0.060792 -0.090579 -0.491758
-0.249682 0.498162 0.018328
-0.002334 0.419087 0.267578
-0.083655 0.223297 -0.447506
0.153444 0.146596 0.473851
0.088182 0.491541 0.081413
-0.272351 -0.409771 -0.284491
0.193670 0.338999 -0.367583
-0.115319 -0.162698 0.468255
-0.125465 -0.299106 -0.400124
0.165209 -0.435477 0.238558
-0.020914 0.026891 -0.499609
-0.156721 0.040732 -0.498488
0.109125 0.497042 -0.042039
-0.089507 -0.011910 0.495618
0.101736 0.294986 0.399508
-0.064750 0.130326 -0.482904
-0.236821 0.484646 -0.118620
0.167856 0.082166 0.489029
-0.251616 0.118047 0.481697
-0.235811 0.322965 0.377564
0.275617 -0.345401 -0.360686
-0.275202 0.339171 0.362910
0.173462 -0.454897 -0.203827
0.252839 0.470676 0.161808
-0.128052 0.494264 0.062597
-0.104070 0.045768 -0.498080
0.246036 0.400475 -0.299113
0.124744 0.318268 0.381309
-0.036721 0.072099 -0.494942
-0.087287 -0.497500 -0.002539
-0.257900 -0.257571 -0.428014
-0.241239 -0.495628 0.041286
0.004323 -0.492956 -0.068906
-0.285313 0.438237 0.235467
0.249509 0.495714 0.051735
0.210542 0.299525 -0.400341
0.065383 -0.377270 0.322463
0.153162 0.338977 -0.367605
0.125675 0.187391 -0.463745
-0.065429 -0.102603 0.484969
0.286755 0.482460 0.123214
-0.050927 -0.208108 -0.454335
-0.154417 0.358945 -0.348165
0.273840 0.361145 0.341214
0.024676 0.185445 0.460269
-0.178330 -0.250573 0.427839
0.202845 0.365708 0.336527
0.123849 -0.362927 0.338300
-0.170953 -0.292314 0.400655
0.075603 -0.138473 0.476019
-0.011457 0.194827 -0.460644
0.187476 -0.497384 -0.008953
-0.127431 -0.434228 -0.245024
-0.210645 -0.394890 0.300634
-0.258236 -0.296999 -0.401737
-0.167883 -0.448413 -0.217663
0.087057 -0.098180 -0.490449
-0.197680 0.418801 -0.272642
0.199198 0.170251 0.465971
0.058360 -0.084899 -0.492736
-0.056503 -0.497410 -0.007525
-0.021240 0.103237 -0.489404
0.219504 -0.496576 -0.032799
0.275225 -0.320918 0.378137
-0.032831 0.108466 -0.488309
-0.191719 0.003944 -0.500134
0.246467 0.449475 0.213234
-0.249892 -0.327929 -0.376517
-0.017226 -0.069400 0.490831
-0.153146 0.404454 -0.293424
0.061878 -0.428620 0.250501
-0.075360 0.279927 -0.414374
0.052251 0.442729 0.226926
-0.083242 0.494633 -0.064325
-0.029746 -0.497355 -0.010589
-0.108093 0.245302 0.431678
0.066582 -0.490266 0.081962
-0.076564 0.486573 -0.110509
-0.129095 -0.459523 0.188889
0.230393 -0.493811 -0.062995
0.061662 0.167299 0.467078
0.048793 0.494801 -0.062778
-0.061175 0.476061 0.146200
-0.275248 -0.477641 -0.141313
0.184190 -0.296693 0.397351
-0.201416 0.321252 0.378930
-0.015175 0.471719 -0.163763
-0.045008 0.220989 -0.448643
0.121179 0.162383 -0.473070
-0.139657 -0.401063 0.292454
-0.170124 0.222004 -0.448144
0.252407 0.248043 0.430094
-0.043071 0.211485 0.448926
0.109417 0.162412 -0.473060
-0.179119 -0.257329 -0.428161
-0.289799 -0.469040 -0.167933
-0.127526 -0.015788 0.495549
-0.056102 0.492496 0.074812
0.132317 0.492013 0.078151
0.169105 -0.154692 -0.475422
0.175808 -0.070966 -0.495134
-0.109395 -0.247660 -0.434056
0.028846 0.307194 0.390140
-0.170089 -0.406956 -0.288755
-0.055808 0.216934 0.446481
0.062535 -0.487285 0.098847
-0.088111 -0.444155 -0.226304
0.163562 0.017969 -0.499881
0.131285 0.498163 0.018268
-0.143065 -0.367740 -0.337663
-0.139047 0.041671 0.494213
0.265515 0.462207 0.184398
0.014842 0.057519 0.492500
0.263274 -0.388395 -0.313460
-0.209698 -0.157018 -0.474712
0.188364 0.474767 -0.154072
0.015532 0.484013 0.117588
0.092788 -0.465085 -0.179390
0.258724 -0.435517 0.238482
-0.003644 -0.437893 0.233970
0.239339 -0.416377 0.270557
-0.232956 -0.153751 -0.475709
-0.004273 -0.318969 -0.384286
0.204482 0.454690 -0.206298
-0.232749 0.048057 -0.497894
0.053184 0.422503 0.262404
0.124411 0.051884 -0.497584
-0.132982 0.380389 0.319764
0.109149 -0.168096 0.466392
-0.222918 -0.297703 0.396589
0.079840 0.345477 -0.361277
-0.002953 -0.496404 0.031763
-0.090820 -0.424256 -0.262413
-0.167632 0.018381 -0.499874
0.157568 -0.497130 -0.023101
-0.057524 -0.469333 0.163037
0.087416 -0.261541 0.421482
-0.156985 0.461083 -0.192051
0.098418 -0.399064 -0.299317
-0.102702 -0.496873 -0.029139
-0.077975 0.459297 -0.196032
-0.098003 -0.466677 -0.174785
0.210206 -0.408020 0.282506
0.181107 0.421439 -0.268315
-0.009422 -0.424335 -0.262276
-0.253884 0.130096 -0.482967
-0.000827 0.496197 -0.049854
0.055754 -0.311494 0.386185
-0.032802 0.413450 -0.280561
-0.006420 0.263536 0.420649
0.044361 -0.437228 -0.239791
0.005669 0.217394 0.446274
0.029961 0.468222 0.168924
-0.289434 -0.425864 -0.259608
0.067441 -0.343864 0.357496
-0.139452 0.153194 0.471838
-0.159669 0.243310 -0.436945
0.246663 0.364788 -0.341730
-0.178859 -0.168324 -0.470663
0.175969 0.267922 0.417975
-0.106429 0.494300 -0.067414
0.013123 0.441077 0.230277
0.166720 0.299972 -0.400004
0.060445 0.441325 -0.233752
0.052290 0.266179 -0.423450
-0.079858 0.465496 -0.180347
0.225331 -0.184040 0.460361
0.237585 0.205319 0.451693
-0.157195 -0.486807 0.100859
-0.241177 0.113577 0.482760
-0.147472 0.102334 0.485431
0.128595 -0.052670 0.493084
-0.171581 -0.434064 -0.245310
-0.095751 -0.493213 -0.067125
-0.206060 -0.320422 0.378563
0.262557 0.472630 0.156146
-0.225659 0.318728 0.380943
0.285656 -0.276401 -0.416143
0.273971 -0.453679 0.201913
0.284249 0.489824 -0.094836
-0.219568 -0.130920 -0.482675
-0.010603 0.495651 0.052518
0.038998 0.432776 0.244989
-0.241837 0.440564 -0.235196
0.203439 -0.289737 -0.406816
-0.015339 0.232643 -0.442901
-0.001513 -0.449740 -0.214971
0.003126 0.179685 0.462431
-0.169095 -0.376121 -0.327896
-0.008302 0.218283 0.445875
-0.162651 0.205703 0.451521
-0.076989 0.367456 0.334732
-0.260620 -0.368990 -0.336207
0.271291 0.473694 -0.157589
0.240041 -0.053155 0.493045
0.095968 0.030812 -0.499292
0.030849 -0.416511 0.270364
-0.154238 0.456493 -0.202280
0.002074 -0.480543 -0.130800
0.187547 -0.494974 -0.052581
-0.056840 -0.378645 -0.324955
-0.094233 0.291018 0.402284
-0.029590 -0.430061 -0.252291
0.191417 0.057518 0.492500
0.069302 -0.109787 0.483464
-0.130220 -0.497215 -0.018383
0.016537 -0.426749 0.253569
-0.170300 0.179180 -0.467168
0.197799 -0.497225 -0.017818
0.046553 -0.016025 0.495544
0.157418 0.417228 -0.275159
-0.225677 -0.497277 0.012299
-0.230984 -0.283002 0.407314
0.155567 -0.493102 0.064659
-0.049573 0.288272 0.404204
-0.287407 0.139276 -0.480433
-0.046479 -0.326483 0.373362
-0.126366 0.196433 -0.459975
-0.238208 0.105662 -0.488896
0.050936 -0.077239 -0.494054
-0.233118 0.484827 0.114453
0.013304 -0.048741 0.493402
0.025421 -0.245323 0.430850
0.159334 -0.478451 -0.138381
0.277323 -0.485686 -0.109812
-0.070403 -0.394166 0.301542
0.273878 0.251886 -0.432027
0.009450 -0.160929 0.468865
0.262659 -0.493962 0.056701
-0.224970 0.248924 0.429557
-0.019778 -0.425425 -0.260374
-0.202491 -0.139183 0.475823
0.164323 0.475489 -0.151707
-0.193442 -0.493416 0.061754
-0.049769 -0.482919 -0.122192
0.106146 0.058235 0.492423
-0.136633 0.128443 -0.483424
-0.232757 0.413294 -0.280784
0.125710 0.175184 -0.468654
0.212344 0.420075 0.266082
0.193845 0.372665 0.328765
0.167153 0.497948 0.024165
-0.104110 -0.130848 0.478123
-0.084935 -0.137851 -0.480560
0.053571 -0.475698 -0.148352
0.258056 0.179749 0.462407
0.017181 -0.459411 -0.193001
-0.230819 0.294935 0.399544
0.047286 -0.368816 0.331798
-0.014929 0.192720 0.457347
0.267264 -0.482909 -0.122230
0.123979 -0.418116 0.267731
0.286126 -0.253631 0.426086
-0.156590 -0.119341 0.481300
-0.188277 -0.426077 -0.259237
0.226510 -0.090577 0.487488
-0.236517 0.264336 -0.424667
-0.191694 -0.457510 -0.197560
0.129662 -0.495768 0.039987
0.161853 0.419915 0.266324
-0.159713 0.307483 -0.394338
-0.287978 -0.466206 0.171370
-0.067949 0.186532 -0.464103
-0.021942 -0.382852 0.315731
0.026123 -0.257800 -0.427874
-0.289369 -0.372836 0.327360
0.181042 -0.350735 -0.355207
-0.034624 -0.489252 0.087853
-0.119772 -0.494164 -0.060557
-0.121200 -0.475132 0.145164
-0.124282 -0.496342 -0.035686
0.220922 -0.438621 -0.237362
0.069636 0.497857 0.025285
-0.238221 0.256713 0.424808
-0.235361 0.215241 -0.451476
-0.094356 -0.419302 0.265786
-0.249478 -0.255574 0.424972
-0.199584 0.497355 -0.037765
0.277478 -0.194941 0.455816
-0.212674 -0.357253 0.344462
0.023097 0.489158 -0.098705
-0.105401 -0.450525 -0.213378
0.119156 0.498507 -0.012075
0.096669 -0.414529 0.273199
-0.033002 -0.069082 -0.495459
0.215466 0.117154 0.481910
0.125152 -0.316983 -0.385870
-0.059572 -0.424994 0.256449
-0.284362 -0.074962 0.490026
-0.287203 0.431497 0.247220
0.031425 -0.495391 0.043479
0.160040 0.200353 0.453922
0.090917 -0.110096 -0.487697
0.236143 0.322342 0.378060
-0.193024 -0.082587 0.488923
0.271070 -0.163827 0.467865
-0.176997 0.113536 0.482769
0.134856 -0.034515 -0.499044
-0.249489 0.466437 -0.177838
-0.119659 0.456670 0.197678
-0.157560 -0.086821 -0.492405
0.080268 0.072929 -0.494822
-0.277508 0.113538 0.482769
-0.090186 -0.041245 0.494010
0.030574 -0.288389 -0.407759
-0.123719 -0.464508 0.175895
-0.066162 0.312385 -0.390639
0.244473 0.096823 -0.490748
-0.277364 -0.052045 0.493135
-0.069027 0.302619 0.393787
-0.198571 -0.422733 -0.264856
0.073095 -0.485057 0.108223
0.155844 0.057590 -0.497041
0.082792 0.318906 0.380801
-0.017932 0.494128 0.063534
-0.205214 -0.426350 0.254224
-0.030635 0.181665 -0.466132
0.221081 -0.286643 -0.408980
0.027538 0.232715 -0.442865
0.219586 0.233569 -0.442444
-0.017958 0.065451 0.491643
-0.063915 0.493824 0.065635
0.045780 0.312279 0.386084
-0.177050 -0.316230 -0.386470
-0.225876 -0.496640 -0.032008
0.086916 0.241443 0.433710
0.245341 0.015854 -0.499919
0.222297 0.442309 -0.231882
-0.114759 -0.495618 0.041381
-0.195682 -0.154267 0.471163
0.061787 0.486886 -0.109192
0.190318 0.022918 0.495257
0.180054 -0.412478 0.276132
-0.028222 -0.053960 0.492980
-0.263418 0.328993 -0.376441
0.063628 0.299359 -0.400467
-0.257253 0.377572 -0.327616
-0.090145 0.415692 -0.277354
-0.095887 0.335416 0.366311
-0.178175 -0.125280 -0.484088
0.194621 -0.445527 0.219471
-0.141255 0.178629 0.462827
0.080680 -0.227253 -0.444995
0.156046 -0.225621 0.441502
0.014048 -0.044610 -0.498138
-0.065666 0.424256 -0.263694
0.054871 -0.133709 -0.481824
0.005092 0.467435 -0.175178
-0.167011 -0.400776 -0.297048
0.175642 -0.370235 0.330231
-0.137030 -0.417536 -0.272730
0.233634 0.498146 0.019222
-0.157273 -0.473388 -0.155329
0.055121 0.328496 -0.376868
0.021769 -0.408069 -0.287069
0.091788 -0.363048 0.338167
0.166871 -0.216409 -0.450610
0.158683 -0.355384 0.346281
-0.135074 -0.055802 0.492798
0.113415 0.304882 -0.396300
-0.251245 -0.492888 -0.069377
0.028238 -0.202422 0.452697
-0.174221 -0.156102 -0.474992
-0.117410 0.346574 -0.360209
-0.208987 -0.496343 -0.035674
0.186686 -0.418271 0.267477
0.013203 0.454431 0.203049
-0.129111 0.497696 0.027274
-0.190486 0.228715 0.440411
-0.131455 0.423159 -0.265493
0.119240 -0.439590 -0.235569
-0.159458 -0.352426 0.349160
-0.073869 -0.167940 -0.470807
-0.000532 0.498099 -0.021165
0.062473 0.232318 0.438515
-0.229073 0.458614 0.193016
-0.239321 -0.483700 0.113935
-0.174398 -0.081095 -0.493391
-0.219388 -0.239031 -0.438793
-0.047169 0.435464 0.240301
-0.250924 0.051361 -0.497627
0.187967 0.467420 -0.175220
0.263436 0.420095 -0.270520
-0.037506 -0.279713 0.409485
-0.193363 0.226998 -0.445683
0.239098 0.467348 -0.175411
-0.208863 0.490462 -0.091128
-0.232203 0.352065 -0.354863
-0.082637 0.302045 0.394245
-0.217016 0.001672 -0.500175
0.097512 0.202328 0.453035
0.217010 0.003915 -0.500134
0.199448 -0.017732 0.495514
0.000055 -0.495593 -0.044938
-0.038652 -0.408080 0.282421
0.082530 -0.318008 -0.385052
0.216306 -0.495636 0.041211
-0.266550 0.394586 0.302258
0.167466 -0.030000 -0.499247
-0.061777 -0.485322 -0.111550
-0.017397 0.128449 0.479225
0.279203 0.202803 0.452822
-0.116101 -0.442396 -0.229875
-0.056165 -0.357856 0.343874
-0.058190 0.304993 0.391895
0.041188 0.132455 0.478166
-0.153841 -0.239456 0.434214
-0.129813 0.344279 -0.362443
0.212327 -0.112935 -0.487022
0.202595 -0.095833 0.486387
0.139292 0.498075 -0.021699
0.053849 -0.494570 -0.057566
-0.009144 0.308993 0.388705
0.009086 0.418039 -0.273891
-0.265056 -0.492681 -0.070806
-0.005017 0.482973 0.121357
-0.212069 -0.031505 -0.499179
0.196081 0.351928 0.350681
0.126650 -0.347500 -0.358531
-0.121875 0.260761 -0.426938
0.057403 -0.389720 0.307118
0.037817 -0.424442 -0.262088
-0.026734 0.498152 0.018879
0.226146 -0.075827 0.489901
0.033196 -0.164506 -0.472095
0.168885 -0.494518 0.051559
-0.148732 0.491152 0.084108
0.164166 -0.445612 0.219309
0.012869 0.130878 0.478647
-0.177234 -0.031217 0.494822
-0.026779 -0.164285 0.467707
0.250334 -0.497130 -0.023096
0.283824 0.241047 0.433918
-0.159106 -0.306118 -0.394534
-0.037218 -0.238391 0.434825
-0.254143 -0.217987 0.445264
0.278431 0.421226 -0.268664
0.023497 -0.485885 0.104741
-0.184671 0.498629 -0.007617
0.237276 -0.431134 -0.250418
0.026047 -0.365450 -0.340093
-0.128814 0.490067 0.089438
-0.070657 -0.069913 0.490757
0.168971 0.492093 0.077598
-0.107578 -0.045990 -0.497989
-0.003066 0.494334 0.062111
-0.247294 0.495536 -0.055973
-0.249515 0.453145 -0.209741
-0.265479 -0.415926 -0.275168
0.249693 -0.098114 0.485909
-0.208951 -0.194326 0.456073
0.008629 0.436441 -0.243028
0.115544 0.495112 0.056734
0.121221 0.487988 -0.104558
0.004976 -0.232795 0.437968
-0.175072 0.490187 0.088866
0.013236 0.329918 -0.375647
0.087158 -0.496525 0.029056
0.196542 0.430452 0.249042
-0.158774 -0.006220 -0.500313
0.226168 -0.362920 0.338308
0.045555 0.254056 0.426428
-0.184136 0.465294 -0.180885
0.233738 -0.497542 -0.000209
-0.119103 -0.303576 0.392159
0.272563 0.174023 -0.469055
0.104108 -0.417397 -0.272939
0.025666 0.495736 0.051471
-0.224757 -0.333048 -0.371880
0.241487 0.267712 0.418103
0.239534 0.401668 0.292871
0.176923 -0.378445 0.321167
-0.230438 0.444360 -0.227987
0.155653 -0.469760 0.161898
-0.126853 0.430608 0.248770
0.092926 -0.025383 -0.499454
0.111962 -0.497217 0.013643
0.060387 0.356988 0.345484
-0.080920 0.496082 -0.050922
-0.044369 -0.430343 -0.251798
0.154760 0.180619 -0.466568
0.025500 -0.494173 -0.060493
-0.254269 0.414479 -0.279089
-0.025633 0.138152 -0.480743
0.171274 -0.414674 -0.277065
0.098511 0.464814 -0.182165
-0.254805 -0.439099 -0.236528
0.140912 0.497878 0.025032
0.237069 0.496106 0.046904
-0.281232 -0.432728 -0.247639
0.244953 -0.304165 -0.396090
0.087696 -0.413512 -0.278824
-0.091180 -0.330733 0.369715
0.119891 -0.477017 -0.143574
-0.197208 0.143118 0.474912
-0.257453 0.300872 -0.399325
0.236009 0.496840 -0.043910
-0.097591 -0.475251 -0.149929
-0.081474 0.493879 0.065257
-0.066580 -0.118159 -0.485781
-0.222207 0.345095 -0.361649
0.271078 0.496275 -0.049133
-0.172518 -0.494238 -0.060041
-0.147257 0.494299 -0.067423
-0.139354 -0.467045 0.169134
-0.044962 -0.367476 0.333277
-0.096810 0.069267 0.491230
0.155067 -0.272348 0.414348
-0.134977 0.006025 -0.500096
0.170342 0.125306 -0.484290
-0.019197 0.320888 -0.383395
-0.005854 0.496944 0.036550
0.271781 -0.381473 0.317460
0.207656 0.489924 0.090119
0.141081 0.458710 -0.197339
-0.178367 0.492175 0.077032
0.281628 -0.040458 0.494074
-0.000417 -0.345833 -0.360243
-0.124964 0.159296 0.469976
-0.171089 0.322341 0.378061
-0.273600 -0.057646 -0.496729
0.142276 0.183811 -0.465237
0.108452 0.493256 -0.074900
-0.146241 -0.485620 -0.110127
0.238989 -0.482222 -0.124720
0.030761 0.397828 -0.302588
0.064415 -0.244890 -0.435709
-0.276224 0.126294 0.479737
-0.041138 -0.465492 -0.178219
-0.218654 0.312290 0.386076
-0.062623 -0.246118 0.430394
0.016163 -0.496624 0.026860
-0.214113 -0.465747 -0.177481
-0.027531 -0.037491 0.494314
-0.235548 0.124163 0.480244
0.000902 -0.058037 -0.496687
0.118711 -0.155254 -0.475250
0.143230 -0.471961 -0.159468
-0.158964 -0.407177 -0.288419
-0.233445 -0.453316 0.202722
-0.166532 -0.477912 -0.140333
0.060161 0.495893 -0.052668
0.034481 0.001777 -0.500173
-0.217281 -0.430610 0.247237
0.154901 -0.176890 0.463342
0.054616 -0.496854 0.021741
0.072845 0.409598 0.281952
0.118562 -0.495869 -0.041528
-0.233153 0.178724 0.462791
0.179443 -0.039846 0.494123
0.011071 0.497739 0.026749
0.006950 -0.437379 0.234946
-0.077549 -0.019123 0.495488
-0.191674 -0.245532 -0.435353
-0.205713 -0.244404 -0.435965
-0.132255 -0.343500 -0.362414
0.257205 -0.441798 0.226554
0.080711 -0.342907 0.358428
0.142858 -0.229040 0.439818
0.013131 0.106750 -0.488668
-0.050415 -0.137659 0.476243
0.245162 -0.067579 -0.495655
0.263281 0.480784 -0.134351
0.126188 -0.237888 -0.439395
0.181022 0.133680 -0.481978
-0.006523 -0.197832 -0.458946
-0.072331 -0.247459 -0.434178
-0.015551 0.411308 0.279362
-0.074266 0.494983 0.057625
-0.289305 -0.304414 0.391527
0.028057 0.497713 -0.029771
0.068287 -0.088551 0.487913
0.181245 -0.471470 0.157165
-0.019769 -0.328118 -0.376345
0.125068 0.027904 0.495033
-0.284183 0.494215 -0.068201
0.180245 -0.087058 -0.492364
-0.256074 -0.059520 0.492260
-0.289867 0.045880 -0.498071
-0.200041 -0.244331 0.431419
-0.143455 0.022832 0.495261
-0.023488 -0.089855 0.487639
-0.200708 -0.497101 -0.024692
0.074363 -0.006796 -0.500288
0.193657 -0.424142 -0.262611
0.129716 -0.223618 0.442490
0.054873 0.326131 0.374720
0.286613 -0.406222 -0.289830
-0.034396 0.496437 -0.047639
-0.267748 0.381389 -0.323205
-0.247156 -0.412308 0.276375
0.284660 -0.455261 0.198387
0.140602 0.150153 0.472766
-0.168860 0.042993 0.494070
-0.004303 -0.217087 0.445708
-0.035341 0.487691 0.100782
0.253636 0.458995 -0.196703
0.228268 -0.052048 0.493135
0.234344 0.416859 -0.275686
0.197953 -0.208539 -0.454141
-0.131820 -0.456140 -0.200847
-0.188980 0.486317 0.107339
0.157294 0.480172 -0.136359
-0.252547 0.479489 -0.138595
0.247089 0.050914 0.493214
-0.126411 0.486245 -0.111889
0.115619 -0.482267 -0.124554
-0.229862 -0.126291 -0.483848
-0.108890 0.350914 0.351723
-0.193576 -0.278486 0.410296
0.139111 0.213218 0.448148
-0.046039 -0.396247 -0.303052
-0.229843 -0.061004 0.492046
0.284176 -0.394861 0.300670
-0.079116 -0.331610 -0.373183
0.285935 0.058157 -0.496959
0.079233 -0.487380 -0.101726
0.111533 -0.008129 -0.500228
-0.152792 0.220474 0.444750
-0.194187 -0.496156 -0.037993
0.063115 -0.039607 0.494143
0.154466 0.190415 0.458381
0.229053 0.013346 -0.499964
-0.014503 -0.189735 -0.462580
0.001160 0.342555 0.359844
-0.029878 0.351781 0.350832
0.169699 -0.309876 -0.391537
-0.052983 -0.497293 0.011932
-0.075601 -0.492993 -0.068650
0.048145 0.131397 -0.482608
0.218227 0.487085 0.103671
-0.025940 -0.190756 -0.462121
0.244429 -0.168711 0.466180
-0.213322 0.396825 -0.303846
0.012668 0.494209 0.062975
0.093760 -0.485825 -0.109149
0.248941 0.145142 -0.478814
0.116989 0.117086 0.481926
-0.019480 0.003972 0.495905
-0.143615 0.435684 -0.244466
-0.170086 0.416738 0.271136
0.239144 0.489835 0.090545
-0.125137 0.497706 -0.029944
-0.257273 -0.105660 -0.488751
-0.057044 0.072709 0.490657
-0.205463 0.200973 -0.458082
0.043996 -0.138367 0.476048
-0.102632 0.387966 -0.314957
-0.025833 0.482362 0.123572
-0.074845 0.467007 0.172445
0.147745 0.496742 -0.044813
0.125379 -0.090844 -0.491712
0.215775 0.326249 -0.378796
0.156884 -0.054341 -0.497086
0.231691 -0.464817 0.175070
-0.036132 -0.046200 0.493608
-0.082727 0.432457 -0.250241
-0.187603 0.442886 0.226606
-0.026492 0.037710 -0.498733
0.109948 0.388291 -0.314549
0.014582 0.412043 -0.282572
-0.077408 -0.489955 -0.089436
0.004649 0.097311 -0.490645
-0.007531 -0.427211 0.252812
0.027679 -0.311628 -0.390140
-0.039592 0.370477 0.331315
-0.103195 -0.494788 -0.054869
-0.087631 -0.496934 0.019946
-0.166197 0.477537 -0.144992
-0.092144 -0.402285 -0.295048
-0.118963 -0.330985 0.369499
-0.153454 0.412411 -0.282047
0.085159 -0.474087 0.148588
0.052605 0.476160 0.145911
-0.072093 -0.090492 0.487506
-0.074259 0.495186 -0.059216
0.112620 -0.497601 0.003067
0.278308 -0.067707 -0.495642
0.161686 0.170527 0.465867
0.009995 -0.088739 -0.492075
0.212900 -0.477352 0.137889
-0.003728 0.498402 0.004977
0.246553 0.417656 0.269746
-0.200169 -0.226191 0.441222
-0.136694 0.497729 -0.029424
-0.165507 0.057475 -0.497058
-0.048323 0.498240 0.013971
0.141938 0.474091 -0.156286
-0.226334 -0.456861 0.194823
0.077998 0.226991 -0.445686
-0.226255 -0.278833 -0.414442
0.000099 -0.455844 0.197088
-0.202879 0.477127 -0.146337
0.202486 -0.495752 0.040139
0.093484 -0.497598 0.002926
-0.010923 -0.488299 0.093385
-0.218005 0.392572 0.304928
-0.133789 -0.000435 0.495825
-0.253617 -0.405807 0.285670
0.012579 0.495808 0.050579
0.062916 -0.432110 -0.248717
-0.273552 0.284747 0.406669
0.217798 0.451753 -0.212842
0.214300 -0.006617 0.495714
-0.019153 -0.126893 -0.483705
0.049971 0.460443 -0.193477
-0.166359 0.446855 -0.223249
-0.182786 -0.026310 -0.499412
-0.237419 -0.496632 -0.032108
0.199018 0.436438 -0.243034
0.107004 0.226049 -0.446150
0.010521 -0.408291 0.282119
0.260091 0.495603 0.053112
0.161514 0.294937 0.399543
-0.283200 -0.474878 -0.151011
0.221645 0.492291 0.076231
0.216063 -0.365208 0.335781
-0.022854 -0.413022 -0.279566
0.189913 0.036036 -0.498868
-0.074840 -0.007837 -0.500241
0.271671 0.003046 -0.500150
-0.016429 -0.205149 -0.455663
0.208616 -0.068989 -0.495475
0.250295 -0.030440 -0.499227
-0.068558 -0.407348 -0.288161
-0.271602 0.015465 0.495591
0.235435 0.405059 -0.292559
-0.004227 -0.146363 0.473841
-0.177097 -0.005728 -0.500308
-0.275285 0.498139 0.019616
0.244755 -0.180897 -0.465945
0.219614 0.360219 0.342165
-0.059716 0.292614 0.401167
0.198689 0.466702 -0.177132
-0.134925 -0.447553 -0.219410
-0.278768 -0.483882 0.113168
-0.181234 -0.403858 -0.292963
-0.044012 0.484760 0.114769
-0.090318 0.386706 0.312402
-0.094029 -0.496269 -0.036594
0.271922 0.352413 -0.354524
0.033725 -0.443066 0.224144
0.013460 0.132130 -0.482406
0.172529 -0.459262 -0.193357
0.139255 0.329402 0.371757
0.076000 0.493486 0.067972
-0.169881 0.080802 0.489264
-0.137013 -0.021546 0.495445
0.171668 0.434518 -0.246680
0.038940 -0.151256 -0.476470
0.094009 0.489524 -0.096574
-0.234048 -0.164979 -0.471918
0.080335 -0.376084 -0.327939
-0.287336 0.496634 0.040388
0.070271 0.270858 -0.420361
0.152219 0.398025 -0.302341
0.253434 -0.484192 0.111862
-0.101207 -0.011474 0.495626
0.003021 0.451476 0.209173
-0.106945 0.145739 -0.478649
0.261648 -0.292653 0.400399
-0.213036 0.458216 0.193970
-0.227975 0.421500 0.263923
-0.217991 -0.145279 0.474140
0.240170 -0.013962 -0.499966
-0.049220 0.258907 -0.428001
0.176231 0.242352 0.433231
0.262151 -0.418696 0.266780
-0.081408 -0.469247 0.163265
0.212629 0.225399 0.442157
0.048384 -0.497517 -0.001588
-0.111275 0.451707 -0.212944
-0.187783 0.480974 0.128598
-0.030772 -0.469512 -0.166568
-0.168144 0.430881 0.248294
0.010312 0.368628 0.333470
-0.026798 -0.349883 -0.356083
-0.211070 0.343147 0.359308
-0.260063 0.471546 -0.164224
-0.136487 -0.358098 -0.347645
0.028696 -0.114595 -0.486628
0.230497 0.336603 -0.369911
0.151570 -0.309353 0.387800
0.267498 0.488471 0.097058
0.046501 -0.300287 0.394640
-0.119453 -0.497105 -0.024473
0.253718 0.449395 -0.218097
-0.245755 0.329051 0.372075
0.239034 0.481861 0.125387
0.232840 0.498624 -0.009477
-0.115535 0.380665 -0.324112
0.186256 0.153222 -0.476230
-0.222223 -0.364802 -0.340758
0.107706 0.401139 0.293572
0.153607 -0.043869 -0.498218
-0.075610 -0.489371 0.087158
-0.154090 0.093293 -0.491487
0.137147 -0.361779 0.339567
-0.193497 0.061600 -0.496461
0.125185 0.096521 -0.490811
0.232107 -0.290822 -0.406057
-0.171308 -0.197827 0.454613
0.221461 0.498182 -0.019323
-0.024530 0.468626 -0.172006
-0.082802 -0.452035 0.205575
0.203690 0.441540 -0.233344
0.286310 0.288335 -0.408784
0.046240 0.266682 0.418731
0.081769 0.120320 0.481157
0.130155 -0.234902 0.436825
0.233438 -0.269820 0.416017
0.136545 -0.436411 0.236785
-0.287579 0.378265 -0.326850
0.115968 0.468950 0.166814
0.272594 -0.493337 0.062484
0.217010 -0.482666 0.118286
-0.267548 -0.126463 -0.483807
0.194828 0.122850 0.480556
0.182386 0.280762 0.409456
0.024326 0.062536 0.491958
0.004581 0.447557 -0.221915
0.125926 -0.491512 -0.078885
0.091290 -0.038808 -0.498765
-0.083409 -0.081152 0.489131
0.172775 0.497197 -0.040599
-0.147577 -0.497561 0.005962
0.074385 -0.334989 -0.370122
-0.171265 0.480533 -0.135174
-0.229758 -0.493691 0.059211
-0.058786 0.050428 -0.497702
-0.213019 -0.090801 -0.491720
0.136006 0.342186 0.360179
-0.281061 0.310985 -0.391696
0.171850 0.377353 0.323302
0.108178 -0.494326 0.053333
0.137944 -0.465360 -0.178604
-0.128069 0.068852 -0.495412
-0.015997 -0.483896 -0.118358
0.012008 0.307687 0.389746
-0.028103 -0.025913 0.495252
0.246139 -0.366433 -0.339083
-0.027403 -0.480617 0.126907
0.062347 -0.337621 0.363574
-0.084390 -0.288045 0.403876
-0.178533 0.468415 -0.172568
0.248298 0.144549 0.474476
0.125613 0.357361 -0.349707
0.267987 -0.495150 0.045705
0.205376 0.336565 -0.369944
-0.082454 -0.491919 0.072358
0.242456 0.488979 -0.099741
0.207245 -0.493761 -0.063340
0.170635 -0.497183 0.014401
-0.097088 -0.446480 -0.221587
-0.258349 0.002327 0.495875
-0.244843 0.171266 0.465590
0.094787 -0.152734 -0.476019
-0.159256 0.317296 -0.386478
-0.099044 -0.087349 -0.492314
-0.185454 -0.478522 0.134053
0.248896 0.475693 -0.151037
0.194262 0.246579 -0.435071
-0.085083 0.011870 -0.499991
0.102127 0.348328 -0.358501
-0.009298 -0.414509 -0.277314
-0.132528 0.056887 -0.497143
-0.150800 0.133871 -0.481925
-0.139949 0.273569 0.414487
0.064503 0.057495 0.492503
0.237708 -0.144948 -0.478395
0.223835 -0.000192 0.495830
-0.073844 -0.107279 -0.488366
-0.181242 -0.452296 -0.209784
0.269560 -0.148043 -0.477450
0.263128 -0.490636 -0.084942
0.139203 0.487100 -0.108294
-0.084789 0.108111 -0.488383
-0.259302 -0.330738 0.369711
-0.093713 0.102217 -0.489618
-0.022343 0.496102 -0.050732
0.146270 -0.385751 -0.316674
-0.277372 0.054870 -0.497342
-0.087684 -0.442130 0.225922
-0.049683 0.079263 -0.493906
0.148313 -0.196202 0.455291
0.142309 -0.249342 0.428545
0.274580 0.102865 0.485305
0.024818 0.287230 0.404933
0.228588 -0.046250 -0.497960
-0.096395 -0.050881 -0.497460
-0.227159 0.327440 -0.377774
-0.238342 -0.434779 -0.244062
0.267655 0.416254 0.271869
0.214089 0.178426 0.462903
0.146436 -0.136610 0.476533
-0.168374 -0.463009 -0.184371
-0.067664 -0.378798 0.320776
0.002041 -0.497375 -0.009496
0.149362 0.497799 -0.027866
0.099306 -0.452580 0.204361
0.265753 0.440829 -0.234694
-0.059834 0.083887 0.488733
0.056738 0.115331 0.482343
0.080266 0.404787 0.288737
0.118076 -0.456052 0.196625
-0.048951 -0.206909 0.450723
-0.132100 -0.381576 -0.321539
0.206233 -0.485876 0.104777
-0.165781 -0.321639 -0.382157
0.086402 -0.009773 0.495657
-0.237162 -0.080002 -0.493579
0.065689 -0.123087 -0.484610
0.016946 0.299015 0.396661
0.274005 -0.473871 -0.153929
0.224645 -0.370535 0.329900
0.034265 0.448339 0.215541
0.143843 -0.493852 -0.062709
0.286004 -0.379783 0.319580
0.106199 -0.471395 0.157411
0.252621 -0.130510 -0.482800
0.059056 0.366788 0.335417
0.094482 -0.069422 -0.495400
0.090192 -0.048072 0.493457
0.146989 -0.460345 -0.190761
0.285575 0.391472 0.306386
0.099292 0.498378 0.006342
-0.128886 0.455381 -0.204757
-0.090876 -0.488306 0.093346
-0.193481 0.187929 -0.463521
0.232757 0.058762 0.492366
0.246602 -0.397259 0.297663
-0.261209 0.378473 0.321996
-0.064187 0.471938 0.158152
0.054486 0.468765 0.167350
0.205445 0.416203 -0.276624
-0.142565 0.497745 0.026668
-0.234470 -0.028414 0.495049
0.000859 -0.361204 0.340202
-0.241369 -0.392193 0.304016
-0.244906 -0.149379 -0.477043
0.248963 -0.403928 0.288358
-0.235373 -0.323237 -0.380767
0.083987 0.027009 0.495074
0.261154 -0.182698 0.460921
-0.091384 -0.383735 -0.319023
-0.207749 -0.377408 -0.326397
-0.073439 -0.455442 0.197984
-0.147193 -0.471488 -0.160838
0.189841 0.493277 -0.074775
-0.242997 -0.069595 0.490803
-0.249052 0.034685 -0.498978
-0.227938 0.472166 0.157489
0.055487 -0.493372 0.062157
0.167397 0.207342 -0.455368
-0.047582 0.139281 0.476083
0.222666 -0.249909 -0.432684
-0.094630 -0.345177 -0.360895
-0.144636 0.385278 -0.318327
-0.033847 0.498120 -0.020707
0.018050 0.225986 -0.446181
0.075418 -0.295500 0.398251
-0.011884 0.065559 -0.495888
-0.197200 -0.376143 -0.327871
-0.137516 -0.350373 -0.355579
-0.071412 0.412454 -0.281985
0.233732 -0.252369 -0.431185
0.049422 0.454105 0.203832
0.157286 -0.464881 0.174902
-0.288735 0.061110 -0.496532
0.003547 -0.011852 -0.500061
-0.030636 0.453830 -0.208213
0.286325 -0.365896 0.335022
0.059717 -0.496245 0.035310
0.221636 -0.418313 -0.271552
-0.268916 -0.410188 0.279406
-0.184542 0.324757 0.375964
0.246162 -0.473106 -0.156148
-0.086039 0.037331 0.494611
-0.192340 -0.113967 0.482588
-0.176720 0.167664 -0.471248
-0.053141 0.290845 -0.406890
0.007545 -0.494370 0.052930
0.164890 0.104143 -0.489214
-0.255225 -0.346731 0.354704
0.162426 0.498495 -0.000164
0.282429 0.485807 0.109772
0.251872 0.337075 0.364808
0.207237 -0.198380 0.454383
-0.239747 -0.349271 0.352232
-0.011462 -0.254922 -0.429628
-0.183485 -0.060407 -0.496431
-0.289009 -0.363603 0.337553
0.224327 -0.063172 0.491732
0.156985 0.430269 -0.253830
-0.128362 -0.460195 -0.191119
0.037170 0.225733 -0.446306
0.123675 -0.433857 -0.245670
-0.060527 -0.366776 -0.338730
0.168349 0.276362 0.412534
-0.033269 -0.096459 0.486256
-0.290098 0.121281 -0.485401
0.112076 -0.460432 0.186757
-0.148734 0.337890 -0.368663
-0.229886 -0.487114 0.099569
-0.248078 -0.449582 0.211042
0.250357 -0.323641 -0.380400
-0.240962 0.218549 0.445756
0.141472 -0.217738 0.445387
0.215019 -0.459866 -0.191909
-0.047392 -0.000010 0.495833
0.192705 0.328632 -0.376750
-0.084586 -0.449021 -0.216430
-0.063529 0.111974 0.483141
0.200088 0.297880 -0.401583
-0.245760 -0.473306 0.151150
-0.228874 0.428341 -0.256992
0.084791 0.398042 0.297677
0.101627 -0.372176 -0.332493
-0.042980 -0.496619 -0.032269
0.050956 -0.494845 0.048528
0.080995 -0.035633 -0.498994
0.047489 -0.335529 -0.369633
-0.262069 0.242203 -0.437580
-0.206369 0.480067 0.131883
0.081400 0.455303 -0.204931
-0.201826 -0.484433 0.110850
0.281020 -0.008537 -0.500210
-0.251241 0.462096 0.184664
-0.168995 0.397638 0.298214
-0.038992 0.292641 0.401149
0.195952 0.266463 0.418864
-0.279259 -0.490949 0.077996
0.280145 0.122696 -0.485010
-0.218284 -0.067219 0.491146
-0.285604 -0.485057 -0.112816
-0.070182 0.361168 0.341190
0.173342 -0.418811 0.266590
0.249367 0.027341 0.495059
0.265541 -0.030681 -0.499216
-0.097651 -0.360425 -0.345254
0.218719 -0.307125 0.389481
0.206331 0.081767 0.489098
0.244104 -0.401020 -0.296726
-0.113906 0.199207 -0.458819
0.261871 0.396877 0.299222
-0.085811 0.403378 -0.294963
0.084062 0.495484 0.054161
0.085190 -0.495668 0.040913
0.003696 -0.481672 0.122467
-0.035798 0.474890 0.149593
-0.221611 -0.157048 -0.474703
0.201706 -0.455648 -0.202027
0.211455 0.155544 -0.475429
-0.151576 0.209174 0.449963
-0.231645 0.477051 0.142810
-0.006998 -0.062313 0.491856
-0.104672 -0.370713 0.329703
0.120553 0.237643 -0.440195
0.085231 -0.122659 0.480384
0.206553 -0.320482 -0.383080
0.257014 0.475388 0.148150
0.283798 0.274517 0.413824
0.027498 0.475732 -0.150909
0.082859 -0.350478 -0.355471
-0.060306 -0.456966 -0.198865
-0.074003 0.002703 -0.500156
-0.237398 0.451634 -0.213106
-0.061204 0.378524 0.321937
0.262787 -0.199926 0.453738
-0.234039 0.166597 0.467342
-0.005928 0.460730 0.187941
0.261722 0.176117 -0.468333
-0.109515 -0.269926 0.415947
-0.016432 -0.130542 0.478208
-0.160795 0.413498 0.276044
-0.018712 -0.216222 -0.450694
-0.202944 -0.000851 0.495818
-0.142764 0.255695 0.425429
0.138362 -0.342022 -0.363752
0.167964 0.272530 -0.419258
-0.093719 0.482922 0.121542
-0.209052 -0.399811 -0.298328
-0.151780 0.269062 0.417280
0.173836 0.148905 0.473147
0.080084 0.254237 -0.430679
-0.187314 -0.496805 0.022821
0.109349 -0.124230 0.479950
0.206299 0.449909 -0.216951
0.193049 -0.148666 -0.477260
-0.037692 -0.343143 -0.362737
0.059900 0.343874 -0.362838
-0.288409 -0.023306 0.495413
0.185651 0.475094 0.149000
-0.267497 -0.217178 0.445663
-0.076788 0.324563 -0.380242
-0.285372 0.251690 -0.432139
0.105824 0.405674 -0.291679
-0.048104 0.462784 -0.187574
0.242710 0.064361 -0.496062
0.070614 0.428001 -0.257550
0.220372 0.467947 0.169721
0.135329 0.477067 0.142752
-0.199256 -0.433088 -0.247011
0.082206 0.100774 -0.489920
-0.139371 -0.339732 0.361518
0.109072 0.476603 -0.148056
-0.049982 -0.291136 -0.405837
-0.137809 0.440046 -0.236180
-0.023939 -0.497372 0.010175
-0.130213 -0.185603 -0.464179
-0.097832 -0.496812 0.022657
-0.143033 0.491550 -0.084810
0.150623 0.379278 0.321059
-0.090513 -0.181206 0.461543
-0.252501 -0.267811 0.417343
0.110206 -0.193573 -0.460858
0.201443 0.171541 -0.469911
-0.034455 0.309769 -0.392613
-0.243067 -0.439215 0.231459
-0.124353 -0.494469 0.052015
0.211651 0.319672 0.380190
-0.209516 -0.491208 0.076489
-0.275757 -0.162057 0.468476
-0.007747 -0.119642 -0.485428
-0.104971 0.226585 -0.445886
0.006189 -0.425054 -0.261020
0.163043 0.387963 -0.314960
0.243820 -0.232694 -0.442130
0.077158 -0.452104 -0.210172
0.224869 0.344103 0.358443
0.098003 -0.190104 -0.462414
0.263562 -0.320334 0.378639
-0.033942 -0.368628 0.332005
-0.122542 -0.233221 0.437758
-0.056355 0.497885 -0.025936
-0.137219 0.034579 -0.498986
0.089027 0.387054 -0.316100
-0.191363 0.437597 0.236582
