0.286960 -0.054775 0.482865
0.286960 0.290116 -0.381510
0.286960 -0.351107 -0.353531
0.286960 -0.376975 -0.301834
0.286960 0.189571 0.411170
0.286960 0.449510 -0.148584
0.286960 0.075380 0.468959
0.286960 0.430885 -0.162242
0.286960 -0.319915 0.325226
0.286960 -0.367064 0.325164
0.286960 -0.470171 -0.109889
0.286960 -0.471826 -0.074950
0.286960 -0.177572 -0.456806
0.286960 -0.182451 0.448987
0.286960 -0.466084 0.168131
0.286960 -0.453410 -0.048869
0.286960 0.251487 -0.391908
0.286960 -0.376615 -0.256516
0.286960 -0.423332 -0.263012
0.286960 -0.289119 0.397533
0.286960 0.294571 0.355460
0.286960 0.122463 0.472064
0.286960 -0.472680 -0.098245
0.286960 -0.215998 -0.422171
0.286960 -0.198313 -0.427751
0.286960 -0.097230 -0.480811
0.286960 -0.480749 0.057567
0.286960 0.364830 0.295175
0.286960 0.154264 -0.452429
0.286960 -0.274677 -0.379382
0.286960 -0.340172 -0.319998
0.286960 -0.091737 -0.463231
0.286960 -0.463448 -0.054083
0.286960 -0.348892 0.351499
0.286960 -0.309408 0.376241
0.286960 0.465922 -0.118404
0.286960 0.003132 0.493688
0.286960 -0.252045 -0.387446
0.286960 0.270949 -0.394337
0.286960 0.398585 0.201423
0.286960 0.414918 0.180102
0.286960 0.263705 -0.377605
0.286960 0.205317 0.404726
0.286960 0.275705 -0.373113
0.286960 -0.474257 -0.124942
0.286960 -0.362698 0.255598
0.286960 -0.110907 -0.470925
0.286960 -0.434759 0.130461
0.286960 -0.254763 0.390166
0.286960 0.278029 -0.378991
0.286960 0.350237 -0.293486
0.286960 -0.225617 -0.406908
0.286960 -0.057779 0.449756
0.286960 -0.200883 0.438255
0.286960 -0.422027 0.258628
0.286960 0.393193 -0.301414
0.286960 -0.185651 -0.417704
0.286960 -0.061559 0.472010
0.286960 -0.405910 0.201639
0.286960 0.189180 -0.455607
0.286960 -0.011854 0.495600
0.286960 0.427470 0.200189
0.286960 0.229355 0.418380
0.286960 0.436612 -0.198465
0.286960 -0.215597 -0.409834
0.286960 0.455239 -0.094573
0.286960 0.271627 0.383726
0.286960 -0.257265 0.388090
0.286960 0.227542 -0.436377
0.286960 0.235524 -0.411741
0.286960 0.081960 -0.467867
0.286960 -0.354608 -0.312013
0.286960 -0.448068 0.202654
0.286960 -0.076651 0.485992
0.286960 -0.381002 -0.288889
0.286960 -0.472209 -0.040330
0.286960 0.432906 0.117260
0.286960 0.268885 0.416577
0.286960 -0.195539 -0.425259
0.286960 0.300622 0.383601
0.286960 0.075599 0.460996
0.286960 -0.214249 0.389342
0.286960 -0.422633 -0.141704
0.286960 -0.068665 0.453690
0.286960 0.374046 -0.272526
0.286960 0.105070 0.475881
0.286960 -0.393086 -0.299010
0.286960 0.456817 -0.041409
0.286960 0.146486 -0.477011
0.286960 -0.411962 0.175267
0.286960 0.447540 0.213346
0.286960 0.456267 0.161258
0.286960 0.415406 -0.201588
0.286960 0.235775 0.388167
0.286960 0.077378 -0.481121
0.286960 0.097138 0.476025
0.286960 0.457693 -0.179637
0.286960 -0.333335 -0.340780
0.286960 -0.044632 0.454219
0.286960 0.129473 0.442609
0.286960 -0.270793 -0.356888
0.286960 -0.036011 0.458403
0.286960 -0.479877 -0.008496
0.286960 0.264573 -0.405586
0.286960 -0.085685 0.476899
0.286960 -0.311358 -0.389641
0.286960 0.472623 0.118649
0.286960 -0.385424 -0.232019
0.286960 0.293488 0.338589
0.286960 -0.012771 0.444184
0.286960 -0.261994 -0.415975
0.286960 -0.305417 0.341953
0.286960 0.015198 0.475645
0.286960 0.467069 -0.144569
0.286960 -0.454488 -0.044216
0.286960 -0.448146 -0.164962
0.286960 -0.128803 0.432929
0.286960 0.226464 -0.428722
0.286960 -0.283928 -0.358359
0.286960 -0.450425 -0.153425
0.286960 0.134686 0.453952
0.286960 0.460274 -0.153999
0.286960 -0.465870 0.160085
0.286960 -0.486317 0.076265
0.286960 -0.435686 0.126360
0.286960 0.220920 -0.390631
0.286960 0.405177 -0.245033
0.286960 0.311902 0.323073
0.286960 -0.441587 0.174944
0.286960 -0.405915 -0.276765
0.286960 0.395890 -0.267796
0.286960 0.320406 -0.355112
0.286960 -0.165939 0.411096
0.286960 0.304542 0.379026
0.286960 -0.026684 0.489716
0.286960 0.482293 -0.128159
0.286960 -0.379358 0.249233
0.286960 -0.035442 -0.481231
0.286960 -0.362954 -0.273730
0.286960 0.489984 0.000326
0.286960 0.324908 -0.318776
0.286960 -0.462219 0.159775
0.286960 0.433823 -0.140503
0.286960 0.460943 0.079640
0.286960 -0.079920 0.445245
0.286960 -0.217205 0.440900
0.286960 -0.432797 -0.182548
0.286960 -0.173250 -0.448075
0.286960 -0.459378 0.014362
0.286960 -0.457794 0.185449
0.286960 -0.018446 0.482624
0.286960 0.005303 0.450687
0.286960 -0.221778 0.422057
0.286960 0.312450 0.373569
0.286960 0.411085 -0.265674
0.286960 0.458917 -0.003574
0.286960 0.304393 0.342775
0.286960 -0.459246 -0.167753
0.286960 -0.353841 0.269465
0.286960 0.257394 -0.420410
0.286960 0.233092 0.397579
0.286960 0.475565 -0.116537
0.286960 0.240206 -0.378091
0.286960 -0.445237 -0.094639
0.286960 0.448465 0.085653
0.286960 -0.350339 0.327950
0.286960 0.183222 0.460058
0.286960 -0.035680 0.490765
0.286960 0.472277 0.054658
0.286960 -0.237636 -0.408947
0.286960 -0.026909 -0.456685
0.286960 -0.263870 -0.393721
0.286960 0.410616 -0.180018
0.286960 0.069774 0.455330
0.286960 -0.417971 0.251815
0.286960 -0.478896 0.041172
0.286960 -0.430147 0.150113
0.286960 -0.027139 -0.487047
0.286960 -0.304147 -0.332304
0.286960 0.446536 0.128047
0.286960 0.409289 0.206713
0.286960 -0.358900 -0.265876
0.286960 0.342763 0.328398
0.286960 0.286829 -0.393006
0.286960 -0.150619 -0.450272
0.286960 -0.135049 0.422258
0.286960 -0.485279 0.009726
0.286960 0.431459 0.129692
0.286960 -0.077252 -0.487273
0.286960 -0.386743 -0.292796
0.286960 -0.365232 0.274044
0.286960 0.218788 -0.442043
0.286960 -0.257340 -0.394235
0.286960 0.466282 -0.088438
0.286960 -0.277737 -0.368269
0.286960 0.173461 0.422626
0.286960 -0.401794 -0.262812
0.286960 -0.467198 -0.142439
0.286960 0.327808 -0.333429
0.286960 0.393428 -0.243023
0.286960 0.173585 0.432556
0.286960 -0.202474 -0.440538
0.286960 0.407128 -0.218521
0.286960 -0.149374 0.449194
0.286960 -0.342230 0.294264
0.286960 0.437091 0.159162
0.286960 -0.291676 0.356272
0.286960 -0.148328 0.419985
0.286960 0.041028 -0.459311
0.286960 -0.416278 0.188413
0.286960 0.153447 -0.444912
0.286960 -0.092526 0.457496
0.286960 -0.407511 0.204843
0.286960 0.094416 -0.456226
0.286960 0.420975 -0.245589
0.286960 -0.234851 0.401370
0.286960 -0.452504 -0.208810
0.286960 -0.433914 0.214192
0.286960 0.461825 0.049008
0.286960 -0.460228 -0.028554
0.286960 0.416972 0.156061
0.286960 -0.191249 0.418970
0.286960 0.301739 -0.344592
0.286960 0.337681 -0.348559
0.286960 -0.366711 0.271031
0.286960 0.304969 -0.372822
0.286960 -0.272522 0.411848
0.286960 0.406367 -0.280598
0.286960 0.448147 -0.083080
0.286960 0.070819 -0.486520
0.286960 0.009458 -0.465394
0.286960 -0.373503 -0.297295
0.286960 0.450138 0.023573
0.286960 0.307564 -0.376595
0.286960 0.403961 -0.198360
0.286960 0.019140 0.458112
0.286960 -0.419611 -0.223436
0.286960 -0.415706 -0.181934
0.286960 0.484150 -0.016462
0.286960 0.427602 0.130474
0.286960 -0.275870 0.411294
0.286960 0.264716 0.395243
0.286960 0.416072 0.213066
0.286960 0.360345 -0.325103
0.286960 -0.449215 -0.080416
0.286960 0.431640 -0.170032
0.286960 -0.432166 -0.165254
0.286960 -0.450855 0.179770
0.286960 -0.012764 -0.468778
0.286960 0.325205 -0.340764
0.286960 0.297208 0.338205
0.286960 -0.477825 -0.022782
0.286960 0.005290 -0.454496
0.286960 -0.011636 -0.480688
0.286960 0.107803 -0.487487
0.286960 -0.058672 -0.444736
0.286960 0.027287 0.447658
0.286960 -0.464718 -0.083672
0.286960 0.438232 -0.148302
0.286960 -0.480080 0.106357
0.286960 -0.418097 0.230185
0.286960 0.129641 0.448847
0.286960 -0.219490 0.412886
0.286960 0.421639 0.262430
0.286960 0.358255 0.325619
0.286960 -0.172412 -0.412804
0.286960 -0.298671 0.334411
0.286960 0.439126 -0.237576
0.286960 0.259941 0.421538
0.286960 -0.472899 -0.107094
0.286960 -0.359553 0.292798
0.286960 0.056001 0.469959
0.286960 0.450752 0.186675
0.286960 -0.436609 0.163598
0.286960 -0.469760 0.094431
0.286960 -0.483783 -0.086128
0.286960 -0.167429 -0.466806
0.286960 0.136889 0.472214
0.286960 0.438115 0.124170
0.286960 0.396131 -0.241427
0.286960 -0.099766 0.473804
0.286960 0.115193 0.472832
0.286960 -0.430427 -0.156977
0.286960 0.093462 0.460411
0.286960 0.305796 -0.366832
0.286960 0.468643 -0.073831
0.286960 -0.425603 -0.220319
0.286960 -0.091381 -0.474258
0.286960 0.167165 0.411598
0.286960 -0.461048 0.081266
0.286960 -0.255845 0.377598
0.286960 0.300098 -0.371031
0.286960 -0.440294 -0.098558
0.286960 0.056621 -0.471670
0.286960 0.121633 0.463731
0.286960 -0.080602 -0.489367
0.286960 -0.386927 0.245617
0.286960 0.375819 0.254038
0.286960 0.455588 0.048112
0.286960 -0.265283 -0.362998
0.286960 -0.230050 0.414046
0.286960 0.050255 -0.452902
0.286960 0.223818 -0.410081
0.286960 -0.300537 -0.387792
0.286960 -0.456599 -0.012440
0.286960 -0.238197 -0.388183
0.286960 0.307081 0.382494
0.286960 0.022853 -0.478070
0.286960 0.069127 -0.489677
0.286960 -0.289272 0.363373
0.286960 0.027204 -0.489987
0.286960 0.442452 0.091865
0.286960 -0.284091 -0.407068
0.286960 -0.308793 0.323304
0.286960 -0.346154 0.321436
0.286960 0.221706 -0.438474
0.286960 0.242933 0.371876
0.286960 0.235481 0.376938
0.286960 0.463478 -0.148183
0.286960 -0.346605 0.353885
0.286960 0.206454 -0.447387
0.286960 0.175291 0.439651
0.286960 -0.489655 0.025152
0.286960 -0.124992 -0.433835
0.286960 -0.479405 -0.098211
0.286960 0.112010 -0.453890
0.286960 0.294776 -0.336393
0.286960 -0.422350 -0.199977
0.286960 -0.223027 -0.394416
0.286960 -0.314522 0.324026
0.286960 -0.411987 0.178907
0.286960 -0.477135 0.103825
0.286960 0.273167 -0.418464
0.286960 -0.311488 -0.330612
0.286960 -0.428399 0.135273
0.286960 -0.449975 0.209155
0.286960 -0.199794 0.429420
0.286960 0.458944 -0.171142
0.286960 -0.435510 -0.242314
0.286960 0.067131 0.489834
0.286960 -0.406795 0.243124
0.286960 -0.172495 -0.419973
0.286960 0.482351 0.093231
0.286960 -0.311977 -0.368935
0.286960 -0.448806 0.133178
0.286960 0.438574 -0.102871
0.286960 -0.475440 -0.029838
0.286960 0.446642 0.052048
0.286960 -0.472913 0.087085
0.286960 -0.372663 0.313352
0.286960 -0.157889 -0.423797
0.286960 -0.449643 -0.180096
0.286960 0.383244 0.298924
0.286960 0.186483 -0.410547
0.286960 0.488690 0.017081
0.286960 0.430766 0.121077
0.286960 -0.299970 -0.353312
0.286960 -0.035989 -0.471719
0.286960 -0.026883 -0.448004
0.286960 -0.408082 0.208242
0.286960 -0.374281 0.286358
0.286960 0.433074 0.242901
0.286960 0.473034 -0.075919
0.286960 -0.280733 -0.363118
0.286960 -0.136475 -0.480432
0.286960 -0.462654 -0.074147
0.286960 0.032386 -0.455832
0.286960 -0.377372 0.313537
0.286960 0.023115 0.443866
0.286960 0.325364 0.327734
0.286960 0.441659 -0.150102
0.286960 0.373240 0.280580
0.286960 -0.045549 -0.491636
0.286960 -0.230402 0.437832
0.286960 0.444639 0.146187
0.286960 -0.386161 -0.315287
0.286960 -0.489640 0.055175
0.286960 -0.321618 0.340407
0.286960 0.277895 0.355356
0.286960 -0.259597 -0.369064
0.286960 0.367511 -0.288259
0.286960 -0.190351 -0.422362
0.286960 0.492906 -0.038288
0.286960 0.407722 -0.287213
0.286960 0.298784 -0.367943
0.286960 -0.271334 -0.399113
0.286960 -0.119101 -0.445380
0.286960 -0.445916 -0.106667
0.286960 -0.451641 -0.056173
0.286960 -0.496069 -0.038578
0.286960 -0.225774 -0.418712
0.286960 0.164600 -0.417361
0.286960 -0.090752 -0.491523
0.286960 -0.030147 0.494238
0.286960 -0.182283 -0.433652
0.286960 0.383429 0.230027
0.286960 0.418032 -0.198806
0.286960 0.346464 -0.340564
0.286960 0.464992 0.159982
0.286960 -0.279062 0.351058
0.286960 0.138482 -0.454381
0.286960 0.047306 -0.475946
0.286960 0.233777 0.433541
0.286960 0.273912 0.368183
0.286960 0.428725 -0.196985
0.286960 0.447048 0.120186
0.286960 -0.464046 -0.113650
0.286960 -0.447132 -0.116326
0.286960 -0.196760 -0.438241
0.286960 0.449860 0.016094
0.286960 -0.439343 -0.139090
0.286960 0.208013 -0.424157
0.286960 -0.293120 0.343519
0.286960 -0.054409 -0.456282
0.286960 0.061915 0.468001
0.286960 -0.218513 -0.432656
0.286960 -0.068936 -0.454577
0.286960 -0.450377 0.137635
0.286960 0.468649 -0.056505
0.286960 -0.247456 -0.415215
0.286960 -0.440607 -0.101927
0.286960 0.337840 -0.337338
0.286960 -0.214528 0.434527
0.286960 -0.357040 0.278688
0.286960 -0.100765 -0.468711
0.286960 -0.381878 -0.246581
0.286960 -0.212863 -0.414265
0.286960 -0.373631 0.256090
0.286960 0.047270 -0.487389
0.286960 -0.164601 0.457149
0.286960 -0.133368 -0.475089
0.286960 0.110131 -0.458790
0.286960 -0.190705 0.439628
0.286960 -0.371315 -0.303211
0.286960 -0.447747 -0.070465
0.286960 -0.309697 -0.373612
0.286960 0.060092 -0.443722
0.286960 0.407583 -0.265542
0.286960 0.418051 -0.238597
0.286960 -0.308995 -0.323687
0.286960 -0.010670 0.490809
0.286960 0.018859 -0.479010
0.286960 -0.222952 -0.422204
0.286960 -0.356423 0.332875
0.286960 0.309028 0.375413
0.286960 -0.403966 0.257963
0.286960 -0.434180 0.140763
0.286960 0.425497 -0.194878
0.286960 0.431045 0.231128
0.286960 -0.322647 -0.367602
0.286960 -0.203599 -0.415110
0.286960 0.088008 -0.443987
0.286960 0.128770 -0.428878
0.286960 -0.036642 0.478045
0.286960 0.171692 0.458757
0.286960 0.390453 0.300510
0.286960 -0.287335 0.350777
0.286960 0.183275 0.439823
0.286960 -0.266165 0.373536
0.286960 -0.390041 -0.297435
0.286960 0.496254 0.039770
0.286960 0.401576 0.255510
0.286960 0.460345 -0.193324
0.286960 -0.452407 -0.103194
0.286960 0.209327 0.444089
0.286960 -0.143293 0.429195
0.286960 0.452045 -0.136409
0.286960 -0.122437 -0.451811
0.286960 0.034591 -0.474222
0.286960 -0.150501 -0.430609
0.286960 -0.219533 0.427708
0.286960 0.413307 0.271276
0.286960 -0.441409 -0.128240
0.286960 0.384833 -0.259380
0.286960 0.236691 0.411241
0.286960 -0.296065 -0.398381
0.286960 0.449271 0.069940
0.286960 0.459485 -0.110321
0.286960 -0.418209 0.191020
0.286960 -0.453441 -0.132032
0.286960 -0.189543 0.430629
0.286960 0.393666 -0.252324
0.286960 -0.287675 0.375071
0.286960 0.325754 0.366115
0.286960 -0.118075 -0.485250
0.286960 -0.085914 0.457736
0.286960 -0.482729 0.078179
0.286960 -0.428700 0.188731
0.286960 0.489155 -0.010912
0.286960 -0.495853 -0.004230
0.286960 0.435099 -0.209695
0.286960 0.139790 0.431008
0.286960 -0.213979 0.422740
0.286960 -0.085713 0.469488
0.286960 -0.162639 -0.453470
0.286960 -0.361469 0.266219
0.286960 -0.416967 0.258167
0.286960 0.422932 0.213050
0.286960 0.132252 -0.453375
0.286960 -0.401406 0.206480
0.286960 0.270035 0.352882
0.286960 0.455164 -0.138124
0.286960 -0.116783 -0.470774
0.286960 0.404735 -0.230396
0.286960 0.282805 0.402510
0.286960 -0.446024 0.048435
0.286960 -0.290086 -0.348693
0.286960 -0.350051 0.324669
0.286960 0.001127 0.477964
0.286960 -0.152673 0.417557
0.286960 0.242197 -0.389656
0.286960 -0.350155 -0.338863
0.286960 0.268416 -0.392058
0.286960 0.144750 0.473531
0.286960 -0.307712 0.328731
0.286960 0.436986 -0.118560
0.286960 -0.444378 0.153527
0.286960 0.483577 0.096470
0.286960 -0.256152 0.372377
0.286960 -0.242902 -0.424093
0.286960 0.447386 0.160069
0.286960 0.447995 -0.037853
0.286960 0.143579 0.464624
0.286960 0.271441 -0.384982
0.286960 -0.107422 0.450442
0.286960 0.417599 0.250513
0.286960 0.010289 -0.484136
0.286960 -0.470743 -0.132158
0.286960 0.177125 -0.417329
0.286960 -0.381764 -0.314035
0.286960 -0.338324 -0.306762
0.286960 -0.471785 0.078604
0.286960 0.291400 0.376598
0.286960 -0.364395 -0.309687
0.286960 -0.140398 -0.436115
0.286960 0.456800 0.091916
0.286960 -0.288283 -0.343575
0.286960 0.369720 -0.271940
0.286960 -0.444255 -0.089174
0.286960 -0.248557 0.428482
0.286960 -0.260187 0.390859
0.286960 -0.184037 0.421575
0.286960 -0.439634 0.155699
0.286960 0.035297 -0.465893
0.286960 0.329948 0.355803
0.286960 -0.225659 -0.439961
0.286960 -0.451966 0.055027
0.286960 0.367511 0.328743
0.286960 0.378996 0.298282
0.286960 -0.407667 0.263914
0.286960 -0.228499 0.400304
0.286960 0.436879 0.128879
0.286960 0.173562 -0.414193
0.286960 0.432666 0.167142
0.286960 0.461155 0.010475
0.286960 0.205798 0.393295
0.286960 -0.095519 0.445615
0.286960 0.264918 -0.397238
0.286960 0.098857 0.445389
0.286960 0.185262 -0.449681
0.286960 0.146660 -0.449885
0.286960 -0.467277 -0.112976
0.286960 0.256651 -0.429131
0.286960 0.461725 0.063170
0.286960 0.407810 0.217428
0.286960 -0.485179 0.107003
0.286960 -0.406576 0.267829
0.286960 0.344870 0.287680
0.286960 -0.263620 0.411035
0.286960 0.476478 -0.074786
0.286960 -0.286899 0.347546
0.286960 -0.216703 0.420468
0.286960 0.489055 -0.038123
0.286960 -0.483518 0.043736
0.286960 -0.112201 0.460220
0.286960 0.387303 -0.266299
0.286960 -0.224630 -0.414608
0.286960 -0.103447 -0.460167
0.286960 -0.353637 -0.347383
0.286960 -0.336808 0.337486
0.286960 -0.321236 0.306297
0.286960 0.081787 -0.473107
0.286960 0.344787 0.348516
0.286960 -0.360508 -0.282444
0.286960 0.100106 0.434604
0.286960 -0.295042 -0.344012
0.286960 -0.429851 -0.196205
0.286960 0.290851 0.345721
0.286960 0.052667 -0.455813
0.286960 0.077073 -0.462388
0.286960 0.030929 0.490022
0.286960 0.320440 -0.340303
0.286960 -0.348509 0.297540
0.286960 0.026103 0.493827
0.286960 -0.393428 0.266947
0.286960 0.136278 0.463957
0.286960 0.030852 0.447462
0.286960 -0.316052 -0.381157
0.286960 0.287167 0.394595
0.286960 -0.171390 0.460213
0.286960 0.477198 -0.132542
0.286960 0.338607 -0.302086
0.286960 -0.266147 0.409249
0.286960 -0.055867 -0.489958
0.286960 -0.488454 0.036731
0.286960 -0.104547 -0.474288
0.286960 -0.459700 -0.117674
0.286960 -0.096278 -0.477864
0.286960 0.489771 -0.007736
0.286960 0.056143 -0.497009
0.286960 0.452302 0.070193
0.286960 0.367294 -0.322223
0.286960 -0.469957 0.105400
0.286960 -0.193146 0.408939
0.286960 0.062290 -0.481143
0.286960 -0.312093 0.332828
0.286960 -0.057823 -0.470418
0.286960 -0.245063 0.411852
0.286960 0.340120 -0.361315
0.286960 -0.409803 0.193550
0.286960 -0.351669 -0.306310
0.286960 -0.304987 0.363514
0.286960 -0.134910 0.451479
0.286960 0.309715 0.343050
0.286960 -0.386480 -0.236841
0.286960 0.051872 0.492699
0.286960 0.355600 -0.316873
0.286960 -0.398328 0.252309
0.286960 -0.287343 -0.357461
0.286960 -0.399072 -0.287987
0.286960 0.422310 -0.256175
0.286960 -0.114058 0.462989
0.286960 -0.148331 0.442600
0.286960 -0.469334 0.028140
0.286960 -0.425433 0.148769
0.286960 -0.474747 0.002188
0.286960 -0.300236 0.338349
0.286960 0.141672 0.427469
0.286960 -0.284248 0.359879
0.286960 -0.457634 0.087097
0.286960 -0.404090 0.209741
0.286960 0.458245 0.008032
0.286960 -0.369077 0.280871
0.286960 -0.384447 0.275564
0.286960 0.018178 0.485645
0.286960 0.384208 -0.234325
0.286960 0.338898 0.295440
0.286960 0.293028 -0.392562
0.286960 -0.280104 0.390689
0.286960 0.109130 -0.467618
0.286960 0.351851 0.286898
0.286960 0.013010 -0.478290
0.286960 -0.416986 -0.272432
0.286960 -0.434798 -0.135209
0.286960 -0.283807 0.343112
0.286960 -0.468701 0.016325
0.286960 0.404655 0.203996
0.286960 -0.455502 -0.092185
0.286960 -0.111790 0.450429
0.286960 0.469565 -0.136064
0.286960 0.414117 -0.228259
0.286960 -0.422115 0.249959
0.286960 -0.245218 0.426157
0.286960 -0.447922 -0.031746
0.286960 0.268290 -0.404658
0.286960 -0.420897 -0.155620
0.286960 0.155694 -0.466022
0.286960 -0.371483 -0.319528
0.286960 -0.447978 0.189064
0.286960 0.434263 0.187215
0.286960 -0.072844 0.472272
0.286960 0.279466 0.391351
0.286960 0.191658 -0.431634
0.286960 0.460651 0.144771
0.286960 0.449269 0.059898
0.286960 0.324858 0.343073
0.286960 0.268857 -0.382570
0.286960 -0.424883 -0.223961
0.286960 -0.411012 -0.174096
0.286960 -0.485987 0.103228
0.286960 0.401313 -0.291867
0.286960 -0.408175 -0.219474
0.286960 0.140254 -0.464059
0.286960 -0.001941 0.471271
0.286960 0.142839 0.469495
0.286960 0.068006 -0.471559
0.286960 0.248821 -0.388856
0.286960 -0.417399 0.181292
0.286960 -0.308058 0.351969
0.286960 -0.289838 -0.376753
0.286960 -0.032919 -0.491397
0.286960 -0.463856 -0.067371
0.286960 0.424542 -0.235897
0.286960 0.104252 0.435145
0.286960 0.443213 0.137243
0.286960 -0.165033 0.460693
0.286960 -0.434177 0.094904
0.286960 -0.237915 0.393670
0.286960 -0.073738 -0.487751
0.286960 0.097549 0.439485
0.286960 -0.455927 0.069784
0.286960 0.111418 0.467667
0.286960 0.489537 0.064616
0.286960 -0.341417 -0.316101
0.286960 -0.137498 0.453788
0.286960 0.046381 -0.472452
0.286960 0.392537 -0.214194
0.286960 0.177647 0.437130
0.286960 -0.451942 0.156689
0.286960 -0.471075 0.075084
0.286960 0.374225 0.298262
0.286960 -0.445023 -0.054368
0.286960 -0.427946 0.203983
0.286960 0.322057 0.325196
0.286960 -0.335877 0.296895
0.286960 0.088170 -0.453900
0.286960 0.080291 0.436984
0.286960 0.362703 -0.297785
0.286960 -0.449317 0.141142
0.286960 -0.466622 0.049795
0.286960 0.456747 -0.160320
0.286960 0.289214 -0.407646
0.286960 0.124428 -0.475956
0.286960 -0.181183 -0.425977
0.286960 -0.316877 0.358294
0.286960 -0.351567 -0.320121
0.286960 0.464579 -0.079989
0.286960 -0.459273 -0.073605
0.286960 -0.438531 -0.109984
0.286960 0.216987 -0.404063
0.286960 0.359038 -0.336731
0.286960 -0.158055 0.456162
0.286960 -0.137389 -0.455073
0.286960 -0.487501 0.012701
0.286960 0.293882 -0.383186
0.286960 -0.022789 -0.461041
0.286960 0.283933 -0.376301
0.286960 0.078277 -0.489850
0.286960 -0.443726 0.124797
0.286960 -0.416424 -0.172001
0.286960 0.271379 -0.397825
0.286960 0.262237 0.379635
0.286960 0.390897 0.225204
0.286960 0.355830 -0.277767
0.286960 0.100837 -0.476491
0.286960 -0.320411 -0.381972
0.286960 -0.298479 -0.377614
0.286960 0.459315 0.156506
0.286960 -0.307871 0.345904
0.286960 -0.408416 0.255623
0.286960 0.423441 -0.252691
0.286960 0.332033 0.345129
0.286960 -0.249511 -0.407825
0.286960 0.067434 -0.480624
0.286960 -0.376795 -0.324068
0.286960 0.001647 0.464452
0.286960 0.474288 -0.000587
0.286960 0.342590 0.298995
0.286960 -0.448479 -0.183752
0.286960 -0.414252 0.220129
0.286960 -0.484027 0.051742
0.286960 -0.317021 -0.365197
0.286960 -0.403552 0.215527
0.286960 0.322299 -0.370452
0.286960 -0.029120 0.459574
0.286960 -0.208313 -0.395579
0.286960 -0.168025 -0.457563
0.286960 0.336044 0.303740
0.286960 0.013720 -0.457232
0.286960 -0.227548 0.433924
0.286960 0.450582 0.128678
0.286960 0.418037 -0.167833
0.286960 -0.357928 0.328600
0.286960 0.478286 -0.136887
0.286960 0.054657 0.454759
0.286960 0.472548 0.156276
0.286960 0.050201 -0.465317
0.286960 -0.175427 0.439133
0.286960 -0.258602 -0.413879
0.286960 -0.348936 -0.303704
0.286960 -0.473285 -0.032231
0.286960 -0.372490 -0.293312
0.286960 -0.458061 0.108704
0.286960 -0.182992 -0.444331
0.286960 0.173473 0.408306
0.286960 -0.030057 -0.453667
0.286960 0.156901 -0.471746
0.286960 -0.405138 -0.280814
0.286960 0.141011 0.434056
0.286960 -0.294570 0.362396
0.286960 -0.440680 0.152610
0.286960 0.077003 0.466237
0.286960 0.492824 0.034483
0.286960 0.479729 -0.096784
0.286960 -0.018205 0.475087
0.286960 0.264891 0.378023
0.286960 0.465939 0.137572
0.286960 0.458294 0.110775
0.286960 -0.361691 -0.311160
0.286960 -0.039024 -0.447054
0.286960 -0.007817 0.456282
0.286960 0.091746 0.433685
0.286960 -0.096906 0.472413
0.286960 0.244464 0.422781
0.286960 0.438906 -0.157399
0.286960 0.481027 0.022519
0.286960 0.015120 -0.475050
0.286960 0.363973 0.256196
0.286960 0.243503 0.375275
0.286960 0.101725 -0.451423
0.286960 0.457101 -0.151210
0.286960 -0.454181 0.016399
0.286960 -0.477640 0.004204
0.286960 0.364078 0.262662
0.286960 0.050201 -0.472650
0.286960 -0.069089 -0.468791
0.286960 -0.453798 0.139089
0.286960 0.238031 -0.418628
0.286960 -0.454422 -0.077086
0.286960 -0.451149 0.040469
0.286960 0.043573 -0.478520
0.286960 -0.217193 -0.415552
0.286960 0.035380 -0.454705
0.286960 -0.294643 0.391357
0.286960 -0.342857 -0.346557
0.286960 -0.420578 0.223283
0.286960 0.133418 -0.444000
0.286960 -0.457019 -0.184344
0.286960 0.334134 0.292977
0.286960 0.231003 -0.417941
0.286960 -0.468792 0.127110
0.286960 -0.455912 -0.134583
0.286960 -0.223167 0.437824
0.286960 -0.447726 -0.125956
0.286960 0.453837 0.106423
0.286960 0.054625 0.473509
0.286960 -0.367011 -0.274578
0.286960 -0.254032 -0.396313
0.286960 -0.167798 0.462811
0.286960 0.450146 0.050533
0.286960 0.452410 0.018545
0.286960 -0.443782 0.062730
0.286960 0.436679 -0.095951
0.286960 0.295755 0.382790
0.286960 0.201567 0.405779
0.286960 -0.315438 -0.322810
0.286960 0.188232 0.439049
0.286960 -0.317704 0.373268
0.286960 0.362334 0.333729
0.286960 0.157567 0.414837
0.286960 -0.485873 -0.006342
0.286960 0.105357 -0.453365
0.286960 -0.235883 0.427655
0.286960 0.323196 0.359481
0.286960 0.441396 -0.112281
0.286960 0.054201 -0.452492
0.286960 0.316666 -0.315836
0.286960 0.312182 0.319556
0.286960 -0.463530 -0.162702
0.286960 -0.494324 -0.048164
0.286960 -0.197743 -0.448950
0.286960 -0.290537 0.351927
0.286960 -0.391885 0.247180
0.286960 0.324827 0.339072
0.286960 -0.436428 -0.163299
0.286960 -0.357939 -0.308232
0.286960 0.411121 0.216535
0.286960 -0.256738 0.393662
0.286960 -0.366316 0.307616
0.286960 0.420506 0.195099
0.286960 0.148649 0.471475
0.286960 0.182365 0.422199
0.286960 0.466297 0.042580
0.286960 -0.170008 0.434724
0.286960 0.469791 -0.031262
0.286960 -0.006881 0.450809
0.286960 -0.039748 0.471391
0.286960 0.159874 -0.470947
0.286960 0.272233 -0.376311
0.286960 -0.323046 0.347466
0.286960 -0.167674 -0.449654
0.286960 -0.427401 0.122357
0.286960 -0.196291 -0.452511
0.286960 -0.449970 -0.003089
0.286960 -0.202878 0.410910
0.286960 -0.373380 0.301076
0.286960 0.270693 -0.415529
0.286960 0.493374 -0.055838
0.286960 0.390219 -0.280188
0.286960 0.274682 -0.394315
0.286960 0.346307 0.301991
0.286960 -0.442141 0.195238
0.286960 0.191292 0.420169
0.286960 -0.434799 0.208838
0.286960 -0.440831 0.135414
0.286960 -0.490855 0.028307
0.286960 0.400050 -0.266686
0.286960 0.363570 0.301338
0.286960 -0.186424 -0.414033
0.286960 0.477213 0.123809
0.286960 0.421042 -0.188096
0.286960 -0.029415 0.483166
0.286960 -0.391852 0.226061
0.286960 0.286593 -0.385379
0.286960 0.090291 0.467293
0.286960 -0.300433 0.378183
0.286960 -0.429846 0.237527
0.286960 -0.077165 0.482772
0.286960 0.033522 -0.488255
0.286960 -0.015421 -0.472996
0.286960 0.340406 0.338817
0.286960 -0.070619 0.441135
0.286960 0.489009 -0.064301
0.286960 0.432446 -0.197885
0.286960 0.215245 -0.408839
0.286960 0.392545 -0.308524
0.286960 -0.118921 0.427788
0.286960 0.082020 -0.480122
0.286960 -0.442718 0.108628
0.286960 0.458649 0.047786
0.286960 -0.110349 0.445882
0.286960 -0.480314 0.045344
0.286960 0.443713 -0.173212
0.286960 -0.387194 -0.284477
0.286960 -0.438231 -0.081432
0.286960 -0.407605 0.211559
0.286960 -0.477365 -0.081345
0.286960 0.152064 -0.426614
0.286960 0.015550 -0.452851
0.286960 -0.262967 0.376451
0.286960 -0.413359 0.200284
0.286960 0.146422 0.468729
0.286960 0.151182 0.450506
0.286960 0.090113 0.460760
0.286960 0.485526 -0.097128
0.286960 0.453888 -0.008932
0.286960 -0.290241 0.368238
0.286960 0.171891 0.418882
0.286960 -0.439208 0.227020
0.286960 -0.392737 -0.237855
0.286960 0.140052 -0.460603
0.286960 0.236007 -0.439436
0.286960 -0.155051 0.433498
0.286960 -0.008195 0.476046
0.286960 -0.111643 -0.479098
0.286960 0.259573 -0.385376
0.286960 0.375672 -0.249527
0.286960 -0.123058 -0.448316
0.286960 0.119138 0.465659
0.286960 0.424141 0.209622
0.286960 0.117863 -0.472330
0.286960 -0.402102 0.274510
0.286960 -0.422181 0.177776
0.286960 -0.236277 -0.395558
0.286960 -0.195888 0.419648
0.286960 -0.001169 -0.457034
0.286960 0.411321 -0.212723
0.286960 0.259941 -0.377592
0.286960 -0.085758 -0.457407
0.286960 0.284912 -0.368206
0.286960 -0.385900 -0.276149
0.286960 0.135723 -0.436411
0.286960 -0.399721 -0.272715
0.286960 0.488965 -0.014448
0.286960 -0.040399 -0.471978
0.286960 -0.158690 -0.429372
0.286960 0.464141 0.060392
0.286960 0.014413 -0.484932
0.286960 -0.326414 -0.328626
0.286960 -0.219475 -0.448482
0.286960 0.405228 -0.188089
0.286960 -0.259124 -0.423873
0.286960 0.339208 0.343830
0.286960 -0.431520 0.242992
0.286960 -0.405668 0.275149
0.286960 -0.264652 -0.418140
0.286960 -0.158289 0.439712
0.286960 0.198380 0.402955
0.286960 -0.456661 -0.123455
0.286960 -0.234221 0.422083
0.286960 -0.140526 0.474183
0.286960 0.433363 -0.156353
0.286960 0.442315 0.087969
0.286960 -0.438160 -0.173655
0.286960 0.363517 -0.271965
0.286960 0.008535 0.472879
0.286960 -0.409131 -0.225087
0.286960 -0.223005 -0.446833
0.286960 -0.035000 -0.454917
0.286960 0.398070 -0.254099
0.286960 0.247289 -0.427061
0.286960 -0.064981 0.457789
0.286960 0.393678 -0.279279
0.286960 0.135865 0.432430
0.286960 -0.219187 -0.435703
0.286960 0.198362 0.416930
0.286960 -0.185941 0.417765
0.286960 -0.449316 -0.058183
0.286960 -0.464721 -0.130256
0.286960 -0.210070 0.423599
0.286960 -0.381748 -0.275235
0.286960 0.455061 -0.110393
0.286960 0.402621 -0.202259
0.286960 -0.401704 0.231559
0.286960 0.462828 0.037592
0.286960 -0.141451 0.465442
0.286960 0.072559 0.437712
0.286960 -0.195135 0.406546
0.286960 -0.448333 -0.092956
0.286960 0.323926 -0.332692
0.286960 -0.428427 -0.165327
0.286960 -0.275245 -0.382742
0.286960 -0.416929 -0.253074
0.286960 -0.329515 -0.321360
0.286960 -0.043626 -0.473920
0.286960 0.199417 0.453927
0.286960 0.461481 0.102335
0.286960 -0.391218 -0.214295
0.286960 -0.473212 0.027070
0.286960 0.355480 0.269402
0.286960 0.381714 -0.304097
0.286960 -0.108086 -0.449818
0.286960 -0.016749 -0.462138
0.286960 -0.364159 0.336383
0.286960 -0.297500 -0.363787
0.286960 -0.461675 -0.090988
0.286960 -0.080073 0.459432
0.286960 -0.082362 0.439555
0.286960 -0.175215 0.443079
0.286960 0.055052 -0.485757
0.286960 -0.446521 0.058171
0.286960 -0.467589 -0.029526
0.286960 0.019176 -0.494863
0.286960 -0.155444 0.437446
0.286960 -0.179389 0.458668
0.286960 0.127377 -0.439018
0.286960 0.441366 0.118354
0.286960 -0.393672 0.230889
0.286960 0.279508 -0.410379
0.286960 0.370105 -0.325426
0.286960 0.000058 0.488543
0.286960 -0.210603 -0.418208
0.286960 0.469150 -0.116289
0.286960 -0.446193 0.107258
0.286960 -0.450218 0.113626
0.286960 0.061207 0.463238
0.286960 0.177630 0.411180
0.286960 -0.484156 0.111022
0.286960 -0.131590 0.423071
0.286960 -0.293709 0.353185
0.286960 -0.036450 0.463054
0.286960 -0.487110 -0.100314
0.286960 -0.042874 0.445002
0.286960 0.049810 -0.468953
0.286960 -0.360947 0.285291
0.286960 0.471767 -0.019779
0.286960 0.308240 0.365750
0.286960 0.458973 0.174530
0.286960 -0.412727 0.240016
0.286960 0.283643 -0.394413
0.286960 -0.360088 0.325981
0.286960 0.496501 -0.000911
0.286960 0.460643 -0.120752
0.286960 -0.387592 -0.263439
0.286960 0.447290 0.187316
0.286960 -0.369003 -0.289634
0.286960 -0.185189 0.410860
0.286960 -0.458370 0.004300
0.286960 -0.327667 0.308407
0.286960 -0.414296 -0.247470
0.286960 0.471197 0.131282
0.286960 -0.446517 0.209956
0.286960 0.062935 0.490632
0.286960 -0.169297 0.416649
0.286960 -0.471607 0.001891
0.286960 0.367462 0.257437
0.286960 -0.300355 -0.374421
0.286960 -0.426064 0.178409
0.286960 0.154600 0.463978
0.286960 -0.132013 -0.478364
0.286960 -0.103693 -0.457026
0.286960 0.104771 -0.465034
0.286960 0.230437 0.414739
0.286960 -0.124434 -0.464176
0.286960 -0.093908 0.433238
0.286960 -0.222309 -0.418113
0.286960 -0.450347 -0.083494
0.286960 0.467317 -0.149063
0.286960 -0.237590 0.424489
0.286960 -0.445425 0.030057
0.286960 0.221964 0.438939
0.286960 0.466638 -0.003563
0.286960 -0.457130 0.097906
0.286960 -0.402483 -0.210180
0.286960 -0.436058 -0.222959
0.286960 -0.026633 0.445268
0.012430 -0.497007 -0.027489
-0.024667 0.218306 0.445865
0.037135 -0.496411 -0.034838
0.191452 -0.377718 0.321969
0.013377 -0.071201 0.490570
-0.114343 0.488426 -0.102713
-0.157213 -0.453078 0.203251
0.075542 0.273075 -0.418898
-0.154185 -0.458497 0.191175
0.121869 0.300320 -0.399742
0.218188 0.398883 0.296563
0.043628 -0.461304 0.184433
-0.167265 0.239342 0.434816
-0.257754 0.186447 -0.464138
0.036788 -0.051747 0.493159
0.189925 -0.076746 -0.494139
-0.094912 -0.329418 -0.375168
0.103821 -0.318572 0.380150
-0.269352 -0.190959 -0.462030
-0.083158 -0.118342 -0.485737
0.238413 -0.119900 0.481146
-0.112747 0.160456 0.469622
-0.236924 0.461985 0.184931
0.050195 0.399394 -0.300625
0.191300 -0.275748 -0.416600
0.271484 0.441858 -0.232740
0.268002 -0.075170 0.489996
-0.047446 -0.264688 0.419405
-0.153191 0.434169 0.242560
-0.220841 0.497718 0.027008
0.094203 -0.247927 -0.433893
-0.069371 -0.091940 -0.491524
0.131397 0.348008 -0.358813
0.098839 -0.484010 -0.117810
0.137825 0.332003 0.369402
0.194704 0.332160 0.369259
0.140404 0.261334 -0.426609
0.240078 0.302732 -0.397922
-0.125390 0.230776 -0.443821
0.140337 0.497695 -0.030186
0.275002 -0.485214 -0.112068
-0.223074 0.009684 -0.500030
-0.180789 0.348559 -0.358276
0.007081 -0.118964 -0.485589
0.029076 -0.369870 0.330634
-0.000866 0.490020 -0.093697
0.162694 0.339854 -0.366751
-0.214607 -0.417236 0.269174
-0.134496 0.498215 0.015358
-0.107927 0.002233 0.495873
-0.233054 -0.149934 -0.476873
0.219164 -0.446922 -0.220690
0.033496 0.020083 -0.499843
0.254719 -0.326398 0.373435
-0.273561 0.363414 0.338883
-0.193387 0.453340 -0.209306
-0.061832 0.234289 0.437477
0.243322 -0.311491 0.386187
0.228758 -0.054776 -0.497039
-0.042007 0.491140 0.084189
0.286302 0.316763 -0.386935
0.267922 -0.120446 0.480995
0.248199 0.295382 0.399232
-0.260726 -0.347129 0.354318
0.118072 0.294657 0.399738
0.099031 -0.484713 0.109670
0.210436 0.233245 0.438026
-0.190648 -0.444147 0.222091
-0.054063 -0.103672 -0.489223
-0.181303 0.427450 -0.258455
0.144731 -0.416943 -0.273628
-0.036247 0.149609 0.472932
-0.010460 -0.409487 0.280408
-0.239607 0.241093 -0.438217
-0.056493 0.492631 0.073879
0.049452 0.023827 0.495216
-0.092866 -0.496504 0.029536
-0.277726 -0.143068 0.474750
0.041343 -0.496975 0.019044
0.198350 -0.047814 0.493478
0.174905 0.491804 0.079599
0.265066 0.202925 0.452767
0.120169 0.131040 -0.482707
-0.193094 0.125868 -0.484134
-0.176852 -0.279344 -0.414084
-0.099025 -0.469238 0.163290
0.214215 0.467871 -0.174018
-0.056058 0.495829 -0.053266
0.055009 0.326537 -0.378548
0.252022 0.376698 0.324065
0.048429 0.494935 -0.061536
-0.270122 -0.407549 -0.287856
0.201832 0.047029 -0.497978
0.127127 0.111042 -0.487769
-0.186244 -0.238099 -0.439284
0.134890 -0.065421 -0.495889
0.165576 -0.361763 -0.343879
-0.044007 0.409661 0.281856
0.261402 0.362516 0.339805
0.083429 0.215414 -0.451390
-0.077627 0.400135 -0.299599
-0.231452 0.477453 -0.145268
-0.263582 -0.387024 -0.315190
-0.242317 0.182480 -0.465792
-0.054247 0.474550 0.150579
-0.247718 -0.430770 -0.251054
0.166642 -0.247274 0.429731
0.059290 0.246874 -0.434901
-0.261182 0.225267 -0.446536
0.263599 -0.467808 0.167102
0.130512 -0.496947 -0.028226
-0.000069 0.484784 -0.118040
0.001779 -0.048105 0.493454
0.032580 -0.494551 0.051251
0.141019 0.498124 0.020435
-0.182310 0.440922 -0.234516
-0.220033 -0.497593 0.002630
0.177759 0.497354 -0.037776
0.067291 0.366255 0.335965
0.102568 -0.343695 0.357660
-0.207439 -0.400262 -0.297730
0.184550 0.432033 -0.250938
-0.071281 0.382969 0.316757
0.261762 -0.162831 0.468209
0.097687 0.052743 0.493016
0.230109 0.496415 -0.047835
0.274074 -0.459298 -0.193270
-0.104993 0.130626 0.478708
0.034400 -0.437615 -0.239116
-0.092131 -0.083612 -0.492957
0.236907 -0.425920 -0.259511
-0.005477 0.176016 0.463807
0.027933 0.284442 0.406883
0.162431 0.471647 -0.163955
0.087516 0.485299 -0.115871
-0.123014 -0.287663 -0.408266
-0.221119 -0.271670 -0.419418
-0.110472 0.405805 0.287388
-0.198389 0.498279 -0.017163
0.111120 -0.245976 0.430475
0.166207 0.405755 -0.291563
0.127253 -0.413403 -0.278990
0.040463 0.343179 -0.363514
-0.079137 0.041589 -0.498418
0.072487 0.233268 0.438014
0.087261 0.457672 -0.199652
-0.149644 0.486627 0.105859
-0.061797 0.368004 -0.338179
0.151877 0.428263 -0.257122
0.143710 0.472392 0.156835
-0.185220 0.251571 -0.432208
0.017039 0.468293 -0.172892
-0.238613 -0.350596 -0.355350
-0.222016 -0.475413 -0.149383
0.125760 -0.437977 -0.238485
-0.064624 -0.386779 0.310806
0.132496 -0.116722 -0.486122
0.251500 -0.270837 -0.419926
-0.069094 -0.452541 0.204448
-0.208971 -0.497608 0.003482
0.051877 0.263447 -0.425254
-0.172210 0.494832 0.058664
-0.177437 -0.484769 -0.114189
-0.093302 0.064231 -0.496080
0.094221 -0.321353 -0.382385
-0.261068 0.045062 -0.498137
0.105111 0.191973 -0.461834
-0.041745 -0.497080 -0.025865
-0.243903 0.484835 -0.117823
0.091045 0.452838 -0.210425
-0.071475 0.195396 -0.460407
-0.127428 0.480285 0.131096
-0.190702 0.457823 0.194914
-0.062516 0.419719 0.266621
0.092016 -0.494349 -0.059273
-0.213052 -0.428332 -0.255305
-0.286259 0.498076 -0.021680
-0.068694 0.090177 -0.492140
0.076133 -0.332022 0.368609
-0.078862 -0.170646 0.465513
0.060014 0.185814 0.460131
-0.011695 0.124326 -0.484560
0.232489 -0.497184 -0.020079
-0.260175 0.498015 0.023334
0.128846 0.340018 -0.366592
0.051999 -0.463384 -0.183471
0.143199 -0.051768 -0.497364
-0.001283 0.292495 0.401251
-0.053983 -0.478104 0.135423
-0.258845 0.197907 0.455019
-0.114603 -0.091712 0.487250
-0.264588 0.356251 0.346241
0.177160 -0.249606 0.428394
0.173808 0.016592 -0.499906
-0.019388 0.143153 0.474902
-0.038692 -0.038564 0.494227
0.175519 0.178352 0.462931
0.249921 0.481418 0.126989
-0.186572 0.306610 -0.394996
-0.203862 -0.103087 -0.489362
-0.013063 0.407619 0.284950
0.013632 -0.487915 0.095619
0.190973 0.413515 0.276019
0.223920 -0.472733 0.153028
0.176068 -0.138932 -0.480230
-0.004120 -0.408079 -0.287054
0.037280 -0.477324 0.137978
0.132549 -0.358432 0.343263
-0.093119 0.146073 0.474011
-0.274326 0.498425 -0.013907
0.049325 -0.301870 0.393445
-0.065115 -0.497519 0.006911
0.168169 0.472906 0.155346
-0.123875 -0.317830 -0.385195
-0.112343 0.442254 0.227890
0.220538 -0.480710 -0.130197
-0.122766 0.478198 -0.142828
0.018444 0.303335 -0.397467
-0.194280 -0.320371 0.378607
0.067472 0.068458 -0.495469
0.250082 0.046898 -0.497988
-0.288385 0.373896 -0.331674
0.107064 -0.460629 0.186233
-0.063681 -0.470807 -0.162813
-0.240264 -0.044614 0.493737
-0.206425 0.077498 0.489833
-0.184853 0.134995 -0.481615
0.223297 -0.301580 0.393664
-0.007186 -0.340180 -0.365421
0.124547 -0.170045 -0.470017
-0.112189 0.492305 -0.080424
-0.089325 -0.372515 -0.332099
-0.008406 0.341871 -0.364787
0.131629 -0.494001 0.056342
0.238863 -0.118869 -0.485612
0.206676 -0.457944 -0.196518
-0.289654 0.263387 0.420740
-0.069262 -0.282922 -0.411582
-0.091272 0.485051 -0.116916
0.179283 -0.220357 0.444097
0.003235 0.155809 0.471040
-0.071304 0.496626 -0.045891
0.246041 -0.472722 0.153064
-0.256340 0.407673 0.284867
0.010032 -0.302717 -0.397246
-0.184430 -0.435409 -0.242965
0.236369 -0.034587 0.494549
-0.141104 -0.016398 -0.499857
-0.158309 -0.274501 0.412927
0.177444 0.376998 0.323716
0.019319 -0.330480 -0.374206
-0.286218 -0.378854 -0.324711
-0.104337 0.351748 -0.355172
-0.094371 -0.125283 0.479660
0.117410 -0.169349 0.465960
-0.136068 -0.003688 -0.500271
-0.045796 0.390145 0.308144
0.105662 0.498608 -0.009824
-0.152185 0.490412 0.087790
-0.035813 -0.479909 -0.133099
-0.053957 -0.160438 -0.473622
0.220526 -0.497547 0.000060
0.107124 0.219546 0.445239
-0.275992 -0.494036 -0.061438
0.160030 -0.060392 0.492134
0.140457 -0.454671 0.199702
-0.111066 -0.170225 0.465658
-0.135085 -0.383417 -0.319394
0.220760 0.227621 0.440987
-0.145957 -0.138038 -0.480503
0.219352 -0.364377 0.336698
-0.143703 0.475128 -0.152888
-0.204858 0.494896 0.058227
0.282976 0.461245 0.186705
0.202169 -0.495267 -0.048954
0.281496 0.481247 0.127609
0.083733 0.396878 0.299221
-0.175865 0.493811 -0.071673
0.213912 0.474157 -0.156070
-0.049959 0.400992 -0.298374
-0.277677 0.346020 0.356706
0.190907 -0.134782 0.477037
-0.273276 -0.473169 0.151597
0.072072 -0.475240 -0.149960
-0.285844 0.481679 -0.131106
0.011783 0.205084 -0.456369
0.098720 -0.112137 0.482971
0.152991 0.477360 -0.145574
-0.224595 -0.438124 0.233531
-0.189411 -0.479486 -0.134629
-0.177078 0.379803 0.320446
-0.142914 0.373336 -0.332292
0.009988 0.170233 -0.470362
0.019775 0.447517 0.217209
-0.006569 -0.068957 -0.495480
0.278375 -0.496963 -0.028027
-0.169344 -0.494582 0.050960
-0.045333 0.282218 -0.412862
0.115283 0.483267 0.120291
0.286305 -0.054488 -0.497070
-0.191907 -0.178456 -0.466861
0.026005 0.145887 0.474068
-0.133625 -0.438163 0.233457
-0.135013 0.394192 0.302781
0.133008 -0.400625 -0.297249
-0.227325 -0.046663 0.493571
-0.288896 -0.407297 0.283540
-0.106700 0.280322 0.409764
0.195049 0.498573 -0.010596
-0.119087 0.426116 -0.260642
-0.141969 0.019311 0.495419
-0.245689 0.401850 -0.297147
0.154649 0.466695 -0.177151
-0.010266 -0.207113 0.450623
0.029166 -0.494983 -0.052467
-0.246493 -0.469258 -0.167304
0.090641 -0.315348 0.382917
0.073057 0.222752 -0.447775
-0.249008 -0.163925 -0.472313
-0.274269 -0.345772 -0.360305
0.123970 0.284902 0.406561
-0.194658 0.073697 -0.494711
0.176525 -0.151236 -0.476476
0.052373 0.480681 -0.134689
-0.276466 0.424479 0.259411
-0.014745 -0.161989 0.468499
-0.284307 0.498387 0.005829
-0.246434 0.493719 0.066361
-0.032584 -0.039473 -0.498693
-0.134656 0.464919 -0.181885
-0.043673 0.458000 -0.198922
0.097868 0.480350 -0.135774
-0.243938 0.498385 0.005919
0.227880 -0.496303 0.034012
-0.053223 0.280985 0.409300
0.146148 -0.430037 -0.252331
-0.084512 -0.268834 -0.421147
-0.008130 -0.235165 0.436675
-0.112316 -0.426148 -0.259113
0.227156 0.207683 0.450632
-0.209810 0.498141 0.019477
0.083718 0.300411 0.395548
0.085645 0.470714 -0.166441
0.281514 -0.209891 0.449254
-0.243162 -0.078521 0.489511
-0.287127 0.010551 0.495812
0.054372 0.395983 0.300407
0.049113 0.179409 0.462534
0.094787 -0.419267 -0.270106
0.107295 -0.345605 -0.360476
-0.070031 0.104422 -0.489156
-0.125575 0.055847 0.492681
0.211460 -0.419486 -0.269775
0.144391 0.434549 -0.246621
-0.175135 -0.398447 0.296174
-0.154969 -0.463421 0.178791
0.281590 0.175888 -0.468411
-0.078220 0.264378 0.420135
-0.252736 0.477193 -0.146121
-0.193521 -0.487553 0.097719
-0.009631 0.494697 -0.063741
-0.002633 -0.199465 0.453930
0.153070 -0.128863 0.478672
-0.103907 -0.490071 -0.088846
-0.144502 0.142866 -0.479442
-0.116876 -0.390006 0.306759
-0.022504 0.165765 0.467654
0.009323 -0.262909 0.420580
0.200398 0.486682 0.105594
-0.251209 0.485436 0.111543
0.065046 0.299125 -0.400643
-0.254120 -0.491001 0.077689
0.045741 -0.152929 -0.475960
-0.278300 -0.161633 0.468622
-0.286985 0.491368 -0.085866
-0.269843 0.493691 -0.072374
-0.103945 0.497766 -0.028594
-0.228313 0.457482 0.195731
0.052566 -0.437279 -0.239703
0.031308 0.411020 0.279798
-0.036704 -0.079705 0.489340
0.212398 -0.035157 0.494503
0.167543 0.497830 -0.027172
-0.023068 -0.486562 -0.105631
0.092583 -0.350157 0.351370
-0.270780 -0.436052 -0.241842
0.137557 0.438123 0.235665
0.078693 0.061260 -0.496510
0.160761 -0.455630 0.197565
0.039948 0.472102 -0.162741
-0.234533 -0.496719 -0.031036
-0.226133 -0.371160 -0.333678
-0.272635 0.136216 -0.481278
0.078389 -0.496680 0.025616
0.159804 -0.044923 0.493712
-0.231931 0.437166 0.237333
0.283726 -0.390461 0.306188
0.038403 -0.485822 0.105005
0.164218 -0.497401 0.009526
0.104200 0.487413 -0.106974
-0.283349 -0.130067 -0.482935
0.127696 0.453079 0.205921
0.170217 -0.496194 -0.037523
0.075867 -0.085749 -0.492589
0.115133 -0.119456 0.481268
0.058591 0.452707 -0.210715
-0.228290 0.001887 0.495867
-0.121252 -0.276633 -0.415981
-0.087424 -0.223969 -0.446724
0.005744 0.144585 0.474465
0.158549 0.168003 -0.471132
-0.273107 0.268408 0.417678
-0.256318 -0.413173 -0.279337
0.158261 -0.494482 0.051887
-0.161258 -0.256417 0.424488
-0.135891 -0.107918 -0.488214
0.050413 0.487131 -0.108162
-0.064326 0.498176 0.017524
-0.237569 -0.454673 -0.204365
-0.072537 -0.497272 -0.015172
-0.289245 0.488126 0.098702
-0.084194 0.355493 0.347020
-0.184678 0.264438 -0.424600
0.230081 -0.029306 -0.499278
-0.051779 0.480280 -0.136005
0.040217 0.211619 0.448866
0.240012 -0.496380 0.032293
0.183860 0.080593 -0.493713
-0.032081 0.449867 0.212439
0.159156 0.496241 0.045227
-0.197175 0.339824 0.362318
0.153071 0.304087 -0.396899
-0.057583 0.471199 0.160294
0.015679 -0.481040 -0.128999
-0.272076 -0.492197 -0.074149
0.033855 0.249607 -0.433334
-0.100697 0.491793 -0.083395
-0.120933 -0.445753 -0.223062
0.048397 0.413604 0.275884
-0.158037 -0.084346 -0.492831
-0.069749 0.163892 -0.472549
0.115711 0.239542 -0.439106
0.164587 -0.374535 0.325483
-0.284251 0.192442 -0.461639
-0.238481 0.473540 -0.158092
0.142859 -0.381044 0.317999
0.077857 0.367598 0.334585
0.075381 0.480866 0.128990
0.099953 0.180705 -0.466532
-0.145459 -0.087136 -0.492351
-0.062692 -0.352216 0.349365
0.175486 0.314341 -0.389014
-0.218190 0.492119 0.077421
0.223241 -0.492746 0.067556
0.116223 0.020113 0.495383
-0.266209 0.492540 0.074510
0.235930 0.280273 -0.414146
0.174605 0.470932 -0.165861
-0.160044 -0.270099 -0.420376
0.162941 -0.466364 -0.175692
0.198090 0.401248 -0.298008
-0.137118 0.491875 0.079107
-0.111018 0.187599 -0.463658
-0.197780 -0.253722 -0.430360
0.023793 0.055207 -0.497315
-0.159227 0.498183 -0.019304
-0.180625 -0.297795 0.396520
0.088654 0.140863 -0.479995
-0.058125 -0.474404 -0.152385
-0.013313 -0.246845 0.429977
-0.131997 -0.048550 0.493418
0.285602 -0.405155 -0.291245
-0.009355 0.195603 -0.460321
-0.072673 0.255505 0.425544
0.197530 0.383905 0.315666
-0.102456 0.496956 0.036411
0.021474 -0.462998 -0.184397
0.070558 0.257742 -0.428669
-0.226673 0.467570 0.170814
-0.183997 -0.199653 -0.458129
0.190430 -0.344246 0.357124
0.042759 0.285623 -0.410614
-0.241958 -0.496594 0.027525
-0.267658 -0.330245 -0.374419
0.043673 -0.134348 -0.481629
0.221600 -0.397590 0.297247
-0.152225 0.378546 -0.326540
0.193996 0.088735 -0.492442
0.121723 -0.482031 0.120959
0.017056 0.262924 0.421022
-0.069859 -0.418117 0.267729
0.128609 0.023493 0.495231
0.194431 -0.363435 0.337739
0.232471 0.489710 0.091141
0.122649 -0.330034 -0.374610
-0.249840 -0.286880 0.404754
-0.078934 -0.060717 0.492087
-0.098323 0.470032 0.163678
0.024675 -0.470067 0.161081
0.213215 0.226393 -0.445981
-0.289088 0.488873 -0.100357
-0.092830 0.411062 -0.283976
-0.203329 0.240718 -0.438432
0.176360 0.036990 -0.498791
-0.121776 0.290671 -0.407021
0.267154 -0.367069 -0.338429
0.172415 0.398618 -0.301598
-0.203506 -0.445358 -0.223863
-0.256335 -0.484857 -0.113769
-0.276969 -0.137581 -0.480643
-0.068274 0.446035 0.220216
-0.063442 0.437121 -0.241735
-0.221000 0.438427 0.235134
-0.170693 -0.225493 -0.445922
-0.136352 0.281645 -0.413240
-0.262134 -0.088969 0.487825
-0.289035 -0.175500 -0.467970
0.219136 -0.286922 -0.408784
0.114584 0.497932 -0.024887
0.204016 0.405938 0.287211
-0.078803 -0.396616 0.298470
-0.072462 -0.279944 0.409333
0.101564 -0.040689 -0.498562
0.112363 0.139284 0.476082
-0.212454 0.493177 -0.075357
0.217723 0.275152 0.413380
0.057714 -0.484276 0.111512
-0.271423 0.282036 -0.412982
-0.240033 0.351641 0.350975
0.047136 0.369041 0.332988
0.131120 -0.275087 -0.417061
0.137456 -0.401583 0.291709
0.038848 -0.301437 0.393772
0.120612 -0.204125 0.451987
0.197349 0.104187 0.484991
0.116888 -0.488512 0.092150
-0.151081 -0.487165 0.099352
0.062084 -0.496682 0.025561
-0.194795 -0.492950 -0.068949
0.244452 0.183853 0.460867
-0.237087 0.362686 0.339630
0.137562 -0.163001 0.468150
0.007895 -0.285981 0.405348
0.029853 -0.474391 0.147592
-0.090585 0.430548 -0.253373
0.141450 0.363739 -0.342888
-0.063036 0.497448 0.030329
0.105309 0.276412 -0.416695
-0.139450 -0.183322 -0.465035
-0.202713 -0.465789 0.172482
0.105448 -0.493345 -0.066214
0.198563 -0.496523 0.029106
0.144447 0.062643 -0.496310
-0.215713 0.477714 0.140407
-0.082375 0.038854 0.494517
-0.072443 0.406096 -0.291077
0.093905 0.473656 -0.157714
-0.001886 -0.358241 0.343473
-0.064364 0.142539 -0.479532
0.181070 0.344991 0.357638
0.286308 -0.162161 0.468440
-0.236977 0.038171 -0.498695
-0.284129 0.290716 0.402494
0.121686 0.385222 -0.318398
0.044323 0.477473 -0.145202
-0.195112 -0.204064 0.452013
0.138415 -0.391483 -0.309366
-0.152340 -0.343530 -0.362386
0.182913 -0.449477 0.211276
0.016931 -0.107584 -0.488294
0.227969 0.468711 -0.171779
-0.169868 -0.117291 -0.485987
-0.107246 0.119767 -0.485819
0.109771 -0.485753 0.105295
-0.229796 -0.448700 0.213007
-0.016133 -0.197862 0.454599
-0.177185 -0.477145 -0.143111
0.064953 -0.186659 0.459269
-0.287923 -0.399368 -0.298915
-0.048042 -0.424073 -0.262731
0.118593 0.491851 -0.083063
-0.138084 -0.493927 0.057029
0.150405 0.022866 0.495259
-0.227089 0.272005 0.415486
0.024299 -0.316193 -0.386500
0.253651 0.494467 0.061190
0.004259 -0.294272 -0.403644
0.055834 0.427834 0.253608
0.174950 -0.230099 0.439296
-0.047873 -0.324699 -0.379442
-0.025546 -0.226107 0.441263
0.135402 -0.240335 0.433710
0.071111 -0.497298 -0.013735
0.199251 -0.422913 0.259862
-0.108087 0.476901 -0.147077
0.267238 0.016488 -0.499908
0.089037 0.437936 -0.240188
-0.016394 0.454554 0.202754
0.170363 -0.484544 -0.115265
-0.017045 0.052929 -0.497500
0.043099 -0.122649 -0.484714
-0.284758 0.380984 0.319070
-0.184395 -0.386071 -0.316300
-0.286760 -0.495614 0.041414
-0.267771 -0.421532 -0.266676
