0.286960 -0.024926 0.459808
0.286960 0.425402 -0.228314
0.286960 0.005766 0.448533
0.286960 0.172590 0.441505
0.286960 0.253305 0.402566
0.286960 0.008118 0.446208
0.286960 0.459911 -0.148084
0.286960 0.105838 -0.450407
0.286960 0.393046 0.238317
0.286960 0.122728 0.463188
0.286960 -0.214635 -0.404347
0.286960 0.397180 -0.262664
0.286960 -0.191903 -0.419494
0.286960 -0.063957 0.475338
0.286960 0.110945 -0.456101
0.286960 -0.272597 0.386461
0.286960 -0.254645 0.386559
0.286960 0.315348 -0.357204
0.286960 0.451105 -0.108562
0.286960 0.443080 -0.180290
0.286960 0.449751 -0.066887
0.286960 -0.451670 -0.147989
0.286960 0.350495 0.276975
0.286960 0.148173 0.441936
0.286960 -0.120596 -0.483675
0.286960 -0.451801 -0.175043
0.286960 -0.409520 -0.230308
0.286960 -0.061539 0.468124
0.286960 -0.441098 -0.115057
0.286960 0.159091 -0.419163
0.286960 -0.198791 -0.451211
0.286960 0.046727 -0.475960
0.286960 -0.358469 -0.302290
0.286960 0.220090 -0.448585
0.286960 0.084331 0.447407
0.286960 0.333734 -0.359774
0.286960 -0.329140 0.353860
0.286960 0.435440 -0.212968
0.286960 -0.482919 -0.063766
0.286960 -0.408030 0.254866
0.286960 -0.287022 0.403715
0.286960 -0.043184 -0.461594
0.286960 0.397521 -0.271986
0.286960 -0.423958 -0.243116
0.286960 0.113338 -0.472855
0.286960 -0.469048 -0.028759
0.286960 -0.053678 0.480105
0.286960 0.313067 0.366609
0.286960 0.106118 0.459296
0.286960 -0.426778 0.174819
0.286960 0.119647 -0.472531
0.286960 -0.483031 -0.067918
0.286960 0.228445 0.402814
0.286960 0.323146 0.354926
0.286960 0.276855 -0.366793
0.286960 0.226056 0.434303
0.286960 -0.256556 -0.410450
0.286960 -0.053628 -0.465186
0.286960 -0.439122 0.178074
0.286960 0.292115 0.391858
0.286960 0.471565 0.149250
0.286960 -0.472650 0.124264
0.286960 -0.104263 0.465756
0.286960 -0.400368 -0.229075
0.286960 -0.108119 0.452302
0.286960 -0.390762 -0.287083
0.286960 -0.481480 0.022403
0.286960 -0.297172 -0.380062
0.286960 0.312993 -0.380999
0.286960 0.064376 -0.489171
0.286960 -0.134749 -0.463341
0.286960 0.460572 0.051782
0.286960 -0.126435 0.472799
0.286960 -0.391463 0.235113
0.286960 0.484221 0.065978
0.286960 -0.281641 -0.356070
0.286960 0.253301 -0.380970
0.286960 0.070693 0.443498
0.286960 0.422454 0.141031
0.286960 0.351174 0.291128
0.286960 0.303867 0.359330
0.286960 0.463760 0.160661
0.286960 0.086818 0.445448
0.286960 -0.326614 0.358694
0.286960 -0.371335 0.321283
0.286960 -0.440783 0.146891
0.286960 -0.422238 0.260833
0.286960 0.371100 0.285179
0.286960 -0.088267 -0.444431
0.286960 0.102232 0.467905
0.286960 0.384972 0.270526
0.286960 -0.302508 0.324707
0.286960 -0.451685 0.040855
0.286960 -0.478255 -0.035836
0.286960 0.081640 0.450124
0.286960 0.132747 0.424479
0.286960 -0.285759 0.388729
0.286960 0.329591 -0.359981
0.286960 0.373932 -0.272940
0.286960 0.232693 0.418899
0.286960 0.378254 -0.319392
0.286960 0.423989 0.156893
0.286960 0.398873 -0.279415
0.286960 -0.292663 -0.376472
0.286960 0.446757 -0.109479
0.286960 -0.334334 -0.301261
0.286960 0.476232 -0.080658
0.286960 -0.024775 -0.477878
0.286960 0.468489 -0.119427
0.286960 -0.399950 0.209629
0.286960 0.449484 0.165165
0.286960 -0.443683 -0.051912
0.286960 -0.036591 0.467215
0.286960 -0.381334 -0.298409
0.286960 0.123068 0.471814
0.286960 -0.171827 0.429198
0.286960 0.260738 -0.368887
0.286960 0.357507 -0.347778
0.286960 0.389729 0.216827
0.286960 0.378406 0.295948
0.286960 -0.360483 0.284210
0.286960 -0.323714 0.316319
0.286960 0.375645 -0.287304
0.286960 -0.108020 -0.460737
0.286960 -0.336803 0.320939
0.286960 -0.459034 0.180200
0.286960 -0.422219 0.223275
0.286960 -0.185884 -0.459378
0.286960 -0.304755 0.390796
0.286960 0.433186 0.139313
0.286960 -0.019367 -0.457227
0.286960 0.448379 0.178305
0.286960 0.460195 -0.137962
0.286960 -0.015259 -0.466076
0.286960 0.468837 -0.136091
0.286960 0.473567 0.001749
0.286960 -0.451993 -0.091375
0.286960 0.459279 0.022875
0.286960 -0.414984 -0.225672
0.286960 -0.133330 0.459699
0.286960 0.379390 0.241070
0.286960 0.297170 -0.368446
0.286960 -0.067925 -0.478615
0.286960 -0.394742 -0.286735
0.286960 0.486184 -0.076355
0.286960 0.016026 0.467076
0.286960 -0.305286 -0.365308
0.286960 -0.353550 0.332676
0.286960 0.277539 0.410549
0.286960 0.004993 0.461679
0.286960 -0.123007 0.444246
0.286960 -0.236842 -0.435649
0.286960 0.267585 0.418138
0.286960 0.318785 0.317246
0.286960 0.287536 0.391737
0.286960 -0.484698 -0.037905
0.286960 0.275403 -0.377328
0.286960 0.063184 0.459059
0.286960 -0.466139 0.162913
0.286960 -0.363818 -0.269470
0.286960 -0.111871 -0.455934
0.286960 0.461322 -0.086439
0.286960 -0.451989 0.081977
0.286960 -0.197781 -0.405372
0.286960 0.391538 -0.279268
0.286960 0.448159 -0.006196
0.286960 -0.411440 0.231195
0.286960 -0.039988 -0.492303
0.286960 -0.301779 0.380517
0.286960 -0.301956 0.360148
0.286960 -0.413783 -0.206501
0.286960 -0.455774 -0.121468
0.286960 0.184562 -0.416514
0.286960 0.373725 0.271102
0.286960 -0.458583 0.151196
0.286960 -0.476330 -0.112304
0.286960 0.176909 0.427707
0.286960 -0.005548 0.490431
0.286960 -0.456119 -0.072284
0.286960 -0.312595 -0.366528
0.286960 -0.364513 0.323592
0.286960 0.483954 0.101349
0.286960 0.306743 -0.385798
0.286960 -0.087145 0.455260
0.286960 -0.217734 -0.405821
0.286960 -0.350245 0.351003
0.286960 0.157504 0.467207
0.286960 0.449940 -0.128975
0.286960 -0.170297 -0.469284
0.286960 0.041483 0.446066
0.286960 -0.036886 0.450374
0.286960 -0.278526 0.406787
0.286960 0.330625 0.301527
0.286960 0.260217 -0.424096
0.286960 -0.028004 0.494805
0.286960 -0.070494 0.483693
0.286960 0.010797 0.455958
0.286960 0.330390 0.297935
0.286960 -0.025085 -0.486015
0.286960 -0.067197 0.456278
0.286960 0.479479 -0.124703
0.286960 -0.314515 0.335541
0.286960 -0.464437 0.049151
0.286960 0.416577 -0.206739
0.286960 0.471701 -0.025611
0.286960 -0.349594 -0.338451
0.286960 -0.423486 0.143860
0.286960 -0.127432 0.469285
0.286960 0.330826 0.363856
0.286960 -0.029790 -0.468207
0.286960 -0.091310 0.433539
0.286960 0.101786 0.449389
0.286960 -0.479289 0.035377
0.286960 -0.286934 0.378854
0.286960 0.332336 -0.333171
0.286960 -0.495305 -0.043067
0.286960 -0.012489 0.492473
0.286960 0.331195 -0.319610
0.286960 0.391063 -0.219699
0.286960 0.080102 0.460924
0.286960 -0.202375 -0.435409
0.286960 -0.400200 0.202908
0.286960 -0.464323 0.152533
0.286960 0.045083 0.452745
0.286960 -0.071846 -0.487855
0.286960 -0.151216 -0.432524
0.286960 0.377606 0.289045
0.286960 0.212664 0.389610
0.286960 0.039110 -0.453972
0.286960 0.095469 -0.463204
0.286960 0.216923 -0.418978
0.286960 0.441086 -0.113854
0.286960 0.481758 0.023244
0.286960 -0.363746 -0.279285
0.286960 0.483609 -0.008142
0.286960 -0.167193 -0.468412
0.286960 0.480605 -0.041816
0.286960 0.064416 -0.481034
0.286960 0.409478 -0.276233
0.286960 0.244765 0.428665
0.286960 0.476854 0.142830
0.286960 -0.111853 0.480545
0.286960 -0.025760 0.465323
0.286960 0.346202 -0.297639
0.286960 -0.344476 -0.333986
0.286960 0.411743 -0.222935
0.286960 -0.421143 -0.255281
0.286960 -0.374470 0.283212
0.286960 -0.462877 0.089748
0.286960 0.319900 -0.369308
0.286960 -0.480862 -0.018682
0.286960 -0.236110 0.398411
0.286960 -0.305269 -0.360439
0.286960 -0.402437 0.270637
0.286960 0.435706 0.111210
0.286960 0.194471 -0.442426
0.286960 -0.024977 -0.497893
0.286960 0.233580 0.377245
0.286960 -0.414837 -0.230192
0.286960 0.443471 0.223434
0.286960 0.492284 -0.056802
0.286960 -0.250728 0.421745
0.286960 0.313876 -0.327305
0.286960 0.239811 0.393541
0.286960 -0.426209 0.223929
0.286960 -0.489813 0.051927
0.286960 0.168846 0.452182
0.286960 -0.290882 0.398673
0.286960 -0.438116 0.115913
0.286960 -0.363168 0.282742
0.286960 0.276785 -0.357695
0.286960 -0.404640 -0.248130
0.286960 -0.140379 -0.435700
0.286960 0.289022 -0.387846
0.286960 -0.444143 -0.117490
0.286960 -0.346680 -0.321150
0.286960 -0.093698 0.445195
0.286960 -0.180515 0.431447
0.286960 -0.445474 0.152467
0.286960 0.025241 0.470325
0.286960 -0.448541 0.110121
0.286960 0.452916 0.085958
0.286960 -0.213887 -0.426082
0.286960 0.349563 -0.301714
0.286960 0.203579 0.441921
0.286960 0.044355 -0.472449
0.286960 0.412292 0.193110
0.286960 -0.483981 -0.098072
0.286960 0.453609 0.163727
0.286960 0.153435 -0.431205
0.286960 -0.402352 0.251093
0.286960 -0.495690 0.030428
0.286960 0.301636 0.381308
0.286960 -0.374873 0.304422
0.286960 0.353768 -0.352349
0.286960 0.232883 -0.442373
0.286960 0.420760 -0.261365
0.286960 -0.158700 0.421564
0.286960 -0.032732 -0.469913
0.286960 -0.257211 0.372312
0.286960 -0.471510 -0.158716
0.286960 0.176767 -0.433703
0.286960 0.275467 0.349681
0.286960 0.277764 0.366255
0.286960 -0.397502 -0.262835
0.286960 -0.467335 0.159649
0.286960 -0.058773 0.461784
0.286960 -0.455810 -0.155614
0.286960 -0.205905 -0.404657
0.286960 -0.363261 0.288703
0.286960 -0.354013 -0.300296
0.286960 0.270789 0.373363
0.286960 0.107223 0.443247
0.286960 0.045575 0.466997
0.286960 -0.276074 -0.387959
0.286960 -0.367308 -0.279716
0.286960 0.002183 -0.492125
0.286960 0.232266 0.396622
0.286960 0.479316 -0.022113
0.286960 -0.464458 0.031853
0.286960 -0.434308 -0.184666
0.286960 0.440592 -0.110777
0.286960 -0.440702 -0.207689
0.286960 0.013501 -0.485618
0.286960 -0.487760 -0.020826
0.286960 -0.463559 0.062019
0.286960 0.389557 0.223455
0.286960 -0.234263 0.389055
0.286960 0.434292 -0.137166
0.286960 0.171778 -0.440370
0.286960 0.392480 -0.267672
0.286960 0.374560 0.290628
0.286960 0.479971 0.059385
0.286960 0.403267 -0.224815
0.286960 -0.027939 -0.493533
0.286960 -0.166771 -0.441552
0.286960 0.097741 -0.441902
0.286960 -0.494229 0.053696
0.286960 0.129072 0.460356
0.286960 -0.401466 0.217121
0.286960 0.447145 0.198918
0.286960 0.001643 0.461618
0.286960 -0.242321 0.393710
0.286960 0.406264 0.204529
0.286960 0.032673 -0.483382
0.286960 -0.481208 0.077873
0.286960 0.489157 0.048699
0.286960 0.131102 -0.450647
0.286960 -0.236663 0.422083
0.286960 0.411526 0.224831
0.286960 0.391624 0.255764
0.286960 0.406722 -0.188025
0.286960 0.004481 -0.448909
0.286960 0.098889 0.456082
0.286960 -0.244824 0.391071
0.286960 0.191074 -0.443836
0.286960 0.187313 -0.406801
0.286960 0.083942 -0.443400
0.286960 -0.077031 -0.475023
0.286960 0.331194 0.330832
0.286960 -0.041427 -0.446431
0.286960 0.190899 0.457345
0.286960 -0.302204 -0.337928
0.286960 0.420041 -0.269095
0.286960 -0.005250 0.457292
0.286960 -0.159910 -0.448184
0.286960 -0.460171 -0.104618
0.286960 0.150125 -0.431457
0.286960 -0.265908 0.406612
0.286960 -0.062064 -0.468298
0.286960 -0.442176 0.052801
0.286960 0.105044 0.476384
0.286960 -0.348907 -0.280470
0.286960 0.218583 -0.408763
0.286960 -0.478796 -0.015326
0.286960 0.123530 -0.447860
0.286960 -0.059215 0.488848
0.286960 -0.480620 0.027611
0.286960 0.304979 0.364332
0.286960 -0.095388 0.440326
0.286960 0.241560 -0.405555
0.286960 0.404210 -0.201278
0.286960 0.006915 -0.471444
0.286960 -0.348737 0.274182
0.286960 -0.487169 -0.045237
0.286960 0.487197 0.100375
0.286960 -0.395359 -0.266122
0.286960 -0.134290 -0.459447
0.286960 -0.267444 -0.401301
0.286960 0.110294 0.466481
0.286960 0.167398 0.442350
0.286960 0.414816 -0.165990
0.286960 -0.241396 0.376329
0.286960 -0.345997 -0.294865
0.286960 -0.385911 0.227696
0.286960 -0.415402 0.172864
0.286960 -0.195532 0.414134
0.286960 -0.471586 -0.092804
0.286960 0.461019 -0.077935
0.286960 -0.318147 0.309788
0.286960 -0.449781 -0.076951
0.286960 -0.190044 -0.445433
0.286960 -0.219892 0.397722
0.286960 0.425564 -0.188175
0.286960 0.161640 0.462801
0.286960 0.421706 0.169627
0.286960 -0.296539 -0.389778
0.286960 0.202373 -0.449772
0.286960 0.451092 0.021043
0.286960 0.365219 0.304418
0.286960 0.280785 -0.405978
0.286960 -0.313966 -0.325276
0.286960 -0.197951 -0.424539
0.286960 0.460525 0.151341
0.286960 -0.369622 0.271009
0.286960 -0.377836 0.245209
0.286960 0.453338 -0.025291
0.286960 0.119728 -0.439548
0.286960 -0.400284 -0.202379
0.286960 0.093033 -0.474874
0.286960 -0.290459 0.341534
0.286960 -0.455692 -0.000122
0.286960 0.216714 -0.393782
0.286960 -0.465358 -0.067769
0.286960 0.121798 0.458032
0.286960 -0.460528 -0.171385
0.286960 0.375288 -0.327577
0.286960 0.367889 0.272770
0.286960 0.272650 0.413999
0.286960 0.449654 0.211868
0.286960 0.445757 0.201831
0.286960 -0.164915 0.424356
0.286960 -0.406730 -0.227564
0.286960 0.400659 0.235246
0.286960 0.034716 -0.477232
0.286960 -0.390962 0.297846
0.286960 -0.446706 -0.031521
0.286960 -0.418408 0.208937
0.286960 -0.067073 0.472226
0.286960 -0.411337 -0.203908
0.286960 0.423268 -0.231016
0.286960 0.313809 -0.341340
0.286960 -0.145110 0.447187
0.286960 0.126126 -0.465946
0.286960 -0.234149 -0.428908
0.286960 0.450122 0.103802
0.286960 0.237638 0.414760
0.286960 0.232155 -0.437603
0.286960 -0.460803 0.167903
0.286960 0.466909 0.150763
0.286960 0.027028 -0.495150
0.286960 0.338389 -0.343464
0.286960 -0.144313 -0.441196
0.286960 -0.444955 -0.162825
0.286960 -0.356432 0.286947
0.286960 -0.489973 -0.088910
0.286960 -0.067125 0.484554
0.286960 0.419841 0.218349
0.286960 -0.472933 0.102371
0.286960 0.175597 -0.422397
0.286960 0.350021 0.326879
0.286960 0.298044 0.363052
0.286960 -0.410670 0.234479
0.286960 0.461655 0.082091
0.286960 0.180240 0.453594
0.286960 -0.444077 0.134866
0.286960 0.203425 -0.456578
0.286960 -0.425928 -0.178142
0.286960 0.267490 -0.405731
0.286960 -0.441110 -0.219981
0.286960 0.463009 -0.046888
0.286960 0.059268 -0.459426
0.286960 -0.180095 -0.420327
0.286960 -0.310221 0.372002
0.286960 0.371275 -0.249670
0.286960 0.387616 0.306429
0.286960 0.005011 -0.475538
0.286960 0.435029 0.240804
0.286960 0.458420 0.174471
0.286960 0.342846 0.296655
0.286960 0.279046 -0.369254
0.286960 0.465517 0.027330
0.286960 0.435229 0.098449
0.286960 0.477622 -0.096493
0.286960 0.153890 -0.421841
0.286960 -0.168912 -0.426741
0.286960 -0.331378 -0.317472
0.286960 0.267734 -0.375245
0.286960 0.442015 -0.123755
0.286960 -0.440344 -0.231831
0.286960 -0.343662 0.325583
0.286960 -0.465230 -0.001119
0.286960 -0.422074 0.256114
0.286960 0.358876 0.311767
0.286960 0.096640 -0.438597
0.286960 0.368438 -0.326969
0.286960 -0.345344 0.345323
0.286960 0.456568 0.075571
0.286960 -0.374840 -0.304147
0.286960 -0.159233 -0.473517
0.286960 0.288639 -0.394869
0.286960 0.310536 -0.379006
0.286960 0.041249 -0.471862
0.286960 0.257861 0.406337
0.286960 0.274337 -0.385234
0.286960 0.314865 -0.333802
0.286960 -0.266297 0.399690
0.286960 -0.422554 -0.212583
0.286960 0.440991 -0.193104
0.286960 -0.484168 -0.094962
0.286960 0.178747 0.405873
0.286960 -0.343795 0.348699
0.286960 -0.208880 0.435583
0.286960 0.388522 0.251503
0.286960 0.301698 -0.352081
0.286960 0.472912 0.096203
0.286960 -0.041375 -0.489557
0.286960 -0.187508 0.443163
0.286960 -0.392629 -0.243144
0.286960 0.301969 -0.382757
0.286960 0.397542 0.267023
0.286960 0.426934 -0.219439
0.286960 -0.406475 0.178581
0.286960 0.164594 0.412797
0.286960 0.028316 0.475941
0.286960 0.096807 -0.448199
0.286960 -0.446796 -0.048973
0.286960 0.415323 0.164022
0.286960 -0.470374 0.111975
0.286960 -0.377230 0.241038
0.286960 -0.142534 0.420368
0.286960 -0.496474 0.025842
0.286960 0.477020 0.004271
0.286960 -0.320304 -0.369916
0.286960 -0.051460 0.440609
0.286960 -0.454920 0.149980
0.286960 -0.244800 0.416536
0.286960 -0.164573 0.464310
0.286960 0.404856 0.275510
0.286960 0.418034 -0.162277
0.286960 0.471421 0.135612
0.286960 -0.321249 -0.343423
0.286960 -0.342816 0.290897
0.286960 0.179551 0.442936
0.286960 -0.445125 -0.140162
0.286960 -0.122658 0.470705
0.286960 -0.075486 -0.464073
0.286960 0.385456 -0.226187
0.286960 -0.308057 0.352242
0.286960 -0.368904 -0.269372
0.286960 0.463068 -0.144642
0.286960 -0.230334 0.424497
0.286960 0.176691 0.435078
0.286960 -0.437949 -0.137343
0.286960 0.456823 0.152368
0.286960 -0.183115 -0.415325
0.286960 0.458375 -0.051324
0.286960 0.442818 -0.176024
0.286960 -0.365351 -0.256703
0.286960 0.385291 -0.264509
0.286960 -0.064183 -0.462066
0.286960 -0.487161 -0.011608
0.286960 0.418402 -0.181516
0.286960 0.478102 -0.029780
0.286960 0.199310 0.413531
0.286960 0.435849 -0.101655
0.286960 -0.369963 0.285297
0.286960 -0.100372 -0.482545
0.286960 -0.466979 -0.077748
0.286960 0.196835 0.447224
0.286960 0.456726 0.013235
0.286960 -0.142058 0.444575
0.286960 -0.010169 0.460795
0.286960 0.139032 -0.432985
0.286960 -0.278296 0.356534
0.286960 0.334711 0.347510
0.286960 -0.448069 0.043260
0.286960 -0.055029 -0.458507
0.286960 0.282315 0.357462
0.286960 0.455513 -0.049864
0.286960 0.392563 -0.300704
0.286960 -0.466390 0.085454
0.286960 0.167983 -0.444384
0.286960 0.245106 0.422636
0.286960 -0.453430 -0.008134
0.286960 -0.451543 -0.063184
0.286960 0.051744 0.450672
0.286960 -0.193634 0.448509
0.286960 -0.306639 0.342980
0.286960 0.465827 0.069501
0.286960 0.456591 -0.189559
0.286960 0.085105 0.479643
0.286960 -0.182320 0.411129
0.286960 -0.449565 -0.084529
0.286960 0.474085 0.042795
0.286960 0.365441 -0.323289
0.286960 0.402866 0.189262
0.286960 -0.417456 0.267313
0.286960 -0.021856 -0.485113
0.286960 -0.449597 -0.214056
0.286960 0.282736 -0.360688
0.286960 0.399460 0.292921
0.286960 -0.329009 0.365241
0.286960 0.049198 -0.454189
0.286960 0.301019 -0.374943
0.286960 -0.376702 0.276529
0.286960 0.172789 0.445525
0.286960 -0.350945 -0.341765
0.286960 0.463982 -0.099484
0.286960 -0.452044 0.180868
0.286960 0.447173 0.052322
0.286960 -0.438280 -0.172379
0.286960 -0.097754 0.434426
0.286960 0.437351 -0.090469
0.286960 -0.239760 0.416834
0.286960 -0.312056 -0.355935
0.286960 0.239467 0.402704
0.286960 0.276969 -0.352476
0.286960 -0.419242 0.158804
0.286960 -0.338956 0.335244
0.286960 -0.408431 0.191049
0.286960 0.365497 0.336116
0.286960 0.463370 -0.148897
0.286960 0.001992 0.485445
0.286960 0.270948 -0.399319
0.286960 -0.332306 -0.312939
0.286960 0.451689 -0.153931
0.286960 -0.479728 0.113201
0.286960 -0.307910 -0.385619
0.286960 0.042954 0.491677
0.286960 0.306678 0.337732
0.286960 0.418735 0.184817
0.286960 0.453354 -0.129982
0.286960 -0.327588 -0.327287
0.286960 -0.411051 0.221519
0.286960 -0.458138 0.130339
0.286960 0.442834 -0.212458
0.286960 0.389948 0.267323
0.286960 0.410327 -0.252170
0.286960 0.468423 0.039206
0.286960 0.189925 0.451874
0.286960 0.364751 -0.258779
0.286960 -0.448863 -0.093350
0.286960 0.003273 0.470931
0.286960 -0.064029 0.487096
0.286960 -0.295729 0.371567
0.286960 0.453901 0.200902
0.286960 -0.451419 0.008927
0.286960 0.358515 0.277960
0.286960 -0.479184 0.031878
0.286960 -0.137714 -0.460554
0.286960 -0.455857 -0.021274
0.286960 -0.199880 0.450810
0.286960 -0.342161 -0.303793
0.286960 -0.321463 -0.381130
0.286960 -0.443402 -0.090616
0.286960 0.256190 -0.404144
0.286960 -0.436244 0.166669
0.286960 -0.151527 -0.426367
0.286960 -0.351019 -0.301864
0.286960 -0.449671 -0.045188
0.286960 -0.296735 -0.355842
0.286960 0.437222 -0.200637
0.286960 0.334226 -0.318932
0.286960 -0.459338 0.058062
0.286960 0.362340 -0.304019
0.286960 0.448828 -0.077997
0.286960 0.474962 -0.087479
0.286960 0.035232 -0.480673
0.286960 -0.363171 -0.275752
0.286960 -0.463613 -0.031427
0.286960 -0.015473 0.493288
0.286960 -0.452633 -0.188788
0.286960 0.008225 0.461679
0.286960 -0.435925 -0.180947
0.286960 0.024848 0.450641
0.286960 0.006461 0.465717
0.286960 -0.304096 0.366357
0.286960 0.450035 0.068498
0.286960 -0.408757 0.207509
0.286960 -0.085639 -0.440246
0.286960 -0.433475 0.203340
0.286960 -0.001717 0.457010
0.286960 0.467463 0.154282
0.286960 0.030443 0.469245
0.286960 -0.467103 0.154456
0.286960 -0.284940 0.344700
0.286960 -0.177846 0.418558
0.286960 0.456814 0.054232
0.286960 0.143462 -0.454129
0.286960 0.424822 0.239919
0.286960 0.398373 0.280401
0.286960 0.471671 0.093219
0.286960 0.374628 0.246752
0.286960 -0.035938 -0.470127
0.286960 -0.412158 0.167581
0.286960 -0.110581 -0.480330
0.286960 0.439271 -0.235278
0.286960 0.174207 0.449218
0.286960 -0.449318 0.153038
0.286960 -0.054551 -0.450753
0.286960 -0.301085 -0.391586
0.286960 0.430684 -0.229467
0.286960 0.368245 -0.258664
0.286960 0.484934 0.071483
0.286960 0.142461 -0.479379
0.286960 -0.463890 0.041418
0.286960 -0.367944 0.321429
0.286960 0.468557 0.116303
0.286960 -0.372532 0.265360
0.286960 -0.089592 0.461581
0.286960 0.445282 -0.044024
0.286960 -0.051518 -0.479303
0.286960 -0.412659 0.197910
0.286960 -0.115033 0.442497
0.286960 -0.029614 -0.477019
0.286960 0.455753 0.041589
0.286960 0.098019 0.439435
0.286960 -0.326088 -0.351830
0.286960 0.419635 -0.193130
0.286960 0.213405 -0.394466
0.286960 0.288051 0.399923
0.286960 0.471662 -0.145191
0.286960 -0.470975 -0.070582
0.286960 -0.425637 -0.195266
0.286960 -0.233637 0.378993
0.286960 0.204835 -0.404006
0.286960 -0.184137 -0.440911
0.286960 -0.480470 -0.095756
0.286960 0.467223 0.035693
0.286960 -0.255719 -0.378089
0.286960 0.452420 0.071443
0.286960 0.367832 0.333541
0.286960 -0.037923 -0.466580
0.286960 -0.136910 0.451009
0.286960 0.448730 -0.208595
0.286960 0.172277 -0.448396
0.286960 -0.353664 0.285020
0.286960 0.296516 0.387408
0.286960 -0.067880 0.443403
0.286960 0.219590 0.406424
0.286960 -0.211115 0.448092
0.286960 -0.231236 -0.416433
0.286960 -0.239554 -0.414490
0.286960 0.440512 0.066254
0.286960 0.011080 0.484206
0.286960 0.329039 0.316207
0.286960 0.321107 0.343497
0.286960 -0.481954 0.096555
0.286960 0.379939 -0.322266
0.286960 0.221823 0.390662
0.286960 -0.483219 -0.101261
0.286960 -0.467952 0.078388
0.286960 0.057105 -0.490001
0.286960 0.153024 0.466403
0.286960 0.023839 -0.457878
0.286960 0.205288 0.404828
0.286960 0.266878 0.414160
0.286960 -0.042643 -0.482444
0.286960 -0.202411 0.437171
0.286960 0.343463 -0.286884
0.286960 -0.420002 -0.221653
0.286960 0.375902 -0.312862
0.286960 0.240454 0.373882
0.286960 0.458024 -0.074517
0.286960 -0.446140 -0.019199
0.286960 -0.274563 0.351208
0.286960 -0.484548 0.089676
0.286960 0.442559 -0.231300
0.286960 -0.414907 -0.164900
0.286960 0.161564 -0.456904
0.286960 -0.345135 -0.324251
0.286960 0.331809 0.344532
0.286960 -0.467391 -0.155043
0.286960 0.361120 -0.332629
0.286960 -0.476129 -0.050418
0.286960 0.370604 -0.273766
0.286960 -0.438391 -0.146116
0.286960 0.150617 -0.422095
0.286960 0.074162 0.443068
0.286960 0.434194 -0.235391
0.286960 0.141892 0.454997
0.286960 0.474330 0.104248
0.286960 0.446062 0.074401
0.286960 -0.003049 -0.452224
0.286960 -0.284141 -0.351849
0.286960 -0.387246 -0.224584
0.286960 -0.095585 -0.465622
0.286960 0.368774 0.248708
0.286960 0.107285 0.473398
0.286960 -0.352254 -0.325804
0.286960 -0.119445 -0.445529
0.286960 0.462580 0.070786
0.286960 0.456102 -0.116909
0.286960 0.340213 0.287768
0.286960 0.183197 -0.428677
0.286960 0.482542 0.086109
0.286960 -0.379730 0.282270
0.286960 -0.034473 0.480639
0.286960 0.474175 -0.001654
0.286960 -0.016893 0.475002
0.286960 0.038697 -0.485405
0.286960 0.136969 -0.454130
0.286960 -0.470208 -0.107675
0.286960 -0.403673 -0.229183
0.286960 -0.279934 0.392639
0.286960 0.396580 -0.253392
0.286960 -0.237202 -0.438945
0.286960 -0.200368 -0.408513
0.286960 0.028746 0.466407
0.286960 0.047242 -0.485643
0.286960 -0.469002 0.144758
0.286960 -0.339819 0.293573
0.286960 -0.241594 -0.409789
0.286960 0.235426 0.430204
0.286960 0.319535 0.379932
0.286960 -0.080814 0.473307
0.286960 0.260044 0.409170
0.286960 -0.350163 -0.347230
0.286960 0.495459 -0.040458
0.286960 0.099973 -0.473543
0.286960 -0.433373 -0.210827
0.286960 -0.232131 0.421197
0.286960 -0.115233 0.473842
0.286960 -0.402235 -0.257853
0.286960 -0.340204 -0.334303
0.286960 -0.392099 0.281987
0.286960 0.221001 0.395692
0.286960 0.426747 0.218233
0.286960 -0.395790 -0.260144
0.286960 0.432631 0.161462
0.286960 0.045094 0.461387
0.286960 -0.340880 0.341443
0.286960 0.448905 -0.009676
0.286960 0.471510 -0.050355
0.286960 0.155030 -0.449976
0.286960 0.242096 0.382398
0.286960 0.048968 0.463816
0.286960 0.316365 0.368427
0.286960 0.456303 -0.171145
0.286960 -0.448832 -0.186568
0.286960 -0.451948 0.174413
0.286960 0.217526 -0.413547
0.286960 0.436105 -0.146101
0.286960 -0.244695 -0.391091
0.286960 0.394296 0.258734
0.286960 -0.402827 0.220404
0.286960 -0.352179 0.321444
0.286960 -0.159694 -0.467638
0.286960 0.418413 -0.201071
0.286960 -0.146662 -0.466821
0.286960 0.016588 -0.479602
0.286960 -0.355095 -0.304290
0.286960 -0.195517 -0.421809
0.286960 -0.465077 0.028245
0.286960 0.388803 -0.241570
0.286960 0.162468 -0.468831
0.286960 0.214721 0.445695
0.286960 0.389192 -0.298690
0.286960 -0.249557 -0.396927
0.286960 0.041522 0.468071
0.286960 -0.202338 0.420728
0.286960 0.448084 0.004384
0.286960 0.386012 -0.283984
0.286960 0.270085 0.380371
0.286960 0.445693 0.159499
0.286960 -0.393571 -0.294510
0.286960 -0.478859 -0.032354
0.286960 -0.410218 0.278770
0.286960 -0.437199 0.180803
0.286960 -0.196517 -0.427322
0.286960 0.149873 -0.456770
0.286960 -0.212784 0.426777
0.286960 -0.450718 -0.208964
0.286960 0.284473 0.398314
0.286960 -0.321126 -0.363742
0.286960 -0.113170 -0.436654
0.286960 -0.471046 -0.111895
0.286960 0.060407 -0.487390
0.286960 -0.238566 0.388572
0.286960 0.431270 -0.163924
0.286960 -0.447175 -0.116866
0.286960 -0.008799 0.491229
0.286960 0.461484 -0.134139
0.286960 0.031026 -0.455170
0.286960 -0.441467 0.123817
0.286960 -0.087494 -0.490677
0.286960 -0.239500 0.420094
0.286960 -0.361657 -0.325078
0.286960 -0.424044 0.134559
0.286960 0.456222 -0.095119
0.286960 0.374527 -0.300696
0.286960 -0.326492 -0.339654
0.286960 0.463325 -0.119282
0.286960 0.424773 -0.207214
0.286960 0.319966 0.362105
0.286960 -0.257485 -0.395063
0.286960 0.415038 0.199210
0.286960 -0.486425 0.042757
0.286960 -0.155192 0.450309
0.286960 0.456832 -0.091395
0.286960 -0.232878 0.427555
0.286960 -0.000352 -0.468414
0.286960 -0.005530 0.474879
0.286960 0.456148 -0.004024
0.286960 0.276375 -0.397925
0.286960 0.089611 0.480845
0.286960 0.239243 -0.438541
0.286960 -0.357903 0.273034
0.286960 -0.462607 -0.124214
0.286960 -0.206240 0.439400
0.286960 -0.173340 -0.412146
0.286960 0.463131 0.049379
0.286960 -0.152966 0.447423
0.286960 0.468730 -0.022587
0.286960 0.212207 -0.450535
0.286960 -0.078835 -0.466921
0.286960 0.223981 -0.404722
0.286960 -0.448403 -0.054505
0.286960 0.374123 0.261633
0.286960 -0.228307 0.387179
0.286960 -0.279041 -0.378659
0.286960 -0.429280 0.194675
0.286960 -0.364173 -0.300275
0.286960 0.382704 0.305777
0.286960 0.333891 -0.298664
0.286960 -0.465511 -0.048125
0.286960 -0.308706 -0.377250
0.286960 0.468241 -0.166389
0.286960 0.346358 0.289068
0.286960 -0.445612 0.039136
0.286960 -0.017584 0.482227
0.286960 -0.417648 -0.207683
0.286960 0.327338 -0.369516
0.286960 0.086366 -0.459006
0.286960 -0.292877 -0.391771
0.286960 0.187875 0.423821
0.286960 -0.381472 0.277964
0.286960 0.454683 -0.053837
0.286960 0.430739 -0.243130
0.286960 -0.081618 -0.455465
0.286960 -0.427936 0.119844
0.286960 -0.466675 -0.133460
0.286960 0.418547 0.259461
0.286960 -0.076100 0.454372
0.286960 0.414099 0.265989
0.286960 -0.080423 -0.472111
0.286960 0.246599 0.370973
0.286960 0.052265 0.461816
0.286960 0.378103 -0.241691
0.286960 -0.167448 0.446358
0.286960 -0.424503 0.157238
0.286960 -0.485400 -0.023349
0.286960 0.183100 0.425568
0.286960 0.442554 -0.148238
0.286960 -0.404215 -0.191484
0.286960 0.409899 0.217316
0.286960 0.050617 0.444453
0.286960 0.467499 -0.065491
0.286960 -0.184302 -0.454128
0.286960 -0.395122 0.237153
0.286960 -0.438204 0.184290
0.286960 0.434460 0.129361
0.286960 -0.293798 -0.359742
0.286960 0.488621 -0.020313
0.286960 0.412161 -0.240796
0.286960 0.451989 -0.210720
0.286960 0.296932 -0.398245
0.286960 0.379403 0.306089
0.286960 0.433521 -0.161266
0.286960 0.245721 -0.405292
0.286960 -0.428090 -0.181028
0.286960 -0.376992 -0.326170
0.286960 0.119925 -0.453206
0.286960 -0.414278 0.183097
0.286960 -0.026224 0.491116
0.286960 0.412760 -0.204116
0.286960 0.491410 -0.080499
0.286960 -0.125129 0.440116
0.286960 0.009379 0.450004
0.286960 -0.141317 -0.442933
0.286960 0.330444 0.336902
0.286960 -0.482067 -0.076240
0.286960 0.406396 -0.265189
0.286960 -0.492729 -0.029965
0.286960 -0.121300 0.478474
0.286960 -0.121143 -0.466059
0.286960 -0.205131 -0.428195
0.286960 -0.221867 0.390511
0.286960 -0.406230 -0.194565
0.286960 0.448324 0.018837
0.286960 0.422984 0.228900
0.286960 -0.495102 -0.048012
0.286960 0.224521 0.430991
0.286960 0.162597 0.447455
0.286960 -0.188986 -0.416507
0.286960 0.260076 0.418623
0.286960 -0.143609 -0.464517
0.286960 -0.018220 -0.467793
0.286960 0.281309 -0.383359
0.286960 0.088986 -0.491447
0.286960 0.089250 -0.487574
0.286960 -0.401074 0.247733
0.286960 0.413474 0.275063
0.286960 0.444159 -0.209099
0.286960 -0.313941 -0.369594
0.286960 -0.438876 0.120018
0.286960 -0.208880 -0.420440
0.286960 -0.088955 0.482782
0.286960 0.010953 0.469195
0.286960 0.272821 0.399657
0.286960 0.415193 0.239709
0.286960 -0.385486 0.220638
0.286960 0.003187 0.445272
0.286960 -0.462520 0.160964
0.286960 -0.479189 -0.079135
0.286960 -0.312349 0.375485
0.286960 0.208448 -0.397688
0.286960 0.082408 0.474036
0.286960 -0.470138 0.020194
0.286960 0.235943 -0.422344
0.286960 -0.441475 0.172767
0.286960 -0.408155 -0.270580
0.286960 -0.292918 -0.351251
0.286960 -0.485860 0.028886
0.286960 0.429369 0.147336
0.286960 -0.449722 -0.012232
0.286960 0.353591 -0.300319
0.286960 0.216223 -0.445971
0.286960 -0.435351 0.148152
0.286960 -0.462074 -0.088822
0.286960 0.399398 0.217088
0.286960 -0.445497 -0.001298
0.286960 0.434523 -0.115715
0.286960 0.419391 0.190383
0.286960 -0.366956 -0.315327
0.286960 -0.474965 -0.045058
0.286960 -0.045383 0.479522
0.286960 -0.433685 0.096854
0.286960 -0.310890 -0.320643
0.286960 -0.004223 -0.480224
0.286960 -0.333587 0.318221
0.286960 -0.264833 0.412649
0.286960 0.152735 -0.470741
0.286960 0.269003 0.408982
0.286960 -0.158354 -0.418608
0.286960 -0.455311 0.076427
0.286960 -0.139673 0.442183
0.286960 -0.464063 -0.015388
0.286960 0.363162 0.300098
0.286960 0.165808 0.419345
0.286960 0.300781 0.326700
0.286960 -0.421667 -0.265384
0.286960 0.321771 0.349678
0.286960 0.479311 0.086011
0.286960 0.427884 -0.213622
0.286960 -0.202590 -0.406001
0.286960 -0.169798 -0.434811
0.286960 -0.427594 -0.198026
0.286960 0.258181 -0.412682
0.286960 0.022905 0.447680
0.286960 0.306542 0.369586
0.286960 -0.032137 -0.494682
0.286960 -0.485998 -0.065478
0.286960 -0.420400 -0.242177
0.286960 0.329900 0.312324
0.286960 0.473138 -0.119100
0.286960 -0.306081 -0.350902
0.286960 -0.354933 0.275969
0.286960 0.492742 -0.014124
0.286960 -0.323802 -0.324389
0.286960 -0.179010 -0.442763
0.286960 0.146282 0.448159
0.286960 0.219809 -0.389732
0.286960 0.436159 -0.157184
0.286960 0.136428 0.423548
0.286960 -0.479742 0.087658
0.286960 -0.440620 -0.216846
0.286960 -0.341439 0.352167
0.286960 0.421496 -0.246294
0.286960 0.052970 -0.457484
0.286960 0.477068 0.022280
0.286960 -0.189981 0.410794
0.286960 0.008066 -0.451180
0.286960 -0.198344 0.419320
0.286960 0.140598 -0.429168
0.286960 -0.042861 0.469794
0.286960 -0.387118 0.256434
0.286960 -0.018437 0.478152
0.286960 -0.481824 -0.035167
0.286960 -0.173748 0.454908
0.286960 0.049022 -0.478873
0.286960 0.307340 -0.337117
0.286960 -0.477731 -0.060054
0.286960 -0.321863 -0.335213
0.286960 0.054274 -0.477949
0.286960 -0.437326 0.082171
0.286960 -0.329355 0.361967
0.286960 0.382400 -0.240946
0.286960 0.387296 0.261706
0.286960 0.054535 0.484791
0.286960 0.450913 -0.022272
0.286960 -0.148804 0.449332
0.286960 -0.085584 -0.463106
0.286960 0.487322 -0.106575
0.286960 -0.069974 -0.461521
0.286960 0.092339 -0.487306
0.286960 0.459683 -0.107438
0.286960 -0.421909 0.243423
0.286960 0.465532 0.122928
0.286960 0.147100 0.427576
0.286960 -0.289617 -0.378370
0.286960 0.422860 -0.172828
0.286960 -0.164769 0.431747
0.286960 -0.360242 0.297104
0.286960 -0.440634 -0.079599
0.286960 0.282329 0.361029
0.286960 -0.457485 0.070245
0.286960 -0.452732 0.200675
0.286960 0.449179 0.034839
0.286960 -0.275947 -0.395599
0.286960 -0.465802 0.075705
0.286960 0.350723 -0.353913
0.286960 0.241123 0.430260
0.286960 -0.410536 -0.260245
0.286960 0.259513 0.383483
0.286960 -0.043293 -0.477362
0.286960 0.379725 0.255134
0.286960 -0.201202 -0.449282
0.286960 0.368611 -0.307437
0.286960 0.085481 -0.469653
0.286960 -0.126598 -0.471162
0.286960 0.433720 0.213272
0.286960 0.365016 -0.308690
0.286960 -0.265465 -0.396967
0.286960 -0.424280 -0.143855
0.286960 0.403862 -0.244606
0.286960 0.431456 -0.149119
0.286960 -0.435519 0.127604
0.286960 0.484473 0.007735
0.286960 0.417410 0.247351
0.286960 -0.496076 -0.026085
0.286960 0.411826 -0.228289
0.286960 0.265717 0.362423
0.286960 0.250954 0.398597
0.286960 -0.211870 -0.422376
0.286960 0.367726 0.251835
0.286960 0.099978 0.471883
0.286960 -0.239830 0.401523
0.286960 0.283639 0.382799
0.286960 0.425586 0.204104
0.286960 -0.449441 0.094262
0.286960 -0.034523 0.455019
0.286960 0.224628 0.423010
0.286960 -0.228169 -0.434654
0.286960 0.384983 0.296246
0.286960 -0.489511 -0.003693
0.286960 -0.431411 -0.248608
0.286960 -0.462927 0.108525
0.286960 -0.272711 -0.414283
0.286960 -0.442050 0.213778
0.286960 -0.362680 0.336577
0.286960 0.134321 0.452321
0.286960 0.165811 -0.441771
0.286960 0.457380 -0.195933
0.286960 -0.319776 0.358148
0.286960 -0.327672 -0.322566
0.286960 0.452645 0.194205
0.286960 -0.070928 0.480235
0.286960 0.338841 -0.333876
0.286960 0.114917 -0.457178
0.286960 0.441768 0.150300
0.286960 -0.156412 -0.442016
0.286960 0.151648 -0.461323
0.286960 0.421637 -0.166514
0.286960 0.111229 -0.439384
0.286960 0.491203 0.015926
0.286960 -0.430665 0.209717
0.286960 -0.215380 0.444547
0.286960 -0.467256 -0.014292
0.286960 -0.115831 0.447970
0.286960 0.413370 0.254433
0.286960 0.032790 0.475767
0.286960 0.036385 0.475898
0.286960 -0.391695 -0.308760
0.286960 0.336318 -0.307044
0.286960 -0.432542 0.129152
0.286960 0.439333 -0.100737
0.286960 0.191796 0.445232
0.286960 0.281299 0.408091
0.286960 0.411530 -0.244317
0.286960 0.051503 0.470534
0.286960 0.215219 0.403769
0.286960 -0.436863 -0.129913
0.286960 -0.011122 0.452643
0.286960 -0.464508 -0.147560
0.286960 -0.216383 0.403595
0.286960 -0.038128 -0.498099
0.286960 0.143037 0.426521
0.286960 0.140493 0.458393
0.286960 0.253153 -0.431247
0.286960 0.285990 0.343872
0.286960 -0.380908 -0.270158
0.286960 -0.094823 0.456927
0.286960 0.476916 0.052088
0.286960 -0.440625 0.209146
0.286960 0.270355 -0.377377
0.286960 -0.337324 0.329631
0.286960 -0.460044 0.184711
0.286960 0.409548 -0.179043
0.286960 -0.475045 -0.130152
0.286960 0.464603 -0.076443
0.286960 -0.218414 0.389727
0.286960 0.452131 0.131814
0.286960 -0.153178 -0.452793
0.286960 -0.419166 0.212278
0.286960 -0.388630 0.292600
0.286960 0.238456 -0.407408
0.286960 -0.288604 -0.402122
0.286960 0.301538 -0.386205
0.286960 0.422010 -0.182755
0.286960 0.264298 -0.423148
0.286960 -0.223892 0.421818
0.286960 0.399009 0.262547
0.286960 -0.463098 0.065179
0.286960 0.396337 -0.301321
0.286960 0.086391 0.482876
0.286960 0.444308 0.153231
0.286960 0.398310 -0.293285
0.286960 -0.140092 0.438469
0.286960 0.293790 0.339075
0.286960 0.024205 0.492256
0.286960 0.446069 -0.116706
0.286960 0.447815 -0.162742
0.286960 -0.285147 0.340581
0.286960 -0.297607 -0.339420
0.286960 -0.304124 -0.333931
0.286960 0.383689 0.234577
0.286960 0.414884 0.169832
0.286960 0.030684 -0.469635
0.286960 0.020736 -0.484915
0.286960 -0.146401 0.431946
0.286960 -0.454446 -0.054170
0.286960 0.214918 -0.441471
0.286960 0.153659 0.442886
0.286960 0.429566 0.132846
0.286960 0.441663 0.176232
0.286960 0.405501 -0.238435
0.286960 0.065897 -0.475204
0.286960 -0.288362 0.395525
0.286960 0.405630 0.207859
0.286960 -0.047609 0.468721
0.286960 0.216330 -0.434106
0.286960 0.459199 -0.114919
0.286960 0.442544 0.058353
0.286960 -0.421459 0.200540
0.286960 -0.444569 0.076319
0.286960 -0.293366 -0.403191
0.286960 0.290507 -0.380249
0.286960 -0.290802 -0.370502
0.286960 0.403700 0.216408
0.286960 -0.262004 0.384454
0.286960 -0.403657 0.258433
0.286960 -0.141042 -0.431475
0.286960 -0.182206 0.416986
0.286960 0.405837 0.185909
0.286960 -0.251863 0.410911
0.286960 -0.425873 0.128825
0.286960 -0.154599 -0.461417
0.286960 0.329211 0.325289
0.286960 -0.460333 0.061961
0.286960 0.351599 -0.338758
0.286960 -0.034028 -0.486468
0.286960 0.401211 0.276296
0.286960 0.467390 -0.091703
0.286960 -0.237296 -0.383946
0.286960 -0.070524 0.469341
0.286960 0.313795 -0.385376
0.286960 -0.431621 -0.153190
0.286960 -0.445839 0.202729
0.286960 -0.468588 0.129895
0.286960 0.123623 -0.483781
0.286960 -0.453887 -0.180092
0.286960 -0.469798 0.069091
0.286960 -0.355050 -0.273201
0.286960 0.211410 0.446956
0.286960 0.201467 -0.404224
0.286960 -0.369586 -0.307511
0.286960 0.430437 0.237210
0.286960 -0.424467 -0.188098
0.286960 0.095414 0.447683
0.286960 0.362056 0.275723
0.286960 -0.464060 0.007170
0.286960 -0.150284 0.441845
0.286960 0.406379 -0.203738
0.286960 0.320354 0.365818
0.286960 0.436412 -0.153409
0.286960 -0.454757 -0.089474
0.286960 -0.358639 -0.327660
0.286960 0.061994 -0.457070
0.286960 0.163727 0.427360
0.286960 -0.459777 -0.051101
0.286960 -0.491511 -0.049387
0.286960 -0.373869 -0.263309
0.286960 0.332713 -0.328605
0.286960 -0.486411 -0.016156
0.286960 0.037655 -0.445932
0.286960 0.031797 0.492139
0.286960 0.471121 0.119516
0.286960 0.036732 -0.496418
0.286960 -0.452546 0.058103
0.286960 -0.457277 0.145209
0.286960 -0.415513 -0.193520
0.286960 0.394396 0.278493
0.286960 0.000684 -0.447674
0.286960 0.210278 -0.429324
0.286960 -0.472034 0.015294
0.286960 0.335178 0.337281
0.286960 0.126863 0.472670
0.286960 0.051432 0.490343
0.286960 0.125704 -0.454840
0.286960 0.326248 0.336376
0.286960 -0.352123 -0.274214
0.286960 0.358141 -0.277388
0.286960 0.210421 0.429606
0.286960 -0.237695 -0.418174
0.286960 -0.371760 0.279471
0.286960 -0.341561 0.310886
0.286960 0.166028 0.449350
0.286960 -0.296767 0.388433
0.286960 -0.097342 0.481929
0.286960 0.496874 -0.022970
0.286960 0.160726 0.426106
0.286960 -0.233726 -0.389646
0.286960 0.149460 0.417449
0.286960 0.158538 -0.423703
0.286960 0.472619 -0.061381
0.286960 -0.177970 -0.463403
0.286960 -0.309112 -0.348896
0.286960 -0.029133 -0.496864
0.286960 0.324212 0.320872
0.286960 0.468423 0.062632
0.286960 -0.425664 -0.212203
0.286960 0.143059 0.441054
0.286960 0.456441 -0.069116
0.286960 -0.457039 -0.182926
0.286960 0.249029 0.368921
0.286960 0.438872 -0.104005
0.286960 0.407772 0.244590
0.286960 0.446091 -0.124187
0.286960 0.419415 -0.173966
0.286960 -0.414715 0.218755
0.286960 0.073655 -0.482415
0.286960 0.439046 -0.079678
0.286960 -0.312784 -0.350352
0.286960 0.336910 0.304258
0.286960 0.258579 0.393187
0.286960 0.295518 -0.360489
0.286960 0.012677 -0.451522
0.286960 0.222378 0.410856
0.286960 0.339442 0.349334
0.286960 -0.288877 -0.392023
0.286960 -0.163045 -0.439950
0.286960 -0.413632 -0.216982
0.286960 -0.119439 0.481063
0.286960 0.356051 -0.315036
0.286960 -0.430031 -0.136167
0.286960 0.254755 0.374053
0.286960 -0.408476 -0.197501
0.286960 -0.024485 -0.494772
0.286960 -0.207560 0.446711
0.286960 -0.461255 -0.150239
0.286960 -0.202850 0.440602
0.286960 -0.392026 0.208802
0.286960 -0.191939 -0.451289
0.286960 -0.256518 -0.385539
0.286960 0.294525 -0.383793
0.286960 0.429270 0.189347
0.286960 -0.271651 -0.393155
0.286960 0.496409 0.006063
0.286960 0.453615 -0.041733
0.286960 0.480448 0.074158
0.286960 -0.305675 0.382885
0.286960 -0.431795 0.154763
0.286960 -0.026811 -0.451363
0.286960 0.135196 -0.431717
0.286960 0.463445 0.130720
0.286960 0.133008 -0.453305
0.286960 -0.002232 0.495240
0.286960 0.402020 0.220088
0.286960 -0.297890 -0.343659
0.286960 0.322246 -0.351942
0.286960 0.248156 0.379047
0.286960 -0.447608 0.173521
0.286960 -0.013059 0.470822
0.286960 -0.022486 -0.475001
0.286960 -0.411255 -0.182876
0.286960 -0.491784 -0.026013
0.286960 -0.402286 0.200375
0.286960 -0.067804 0.438087
0.286960 -0.049978 -0.485896
0.286960 0.473075 -0.030814
0.286960 -0.256285 -0.366597
0.286960 -0.397705 -0.291947
0.286960 -0.135216 -0.481261
0.286960 0.083787 0.443704
0.286960 -0.249738 0.393025
0.286960 -0.131240 0.477960
0.286960 -0.310698 -0.383411
0.286960 0.232750 -0.410118
0.286960 -0.291945 0.344475
0.286960 -0.048650 -0.457672
0.286960 0.380709 0.237924
0.286960 -0.364454 -0.322840
0.286960 -0.448070 -0.195931
0.286960 0.266557 -0.367753
0.286960 -0.452564 -0.155481
0.286960 0.048331 0.480657
0.286960 -0.374949 0.246695
0.286960 -0.211985 -0.450737
0.286960 0.294354 -0.372982
0.286960 0.449699 -0.171869
0.286960 -0.264219 -0.400049
0.286960 -0.046671 -0.445868
0.286960 0.381699 -0.280457
0.286960 -0.392442 -0.233727
0.286960 -0.358689 -0.330931
0.286960 0.375338 -0.276403
0.286960 -0.111313 -0.439865
0.286960 0.468087 -0.098052
0.286960 0.121948 0.435586
0.286960 0.330767 -0.363675
0.286960 -0.318492 -0.366591
0.286960 -0.456387 0.055428
0.286960 -0.248157 0.408323
0.286960 0.024456 -0.447877
0.286960 0.478702 0.008060
0.286960 -0.380046 -0.260019
0.286960 0.374501 -0.317075
0.286960 0.139591 -0.469729
0.286960 0.472738 -0.021750
0.286960 -0.114865 0.468897
0.286960 -0.364848 0.308204
0.286960 0.259245 -0.376329
0.286960 0.341987 -0.300970
0.286960 0.261091 -0.411274
0.286960 -0.311037 -0.323912
0.286960 0.038527 -0.489649
0.286960 0.305970 -0.370773
0.286960 -0.456272 -0.105840
0.286960 0.401501 -0.281923
0.286960 0.180792 0.436964
0.286960 -0.308949 0.339220
0.286960 0.405029 -0.258825
0.286960 -0.223699 0.400827
0.286960 0.320665 0.328703
0.286960 0.017883 0.470444
0.286960 -0.175491 -0.467919
0.286960 -0.270863 -0.361988
0.286960 -0.360234 0.287863
0.286960 0.394372 0.229287
0.286960 -0.126453 -0.450773
0.286960 -0.135940 -0.474161
0.286960 -0.151751 0.439140
0.286960 0.406197 0.269726
0.286960 -0.351503 0.325137
0.286960 0.236637 0.421226
0.286960 0.242167 0.410329
0.286960 0.406759 -0.226156
0.286960 -0.339882 0.289393
0.286960 -0.014749 0.479335
0.286960 0.426961 0.248408
0.286960 0.120333 0.470090
0.286960 -0.186531 0.454678
0.286960 0.411687 -0.218437
0.286960 0.337476 -0.326838
0.286960 -0.340365 0.331776
0.286960 0.149588 0.451812
0.286960 -0.137507 -0.444577
0.286960 -0.332942 0.332603
0.286960 0.046502 -0.446218
0.286960 -0.308677 -0.366805
0.286960 0.224352 -0.422238
0.286960 0.117277 -0.450857
0.286960 -0.482716 -0.109293
0.286960 -0.485940 0.104220
0.286960 -0.075987 0.468233
0.286960 -0.404677 -0.272059
0.286960 0.062223 0.476022
0.286960 -0.208375 -0.402657
0.286960 0.039233 -0.475112
0.286960 0.428347 0.180120
0.286960 -0.444279 -0.153361
0.286960 0.445048 0.089187
0.286960 0.440467 -0.189159
0.286960 0.293997 0.349862
0.286960 -0.100638 -0.447431
0.286960 0.256355 -0.425561
0.286960 0.374952 -0.304589
0.286960 0.180595 0.415962
0.286960 -0.454587 0.047759
0.286960 0.297389 -0.364563
0.286960 0.184325 0.454585
0.286960 0.463211 -0.014833
0.286960 -0.114704 0.477937
0.286960 0.000137 -0.450780
0.286960 -0.166903 -0.433843
0.286960 0.455902 0.197397
0.286960 -0.274458 0.400660
0.286960 0.485890 -0.109343
0.286960 -0.371831 -0.294355
0.286960 0.357003 -0.280327
0.286960 0.465043 0.003706
0.286960 -0.283926 -0.375554
0.286960 0.474409 0.046254
0.286960 -0.465541 0.024641
0.286960 0.493780 0.059963
0.286960 -0.004545 -0.498975
0.286960 0.459524 -0.166561
0.286960 -0.113896 -0.481221
0.286960 0.496354 0.031373
0.286960 -0.190148 0.432983
0.286960 -0.083107 -0.484094
0.286960 -0.258742 -0.402798
0.286960 0.451666 0.139561
0.286960 0.494588 0.056331
0.286960 0.047992 0.451429
0.286960 -0.445497 0.111928
0.286960 -0.467694 0.094190
0.286960 -0.082825 -0.445835
0.286960 0.146622 -0.451482
0.286960 -0.333067 0.314826
0.286960 -0.143569 0.468077
0.286960 -0.067413 -0.450865
0.286960 0.434739 0.237167
0.286960 0.202118 0.412037
0.286960 -0.024898 -0.461356
0.286960 0.381589 0.250306
0.286960 -0.103049 0.482993
0.286960 -0.093451 0.473745
0.286960 0.006281 0.443515
0.286960 0.212967 0.434511
0.286960 0.220790 0.399037
0.286960 -0.442641 -0.213770
0.286960 -0.413677 0.272762
0.286960 0.007593 -0.466245
0.286960 0.422794 -0.256130
0.286960 0.335184 0.321481
0.286960 -0.363234 -0.261450
0.286960 0.236498 0.435686
0.286960 -0.223334 0.435527
0.286960 0.031030 -0.494370
0.286960 0.436735 0.176666
0.286960 -0.448462 0.142131
0.286960 0.256568 0.367922
0.286960 0.446019 0.166487
0.286960 -0.475642 -0.020390
0.286960 0.100182 -0.481554
0.286960 0.430693 0.232279
0.286960 -0.014836 -0.496628
0.286960 0.415568 0.191612
0.286960 0.438687 0.173710
0.286960 0.397004 0.213544
0.286960 0.020856 -0.490561
0.286960 0.440643 0.170063
0.286960 -0.403353 0.196855
0.286960 0.400021 -0.211840
0.286960 0.433117 -0.219978
0.286960 -0.344526 -0.354008
0.286960 0.471935 0.055624
0.286960 -0.463876 0.056539
0.286960 0.408926 -0.249086
0.286960 0.455464 -0.184496
0.286960 -0.001570 -0.488835
0.286960 -0.230275 0.438471
0.286960 0.446869 0.109377
0.286960 0.078401 -0.447736
0.286960 -0.484235 0.012967
0.286960 0.422819 -0.234461
0.286960 0.418686 -0.210877
0.286960 0.490379 0.036725
0.286960 -0.068946 0.453196
0.286960 -0.180374 0.413903
0.286960 0.304132 -0.391492
0.286960 0.049888 0.456830
0.286960 -0.112078 0.451322
0.286960 -0.371564 -0.267080
0.286960 -0.175381 -0.421381
0.286960 0.486424 0.050307
0.286960 0.149851 0.467395
0.286960 0.054002 0.473480
0.286960 -0.316294 -0.337843
0.286960 0.485653 -0.022672
0.286960 0.473485 -0.035985
0.286960 0.381888 -0.263554
0.286960 0.051079 0.453718
0.286960 0.360092 -0.325914
0.286960 -0.029196 -0.472564
0.286960 0.174476 0.420114
0.286960 0.228606 -0.436502
0.286960 -0.423204 -0.209288
0.286960 -0.468877 -0.024989
0.286960 0.096117 -0.444461
0.286960 -0.396017 0.212400
0.286960 0.249689 -0.418805
0.286960 -0.391157 -0.260201
0.286960 0.420283 -0.169658
0.286960 0.450466 -0.125521
0.286960 -0.117591 0.459045
0.286960 0.081443 -0.454727
0.286960 -0.315942 -0.363651
0.286960 -0.481180 0.109062
0.286960 -0.276604 -0.405075
0.286960 -0.470144 -0.122356
0.286960 0.336266 -0.295247
0.286960 -0.066959 -0.463959
0.286960 -0.281585 -0.348817
0.286960 -0.477228 -0.103464
0.286960 0.288995 -0.355586
0.286960 0.010551 -0.454611
0.286960 0.361831 0.333597
0.286960 -0.383104 0.271138
0.286960 0.349544 -0.341437
0.286960 0.346334 0.345940
0.286960 0.450902 -0.000303
0.286960 -0.118988 0.471675
0.286960 -0.418661 -0.185421
0.286960 0.337979 0.344188
0.286960 -0.430790 0.112507
0.286960 0.074438 -0.456045
0.286960 0.420413 -0.213584
0.286960 0.128348 -0.433927
0.286960 -0.460772 -0.129689
0.286960 0.181889 0.445796
0.286960 0.476385 0.035491
0.286960 -0.454414 -0.097637
0.286960 0.271356 0.384887
0.286960 -0.046898 0.472357
0.286960 0.305851 -0.327044
0.286960 0.345603 -0.317234
0.286960 0.439845 -0.178704
0.286960 0.411579 0.235533
0.286960 -0.070291 -0.474994
0.286960 -0.226801 -0.400504
0.286960 -0.124041 0.476533
0.286960 -0.435338 -0.218477
0.286960 -0.421825 0.169355
0.286960 -0.442015 0.074268
0.286960 -0.435415 -0.214869
0.286960 0.489748 0.007308
0.286960 0.062968 -0.485216
0.286960 0.369469 0.279536
0.286960 0.408039 0.222891
0.286960 0.448061 -0.056658
0.286960 -0.128285 -0.429250
0.286960 0.071616 0.454640
0.286960 -0.471092 0.106059
0.286960 0.426827 0.171144
0.286960 -0.368823 0.293342
0.286960 -0.391949 -0.283731
0.286960 0.095668 0.478128
0.286960 0.076260 -0.469416
0.286960 0.428574 -0.186813
0.286960 -0.427031 0.202259
0.286960 -0.465946 -0.122652
0.286960 0.083920 -0.447939
0.286960 -0.342302 -0.292859
0.286960 -0.301340 0.350010
0.286960 0.194808 0.437654
0.286960 0.493819 -0.066420
0.286960 0.094995 -0.466506
0.286960 0.305028 0.389826
0.286960 -0.133017 0.453813
0.286960 -0.042114 -0.453654
0.286960 0.472377 0.004573
0.286960 0.474598 0.058333
0.286960 -0.452369 0.019560
0.286960 0.026387 0.461965
0.286960 0.359726 0.272634
0.286960 0.375261 -0.243514
0.286960 0.446826 0.066535
0.286960 -0.270146 0.379717
0.286960 0.372616 -0.289658
0.286960 -0.425696 -0.246245
0.286960 0.225245 -0.417018
0.286960 0.457193 0.186675
0.286960 -0.137074 0.460335
0.286960 0.418175 0.255788
0.286960 0.448581 0.157012
0.286960 -0.371316 -0.260886
0.286960 -0.255846 -0.381720
0.286960 0.041285 -0.487630
0.286960 -0.437533 0.141208
0.286960 0.482730 0.015343
0.286960 0.470594 -0.079756
0.286960 -0.194077 -0.408130
0.286960 -0.232276 -0.382202
0.286960 0.035110 -0.473467
0.286960 0.437027 0.222767
0.286960 -0.439556 0.102462
0.286960 -0.488366 -0.085699
0.286960 0.490418 0.025908
0.286960 0.298346 0.383502
0.286960 -0.188209 0.424231
0.286960 -0.454014 -0.150826
0.286960 0.291803 0.346789
0.286960 -0.301521 0.353498
0.286960 0.344705 0.352710
0.286960 -0.311877 -0.339903
0.286960 -0.237342 0.391759
0.286960 -0.228103 0.383209
0.286960 -0.291404 0.350850
0.286960 -0.177464 0.428438
0.286960 0.460757 0.115805
