-0.268543 0.234885 -0.441777
0.058760 0.037920 -0.498716
-0.035105 -0.390636 0.305969
0.055809 -0.008860 0.495673
0.089405 -0.340915 -0.364755
0.266767 -0.484964 0.108615
-0.146892 -0.421107 0.262825
0.071766 -0.429379 0.249256
0.137841 0.473937 0.152357
-0.031148 -0.119838 -0.485382
-0.260355 -0.496857 0.021653
-0.054020 -0.033965 -0.499069
-0.121199 -0.462425 0.181447
-0.057830 -0.466402 -0.175581
0.011010 -0.145802 -0.478134
0.230293 0.358583 -0.348518
-0.256792 -0.496987 -0.027736
0.285345 -0.497279 -0.014827
-0.288585 -0.318764 -0.384450
0.091990 -0.488506 -0.096352
0.149676 -0.402097 -0.295297
-0.135394 0.495673 -0.054705
-0.091152 -0.422273 0.260912
0.067717 0.443155 0.226060
-0.141034 -0.370724 -0.334186
-0.221445 0.452034 -0.212215
-0.197209 -0.378389 0.321228
0.081518 -0.308240 0.388639
-0.169007 0.084010 0.488712
-0.177151 -0.379328 0.320151
0.250892 -0.414118 -0.277906
-0.204312 -0.154687 -0.475423
0.131479 0.219114 0.445467
0.275492 -0.480404 -0.131304
0.141003 0.054749 0.492799
0.176830 -0.068471 0.490965
-0.199160 0.161024 -0.473539
0.201970 -0.037524 -0.498904
-0.173186 -0.248484 0.429037
0.216436 -0.314036 0.384043
0.257395 0.249222 -0.433555
0.099888 -0.144787 -0.478444
-0.031486 0.496932 -0.043051
0.217359 0.455320 0.200916
0.261935 -0.497081 -0.025797
0.080012 -0.341070 0.360216
-0.245576 -0.378087 0.321562
-0.072869 0.450403 0.211352
0.127684 -0.291817 -0.405361
-0.226039 -0.259128 -0.427065
0.155758 0.247674 0.430318
-0.150655 0.427867 0.253549
-0.288622 0.466943 0.172630
0.068926 -0.271310 -0.419638
0.154143 -0.254375 0.425659
-0.178053 0.486272 0.107551
-0.151463 -0.443752 0.222842
0.119903 -0.054248 0.492956
0.126957 0.161580 0.469224
-0.286301 -0.003575 0.495769
-0.259762 0.464989 0.177725
-0.230401 0.314115 0.384621
-0.233196 -0.194598 0.455959
0.131164 -0.422501 -0.265208
0.045347 0.184670 0.460560
0.145617 -0.357963 -0.347783
-0.040383 -0.406313 0.284947
-0.095663 0.436191 -0.243503
-0.224284 -0.497080 -0.025843
0.241502 -0.465833 -0.177231
0.265213 -0.133706 0.477334
0.084349 -0.002887 -0.500257
0.100739 -0.436223 0.237142
-0.133956 -0.410228 0.279349
-0.188676 -0.327179 -0.377196
-0.130133 -0.446265 0.218069
-0.258648 -0.067442 0.491114
0.005950 0.344526 0.358059
-0.047592 0.040016 0.494392
-0.076249 -0.493409 -0.065775
0.126657 0.314611 -0.388781
0.153586 0.234789 0.437213
-0.231363 -0.363502 0.337665
0.007623 -0.176828 -0.467471
-0.121310 0.294674 0.399726
-0.143198 0.498480 -0.012685
-0.189838 -0.218572 0.444976
0.162154 -0.162886 0.468190
-0.035074 -0.365974 0.334936
0.169311 0.498403 0.004955
0.030523 0.412456 0.277623
0.145650 0.475387 -0.152041
-0.118539 0.383492 -0.320568
0.044738 -0.024558 -0.499491
-0.002653 0.450173 0.211818
0.253547 -0.306214 -0.394457
-0.238699 -0.480779 -0.129947
-0.022180 -0.497296 -0.013847
0.003916 0.188988 0.458940
-0.141129 -0.484062 0.112409
0.222438 -0.425380 -0.260453
-0.225979 -0.244558 -0.435884
0.206261 0.199195 0.454441
-0.190787 0.479111 0.135346
-0.191739 -0.013015 0.495599
-0.109048 -0.496707 0.025014
-0.131691 -0.436678 -0.240751
0.253266 0.226792 0.441424
-0.138796 -0.200448 -0.457773
0.227473 0.411615 -0.283184
-0.253640 -0.481072 0.124994
0.285808 -0.497415 0.009229
-0.020497 0.418014 0.269203
0.126653 0.207159 0.450867
0.180173 0.216097 -0.451054
0.130561 0.275547 0.413103
-0.041138 -0.226134 -0.445584
0.263271 0.358757 -0.348348
0.092723 0.094749 -0.491182
0.240504 -0.115007 0.482370
0.227871 -0.368172 -0.337160
-0.259195 -0.420534 0.263764
0.135744 -0.472016 -0.159307
-0.087269 0.340836 0.361401
0.233190 0.479455 0.134101
-0.165264 -0.487824 -0.099608
0.254811 0.496249 -0.049376
0.198841 0.485447 -0.115249
0.002611 0.434743 -0.246252
0.237931 -0.060229 -0.496450
-0.241004 0.398872 -0.301279
-0.005910 0.285708 -0.410558
0.150637 -0.365998 0.334910
-0.135548 -0.220674 0.443940
0.112374 0.358488 -0.348610
0.029709 -0.001896 -0.500239
-0.221550 0.484035 -0.121189
0.210636 0.493381 -0.074174
0.145433 0.292805 -0.405411
-0.022398 -0.471687 -0.160260
-0.222188 0.425607 0.257491
-0.064860 -0.475198 -0.150083
-0.264554 -0.463519 0.178531
-0.211592 0.036720 0.494638
-0.247370 0.389373 -0.313191
-0.161743 -0.204813 -0.455813
-0.237714 -0.153110 0.471562
-0.104118 0.158946 -0.474256
0.208833 -0.440804 -0.233105
0.100684 -0.479696 -0.133870
-0.261678 -0.226805 -0.445231
-0.168869 0.138041 -0.480774
-0.093400 0.450096 -0.216534
0.028261 0.498117 -0.020772
-0.256260 -0.472137 -0.158955
-0.267662 0.329630 0.371550
0.091317 0.498571 -0.004360
-0.146991 -0.456452 -0.200096
-0.172370 0.116760 0.482003
0.248336 -0.246913 0.429938
-0.002390 0.312083 0.386241
0.216243 -0.075514 -0.494351
-0.107433 -0.205247 0.451520
-0.236838 -0.491365 -0.079901
0.234103 0.313675 0.384971
0.101961 0.488134 0.098666
0.212747 -0.497288 0.012058
0.283127 0.276729 0.412277
0.213359 -0.119578 -0.485443
0.177367 0.453093 0.205893
-0.015542 -0.013959 0.495582
0.171799 0.224513 0.442624
-0.204048 -0.486273 -0.107011
0.105951 0.335848 0.365919
0.182213 -0.419113 0.266096
0.000280 -0.345570 -0.360513
0.233276 0.350799 -0.356096
-0.079418 0.387322 -0.315764
-0.261608 -0.102459 0.484999
0.272226 0.493240 0.069668
0.257104 0.314869 -0.388560
-0.287929 -0.065196 -0.495913
-0.100048 0.489530 0.092000
0.078795 -0.399656 -0.298534
0.239923 0.423702 -0.264602
0.232341 -0.473687 -0.154462
0.097754 -0.326243 -0.378044
0.018354 0.485650 -0.114394
0.110886 0.495218 -0.058920
-0.190869 -0.381070 -0.322128
0.019216 -0.237904 -0.439387
0.132126 0.408383 0.283791
0.096399 -0.269162 0.416451
0.085781 0.068648 0.491297
0.063712 -0.490080 0.083040
-0.111919 0.356695 -0.350355
0.162844 0.010485 -0.500016
0.267970 0.366550 -0.339785
-0.049191 -0.150595 0.472429
0.202387 -0.365841 0.335082
0.081071 0.093048 -0.491538
-0.200121 0.067364 0.491436
-0.030822 0.258890 -0.428011
0.153455 -0.439691 0.230555
0.253632 0.491794 0.079664
-0.175158 -0.218956 0.444787
0.102939 -0.007432 0.495699
-0.261525 -0.092529 0.487079
0.053968 -0.456181 0.196338
0.170965 -0.420492 0.263834
-0.120820 0.293542 -0.404855
-0.082040 0.039198 -0.498612
0.139326 -0.399472 -0.298778
0.214136 -0.366299 -0.339220
-0.103220 0.258200 0.423902
-0.132684 0.460936 0.187447
-0.108361 0.348090 0.354624
-0.281646 -0.467568 -0.172203
0.222048 0.478825 -0.140772
0.137494 0.135189 0.477332
0.274411 0.388719 0.310035
-0.037668 0.066324 -0.495778
0.002367 -0.048744 -0.497691
0.011338 0.441357 -0.233690
-0.269388 0.416885 0.270914
0.146936 0.250055 -0.433077
0.050620 0.203660 -0.456962
-0.023987 -0.320110 0.378830
-0.007988 -0.360961 0.340471
0.105295 -0.440323 -0.234082
0.098046 -0.452142 0.205338
-0.280539 0.080803 -0.493683
0.040183 -0.413182 0.275125
0.200679 0.086542 0.488276
0.017332 0.300305 0.395632
-0.225583 -0.188509 -0.463088
0.097694 0.351131 0.351500
0.151979 0.057547 0.492497
-0.031302 -0.157368 0.470093
0.247773 0.494631 0.060060
-0.076188 -0.497462 0.008166
-0.062767 -0.140979 0.475327
0.201974 -0.494591 -0.057303
0.033342 -0.490030 -0.089076
0.169227 0.093082 0.487150
-0.211068 0.498004 -0.023295
0.214010 0.125628 -0.484201
-0.212854 -0.099617 0.485594
-0.205325 -0.076460 -0.494189
-0.099119 -0.313480 0.384519
-0.161774 0.087534 -0.492694
0.185491 -0.464886 0.174887
0.110827 0.407682 0.284854
-0.082356 0.373620 0.327652
-0.128067 0.033181 -0.499100
-0.137074 -0.005287 -0.500300
0.079783 -0.009306 0.495665
0.217006 -0.374230 0.325821
-0.147309 -0.134111 -0.481701
0.054719 -0.421328 0.262462
0.004467 -0.289417 -0.407040
0.283056 0.491923 -0.082640
-0.186818 -0.189016 -0.462898
-0.103849 -0.254323 -0.429993
-0.067595 -0.468643 -0.169085
0.086163 -0.254178 0.425772
0.150119 -0.237069 0.435583
-0.288348 -0.397897 0.296863
-0.186498 0.298444 -0.401156
0.099955 0.101680 0.485587
0.078013 0.266919 0.418586
0.234500 -0.326472 0.373372
0.105245 0.426332 -0.260288
-0.164759 -0.078825 -0.493781
-0.258789 0.123892 0.480308
-0.162463 0.352447 0.350148
-0.124240 0.156982 0.470682
0.124443 -0.197062 0.454932
0.177976 0.458155 -0.198575
0.103038 0.177422 0.463280
0.012995 0.294708 -0.403975
0.277759 0.471626 0.159056
-0.248162 -0.143406 0.474657
-0.202511 0.493058 0.070928
-0.282597 -0.262417 0.420904
-0.201696 0.042220 0.494153
0.013381 -0.047529 0.493501
-0.192737 0.494703 0.059560
-0.286074 0.498593 -0.010148
0.272295 -0.074409 0.490106
0.088316 0.324268 0.376407
0.183612 -0.348331 0.353147
-0.014988 0.498647 -0.008948
0.090354 -0.286470 -0.409101
-0.269187 -0.070868 0.490619
0.052149 -0.475568 -0.148824
0.153178 -0.439016 -0.236674
0.234729 0.371974 0.329570
0.232620 -0.479847 0.129710
-0.192991 -0.040903 -0.498538
0.149191 0.463208 -0.186445
0.127032 -0.340693 0.360583
-0.245377 -0.391623 0.304731
-0.093737 0.472497 -0.161513
-0.230065 0.315613 -0.387922
0.098931 0.161853 -0.473253
0.047800 0.217398 -0.450413
0.115001 -0.463840 0.177676
-0.272726 -0.466814 0.169751
-0.062489 -0.159653 0.469305
-0.286681 0.030300 0.494926
0.193285 0.431466 -0.251867
0.163259 -0.414540 0.273183
0.275750 -0.286446 -0.409118
0.191904 -0.047431 0.493509
-0.166874 0.469699 0.164641
-0.147586 0.447856 -0.221347
0.018587 -0.078048 0.489580
0.063704 -0.463781 -0.182519
0.013568 0.430268 0.249362
-0.105497 0.479268 0.134779
0.102789 0.460718 0.187970
-0.044035 0.198219 0.454879
-0.143527 0.076700 0.489970
0.087978 -0.447614 -0.219285
0.064906 0.476644 0.144285
0.206362 -0.470544 -0.163575
0.041147 0.356848 0.345627
0.127544 -0.493730 -0.063554
0.147582 -0.310975 -0.390661
0.239387 -0.333297 0.367515
0.133438 0.496558 0.041317
-0.228826 0.498362 0.007219
0.194977 -0.488858 0.090141
0.251659 0.275562 0.413093
-0.177644 -0.429385 0.249246
-0.062505 -0.103785 -0.489196
-0.203328 0.029768 0.494950
0.243899 0.491064 0.084681
0.040198 -0.254546 0.425561
-0.154975 0.443278 -0.230041
0.209815 -0.493699 -0.063772
-0.181912 -0.433666 -0.246003
-0.094100 -0.480348 0.128041
0.094936 -0.485899 -0.108796
-0.288971 0.140202 0.475802
0.273589 -0.083196 -0.493029
-0.196219 0.482403 -0.128059
0.140702 -0.070846 0.490622
0.125592 0.323890 -0.380820
0.033724 -0.174345 -0.468403
-0.001394 0.328941 -0.376486
0.150268 -0.321812 -0.382020
0.013053 -0.484286 -0.116494
-0.092702 0.216696 0.446588
0.185606 0.353788 -0.353186
-0.077400 -0.495744 0.040210
0.122865 -0.411073 -0.282518
0.069698 -0.255688 -0.429162
-0.198098 0.152775 0.471966
-0.078080 -0.404415 -0.292225
0.186561 0.402753 0.291434
0.037386 -0.462121 -0.186499
-0.133690 -0.393533 -0.306649
-0.280122 -0.485529 -0.110560
-0.119122 0.492209 0.076795
0.260453 -0.298661 -0.400479
-0.109845 -0.096433 -0.490750
-0.265012 0.498123 0.020475
0.212792 -0.295189 -0.403003
-0.237136 0.496296 -0.048941
-0.067377 0.149948 -0.477360
-0.251147 -0.483761 0.113677
-0.260762 -0.316031 0.382330
-0.122620 0.064683 -0.496015
-0.256621 0.434114 -0.247447
-0.115433 -0.495126 -0.050696
0.034671 0.380453 -0.324379
0.150865 0.488662 -0.101586
0.161034 -0.493007 -0.068549
0.069961 -0.446695 0.217253
-0.072088 -0.088949 -0.492038
-0.053863 -0.383923 -0.318804
0.047825 -0.486119 0.103757
-0.251673 -0.103760 -0.489203
0.158473 -0.316893 0.381591
-0.151372 0.254145 -0.430732
0.062851 -0.218800 -0.449446
0.108844 0.442227 0.227945
-0.145079 0.108387 0.483993
-0.240810 0.401932 0.292521
0.143661 0.484505 -0.119213
-0.199548 0.436497 0.238500
-0.070790 0.443760 0.224834
0.286867 0.087825 -0.492633
-0.199660 0.283912 -0.411743
0.141049 -0.479351 0.131336
-0.288694 0.097939 0.486314
-0.191948 0.497635 -0.031524
-0.145775 0.131246 -0.482650
-0.287605 -0.393713 -0.306411
0.074106 0.437326 0.237055
-0.243691 0.293698 -0.404737
0.087062 -0.480036 -0.132638
-0.266691 -0.246585 0.430126
0.261366 -0.491131 -0.081519
0.026306 0.149808 -0.477408
-0.239817 0.494827 -0.062537
-0.190648 -0.162588 -0.472815
0.268591 -0.125406 -0.484058
0.172100 -0.153424 0.471454
-0.018541 -0.300136 -0.399303
0.060177 -0.264115 -0.424024
-0.149674 -0.460581 -0.190195
-0.170218 0.096742 -0.490765
0.060119 -0.118202 -0.485771
-0.083902 -0.355390 0.346275
0.273278 0.343640 -0.363065
-0.084082 0.352431 0.350164
-0.179895 0.490332 0.088173
-0.142651 0.474208 0.151569
-0.005666 -0.144705 -0.478469
0.017709 0.042373 -0.498355
0.079045 -0.108833 0.483664
0.134930 -0.321324 0.377789
0.171324 -0.319927 0.378988
0.264975 0.496624 0.040506
0.211148 0.417641 0.269769
-0.012863 -0.380866 0.318221
-0.175079 0.273121 0.414800
0.194863 -0.184605 0.460126
-0.133900 -0.210353 0.449026
-0.261063 0.274869 0.413578
-0.102243 0.302639 -0.397992
-0.033801 -0.493386 -0.065930
-0.115825 0.120909 -0.485503
0.006769 -0.093522 -0.491251
-0.281423 0.430713 0.248587
-0.268211 0.331982 -0.373876
0.257129 0.327748 -0.377509
-0.001520 0.207124 0.450883
0.160752 0.490663 0.086595
0.188111 -0.326069 -0.378201
-0.200307 -0.402083 0.290995
-0.230645 -0.393753 0.302060
-0.113561 -0.262000 0.421179
-0.058756 0.417527 -0.274731
0.219574 0.350164 0.352493
0.014254 -0.257313 -0.428171
-0.046831 -0.484993 0.108492
-0.200248 0.322127 -0.382333
-0.045043 0.250959 0.428316
0.083316 0.025715 -0.499704
-0.232527 -0.341462 0.359834
0.095061 -0.206441 -0.455083
0.089122 -0.183806 0.460459
-0.213428 0.131083 -0.482695
-0.128200 0.420314 -0.270160
0.058943 0.074989 -0.494524
-0.237388 0.084931 -0.493086
-0.193236 -0.410261 -0.283749
-0.096621 -0.445836 0.218884
-0.261639 -0.160840 0.468895
-0.147256 0.439651 -0.236931
-0.187917 0.377070 -0.328170
-0.195434 0.495422 -0.057027
-0.048800 -0.009342 0.495665
0.156914 0.451825 -0.212682
0.032115 -0.345414 0.355987
0.285686 0.497914 -0.025301
-0.259138 0.338941 -0.367640
0.210928 0.470297 -0.167553
-0.230584 0.195078 -0.460540
-0.234889 -0.225085 -0.446137
0.125029 0.424006 0.260127
0.170740 0.490809 -0.089111
-0.135525 0.266114 -0.423493
0.087491 -0.400156 0.293750
-0.065513 0.498606 -0.009875
0.040742 0.498386 0.005869
-0.027473 0.437652 -0.240727
-0.200272 0.257440 0.424365
-0.232093 -0.390745 -0.310345
-0.095884 -0.496912 0.020437
0.055629 0.257013 -0.429087
-0.087513 0.183454 -0.465386
0.169731 0.413403 0.276189
-0.136270 0.441754 -0.232937
-0.197941 0.336387 -0.370096
-0.283268 -0.290955 0.401680
-0.096120 -0.032687 0.494703
0.197054 -0.457050 0.194400
-0.142408 0.456547 0.197973
-0.088513 0.063223 -0.496226
-0.160011 -0.220309 0.444120
-0.267081 0.338923 0.363134
0.258584 -0.066388 -0.495784
0.003340 0.318142 -0.385752
0.106224 -0.223522 0.442537
0.128054 0.052727 -0.497516
-0.118314 -0.392986 0.303021
-0.279925 0.240290 -0.438677
0.258491 -0.304711 0.391302
-0.202707 -0.406200 -0.289859
-0.007684 0.472364 -0.161948
0.151008 -0.352987 0.348615
0.125430 -0.479692 0.130220
-0.176965 -0.128942 -0.483218
0.226103 0.493006 0.071290
-0.200110 0.092815 -0.491587
-0.029166 -0.476520 0.140615
0.139510 0.186137 0.460010
0.088384 -0.054331 0.492950
0.085673 -0.429353 -0.253525
-0.191035 0.300821 0.395221
-0.103161 0.368635 -0.337482
0.116792 -0.389681 0.307166
0.201682 0.263661 0.420572
0.024097 -0.192552 -0.461316
-0.167151 -0.229016 0.439830
-0.235594 -0.479276 0.131582
-0.234449 -0.026192 -0.499418
-0.182177 -0.423563 0.258796
0.286937 0.412715 0.277230
0.078987 -0.174700 0.464114
0.107900 -0.109627 0.483497
0.111167 -0.377835 0.321840
0.192561 -0.083146 0.488842
0.047264 0.473634 0.153234
-0.264925 0.473062 -0.159658
0.063829 0.493960 0.064691
-0.192671 0.439836 -0.236579
-0.009852 0.421775 -0.267764
-0.187088 0.498626 -0.007454
0.227724 -0.497381 0.009979
-0.274941 -0.086540 0.488334
0.004020 -0.088050 0.488017
0.186499 -0.486576 0.101832
0.196638 0.497440 -0.035867
0.008732 -0.247867 0.429391
0.244975 -0.355759 -0.350046
0.187560 -0.024798 -0.499480
-0.249445 -0.330613 -0.374086
-0.117877 -0.294003 0.399381
-0.041593 -0.487433 -0.101472
0.165168 -0.435392 0.238720
0.147851 0.222239 0.443821
0.207226 0.373681 -0.331911
0.122619 -0.278707 0.410150
-0.253628 0.018212 -0.499877
-0.066623 -0.481861 -0.126026
0.011181 -0.463328 -0.183605
-0.066594 0.468625 0.167754
-0.276279 -0.433500 -0.246293
-0.120328 -0.172287 -0.469176
0.026623 0.410615 -0.284614
0.128611 0.143098 0.474919
0.057209 -0.167906 -0.470820
-0.188195 -0.472057 -0.159189
-0.146560 -0.438158 0.233467
-0.178988 -0.302155 0.393231
0.007791 0.409293 0.282414
0.200062 0.102128 0.485480
0.117296 0.222344 -0.447976
-0.069373 0.083219 0.488848
-0.100898 -0.322279 0.376970
-0.234479 0.488643 0.096237
-0.272810 -0.497492 -0.002971
0.124509 0.477597 0.140833
-0.264878 0.306407 -0.395150
-0.106396 -0.157979 -0.474419
-0.033589 -0.363650 -0.341942
0.062671 0.217495 0.446229
0.260947 0.030433 0.494920
-0.040801 0.496313 0.044341
0.021700 0.382597 -0.321689
-0.139438 -0.462787 -0.184902
-0.202904 -0.454057 0.201071
-0.226626 0.492025 -0.082047
-0.173328 0.321084 0.379064
-0.257124 0.330810 -0.374882
-0.264278 -0.479718 0.130133
0.224645 -0.399105 0.295253
0.224818 0.397745 -0.302692
-0.099313 0.430655 -0.253198
-0.061809 0.328511 -0.376855
-0.188364 -0.231903 -0.442547
-0.034278 -0.460153 0.187485
-0.010254 -0.115933 0.482176
0.116245 -0.411866 0.277007
0.246268 -0.457523 -0.197528
0.183178 -0.277386 0.411022
0.065051 0.373651 0.327615
-0.062220 -0.493320 0.062643
-0.145890 -0.432998 0.243266
-0.206510 -0.189614 0.458037
0.250915 0.061927 0.492024
0.252778 -0.182934 -0.465180
0.020764 0.497540 0.029201
-0.081762 0.498200 0.016233
0.240234 -0.191239 -0.461905
-0.224707 -0.424074 -0.262730
0.213625 0.402381 -0.296387
-0.115194 -0.058916 0.492348
-0.186328 0.012155 0.495740
-0.274769 0.442478 -0.231562
0.189600 0.498172 0.017742
0.080902 -0.432830 0.243586
-0.195275 -0.313458 -0.388681
0.060407 -0.311930 -0.389899
-0.201617 0.453965 0.204123
0.283634 0.073730 -0.494706
-0.066877 -0.054526 -0.497066
-0.148975 -0.352566 0.349024
0.196885 0.348997 0.353692
-0.055954 -0.494869 -0.053874
0.081232 -0.492922 -0.069137
0.285218 0.486083 -0.112574
-0.067457 0.017327 -0.499893
-0.138930 -0.396353 0.298800
0.137747 0.310695 -0.391915
0.063491 0.479849 0.132675
0.143349 -0.017164 0.495524
-0.082390 -0.100438 0.485422
0.228825 -0.472540 0.153658
-0.010341 -0.362168 -0.343463
0.135420 -0.457050 0.194401
-0.205068 0.145971 -0.478585
0.084907 0.311262 -0.391486
-0.082643 -0.453770 0.201710
0.023433 -0.464012 -0.181964
0.092376 -0.496908 0.020533
-0.216821 -0.386992 -0.315227
-0.020948 -0.352501 0.349088
-0.265251 0.366541 0.335671
0.282718 0.330886 0.370413
-0.080437 0.395621 0.300886
-0.243810 0.484053 -0.121115
0.129338 0.424160 -0.263850
0.218086 -0.482052 -0.125333
0.227566 -0.289698 -0.406843
-0.278256 0.160631 0.469569
0.238837 -0.466400 0.170853
0.128898 -0.395508 0.299859
-0.022411 -0.490921 0.078158
0.015770 0.114612 -0.487021
-0.096515 0.498337 0.008621
0.182078 -0.054481 0.492937
0.224511 -0.385184 0.312807
-0.246615 0.452707 0.206676
0.123997 -0.180034 0.462031
0.165074 0.268591 0.417567
-0.197020 -0.495131 0.045883
-0.262391 -0.001319 0.495809
0.064691 0.092189 0.487304
-0.243181 0.408423 -0.287749
0.255512 -0.087812 -0.492234
-0.268091 -0.445646 0.219244
-0.273561 -0.481911 0.121461
0.127912 0.498178 0.017407
-0.188343 -0.467770 -0.171616
-0.286356 -0.133656 0.477348
-0.066490 -0.497466 -0.004444
0.099531 0.492279 -0.080571
-0.168750 0.208867 -0.454617
-0.008977 0.488869 0.095156
0.284948 -0.218413 0.445055
-0.065850 -0.456028 -0.201114
-0.204020 -0.399754 -0.298404
0.212048 -0.418296 0.267436
-0.265849 -0.276977 0.411292
0.040968 0.379310 0.321021
0.105637 0.082052 0.489049
0.120009 0.246344 -0.435206
0.128485 -0.115087 -0.486511
-0.022783 -0.066096 0.491309
-0.224168 0.286557 -0.409997
0.204063 0.299601 -0.400284
-0.163508 -0.472392 0.154143
-0.271922 0.392927 -0.308735
0.200905 0.116889 -0.486544
0.148770 0.065277 -0.495929
-0.021948 0.415248 -0.277990
0.055694 -0.216100 0.446194
0.206228 -0.312826 0.385081
-0.216535 -0.117904 0.481696
0.091370 0.210422 0.449403
0.022372 -0.356393 0.345298
0.264226 -0.030782 -0.499212
0.189938 0.492493 0.074837
-0.208994 0.494353 0.061977
-0.043661 0.412294 -0.282214
-0.268741 0.060077 0.492223
0.108141 0.269225 0.417180
0.240544 -0.088475 -0.492120
0.088089 0.451244 0.209644
0.121013 0.271113 0.416029
0.243186 -0.180278 0.461930
0.127049 -0.120941 0.480858
0.087903 0.273386 0.414615
0.017868 -0.386142 -0.316218
-0.006973 0.073172 0.490578
-0.027152 -0.455679 -0.201951
-0.048151 0.364867 -0.341642
0.123523 -0.474528 -0.152025
0.022759 0.178802 0.462762
0.263855 -0.386121 0.311631
0.169372 0.382991 0.316731
0.122481 0.496200 -0.049831
-0.280892 0.451825 -0.212681
0.052786 -0.347991 -0.358026
-0.249698 -0.478198 0.135117
0.111043 0.352120 0.350484
0.088997 0.481169 -0.133090
0.060442 0.495789 -0.053633
0.150957 -0.341103 0.360184
-0.222035 -0.442292 0.225615
-0.235865 -0.048523 -0.497715
0.228789 -0.311666 0.386055
-0.146176 -0.477433 -0.142069
-0.039447 0.498472 0.001102
-0.023970 -0.140630 0.475423
0.076308 -0.249733 0.428321
-0.091668 -0.455539 -0.202287
0.079256 -0.130118 0.478325
-0.239923 0.198872 0.454586
-0.058522 -0.443578 -0.227476
0.038122 0.209075 -0.454514
0.235747 -0.126584 0.479301
0.166208 -0.458425 -0.195364
0.111496 0.042138 0.494162
0.091807 0.483745 -0.122410
0.255110 -0.401180 0.292286
0.134885 0.089418 0.487781
-0.000932 -0.097972 0.485939
0.118739 0.092107 -0.491736
0.265912 -0.272242 -0.419052
0.254785 0.158920 0.470091
-0.097048 -0.342811 0.358521
-0.207655 0.055872 0.492678
0.188216 0.065170 -0.495945
-0.131898 0.489916 -0.094300
0.067059 -0.331374 -0.373397
0.197893 0.426131 -0.260618
-0.034046 -0.484511 0.110521
-0.184063 -0.402435 -0.294849
-0.019074 -0.452288 -0.209800
0.017226 -0.060626 0.492100
-0.246127 -0.496498 -0.033766
0.181401 -0.222361 -0.447571
0.058102 -0.340000 0.361258
0.030611 -0.496313 -0.036054
-0.087475 0.209835 -0.454140
0.170366 -0.405620 0.285937
-0.008291 0.373181 0.328163
0.058599 0.407678 -0.288813
0.039671 -0.440344 -0.234039
-0.170315 0.423109 0.261487
0.071079 0.097475 -0.490611
0.197688 0.463106 -0.186717
-0.124456 0.396145 0.300192
0.259224 -0.410010 -0.284129
-0.009389 -0.292717 -0.404732
0.088113 -0.442530 0.225163
0.180828 0.245776 0.431429
-0.012902 -0.491997 0.071904
0.205607 0.443026 -0.230521
-0.271647 -0.438411 0.232987
0.060617 -0.370671 0.329750
-0.218747 0.172572 0.465100
0.062008 -0.194235 -0.460560
0.283812 -0.491438 -0.079400
-0.288273 0.458613 0.193019
-0.062107 -0.247608 0.429539
-0.277477 0.361873 -0.344949
0.034544 0.443659 -0.229319
0.002981 0.476777 0.143804
0.167668 -0.250903 0.427650
-0.022350 -0.495288 -0.048696
-0.080146 0.309205 -0.393038
-0.145566 0.484823 -0.117874
0.252552 -0.245700 -0.435250
0.016949 0.435247 -0.245295
-0.228577 0.328076 -0.377228
0.283381 -0.263900 -0.424155
0.093762 -0.131830 0.477852
-0.234518 -0.377802 0.321876
-0.027230 0.245359 -0.435770
0.233214 -0.406135 -0.289946
0.151160 0.264641 -0.424466
-0.277606 0.261284 0.422021
-0.287949 0.125429 0.479943
-0.046412 0.497018 0.035638
-0.188738 0.096902 -0.490731
0.108799 -0.480866 0.125858
0.150510 0.075741 -0.494415
0.259712 -0.342657 -0.363177
0.043811 0.427512 -0.258352
-0.091487 -0.464817 -0.180033
0.234866 0.498051 -0.022242
-0.251062 0.303120 0.393388
-0.253054 -0.153648 0.471376
0.060826 0.453484 -0.208985
0.284075 -0.204129 -0.456121
0.114633 0.324218 0.376453
-0.123998 0.043650 0.493999
0.064552 -0.374957 -0.329253
-0.207446 -0.387232 0.310238
0.170666 0.444447 -0.227823
-0.241782 -0.204004 -0.456176
0.108511 -0.231452 -0.442784
-0.055887 0.077330 -0.494185
-0.261419 -0.457746 -0.196994
0.237412 -0.442511 -0.229641
0.284196 -0.101064 0.485291
-0.232286 0.095556 0.486724
-0.220434 -0.345777 0.355634
-0.090330 -0.490955 0.077960
-0.045167 0.479440 0.134156
-0.044800 -0.490775 0.079004
-0.059983 -0.450796 -0.212828
-0.015260 -0.494684 0.050023
-0.054510 0.493735 -0.072117
0.004005 -0.481788 -0.126291
-0.110599 0.310761 -0.391865
0.012886 -0.052981 -0.497233
-0.175245 0.356796 0.345681
0.196420 -0.497339 0.010910
-0.012582 -0.497149 -0.022033
-0.194288 0.432325 -0.250457
0.052491 -0.138404 -0.480391
-0.274558 0.467714 0.170395
0.066129 0.141493 0.475408
0.278201 0.026908 0.495078
0.200644 0.042436 0.494130
0.227393 0.322902 -0.381668
-0.236371 0.483457 0.119603
0.225046 0.429218 -0.255554
-0.227876 -0.148473 0.473161
-0.206235 -0.349430 -0.356548
-0.072671 -0.489904 0.084066
0.104604 -0.490525 0.080454
0.202706 -0.352422 -0.353474
0.124667 -0.360118 -0.345569
-0.135027 -0.497269 -0.015371
-0.130164 0.242175 0.433324
-0.275287 0.197573 -0.459500
-0.097218 -0.116558 -0.486161
0.149825 0.141492 0.475409
-0.255089 0.261565 -0.426477
0.205262 -0.486292 -0.106919
-0.097267 0.114740 -0.486994
-0.078424 0.333448 0.368093
0.112342 -0.050741 -0.497475
-0.247332 0.481355 -0.132468
-0.086824 -0.152461 0.471786
0.060926 -0.468187 0.166091
-0.245273 -0.208677 0.449852
-0.287892 0.487751 -0.105552
0.276190 -0.339227 0.362010
0.031722 0.120103 0.481209
0.220859 0.184340 0.460684
-0.023212 -0.441328 -0.232042
0.174465 0.343071 -0.363619
-0.231862 -0.215842 0.446321
-0.273047 -0.013904 0.495582
0.261226 0.497822 -0.027353
-0.098692 -0.484407 -0.115917
-0.150720 -0.219759 -0.448941
-0.187371 -0.130159 -0.482907
-0.012147 -0.159252 0.469443
0.190460 0.491748 -0.083660
0.233496 -0.038103 -0.498841
0.087582 0.097712 0.486353
-0.171044 -0.453974 -0.206041
0.200120 -0.048552 -0.497712
0.210155 -0.059096 -0.496572
-0.260163 0.444909 -0.226944
0.101098 -0.475652 0.143458
-0.106491 0.379742 -0.325219
-0.054234 0.218621 0.445724
-0.024613 -0.387737 -0.314332
0.217971 0.497004 -0.042390
0.188861 0.028263 -0.499498
-0.160864 0.498570 -0.004313
-0.208732 0.440535 0.231378
0.204783 0.311088 0.387034
0.081690 0.492170 0.077065
0.226678 -0.441357 -0.231984
-0.089354 -0.200097 -0.457930
0.074039 -0.491443 0.075124
0.265620 -0.312168 0.385645
-0.027733 -0.482369 0.119533
-0.202184 -0.165403 -0.471759
-0.084765 0.496836 0.037891
-0.100533 -0.352121 0.349457
-0.150237 0.449566 0.213051
-0.226680 0.497432 0.030529
0.176690 0.498114 -0.020848
0.227900 0.110243 -0.487936
-0.078946 0.014133 0.495651
0.043886 -0.084960 -0.492725
-0.265357 0.256879 -0.429164
0.163507 -0.463866 0.177606
0.261053 0.411426 0.279182
-0.185104 -0.497377 -0.009358
0.182441 -0.489247 0.087880
0.091330 -0.366943 -0.338559
-0.093851 -0.485893 0.104707
0.209143 -0.330572 -0.374122
0.284957 -0.246513 0.430168
0.286283 0.495963 0.048661
0.134701 0.435216 -0.245353
-0.090198 -0.251508 0.427303
0.123405 0.245256 0.431702
-0.060651 0.130470 -0.482864
-0.070166 0.370772 0.330972
0.119151 -0.204144 -0.456114
-0.236376 -0.440874 0.228307
0.037455 -0.142462 0.474917
-0.066617 -0.261719 -0.425485
-0.161394 0.466469 0.174004
0.034812 0.462284 -0.188907
-0.031195 -0.489741 0.085008
0.043414 0.372758 -0.332931
-0.169449 -0.402087 0.290990
0.089319 -0.464035 0.177155
0.130053 0.448485 -0.220126
0.148315 0.438197 -0.239691
-0.058314 0.494634 0.060033
0.203991 -0.295589 0.398184
-0.216110 -0.428461 -0.255080
0.080855 0.011465 -0.499998
0.159627 -0.260542 -0.426202
0.265343 -0.489680 0.085364
0.027983 0.205114 -0.456356
-0.058905 -0.176473 0.463503
-0.125101 0.483634 -0.122877
0.240970 -0.363202 -0.342401
-0.155315 0.457052 0.196764
-0.221966 0.462862 0.182827
0.077034 -0.392699 0.303382
0.062002 -0.306569 0.389900
0.232231 0.383796 0.315793
-0.001031 -0.354058 0.347572
0.001191 0.440208 -0.235872
0.116746 -0.494822 -0.054449
-0.124554 0.268735 -0.421763
-0.252507 0.397137 -0.303455
-0.220783 -0.448802 0.212782
0.240096 -0.497090 -0.025282
0.147185 0.254653 0.426064
0.264680 -0.497359 -0.010375
-0.054793 -0.051454 0.493183
-0.278543 0.063408 -0.496200
-0.054141 -0.062415 0.491841
-0.013029 0.391549 0.306284
-0.050424 -0.086307 -0.492493
0.217988 -0.188902 0.458334
0.047026 0.010036 0.495835
-0.188977 0.481884 0.125302
0.284654 0.365364 -0.341094
0.158054 -0.476265 -0.146300
-0.077099 -0.026723 0.495186
-0.235042 -0.164520 0.467626
-0.139474 -0.226618 -0.445330
-0.038414 -0.148453 0.473168
0.252610 -0.090953 0.487409
-0.124133 0.316108 -0.387498
0.154665 -0.496044 -0.039367
-0.134267 -0.423468 0.258953
0.019302 -0.316744 -0.386061
0.092899 0.340004 -0.366605
-0.075346 0.347644 -0.359167
0.142096 0.471975 -0.163080
-0.129601 0.158462 -0.474423
0.249466 -0.491310 -0.080283
0.143051 0.208846 -0.454627
-0.211099 0.475408 -0.151971
0.191148 -0.477289 -0.142590
0.149235 -0.215803 -0.450882
-0.096518 -0.221475 0.443546
0.161636 -0.049411 -0.497619
-0.036957 0.019098 -0.499861
0.259088 0.232687 -0.442879
-0.287880 0.152501 0.472049
-0.037432 0.221564 -0.448360
0.072208 0.386997 0.312062
0.024170 0.054991 -0.497333
-0.159032 0.452127 -0.212009
-0.136480 0.375632 0.325307
0.036844 0.007300 0.495958
-0.274969 0.424418 0.259503
0.282012 0.494491 -0.065646
-0.265456 -0.495350 0.043861
0.142812 -0.199557 -0.458172
0.167330 -0.470728 -0.163041
0.115630 0.495218 0.055999
-0.171310 0.483346 0.120007
0.161910 -0.173126 -0.468861
-0.068543 -0.168696 0.466185
0.056323 -0.294328 -0.403605
-0.256000 -0.306519 0.389938
0.208600 0.447316 0.217617
-0.099279 0.182597 0.461338
-0.099107 0.433582 0.243584
-0.167179 0.163960 0.468331
0.171248 -0.350752 0.350790
0.245936 0.173209 0.464861
0.117022 -0.003711 -0.500272
-0.163056 -0.495793 -0.042466
-0.028895 -0.495942 -0.040630
-0.031580 0.225500 0.442104
0.268106 -0.349684 0.351830
0.119425 -0.424030 -0.262808
-0.254314 0.066937 -0.495689
-0.247381 -0.294048 -0.403801
-0.157852 -0.408332 -0.286671
-0.024766 0.346013 0.356712
-0.151298 -0.178170 -0.466968
-0.210716 0.098363 -0.490425
0.007944 -0.426122 -0.259159
-0.038182 0.186532 0.459862
0.162493 0.497951 -0.024482
-0.272717 -0.495171 -0.050145
0.063587 -0.459370 -0.193097
0.249259 -0.116301 -0.486222
0.275420 0.419351 0.267178
-0.279383 0.414429 0.274634
-0.168275 0.494618 0.060146
-0.172739 -0.061111 0.492030
0.098807 0.027161 -0.499587
0.124236 -0.427846 0.251770
0.244239 -0.404702 0.287251
-0.100366 0.388503 0.310307
0.157200 0.483446 -0.123668
-0.271210 0.092835 0.487192
-0.100651 -0.458948 0.190171
0.063672 -0.446192 -0.222172
0.132207 0.387521 0.311452
-0.161051 0.426210 0.256439
-0.030516 0.283955 0.407223
0.004935 -0.040969 0.494032
0.138589 -0.486952 -0.103768
-0.100066 0.492321 -0.080330
0.041291 -0.397422 -0.301495
-0.189348 0.352319 0.350280
-0.202407 -0.395496 0.299874
0.192585 -0.252720 -0.430971
-0.090262 0.466460 -0.177778
-0.091795 -0.419932 -0.269100
-0.068215 -0.440585 -0.233549
0.245599 0.061173 -0.496523
-0.025759 0.256863 0.424717
-0.191090 -0.391995 0.304265
-0.085443 -0.124326 -0.484315
0.028426 -0.255724 0.424885
0.127331 -0.388505 0.308641
0.053753 -0.055725 -0.496937
-0.209080 0.211109 0.449095
0.262052 -0.149311 0.472873
0.081254 -0.466978 -0.173914
-0.202096 -0.091283 0.487340
0.121114 0.442826 0.226729
0.168095 0.138392 -0.480677
-0.252421 -0.428346 0.250950
-0.145457 0.404677 -0.293105
-0.213672 -0.364192 0.336903
-0.047585 0.026675 -0.499627
-0.206790 -0.250210 0.428048
0.211259 0.464140 0.179761
-0.040725 -0.456194 -0.200715
-0.061445 -0.468569 0.165073
-0.086484 0.163134 -0.472811
0.091743 -0.492443 0.069313
0.029139 0.374855 -0.330615
0.111099 -0.405776 0.285714
-0.122041 -0.497510 -0.001970
0.171365 -0.497145 -0.022268
-0.208061 0.006678 0.495953
0.286391 0.497067 0.035033
-0.244050 -0.440718 -0.233281
-0.176073 0.384447 -0.319369
-0.038535 -0.432893 -0.247352
0.118755 0.476357 -0.148861
-0.184557 0.235405 0.436889
-0.120588 0.185313 0.460319
0.120233 0.290047 0.402963
0.229873 -0.494886 -0.053665
-0.214137 -0.371478 0.328859
0.250457 -0.202171 0.452802
0.063036 -0.279376 -0.414062
0.206552 -0.429249 0.249469
-0.187426 0.427995 -0.257560
-0.063382 -0.405500 0.286110
-0.022279 -0.400819 -0.296992
-0.157811 -0.357996 0.343737
-0.148499 0.293030 0.400876
0.254352 -0.491892 0.072518
-0.197274 -0.385240 0.312736
-0.088286 0.318606 0.381040
0.226319 0.201056 -0.458048
0.234998 0.477641 -0.144652
0.153009 0.172087 -0.469723
0.224808 -0.467843 0.167007
-0.240845 0.480366 0.130800
0.283913 -0.290126 0.402306
0.064162 0.485428 0.111584
-0.191909 0.350018 -0.356855
0.095737 0.340685 0.361538
-0.235371 -0.151186 -0.476491
-0.270312 0.128562 0.479199
-0.053244 0.481563 0.126464
-0.101207 -0.184373 0.460222
0.183949 -0.302442 -0.397465
0.218028 0.496296 0.044557
0.187602 0.039894 0.494405
-0.001669 -0.466547 -0.175161
0.169786 0.207509 -0.455286
0.048515 0.169259 0.466343
0.284311 0.248482 0.429826
-0.117490 0.464953 0.177813
0.145340 0.176817 0.463507
0.059189 -0.485663 -0.109923
-0.115847 -0.497301 0.011756
-0.107713 0.336847 0.365014
-0.268159 -0.319281 -0.384038
0.076680 0.242488 -0.437417
0.010525 -0.019267 0.495486
-0.170736 0.328528 -0.376840
0.188782 0.254578 -0.430484
0.030710 -0.225496 0.441564
-0.110711 -0.047321 0.493517
0.152924 -0.462541 0.181136
0.015586 0.473135 -0.159420
0.004841 -0.156501 -0.474870
0.229827 -0.278730 0.410134
-0.194269 -0.227238 0.440706
-0.265246 -0.403208 0.289386
0.117161 0.177695 -0.467787
0.177054 -0.027190 -0.499373
-0.017762 -0.479456 -0.134738
0.279852 -0.399398 -0.298875
-0.287416 0.376377 -0.328935
0.137580 0.395513 0.301030
0.192490 0.408794 0.283169
-0.137344 -0.317142 -0.385743
-0.247682 -0.077826 0.489612
-0.198972 0.491794 -0.083393
0.112888 -0.031620 -0.499174
0.199705 0.498352 0.007776
0.077143 -0.242701 -0.436861
0.264801 -0.448451 0.213564
-0.066887 -0.492280 -0.073574
0.022140 -0.104141 -0.489112
-0.089701 0.374798 -0.330679
-0.082883 0.473142 -0.159398
-0.274594 0.450006 0.212158
-0.010420 -0.434028 0.241310
-0.037023 -0.491803 -0.076877
0.280562 0.349007 -0.357840
0.273673 -0.322102 0.377122
0.251820 -0.107073 0.484032
0.051132 0.065650 -0.495875
0.021720 0.074553 0.490340
-0.253986 0.227048 0.441289
-0.154462 0.428549 -0.256652
-0.278342 -0.457813 -0.196832
0.098642 0.103416 -0.489366
0.260333 -0.351505 -0.354417
0.036585 0.478834 0.136351
-0.043361 -0.442252 0.225691
0.051197 -0.249769 0.428300
0.195620 0.493806 0.065757
-0.149498 -0.477968 0.135870
0.217453 -0.307763 -0.393222
-0.016366 -0.436481 -0.241094
-0.233064 -0.441744 -0.231197
-0.235226 0.250757 0.428439
-0.038078 0.466280 0.174554
-0.129712 0.414653 -0.278840
0.158622 -0.409603 -0.284745
0.038040 0.040433 -0.498512
-0.028192 -0.230451 0.439123
-0.249470 -0.479740 -0.133711
0.254131 0.397027 -0.303593
-0.106928 -0.497588 0.002339
-0.103500 -0.027515 -0.499358
0.008577 -0.427876 0.251721
-0.191305 0.484773 0.114709
0.024923 -0.476323 -0.146088
0.007904 0.469303 0.165789
0.114478 0.479402 0.134293
0.257059 -0.395135 -0.304525
-0.219930 -0.486950 0.100256
0.228674 -0.081201 -0.493372
-0.167443 0.474456 -0.155091
0.030353 0.287499 0.404745
-0.259252 0.493006 0.071286
-0.104258 0.416247 0.271881
-0.173606 -0.071055 -0.495119
0.210343 -0.376364 -0.327613
-0.109494 -0.388614 0.308504
-0.020082 -0.234312 -0.441278
0.004063 0.355993 -0.351039
0.038828 0.105609 0.484653
0.096029 -0.110167 0.483384
0.091393 0.235401 0.436891
-0.230040 -0.314874 -0.387552
-0.251875 -0.303840 -0.396350
0.071016 0.408613 -0.287477
0.051400 0.470400 0.162608
-0.153793 0.313887 0.384802
0.246399 0.497910 -0.025390
-0.070968 -0.486067 0.103972
0.111952 0.366975 0.335225
-0.054481 0.098489 0.486219
0.225502 0.492498 -0.079301
-0.254872 0.289202 -0.408129
0.074822 0.358932 0.343487
-0.284000 -0.469897 0.161533
-0.021753 0.361062 0.341299
0.027925 0.423808 -0.264429
0.095388 0.483379 0.119885
0.127906 0.102771 0.485328
0.104833 0.490318 -0.091966
0.221023 -0.268506 -0.421347
-0.091887 0.475769 0.147044
0.285226 -0.310318 0.387072
-0.058129 -0.414032 -0.278037
0.171980 -0.410791 -0.282946
0.124462 0.233639 -0.442410
0.278813 -0.020361 0.495466
0.233205 -0.487342 0.098610
-0.007398 0.038292 0.494567
-0.249414 -0.446743 -0.221053
-0.109740 0.442281 -0.231936
0.248425 0.497030 0.035498
0.021807 0.497496 -0.034608
0.072880 -0.480391 0.127860
0.085128 -0.127367 -0.483592
-0.258693 0.380539 -0.324270
-0.178689 0.329467 0.371698
-0.071741 -0.450107 0.209872
0.250805 -0.146337 -0.477971
0.267825 -0.153544 -0.475772
0.075469 -0.463952 0.177378
-0.258544 -0.462252 -0.186187
0.100877 0.435643 0.239989
0.108787 -0.323564 -0.380470
0.214252 -0.303764 0.392016
-0.250735 -0.419207 -0.270197
0.105695 -0.304882 -0.395519
-0.084317 0.495714 0.051742
0.109406 0.465223 -0.181074
0.185547 0.484702 -0.118383
-0.006749 -0.495916 0.038617
0.239165 0.130540 -0.482845
-0.213529 -0.221116 -0.448226
-0.015637 0.084062 -0.493211
0.209961 0.235649 0.436760
0.003212 -0.064783 -0.495958
0.012930 -0.133444 -0.481905
0.286515 0.202138 0.453121
-0.188786 0.344885 0.357734
-0.192680 0.189483 -0.462873
0.161570 -0.490785 0.078946
-0.164133 -0.349126 -0.356860
-0.251719 -0.125547 0.479587
0.160585 -0.430349 0.247665
-0.017773 -0.199920 -0.458009
-0.111786 0.004354 0.495911
-0.098212 0.326457 0.374425
-0.053820 -0.408713 -0.286093
0.157895 0.496135 -0.050433
0.086223 -0.415673 -0.275550
-0.115999 0.498480 0.000680
-0.267656 -0.146272 -0.477991
-0.218225 -0.421309 0.262493
-0.107890 0.026211 -0.499664
-0.024370 0.488748 0.095734
-0.255718 0.006941 0.495958
0.271600 -0.366640 -0.338871
0.235007 0.138316 0.476378
0.000888 -0.132209 -0.482282
0.032366 0.322280 0.378110
-0.024782 0.487742 -0.105591
0.127833 -0.036329 0.494408
-0.103531 -0.466598 0.170326
-0.172763 0.477596 -0.144800
0.177934 -0.090872 -0.491707
0.276623 -0.032621 0.494709
0.087555 -0.355534 -0.350278
0.113985 0.425234 0.258140
-0.145689 -0.220769 0.443893
0.260923 0.145099 -0.478826
-0.141540 -0.091385 -0.491619
-0.049037 -0.469853 0.161650
0.147978 -0.118821 -0.485623
-0.138718 -0.476321 0.141265
0.155594 0.019530 -0.499853
-0.211825 -0.371300 -0.333514
0.249553 0.114559 0.482526
-0.033162 0.498586 -0.010312
0.145766 -0.372047 -0.332644
-0.162149 0.318776 0.380904
0.247652 -0.135224 -0.481362
0.018534 0.308832 0.388833
-0.090386 -0.487716 -0.100122
0.087027 0.014708 0.495625
-0.190030 -0.371770 -0.332967
0.284062 0.462304 -0.188853
-0.243657 0.425602 -0.261485
0.200575 0.455447 0.200613
0.263103 -0.444575 -0.225452
-0.285280 -0.000906 -0.500221
-0.180233 -0.140020 -0.479898
-0.174686 -0.022910 0.495420
0.001235 -0.495640 -0.044351
-0.026336 0.208895 -0.454603
0.100367 -0.497278 0.012271
0.070306 -0.355222 0.346439
-0.167392 -0.497586 0.002242
-0.246632 0.493844 -0.071486
-0.180484 0.056002 0.492664
-0.245037 -0.021840 0.495440
0.044606 0.452646 0.206801
-0.060658 -0.232100 0.438310
-0.013527 -0.075955 0.489883
-0.159753 -0.005093 -0.500297
-0.072422 0.112939 0.482911
0.156206 0.390912 0.307129
0.093963 -0.442941 -0.228769
-0.166888 -0.359693 -0.346006
-0.289934 -0.162879 -0.472706
0.264902 -0.495695 0.040669
-0.107209 0.216848 0.446519
0.105512 0.374120 0.327069
-0.148616 0.372491 0.328968
0.160149 0.485866 0.109494
0.045402 -0.492613 -0.071278
-0.247238 -0.496666 0.025914
-0.136086 -0.489301 -0.092554
0.231466 -0.439094 0.231688
0.259750 -0.279070 0.409910
-0.064617 -0.495600 -0.044844
-0.038258 -0.185964 -0.464043
0.042881 0.407612 -0.288908
0.051955 -0.402803 -0.294362
0.003363 -0.190000 0.457876
0.169889 -0.269222 0.416411
-0.029952 0.393046 -0.308586
0.042592 -0.454245 0.200651
-0.132858 -0.438432 0.232946
-0.088157 -0.114900 0.482393
0.050879 -0.124040 -0.484383
0.190454 -0.092043 -0.491506
-0.075263 0.487343 -0.107271
0.118258 -0.472123 0.155024
-0.268823 -0.203619 -0.456349
0.188301 0.344522 -0.362207
-0.153379 0.080840 0.489257
0.094031 0.474122 -0.156187
-0.075553 0.357044 0.345426
0.147332 0.343164 -0.363528
-0.260933 -0.327944 -0.376503
0.153751 -0.202074 0.452843
0.230124 0.303126 0.393383
-0.139831 -0.495783 -0.042592
-0.225976 -0.271167 -0.419725
-0.250085 0.135069 -0.481595
-0.079374 0.455328 -0.204876
0.147644 0.044238 -0.498204
0.225353 -0.382002 -0.321042
-0.190294 0.329241 -0.376228
-0.179377 0.199367 0.454364
-0.015414 0.354054 0.348497
0.190453 0.468197 0.168995
0.024514 -0.100162 0.485480
0.223976 0.430232 0.249425
-0.265126 0.294935 -0.403804
0.224356 0.374142 -0.331403
-0.268408 -0.301930 0.393400
-0.236359 -0.411946 -0.281196
-0.096172 0.020135 0.495382
0.044890 0.248655 0.429720
-0.015040 0.044393 -0.498191
-0.280729 -0.496415 0.031510
-0.233320 -0.118243 -0.485761
-0.138011 0.222946 -0.447679
0.027061 -0.205351 0.451476
-0.249924 0.359824 -0.347211
-0.269987 -0.490159 0.082579
-0.107079 0.493662 -0.072540
-0.204380 -0.476275 0.141417
0.104329 0.477930 0.139627
0.149889 -0.018028 -0.499784
0.016745 0.459023 0.192035
0.034315 -0.329904 -0.374728
0.285061 0.338848 -0.367731
0.145760 -0.452030 0.205588
-0.097478 -0.312769 -0.389230
-0.054050 -0.291634 0.401168
-0.127518 0.362870 -0.343848
-0.098959 -0.160446 0.469031
0.124191 0.369101 -0.336968
-0.095475 0.484280 -0.120160
-0.285572 0.320752 -0.383513
-0.057101 -0.397401 -0.301522
-0.209328 0.315928 -0.387652
0.275692 -0.496124 0.036692
-0.095434 -0.476306 0.141315
0.201846 -0.449441 0.211358
0.031371 -0.028278 -0.499324
0.195031 -0.005437 0.495735
0.047796 0.130022 0.478852
0.069529 0.371151 -0.334705
-0.241877 -0.495634 0.041233
-0.257778 -0.324672 0.374916
-0.235783 -0.177721 0.462996
0.077525 -0.417412 0.268885
0.223061 0.377385 0.323264
-0.196832 0.008053 0.495924
-0.159483 0.040210 0.494371
0.256258 0.432275 -0.250540
0.179029 -0.497291 -0.014163
0.235282 -0.060806 0.492074
-0.231305 -0.425537 0.255558
-0.167765 -0.136864 0.476463
-0.163091 -0.332496 -0.372380
0.196848 0.382690 0.317082
-0.200522 -0.256759 -0.428508
0.223348 -0.255741 0.424876
0.112551 0.069175 0.491240
-0.035522 -0.497422 0.009062
0.060760 0.448010 -0.221055
0.152325 0.345647 0.357044
-0.039018 -0.108788 -0.488008
-0.094692 0.491284 0.083194
0.179729 0.440282 -0.235733
0.173524 0.449948 -0.216865
0.265800 -0.138179 -0.480460
-0.095490 -0.204717 0.451741
-0.033732 0.497703 -0.029999
-0.268551 -0.485620 -0.110127
0.034830 -0.185689 -0.464146
0.178032 0.494272 -0.067670
-0.032248 -0.306298 0.390105
-0.013811 -0.481644 0.122585
0.183000 -0.142919 -0.479014
-0.184910 -0.477996 -0.140028
0.095550 -0.497150 -0.021979
-0.111592 -0.146421 -0.477946
0.016641 -0.257614 0.423802
0.023985 -0.495465 -0.046510
0.147283 0.070891 0.490970
0.176686 0.072500 0.490693
-0.182036 0.368482 0.333640
0.191355 -0.426052 0.254714
0.114457 -0.379101 -0.324424
0.238967 0.312522 -0.390536
-0.278821 0.346960 -0.359833
0.244815 -0.234608 -0.441122
0.054702 0.137532 0.476617
-0.029249 0.364942 -0.341560
-0.111506 0.483020 0.121187
-0.048360 0.488564 0.096614
-0.002858 0.360873 0.341493
0.140335 0.495789 -0.053634
0.286441 -0.089544 -0.491936
-0.133432 -0.490522 0.080471
-0.037183 -0.173898 -0.468571
-0.056462 -0.076046 0.489869
0.228501 0.089856 0.487705
0.043748 0.116661 0.482027
-0.111867 -0.222652 -0.447417
-0.210721 0.496456 0.042585
0.194143 -0.481857 0.121688
0.274574 -0.193902 -0.460710
0.052326 0.297350 -0.401982
-0.144601 0.379221 -0.325795
-0.083061 0.488961 0.094716
0.010090 0.001330 -0.500181
0.068515 0.354985 -0.352021
-0.283765 0.496615 0.040619
0.139842 -0.304643 -0.395710
-0.240763 -0.124139 0.479975
0.035831 0.178871 0.462736
0.234269 -0.496395 -0.035042
0.278020 -0.474619 0.146846
-0.083552 -0.226789 -0.445239
0.055338 0.207735 0.450609
0.026067 0.169657 -0.470561
0.041518 0.497406 -0.036633
0.033904 -0.410776 -0.282968
0.017165 -0.028797 -0.499301
-0.184343 -0.040542 0.494067
0.196119 -0.493142 -0.067621
-0.189281 0.468827 0.167170
0.228691 0.260541 -0.427064
-0.148792 0.495050 0.057157
-0.250093 0.208215 -0.454938
-0.082058 0.485105 -0.116687
-0.252503 0.359763 0.342633
0.091695 -0.013520 0.495589
-0.252204 0.460867 0.187613
-0.042032 0.350323 -0.356559
0.089595 0.494149 0.063392
-0.228817 -0.398919 -0.299510
-0.253627 0.095046 -0.491120
0.275494 0.224270 0.442752
-0.248981 0.293905 0.400264
-0.100743 0.241032 -0.438252
-0.017086 -0.497535 -0.000609
0.112782 0.488888 0.095066
0.206955 0.485821 0.109708
0.271110 0.234903 0.437153
0.187947 0.205683 0.451530
0.273789 -0.497080 0.016697
0.073119 -0.363240 0.337955
-0.160711 0.294539 0.399821
-0.034036 -0.211233 0.448593
0.018925 0.416103 -0.276768
-0.179866 0.128775 -0.483332
0.193363 0.336189 -0.370266
0.212117 0.238499 -0.439704
-0.134552 0.265685 0.419338
-0.054487 0.457474 -0.200092
0.280002 0.418836 -0.272584
-0.218804 -0.140329 0.475506
-0.140225 0.005174 -0.500112
-0.134168 0.492204 -0.081011
0.210490 0.037089 0.494621
-0.258657 0.216785 -0.450715
0.033100 -0.245969 -0.435087
0.048052 -0.430993 -0.250665
0.120642 0.487429 -0.106907
-0.125522 -0.101102 -0.489834
-0.027335 -0.109834 0.483454
-0.183994 0.152491 0.472052
-0.000949 -0.300179 -0.399269
0.121244 -0.316312 0.382089
-0.030889 0.482799 0.121988
0.253259 -0.445296 0.219909
-0.050995 -0.156592 -0.474842
-0.056894 -0.496535 0.028846
-0.080706 0.172230 -0.469673
0.184374 0.416067 0.272153
0.128056 -0.490430 -0.086361
0.284326 -0.460127 0.187544
0.193102 -0.123996 0.480015
-0.284690 -0.165793 0.467187
0.232730 -0.455521 0.197809
0.149512 -0.496695 0.025271
-0.285243 0.040212 -0.498530
-0.120482 0.052957 -0.497497
-0.233074 0.258046 -0.428495
-0.159408 0.458071 -0.198762
-0.061584 0.299268 0.396459
-0.056886 0.491652 -0.084218
0.004491 -0.386569 -0.315720
-0.202990 0.375120 0.325904
0.043143 -0.193747 -0.460779
0.219779 -0.473873 -0.153924
0.141017 -0.444179 0.222031
0.128156 0.470315 -0.167504
-0.079799 -0.465667 -0.177714
0.076310 0.498553 -0.003391
0.044337 -0.418374 0.267307
-0.279059 0.330083 -0.375506
0.229831 0.482271 -0.128612
0.098760 0.406362 0.286650
-0.200793 0.430783 0.248464
0.077122 -0.380606 0.318548
0.238261 -0.166024 0.467107
0.164061 -0.455265 0.198379
-0.138940 0.319708 0.380161
-0.176829 0.348229 -0.358597
0.160142 0.308857 0.388813
0.170955 0.402685 -0.295954
0.049491 -0.301961 -0.397848
-0.064571 -0.210502 0.448953
0.074276 -0.428306 -0.255350
0.282562 0.480616 0.129896
0.055553 0.498349 -0.015610
-0.251344 0.175007 -0.468715
0.025906 0.254333 -0.430624
-0.205010 -0.134430 -0.481604
-0.267683 -0.351051 0.350499
-0.113184 -0.301831 -0.397952
0.266677 -0.465327 -0.178697
0.060522 0.028890 0.494989
0.010230 -0.311870 -0.389947
-0.084713 -0.322902 0.376434
-0.156358 0.340440 0.361760
0.019557 0.303075 -0.397663
-0.117762 0.477567 -0.144895
0.184432 0.225527 -0.446407
-0.152232 -0.085547 0.488495
-0.281503 0.180627 0.462077
-0.081070 -0.419314 0.265766
0.010327 0.358995 0.343422
0.095369 -0.197062 0.454932
-0.153586 -0.303935 -0.396274
-0.238039 -0.032000 0.494759
0.229313 -0.195231 -0.460114
-0.272625 -0.256836 0.424248
0.276075 0.293777 -0.404678
0.007891 0.295980 0.398813
-0.120331 0.391938 -0.309975
0.229600 -0.201843 0.452939
0.074750 0.169824 0.466131
0.262402 0.497262 -0.039831
-0.221343 0.492369 0.075693
-0.081105 -0.492735 0.067619
-0.013006 0.212854 -0.452652
-0.155655 -0.484956 -0.113295
-0.253544 0.088887 0.487872
-0.025915 -0.287866 0.404011
-0.222022 -0.496653 0.026217
0.192344 -0.450131 -0.214177
0.226974 -0.165182 0.467398
0.222425 0.421710 0.263605
-0.050840 0.419802 0.266495
0.286935 0.182456 -0.465802
-0.191305 0.468901 -0.171271
0.247259 -0.384003 0.314288
0.063314 0.048215 0.493505
0.060693 -0.388715 0.308378
-0.117454 0.054479 0.492828
0.160202 0.464538 0.178807
-0.192104 -0.492144 0.071053
-0.107875 0.423120 0.261469
-0.287624 -0.496800 0.022939
-0.201321 0.406968 -0.289829
-0.243743 -0.252222 0.426894
-0.216309 -0.492166 0.070926
-0.168103 -0.184683 -0.464524
-0.223091 0.395070 -0.306047
0.253640 0.433802 0.243201
-0.119094 0.331576 0.369788
0.216488 0.140654 -0.480053
0.198560 -0.462369 -0.185906
0.073102 -0.229805 -0.443652
0.230098 -0.186002 0.459543
0.267003 0.197112 -0.459692
0.001321 0.390940 -0.311227
-0.220192 0.122214 -0.485143
0.167287 0.153841 -0.476017
-0.226146 0.428852 -0.256155
0.104768 -0.496737 0.024335
0.265967 0.158937 0.470086
-0.178873 0.126107 0.479782
0.081091 -0.425376 0.255822
0.147445 -0.239110 -0.438752
-0.042218 0.413793 0.275597
-0.049375 0.088753 -0.492438
0.020379 -0.204843 -0.455800
-0.066893 -0.351690 -0.354227
-0.121759 -0.439391 -0.235974
-0.267581 0.477129 0.142529
-0.187032 0.310796 0.387267
-0.078095 0.005971 -0.500097
-0.049985 -0.161755 0.468580
0.059697 0.361913 -0.344904
0.024983 -0.014667 -0.499935
-0.010736 0.493624 0.067019
0.107903 -0.465045 -0.179486
0.081459 -0.236982 0.435633
0.246264 -0.330718 -0.373991
0.208868 0.481651 -0.131223
0.105098 0.263921 -0.424941
0.163084 0.083946 0.488723
-0.149279 0.334325 0.367298
0.280936 0.478233 -0.142714
0.143054 -0.183606 0.460542
0.104137 -0.235901 0.436253
-0.274338 0.281070 -0.413620
-0.194278 -0.028057 -0.499334
-0.157064 0.059692 0.492265
0.098269 -0.018305 -0.499771
-0.216366 -0.159284 0.469432
-0.185533 -0.440052 0.229869
