0.286960 -0.107937 -0.479315
0.286960 -0.306164 0.386973
0.286960 0.343455 0.334567
0.286960 -0.139324 0.449846
0.286960 0.467745 0.045923
0.286960 0.023676 0.489264
0.286960 0.288503 -0.380733
0.286960 -0.449073 -0.115652
0.286960 0.192856 -0.436855
0.286960 -0.375324 0.296032
0.286960 -0.354020 0.318009
0.286960 0.395793 0.237107
0.286960 0.400156 -0.292881
0.286960 0.442478 0.121152
0.286960 0.301917 -0.394171
0.286960 0.206153 0.415711
0.286960 0.410444 -0.265534
0.286960 -0.450906 0.166512
0.286960 -0.273814 -0.399066
0.286960 0.407053 0.243940
0.286960 0.105722 0.455024
0.286960 -0.480028 0.065320
0.286960 -0.428053 0.186280
0.286960 0.395414 0.219965
0.286960 -0.158681 -0.430749
0.286960 0.466457 -0.002391
0.286960 0.253135 -0.410512
0.286960 -0.391041 -0.307023
0.286960 0.155871 0.453047
0.286960 0.401745 0.209295
0.286960 -0.001838 0.483592
0.286960 0.465671 0.028613
0.286960 -0.201543 0.424243
0.286960 0.469488 0.007168
0.286960 0.429391 -0.123139
0.286960 0.063092 0.477452
0.286960 0.469377 0.062067
0.286960 0.376228 0.257219
0.286960 -0.174280 0.435841
0.286960 0.458168 0.046256
0.286960 -0.484177 0.033060
0.286960 0.424600 0.177835
0.286960 0.029458 -0.486285
0.286960 -0.464478 0.074126
0.286960 -0.449265 -0.060377
0.286960 0.449768 -0.178522
0.286960 0.470381 0.133060
0.286960 0.115073 0.449667
0.286960 -0.471123 0.154246
0.286960 0.313623 -0.376604
0.286960 -0.447659 -0.146117
0.286960 0.062598 -0.477925
0.286960 0.086448 0.446997
0.286960 0.443375 0.200912
0.286960 0.475198 0.088589
0.286960 -0.407134 0.184893
0.286960 -0.279786 0.344293
0.286960 -0.447242 0.078727
0.286960 0.305482 0.358830
0.286960 0.453193 0.170830
0.286960 -0.278686 0.349111
0.286960 0.003779 -0.476841
0.286960 -0.468340 -0.015697
0.286960 0.368404 0.308564
0.286960 -0.475123 0.035529
0.286960 -0.412979 -0.238795
0.286960 0.462711 0.129896
0.286960 -0.034784 0.484772
0.286960 0.082651 0.446504
0.286960 0.442397 -0.152645
0.286960 0.249745 -0.377111
0.286960 -0.285683 0.348294
0.286960 -0.447376 0.075247
0.286960 0.003830 -0.488510
0.286960 0.390566 -0.246409
0.286960 -0.289830 0.335394
0.286960 0.359826 0.335524
0.286960 -0.034638 0.491877
0.286960 -0.286489 -0.382648
0.286960 -0.458724 -0.052718
0.286960 0.195571 0.423224
0.286960 -0.209193 0.402958
0.286960 -0.182843 -0.447160
0.286960 -0.456027 0.190229
0.286960 0.455424 -0.122571
0.286960 0.485572 -0.042394
0.286960 0.384482 -0.227614
0.286960 0.200543 -0.453408
0.286960 -0.253992 -0.377526
0.286960 -0.195433 -0.454977
0.286960 0.401503 -0.259571
0.286960 0.291823 -0.351770
0.286960 -0.101418 0.431379
0.286960 0.200208 -0.436814
0.286960 -0.297845 -0.356830
0.286960 0.105849 -0.484626
0.286960 0.189866 0.455688
0.286960 -0.163307 -0.471940
0.286960 -0.480853 0.034690
0.286960 0.368472 0.300873
0.286960 0.311312 -0.347007
0.286960 0.254314 0.376020
0.286960 -0.178528 -0.458618
0.286960 0.021084 -0.470218
0.286960 -0.437238 0.217096
0.286960 -0.270617 -0.403781
0.286960 0.389595 -0.280629
0.286960 -0.112814 0.473358
0.286960 -0.127217 -0.483401
0.286960 -0.046318 0.443277
0.286960 -0.013773 0.446420
0.286960 0.415396 -0.185391
0.286960 -0.033280 -0.462475
0.286960 0.032056 0.479623
0.286960 0.470333 0.095562
0.286960 0.456151 0.013820
0.286960 0.455075 -0.183590
0.286960 0.492475 0.024423
0.286960 -0.053631 -0.488167
0.286960 -0.200706 0.398855
0.286960 0.419856 -0.268899
0.286960 -0.448448 0.007814
0.286960 -0.446628 0.018831
0.286960 0.078070 -0.489258
0.286960 0.384954 0.240620
0.286960 0.103580 -0.446598
0.286960 0.439668 -0.220314
0.286960 -0.145229 0.453702
0.286960 0.142039 0.436282
0.286960 0.373658 0.313297
0.286960 0.439860 -0.087207
0.286960 -0.471791 0.021805
0.286960 0.241958 -0.415979
0.286960 -0.108406 0.430675
0.286960 -0.044659 0.445928
0.286960 0.211654 0.397910
0.286960 0.422183 0.216781
0.286960 0.317133 -0.366203
0.286960 0.424422 -0.236299
0.286960 -0.397663 -0.247084
0.286960 -0.152071 0.444711
0.286960 -0.027600 0.495035
0.286960 0.219575 0.413900
0.286960 0.125919 -0.457354
0.286960 0.487217 0.082706
0.286960 0.310826 0.381489
0.286960 -0.227040 -0.416681
0.286960 -0.248025 -0.422479
0.286960 -0.466816 0.110918
0.286960 0.021428 0.462253
0.286960 0.197020 0.426730
0.286960 0.113559 -0.440183
0.286960 -0.449310 -0.008698
0.286960 -0.337755 0.360014
0.286960 -0.396356 -0.212249
0.286960 0.454202 -0.003202
0.286960 -0.376536 -0.299838
0.286960 -0.244307 -0.433626
0.286960 -0.434303 0.161900
0.286960 0.374411 -0.325795
0.286960 -0.480004 -0.090128
0.286960 -0.452312 -0.195459
0.286960 0.441705 -0.133774
0.286960 -0.435235 0.174152
0.286960 -0.319995 -0.367271
0.286960 -0.471223 0.108719
0.286960 -0.346681 -0.321233
0.286960 0.387728 0.228282
0.286960 0.109612 -0.439424
0.286960 -0.240165 0.427736
0.286960 0.379282 0.253349
0.286960 0.215916 0.390168
0.286960 -0.056744 0.457743
0.286960 0.426750 -0.194295
0.286960 0.220661 0.425343
0.286960 -0.422277 -0.246718
0.286960 0.228360 -0.385767
0.286960 0.417266 0.180218
0.286960 0.266657 -0.360949
0.286960 0.271947 0.385019
0.286960 0.366445 0.326135
0.286960 0.044114 0.477065
0.286960 0.492067 0.020468
0.286960 0.296260 0.377167
0.286960 0.000346 -0.499293
0.286960 -0.009538 -0.463402
0.286960 -0.381210 -0.299468
0.286960 0.486508 0.106069
0.286960 0.297477 0.372239
0.286960 -0.323810 0.365633
0.286960 -0.407221 0.214861
0.286960 0.098882 -0.464616
0.286960 0.372112 0.285135
0.286960 -0.469024 0.038075
0.286960 0.412076 0.214077
0.286960 0.358493 0.270137
0.286960 -0.008423 0.451654
0.286960 -0.440322 0.101950
0.286960 -0.415637 -0.242514
0.286960 0.391570 -0.217853
0.286960 0.365884 -0.332943
0.286960 0.200094 0.414055
0.286960 0.368466 0.255556
0.286960 0.475422 -0.072491
0.286960 0.481272 0.074380
0.286960 -0.456777 0.060288
0.286960 0.445948 -0.185156
0.286960 -0.128554 -0.479790
0.286960 -0.124434 -0.468089
0.286960 -0.250119 0.423251
0.286960 -0.440370 -0.087650
0.286960 0.029610 0.470679
0.286960 -0.437591 0.186619
0.286960 -0.042431 0.448309
0.286960 0.239975 0.380785
0.286960 0.030470 -0.498701
0.286960 0.433580 -0.154623
0.286960 -0.412887 -0.178480
0.286960 -0.022061 -0.472610
0.286960 -0.266281 -0.384342
0.286960 -0.109984 0.447243
0.286960 -0.058315 0.449708
0.286960 -0.310817 0.352129
0.286960 0.128505 -0.433742
0.286960 -0.367797 -0.253647
0.286960 0.073702 0.450544
0.286960 0.380496 0.231478
0.286960 0.049169 -0.446066
0.286960 0.372092 -0.307220
0.286960 0.085145 -0.459607
0.286960 -0.299472 0.363264
0.286960 -0.418017 -0.216529
0.286960 0.463455 0.031530
0.286960 0.088763 -0.484912
0.286960 -0.239251 0.382175
0.286960 0.449501 -0.026452
0.286960 0.482688 -0.027183
0.286960 -0.065019 0.451576
0.286960 0.393671 0.271970
0.286960 -0.186006 0.424560
0.286960 -0.420152 0.144255
0.286960 0.033844 0.490671
0.286960 -0.442342 -0.186839
0.286960 0.160758 0.446159
0.286960 -0.102171 0.470362
0.286960 0.294420 -0.355772
0.286960 -0.403630 0.202922
0.286960 -0.276408 -0.395857
0.286960 -0.252817 -0.369148
0.286960 0.418677 -0.222934
0.286960 0.467160 -0.068170
0.286960 0.372368 0.297580
0.286960 -0.437252 0.095445
0.286960 -0.461450 -0.012593
0.286960 -0.015820 0.480789
0.286960 0.468347 -0.015502
0.286960 0.342861 0.324591
0.286960 -0.496903 -0.007839
0.286960 -0.096465 0.433568
0.286960 0.180788 -0.445608
0.286960 0.176947 -0.460639
0.286960 0.418629 -0.227422
0.286960 0.057543 -0.447649
0.286960 0.359203 -0.343498
0.286960 0.233083 0.410541
0.286960 -0.451430 -0.199073
0.286960 0.240810 0.393596
0.286960 -0.464053 -0.093936
0.286960 0.445008 -0.035260
0.286960 0.034989 -0.482269
0.286960 0.421406 0.201146
0.286960 -0.481617 -0.114314
0.286960 -0.392297 0.292230
0.286960 -0.416415 0.194731
0.286960 0.215028 0.424049
0.286960 -0.453745 -0.078937
0.286960 0.370436 -0.335423
0.286960 -0.318146 0.371331
0.286960 0.439101 -0.181399
0.286960 0.460870 -0.128725
0.286960 0.161247 0.431490
0.286960 0.130823 0.439626
0.286960 -0.302179 0.340820
0.286960 -0.265410 0.359591
0.286960 0.235637 -0.411849
0.286960 -0.196321 -0.433015
0.286960 -0.455903 -0.150508
0.286960 -0.013936 0.490689
0.286960 0.457002 0.121952
0.286960 -0.185043 0.415464
0.286960 0.054558 -0.444425
0.286960 -0.432827 -0.120183
0.286960 -0.338417 0.308233
0.286960 0.453761 0.136464
0.286960 0.386378 -0.279142
0.286960 -0.008439 -0.459840
0.286960 0.109716 -0.442637
0.286960 0.418229 -0.230548
0.286960 0.014370 0.450661
0.286960 -0.440355 0.064991
0.286960 -0.081861 -0.485656
0.286960 -0.214595 0.426398
0.286960 0.128042 -0.463377
0.286960 0.411980 0.221581
0.286960 -0.182147 -0.442989
0.286960 0.443777 -0.048428
0.286960 0.403113 -0.292080
0.286960 0.024582 -0.477355
0.286960 0.453259 -0.150579
0.286960 0.177854 -0.447798
0.286960 -0.077344 -0.447208
0.286960 -0.065956 -0.443111
0.286960 0.353049 0.349358
0.286960 -0.489659 0.081694
0.286960 0.240582 -0.413131
0.286960 0.311530 0.385372
0.286960 -0.398645 0.205426
0.286960 0.410025 -0.187935
0.286960 -0.475507 -0.040647
0.286960 -0.307134 -0.360098
0.286960 0.068769 0.476489
0.286960 -0.418313 0.249335
0.286960 -0.289781 -0.344532
0.286960 0.145084 -0.437988
0.286960 0.133868 0.472027
0.286960 0.274289 0.408258
0.286960 0.162020 -0.457312
0.286960 0.441067 0.099496
0.286960 0.370200 0.294849
0.286960 0.020891 0.472030
0.286960 -0.321984 0.339472
0.286960 0.042683 0.454421
0.286960 -0.486238 -0.083267
0.286960 -0.010496 -0.494908
0.286960 0.315381 0.364441
0.286960 0.099160 0.484251
0.286960 0.431060 0.125079
0.286960 -0.246282 0.425306
0.286960 0.456649 0.197191
0.286960 0.474539 -0.002451
0.286960 -0.470752 -0.049474
0.286960 -0.107643 -0.464015
0.286960 -0.481795 0.037663
0.286960 -0.127753 -0.429159
0.286960 -0.019765 0.473909
0.286960 0.453134 -0.080357
0.286960 0.003126 -0.460931
0.286960 -0.393780 -0.253274
0.286960 -0.453627 0.021996
0.286960 -0.035945 0.477780
0.286960 0.434359 -0.214126
0.286960 -0.084276 0.456447
0.286960 -0.471600 -0.118482
0.286960 0.036061 0.444468
0.286960 -0.340694 0.311622
0.286960 0.392209 0.219322
0.286960 0.359701 0.325009
0.286960 -0.479874 0.040168
0.286960 -0.296611 -0.401088
0.286960 0.425320 -0.229695
0.286960 0.491863 -0.006810
0.286960 -0.466949 -0.073013
0.286960 -0.347696 -0.324139
0.286960 -0.021346 -0.452820
0.286960 0.448781 0.122274
0.286960 0.182866 0.435415
0.286960 0.296869 -0.335032
0.286960 -0.121279 -0.469865
0.286960 0.435794 0.204675
0.286960 0.226274 0.391091
0.286960 0.105905 0.444981
0.286960 -0.197034 0.446839
0.286960 0.219593 -0.445216
0.286960 0.398030 -0.204995
0.286960 0.367559 -0.319246
0.286960 -0.023444 0.485061
0.286960 0.274906 -0.382374
0.286960 -0.061432 0.488263
0.286960 0.127681 0.477556
0.286960 0.461937 -0.173323
0.286960 0.442704 -0.201447
0.286960 -0.452563 0.103702
0.286960 0.068516 -0.472745
0.286960 -0.125151 0.478822
0.286960 -0.141605 0.434605
0.286960 0.212486 -0.425118
0.286960 0.212376 -0.399232
0.286960 -0.348428 -0.333692
0.286960 -0.135614 0.449637
0.286960 0.216988 -0.429307
0.286960 -0.327632 -0.333330
0.286960 -0.002773 0.476226
0.286960 0.018871 0.469542
0.286960 0.457445 -0.150949
0.286960 0.127709 0.452142
0.286960 -0.442844 0.209383
0.286960 0.385445 0.224762
0.286960 0.457082 -0.156439
0.286960 -0.460067 -0.073162
0.286960 -0.303489 -0.373508
0.286960 0.324149 0.347742
0.286960 -0.323136 0.369288
0.286960 0.280722 0.350353
0.286960 -0.323967 -0.335621
0.286960 0.354929 0.343068
0.286960 -0.098712 -0.447731
0.286960 0.208516 0.446073
0.286960 -0.462307 -0.118491
0.286960 -0.178824 0.417866
0.286960 -0.435428 -0.219777
0.286960 -0.461434 0.048138
0.286960 0.471669 0.158150
0.286960 0.123228 -0.451325
0.286960 0.485727 -0.027297
0.286960 -0.125693 -0.438766
0.286960 0.415859 -0.267800
0.286960 -0.018370 0.458777
0.286960 -0.120053 0.443677
0.286960 -0.417185 0.242275
0.286960 0.179956 -0.462457
0.286960 -0.063197 -0.459848
0.286960 -0.045743 0.486007
0.286960 -0.268739 -0.375653
0.286960 -0.473938 -0.050847
0.286960 0.459569 -0.170191
0.286960 0.370676 0.319490
0.286960 -0.368438 -0.269339
0.286960 -0.426497 0.157721
0.286960 -0.405437 0.218361
0.286960 0.342485 0.339872
0.286960 -0.408674 0.190145
0.286960 0.287216 0.342099
0.286960 0.447990 -0.162233
0.286960 -0.465138 -0.088809
0.286960 -0.119642 0.451256
0.286960 0.225587 0.398144
0.286960 -0.240873 -0.401758
0.286960 -0.197683 -0.458728
0.286960 -0.317476 -0.319380
0.286960 -0.097160 0.480718
0.286960 -0.021845 0.451619
0.286960 -0.323559 -0.311660
0.286960 0.422066 0.238425
0.286960 -0.229635 0.428023
0.286960 0.401328 0.228339
0.286960 0.404291 0.223162
0.286960 0.324780 -0.307738
0.286960 -0.364341 -0.306742
0.286960 -0.001219 -0.455165
0.286960 0.075064 -0.478495
0.286960 0.246992 -0.426886
0.286960 -0.007207 0.478418
0.286960 0.059916 0.486704
0.286960 -0.084369 -0.441253
0.286960 0.488099 0.079524
0.286960 0.095462 -0.465628
0.286960 0.427788 0.124296
0.286960 -0.432773 -0.109134
0.286960 -0.390299 0.229045
0.286960 0.105950 0.450857
0.286960 -0.324056 -0.325998
0.286960 0.420999 0.146764
0.286960 -0.285819 0.352782
0.286960 0.380676 -0.313663
0.286960 -0.314216 -0.381815
0.286960 -0.079280 -0.487605
0.286960 -0.079940 -0.468070
0.286960 -0.337903 -0.312463
0.286960 0.496863 0.031277
0.286960 0.329462 0.314083
0.286960 -0.411753 0.180067
0.286960 -0.395059 0.235429
0.286960 -0.372847 -0.313157
0.286960 0.077375 -0.485771
0.286960 0.368337 -0.322213
0.286960 0.083607 0.465969
0.286960 -0.299047 0.378048
0.286960 0.234033 -0.441016
0.286960 -0.066095 -0.447756
0.286960 0.414567 0.268051
0.286960 -0.025616 -0.462747
0.286960 0.145711 0.436105
0.286960 0.415823 -0.226153
0.286960 -0.210592 0.441868
0.286960 0.033819 0.494716
0.286960 0.349859 -0.356551
0.286960 -0.124712 -0.450140
0.286960 -0.016621 -0.465182
0.286960 -0.359974 -0.316552
0.286960 -0.042102 -0.472485
0.286960 0.026248 0.443775
0.286960 0.435212 -0.179717
0.286960 0.369982 -0.330157
0.286960 -0.412788 -0.245955
0.286960 0.137885 -0.455734
0.286960 0.424552 -0.179092
0.286960 0.006267 0.475903
0.286960 0.446303 -0.217851
0.286960 0.110795 -0.468068
0.286960 -0.365065 0.297712
0.286960 0.451709 -0.174900
0.286960 -0.356660 -0.284336
0.286960 0.135261 0.466643
0.286960 -0.402044 -0.286136
0.286960 0.420048 0.163118
0.286960 -0.373712 -0.305396
0.286960 -0.341305 -0.362393
0.286960 0.381942 0.239018
0.286960 0.474799 0.040893
0.286960 0.416218 0.256331
0.286960 0.478367 0.088688
0.286960 0.113810 -0.444248
0.286960 0.465648 0.075630
0.286960 -0.457385 -0.142465
0.286960 0.417482 0.171704
0.286960 -0.304208 0.345011
0.286960 -0.244519 0.391981
0.286960 0.223052 0.418445
0.286960 0.447596 -0.009286
0.286960 -0.042188 0.476785
0.286960 0.428056 0.204575
0.286960 0.011255 0.452577
0.286960 -0.362807 0.260448
0.286960 -0.369392 0.311800
0.286960 0.444597 0.076803
0.286960 0.330653 0.301382
0.286960 -0.485740 0.092522
0.286960 0.330783 -0.355457
0.286960 -0.486414 -0.072033
0.286960 -0.342295 -0.287007
0.286960 0.409480 0.183468
0.286960 0.001255 -0.490854
0.286960 0.171315 0.414304
0.286960 -0.026413 -0.499108
0.286960 -0.188266 0.440633
0.286960 -0.088689 -0.484584
0.286960 -0.044039 0.454461
0.286960 -0.267339 0.371937
0.286960 0.453137 0.001743
0.286960 -0.203455 -0.397941
0.286960 -0.376807 -0.322514
0.286960 0.344542 0.347354
0.286960 0.433467 0.229753
0.286960 0.161610 0.413097
0.286960 -0.013188 -0.464397
0.286960 0.430215 -0.165913
0.286960 -0.393743 0.212687
0.286960 -0.022124 0.467835
0.286960 0.186933 0.420930
0.286960 0.069401 -0.442911
0.286960 -0.129125 -0.469229
0.286960 -0.274592 0.391555
0.286960 -0.387998 -0.225996
0.286960 0.378575 -0.242667
0.286960 0.292786 -0.376445
0.286960 -0.275611 -0.376900
0.286960 -0.346065 -0.338065
0.286960 -0.320166 0.314056
0.286960 -0.320227 0.359382
0.286960 0.072060 0.454396
0.286960 -0.257101 -0.427825
0.286960 0.438028 0.226390
0.286960 0.491719 -0.056682
0.286960 -0.486934 0.060908
0.286960 0.332705 -0.302474
0.286960 0.445863 -0.022191
0.286960 0.251105 -0.428742
0.286960 0.115693 0.446107
0.286960 0.173021 0.434320
0.286960 0.413203 0.250568
0.286960 -0.140375 0.456146
0.286960 -0.316479 0.346877
0.286960 -0.402745 -0.267821
0.286960 -0.452498 -0.109049
0.286960 -0.262722 -0.369399
0.286960 -0.030879 0.446116
0.286960 0.444701 0.099656
0.286960 -0.239135 0.374531
0.286960 0.320745 -0.340972
0.286960 0.482857 -0.096992
0.286960 0.290517 0.340920
0.286960 -0.495194 0.001877
0.286960 0.476360 -0.122921
0.286960 -0.301852 -0.366639
0.286960 -0.194674 0.402877
0.286960 -0.423048 -0.144630
0.286960 -0.392593 -0.259807
0.286960 0.494859 0.010191
0.286960 0.292766 -0.388499
0.286960 -0.054629 0.461213
0.286960 0.384218 0.249131
0.286960 0.383152 -0.295690
0.286960 0.487240 0.043581
0.286960 -0.439000 -0.076122
0.286960 -0.219749 0.385078
0.286960 -0.209161 -0.404906
0.286960 0.449294 0.052478
0.286960 -0.457100 0.008108
0.286960 -0.463811 0.032316
0.286960 -0.385460 -0.260905
0.286960 0.042290 0.490234
0.286960 0.239353 -0.382853
0.286960 0.054724 -0.497285
0.286960 0.431774 -0.243168
0.286960 0.442878 -0.216403
0.286960 -0.157280 -0.423561
0.286960 0.442580 0.059304
0.286960 0.045329 -0.489401
0.286960 0.203090 -0.430569
0.286960 -0.366555 -0.317544
0.286960 -0.429458 -0.234257
0.286960 -0.442887 -0.072185
0.286960 0.299498 0.346327
0.286960 -0.005225 -0.479875
0.286960 -0.172619 0.460880
0.286960 0.339471 0.360496
0.286960 -0.313862 -0.356707
0.286960 -0.363616 0.273713
0.286960 0.384917 -0.231459
0.286960 0.446434 -0.191030
0.286960 -0.046766 -0.490792
0.286960 -0.490334 0.023881
0.286960 0.085943 -0.492440
0.286960 -0.255384 -0.366795
0.286960 -0.395469 -0.289172
0.286960 0.100962 -0.441759
0.286960 0.263363 -0.423561
0.286960 -0.057186 0.468440
0.286960 0.172108 -0.420164
0.286960 -0.274223 -0.366787
0.286960 0.150492 -0.457269
0.286960 -0.363757 0.257048
0.286960 -0.482795 0.096904
0.286960 0.456848 -0.105956
0.286960 0.440731 -0.229489
0.286960 -0.356132 -0.291482
0.286960 0.065304 0.441986
0.286960 0.474209 0.062387
0.286960 0.426324 -0.144097
0.286960 0.364890 0.331916
0.286960 -0.490400 0.064515
0.286960 -0.179798 -0.430608
0.286960 -0.114223 -0.435467
0.286960 -0.442786 -0.108930
0.286960 0.263424 -0.414447
0.286960 -0.041749 -0.488738
0.286960 -0.454296 0.069997
0.286960 -0.286788 -0.364071
0.286960 0.357681 0.331566
0.286960 -0.463447 0.070739
0.286960 0.142679 -0.454289
0.286960 0.150580 -0.473230
0.286960 -0.213191 -0.444750
0.286960 -0.321530 -0.360693
0.286960 0.267344 -0.414227
0.286960 -0.378377 0.264872
0.286960 0.425857 0.194753
0.286960 0.449074 0.001879
0.286960 0.449479 -0.129375
0.286960 -0.063443 -0.471234
0.286960 -0.089782 0.460221
0.286960 -0.264469 -0.414041
0.286960 0.177810 0.450623
0.286960 -0.408945 0.172717
0.286960 -0.330520 0.332158
0.286960 0.461888 0.086228
0.286960 -0.254728 -0.397525
0.286960 -0.034709 -0.467765
0.286960 0.443869 0.045367
0.286960 -0.177837 0.427840
0.286960 0.391909 -0.266908
0.286960 0.448357 0.180587
0.286960 -0.151569 -0.464956
0.286960 0.362956 0.270526
0.286960 0.394741 -0.250520
0.286960 -0.262149 0.416535
0.286960 -0.092500 -0.490908
0.286960 0.452691 0.058768
0.286960 0.105249 0.478131
0.286960 0.258875 -0.374926
0.286960 -0.418687 -0.203893
0.286960 -0.241109 0.409397
0.286960 0.118957 0.444796
0.286960 -0.463201 0.095910
0.286960 -0.459971 0.125485
0.286960 0.473292 -0.021965
0.286960 0.440586 0.103133
0.286960 -0.226315 0.386455
0.286960 0.137767 0.446575
0.286960 0.460983 -0.012511
0.286960 -0.223620 -0.439571
0.286960 -0.358699 0.320289
0.286960 -0.041377 -0.450257
0.286960 -0.412321 0.204366
0.286960 -0.283926 0.376776
0.286960 0.483350 -0.093455
0.286960 -0.461696 0.081480
0.286960 0.453183 0.034521
0.286960 -0.175048 -0.426678
0.286960 0.414539 0.237407
0.286960 0.440073 0.144570
0.286960 0.063472 0.487454
0.286960 0.458556 -0.140138
0.286960 -0.036669 0.473517
0.286960 -0.036505 -0.457952
0.286960 0.185246 0.443667
0.286960 -0.440911 -0.212172
0.286960 -0.012802 -0.485688
0.286960 0.384058 -0.267074
0.286960 -0.317563 -0.323760
0.286960 -0.013089 -0.477412
0.286960 -0.285546 -0.349930
0.286960 0.498577 -0.008341
0.286960 -0.252292 0.366605
0.286960 -0.109508 0.461301
0.286960 0.317431 -0.343669
0.286960 -0.436190 -0.127453
0.286960 -0.205375 -0.406019
0.286960 -0.466673 0.169851
0.286960 -0.448931 0.161112
0.286960 0.480087 0.131613
0.286960 -0.153459 0.454293
0.286960 -0.141932 -0.443744
0.286960 -0.436463 0.222358
0.286960 0.230350 -0.414424
0.286960 -0.424437 -0.261284
0.286960 -0.452850 -0.191357
0.286960 -0.298988 0.392647
0.286960 -0.086545 0.463704
0.286960 0.456484 0.060061
0.286960 -0.083034 -0.468926
0.286960 0.349955 0.284389
0.286960 -0.390633 -0.228028
0.286960 -0.423887 -0.199940
0.286960 0.482961 -0.056143
0.286960 0.394464 -0.269022
0.286960 0.462749 0.020128
0.286960 -0.044152 -0.493118
0.286960 0.493471 -0.038816
0.286960 -0.136345 -0.457403
0.286960 -0.470213 0.052324
0.286960 -0.435399 -0.216329
0.286960 -0.293480 -0.369817
0.286960 0.462217 0.112990
0.286960 0.436723 0.230034
0.286960 0.444907 0.153774
0.286960 -0.225336 0.440893
0.286960 0.009948 -0.457314
0.286960 -0.490205 -0.066316
0.286960 0.350971 -0.351711
0.286960 0.431615 -0.139957
0.286960 0.334269 0.367024
0.286960 0.448326 0.168341
0.286960 -0.259522 -0.379261
0.286960 0.394002 0.251944
0.286960 -0.313980 0.325671
0.286960 -0.468553 -0.057086
0.286960 0.038010 -0.498567
0.286960 -0.088136 -0.448007
0.286960 0.401794 0.225167
0.286960 0.449350 0.071791
0.286960 -0.328951 0.361912
0.286960 -0.267958 0.384259
0.286960 0.436902 0.128365
0.286960 0.031077 -0.471576
0.286960 -0.371661 -0.263118
0.286960 0.416967 -0.241106
0.286960 0.221203 -0.442614
0.286960 0.334381 -0.362626
0.286960 0.447576 -0.136650
0.286960 0.364036 0.261517
0.286960 0.463253 -0.091515
0.286960 0.256509 -0.403426
0.286960 0.481576 0.059844
0.286960 -0.444396 -0.212330
0.286960 0.396291 -0.284932
0.286960 0.423758 0.174187
0.286960 0.494074 0.037572
0.286960 -0.356853 -0.304173
0.286960 -0.260691 0.412741
0.286960 -0.212505 -0.395371
0.286960 0.031897 0.464461
0.286960 -0.199327 -0.400869
0.286960 0.092648 0.469207
0.286960 -0.174551 0.413721
0.286960 -0.445371 -0.021681
0.286960 -0.216359 0.398447
0.286960 0.464685 0.047071
0.286960 -0.293239 0.332630
0.286960 0.310355 0.354468
0.286960 0.258999 0.367705
0.286960 -0.469538 0.117091
0.286960 -0.343561 -0.320491
0.286960 0.305100 -0.356982
0.286960 -0.298523 0.359056
0.286960 0.228449 0.426321
0.286960 -0.349396 -0.342737
0.286960 0.063230 -0.474359
0.286960 -0.443763 -0.168022
0.286960 -0.332367 0.352392
0.286960 -0.448639 0.212685
0.286960 0.437141 -0.096732
0.286960 0.352574 -0.336809
0.286960 0.456560 0.096159
0.286960 -0.419961 0.211130
0.286960 -0.041344 -0.454127
0.286960 0.125533 0.446251
0.286960 -0.029315 0.462878
0.286960 -0.408990 0.256193
0.286960 0.379914 0.302888
0.286960 -0.458724 -0.132022
0.286960 -0.472792 0.124418
0.286960 -0.423951 0.141698
0.286960 0.340962 0.305332
0.286960 0.327050 0.329426
0.286960 0.354933 -0.317438
0.286960 -0.300341 0.333977
0.286960 -0.489555 -0.033260
0.286960 -0.477897 0.132888
0.286960 0.251905 0.391353
0.286960 0.011221 -0.450652
0.286960 0.481584 -0.052230
0.286960 0.459396 0.071273
0.286960 0.412147 -0.276470
0.286960 -0.330041 0.309634
0.286960 -0.455330 0.185065
0.286960 -0.480114 -0.053612
0.286960 -0.045273 -0.474060
0.286960 -0.396797 0.254146
0.286960 -0.339360 0.315678
0.286960 -0.435070 0.111411
0.286960 0.290992 -0.341864
0.286960 -0.144184 0.430633
0.286960 -0.290743 -0.384831
0.286960 -0.446405 0.193831
0.286960 0.237286 0.383154
0.286960 -0.486502 -0.005138
0.286960 -0.342959 0.316085
0.286960 0.222884 -0.394373
0.286960 0.493088 -0.023850
0.286960 -0.228231 -0.444333
0.286960 -0.450279 -0.076613
0.286960 -0.440088 -0.097420
0.286960 0.142444 0.471517
0.286960 0.177310 0.437742
0.286960 0.021832 -0.488049
0.286960 -0.471710 -0.128512
0.286960 0.246316 0.404651
0.286960 0.007245 -0.459060
0.286960 0.048475 0.472686
0.286960 0.333407 0.335924
0.286960 0.359518 -0.269152
0.286960 -0.235956 -0.436566
0.286960 -0.084480 -0.487775
0.286960 -0.239337 -0.435034
0.286960 -0.242460 -0.397874
0.286960 0.300201 0.342000
0.286960 -0.367580 -0.305830
0.286960 0.387409 0.247887
0.286960 0.287851 0.398066
0.286960 -0.191496 0.418262
0.286960 0.168254 -0.465577
0.286960 -0.190780 -0.418410
0.286960 -0.191140 0.404959
0.286960 -0.166116 -0.446587
0.286960 0.307173 0.369549
0.286960 0.064468 -0.491530
0.286960 -0.428168 -0.198037
0.286960 0.482116 -0.064159
0.286960 -0.355048 0.270339
0.286960 -0.236627 0.433073
0.286960 0.466105 -0.025372
0.286960 0.436575 0.222837
0.286960 -0.384394 -0.313954
0.286960 -0.219107 0.415183
0.286960 -0.365684 0.320693
0.286960 -0.402340 0.227506
0.286960 -0.169455 0.420698
0.286960 -0.451876 -0.209150
0.286960 -0.019508 0.494659
0.286960 0.465853 -0.156455
0.286960 -0.205851 0.431057
0.286960 -0.229921 0.434519
0.286960 -0.401202 0.265231
0.286960 0.454667 -0.052239
0.286960 0.153138 0.441045
0.286960 0.441706 0.187500
0.286960 0.266434 0.399714
0.286960 0.210173 0.434713
0.286960 0.350219 0.276216
0.286960 0.466544 0.014794
0.286960 -0.311688 -0.351242
0.286960 0.139157 0.427433
0.286960 0.361215 -0.328210
0.286960 0.460123 0.188096
0.286960 -0.320653 0.363606
0.286960 0.370569 -0.292452
0.286960 0.359566 -0.304705
0.286960 -0.104832 -0.444717
0.286960 0.476141 0.113714
0.286960 0.449809 -0.002707
0.286960 -0.007859 0.461479
0.286960 -0.412938 -0.207177
0.286960 -0.454994 -0.154140
0.286960 0.362122 0.258243
0.286960 -0.234347 -0.397642
0.286960 -0.489074 -0.081831
0.286960 0.317504 0.316360
0.286960 -0.279582 0.387917
0.286960 -0.317959 -0.361168
0.286960 0.295444 0.332502
0.286960 0.481178 -0.008004
0.286960 0.118417 0.449369
0.286960 0.067247 -0.465646
0.286960 -0.306066 -0.368015
0.286960 0.236667 -0.407996
0.286960 0.108167 0.475745
0.286960 0.294711 -0.349350
0.286960 0.068739 0.445054
0.286960 0.359930 -0.316043
0.286960 0.110524 -0.450345
0.286960 0.419460 -0.214063
0.286960 0.409073 -0.283837
0.286960 -0.333166 0.323971
0.286960 -0.123337 -0.460317
0.286960 0.445138 0.174111
0.286960 0.468078 0.088595
0.286960 0.468807 -0.079719
0.286960 0.297522 0.335646
0.286960 -0.313537 0.358762
0.286960 0.354654 -0.339158
0.286960 -0.442962 0.039908
0.286960 0.182447 0.449993
0.286960 -0.404141 0.281512
0.286960 -0.212778 -0.448885
0.286960 0.325802 -0.319151
0.286960 -0.239852 0.433084
0.286960 0.420927 -0.149277
0.286960 0.327894 -0.337659
0.286960 -0.463597 -0.122275
0.286960 -0.421003 0.174171
0.286960 0.278706 0.386123
0.286960 0.319371 -0.320426
0.286960 0.019260 -0.458849
0.286960 0.468386 -0.007849
0.286960 -0.467870 0.021465
0.286960 0.429203 -0.161211
0.286960 -0.196607 -0.407690
0.286960 -0.202389 -0.454310
0.286960 -0.283560 0.390117
0.286960 0.470402 -0.047637
0.286960 -0.470673 0.146289
0.286960 -0.227587 -0.440552
0.286960 0.373046 0.249106
0.286960 0.470331 0.043209
0.286960 0.315580 -0.354092
0.286960 0.229093 -0.407797
0.286960 0.172485 0.431011
0.286960 -0.060540 -0.468116
0.286960 -0.302698 -0.380451
0.286960 0.493633 0.060349
0.286960 -0.436584 -0.206740
0.286960 -0.112381 -0.447479
0.286960 -0.476736 0.060445
0.286960 -0.462250 -0.058954
0.286960 -0.352206 0.297587
0.286960 -0.192640 -0.410705
0.286960 -0.277977 0.401308
0.286960 0.225129 -0.387406
0.286960 0.030524 -0.461260
0.286960 0.318798 -0.313967
0.286960 -0.438413 -0.225521
0.286960 -0.356706 -0.270362
0.286960 0.299316 0.328194
0.286960 0.335245 -0.366829
0.286960 0.245831 -0.391956
0.286960 0.328664 -0.303482
0.286960 -0.392406 0.282192
0.286960 -0.485672 0.052883
0.286960 0.478401 -0.066388
0.286960 0.369834 -0.278338
0.286960 -0.405541 0.232628
0.286960 -0.363059 -0.318673
0.286960 0.095047 0.485867
0.286960 0.129457 -0.466579
0.286960 -0.100641 -0.484203
0.286960 0.212337 -0.445292
0.286960 0.192707 -0.457086
0.286960 0.344011 0.354953
0.286960 -0.449432 0.055605
0.286960 0.450603 0.005314
0.286960 -0.463363 -0.022099
0.286960 -0.344105 0.341607
0.286960 -0.050114 -0.477300
0.286960 0.458288 0.143007
0.286960 -0.175522 -0.430724
0.286960 0.316051 0.358418
0.286960 -0.481809 0.022994
0.286960 -0.384525 0.253549
0.286960 0.462845 0.154081
0.286960 -0.182411 -0.410150
0.286960 -0.083544 0.435465
0.286960 -0.068971 0.451113
0.286960 0.393753 0.296491
0.286960 -0.365855 -0.324225
0.286960 -0.215052 0.411837
0.286960 -0.049520 0.443184
0.286960 -0.483163 -0.097172
0.286960 -0.446681 -0.170343
0.286960 -0.484261 -0.020245
0.286960 -0.056425 -0.496214
0.286960 -0.159321 -0.421035
0.286960 -0.000881 0.454521
0.286960 0.322947 -0.357536
0.286960 0.157824 0.444236
0.286960 -0.360156 0.271176
0.286960 0.109189 0.439263
0.286960 0.277730 0.354023
0.286960 -0.079126 -0.455821
0.286960 -0.444737 0.189084
0.286960 -0.445628 0.023335
0.286960 0.439335 0.083632
0.286960 -0.444417 0.014049
0.286960 -0.477704 -0.043160
0.286960 -0.040998 -0.477689
0.286960 0.233375 0.423523
0.286960 -0.459581 -0.190600
0.286960 0.219976 -0.418347
0.286960 -0.383755 -0.269203
0.286960 -0.313687 0.332292
0.286960 0.358395 -0.323111
0.286960 0.472814 0.120949
0.286960 -0.011966 0.479206
0.286960 0.007802 -0.499732
0.286960 -0.407095 0.242964
0.286960 -0.073884 0.462929
0.286960 0.461509 0.004244
0.286960 0.485096 -0.016898
0.286960 -0.012328 0.468949
0.286960 0.021030 -0.478935
0.286960 -0.008578 -0.467319
0.286960 0.249635 -0.432861
0.286960 -0.027016 0.447310
0.286960 -0.282769 0.403850
0.286960 -0.464743 0.062864
0.286960 0.395822 -0.234540
0.286960 0.472924 0.065385
0.286960 -0.442154 0.079331
0.286960 -0.463307 -0.055767
0.286960 -0.453112 0.089791
0.286960 0.138437 -0.431079
0.286960 0.483649 0.096656
0.286960 0.454703 0.158926
0.286960 0.486442 -0.103073
0.286960 0.114452 0.476493
0.286960 -0.344605 -0.361200
0.286960 0.341422 -0.329393
0.286960 -0.403734 -0.251346
0.286960 0.352548 -0.308080
0.286960 0.151202 0.429252
0.286960 0.233937 -0.386310
0.286960 0.228592 0.404745
0.286960 -0.255856 -0.371977
0.286960 0.429003 0.185593
0.286960 -0.425646 -0.132020
0.286960 0.288834 0.372180
0.286960 0.029145 0.477463
0.286960 -0.473593 0.105011
0.286960 0.422008 -0.192341
0.286960 0.284184 -0.352889
0.286960 0.465121 0.109749
0.286960 0.478320 -0.059777
0.286960 -0.403764 -0.271679
0.286960 -0.056999 0.445117
0.286960 0.040976 0.447236
0.286960 -0.237089 -0.409546
0.286960 -0.124614 0.429878
0.286960 0.186866 -0.411635
0.286960 -0.454246 -0.039190
0.286960 0.002091 0.483527
0.286960 -0.403965 -0.228940
0.286960 -0.456132 -0.065671
0.286960 -0.449944 0.124600
0.286960 0.427973 0.168159
0.286960 -0.353418 0.306318
0.286960 -0.387252 0.217791
0.286960 -0.411332 0.167618
0.286960 0.320658 0.343353
0.286960 -0.306116 0.368478
0.286960 -0.420690 0.228840
0.286960 -0.381761 -0.294269
0.286960 -0.402355 0.252327
0.286960 0.451314 -0.033371
0.286960 -0.428794 0.118159
0.286960 0.392899 0.244124
0.286960 0.059202 0.449966
0.286960 -0.015291 0.477589
0.286960 -0.484173 -0.040197
0.286960 -0.375549 0.249945
0.286960 -0.431581 -0.152508
0.286960 -0.235305 0.386535
0.286960 -0.444986 -0.217869
0.286960 -0.203029 -0.448065
0.286960 0.487000 0.009123
0.286960 0.447148 0.044141
0.286960 0.467387 -0.050313
0.286960 0.489900 -0.061664
0.286960 -0.473112 0.063596
0.286960 -0.148214 -0.464712
0.286960 -0.450765 0.101067
0.286960 -0.400036 -0.252509
0.286960 0.359281 0.291657
0.286960 0.007434 -0.454926
0.286960 -0.101383 -0.473862
0.286960 0.298138 -0.350382
0.286960 -0.026697 0.452177
0.286960 0.178566 0.415976
0.286960 -0.097231 0.486063
0.286960 -0.451978 -0.183860
0.286960 0.429251 0.249215
0.286960 -0.216380 -0.433983
0.286960 0.462800 -0.000373
0.286960 -0.091810 0.486474
0.286960 -0.468839 -0.150446
0.286960 0.177633 -0.432613
0.286960 0.289677 0.337244
0.286960 0.432450 0.223387
0.286960 -0.343342 -0.308842
0.286960 0.099909 0.464941
0.286960 -0.111043 -0.487332
0.286960 -0.428033 -0.215705
0.286960 -0.471999 -0.140886
0.286960 0.441905 0.158393
0.286960 -0.491321 0.018010
0.286960 -0.410704 0.240312
0.286960 -0.415640 -0.181277
0.286960 -0.069515 -0.454269
0.286960 0.429158 -0.188625
0.286960 0.127566 -0.436949
0.286960 -0.198241 -0.403975
0.286960 -0.180601 0.438393
0.286960 -0.288619 0.360989
0.286960 -0.483424 -0.073805
0.286960 -0.439777 0.214650
0.286960 -0.278533 -0.412304
0.286960 0.415387 -0.261362
0.286960 0.418738 0.217080
0.286960 0.393692 -0.272697
0.286960 0.459989 0.178009
0.286960 -0.133824 0.473105
0.286960 0.175638 0.443787
0.286960 -0.032752 -0.458598
0.286960 -0.271897 -0.364396
0.286960 0.458444 0.077928
0.286960 0.440556 -0.126595
0.286960 -0.313348 -0.374728
0.286960 0.333861 -0.353206
0.286960 -0.491770 0.067446
0.286960 0.138924 0.453473
0.286960 0.238139 0.375054
0.286960 0.356887 0.313341
0.286960 0.158729 -0.441357
0.286960 -0.414809 -0.253786
0.286960 0.127675 -0.451907
0.286960 -0.406855 0.226583
0.286960 0.312119 0.345075
0.286960 0.191131 0.421161
0.286960 0.266563 0.357987
0.286960 -0.375175 0.275338
0.286960 0.477507 -0.115242
0.286960 0.055949 0.471207
0.286960 -0.333642 0.315291
0.286960 0.314629 -0.341748
0.286960 -0.310480 0.362818
0.286960 -0.476967 0.012322
0.286960 -0.440512 0.152382
0.286960 -0.179023 0.434133
0.286960 0.454443 -0.126350
0.286960 -0.002298 0.457876
0.286960 0.028772 0.462860
0.286960 -0.028755 -0.464806
0.286960 0.081361 0.440255
0.286960 -0.436753 -0.088274
0.286960 -0.442436 -0.056749
0.286960 0.367067 -0.303445
0.286960 -0.212761 -0.435979
0.286960 -0.063213 -0.449576
0.286960 -0.023104 -0.491306
0.286960 0.438736 0.232917
0.286960 -0.290102 -0.361583
0.286960 -0.173080 0.455939
0.286960 0.379801 -0.269125
0.286960 -0.267473 -0.409227
0.286960 0.384150 0.246121
0.286960 0.248321 0.388389
0.286960 0.171153 0.464227
0.286960 0.415541 0.212866
0.286960 -0.224467 0.426703
0.286960 0.424109 0.204913
0.286960 0.371288 0.277000
0.286960 0.135431 -0.432008
0.286960 -0.038674 -0.472170
0.286960 -0.091346 -0.463067
0.286960 -0.240470 0.391045
0.286960 0.270325 0.395549
0.286960 0.444908 0.204175
0.286960 -0.395005 0.299333
0.286960 -0.369418 -0.287573
0.286960 -0.222161 -0.436191
0.286960 -0.429578 -0.123424
0.286960 0.166683 0.440635
0.286960 0.327549 -0.316150
0.286960 0.273815 -0.386222
0.286960 -0.135922 -0.427960
0.286960 -0.339926 -0.294055
0.286960 -0.409746 -0.175473
0.286960 -0.480930 -0.076223
0.286960 -0.114616 -0.460946
0.286960 0.440471 0.216110
0.286960 0.041082 0.468788
0.286960 -0.067399 -0.484320
0.286960 -0.224336 -0.399088
0.286960 -0.444302 -0.026711
0.286960 -0.057737 -0.490332
0.286960 -0.350665 -0.290941
0.286960 -0.250133 0.376679
0.286960 0.456613 -0.060096
0.286960 0.277775 -0.394676
0.286960 -0.435224 0.214777
0.286960 -0.316962 0.381529
0.286960 -0.076433 0.472666
0.286960 -0.307808 0.353658
0.286960 -0.434176 0.124037
0.286960 -0.350442 -0.305373
0.286960 0.062285 0.483441
0.286960 0.460629 -0.050486
0.286960 -0.424153 0.207347
0.286960 -0.351785 -0.322901
0.286960 0.302430 0.365007
0.286960 0.236568 -0.399332
0.286960 -0.075788 0.446217
0.286960 -0.106524 -0.476024
0.286960 -0.383109 -0.273456
0.286960 0.135300 -0.463468
0.286960 0.243565 -0.436360
0.286960 0.340677 -0.304601
0.286960 -0.272660 0.403240
0.286960 -0.142821 -0.455697
0.286960 0.089905 0.458613
0.286960 -0.458745 0.019054
0.286960 -0.252771 0.395275
0.286960 -0.335044 0.306695
0.286960 0.152910 0.452462
0.286960 0.447298 0.110178
0.286960 0.160320 -0.444892
0.286960 -0.435664 0.207960
0.286960 -0.455596 0.160928
0.286960 0.489044 -0.018167
0.286960 0.459469 0.132994
0.286960 0.353326 -0.301115
0.286960 -0.459601 0.026149
0.286960 0.186227 0.456499
0.286960 0.332205 0.298406
0.286960 -0.399284 0.228674
0.286960 -0.289557 -0.373122
0.286960 0.472827 -0.157194
0.286960 -0.016137 -0.499324
0.286960 0.282593 0.376311
0.286960 0.450808 0.131248
0.286960 -0.461422 0.055965
0.286960 0.293333 -0.399226
0.286960 -0.273301 0.362686
0.286960 -0.004304 0.455112
0.286960 -0.314289 0.321941
0.286960 -0.453362 -0.025938
0.286960 0.431830 0.110515
0.286960 -0.427012 0.235307
0.286960 0.308371 -0.353539
0.286960 0.373767 0.324091
0.286960 0.344512 -0.340539
0.286960 0.089852 0.482989
0.286960 -0.328004 0.307230
0.286960 0.432859 0.209534
0.286960 -0.235017 0.405921
0.286960 -0.294535 0.398144
0.286960 -0.072083 -0.484401
0.286960 -0.363391 -0.341583
0.286960 0.096120 0.470164
0.286960 -0.153231 -0.453985
0.286960 -0.391195 0.298434
0.286960 0.344780 -0.320472
0.286960 -0.430821 0.223980
0.286960 0.446360 -0.213210
0.286960 -0.044429 0.457707
0.286960 0.217566 0.407052
0.286960 0.046049 0.484929
0.286960 -0.073998 0.449585
0.286960 -0.424473 0.214956
0.286960 0.414956 0.166616
0.286960 0.335506 -0.329488
0.286960 -0.474232 -0.014801
0.286960 0.214436 -0.434035
0.286960 0.484233 0.042159
0.286960 -0.351524 0.310765
0.286960 0.198416 0.435463
0.286960 0.099787 -0.471248
0.286960 -0.398705 -0.215709
0.286960 0.355582 -0.309399
0.286960 -0.341369 0.344028
0.286960 -0.451811 0.009150
0.286960 -0.088670 -0.455228
0.286960 0.457319 -0.004093
0.286960 0.423489 -0.184104
0.286960 -0.194349 0.427781
0.286960 0.412308 0.276905
0.286960 0.422866 0.247997
0.286960 0.282966 -0.371348
0.286960 0.342047 -0.318108
0.286960 0.330857 -0.344197
0.286960 0.444978 0.181063
0.286960 -0.283591 0.342100
0.286960 -0.434178 0.237346
0.286960 0.231817 0.394091
0.286960 0.237930 0.435058
0.286960 0.085533 0.487958
0.286960 -0.367703 -0.336826
0.286960 0.313310 -0.363346
0.286960 -0.286570 -0.392215
0.286960 0.453123 -0.180385
0.286960 0.164569 0.447000
0.286960 0.490881 0.081562
0.286960 0.316643 -0.323327
0.286960 0.217817 -0.412037
0.286960 -0.401463 -0.240333
0.286960 -0.445799 -0.092474
0.286960 0.378377 0.265273
0.286960 0.304934 -0.370055
0.286960 -0.397170 0.211061
0.286960 -0.166701 0.446436
0.286960 -0.203530 -0.425264
0.286960 -0.362400 0.319547
0.286960 0.188064 0.424349
0.286960 -0.475010 0.047171
0.286960 0.447516 0.146941
0.286960 0.475198 -0.057150
0.286960 -0.362536 -0.298667
0.286960 -0.351219 0.340348
0.286960 -0.461180 -0.086815
0.286960 0.090556 -0.458702
0.286960 -0.393978 0.251591
0.286960 -0.302619 0.385112
0.286960 0.445378 0.186822
0.286960 0.456083 0.035819
0.286960 0.197574 -0.420008
0.286960 0.486332 0.067680
0.286960 -0.133059 -0.460231
0.286960 -0.411083 -0.242977
0.286960 0.469326 0.154385
0.286960 0.084720 0.439303
0.286960 0.353959 0.331302
0.286960 -0.427173 0.193230
0.286960 -0.279763 0.366834
0.286960 0.435677 0.213889
0.286960 -0.405145 0.239556
0.286960 0.390373 0.306613
0.286960 0.208885 -0.429403
0.286960 0.100671 -0.444819
0.286960 0.465850 -0.030954
0.286960 -0.331057 0.296359
0.286960 -0.387765 -0.279782
0.286960 0.470750 -0.050955
0.286960 0.126339 -0.466674
0.286960 0.280053 0.402415
0.286960 0.137221 0.440662
0.286960 0.368890 0.314804
0.286960 -0.477698 -0.020362
0.286960 -0.022809 0.490312
0.286960 0.465245 0.034947
0.286960 -0.204224 0.451747
0.286960 0.361592 -0.293203
0.286960 0.473869 -0.133794
0.286960 0.399883 -0.298784
0.286960 -0.387880 0.305241
0.286960 0.306095 -0.334534
0.286960 0.232487 -0.406504
0.286960 -0.063374 0.459038
0.286960 0.304767 0.341147
0.286960 -0.058011 0.461999
0.286960 0.031493 -0.450009
0.286960 0.340391 0.336397
0.286960 0.255448 0.402276
0.286960 -0.173707 -0.463900
0.286960 -0.020070 0.448598
0.286960 0.469232 0.075094
0.286960 -0.476642 -0.037421
0.286960 0.257381 0.373772
0.286960 0.409036 -0.213814
0.286960 -0.104893 0.448185
0.286960 -0.373707 -0.287768
0.286960 -0.137680 -0.449157
0.286960 -0.038544 -0.493722
0.286960 0.407726 -0.197440
0.286960 -0.382340 0.265458
0.286960 0.469490 -0.106615
0.286960 0.079509 0.461000
0.286960 0.484498 -0.116663
0.286960 0.270162 0.405873
0.286960 -0.478758 0.068545
0.286960 0.404987 -0.201545
0.286960 -0.469891 0.134519
0.286960 -0.443914 -0.150971
0.286960 0.283713 0.380066
0.286960 0.249137 -0.383326
0.286960 0.466012 0.068532
0.286960 -0.330656 0.319745
0.286960 -0.038190 0.489266
0.286960 0.431933 -0.114230
0.286960 -0.015313 0.461775
0.286960 0.414773 -0.235108
0.286960 0.219567 0.404022
0.286960 0.439898 0.199767
0.286960 -0.442552 -0.159083
0.286960 -0.257896 0.382129
0.286960 0.490241 -0.041069
0.286960 -0.405634 0.249798
0.286960 0.323843 -0.331733
0.286960 0.328306 -0.346289
0.286960 -0.426322 0.220803
0.286960 0.146300 0.449778
0.286960 -0.292908 0.378788
0.286960 0.360360 0.261070
0.286960 -0.476517 -0.060772
0.286960 0.428244 -0.226692
0.286960 -0.215321 0.388109
0.286960 0.460871 -0.106822
0.286960 -0.467474 0.114461
0.286960 0.106889 -0.475748
0.286960 -0.467902 -0.170067
0.286960 -0.477562 -0.006259
0.286960 -0.130875 -0.445488
0.286960 0.463063 0.011331
0.286960 0.475398 -0.064371
0.286960 -0.346326 -0.306950
0.286960 0.324400 0.336132
0.286960 -0.344869 0.326768
0.286960 -0.270718 -0.419774
0.286960 0.470247 -0.101605
0.286960 0.224249 -0.414476
0.286960 -0.123338 0.450464
0.286960 -0.452748 0.192070
0.286960 0.010824 -0.461431
0.286960 -0.047781 0.488376
0.286960 -0.410807 0.228210
0.286960 0.244112 0.394339
0.286960 0.463743 -0.163296
0.286960 0.078885 0.474397
0.286960 -0.378701 -0.240119
0.286960 -0.168198 -0.425331
0.286960 0.183956 -0.412649
0.286960 0.382968 0.300806
0.286960 -0.036138 -0.464599
0.286960 -0.333804 -0.298414
0.286960 0.412998 0.233491
0.286960 0.278620 0.380847
0.286960 -0.164133 0.442893
0.286960 -0.326611 -0.348105
0.286960 -0.230134 -0.404313
0.286960 -0.309294 -0.357465
0.286960 -0.111419 -0.469423
0.286960 0.382058 0.307361
0.286960 -0.371759 -0.332243
0.286960 -0.329783 0.338699
0.286960 -0.455881 0.026555
0.286960 -0.349913 -0.339082
0.286960 0.080796 -0.465498
0.286960 -0.056986 0.491921
0.286960 0.257772 -0.378202
0.286960 0.422950 -0.217428
0.286960 0.327164 0.344573
0.286960 -0.137839 0.427149
0.286960 -0.004032 0.460480
0.286960 0.191544 -0.450023
0.286960 -0.017828 0.489209
0.286960 -0.018301 0.478384
0.286960 0.351194 -0.347742
0.286960 -0.439756 -0.130664
0.286960 0.439394 -0.101449
0.286960 0.428858 0.119802
0.286960 -0.363057 -0.294469
0.286960 0.437840 -0.232488
0.286960 0.492355 0.072710
0.286960 0.309279 -0.384241
0.286960 -0.432364 -0.149485
0.286960 -0.428038 -0.170296
0.286960 0.492699 0.068590
0.286960 0.046824 -0.484192
0.286960 0.491593 0.040507
0.286960 0.217421 0.386961
0.286960 0.451281 -0.105633
0.286960 -0.403988 -0.258455
0.286960 0.377587 -0.293272
0.286960 0.460097 -0.144528
0.286960 -0.328010 0.352175
0.286960 -0.267200 -0.369808
0.286960 0.305502 -0.346011
0.286960 -0.221437 0.429977
0.286960 -0.434327 -0.226324
0.286960 -0.007934 -0.484323
0.286960 -0.496764 -0.025815
0.286960 -0.134546 -0.449938
0.286960 -0.123004 -0.446191
0.286960 -0.446489 0.113925
0.286960 -0.386347 0.246926
0.286960 -0.454921 -0.083184
0.286960 0.301008 -0.376589
0.286960 -0.426612 0.139394
0.286960 0.458359 0.158779
0.286960 -0.353182 -0.351704
0.286960 -0.396862 0.247437
0.286960 0.168879 0.432086
0.286960 -0.392240 0.277739
0.286960 -0.274823 -0.416786
0.286960 -0.115611 0.465992
0.286960 0.469492 0.081970
0.286960 -0.001887 0.446626
0.286960 -0.027030 -0.490085
0.286960 0.269157 0.368341
0.286960 0.121768 -0.443623
0.286960 0.027732 -0.468991
0.286960 -0.470936 0.074946
0.286960 0.442503 -0.097347
0.286960 -0.159567 0.467678
0.286960 -0.254692 0.415170
0.286960 0.075196 -0.453256
0.286960 0.114629 -0.485721
0.286960 0.188923 0.408691
0.286960 0.177223 0.428248
0.286960 -0.206985 0.412300
0.286960 -0.332672 0.364377
0.286960 0.452458 -0.131250
0.286960 0.226139 0.409387
0.286960 0.066213 0.470175
0.286960 0.225772 -0.411889
0.286960 -0.168330 -0.419138
0.286960 0.443090 0.049054
0.286960 0.443266 -0.205397
0.286960 0.443351 0.209117
0.286960 0.461049 -0.150400
0.286960 0.455943 0.173085
0.286960 0.446778 0.125294
0.286960 -0.366425 -0.293179
0.286960 -0.254380 -0.424636
0.286960 -0.367265 0.326625
0.286960 0.365414 0.264188
0.286960 -0.038099 0.493516
0.286960 -0.465932 -0.082606
0.286960 -0.444151 -0.031281
0.286960 0.311770 0.378494
0.286960 0.281668 -0.355837
0.286960 -0.229616 0.424275
0.286960 0.226418 -0.395353
0.286960 0.280904 0.353654
0.286960 0.364292 -0.301976
0.286960 -0.362653 -0.275799
0.286960 0.066528 0.451361
0.286960 -0.201311 0.404801
0.286960 0.457966 0.001840
0.286960 -0.164760 0.458220
0.286960 0.448100 0.102964
0.286960 0.455190 0.166044
0.286960 -0.345287 -0.350438
0.286960 -0.452080 0.120278
0.286960 -0.358977 0.300824
0.286960 0.209804 0.449445
0.286960 -0.443411 -0.179449
0.286960 0.034406 -0.451817
0.286960 0.427095 -0.197513
0.286960 -0.278468 0.407144
0.286960 -0.104469 -0.462067
0.286960 -0.458123 -0.156455
0.286960 -0.183386 0.405608
0.286960 -0.299139 -0.384388
0.286960 0.317991 0.336529
0.286960 0.471409 0.077420
0.286960 -0.440720 0.143540
0.286960 -0.212430 0.436527
0.286960 -0.467955 -0.069938
0.286960 0.310711 -0.332047
0.286960 -0.063968 0.469109
0.286960 -0.228936 -0.387481
0.286960 0.242043 0.390133
0.286960 0.451719 0.031019
0.286960 0.125913 -0.481161
0.286960 0.259765 -0.383597
0.286960 -0.248065 0.391601
0.286960 0.486065 -0.036482
0.286960 -0.310946 -0.360301
0.286960 -0.185433 -0.450329
0.286960 0.292000 -0.347770
0.286960 0.001299 -0.457986
0.286960 0.446130 0.159003
0.286960 0.391310 -0.224868
0.286960 0.158312 -0.447718
0.286960 0.457754 0.006008
0.286960 0.361266 0.304826
0.286960 0.420868 0.263780
0.286960 0.378109 0.273979
0.286960 -0.336251 0.313414
0.286960 0.162497 -0.434620
0.286960 -0.472632 -0.021274
0.286960 0.017601 0.460978
0.286960 -0.166432 -0.471144
0.286960 -0.323753 -0.315394
0.286960 -0.073207 -0.490659
0.286960 0.011210 -0.476547
0.286960 -0.016407 0.453862
0.286960 -0.271146 -0.395692
0.286960 -0.410085 0.195555
0.286960 -0.439278 0.069779
0.286960 -0.417607 -0.245959
0.286960 -0.425444 0.254956
0.286960 -0.446927 0.128276
0.286960 0.404703 0.210643
0.286960 0.235269 0.390514
0.286960 -0.411657 -0.235502
0.286960 0.433808 0.147401
0.286960 -0.412947 -0.203081
0.286960 -0.372557 0.272633
0.286960 0.224945 0.405613
0.286960 -0.446640 -0.005646
0.286960 0.371892 0.270622
0.286960 0.296832 -0.398403
0.286960 -0.134040 0.454214
0.286960 0.058692 -0.488624
0.286960 -0.301410 0.350705
0.286960 0.429604 0.217024
0.286960 0.233169 -0.430020
0.286960 -0.457296 0.149847
0.286960 0.445906 -0.199041
0.286960 0.435726 0.153448
0.286960 -0.216130 -0.437899
0.286960 0.397923 0.223233
0.286960 -0.347558 0.287264
0.286960 -0.448882 0.035797
0.286960 0.115635 0.459523
0.286960 0.328355 0.362562
0.286960 0.231116 -0.403447
0.286960 0.481358 -0.076718
0.286960 -0.020135 -0.447181
0.286960 -0.361961 -0.261107
0.286960 -0.414335 -0.210656
0.286960 0.380541 -0.309232
0.286960 0.144795 -0.425197
0.286960 0.322370 -0.322468
0.286960 -0.470012 -0.008800
0.286960 -0.150352 -0.450595
0.286960 -0.164260 -0.463810
0.286960 0.300956 0.380943
0.286960 0.327604 -0.330095
0.286960 -0.326185 -0.377930
0.286960 0.189775 0.435464
0.286960 0.300728 0.349477
0.286960 0.052264 -0.485378
0.286960 -0.444621 -0.059221
0.286960 -0.407145 -0.190778
0.286960 0.478030 0.041379
0.286960 -0.063516 0.480851
0.286960 -0.215226 0.434808
0.286960 -0.363851 0.294191
0.286960 0.134289 0.436951
0.286960 0.047139 -0.459196
0.286960 0.017626 0.490243
0.286960 -0.371027 -0.277974
0.286960 -0.176523 0.456648
0.286960 0.068197 -0.487471
0.286960 -0.329923 0.301667
0.286960 0.150512 -0.423168
0.286960 0.261952 0.385705
0.286960 0.023875 0.480617
0.286960 0.230036 0.436674
0.286960 -0.176522 -0.461870
0.286960 -0.041335 0.493845
0.286960 -0.256559 -0.418670
0.286960 -0.206777 0.422097
0.286960 0.435642 0.233182
0.286960 -0.168023 -0.466040
0.286960 0.200976 0.410482
0.286960 -0.444718 0.029025
0.286960 -0.488705 -0.094140
0.286960 -0.041085 0.457908
0.286960 -0.406106 -0.222195
0.286960 -0.281416 -0.402273
0.286960 0.389201 0.270365
0.286960 -0.368865 -0.311023
0.286960 -0.424121 0.193633
0.286960 0.247638 0.428179
0.286960 -0.398352 -0.287750
0.286960 0.402274 -0.251183
0.286960 0.314073 -0.345035
0.286960 -0.435479 0.117664
0.286960 0.423779 -0.212387
0.286960 -0.089976 0.436091
0.286960 -0.018790 -0.472721
0.286960 -0.269903 0.380032
0.286960 -0.474602 -0.081649
0.286960 0.243170 0.382728
0.286960 0.430840 0.130407
0.286960 -0.338501 -0.332381
0.286960 0.441565 -0.173927
0.286960 -0.436308 -0.151316
0.286960 -0.445524 -0.155861
0.286960 0.483977 -0.032452
0.286960 0.461529 0.103130
0.286960 -0.233061 0.384338
0.286960 0.131609 -0.469278
