0.286960 -0.425708 -0.256993
0.286960 0.198360 0.443688
0.286960 -0.109862 0.481858
0.286960 -0.187857 -0.431812
0.286960 0.358528 -0.302433
0.286960 0.335704 0.358752
0.286960 0.040676 0.468666
0.286960 0.467420 -0.100881
0.286960 0.443963 -0.199338
0.286960 0.458750 0.169927
0.286960 -0.339188 -0.347143
0.286960 -0.416636 0.261348
0.286960 -0.441196 0.167870
0.286960 -0.110972 -0.456463
0.286960 -0.376594 0.273138
0.286960 0.412942 0.175854
0.286960 0.462344 -0.178994
0.286960 -0.428478 -0.196887
0.286960 0.485796 -0.028818
0.286960 0.264037 0.407737
0.286960 -0.203593 0.426797
0.286960 -0.422379 -0.226684
0.286960 0.025592 0.481538
0.286960 0.427150 -0.179045
0.286960 0.277946 0.352688
0.286960 -0.279022 0.402189
0.286960 -0.437472 0.225121
0.286960 -0.137414 -0.479585
0.286960 0.421095 -0.231203
0.286960 -0.261079 -0.369776
0.286960 -0.463794 -0.090935
0.286960 0.286571 -0.368931
0.286960 0.383530 -0.276086
0.286960 -0.413501 0.256498
0.286960 -0.068041 -0.453677
0.286960 0.456946 -0.034350
0.286960 0.115120 -0.440630
0.286960 0.458955 -0.021502
0.286960 0.207736 0.404976
0.286960 -0.469531 0.106258
0.286960 -0.370440 0.275517
0.286960 -0.390554 0.229266
0.286960 -0.248072 -0.427865
0.286960 0.278899 0.375052
0.286960 0.466859 0.093600
0.286960 0.196406 0.416847
0.286960 0.368095 -0.253468
0.286960 -0.179592 -0.440019
0.286960 -0.181929 0.425383
0.286960 -0.170749 0.438269
0.286960 -0.190109 -0.462403
0.286960 0.442631 -0.123285
0.286960 0.324884 -0.359892
0.286960 -0.346813 -0.312088
0.286960 -0.155067 -0.462386
0.286960 -0.203406 0.413181
0.286960 -0.209629 0.420634
0.286960 -0.214858 0.417867
0.286960 -0.457329 0.032366
0.286960 0.357149 0.301224
0.286960 0.441329 -0.069565
0.286960 -0.165700 -0.448188
0.286960 -0.137416 -0.454025
0.286960 -0.414195 0.221745
0.286960 -0.125205 0.473223
0.286960 0.103285 -0.479815
0.286960 -0.354283 0.304968
0.286960 -0.264550 -0.423648
0.286960 -0.110949 -0.479019
0.286960 0.390483 -0.298996
0.286960 0.311756 0.326580
0.286960 -0.205967 0.444364
0.286960 0.044422 -0.456290
0.286960 -0.398019 0.280736
0.286960 0.414995 -0.234172
0.286960 -0.043260 -0.451612
0.286960 -0.447321 -0.150560
0.286960 0.053781 -0.477965
0.286960 0.447535 -0.189725
0.286960 0.110932 0.483362
0.286960 -0.322472 0.315883
0.286960 0.210950 0.418079
0.286960 -0.333380 0.292771
0.286960 -0.181380 -0.430536
0.286960 0.327324 0.307520
0.286960 -0.349243 -0.321139
0.286960 0.412295 0.251605
0.286960 0.023843 0.462681
0.286960 0.391819 0.272905
0.286960 -0.326697 -0.305163
0.286960 0.232936 -0.403906
0.286960 0.404816 -0.252741
0.286960 -0.140443 0.424169
0.286960 -0.011490 0.463410
0.286960 0.350812 0.294008
0.286960 -0.478940 0.116701
0.286960 -0.391631 -0.257377
0.286960 0.244828 0.386273
0.286960 0.207199 0.401077
0.286960 -0.017768 -0.451773
0.286960 -0.335208 -0.364763
0.286960 0.384996 -0.286405
0.286960 -0.313528 -0.373904
0.286960 0.267138 -0.414850
0.286960 0.378679 0.311481
0.286960 -0.151059 0.467618
0.286960 0.465908 -0.137071
0.286960 0.395276 0.252909
0.286960 0.425637 -0.188349
0.286960 0.492491 0.064426
0.286960 -0.286380 0.371977
0.286960 0.256134 -0.398210
0.286960 0.459701 -0.170656
0.286960 0.326557 0.358104
0.286960 -0.465705 -0.040376
0.286960 0.070079 0.490084
0.286960 -0.444625 0.191454
0.286960 0.472056 -0.122822
0.286960 -0.482076 0.104356
0.286960 0.343805 -0.344275
0.286960 0.409562 -0.260955
0.286960 -0.477953 -0.109520
0.286960 -0.489582 0.063907
0.286960 -0.452706 -0.166258
0.286960 -0.048044 0.462423
0.286960 -0.377863 -0.304538
0.286960 0.224732 0.433619
0.286960 0.452437 -0.108179
0.286960 -0.283820 -0.380930
0.286960 -0.307521 0.349611
0.286960 -0.188651 -0.406006
0.286960 -0.468456 0.037538
0.286960 -0.149375 -0.422032
0.286960 -0.449945 0.117942
0.286960 -0.128722 0.468724
0.286960 -0.451728 0.156351
0.286960 -0.479699 0.091917
0.286960 0.429607 0.117197
0.286960 0.030855 -0.463796
0.286960 0.055562 -0.463611
0.286960 0.461254 -0.148448
0.286960 -0.466096 0.150095
0.286960 -0.480540 -0.003009
0.286960 -0.380717 -0.285386
0.286960 -0.417538 0.255435
0.286960 0.008586 -0.483823
0.286960 -0.456907 -0.023176
0.286960 0.080468 -0.484804
0.286960 0.095905 0.449341
0.286960 0.210028 -0.423831
0.286960 -0.453464 -0.046022
0.286960 -0.478594 -0.047713
0.286960 -0.046985 -0.471187
0.286960 -0.331886 0.356511
0.286960 0.107065 -0.452809
0.286960 0.471065 -0.059898
0.286960 0.338597 -0.302070
0.286960 0.011738 0.446603
0.286960 0.426214 0.229051
0.286960 0.479330 -0.111136
0.286960 -0.180754 -0.453386
0.286960 0.300851 0.382168
0.286960 -0.493874 0.056861
0.286960 -0.149093 0.421115
0.286960 0.415592 -0.221876
0.286960 0.410528 0.225305
0.286960 -0.095910 -0.448588
0.286960 -0.491010 0.073728
0.286960 0.374605 0.244383
0.286960 -0.260563 -0.410475
0.286960 0.355033 0.276355
0.286960 0.228143 0.389444
0.286960 -0.271195 -0.414503
0.286960 -0.190943 0.400260
0.286960 -0.319116 -0.337914
0.286960 -0.381309 -0.251147
0.286960 0.084396 -0.476437
0.286960 0.153895 -0.448536
0.286960 0.209024 -0.435513
0.286960 0.271764 0.403762
0.286960 0.328417 0.353511
0.286960 0.139535 -0.480217
0.286960 -0.110823 -0.465334
0.286960 0.137876 0.430105
0.286960 0.455360 0.165072
0.286960 -0.190165 0.421607
0.286960 0.476831 0.038303
0.286960 -0.079860 -0.459745
0.286960 0.051458 -0.444645
0.286960 -0.440839 0.139270
0.286960 -0.159819 -0.469200
0.286960 -0.386420 -0.270391
0.286960 0.497980 -0.017644
0.286960 -0.174321 -0.424686
0.286960 0.218721 -0.407867
0.286960 -0.375280 -0.327263
0.286960 -0.432926 -0.189194
0.286960 0.228361 -0.385568
0.286960 -0.225464 0.382319
0.286960 0.115240 -0.443853
0.286960 -0.294906 -0.388181
0.286960 0.418878 -0.241722
0.286960 0.324977 0.353530
0.286960 0.414396 -0.250899
0.286960 -0.060505 -0.454117
0.286960 -0.141905 0.469484
0.286960 0.413640 -0.214778
0.286960 0.106131 -0.443544
0.286960 0.456699 -0.010555
0.286960 0.120492 0.455707
0.286960 0.301774 0.370710
0.286960 -0.054451 -0.479656
0.286960 -0.483165 -0.074021
0.286960 -0.376433 -0.317273
0.286960 0.435127 -0.173718
0.286960 -0.348719 0.314717
0.286960 0.176383 0.436108
0.286960 0.394189 -0.256613
0.286960 0.312848 -0.359947
0.286960 0.244274 0.425289
0.286960 -0.119517 0.439768
0.286960 0.077978 0.454468
0.286960 0.458951 -0.104954
0.286960 0.015757 0.450080
0.286960 0.459800 0.019360
0.286960 -0.280741 0.391214
0.286960 -0.482878 -0.103836
0.286960 -0.426114 -0.248033
0.286960 -0.450631 0.073797
0.286960 0.348669 0.344869
0.286960 -0.469654 -0.017547
0.286960 0.359709 0.266826
0.286960 0.230495 -0.414376
0.286960 -0.106328 -0.470552
0.286960 0.172175 0.431096
0.286960 0.460576 -0.153538
0.286960 -0.136144 0.442266
0.286960 0.484115 -0.117426
0.286960 0.441696 0.072147
0.286960 -0.249207 -0.372939
0.286960 -0.208729 0.396411
0.286960 0.252627 0.402035
0.286960 0.385747 -0.301079
0.286960 0.073445 -0.472704
0.286960 0.454496 -0.032393
0.286960 -0.466290 0.071941
0.286960 0.236479 -0.391454
0.286960 0.181297 0.448299
0.286960 0.329187 -0.318706
0.286960 -0.383472 -0.230459
0.286960 0.447643 0.163237
0.286960 0.088602 -0.480451
0.286960 0.015635 0.446363
0.286960 0.149799 0.472737
0.286960 0.027362 0.476995
0.286960 0.346066 -0.309938
0.286960 -0.270186 -0.386102
0.286960 -0.426528 -0.199362
0.286960 -0.195048 -0.448809
0.286960 -0.368011 -0.292185
0.286960 -0.238675 -0.433077
0.286960 -0.180843 0.411592
0.286960 -0.415257 0.211626
0.286960 0.471057 -0.030603
0.286960 0.350701 0.324489
0.286960 0.366494 -0.337854
0.286960 -0.199214 0.432502
0.286960 -0.124816 -0.439514
0.286960 0.479295 0.053050
0.286960 0.106302 0.477246
0.286960 -0.480475 0.024592
0.286960 -0.319787 -0.346066
0.286960 -0.438367 0.120622
0.286960 -0.189269 0.425684
0.286960 0.324017 -0.332083
0.286960 0.224338 0.425817
0.286960 0.009594 0.451355
0.286960 -0.002312 0.490118
0.286960 0.397130 0.264183
0.286960 -0.391301 0.275868
0.286960 0.170456 -0.463978
0.286960 0.321638 -0.326137
0.286960 0.217376 0.428345
0.286960 0.342295 0.332154
0.286960 -0.439056 0.126644
0.286960 -0.027535 -0.495989
0.286960 0.447412 -0.182847
0.286960 -0.056075 0.472911
0.286960 0.270121 0.406590
0.286960 0.399680 0.251613
0.286960 0.490529 -0.010726
0.286960 0.127644 -0.456762
0.286960 0.487975 -0.024436
0.286960 -0.279231 0.359198
0.286960 0.313744 0.378731
0.286960 -0.449396 0.142980
0.286960 -0.454944 0.120196
0.286960 0.123351 -0.476969
0.286960 0.444523 0.178373
0.286960 0.151725 -0.438651
0.286960 -0.491254 0.007706
0.286960 0.433175 -0.121043
0.286960 -0.053160 0.446338
0.286960 0.175772 -0.456778
0.286960 -0.418732 -0.239732
0.286960 0.476449 -0.064985
0.286960 -0.001590 0.452369
0.286960 -0.420673 0.169434
0.286960 0.193547 -0.443795
0.286960 0.316382 -0.359750
0.286960 0.172051 -0.417604
0.286960 0.141629 0.465887
0.286960 -0.481533 -0.041697
0.286960 -0.070743 0.490555
0.286960 0.469233 0.030281
0.286960 -0.191152 -0.408963
0.286960 0.463691 0.090773
0.286960 0.009099 0.468181
0.286960 0.254328 -0.374870
0.286960 -0.485196 0.000178
0.286960 -0.293468 0.332373
0.286960 0.038298 -0.466729
0.286960 -0.327924 0.332149
0.286960 -0.393395 -0.294600
0.286960 -0.413397 -0.178423
0.286960 -0.469818 0.097043
0.286960 0.239660 0.405285
0.286960 0.470415 0.019992
0.286960 0.241575 0.372685
0.286960 0.453205 0.039781
0.286960 0.327145 -0.326047
0.286960 -0.076222 0.463600
0.286960 -0.447237 0.078809
0.286960 -0.223651 -0.409405
0.286960 -0.077037 -0.483157
0.286960 -0.237823 0.378248
0.286960 -0.304170 0.347846
0.286960 -0.348427 0.282498
0.286960 -0.035405 -0.490505
0.286960 0.165295 0.441979
0.286960 -0.126856 0.449744
0.286960 -0.289352 -0.348136
0.286960 -0.205853 0.437190
0.286960 0.120862 -0.462364
0.286960 0.420359 0.159020
0.286960 0.371474 0.285008
0.286960 -0.089705 0.434942
0.286960 -0.319865 -0.312879
0.286960 -0.081093 0.435872
0.286960 0.243848 0.421820
0.286960 -0.118976 0.469041
0.286960 0.091635 -0.443020
0.286960 -0.287986 -0.342897
0.286960 -0.283241 -0.410152
0.286960 -0.201439 -0.400464
0.286960 0.087679 0.452397
0.286960 0.269945 0.364913
0.286960 -0.399017 0.220459
0.286960 -0.397412 0.247323
0.286960 0.468514 0.049379
0.286960 -0.414308 -0.214442
0.286960 0.378068 0.282965
0.286960 -0.022230 0.483703
0.286960 0.363524 -0.329736
0.286960 -0.012783 -0.481364
0.286960 -0.347205 0.349805
0.286960 0.456979 -0.142577
0.286960 -0.115110 0.477224
0.286960 0.182945 -0.436159
0.286960 -0.311260 -0.336575
0.286960 0.431336 0.166643
0.286960 0.442657 -0.162004
0.286960 -0.444873 -0.032082
0.286960 0.446035 -0.013095
0.286960 -0.366348 -0.301298
0.286960 0.324364 -0.338299
0.286960 0.253682 0.413847
0.286960 0.185411 -0.410095
0.286960 0.087477 -0.491137
0.286960 0.196219 -0.402852
0.286960 -0.253553 -0.383948
0.286960 -0.405286 0.268368
0.286960 -0.166067 0.435620
0.286960 -0.470797 0.074744
0.286960 -0.441280 -0.094149
0.286960 -0.320813 0.339320
0.286960 -0.337164 -0.296783
0.286960 -0.285230 -0.344512
0.286960 0.034328 -0.458382
0.286960 0.241935 -0.381423
0.286960 0.304036 -0.388462
0.286960 0.242369 0.427668
0.286960 0.212215 -0.409030
0.286960 -0.147071 -0.467467
0.286960 0.488104 0.034661
0.286960 0.236097 -0.411033
0.286960 -0.407919 0.247493
0.286960 0.429277 -0.151770
0.286960 0.494236 0.021921
0.286960 0.292904 -0.339755
0.286960 0.484440 0.031981
0.286960 -0.275966 -0.376784
0.286960 -0.400537 0.215204
0.286960 0.228698 -0.443333
0.286960 -0.475680 -0.088063
0.286960 0.474430 0.063875
0.286960 0.384088 0.244697
0.286960 -0.276180 -0.398446
0.286960 0.425533 -0.197975
0.286960 0.182845 0.404706
0.286960 0.464886 0.146827
0.286960 0.393955 0.265809
0.286960 -0.413470 0.195972
0.286960 0.004735 -0.477383
0.286960 0.126796 0.456673
0.286960 -0.213384 0.400977
0.286960 0.450453 0.054362
0.286960 -0.011106 -0.471114
0.286960 0.401874 0.226091
0.286960 0.267192 -0.376100
0.286960 -0.435963 0.137096
0.286960 -0.212491 -0.433895
0.286960 0.021998 0.465366
0.286960 0.043560 0.481573
0.286960 0.155871 0.464663
0.286960 0.450743 -0.049534
0.286960 0.392908 -0.222031
0.286960 0.061048 0.445754
0.286960 0.008460 0.465049
0.286960 0.449307 -0.109251
0.286960 0.333841 0.320423
0.286960 0.035692 0.469488
0.286960 -0.092018 -0.457596
0.286960 -0.231729 0.390097
0.286960 0.262880 0.415841
0.286960 -0.449360 -0.130072
0.286960 0.160007 -0.447332
0.286960 0.419360 0.265854
0.286960 0.121909 0.426586
0.286960 0.397184 0.246968
0.286960 -0.467626 0.153528
0.286960 0.313628 0.340269
0.286960 0.035738 -0.490213
0.286960 0.059821 -0.494756
0.286960 -0.456089 0.025571
0.286960 0.184907 -0.420573
0.286960 -0.366699 0.272763
0.286960 0.388955 -0.282180
0.286960 -0.329792 -0.347106
0.286960 0.409432 0.263455
0.286960 -0.473530 -0.004201
0.286960 -0.393176 -0.241854
0.286960 0.395744 -0.235471
0.286960 0.163148 0.426613
0.286960 -0.224750 -0.433485
0.286960 0.486286 0.020989
0.286960 -0.194474 -0.438954
0.286960 -0.218139 -0.401400
0.286960 -0.330334 -0.315490
0.286960 -0.356830 0.307172
0.286960 0.459672 -0.062448
0.286960 0.462210 -0.011035
0.286960 0.354868 -0.302839
0.286960 -0.310483 0.364317
0.286960 -0.117235 -0.445187
0.286960 -0.418119 -0.166635
0.286960 -0.043483 0.461372
0.286960 0.369435 -0.291561
0.286960 0.383208 -0.290466
0.286960 0.464358 0.112414
0.286960 0.148123 -0.472487
0.286960 0.448534 0.208226
0.286960 -0.006860 0.485059
0.286960 -0.433978 -0.172145
0.286960 -0.019796 0.487019
0.286960 -0.444818 0.162709
0.286960 0.086166 0.462217
0.286960 0.333167 -0.340776
0.286960 0.444950 -0.032764
0.286960 -0.125647 0.434217
0.286960 0.311671 0.346318
0.286960 -0.089287 0.460386
0.286960 0.362860 0.257180
0.286960 0.047285 -0.445338
0.286960 0.464674 -0.013848
0.286960 -0.244984 -0.395043
0.286960 0.432202 0.229564
0.286960 0.408969 0.188220
0.286960 0.344222 -0.356366
0.286960 -0.449120 0.087787
0.286960 0.155718 0.469810
0.286960 0.180443 0.422695
0.286960 -0.449800 -0.108978
0.286960 0.311574 -0.376206
0.286960 0.146743 -0.449697
0.286960 0.438781 -0.162786
0.286960 -0.230989 0.411062
0.286960 -0.463512 -0.165060
0.286960 -0.051626 -0.461016
0.286960 -0.476871 -0.038422
0.286960 -0.001581 -0.496721
0.286960 -0.001044 0.461314
0.286960 0.048591 0.440586
0.286960 -0.400853 0.243942
0.286960 0.020088 0.456812
0.286960 0.290369 0.382987
0.286960 0.491501 -0.069526
0.286960 -0.129923 -0.464628
0.286960 -0.479596 -0.093340
0.286960 0.451837 0.068751
0.286960 0.480468 -0.016331
0.286960 -0.396872 0.288802
0.286960 -0.104997 0.439737
0.286960 -0.390921 -0.307621
0.286960 0.438631 -0.235047
0.286960 0.092497 -0.465600
0.286960 -0.302274 -0.384476
0.286960 -0.016673 -0.479375
0.286960 -0.318519 -0.353433
0.286960 0.356713 0.337573
0.286960 0.468626 -0.036782
0.286960 -0.162176 -0.455631
0.286960 -0.478143 0.111440
0.286960 -0.318121 -0.361632
0.286960 -0.254279 0.406686
0.286960 -0.202255 0.449979
0.286960 -0.459711 0.058745
0.286960 -0.196444 -0.414751
0.286960 -0.472121 0.149894
0.286960 0.459863 0.160688
0.286960 -0.297378 0.353736
0.286960 0.325530 0.375215
0.286960 0.466301 0.097425
0.286960 0.371473 -0.252760
0.286960 0.361315 0.298262
0.286960 -0.200227 -0.416153
0.286960 -0.062107 0.460061
0.286960 0.412823 -0.258989
0.286960 -0.458114 0.181458
0.286960 0.343110 -0.352729
0.286960 0.452143 -0.081342
0.286960 -0.313703 0.368726
0.286960 0.306878 -0.359429
0.286960 -0.107010 0.483156
0.286960 -0.497533 0.001260
0.286960 0.445358 -0.155748
0.286960 0.454958 -0.164982
0.286960 -0.040186 -0.452785
0.286960 0.417348 -0.274017
0.286960 -0.158357 -0.433263
0.286960 -0.083267 0.465231
0.286960 0.400047 0.202445
0.286960 0.213878 0.403866
0.286960 -0.140322 0.455100
0.286960 0.479862 0.048278
0.286960 0.137999 -0.467369
0.286960 -0.023139 0.454788
0.286960 0.089334 -0.469616
0.286960 -0.444328 -0.199435
0.286960 -0.068707 -0.477904
0.286960 -0.152074 -0.464004
0.286960 -0.058929 0.484261
0.286960 -0.110673 0.455440
0.286960 0.241657 -0.437755
0.286960 0.168993 -0.470067
0.286960 0.474952 -0.060285
0.286960 -0.112067 -0.433509
0.286960 -0.166733 0.413284
0.286960 0.178993 -0.447505
0.286960 0.394658 0.270766
0.286960 0.453163 -0.128458
0.286960 0.016264 0.454061
0.286960 -0.063619 -0.462463
0.286960 -0.467344 0.024713
0.286960 -0.354048 0.312800
0.286960 0.108194 0.430048
0.286960 -0.081323 -0.486031
0.286960 0.191606 0.432689
0.286960 -0.284370 -0.366350
0.286960 0.346468 0.297480
0.286960 0.035518 0.489661
0.286960 -0.130474 -0.440152
0.286960 0.031816 0.453065
0.286960 -0.203268 -0.436388
0.286960 0.058974 -0.465216
0.286960 -0.200658 -0.426221
0.286960 -0.154946 0.464237
0.286960 0.446482 0.135748
0.286960 0.466796 0.165975
0.286960 -0.102206 0.468732
0.286960 0.380989 -0.302963
0.286960 0.143935 -0.469576
0.286960 0.348606 -0.297713
0.286960 0.334916 0.299149
0.286960 -0.374209 -0.280065
0.286960 -0.038326 -0.498703
0.286960 0.215244 -0.446107
0.286960 -0.480585 -0.066308
0.286960 0.219651 -0.398889
0.286960 -0.267201 -0.402049
0.286960 0.290313 -0.356181
0.286960 0.188321 -0.453748
0.286960 -0.234824 -0.408806
0.286960 -0.309026 0.370976
0.286960 -0.426633 0.162107
0.286960 0.442222 0.166615
0.286960 -0.448710 -0.119898
0.286960 -0.446958 0.151526
0.286960 0.009559 0.443632
0.286960 -0.463349 0.044176
0.286960 0.496368 -0.046446
0.286960 0.006057 -0.468963
0.286960 0.463312 0.099194
0.286960 0.348900 -0.323031
0.286960 -0.178666 0.461948
0.286960 -0.178894 0.422440
0.286960 -0.042763 0.485829
0.286960 0.156989 -0.449387
0.286960 0.209002 -0.447430
0.286960 -0.267297 0.370036
0.286960 0.426027 0.247802
0.286960 0.058029 0.454674
0.286960 -0.247112 -0.433848
0.286960 0.451837 0.172506
0.286960 0.186012 -0.434876
0.286960 0.455076 -0.063438
0.286960 0.273835 -0.409382
0.286960 0.426709 -0.165075
0.286960 0.179585 0.438718
0.286960 0.380340 -0.286288
0.286960 -0.282912 -0.387914
0.286960 -0.123804 0.439684
0.286960 -0.452264 0.029645
0.286960 -0.310493 0.355643
0.286960 -0.325300 -0.325334
0.286960 -0.454122 -0.150015
0.286960 0.311261 -0.339465
0.286960 -0.094340 -0.439311
0.286960 -0.455771 0.131846
0.286960 0.087826 -0.442589
0.286960 -0.426393 0.206344
0.286960 0.013411 0.488852
0.286960 -0.473543 0.138867
0.286960 0.315705 0.337440
0.286960 -0.220537 0.398612
0.286960 0.391299 -0.263872
0.286960 -0.004783 0.480650
0.286960 -0.405936 0.227312
0.286960 -0.314224 -0.335540
0.286960 -0.496464 0.016165
0.286960 0.457279 -0.054259
0.286960 -0.065029 0.451425
0.286960 -0.363094 0.273388
0.286960 -0.176208 -0.460796
0.286960 0.357650 -0.281583
0.286960 -0.416715 0.235501
0.286960 0.396048 0.206503
0.286960 -0.485734 0.011027
0.286960 -0.460432 0.031072
0.286960 0.442884 -0.213450
0.286960 0.420808 -0.256285
0.286960 -0.140046 0.429620
0.286960 0.445456 0.168635
0.286960 -0.410777 0.180316
0.286960 -0.396801 -0.212347
0.286960 0.025307 0.467240
0.286960 0.327381 0.329997
0.286960 0.403896 -0.225392
0.286960 -0.096484 0.477757
0.286960 -0.375277 0.315127
0.286960 -0.140886 -0.445557
0.286960 0.384461 0.266470
0.286960 0.307137 -0.352884
0.286960 -0.022831 0.462048
0.286960 -0.163369 -0.468309
0.286960 0.481051 0.026400
0.286960 -0.144437 -0.464388
0.286960 0.432456 0.128148
0.286960 -0.167590 0.425580
0.286960 -0.143690 -0.461039
0.286960 -0.003999 0.472083
0.286960 0.270646 -0.366904
0.286960 0.284963 0.349941
0.286960 -0.020425 -0.485335
0.286960 -0.490107 -0.005574
0.286960 0.452891 0.051136
0.286960 0.284132 0.375203
0.286960 -0.211899 -0.406681
0.286960 -0.483102 -0.054189
0.286960 -0.085955 0.452237
0.286960 -0.078369 0.441631
0.286960 -0.034185 -0.472641
0.286960 -0.488345 -0.087419
0.286960 -0.150711 0.428975
0.286960 0.262960 0.387627
0.286960 0.149096 -0.454179
0.286960 0.392991 -0.214532
0.286960 -0.460595 0.087446
0.286960 0.189272 -0.458349
0.286960 -0.482768 0.094928
0.286960 0.022599 0.447328
0.286960 0.031181 -0.456267
0.286960 -0.112499 -0.486955
0.286960 -0.436214 0.147315
0.286960 -0.479376 -0.033896
0.286960 0.458132 -0.126586
0.286960 0.286776 0.339498
0.286960 0.141310 0.430045
0.286960 -0.388841 -0.246509
0.286960 -0.080136 0.461733
0.286960 -0.009968 0.459942
0.286960 -0.027378 0.486127
0.286960 0.397457 -0.225589
0.286960 -0.166460 -0.466503
0.286960 0.232916 -0.386136
0.286960 0.144560 0.450888
0.286960 -0.471492 -0.119124
0.286960 -0.245974 -0.402182
0.286960 0.460648 -0.135879
0.286960 -0.481082 0.119886
0.286960 0.091606 0.450785
0.286960 -0.482875 -0.047865
0.286960 -0.409990 -0.227712
0.286960 -0.458502 -0.138509
0.286960 -0.405521 -0.270436
0.286960 0.457901 0.140507
0.286960 -0.345805 0.302749
0.286960 -0.427109 0.122205
0.286960 0.239692 -0.433764
0.286960 0.459207 -0.057701
0.286960 -0.290515 0.380369
0.286960 -0.491659 0.037723
0.286960 0.129323 0.471813
0.286960 0.483838 0.009050
0.286960 -0.383318 0.291474
0.286960 -0.271284 0.368219
0.286960 0.472370 -0.131392
0.286960 -0.390219 0.303589
0.286960 -0.443665 -0.184409
0.286960 0.451720 -0.176510
0.286960 0.147041 0.459046
0.286960 -0.427287 -0.243326
0.286960 0.053570 0.476907
0.286960 -0.430163 -0.179665
0.286960 0.469169 0.130766
0.286960 0.096863 -0.437091
0.286960 0.390437 -0.278985
0.286960 0.294677 -0.389565
0.286960 0.082182 0.471607
0.286960 -0.485537 -0.066592
0.286960 0.342792 0.326184
0.286960 0.436006 0.113788
0.286960 -0.275886 0.374943
0.286960 0.462894 0.117079
0.286960 0.319793 0.339670
0.286960 -0.354833 -0.317428
0.286960 0.201550 0.445432
0.286960 0.468588 -0.079148
0.286960 0.338120 0.339328
0.286960 0.238420 -0.380379
0.286960 -0.442523 0.176238
0.286960 0.270220 0.368657
0.286960 0.222662 -0.405844
0.286960 0.448677 0.125160
0.286960 -0.453991 -0.064207
0.286960 -0.481110 0.065851
0.286960 -0.205442 0.401432
0.286960 0.276816 -0.352092
0.286960 -0.310551 0.376758
0.286960 -0.209723 0.448687
0.286960 -0.020301 -0.481199
0.286960 0.384700 0.270224
0.286960 0.393345 -0.276161
0.286960 0.428061 0.209492
0.286960 0.231633 0.410183
0.286960 0.018969 0.464193
0.286960 -0.483328 -0.005970
0.286960 -0.125094 0.452948
0.286960 -0.408222 -0.208909
0.286960 -0.350814 -0.313793
0.286960 0.473662 0.000093
0.286960 0.007436 -0.461942
0.286960 -0.442586 -0.162296
0.286960 -0.326148 0.356722
0.286960 0.264976 -0.388370
0.286960 0.457975 -0.163990
0.286960 -0.051378 0.477149
0.286960 0.491571 -0.055707
0.286960 -0.254975 -0.380546
0.286960 0.242444 0.417581
0.286960 -0.019503 -0.498192
0.286960 0.466825 -0.015988
0.286960 0.073208 0.468009
0.286960 -0.448131 0.105725
0.286960 -0.420630 0.239017
0.286960 0.491272 -0.002269
0.286960 -0.397165 0.216744
0.286960 -0.237864 0.416943
0.286960 -0.381050 0.281305
0.286960 -0.448793 0.058615
0.286960 0.112365 -0.447437
0.286960 0.255941 0.386971
0.286960 0.021400 0.494787
0.286960 0.309349 0.363166
0.286960 0.445042 -0.045943
0.286960 0.361420 0.337971
0.286960 -0.401515 -0.233189
0.286960 -0.258705 0.371093
0.286960 0.470642 -0.108244
0.286960 -0.162679 0.468004
0.286960 -0.341200 0.306375
0.286960 -0.468290 -0.067163
0.286960 0.376648 0.321094
0.286960 -0.208045 -0.400501
0.286960 0.462857 0.094767
0.286960 -0.303546 0.337195
0.286960 -0.377243 -0.288498
0.286960 -0.446920 -0.154118
0.286960 -0.372440 -0.256916
0.286960 -0.166544 0.462206
0.286960 0.462478 0.130637
0.286960 -0.236273 -0.429169
0.286960 -0.450054 -0.172969
0.286960 -0.411352 -0.276977
0.286960 -0.464192 0.152902
0.286960 -0.302430 -0.337687
0.286960 0.332689 -0.372728
0.286960 0.447569 0.065976
0.286960 0.486667 0.011508
0.286960 -0.428202 0.153923
0.286960 -0.339587 -0.291213
0.286960 0.465537 0.046508
0.286960 0.441838 -0.151708
0.286960 -0.472857 0.050676
0.286960 0.430152 0.237912
0.286960 0.075062 0.455978
0.286960 0.395943 0.210331
0.286960 0.491936 0.012763
0.286960 0.445823 0.027803
0.286960 -0.005833 0.488661
0.286960 -0.287068 -0.395450
0.286960 -0.454929 0.073292
0.286960 0.026925 0.464169
0.286960 0.482380 0.003270
0.286960 0.436927 0.090972
0.286960 -0.384021 0.297405
0.286960 0.130660 0.468100
0.286960 -0.353856 0.301570
0.286960 -0.076471 -0.453733
0.286960 -0.471520 -0.087468
0.286960 -0.492515 -0.058471
0.286960 -0.485942 0.019493
0.286960 0.489220 -0.007833
0.286960 0.211190 -0.420603
0.286960 0.268751 0.409669
0.286960 0.281205 -0.353196
0.286960 -0.343147 0.335745
0.286960 -0.167775 -0.428180
0.286960 -0.101856 0.431795
0.286960 0.423356 -0.192443
0.286960 -0.447866 0.055185
0.286960 0.440365 0.105994
0.286960 -0.429135 0.136207
0.286960 0.483977 -0.031819
0.286960 -0.489991 -0.052629
0.286960 -0.091081 -0.486625
0.286960 0.262109 0.374930
0.286960 0.476083 0.088353
0.286960 0.426045 0.132155
0.286960 -0.334698 -0.341623
0.286960 0.431758 0.245399
0.286960 0.323266 0.310217
0.286960 -0.306028 -0.351280
0.286960 -0.400811 -0.249222
0.286960 -0.469721 -0.052804
0.286960 0.049478 -0.468503
0.286960 0.361628 -0.299695
0.286960 -0.377997 -0.277423
0.286960 -0.284358 0.385431
0.286960 -0.301387 -0.332029
0.286960 -0.013122 0.482489
0.286960 -0.171263 -0.451263
0.286960 -0.111980 -0.472138
0.286960 -0.144910 0.425064
0.286960 0.314805 0.347847
0.286960 0.025200 -0.465596
0.286960 -0.338660 -0.358352
0.286960 -0.466543 -0.000832
0.286960 -0.313787 -0.356703
0.286960 -0.404412 0.207422
0.286960 -0.306034 0.331150
0.286960 0.460117 -0.113808
0.286960 -0.322841 0.355684
0.286960 -0.290411 0.399603
0.286960 0.342728 -0.340915
0.286960 0.371678 -0.289255
0.286960 -0.233300 0.386965
0.286960 -0.187969 -0.426763
0.286960 -0.378253 -0.299432
0.286960 0.276114 -0.399306
0.286960 -0.000419 -0.471864
0.286960 0.047321 0.482579
0.286960 -0.116151 -0.460192
0.286960 -0.446198 -0.123105
0.286960 -0.268879 0.415487
0.286960 -0.314511 -0.346841
0.286960 0.326899 -0.330974
0.286960 0.059602 -0.444125
0.286960 -0.012922 -0.473578
0.286960 -0.112776 -0.441956
0.286960 -0.186570 -0.453160
0.286960 0.229708 0.396805
0.286960 0.179102 0.442652
0.286960 -0.235162 -0.386958
0.286960 0.367991 0.271734
0.286960 0.381190 0.296195
0.286960 -0.153663 -0.420137
0.286960 -0.376752 0.258720
0.286960 0.371356 -0.304034
0.286960 0.366242 -0.293846
0.286960 0.390181 -0.274650
0.286960 0.023755 -0.452770
0.286960 -0.156556 -0.466039
0.286960 -0.410932 0.249512
0.286960 -0.435073 0.108734
0.286960 -0.154013 -0.471076
0.286960 -0.435312 0.190764
0.286960 -0.042342 -0.484620
0.286960 0.422626 -0.266086
0.286960 -0.210593 0.417471
0.286960 0.154329 0.458142
0.286960 0.314730 -0.339808
0.286960 0.464595 -0.070581
0.286960 0.458996 -0.188470
0.286960 0.334934 0.325181
0.286960 -0.169990 -0.414511
0.286960 0.447684 0.118173
0.286960 -0.441695 0.223296
0.286960 -0.148458 -0.430937
0.286960 0.033933 -0.472283
0.286960 0.264401 -0.398295
0.286960 -0.267217 -0.413663
0.286960 0.430435 -0.118961
0.286960 -0.166587 0.445022
0.286960 -0.461363 -0.045804
0.286960 -0.472670 0.123225
0.286960 -0.448631 0.168643
0.286960 0.189182 0.447792
0.286960 -0.450078 -0.079696
0.286960 -0.243091 -0.417675
0.286960 0.252372 -0.370091
0.286960 -0.138747 0.459380
0.286960 -0.307289 -0.389206
0.286960 -0.458493 -0.003427
0.286960 0.144643 -0.442689
0.286960 0.063086 0.440253
0.286960 0.086978 0.435087
0.286960 0.459725 0.096659
0.286960 -0.150394 0.456396
0.286960 0.478944 -0.047326
0.286960 -0.010385 -0.448985
0.286960 0.071568 -0.476759
0.286960 -0.194555 -0.403174
0.286960 -0.006539 0.457507
0.286960 -0.359196 -0.274233
0.286960 0.186974 0.459039
0.286960 -0.371904 -0.260721
0.286960 -0.030554 -0.472577
0.286960 0.320179 -0.365274
0.286960 -0.338988 -0.335098
0.286960 -0.426754 0.228005
0.286960 -0.230421 -0.401986
0.286960 -0.088606 -0.453051
0.286960 -0.414957 0.180275
0.286960 -0.401517 -0.265776
0.286960 0.154655 0.416510
0.286960 0.265039 -0.417654
0.286960 -0.346271 0.329753
0.286960 -0.256016 0.397492
0.286960 0.192369 0.408777
0.286960 0.375904 -0.277649
0.286960 0.162243 -0.468061
0.286960 0.035269 -0.486137
0.286960 0.240629 0.376051
0.286960 0.201074 -0.431845
0.286960 -0.363120 0.279781
0.286960 -0.112419 0.432084
0.286960 0.398354 -0.241181
0.286960 0.274728 -0.367608
0.286960 -0.073427 -0.487284
0.286960 -0.035349 0.470713
0.286960 -0.178774 0.436120
0.286960 -0.139138 0.437157
0.286960 0.062392 -0.459996
0.286960 0.181882 0.411725
0.286960 0.399881 0.245252
0.286960 -0.479967 -0.074832
0.286960 -0.302941 -0.369199
0.286960 -0.417973 0.264900
0.286960 0.473859 0.051728
0.286960 -0.448397 -0.104494
0.286960 0.177134 0.457902
0.286960 0.255433 -0.428443
0.286960 0.327438 -0.339179
0.286960 0.456970 0.113959
0.286960 -0.242482 0.391471
0.286960 -0.267285 -0.367993
0.286960 -0.057797 0.469017
0.286960 -0.350323 -0.327153
0.286960 -0.226966 -0.408891
0.286960 0.409692 0.234862
0.286960 0.473614 -0.125838
0.286960 0.386404 -0.273547
0.286960 0.049554 0.444716
0.286960 0.422437 0.252765
0.286960 0.029034 0.455916
0.286960 -0.329432 0.328276
0.286960 0.236263 -0.401494
0.286960 -0.412935 0.263241
0.286960 0.374014 0.275050
0.286960 0.381458 0.282653
0.286960 -0.462744 0.176466
0.286960 0.195220 -0.446452
0.286960 0.444645 -0.191060
0.286960 0.445193 -0.070273
0.286960 -0.446844 -0.038424
0.286960 -0.117483 0.436590
0.286960 -0.226265 0.395699
0.286960 -0.368344 0.318346
0.286960 -0.174018 -0.458270
0.286960 -0.202025 -0.451813
0.286960 0.386751 0.311236
0.286960 0.185994 0.419361
0.286960 0.122202 0.474435
0.286960 0.442970 0.055821
0.286960 -0.429919 -0.166558
0.286960 0.405984 -0.261080
0.286960 -0.363098 -0.273920
0.286960 -0.142175 -0.458360
0.286960 -0.405327 -0.265926
0.286960 0.300279 -0.377786
0.286960 -0.242067 -0.403419
0.286960 -0.402028 0.269260
0.286960 -0.467658 0.120501
0.286960 -0.130505 0.478020
0.286960 0.382531 0.254735
0.286960 0.482533 -0.095337
0.286960 0.418179 -0.198404
0.286960 0.284007 -0.371274
0.286960 0.434727 -0.104262
0.286960 -0.303166 -0.341544
0.286960 -0.380900 -0.306408
0.286960 0.483488 -0.001279
0.286960 -0.372162 0.271011
0.286960 -0.088621 0.483441
0.286960 -0.295494 0.380163
0.286960 0.133164 0.426712
0.286960 -0.190575 -0.455575
0.286960 -0.437437 -0.093136
0.286960 0.068210 -0.469472
0.286960 -0.085047 0.440165
0.286960 -0.488446 0.013837
0.286960 0.230645 0.436102
0.286960 0.128899 0.430998
0.286960 0.419276 -0.269551
0.286960 0.460898 -0.145236
0.286960 -0.436421 -0.209048
0.286960 0.125232 -0.440730
0.286960 -0.446414 -0.016878
0.286960 0.282375 -0.395319
0.286960 0.469988 -0.053013
0.286960 -0.399047 -0.238546
0.286960 -0.300596 -0.366127
0.286960 0.355832 -0.275128
0.286960 0.408500 0.209636
0.286960 -0.101832 0.475287
0.286960 -0.451065 0.063616
0.286960 -0.420620 0.184308
0.286960 0.181114 -0.432379
0.286960 -0.446849 -0.175376
0.286960 -0.281085 -0.384835
0.286960 -0.440154 0.184742
0.286960 -0.098420 0.445123
0.286960 0.419155 0.256062
0.286960 -0.403260 0.230179
0.286960 -0.412965 0.200024
0.286960 -0.477735 -0.018725
0.286960 0.311561 0.356731
0.286960 -0.465508 -0.008410
0.286960 0.484883 0.071799
0.286960 0.026092 0.485425
0.286960 -0.365195 0.322815
0.286960 0.462939 -0.056097
0.286960 0.343935 0.340865
0.286960 -0.181078 -0.409171
0.286960 -0.476481 -0.074104
0.286960 -0.452844 -0.088773
0.286960 0.285683 0.389467
0.286960 -0.111787 -0.475719
0.286960 -0.327318 -0.330126
0.286960 -0.415029 0.225401
0.286960 -0.066396 -0.460565
0.286960 -0.032229 -0.469525
0.286960 -0.468604 0.159971
0.286960 0.360062 0.307504
0.286960 -0.151239 -0.472760
0.286960 0.155482 0.443418
0.286960 0.483088 -0.023639
0.286960 0.432172 -0.180008
0.286960 -0.070358 -0.456052
0.286960 0.397680 0.229412
0.286960 -0.312490 0.361699
0.286960 -0.386806 0.309775
0.286960 -0.216534 0.399277
0.286960 -0.148612 -0.470958
0.286960 0.379417 -0.298146
0.286960 -0.327279 0.336342
0.286960 0.100717 -0.462301
0.286960 0.428821 0.121238
0.286960 0.480624 -0.122132
0.286960 -0.117370 0.444160
0.286960 -0.327777 0.359425
0.286960 -0.234342 -0.426195
0.286960 0.064547 0.455112
0.286960 -0.402827 0.284448
0.286960 0.227234 -0.427343
0.286960 0.321083 0.374604
0.286960 0.487708 0.099842
0.286960 -0.417708 0.167198
0.286960 0.463682 0.064167
0.286960 -0.021190 0.492547
0.286960 -0.305449 -0.371199
0.286960 0.228326 -0.391158
0.286960 -0.389091 0.245708
0.286960 -0.095254 0.445677
0.286960 -0.063866 -0.443899
0.286960 0.401899 -0.261672
0.286960 0.460492 0.183597
0.286960 0.335452 -0.313683
0.286960 0.100173 -0.478092
0.286960 -0.429026 0.224305
0.286960 0.440783 0.119766
0.286960 0.067354 0.456589
0.286960 -0.254080 -0.394748
0.286960 -0.160873 -0.422420
0.286960 0.182314 0.461377
0.286960 0.467550 0.021257
0.286960 -0.139507 -0.429158
0.286960 -0.427488 0.213796
0.286960 -0.266904 0.388818
0.286960 0.071275 0.465357
0.286960 0.383455 -0.258745
0.286960 -0.346115 -0.345876
0.286960 -0.150310 0.463848
0.286960 -0.231742 -0.418380
0.286960 0.280641 0.404735
0.286960 0.167651 -0.460679
0.286960 -0.295779 0.335041
0.286960 0.375603 0.325276
0.286960 -0.248477 0.424504
0.286960 -0.424052 0.159103
0.286960 -0.371384 0.251250
0.286960 0.475752 0.138034
0.286960 -0.058708 -0.482976
0.286960 0.281918 0.386636
0.286960 -0.110223 0.429658
0.286960 0.397340 -0.276459
0.286960 0.300407 0.377657
0.286960 -0.181611 0.431110
0.286960 -0.407988 -0.230640
0.286960 -0.404240 -0.195445
0.286960 -0.413894 0.245966
0.286960 0.446711 0.092429
0.286960 -0.475312 -0.021120
0.286960 -0.185471 0.446405
0.286960 -0.471123 -0.078489
0.286960 0.436619 -0.181100
0.286960 -0.064146 -0.493109
0.286960 -0.321597 0.342742
0.286960 -0.149053 0.441440
0.286960 -0.320755 0.375766
0.286960 -0.213579 -0.428465
0.286960 0.212286 0.390452
0.286960 0.269274 0.397883
0.286960 0.489418 -0.094818
0.286960 -0.375417 0.241951
0.286960 0.474578 0.150354
0.286960 0.092220 -0.471257
0.286960 0.318521 -0.341054
0.286960 0.134200 0.452841
0.286960 0.374948 -0.289691
0.286960 -0.444579 0.137329
0.286960 0.333414 0.313197
0.286960 0.261173 -0.426496
0.286960 -0.321011 -0.370415
0.286960 -0.477405 0.083713
0.286960 -0.314664 0.343571
0.286960 0.101730 0.450760
0.286960 0.374518 0.294885
0.286960 0.445544 -0.202330
0.286960 -0.464117 0.122388
0.286960 -0.436291 -0.175266
0.286960 0.128794 -0.433428
0.286960 0.392472 0.298898
0.286960 0.218185 -0.390995
0.286960 -0.107943 0.444533
0.286960 -0.379055 0.278935
0.286960 0.457489 0.038931
0.286960 -0.190897 0.457175
0.286960 0.298862 0.354873
0.286960 0.163474 0.460333
0.286960 0.468061 0.154532
0.286960 0.256847 -0.372829
0.286960 -0.250222 -0.404511
0.286960 -0.344536 -0.285848
0.286960 -0.262900 0.398215
0.286960 -0.419414 -0.205108
0.286960 -0.264848 -0.371519
0.286960 0.099020 0.460039
0.286960 0.471995 0.128662
0.286960 0.476573 0.025095
0.286960 -0.070770 0.440450
0.286960 0.353961 0.331141
0.286960 0.058497 0.470236
0.286960 0.498351 -0.010548
0.286960 0.399666 0.292806
0.286960 -0.391687 -0.291678
0.286960 0.174437 -0.468233
0.286960 0.134830 -0.474000
0.286960 0.457583 0.006350
0.286960 0.032987 0.487689
0.286960 -0.030601 0.493553
0.286960 0.404850 -0.257764
0.286960 -0.380590 -0.302188
0.286960 -0.417025 0.153052
0.286960 0.468269 -0.007207
0.286960 0.458619 0.134119
0.286960 -0.349648 -0.310317
0.286960 0.439067 0.077237
0.286960 -0.360282 0.340407
0.286960 0.363703 0.329439
0.286960 -0.407097 -0.219902
0.286960 -0.377896 0.284927
0.286960 -0.453240 0.105289
0.286960 -0.305288 0.328111
0.286960 -0.206060 0.448355
0.286960 0.396227 0.299230
0.286960 0.429583 -0.128768
0.286960 0.451651 -0.062186
0.286960 0.075946 0.446218
0.286960 0.496747 0.006253
0.286960 0.468978 -0.143426
0.286960 -0.040394 0.452555
0.286960 0.478818 0.035154
0.286960 -0.397371 0.277488
0.286960 -0.332114 0.333614
0.286960 0.455579 0.169046
0.286960 0.454228 -0.055298
0.286960 0.155533 -0.454879
0.286960 -0.470171 -0.039887
0.286960 0.234241 -0.436695
0.286960 -0.452891 0.147428
0.286960 -0.151355 0.434841
0.286960 -0.442734 0.096056
0.286960 0.368652 0.268359
0.286960 0.208976 -0.426850
0.286960 -0.452720 0.066356
0.286960 -0.458586 -0.153526
0.286960 0.260143 0.413691
0.286960 -0.277720 -0.408657
0.286960 0.324930 -0.347754
0.286960 -0.401159 0.203664
0.286960 -0.460245 0.184954
0.286960 0.106114 -0.456382
0.286960 -0.439435 0.087402
0.286960 -0.215395 -0.424984
0.286960 -0.053376 -0.488329
0.286960 0.150014 0.428112
0.286960 -0.371671 0.316975
0.286960 0.357092 -0.268942
0.286960 0.248941 -0.415825
0.286960 0.489890 0.052581
0.286960 0.475851 -0.109707
0.286960 -0.344350 0.289816
0.286960 -0.368690 -0.318934
0.286960 -0.263330 -0.391421
0.286960 -0.344164 0.309520
0.286960 0.330490 -0.354990
0.286960 0.083048 0.446508
0.286960 -0.400450 0.247106
0.286960 -0.333491 -0.297592
0.286960 -0.248694 -0.387836
0.286960 -0.383228 -0.313377
0.286960 -0.451438 -0.036379
0.286960 0.389817 0.282295
0.286960 0.312515 0.385287
0.286960 -0.423485 0.235830
0.286960 0.447258 -0.058351
0.286960 0.479739 0.130117
0.286960 0.296826 0.334806
0.286960 0.212917 -0.397649
0.286960 -0.333571 0.303318
0.286960 -0.169538 0.420401
0.286960 -0.175961 -0.429190
0.286960 0.271840 0.361578
0.286960 -0.272706 0.413093
0.286960 0.088122 -0.476256
0.286960 -0.446909 -0.134273
0.286960 -0.181096 0.415267
0.286960 -0.438595 0.195085
0.286960 -0.488206 0.034245
0.286960 0.485323 0.016291
0.286960 0.237916 0.408385
0.286960 0.304477 0.358390
0.286960 -0.449594 -0.000769
0.286960 0.488040 0.041743
0.286960 -0.050981 0.469113
0.286960 -0.270524 -0.420053
0.286960 0.201500 -0.415452
0.286960 -0.344072 0.283391
0.286960 -0.459086 -0.096792
0.286960 -0.360965 -0.289335
0.286960 -0.122902 -0.463175
0.286960 0.483799 -0.054552
0.286960 -0.370630 -0.263983
0.286960 -0.431469 0.138442
0.286960 0.351965 0.301617
0.286960 -0.347961 0.322649
0.286960 0.195887 -0.432303
0.286960 0.070689 0.457391
0.286960 0.381317 0.251314
0.286960 0.054119 -0.467118
0.286960 0.463840 -0.175762
0.286960 -0.439963 -0.081987
0.286960 0.435451 0.202153
0.286960 0.492675 -0.048265
0.286960 0.454344 0.187964
0.286960 -0.056486 -0.450662
0.286960 -0.278694 0.345393
0.286960 0.157446 -0.421482
0.286960 -0.323440 -0.313585
0.286960 0.078706 0.463653
0.286960 -0.357753 0.274030
0.286960 0.448588 0.203252
0.286960 -0.241321 0.371840
0.286960 -0.079142 0.468924
0.286960 -0.395686 0.203630
0.286960 -0.481619 -0.020734
0.286960 0.472602 0.031654
0.286960 0.372301 0.308649
0.286960 -0.325941 -0.333203
0.286960 -0.477131 0.099196
0.286960 -0.186820 0.457811
0.286960 0.482619 0.075761
0.286960 0.154252 -0.435565
0.286960 -0.003986 -0.473236
0.286960 0.304864 0.386298
0.286960 -0.256776 0.382006
0.286960 0.169126 -0.440419
0.286960 -0.428990 0.199743
0.286960 0.021425 0.486067
0.286960 -0.217020 0.396016
0.286960 0.423120 0.237433
0.286960 -0.452223 -0.011752
0.286960 -0.333825 -0.325092
0.286960 0.407504 -0.185610
0.286960 0.319549 0.368481
0.286960 -0.435418 0.114998
0.286960 -0.452349 -0.093738
0.286960 -0.185986 0.449555
0.286960 -0.477053 0.016876
0.286960 -0.130863 -0.476424
0.286960 0.394625 0.227753
0.286960 -0.433283 -0.154625
0.286960 -0.105930 -0.435105
0.286960 -0.324624 -0.336732
0.286960 0.069754 0.452291
0.286960 0.418670 -0.180319
0.286960 0.116877 0.435791
0.286960 -0.478116 -0.116461
0.286960 0.063264 0.480414
0.286960 -0.447279 -0.184288
0.286960 0.462034 0.087048
0.286960 0.103452 0.437394
0.286960 0.197626 -0.421723
0.286960 -0.441130 0.062275
0.286960 -0.068738 0.465764
0.286960 0.335959 0.308026
0.286960 0.324381 0.342718
0.286960 0.460292 0.106583
0.286960 0.491692 0.035490
0.286960 -0.039310 -0.473310
0.286960 -0.454230 -0.070294
0.286960 0.218744 -0.413980
0.286960 0.447658 0.187026
0.286960 -0.090240 -0.471481
0.286960 -0.068360 0.479564
0.286960 0.288069 -0.408344
0.286960 0.381954 -0.318522
0.286960 0.308352 -0.363812
0.286960 -0.037636 0.480078
0.286960 0.083262 -0.490502
0.286960 0.448178 -0.007484
0.286960 -0.075341 0.460224
0.286960 0.404725 -0.199031
0.286960 0.419077 0.167591
0.286960 0.361378 -0.311907
0.286960 0.332387 -0.361168
0.286960 -0.441818 0.150580
0.286960 -0.463767 0.037468
0.286960 -0.365350 0.319766
0.286960 0.443212 -0.050580
0.286960 -0.081510 0.471799
0.286960 0.481537 -0.034578
0.286960 0.318018 -0.356722
0.286960 -0.474234 0.013232
0.286960 -0.367733 -0.329979
0.286960 -0.102221 0.464439
0.286960 0.411622 -0.219476
0.286960 0.062606 -0.464103
0.286960 0.396262 -0.296393
0.286960 0.295320 0.393297
0.286960 -0.324699 0.343827
0.286960 0.357155 0.326000
0.286960 -0.190746 0.428567
0.286960 -0.308572 0.339584
0.286960 0.460302 0.063277
0.286960 -0.414865 0.269172
0.286960 -0.175494 0.421707
0.286960 -0.459298 0.054492
0.286960 -0.459529 -0.077333
0.286960 0.281620 -0.382138
0.286960 -0.395648 0.284480
0.286960 -0.173055 -0.416567
0.286960 0.145195 0.461527
0.286960 -0.256059 -0.369972
0.286960 0.470748 -0.002623
0.286960 -0.116300 0.473898
0.286960 -0.402387 0.226702
0.286960 -0.429233 -0.186038
0.286960 -0.122352 -0.435990
0.286960 -0.040790 -0.448526
0.286960 -0.180502 -0.436250
0.286960 0.456679 -0.001594
0.286960 -0.476092 0.125144
0.286960 -0.272548 -0.404545
0.286960 0.079444 0.447112
0.286960 0.097670 -0.444440
0.286960 -0.327824 0.324348
0.286960 0.205384 0.411811
0.286960 0.020499 0.475960
0.286960 0.173461 -0.427155
0.286960 0.490479 0.039276
0.286960 0.229300 0.421227
0.286960 0.001960 0.446564
0.286960 0.289795 -0.369643
0.286960 0.028241 -0.461129
0.286960 -0.456072 -0.160494
0.286960 0.171382 -0.467215
0.286960 -0.449497 0.207446
0.286960 0.454520 0.013977
0.286960 -0.002946 -0.476359
0.286960 0.201658 -0.422822
0.286960 0.326400 -0.313556
0.286960 -0.121383 -0.431490
0.286960 0.385423 -0.304777
0.286960 -0.431185 -0.213009
0.286960 0.434232 0.227148
0.286960 -0.434318 -0.222516
0.286960 0.124934 0.477324
0.286960 0.465783 -0.041916
0.286960 0.106082 0.460918
0.286960 0.196040 0.455217
0.286960 -0.037439 -0.450681
0.286960 0.357981 -0.297872
0.286960 0.103226 -0.454134
0.286960 0.492913 -0.065961
0.286960 -0.428507 -0.134128
0.286960 0.304624 0.382066
0.286960 -0.191647 -0.449067
0.286960 -0.394399 -0.254902
0.286960 -0.116253 -0.454218
0.286960 -0.246832 -0.421611
0.286960 0.338748 0.294745
0.286960 -0.038296 -0.488528
0.286960 0.194411 0.420781
0.286960 -0.305423 -0.381143
0.286960 0.415443 -0.230797
0.286960 0.213395 -0.450501
0.286960 0.484505 -0.097652
0.286960 -0.411929 -0.200331
0.286960 -0.232293 -0.399414
0.286960 -0.358658 -0.331672
0.286960 -0.159355 0.459680
0.286960 0.208134 0.433916
0.286960 0.267428 0.392810
0.286960 -0.057217 -0.464457
0.286960 -0.146173 0.461542
0.286960 -0.445115 0.082042
0.286960 -0.404721 -0.232152
0.286960 -0.386433 0.278753
0.286960 -0.027667 0.495050
0.286960 -0.365476 0.269001
0.286960 -0.122791 -0.451376
0.286960 -0.400213 -0.286539
0.286960 0.438485 -0.116245
0.286960 -0.406342 0.274590
0.286960 0.400634 -0.284255
0.286960 -0.447424 -0.004291
0.286960 -0.223930 -0.388514
0.286960 0.475463 -0.068964
0.286960 0.331601 0.329970
0.286960 -0.450586 -0.190122
0.286960 -0.448615 -0.146704
0.286960 0.319193 0.361552
0.286960 0.477815 -0.126426
0.286960 -0.208773 -0.417697
0.286960 -0.207845 -0.438441
0.286960 -0.168786 -0.424881
0.286960 0.109274 0.461968
0.286960 0.435113 0.102174
0.286960 -0.416938 -0.161368
0.286960 0.253457 0.410626
0.286960 -0.230683 -0.434770
0.286960 -0.163183 0.438338
0.286960 -0.199494 0.411378
0.286960 0.446780 -0.062768
0.286960 -0.011023 0.451136
0.286960 -0.074349 -0.491208
0.286960 -0.386023 0.220210
0.286960 -0.275417 -0.402939
0.286960 -0.488163 0.076157
0.286960 -0.415213 -0.187433
0.286960 -0.490389 0.079041
0.286960 0.465854 0.162135
0.286960 -0.463062 0.125558
0.286960 0.147758 0.444609
0.286960 -0.228217 0.413116
0.286960 0.463626 -0.122517
0.286960 -0.336824 0.338854
0.286960 -0.270411 0.357672
0.286960 -0.338428 0.346816
0.286960 0.488040 -0.099139
0.286960 0.406588 -0.281577
0.286960 0.256138 0.373219
0.286960 -0.088278 -0.476221
0.286960 0.465973 0.073455
0.286960 0.451320 -0.141381
0.286960 0.478364 0.116955
0.286960 -0.317321 -0.357199
0.286960 0.099617 -0.473570
0.286960 0.354582 -0.319588
0.286960 -0.454151 0.061829
0.286960 0.082290 -0.454301
0.286960 -0.343444 -0.328655
0.286960 0.446955 0.175207
0.286960 0.187342 0.454651
0.286960 -0.261790 -0.364257
0.286960 -0.452571 -0.187568
0.286960 -0.473874 0.143786
0.286960 -0.350336 0.275089
0.286960 0.313565 -0.363110
0.286960 0.085352 0.487585
0.286960 -0.478461 0.103095
0.286960 0.206353 -0.424170
0.286960 0.437026 0.165948
0.286960 0.481809 -0.099609
0.286960 0.489699 -0.028096
0.286960 0.109914 -0.487206
0.286960 0.419304 -0.162208
0.286960 0.220065 -0.435865
0.286960 -0.400082 -0.277782
0.286960 -0.324766 -0.370887
0.286960 -0.164301 -0.440438
0.286960 -0.260693 -0.389818
0.286960 0.034734 0.461419
0.286960 0.444787 -0.039153
0.286960 0.057741 -0.468596
0.286960 0.175162 -0.436173
0.286960 -0.448184 0.098777
0.286960 -0.429044 0.234396
0.286960 0.302018 0.338020
0.286960 0.479456 -0.137551
0.286960 0.048308 0.459223
0.286960 0.471541 -0.007475
0.286960 -0.094463 0.453361
0.286960 0.232155 -0.391731
0.286960 -0.263293 0.379995
0.286960 0.282601 0.361446
0.286960 0.336980 -0.357565
0.286960 -0.440147 0.160074
0.286960 0.180231 -0.458177
0.286960 0.409892 0.273221
0.286960 -0.260992 -0.424490
0.286960 0.381524 -0.248000
0.286960 0.495838 -0.036685
0.286960 -0.090595 -0.490598
0.286960 0.483775 -0.120434
0.286960 -0.451800 0.055894
0.286960 0.080125 -0.447743
0.286960 -0.080501 0.450140
0.286960 -0.255340 -0.427347
0.286960 -0.462718 0.129336
0.286960 -0.227622 0.391331
0.286960 -0.462798 -0.095255
0.286960 0.396250 -0.304093
0.286960 0.451359 -0.034718
0.286960 0.456307 -0.114032
0.286960 -0.288859 0.393288
0.286960 -0.238098 0.395050
0.286960 -0.347889 -0.357395
0.286960 0.251374 0.391325
0.286960 0.445835 0.024474
0.286960 -0.423964 0.252440
0.286960 -0.347100 0.339822
0.286960 0.445446 0.181319
0.286960 -0.416468 -0.211261
0.286960 0.456168 -0.194356
0.286960 -0.449794 0.038660
0.286960 -0.071282 0.481296
0.286960 -0.112265 0.450022
0.286960 0.337692 -0.337458
0.286960 -0.287010 0.396177
0.286960 -0.363609 -0.282293
0.286960 0.085383 -0.439670
0.286960 0.084362 0.440981
0.286960 -0.374159 0.297063
0.286960 0.409725 -0.249208
0.286960 0.105793 -0.447047
0.286960 -0.448155 -0.060446
0.286960 0.099122 0.476393
0.286960 0.471883 -0.013840
0.286960 -0.411363 -0.191543
0.286960 -0.269900 -0.358239
0.286960 0.486693 0.088357
0.286960 0.334376 -0.307953
0.286960 -0.054724 0.442043
0.286960 0.463940 0.039854
0.286960 -0.472086 -0.090736
0.286960 0.036918 -0.494513
0.286960 -0.005706 -0.464487
0.286960 0.236648 0.428696
0.286960 0.112436 -0.477896
0.286960 -0.305376 -0.335026
0.286960 -0.377736 -0.242116
0.286960 0.064113 0.468382
0.286960 -0.076643 0.478640
0.286960 0.276806 0.372461
0.286960 -0.005085 0.492332
0.286960 -0.419890 0.174100
0.286960 0.225411 -0.413888
0.286960 -0.487377 -0.024996
0.286960 0.473020 0.055210
0.286960 0.353505 -0.280822
0.286960 0.106961 -0.481319
0.286960 -0.411714 0.224937
0.286960 -0.437804 0.222138
0.286960 -0.111625 -0.438255
0.286960 0.164856 -0.457590
0.286960 0.064991 0.491244
0.286960 -0.428751 0.203088
0.286960 -0.213697 -0.403385
0.286960 -0.448909 -0.026893
0.286960 -0.193951 0.429704
0.286960 0.241501 -0.424981
0.286960 0.482148 0.063960
0.286960 -0.050361 -0.471766
0.286960 -0.126288 0.459019
0.286960 0.101723 0.467843
0.286960 0.276809 -0.414738
0.286960 -0.346076 0.279764
0.286960 -0.464069 -0.147237
0.286960 0.438371 -0.106234
0.286960 0.396586 0.273668
0.286960 -0.243574 -0.420698
0.286960 -0.461873 -0.104715
0.286960 -0.384489 0.313264
0.286960 -0.382961 0.266727
0.286960 0.380647 0.257331
0.286960 0.437300 0.087469
0.286960 -0.448372 -0.072487
0.286960 0.476899 -0.001770
0.286960 0.407323 0.223946
0.286960 -0.439214 -0.136757
0.286960 0.466928 0.027979
0.286960 -0.203068 -0.410359
0.286960 -0.463938 -0.062094
0.286960 -0.138611 -0.457213
0.286960 0.361911 0.276915
0.286960 -0.472043 -0.007333
0.286960 -0.423581 0.165354
0.286960 -0.477041 -0.003797
0.286960 -0.035386 0.483273
0.286960 0.450568 -0.013617
0.286960 0.176038 0.409390
0.286960 -0.251246 0.365574
0.286960 -0.474327 0.040937
0.286960 0.473405 0.105692
0.286960 0.350196 -0.282436
0.286960 -0.265726 -0.395089
0.286960 -0.307250 -0.375636
0.286960 -0.371212 0.288667
0.286960 -0.092566 0.440144
0.286960 -0.493004 -0.013567
0.286960 -0.006955 -0.449524
0.286960 -0.231979 -0.437928
0.286960 0.186089 0.430898
0.286960 -0.438373 0.199360
0.286960 0.256602 -0.405069
0.286960 0.028088 0.473745
0.286960 0.218831 -0.449627
0.286960 -0.434192 -0.105599
0.286960 -0.227657 0.416326
