-0.290288 -0.010370 0.467141
-0.290288 -0.275409 -0.408864
-0.290288 0.382692 -0.255584
-0.290288 0.075062 0.436882
-0.290288 -0.399217 -0.234851
-0.290288 0.308992 0.345461
-0.290288 0.430233 -0.182112
-0.290288 -0.241750 -0.403158
-0.290288 0.101640 0.464447
-0.290288 0.379015 0.239432
-0.290288 -0.456414 0.003241
-0.290288 -0.361479 -0.300117
-0.290288 -0.361471 0.316456
-0.290288 -0.445515 0.083066
-0.290288 -0.373891 -0.251099
-0.290288 0.238448 0.399507
-0.290288 -0.411708 -0.228290
-0.290288 -0.077727 0.441714
-0.290288 0.070414 -0.495028
-0.290288 -0.226386 0.407174
-0.290288 -0.395092 0.266632
-0.290288 -0.199231 0.453742
-0.290288 -0.283913 0.379831
-0.290288 0.113486 -0.480546
-0.290288 0.281457 0.343443
-0.290288 0.014562 -0.476287
-0.290288 0.160051 0.436267
-0.290288 -0.191400 -0.452797
-0.290288 0.211022 -0.420938
-0.290288 -0.486261 0.004659
-0.290288 0.183333 -0.423900
-0.290288 -0.059967 -0.470150
-0.290288 -0.406270 0.259538
-0.290288 -0.000107 0.450739
-0.290288 0.330075 -0.346031
-0.290288 -0.199810 -0.401565
-0.290288 0.154703 0.435206
-0.290288 0.461988 0.133782
-0.290288 0.002739 0.474902
-0.290288 0.430801 -0.221765
-0.290288 0.062362 0.464834
-0.290288 0.400413 -0.278782
-0.290288 0.468328 -0.152979
-0.290288 -0.430051 -0.123263
-0.290288 -0.315962 0.323544
-0.290288 -0.145922 -0.422976
-0.290288 -0.130780 -0.441678
-0.290288 -0.249548 0.406619
-0.290288 -0.436523 0.160957
-0.290288 0.476268 0.031649
-0.290288 0.084918 0.458787
-0.290288 0.086223 0.470530
-0.290288 -0.351892 -0.293649
-0.290288 0.150286 -0.444477
-0.290288 -0.480786 0.121515
-0.290288 -0.432660 0.196162
-0.290288 -0.434422 -0.098231
-0.290288 -0.445177 -0.158586
-0.290288 0.425861 0.148113
-0.290288 0.419364 0.246787
-0.290288 0.435545 0.190029
-0.290288 0.456811 -0.103000
-0.290288 0.465206 0.134586
-0.290288 0.451688 -0.013897
-0.290288 -0.316820 -0.319099
-0.290288 -0.328162 0.329399
-0.290288 0.349263 0.274946
-0.290288 0.316640 0.340771
-0.290288 0.094734 -0.437579
-0.290288 0.474178 0.028642
-0.290288 -0.456363 -0.163206
-0.290288 -0.267139 -0.378163
-0.290288 0.182016 0.426089
-0.290288 0.406025 -0.203098
-0.290288 -0.124040 -0.431500
-0.290288 0.486656 0.029385
-0.290288 0.409364 0.222579
-0.290288 0.270215 -0.413764
-0.290288 -0.205814 0.451041
-0.290288 -0.070547 -0.463223
-0.290288 -0.059844 0.457672
-0.290288 0.474257 0.011645
-0.290288 -0.456603 0.033803
-0.290288 -0.240999 0.425927
-0.290288 -0.330555 -0.301239
-0.290288 -0.120538 0.435453
-0.290288 0.374068 0.265983
-0.290288 -0.170310 0.451269
-0.290288 0.138777 0.427604
-0.290288 0.469558 0.126306
-0.290288 0.428005 0.214656
-0.290288 -0.473226 -0.112480
-0.290288 -0.474255 0.107589
-0.290288 0.470310 0.107981
-0.290288 -0.473975 0.087987
-0.290288 -0.239109 0.430180
-0.290288 0.273238 -0.396974
-0.290288 0.469260 0.140514
-0.290288 0.350313 0.335275
-0.290288 -0.473016 0.020183
-0.290288 -0.299306 -0.338646
-0.290288 -0.406782 0.219279
-0.290288 -0.185302 -0.416330
-0.290288 0.383905 -0.262549
-0.290288 0.222071 0.421317
-0.290288 -0.204716 -0.446255
-0.290288 0.360613 -0.327506
-0.290288 0.473288 0.147885
-0.290288 0.391015 0.251132
-0.290288 -0.059502 0.453475
-0.290288 -0.489935 -0.048953
-0.290288 0.169460 -0.447352
-0.290288 -0.332131 -0.353947
-0.290288 0.274590 -0.403098
-0.290288 -0.413024 -0.176866
-0.290288 0.222581 0.390700
-0.290288 -0.456501 0.091659
-0.290288 0.371558 0.244310
-0.290288 0.457508 -0.157005
-0.290288 -0.245767 0.370436
-0.290288 -0.160254 -0.442148
-0.290288 -0.417852 0.245164
-0.290288 0.427084 0.185397
-0.290288 0.413065 0.241411
-0.290288 -0.321946 0.376626
-0.290288 0.127450 0.476685
-0.290288 0.107969 -0.434619
-0.290288 0.317525 0.355789
-0.290288 0.205940 0.430727
-0.290288 0.196026 -0.414675
-0.290288 0.027691 0.487526
-0.290288 0.358591 0.322042
-0.290288 -0.117230 0.435617
-0.290288 -0.453908 0.011721
-0.290288 -0.223801 -0.441707
-0.290288 0.367292 -0.323978
-0.290288 0.278976 -0.349809
-0.290288 0.259793 0.388064
-0.290288 -0.080422 0.453014
-0.290288 0.081572 -0.465086
-0.290288 0.475144 -0.075229
-0.290288 0.073728 -0.459279
-0.290288 0.458726 -0.163716
-0.290288 0.339683 -0.337399
-0.290288 -0.321306 -0.333704
-0.290288 -0.429002 -0.205312
-0.290288 0.142519 -0.457684
-0.290288 -0.400266 0.277020
-0.290288 -0.079127 -0.448230
-0.290288 -0.176947 -0.431713
-0.290288 -0.111209 -0.438445
-0.290288 -0.459529 -0.026186
-0.290288 -0.279769 -0.410654
-0.290288 -0.076098 0.452457
-0.290288 0.168681 0.423163
-0.290288 -0.011249 -0.495612
-0.290288 0.120255 -0.478901
-0.290288 0.193498 0.440225
-0.290288 -0.113731 0.467366
-0.290288 -0.472500 -0.048162
-0.290288 -0.089740 -0.477452
-0.290288 0.424644 0.231255
-0.290288 0.400903 0.201246
-0.290288 0.362131 0.300044
-0.290288 -0.176305 0.456381
-0.290288 0.366477 -0.300593
-0.290288 -0.229179 0.414427
-0.290288 -0.457035 0.049826
-0.290288 0.201774 0.411171
-0.290288 0.408037 0.197149
-0.290288 -0.394569 -0.239654
-0.290288 0.468837 -0.007421
-0.290288 -0.443019 0.224201
-0.290288 0.373743 0.290798
-0.290288 -0.073535 -0.461711
-0.290288 -0.376483 0.256247
-0.290288 0.456894 -0.090177
-0.290288 -0.048319 0.458062
-0.290288 -0.149259 0.453565
-0.290288 0.070133 -0.491868
-0.290288 -0.281008 -0.380213
-0.290288 -0.065181 0.478890
-0.290288 0.284614 -0.402919
-0.290288 0.361976 0.315391
-0.290288 0.102552 -0.442290
-0.290288 -0.394448 0.296360
-0.290288 -0.203874 -0.416146
-0.290288 0.061620 0.460172
-0.290288 -0.084638 0.459733
-0.290288 0.307918 0.333516
-0.290288 0.343461 -0.358545
-0.290288 0.021121 -0.499648
-0.290288 -0.425444 0.187674
-0.290288 -0.305678 0.350302
-0.290288 0.184457 0.455604
-0.290288 -0.083047 -0.486116
-0.290288 0.466476 -0.051696
-0.290288 0.342178 0.284494
-0.290288 -0.056371 -0.495595
-0.290288 0.418190 -0.200633
-0.290288 -0.113817 0.446264
-0.290288 -0.448098 -0.047448
-0.290288 -0.409411 0.249399
-0.290288 -0.354214 0.323266
-0.290288 -0.480260 -0.049869
-0.290288 -0.407763 0.230413
-0.290288 0.221196 -0.388996
-0.290288 0.419959 -0.247804
-0.290288 -0.384275 -0.281929
-0.290288 -0.472327 0.069265
-0.290288 0.028373 0.455088
-0.290288 -0.009883 -0.485442
-0.290288 -0.252702 0.375856
-0.290288 0.177676 0.406967
-0.290288 -0.454026 0.152704
-0.290288 0.435350 -0.157412
-0.290288 0.455907 -0.189604
-0.290288 0.309645 -0.378516
-0.290288 0.112361 0.482704
-0.290288 0.146875 0.451986
-0.290288 -0.207118 -0.452885
-0.290288 0.395599 0.213407
-0.290288 -0.225241 0.414804
-0.290288 0.398116 -0.281532
-0.290288 0.380636 0.277318
-0.290288 0.440855 -0.069458
-0.290288 -0.442519 0.191820
-0.290288 -0.464312 -0.054039
-0.290288 -0.495623 -0.035064
-0.290288 0.333502 0.300631
-0.290288 0.252063 -0.427503
-0.290288 0.074860 -0.466830
-0.290288 0.320598 0.362808
-0.290288 0.321233 -0.346700
-0.290288 -0.267454 0.367176
-0.290288 -0.306734 -0.357461
-0.290288 0.156762 -0.449173
-0.290288 0.414495 0.162903
-0.290288 -0.454627 -0.024917
-0.290288 0.430248 -0.235708
-0.290288 0.109344 0.451945
-0.290288 0.168117 -0.469683
-0.290288 -0.109408 0.433909
-0.290288 -0.301014 -0.384349
-0.290288 0.475906 -0.121305
-0.290288 0.445375 0.023438
-0.290288 0.284018 0.391617
-0.290288 0.415193 -0.175135
-0.290288 0.477220 0.101762
-0.290288 -0.322495 -0.356904
-0.290288 0.481716 0.045713
-0.290288 -0.088103 -0.446451
-0.290288 0.418149 -0.165575
-0.290288 0.428355 -0.165133
-0.290288 -0.247123 -0.377196
-0.290288 -0.174616 -0.434200
-0.290288 0.442367 0.054497
-0.290288 0.033103 -0.454372
-0.290288 -0.144037 -0.468414
-0.290288 -0.468837 0.029903
-0.290288 0.462594 -0.133956
-0.290288 0.357885 0.304739
-0.290288 -0.312113 -0.354028
-0.290288 -0.431043 -0.113661
-0.290288 0.035021 0.457276
-0.290288 0.100051 -0.457586
-0.290288 -0.370392 -0.265733
-0.290288 -0.261420 0.364771
-0.290288 -0.177979 -0.456693
-0.290288 0.362286 0.277503
-0.290288 0.044022 0.447669
-0.290288 0.455896 0.009951
-0.290288 0.434815 0.209147
-0.290288 0.223288 -0.396814
-0.290288 -0.433572 0.176635
-0.290288 -0.115726 0.427685
-0.290288 0.470374 0.037363
-0.290288 -0.495031 -0.011422
-0.290288 -0.098503 0.480831
-0.290288 0.203323 0.403520
-0.290288 0.043587 0.485327
-0.290288 0.113843 -0.486582
-0.290288 0.402387 -0.249550
-0.290288 -0.391954 -0.272661
-0.290288 0.011618 -0.485391
-0.290288 -0.381039 -0.251721
-0.290288 -0.473907 -0.010200
-0.290288 -0.441272 -0.193462
-0.290288 -0.476560 -0.064089
-0.290288 0.298159 -0.367927
-0.290288 -0.376939 0.276248
-0.290288 -0.325125 0.358683
-0.290288 0.274694 -0.406858
-0.290288 -0.405928 0.272809
-0.290288 0.484582 -0.023972
-0.290288 0.442390 0.146131
-0.290288 0.127716 0.467744
-0.290288 0.071214 -0.473838
-0.290288 -0.447510 -0.092327
-0.290288 0.103148 -0.481881
-0.290288 -0.227030 -0.392240
-0.290288 -0.122327 -0.451297
-0.290288 0.325382 -0.316948
-0.290288 0.439305 -0.113515
-0.290288 0.432020 0.205643
-0.290288 -0.048069 0.492914
-0.290288 0.313164 0.356389
-0.290288 -0.395436 0.270364
-0.290288 -0.242228 -0.424807
-0.290288 0.460055 -0.038847
-0.290288 -0.289524 -0.403839
-0.290288 -0.399793 -0.290393
-0.290288 0.174714 0.447219
-0.290288 -0.345883 0.345041
-0.290288 0.309986 0.349917
-0.290288 -0.016804 -0.488300
-0.290288 0.486267 -0.078976
-0.290288 0.071738 -0.456380
-0.290288 -0.034013 -0.471983
-0.290288 0.153104 -0.438234
-0.290288 -0.392805 -0.283309
-0.290288 -0.222719 -0.410148
-0.290288 0.479245 0.004864
-0.290288 0.379564 -0.325323
-0.290288 -0.371582 0.308238
-0.290288 0.091903 0.451366
-0.290288 0.388223 0.272417
-0.290288 -0.194728 0.404257
-0.290288 0.170800 0.452303
-0.290288 -0.450350 0.023154
-0.290288 0.283448 0.396845
-0.290288 0.367314 -0.272087
-0.290288 -0.248229 0.373493
-0.290288 0.344020 0.293945
-0.290288 -0.357929 -0.301856
-0.290288 0.253747 -0.392224
-0.290288 -0.341958 -0.287398
-0.290288 -0.035230 0.490833
-0.290288 0.090248 0.443613
-0.290288 0.194301 -0.420181
-0.290288 0.235445 -0.384414
-0.290288 -0.445207 0.087421
-0.290288 -0.102291 0.453636
-0.290288 -0.478814 -0.113018
-0.290288 -0.328633 0.359547
-0.290288 0.227034 -0.407674
-0.290288 -0.028316 0.460489
-0.290288 -0.372418 -0.287599
-0.290288 -0.126908 0.473305
-0.290288 0.237504 0.391094
-0.290288 0.450835 -0.136544
-0.290288 -0.357532 0.263186
-0.290288 0.056518 0.474494
-0.290288 0.186179 -0.437854
-0.290288 0.267072 0.382739
-0.290288 -0.454658 0.052153
-0.290288 0.460274 0.030015
-0.290288 0.066189 -0.466295
-0.290288 -0.203524 -0.436215
-0.290288 0.285306 0.383829
-0.290288 -0.476915 -0.131591
-0.290288 0.185381 0.438578
-0.290288 -0.107671 -0.480311
-0.290288 -0.475279 -0.094122
-0.290288 -0.464862 0.133434
-0.290288 -0.345694 -0.340308
-0.290288 -0.396100 -0.232519
-0.290288 -0.166041 -0.458833
-0.290288 0.111224 -0.462807
-0.290288 -0.424375 -0.190441
-0.290288 -0.466918 0.057168
-0.290288 0.023092 0.478077
-0.290288 0.338611 -0.357247
-0.290288 0.477919 0.134707
-0.290288 -0.079417 -0.472925
-0.290288 -0.456937 -0.075517
-0.290288 0.293711 0.384326
-0.290288 0.453689 0.149499
-0.290288 -0.131543 -0.481447
-0.290288 -0.261872 -0.421287
-0.290288 -0.071617 -0.489437
-0.290288 0.134691 0.472501
-0.290288 -0.322385 -0.326757
-0.290288 -0.407887 -0.272303
-0.290288 0.263019 -0.385986
-0.290288 -0.364813 -0.299302
-0.290288 0.206313 -0.453423
-0.290288 -0.166645 0.414652
-0.290288 -0.425120 0.177278
-0.290288 -0.016618 0.466365
-0.290288 0.298753 0.379561
-0.290288 0.325897 -0.355486
-0.290288 -0.455775 -0.089471
-0.290288 -0.179028 0.430443
-0.290288 0.478825 -0.039698
-0.290288 -0.465349 0.046941
-0.290288 0.330907 0.315142
-0.290288 -0.383373 -0.236527
-0.290288 0.043576 0.457322
-0.290288 -0.275157 -0.357968
-0.290288 0.319342 -0.343728
-0.290288 -0.201404 0.437354
-0.290288 -0.085369 0.463465
-0.290288 0.197250 -0.426395
-0.290288 0.464764 -0.109366
-0.290288 -0.414482 0.197268
-0.290288 0.461321 0.069657
-0.290288 -0.183744 0.428698
-0.290288 -0.346972 -0.334412
-0.290288 -0.153570 -0.448823
-0.290288 0.354946 0.301782
-0.290288 -0.445346 -0.079565
-0.290288 0.478466 0.043401
-0.290288 -0.480114 0.070370
-0.290288 0.186456 -0.421658
-0.290288 0.441377 -0.159052
-0.290288 0.491880 0.042404
-0.290288 -0.461890 -0.185994
-0.290288 0.450912 0.131866
-0.290288 -0.437878 0.083090
-0.290288 0.403080 -0.225493
-0.290288 -0.329575 0.299230
-0.290288 -0.417484 0.151911
-0.290288 0.446512 -0.184104
-0.290288 -0.366908 -0.302562
-0.290288 -0.435851 0.174281
-0.290288 0.370875 0.254805
-0.290288 -0.208196 0.391246
-0.290288 0.329096 -0.336245
-0.290288 -0.453390 0.130054
-0.290288 0.247599 0.371209
-0.290288 -0.365216 0.319110
-0.290288 0.290578 -0.352770
-0.290288 -0.362456 -0.273073
-0.290288 -0.113075 -0.475814
-0.290288 -0.394919 -0.302932
-0.290288 0.438812 -0.238081
-0.290288 -0.462061 -0.148210
-0.290288 -0.373470 0.275641
-0.290288 -0.234787 -0.403756
-0.290288 -0.047161 0.482630
-0.290288 -0.435293 -0.188442
-0.290288 0.272330 0.392055
-0.290288 -0.285588 0.397210
-0.290288 0.363640 0.260475
-0.290288 0.364365 -0.267158
-0.290288 -0.185841 -0.406705
-0.290288 -0.259811 0.394411
-0.290288 0.313864 -0.340147
-0.290288 0.033859 0.476274
-0.290288 0.427865 0.237239
-0.290288 -0.209322 -0.404846
-0.290288 -0.293803 0.354547
-0.290288 0.323965 0.315893
-0.290288 0.219947 0.425481
-0.290288 0.289534 0.386828
-0.290288 0.123562 -0.472876
-0.290288 0.464452 -0.157709
-0.290288 -0.390164 -0.268734
-0.290288 0.351109 0.292188
-0.290288 -0.124112 0.444705
-0.290288 0.024125 -0.474617
-0.290288 0.012773 -0.481496
-0.290288 -0.293334 0.376366
-0.290288 0.111745 -0.451288
-0.290288 0.029989 0.490715
-0.290288 0.404405 -0.207910
-0.290288 0.391562 -0.270030
-0.290288 0.087193 0.441601
-0.290288 0.448090 -0.211266
-0.290288 -0.093845 -0.449579
-0.290288 -0.303393 -0.359233
-0.290288 0.491078 0.081640
-0.290288 -0.402544 -0.245941
-0.290288 -0.191700 -0.426192
-0.290288 -0.300933 0.343877
-0.290288 0.166128 0.420329
-0.290288 0.405021 0.199353
-0.290288 0.267019 0.364600
-0.290288 -0.422353 0.165344
-0.290288 -0.455413 -0.007014
-0.290288 0.081425 0.463818
-0.290288 0.448538 0.070742
-0.290288 0.475976 0.118059
-0.290288 -0.423097 0.147553
-0.290288 0.130045 0.446299
-0.290288 -0.031299 -0.493903
-0.290288 0.454631 -0.052909
-0.290288 0.393282 0.290910
-0.290288 -0.465652 0.171150
-0.290288 -0.479133 -0.004950
-0.290288 0.238644 0.404625
-0.290288 0.030748 -0.489288
-0.290288 -0.411474 -0.180465
-0.290288 -0.487318 -0.059209
-0.290288 -0.176385 -0.444349
-0.290288 -0.473325 -0.070164
-0.290288 0.156827 0.414941
-0.290288 -0.473545 0.015316
-0.290288 -0.314657 0.320655
-0.290288 0.209088 0.428303
-0.290288 -0.206584 0.426532
-0.290288 -0.393430 -0.210166
-0.290288 0.376453 -0.318370
-0.290288 -0.328966 0.310564
-0.290288 -0.460987 0.078470
-0.290288 -0.045321 0.462586
-0.290288 -0.415964 0.265616
-0.290288 -0.108965 0.474219
-0.290288 -0.221294 0.387555
-0.290288 0.109222 0.471460
-0.290288 -0.397952 -0.217008
-0.290288 0.243808 0.393133
-0.290288 0.353651 0.279425
-0.290288 -0.401916 -0.267543
-0.290288 0.442811 0.224439
-0.290288 0.243504 -0.384098
-0.290288 0.484443 0.007362
-0.290288 -0.222795 0.441755
-0.290288 -0.005634 0.456847
-0.290288 0.386743 -0.236131
-0.290288 -0.380136 -0.312076
-0.290288 0.133299 -0.437710
-0.290288 0.496457 -0.038162
-0.290288 -0.343784 0.285960
-0.290288 -0.281461 0.347228
-0.290288 -0.364930 0.293278
-0.290288 0.218619 -0.412255
-0.290288 0.191816 -0.461877
-0.290288 -0.236296 0.431414
-0.290288 0.369976 -0.259564
-0.290288 0.061711 -0.443973
-0.290288 -0.460757 0.041114
-0.290288 0.238505 -0.428280
-0.290288 -0.473485 -0.040704
-0.290288 -0.185348 0.457732
-0.290288 0.079381 -0.487975
-0.290288 0.470300 0.061082
-0.290288 0.230793 -0.398053
-0.290288 0.358902 0.278135
-0.290288 -0.448369 -0.200105
-0.290288 0.485157 -0.070152
-0.290288 0.125404 0.454677
-0.290288 0.407975 0.213894
-0.290288 -0.234352 0.406004
-0.290288 -0.360973 0.326333
-0.290288 -0.462639 -0.102388
-0.290288 -0.422749 -0.246151
-0.290288 -0.156304 -0.440247
-0.290288 0.236308 0.394488
-0.290288 -0.397458 -0.268576
-0.290288 -0.032687 0.466155
-0.290288 0.408386 -0.224222
-0.290288 0.042783 0.488314
-0.290288 -0.106161 -0.435901
-0.290288 -0.240823 -0.397534
-0.290288 -0.447704 -0.037237
-0.290288 0.290380 0.335823
-0.290288 -0.343468 -0.313998
-0.290288 0.249722 0.380679
-0.290288 -0.096691 0.476743
-0.290288 -0.051665 0.483864
-0.290288 -0.214049 0.407926
-0.290288 -0.301249 0.389257
-0.290288 -0.436543 -0.127957
-0.290288 0.258264 0.382107
-0.290288 -0.036111 0.461981
-0.290288 -0.315793 -0.385616
-0.290288 -0.139074 -0.425452
-0.290288 0.451209 -0.032293
-0.290288 0.467342 -0.149591
-0.290288 -0.362313 0.323105
-0.290288 -0.463716 0.090460
-0.290288 0.403105 0.222329
-0.290288 0.353311 0.305714
-0.290288 -0.032969 0.482456
-0.290288 0.485753 0.064289
-0.290288 0.176452 -0.436893
-0.290288 -0.456448 -0.159684
-0.290288 0.099432 -0.470063
-0.290288 0.003093 0.447532
-0.290288 0.180584 0.461702
-0.290288 0.259039 -0.369204
-0.290288 0.076419 -0.457505
-0.290288 0.451126 -0.145310
-0.290288 -0.305549 0.360223
-0.290288 0.454171 0.026279
-0.290288 0.338379 -0.308825
-0.290288 -0.481443 0.014747
-0.290288 -0.024271 -0.497082
-0.290288 -0.461456 -0.067551
-0.290288 0.047501 -0.468979
-0.290288 -0.339207 0.315303
-0.290288 -0.476932 -0.073962
-0.290288 0.247280 -0.395045
-0.290288 0.462593 -0.148166
-0.290288 -0.430479 -0.116984
-0.290288 0.483742 0.107322
-0.290288 0.413792 0.177049
-0.290288 -0.094258 0.458492
-0.290288 0.332433 -0.370204
-0.290288 0.112583 0.443278
-0.290288 -0.009416 0.474860
-0.290288 0.316237 0.370396
-0.290288 -0.206499 -0.440505
-0.290288 0.312697 -0.384327
-0.290288 0.228843 -0.402693
-0.290288 -0.250117 -0.412429
-0.290288 -0.487097 -0.066340
-0.290288 0.423067 -0.226895
-0.290288 -0.403292 0.289054
-0.290288 0.454707 -0.119717
-0.290288 -0.218336 -0.417279
-0.290288 -0.449325 0.082353
-0.290288 -0.086950 0.479890
-0.290288 -0.368441 -0.257997
-0.290288 0.368838 0.257463
-0.290288 -0.451006 0.126696
-0.290288 -0.453247 -0.105808
-0.290288 -0.243844 0.391213
-0.290288 0.474240 0.095465
-0.290288 0.438172 0.135067
-0.290288 -0.098204 -0.466560
-0.290288 0.460510 -0.103801
-0.290288 -0.351016 -0.308255
-0.290288 0.036997 0.466588
-0.290288 0.154312 0.438263
-0.290288 -0.323807 0.321015
-0.290288 0.483785 -0.053384
-0.290288 0.486052 -0.045304
-0.290288 -0.360744 -0.317106
-0.290288 0.455276 0.030745
-0.290288 0.304823 -0.353897
-0.290288 -0.198529 -0.419724
-0.290288 -0.298541 -0.353432
-0.290288 -0.475995 -0.043352
-0.290288 0.466809 -0.176428
-0.290288 0.085735 0.438589
-0.290288 -0.458338 0.068191
-0.290288 -0.050355 0.449966
-0.290288 0.482063 -0.043814
-0.290288 -0.472300 0.051732
-0.290288 -0.277536 -0.371876
-0.290288 -0.458843 -0.088494
-0.290288 -0.346148 0.278717
-0.290288 0.472474 -0.007336
-0.290288 -0.403313 0.247527
-0.290288 -0.291468 0.386147
-0.290288 -0.269672 -0.393761
-0.290288 0.450931 -0.106277
-0.290288 0.407694 0.204737
-0.290288 -0.445882 0.216444
-0.290288 0.311624 0.316630
-0.290288 -0.288903 0.390350
-0.290288 -0.004004 -0.498147
-0.290288 0.056840 0.470318
-0.290288 -0.412704 0.258528
-0.290288 0.443822 0.174443
-0.290288 -0.134502 0.436719
-0.290288 -0.190133 -0.441879
-0.290288 0.462461 0.136995
-0.290288 0.441176 0.197569
-0.290288 -0.456975 -0.015677
-0.290288 -0.354249 -0.338637
-0.290288 -0.463512 0.014493
-0.290288 0.201489 -0.415516
-0.290288 0.096896 -0.467644
-0.290288 0.394325 0.274375
-0.290288 -0.028117 -0.498180
-0.290288 0.326317 0.301978
-0.290288 -0.127467 -0.480402
-0.290288 0.292489 0.369127
-0.290288 0.449995 0.106073
-0.290288 0.322257 0.345728
-0.290288 -0.382901 -0.294608
-0.290288 -0.368739 0.295441
-0.290288 0.493922 -0.051999
-0.290288 -0.456409 0.007039
-0.290288 0.016451 -0.468970
-0.290288 0.384695 0.295612
-0.290288 0.092797 -0.466439
-0.290288 -0.451596 0.112267
-0.290288 -0.318130 0.355217
-0.290288 0.275826 -0.392355
-0.290288 0.457592 0.087369
-0.290288 0.451417 -0.052139
-0.290288 0.468576 0.157888
-0.290288 0.394110 0.234769
-0.290288 -0.261022 -0.403712
-0.290288 0.414067 -0.187972
-0.290288 -0.136537 -0.473945
-0.290288 0.175074 0.408833
-0.290288 0.021404 -0.451981
-0.290288 -0.385052 0.237003
-0.290288 0.189730 0.404599
-0.290288 0.069974 -0.468522
-0.290288 0.017243 0.470089
-0.290288 -0.288538 0.342725
-0.290288 -0.449280 -0.004359
-0.290288 -0.037615 -0.449780
-0.290288 -0.139893 -0.479873
-0.290288 0.477256 0.058416
-0.290288 0.454562 0.173869
-0.290288 -0.447204 0.121000
-0.290288 0.211711 -0.398682
-0.290288 0.145535 -0.429510
-0.290288 0.068408 0.461681
-0.290288 0.371028 0.294950
-0.290288 -0.375475 0.286036
-0.290288 -0.294437 -0.382395
-0.290288 -0.068608 0.438298
-0.290288 0.095995 0.477689
-0.290288 -0.482117 -0.007504
-0.290288 -0.064878 -0.488010
-0.290288 0.294836 0.337010
-0.290288 0.449663 -0.169770
-0.290288 -0.365812 0.297490
-0.290288 0.408928 0.262826
-0.290288 -0.135677 -0.437633
-0.290288 -0.425090 0.163108
-0.290288 -0.427672 0.211110
-0.290288 0.247040 0.378330
-0.290288 0.159248 0.456816
-0.290288 0.214114 -0.441141
-0.290288 -0.379086 -0.291089
-0.290288 -0.458888 -0.052704
-0.290288 -0.411563 -0.193174
-0.290288 -0.335835 -0.309508
-0.290288 -0.066031 0.455285
-0.290288 0.097829 0.462129
-0.290288 -0.293259 -0.360541
-0.290288 -0.202940 0.444050
-0.290288 -0.432592 -0.138801
-0.290288 -0.154269 0.466367
-0.290288 -0.243019 -0.390753
-0.290288 0.200515 0.406439
-0.290288 -0.183321 0.436343
-0.290288 -0.396442 -0.255552
-0.290288 -0.200789 0.413608
-0.290288 0.400858 0.245145
-0.290288 0.370710 0.268816
-0.290288 0.091182 0.455008
-0.290288 -0.322515 0.351863
-0.290288 0.153159 0.417247
-0.290288 0.049563 -0.445645
-0.290288 0.262553 0.408775
-0.290288 -0.314492 -0.347179
-0.290288 -0.461642 -0.158964
-0.290288 -0.220857 -0.440266
-0.290288 -0.474745 -0.127234
-0.290288 -0.277800 0.362854
-0.290288 0.154121 -0.425901
-0.290288 0.446851 -0.035669
-0.290288 -0.180658 0.415330
-0.290288 -0.421138 0.262249
-0.290288 0.061715 -0.447855
-0.290288 0.297749 0.387624
-0.290288 0.197491 -0.401910
-0.290288 0.410389 0.265967
-0.290288 -0.100611 0.439955
-0.290288 -0.446369 0.029434
-0.290288 -0.053599 0.449527
-0.290288 -0.116560 0.478598
-0.290288 0.066240 0.466084
-0.290288 0.256552 -0.417267
-0.290288 0.264709 0.377736
-0.290288 -0.339201 0.360256
-0.290288 -0.358837 0.314071
-0.290288 0.454228 -0.204284
-0.290288 -0.169906 -0.414855
-0.290288 0.346986 -0.288712
-0.290288 0.350433 0.330864
-0.290288 -0.471193 0.147038
-0.290288 0.444036 -0.216983
-0.290288 0.260366 0.395765
-0.290288 0.131862 -0.470752
-0.290288 0.462748 0.044420
-0.290288 -0.417065 0.212800
-0.290288 0.387021 -0.263734
-0.290288 0.020082 0.445930
-0.290288 0.208404 0.418890
-0.290288 0.408464 -0.280577
-0.290288 -0.256267 -0.417822
-0.290288 0.120441 0.475625
-0.290288 -0.467091 0.024211
-0.290288 -0.446525 0.146949
-0.290288 -0.094276 -0.489337
-0.290288 -0.011724 -0.476200
-0.290288 0.198074 0.401552
-0.290288 -0.468100 0.145557
-0.290288 0.456215 -0.070946
-0.290288 -0.431823 0.173098
-0.290288 0.101076 0.460904
-0.290288 -0.470710 0.106306
-0.290288 0.422413 -0.250925
-0.290288 0.464128 -0.174058
-0.290288 0.414858 -0.237959
-0.290288 0.011061 0.448755
-0.290288 0.274521 0.379111
-0.290288 -0.375675 -0.313966
-0.290288 -0.218119 0.417369
-0.290288 -0.108581 0.468545
-0.290288 0.468613 -0.030496
-0.290288 -0.401066 -0.223939
-0.290288 0.215879 0.392305
-0.290288 -0.477725 0.053026
-0.290288 0.377111 0.314996
-0.290288 0.347118 0.308226
-0.290288 0.059109 -0.459174
-0.290288 0.083844 -0.489175
-0.290288 -0.121617 -0.483258
-0.290288 0.471784 -0.062566
-0.290288 0.305345 0.336869
-0.290288 0.343002 -0.310288
-0.290288 0.343367 0.355171
-0.290288 -0.103782 0.478944
-0.290288 -0.275954 0.348505
-0.290288 0.375424 0.287422
-0.290288 -0.190368 0.425989
-0.290288 -0.278249 -0.392026
-0.290288 -0.393235 -0.233769
-0.290288 0.310370 0.326235
-0.290288 0.325341 -0.340298
-0.290288 -0.466761 -0.014817
-0.290288 0.372594 0.306227
-0.290288 0.395757 -0.303287
-0.290288 0.035334 -0.456745
-0.290288 0.234615 0.422908
-0.290288 -0.435399 -0.231013
-0.290288 -0.036694 -0.457160
-0.290288 0.281081 0.352180
-0.290288 0.459779 -0.136483
-0.290288 0.278273 0.346352
-0.290288 -0.135552 -0.481055
-0.290288 -0.382070 0.235209
-0.290288 -0.490686 0.046878
-0.290288 0.451301 -0.010820
-0.290288 -0.448589 0.067940
-0.290288 0.118581 -0.448250
-0.290288 0.336826 0.334177
-0.290288 -0.295031 -0.378821
-0.290288 0.233061 0.377662
-0.290288 0.108199 0.466152
-0.290288 -0.113911 0.442397
-0.290288 -0.291109 0.370189
-0.290288 -0.293648 -0.364082
-0.290288 -0.140133 -0.439543
-0.290288 0.481379 -0.081959
-0.290288 0.404450 0.288852
-0.290288 0.080555 -0.482074
-0.290288 0.205580 -0.416871
-0.290288 0.460267 -0.078024
-0.290288 0.177461 -0.451147
-0.290288 0.176490 0.456442
-0.290288 -0.002165 -0.455593
-0.290288 -0.414990 0.247542
-0.290288 -0.222070 -0.423634
-0.290288 -0.087969 0.471074
-0.290288 0.300680 0.389436
-0.290288 0.337252 0.330583
-0.290288 0.202855 0.420482
-0.290288 0.264857 0.367957
-0.290288 0.481371 -0.012460
-0.290288 -0.334117 0.328088
-0.290288 0.333214 0.346024
-0.290288 -0.013629 -0.454521
-0.290288 0.165319 -0.429699
-0.290288 0.293367 0.396043
-0.290288 0.437088 0.181252
-0.290288 0.294478 0.380093
-0.290288 -0.472827 -0.132039
-0.290288 -0.076234 -0.472531
-0.290288 0.188563 -0.452546
-0.290288 0.157361 0.420405
-0.290288 0.073365 -0.491375
-0.290288 0.078888 0.466704
-0.290288 0.388469 0.235681
-0.290288 0.406875 0.217152
-0.290288 0.286537 -0.347159
-0.290288 0.152682 -0.470759
-0.290288 -0.365264 -0.339175
-0.290288 -0.231865 0.387927
-0.290288 -0.365867 0.328074
-0.290288 0.450799 -0.214774
-0.290288 -0.392048 -0.225374
-0.290288 -0.249692 0.387552
-0.290288 0.245785 -0.386850
-0.290288 -0.194421 -0.410058
-0.290288 -0.182992 -0.413752
-0.290288 0.433298 0.131724
-0.290288 0.304673 -0.376697
-0.290288 0.129004 -0.466115
-0.290288 -0.347648 0.303815
-0.290288 -0.315171 0.361766
-0.290288 -0.277237 0.373504
-0.290288 -0.450316 0.158839
-0.290288 0.048976 -0.489373
-0.290288 -0.454836 0.187150
-0.290288 -0.182471 0.412706
-0.290288 -0.492330 0.043756
-0.290288 0.318211 -0.338884
-0.290288 -0.149734 0.420708
-0.290288 -0.171971 0.461852
-0.290288 -0.456109 -0.060533
-0.290288 -0.414129 -0.219522
-0.290288 0.425624 -0.234586
-0.290288 0.334740 -0.357900
-0.290288 -0.467366 0.082013
-0.290288 -0.005882 -0.483287
-0.290288 0.456370 -0.061651
-0.290288 -0.433447 -0.209909
-0.290288 -0.263739 -0.411619
-0.290288 -0.486112 -0.048989
-0.290288 -0.023405 0.481673
-0.290288 -0.105181 -0.484173
-0.290288 0.355085 -0.295562
-0.290288 -0.071317 -0.442052
-0.290288 0.134213 0.450031
-0.290288 0.029367 0.494336
-0.290288 0.297091 -0.401061
-0.290288 -0.271589 -0.414159
-0.290288 0.266180 -0.390331
-0.290288 0.186526 -0.444767
-0.290288 0.186705 -0.416834
-0.290288 0.323505 0.359663
-0.290288 -0.228392 -0.437417
-0.290288 0.376760 -0.302915
-0.290288 0.200506 -0.435289
-0.290288 0.262240 0.420224
-0.290288 0.268836 -0.368469
-0.290288 -0.373093 -0.244894
-0.290288 -0.169100 0.460453
-0.290288 -0.416239 -0.213119
-0.290288 -0.427973 -0.134825
-0.290288 -0.048168 -0.462066
-0.290288 0.330824 0.303037
-0.290288 0.002596 -0.479102
-0.290288 0.043818 -0.466534
-0.290288 0.028713 -0.469211
-0.290288 -0.352402 0.299294
-0.290288 -0.143450 0.461132
-0.290288 -0.328001 0.347934
-0.290288 0.388822 -0.261225
-0.290288 0.065791 -0.470898
-0.290288 0.440306 -0.204048
-0.290288 -0.049909 0.464928
-0.290288 0.379670 -0.246085
-0.290288 0.257617 -0.382156
-0.290288 0.163318 -0.426920
-0.290288 0.425634 -0.208712
-0.290288 0.290725 0.398389
-0.290288 -0.354127 0.268594
-0.290288 -0.196830 -0.452440
-0.290288 -0.213743 -0.393390
-0.290288 0.401844 -0.282167
-0.290288 0.135614 -0.471085
-0.290288 0.331257 0.310025
-0.290288 0.432632 0.227520
-0.290288 -0.260031 0.374133
-0.290288 -0.224748 0.418158
-0.290288 0.219168 -0.445318
-0.290288 0.464928 0.039502
-0.290288 0.127186 0.436371
-0.290288 -0.442031 0.141435
-0.290288 -0.457952 0.152676
-0.290288 0.387911 0.250078
-0.290288 -0.387819 -0.258480
-0.290288 0.477731 -0.011021
-0.290288 0.490593 0.085390
-0.290288 0.301323 0.393941
-0.290288 -0.390740 -0.305112
-0.290288 0.221252 -0.414476
-0.290288 0.352725 -0.342076
-0.290288 0.425078 -0.201726
-0.290288 0.242212 0.421328
-0.290288 -0.370096 0.274709
-0.290288 -0.147875 0.430881
-0.290288 0.437313 -0.131954
-0.290288 0.366149 -0.280736
-0.290288 -0.361973 -0.295981
-0.290288 -0.347610 0.318191
-0.290288 -0.477669 0.056388
-0.290288 0.458198 -0.051432
-0.290288 -0.259510 0.367755
-0.290288 -0.007424 -0.498133
-0.290288 0.431220 0.214240
-0.290288 -0.395159 0.273783
-0.290288 -0.454333 0.094799
-0.290288 -0.061005 -0.495632
-0.290288 0.209781 -0.417813
-0.290288 -0.064644 0.472006
-0.290288 -0.279777 -0.402785
-0.290288 -0.222710 -0.413555
-0.290288 -0.382801 0.265207
-0.290288 0.488381 -0.068177
-0.290288 0.479673 -0.005645
-0.290288 -0.471135 -0.116997
-0.290288 -0.405832 -0.232672
-0.290288 -0.450568 0.175255
-0.290288 -0.456991 -0.189260
-0.290288 -0.447065 0.186804
-0.290288 0.037000 0.482629
-0.290288 0.402921 -0.197670
-0.290288 0.458651 -0.008236
-0.290288 0.172079 -0.468667
-0.290288 0.421308 0.193951
-0.290288 0.140176 0.435806
-0.290288 0.452041 0.057312
-0.290288 0.429486 0.117749
-0.290288 -0.444414 0.105049
-0.290288 -0.180389 -0.437839
-0.290288 -0.428623 0.171069
-0.290288 0.024204 -0.496077
-0.290288 0.175095 -0.466958
-0.290288 -0.188092 0.434773
-0.290288 -0.347247 -0.343727
-0.290288 0.018104 0.448998
-0.290288 0.434805 0.128103
-0.290288 0.045189 0.481947
-0.290288 -0.347523 -0.294855
-0.290288 -0.374565 -0.278790
-0.290288 0.450163 0.162982
-0.290288 -0.337737 -0.312545
-0.290288 0.314002 0.327105
-0.290288 -0.199253 -0.411608
-0.290288 0.193723 0.400444
-0.290288 0.467716 -0.143325
-0.290288 0.136857 0.445530
-0.290288 -0.039592 -0.459625
-0.290288 -0.290495 -0.350190
-0.290288 0.108628 0.444535
-0.290288 0.432881 0.110381
-0.290288 -0.151499 0.426326
-0.290288 0.422183 -0.213474
-0.290288 -0.261736 0.385678
-0.290288 0.417758 -0.179976
-0.290288 0.453942 0.003535
-0.290288 -0.436590 0.107710
-0.290288 0.491111 0.026126
-0.290288 0.034743 -0.460363
-0.290288 0.459246 0.004114
-0.290288 -0.465782 0.138031
-0.290288 -0.439960 -0.184983
-0.290288 -0.196095 -0.437087
-0.290288 -0.434066 0.158204
-0.290288 -0.296263 0.377499
-0.290288 -0.452591 -0.088493
-0.290288 0.226873 0.406642
-0.290288 -0.188789 0.453018
-0.290288 0.396528 -0.264396
-0.290288 -0.338209 -0.295802
-0.290288 0.170621 -0.434000
-0.290288 0.462707 -0.001433
-0.290288 -0.346961 -0.303241
-0.290288 -0.075356 0.489483
-0.290288 -0.195762 0.421562
-0.290288 -0.379005 0.284608
-0.290288 -0.468365 -0.018259
-0.290288 -0.071957 -0.466904
-0.290288 0.102835 -0.463197
-0.290288 0.437006 -0.096554
-0.290288 0.308527 0.383799
-0.290288 0.119125 -0.472777
-0.290288 0.458530 0.048174
-0.290288 0.155180 0.461046
-0.290288 0.141165 0.474423
-0.290288 0.125585 0.431209
-0.290288 0.321178 -0.360247
-0.290288 -0.287492 0.380116
-0.290288 -0.426657 -0.234690
-0.290288 -0.161637 -0.423774
-0.290288 -0.397578 0.237906
-0.290288 0.354837 -0.351384
-0.290288 0.378253 0.289503
-0.290288 -0.488597 0.012571
-0.290288 -0.420660 -0.183587
-0.290288 0.091071 -0.447888
-0.290288 0.416047 -0.209307
-0.290288 -0.306192 -0.347537
-0.290288 0.442607 -0.165369
-0.290288 -0.065479 -0.485000
-0.290288 -0.148845 -0.441118
-0.290288 -0.437952 -0.179457
-0.290288 -0.444159 0.194939
-0.290288 0.479881 -0.088644
-0.290288 -0.157741 0.447964
-0.290288 0.118669 0.471493
-0.290288 0.378766 0.293797
-0.290288 0.190499 0.437350
-0.290288 0.078639 -0.466660
-0.290288 -0.417510 0.209459
-0.290288 0.471415 0.133764
-0.290288 0.423375 0.227939
-0.290288 0.383525 0.235562
-0.290288 0.204318 0.437782
-0.290288 0.453215 0.071754
-0.290288 0.308815 -0.326831
-0.290288 0.007164 0.495262
-0.290288 0.054614 -0.491204
-0.290288 0.475790 0.104752
-0.290288 0.415728 -0.276130
-0.290288 -0.431719 -0.149606
-0.290288 -0.224433 0.422537
-0.290288 -0.457655 -0.192585
-0.290288 -0.467217 0.111453
-0.290288 0.448896 0.010570
-0.290288 -0.373108 0.243636
-0.290288 0.002997 0.486865
-0.290288 0.334775 -0.316387
-0.290288 -0.101289 -0.465778
-0.290288 -0.342563 0.346157
-0.290288 0.078893 -0.445212
-0.290288 0.280684 0.392101
-0.290288 -0.384570 -0.257020
-0.290288 -0.337507 0.343637
-0.290288 0.401608 -0.221234
-0.290288 -0.477652 0.027970
-0.290288 -0.279739 0.376572
-0.290288 0.205763 -0.413508
-0.290288 -0.497417 -0.006412
-0.290288 0.360900 0.290025
-0.290288 0.390917 0.223892
-0.290288 -0.271721 0.388879
-0.290288 0.344410 -0.316142
-0.290288 -0.416343 -0.190075
-0.290288 -0.099469 -0.438227
-0.290288 -0.464006 0.025903
-0.290288 0.386397 0.286642
-0.290288 0.334045 -0.320172
-0.290288 -0.253042 0.394961
-0.290288 -0.232991 -0.389746
-0.290288 0.168529 -0.458760
-0.290288 -0.455046 0.074703
-0.290288 0.099368 0.476691
-0.290288 0.428532 0.131074
-0.290288 0.355798 0.281846
-0.290288 0.149404 -0.458583
-0.290288 -0.425037 -0.186301
-0.290288 0.103966 0.440996
-0.290288 0.452343 0.134747
-0.290288 0.304339 0.332643
-0.290288 0.368975 -0.304012
-0.290288 -0.009424 0.463488
-0.290288 -0.194971 -0.417094
-0.290288 0.454998 0.068580
-0.290288 0.461578 -0.189009
-0.290288 -0.152027 -0.425705
-0.290288 -0.403879 0.282946
-0.290288 -0.187272 -0.440752
-0.290288 -0.463963 0.086163
-0.290288 -0.170528 -0.433995
-0.290288 0.363809 -0.325816
-0.290288 -0.467745 -0.021780
-0.290288 0.064578 -0.453334
-0.290288 -0.448292 -0.009781
-0.290288 0.424232 0.158079
-0.290288 -0.469552 -0.076606
-0.290288 -0.035021 -0.483476
-0.290288 -0.428730 -0.140412
-0.290288 -0.284142 0.349495
-0.290288 -0.321716 0.357396
-0.290288 0.411005 -0.240912
-0.290288 -0.182914 -0.409629
-0.290288 -0.071497 -0.483861
-0.290288 -0.058570 0.470383
-0.290288 -0.466754 0.119278
-0.290288 0.442316 -0.130631
-0.290288 -0.267696 -0.404009
-0.290288 -0.336323 0.356948
-0.290288 -0.230613 0.425058
-0.290288 0.032228 0.460346
-0.290288 -0.436874 -0.195670
-0.290288 -0.456759 0.183733
-0.290288 0.217745 0.400460
-0.290288 0.129969 -0.458720
-0.290288 -0.185175 0.452581
-0.290288 0.430513 -0.239104
-0.290288 -0.464505 -0.173054
-0.290288 -0.440364 -0.103336
-0.290288 -0.092904 0.443822
-0.290288 0.493911 -0.055131
-0.290288 0.469813 0.111917
-0.290288 0.452498 -0.190895
-0.290288 -0.460375 -0.057652
-0.290288 -0.441692 0.197429
-0.290288 -0.007699 -0.448433
-0.290288 -0.466397 -0.122730
-0.290288 0.220644 0.431467
-0.290288 -0.178686 0.412356
-0.290288 0.237513 0.418720
-0.290288 -0.418784 -0.180420
-0.290288 -0.479427 0.039871
-0.290288 0.290747 0.372626
-0.290288 -0.372827 -0.269805
-0.290288 0.392437 -0.239887
-0.290288 0.209807 0.399709
-0.290288 0.009726 0.482220
-0.290288 -0.348105 -0.288966
-0.290288 0.032585 -0.494163
-0.290288 -0.068383 -0.483763
-0.290288 0.096474 0.446847
-0.290288 0.487892 0.006231
-0.290288 0.468388 0.030674
-0.290288 0.174910 0.450486
-0.290288 0.087686 0.479057
-0.290288 -0.325252 0.363240
-0.290288 0.161450 0.454241
-0.290288 0.229124 0.414719
-0.290288 -0.377384 0.315772
-0.290288 -0.450066 0.196046
-0.290288 0.433191 0.231441
-0.290288 -0.321640 -0.367791
-0.290288 -0.386715 0.229513
-0.290288 -0.054261 0.487842
-0.290288 -0.360904 0.310621
-0.290288 -0.486462 0.101680
-0.290288 -0.159587 -0.438943
-0.290288 0.468231 0.009758
-0.290288 -0.187457 -0.456032
-0.290288 0.164114 0.435900
-0.290288 0.038065 -0.484470
-0.290288 0.028367 0.478191
-0.290288 0.043195 -0.453771
-0.290288 0.064498 -0.486651
-0.290288 -0.198244 0.424008
-0.290288 -0.124987 -0.448804
-0.290288 0.190664 0.407662
-0.290288 0.080572 -0.491337
-0.290288 0.138428 -0.432995
-0.290288 -0.240639 -0.411218
-0.290288 -0.403017 -0.197273
-0.290288 -0.466850 -0.065838
-0.290288 0.020812 -0.479167
-0.290288 0.004410 0.460821
-0.290288 -0.384174 0.271108
-0.290288 0.261944 -0.406923
-0.290288 0.399774 -0.285344
-0.290288 -0.426467 0.126740
-0.290288 -0.179836 0.437733
-0.290288 0.415875 -0.226674
-0.290288 -0.425617 -0.201896
-0.290288 0.357078 0.264831
-0.290288 0.038466 0.493232
-0.290288 -0.297698 0.381857
-0.290288 -0.446748 0.049083
-0.290288 -0.296107 -0.401714
-0.290288 0.150608 0.469435
-0.290288 -0.054839 0.470384
-0.290288 0.482005 -0.061865
-0.290288 0.034766 -0.476002
-0.290288 -0.266383 0.357132
-0.290288 -0.131866 0.442609
-0.290288 -0.135910 0.468919
-0.290288 -0.272877 -0.375350
-0.290288 0.123980 0.474444
-0.290288 -0.282137 -0.375375
-0.290288 -0.138722 -0.476753
-0.290288 0.322756 0.354891
-0.290288 0.241855 0.386605
-0.290288 0.394178 -0.217112
-0.290288 -0.044022 0.493262
-0.290288 -0.440863 0.058445
-0.290288 -0.297764 -0.333606
-0.290288 0.215016 -0.409555
-0.290288 0.414221 0.233168
-0.290288 -0.234371 0.422610
-0.290288 -0.221056 -0.447092
-0.290288 -0.312522 -0.375884
-0.290288 0.344288 -0.306777
-0.290288 -0.377798 -0.304715
-0.290288 0.448463 0.022171
-0.290288 -0.332226 0.322661
-0.290288 0.055016 0.479119
-0.290288 -0.441538 -0.189817
-0.290288 -0.447681 0.006355
-0.290288 -0.431391 0.188560
-0.290288 -0.184739 0.416697
-0.290288 0.404350 -0.245817
-0.290288 -0.364331 0.301062
-0.290288 0.233532 -0.440403
-0.290288 0.351780 0.344784
-0.290288 -0.494593 0.041561
-0.290288 -0.359444 0.292733
-0.290288 -0.107912 0.458308
-0.290288 -0.438165 -0.133662
-0.290288 -0.329098 0.370563
-0.290288 0.418776 -0.195586
-0.290288 0.315497 0.382757
-0.290288 0.474233 0.085878
-0.290288 -0.276461 0.357778
-0.290288 -0.428765 0.248760
-0.290288 -0.262224 0.399276
-0.290288 0.389038 -0.233945
-0.290288 -0.352044 0.287600
-0.290288 -0.403158 0.239562
-0.290288 0.403064 -0.260158
-0.290288 0.462990 0.019317
-0.290288 0.458958 -0.094000
-0.290288 -0.402793 0.225852
-0.290288 -0.421983 -0.195965
-0.290288 0.458221 0.170643
-0.290288 -0.427049 -0.224096
-0.290288 -0.405235 0.286344
-0.290288 0.413574 -0.258307
-0.290288 0.021409 0.486016
-0.290288 0.333637 0.336203
-0.290288 0.372569 -0.301469
-0.290288 0.311876 -0.375551
-0.290288 0.357157 0.336402
-0.290288 -0.004176 0.463544
-0.290288 0.012534 0.478915
-0.290288 0.125932 -0.429737
-0.290288 0.494089 -0.062902
-0.290288 0.010246 -0.467320
-0.290288 0.130719 -0.431716
-0.290288 -0.335865 -0.334787
-0.290288 -0.326600 0.332917
-0.290288 -0.465800 -0.085680
-0.290288 0.374541 0.274131
-0.290288 -0.081543 -0.466329
-0.290288 -0.355773 0.271840
-0.290288 -0.362173 -0.338860
-0.290288 0.109124 -0.458010
-0.290288 -0.464795 0.115141
-0.290288 -0.447351 -0.055651
-0.290288 -0.441219 -0.127465
-0.290288 -0.433729 -0.125154
-0.290288 -0.350067 0.291087
-0.290288 0.467573 -0.013797
-0.290288 0.389656 0.246556
-0.290288 -0.125106 -0.435316
-0.290288 0.159243 -0.469429
-0.290288 0.326449 0.351411
-0.290288 0.084482 -0.463683
-0.290288 -0.131750 -0.438125
-0.290288 0.487991 -0.086091
-0.290288 0.230252 0.406449
-0.290288 -0.062614 0.465689
-0.290288 -0.377347 0.299734
-0.290288 -0.472020 -0.007048
-0.290288 -0.312322 0.325449
-0.290288 -0.119588 0.427790
-0.290288 0.399419 -0.201822
-0.290288 -0.428840 -0.192378
-0.290288 0.249684 -0.392763
-0.290288 0.125393 0.461214
-0.290288 -0.411040 -0.173797
-0.290288 -0.419897 -0.191236
-0.290288 -0.351447 -0.340895
-0.290288 -0.461141 0.093740
-0.290288 0.332673 -0.348593
-0.290288 0.295356 -0.387655
-0.290288 -0.380928 -0.307369
-0.290288 0.280677 -0.353858
-0.290288 -0.334972 0.319870
-0.290288 -0.371651 0.253224
-0.290288 -0.316536 -0.363045
-0.290288 -0.419629 -0.261761
-0.290288 -0.482311 0.075162
-0.290288 -0.422201 0.155525
-0.290288 0.066444 0.458919
-0.290288 0.246656 -0.420760
-0.290288 0.464013 0.112649
-0.290288 -0.133061 -0.449379
-0.290288 -0.438457 0.116412
-0.290288 -0.090090 0.447886
-0.290288 0.423433 -0.158268
-0.290288 -0.155981 0.433891
-0.290288 -0.425986 0.250777
-0.290288 0.308553 -0.384391
-0.290288 -0.199246 0.404786
-0.290288 -0.367381 0.287231
-0.290288 -0.435285 -0.170913
-0.290288 -0.425157 0.191098
-0.290288 -0.227124 0.440349
-0.290288 -0.243999 -0.435032
-0.290288 -0.120913 -0.444116
-0.290288 -0.372891 -0.331520
-0.290288 0.410434 0.235971
-0.290288 -0.190829 -0.406370
-0.290288 0.425068 -0.254771
-0.290288 0.219313 -0.398645
-0.290288 0.443011 0.150750
-0.290288 -0.109538 0.455234
-0.290288 0.446038 0.060573
-0.290288 0.318480 -0.322863
-0.290288 0.392912 0.254481
-0.290288 0.350192 0.324875
-0.290288 0.247395 -0.415598
-0.290288 -0.276025 0.386768
-0.290288 -0.045731 0.489144
-0.290288 -0.491557 0.031871
-0.290288 -0.436446 0.145156
-0.290288 -0.454429 0.176036
-0.290288 0.398328 -0.267695
-0.290288 -0.209188 -0.443289
-0.290288 0.266227 -0.379659
-0.290288 -0.001304 -0.470904
-0.290288 0.209872 0.390968
-0.290288 -0.004608 -0.470967
-0.290288 0.381610 0.250232
-0.290288 0.494148 0.052378
-0.290288 0.435393 0.094443
-0.290288 -0.208841 0.401218
-0.290288 -0.303983 -0.337986
-0.290288 -0.253012 -0.415035
-0.290288 -0.462362 0.135796
-0.290288 -0.446236 -0.117734
-0.290288 0.164568 0.429977
-0.290288 0.205143 0.441903
-0.290288 -0.182873 0.448807
-0.290288 -0.448671 -0.079641
-0.290288 0.245019 -0.435248
-0.290288 -0.219856 0.399798
-0.290288 0.189699 -0.426972
-0.290288 -0.063254 -0.478917
-0.290288 -0.495959 0.011909
-0.290288 -0.295855 0.397938
-0.290288 -0.439653 0.217645
-0.290288 0.089556 0.438481
-0.290288 -0.273036 -0.416858
-0.290288 -0.219603 -0.432549
-0.290288 -0.471101 -0.128091
-0.290288 -0.355749 0.344610
-0.290288 -0.472426 0.062172
-0.290288 0.447879 -0.061700
-0.290288 -0.457654 0.081968
-0.290288 0.304444 0.352920
-0.290288 -0.453876 -0.206225
-0.290288 -0.315708 0.317326
-0.290288 -0.399577 -0.200123
-0.290288 0.419521 0.198079
-0.290288 0.238057 -0.424471
-0.290288 -0.308822 -0.351393
-0.290288 0.411796 -0.226492
-0.290288 0.359291 0.261997
-0.290288 0.184798 0.432138
-0.290288 0.282395 -0.369766
-0.290288 0.405525 -0.221160
-0.290288 -0.461449 -0.033343
-0.290288 -0.454574 -0.031856
-0.290288 0.085094 0.481734
-0.290288 0.467756 -0.033652
-0.290288 -0.178735 -0.460390
-0.290288 0.493750 0.039453
-0.290288 -0.438471 0.094180
-0.290288 -0.448194 -0.159622
-0.290288 -0.406956 0.251454
-0.290288 0.303526 -0.335159
-0.290288 -0.163957 0.440841
-0.290288 0.339070 -0.332867
-0.290288 -0.268111 -0.382191
-0.290288 0.127119 -0.436303
-0.290288 -0.142677 -0.434320
-0.290288 -0.399464 0.269636
-0.290288 -0.222192 -0.418267
-0.290288 0.487932 0.014298
-0.290288 -0.302611 -0.335089
-0.290288 0.359043 -0.347826
-0.290288 0.114576 -0.448140
-0.290288 -0.394691 -0.216574
-0.290288 -0.170295 -0.463333
-0.290288 -0.248035 0.394171
-0.290288 0.291820 0.345928
-0.290288 0.296642 -0.359221
-0.290288 0.154669 -0.473573
-0.290288 0.292637 0.392202
-0.290288 0.197445 -0.447451
-0.290288 0.378947 -0.265339
-0.290288 -0.165629 0.463026
-0.290288 0.210991 -0.405915
-0.290288 -0.459273 -0.095293
-0.290288 -0.016391 -0.498886
-0.290288 0.180607 0.413309
-0.290288 -0.437415 0.153738
-0.290288 0.133367 0.462002
-0.290288 -0.011944 0.490856
-0.290288 -0.242473 -0.417775
-0.290288 0.479722 0.080271
-0.290288 -0.324971 -0.312669
-0.290288 0.201275 -0.400856
-0.290288 -0.154598 -0.464433
-0.290288 -0.077987 -0.468965
-0.290288 0.117256 -0.432122
-0.290288 0.486355 0.104965
-0.290288 -0.477251 0.087256
-0.290288 0.482200 0.015172
-0.290288 -0.259351 0.418363
-0.290288 -0.215922 0.411747
-0.290288 0.435113 -0.203736
-0.290288 0.258604 0.399865
-0.290288 0.249830 0.405577
-0.290288 0.224652 0.404099
-0.290288 0.433332 -0.243827
-0.290288 -0.237598 -0.395474
-0.290288 -0.449371 -0.122025
-0.290288 -0.459449 0.108286
-0.290288 -0.424424 -0.193770
-0.290288 0.437341 -0.185992
-0.290288 -0.272611 -0.407478
-0.290288 -0.007365 0.447325
-0.290288 -0.337394 -0.362989
-0.290288 0.270687 0.402445
-0.290288 0.191177 -0.430964
-0.290288 0.286521 0.363399
-0.290288 0.241124 -0.437283
-0.290288 -0.460971 0.180691
-0.290288 0.156942 -0.456324
-0.290288 -0.448543 0.085828
-0.290288 0.052788 -0.463294
-0.290288 0.017960 0.483967
-0.290288 -0.417083 0.250357
-0.290288 -0.102844 -0.462446
-0.290288 0.392834 0.287562
-0.290288 -0.487019 0.020069
-0.290288 -0.443754 -0.211669
-0.290288 -0.421093 -0.146192
-0.290288 0.245490 0.403044
-0.290288 -0.384176 -0.243910
-0.290288 0.417385 -0.240442
-0.290288 0.457659 0.162479
-0.290288 0.466331 0.042830
-0.290288 0.469791 -0.046603
-0.290288 -0.278627 0.390489
-0.290288 -0.011829 -0.467513
-0.290288 0.071694 -0.452852
-0.290288 0.454666 -0.023440
-0.290288 0.436093 0.110612
-0.290288 0.051162 0.460243
-0.290288 -0.233389 -0.431516
-0.290288 0.497427 -0.002393
-0.290288 0.268021 -0.410174
-0.290288 0.453024 -0.042138
-0.290288 0.078759 0.489583
-0.290288 -0.147313 0.417851
-0.290288 0.471990 -0.160757
-0.290288 -0.408107 -0.285745
-0.290288 -0.360118 -0.292977
-0.290288 0.464344 0.153224
-0.290288 -0.021078 0.462568
-0.290288 0.373366 0.262795
-0.290288 0.331354 -0.334159
-0.290288 0.401641 -0.213032
-0.290288 0.276907 -0.409368
-0.290288 -0.252503 0.407808
-0.290288 -0.453298 -0.043498
-0.290288 0.373011 -0.255629
-0.290288 0.413566 -0.191970
-0.290288 0.476477 0.082406
-0.290288 -0.389221 -0.290267
-0.290288 -0.070199 0.468382
-0.290288 -0.296829 0.335072
-0.290288 -0.462460 0.007971
-0.290288 0.184148 0.445331
-0.290288 0.456319 -0.055577
-0.290288 0.189700 -0.448310
-0.290288 -0.041110 0.459988
-0.290288 0.435635 -0.221071
-0.290288 0.390776 0.261715
-0.290288 -0.396191 -0.213073
-0.290288 0.007393 -0.459652
-0.290288 -0.444108 -0.102332
-0.290288 0.406028 0.268610
-0.290288 -0.205013 -0.427962
-0.290288 0.017473 -0.492559
-0.290288 0.482480 -0.003134
-0.290288 0.449223 0.083730
-0.290288 -0.002560 0.443848
-0.290288 -0.211668 0.404313
-0.290288 -0.216633 -0.394656
-0.290288 -0.179347 -0.452669
-0.290288 -0.139124 -0.455501
-0.290288 0.471488 0.047485
-0.290288 0.440799 -0.121040
-0.290288 -0.456150 0.168234
-0.290288 0.437557 0.236462
-0.290288 0.390479 -0.291132
-0.290288 -0.333312 0.300626
-0.290288 0.203983 -0.407021
-0.290288 -0.087206 0.467443
-0.290288 0.183405 -0.427625
-0.290288 0.414560 -0.166490
-0.290288 0.477073 -0.067321
-0.290288 -0.472404 0.029115
-0.290288 -0.469672 -0.060162
-0.290288 0.464200 -0.128727
-0.290288 0.470870 0.005149
-0.290288 -0.471066 0.091377
-0.290288 0.370907 -0.329229
-0.290288 -0.388171 0.236047
-0.290288 0.227460 0.437337
-0.290288 -0.073970 0.484729
-0.290288 0.401693 0.197562
-0.290288 -0.356103 -0.293145
-0.290288 -0.115745 -0.453327
-0.290288 0.134064 -0.445846
-0.290288 0.201748 0.423881
-0.290288 0.064734 0.453394
-0.290288 0.180073 -0.409967
-0.290288 0.066109 -0.490225
-0.290288 0.285209 -0.385624
-0.290288 -0.444251 -0.026317
-0.290288 -0.424618 -0.164074
-0.290288 0.252145 -0.385804
-0.290288 0.462380 -0.019845
-0.290288 -0.075741 -0.479894
-0.290288 -0.333484 0.336418
-0.290288 -0.246166 -0.429371
-0.290288 -0.387193 0.218382
-0.290288 -0.227969 0.419054
-0.290288 0.233639 -0.389021
-0.290288 0.497090 0.019640
-0.290288 -0.474979 -0.123168
-0.290288 -0.247171 -0.433657
-0.290288 0.444195 0.092458
-0.290288 -0.381814 0.254622
-0.290288 0.423371 0.246387
-0.290288 0.409950 0.270777
-0.290288 0.400263 -0.270481
-0.290288 -0.001272 -0.481345
-0.290288 0.045383 0.474332
-0.290288 -0.278522 0.353738
-0.290288 -0.246830 -0.403223
-0.290288 -0.468765 -0.079800
-0.290288 -0.157431 0.420019
-0.290288 -0.427036 0.183902
-0.290288 -0.477052 0.110133
-0.290288 -0.464240 -0.127565
-0.290288 -0.420101 0.247687
-0.290288 0.058733 -0.465499
-0.290288 0.174052 -0.439213
-0.290288 0.040975 -0.471960
-0.290288 -0.116011 -0.470690
-0.290288 0.015642 -0.485105
-0.290288 -0.434707 0.186166
-0.290288 -0.443945 -0.032344
-0.290288 0.267302 0.393508
-0.290288 0.488383 0.034254
-0.290288 0.249762 0.374994
-0.290288 0.488816 0.093488
-0.290288 -0.159728 0.456190
-0.290288 0.443534 -0.203115
-0.290288 0.460642 0.074322
-0.290288 -0.463116 -0.123597
-0.290288 -0.476367 0.060185
-0.290288 -0.476108 0.121576
-0.290288 -0.054502 -0.482126
-0.290288 -0.415354 0.215840
-0.290288 0.083774 0.453148
-0.290288 0.159416 -0.461244
-0.290288 0.290098 0.376716
-0.290288 -0.434503 -0.111209
-0.290288 0.258056 -0.397858
-0.290288 0.270859 -0.384373
-0.290288 0.219217 0.393999
