0.286960 -0.347509 0.280454
0.286960 -0.458430 -0.108958
0.286960 -0.359283 0.290594
0.286960 -0.402839 -0.191333
0.286960 -0.287809 0.367345
0.286960 -0.167651 0.425322
0.286960 -0.274218 0.401034
0.286960 -0.047494 0.487307
0.286960 -0.310079 -0.374827
0.286960 -0.264527 0.364504
0.286960 -0.328934 -0.315794
0.286960 -0.405877 0.259643
0.286960 -0.346621 -0.338918
0.286960 0.291023 -0.358326
0.286960 -0.308530 0.358913
0.286960 0.298271 0.336980
0.286960 -0.185961 -0.456420
0.286960 -0.349006 0.291905
0.286960 -0.003887 -0.483202
0.286960 -0.145118 -0.464249
0.286960 -0.382649 0.282835
0.286960 -0.172308 -0.467771
0.286960 -0.154100 -0.431567
0.286960 0.184778 -0.440030
0.286960 0.448193 -0.060983
0.286960 -0.429095 -0.245646
0.286960 -0.091585 -0.438041
0.286960 0.101894 -0.461904
0.286960 -0.493414 0.039445
0.286960 -0.344150 -0.303590
0.286960 0.486536 -0.108537
0.286960 0.348884 -0.298502
0.286960 -0.353619 -0.289743
0.286960 0.446199 0.104242
0.286960 0.074267 0.470025
0.286960 -0.285518 0.374978
0.286960 0.389785 -0.252071
0.286960 0.162944 0.438541
0.286960 -0.027472 0.475840
0.286960 -0.126354 -0.468983
0.286960 0.434202 0.107099
0.286960 0.352740 -0.351868
0.286960 -0.079589 0.485904
0.286960 0.453053 -0.185838
0.286960 -0.062439 0.478851
0.286960 -0.180893 0.408598
0.286960 0.301543 0.389687
0.286960 0.097556 0.485943
0.286960 0.221466 -0.411667
0.286960 0.300047 0.346614
0.286960 -0.253296 0.374600
0.286960 0.169207 -0.448622
0.286960 0.447109 0.153566
0.286960 -0.419441 0.159323
0.286960 0.277310 -0.373785
0.286960 0.265651 -0.405969
0.286960 -0.427650 -0.188269
0.286960 -0.082358 0.454531
0.286960 -0.458731 -0.026706
0.286960 0.031433 0.479025
0.286960 -0.454941 0.123603
0.286960 -0.026831 0.464940
0.286960 -0.399919 -0.207588
0.286960 0.423554 -0.264510
0.286960 0.440547 -0.075261
0.286960 0.360896 0.304801
0.286960 -0.222386 0.387166
0.286960 -0.186296 0.459261
0.286960 -0.123064 -0.451456
0.286960 0.373515 0.278218
0.286960 -0.030553 -0.468624
0.286960 0.228278 0.408079
0.286960 -0.390601 0.223499
0.286960 0.378113 0.314087
0.286960 -0.361764 0.272609
0.286960 -0.449729 0.185923
0.286960 -0.435835 -0.169126
0.286960 -0.430166 -0.218007
0.286960 0.283135 -0.369777
0.286960 0.398966 0.282258
0.286960 0.310702 -0.351907
0.286960 0.161667 -0.444575
0.286960 0.314064 -0.380090
0.286960 0.253434 0.364572
0.286960 -0.426242 -0.129774
0.286960 0.381930 0.250624
0.286960 -0.084582 -0.455249
0.286960 -0.195105 -0.445526
0.286960 0.496053 0.007001
0.286960 -0.440135 -0.079424
0.286960 -0.096006 -0.471030
0.286960 0.467201 -0.008756
0.286960 0.257138 -0.387286
0.286960 0.244446 -0.423160
0.286960 -0.374373 0.290678
0.286960 0.388350 0.238218
0.286960 0.481780 0.030639
0.286960 -0.465259 -0.001905
0.286960 0.056555 0.477040
0.286960 -0.389062 0.237720
0.286960 0.318320 0.346240
0.286960 -0.381143 -0.257895
0.286960 -0.468931 -0.137671
0.286960 0.149726 -0.462887
0.286960 -0.439246 -0.118328
0.286960 0.332521 0.352006
0.286960 0.299385 -0.364054
0.286960 0.207271 -0.425890
0.286960 0.165567 0.411719
0.286960 0.258597 0.393760
0.286960 -0.243492 0.405488
0.286960 0.429977 -0.172897
0.286960 0.431177 -0.129848
0.286960 0.052229 0.465741
0.286960 0.120091 0.465260
0.286960 -0.139202 -0.473019
0.286960 -0.193668 0.450985
0.286960 -0.466461 0.082584
0.286960 -0.485995 0.005247
0.286960 -0.353002 -0.273172
0.286960 0.314748 0.339160
0.286960 -0.334542 0.334435
0.286960 -0.467192 0.037606
0.286960 -0.321550 -0.362599
0.286960 -0.341846 0.329203
0.286960 0.453579 -0.191813
0.286960 -0.143687 0.429572
0.286960 -0.013844 -0.481646
0.286960 -0.319580 0.307485
0.286960 -0.379921 -0.319140
0.286960 -0.262493 0.414455
0.286960 -0.378964 -0.299610
0.286960 -0.133046 -0.428384
0.286960 0.466132 -0.118899
0.286960 -0.468501 0.041410
0.286960 0.109407 0.477538
0.286960 0.434779 0.097204
0.286960 -0.196407 0.412639
0.286960 -0.196829 0.402055
0.286960 -0.292291 -0.375933
0.286960 -0.307946 0.324009
0.286960 -0.010655 0.486980
0.286960 -0.096410 -0.441867
0.286960 -0.401924 0.291109
0.286960 0.363270 0.307868
0.286960 0.318814 0.365045
0.286960 -0.433536 0.166790
0.286960 -0.467268 -0.052296
0.286960 0.005840 0.490526
0.286960 0.353780 -0.312277
0.286960 0.170823 0.421421
0.286960 -0.025562 0.494068
0.286960 -0.041119 0.449574
0.286960 -0.478294 -0.081301
0.286960 -0.488067 0.053725
0.286960 -0.207543 -0.397986
0.286960 -0.427920 -0.208858
0.286960 0.441231 0.097785
0.286960 0.397318 0.233568
0.286960 0.010879 -0.489936
0.286960 -0.329106 -0.358342
0.286960 0.445795 -0.025335
0.286960 0.489888 -0.047735
0.286960 -0.223727 0.431049
0.286960 -0.475346 0.136665
0.286960 -0.232186 0.434081
0.286960 -0.270828 -0.370302
0.286960 0.465384 -0.103355
0.286960 -0.409337 0.226456
0.286960 0.160166 -0.441322
0.286960 -0.274452 0.363260
0.286960 -0.337313 -0.302305
0.286960 0.120952 -0.449340
0.286960 -0.449402 0.001778
0.286960 0.365122 0.323825
0.286960 -0.051553 0.462287
0.286960 -0.037164 0.483535
0.286960 -0.249633 0.414837
0.286960 -0.210492 0.417849
0.286960 0.421653 0.239038
0.286960 0.060990 -0.495980
0.286960 -0.481686 -0.082989
0.286960 -0.027946 -0.493416
0.286960 -0.033807 -0.469198
0.286960 -0.396659 0.273143
0.286960 -0.446696 -0.056879
0.286960 -0.020514 -0.448470
0.286960 0.005726 -0.484180
0.286960 -0.482567 0.030995
0.286960 -0.496136 -0.030638
0.286960 0.480597 0.005665
0.286960 0.432493 0.212559
0.286960 0.252250 -0.396496
0.286960 -0.445917 0.161000
0.286960 -0.452531 -0.121729
0.286960 0.447803 0.177638
0.286960 0.366591 0.284535
0.286960 -0.098505 0.442980
0.286960 0.226706 -0.386328
0.286960 0.366786 0.257565
0.286960 -0.365865 0.288022
0.286960 -0.344189 0.343121
0.286960 -0.238972 -0.419454
0.286960 0.359463 0.283125
0.286960 -0.295572 0.397226
0.286960 -0.404853 0.183404
0.286960 -0.408530 0.205596
0.286960 0.397851 -0.213835
0.286960 0.085921 -0.450438
0.286960 0.024967 -0.468924
0.286960 0.090772 0.452724
0.286960 0.433743 -0.135386
0.286960 -0.371762 0.322618
0.286960 0.025053 -0.472508
0.286960 0.327760 -0.340687
0.286960 0.068971 -0.490389
0.286960 -0.261592 -0.390401
0.286960 -0.311421 0.362968
0.286960 0.328341 -0.344738
0.286960 -0.104074 -0.442359
0.286960 0.446844 -0.120111
0.286960 -0.416671 -0.182773
0.286960 -0.470817 -0.007760
0.286960 -0.450414 -0.084412
0.286960 -0.131965 -0.444409
0.286960 -0.462002 -0.106194
0.286960 -0.039077 -0.448363
0.286960 0.339682 -0.354303
0.286960 -0.034712 0.443514
0.286960 0.027501 0.459202
0.286960 0.441341 -0.174484
0.286960 0.084523 0.460108
0.286960 -0.296223 0.340455
0.286960 0.212982 0.436142
0.286960 0.296159 0.388383
0.286960 0.466448 -0.147892
0.286960 -0.040924 -0.477232
0.286960 0.443162 0.168974
0.286960 -0.210384 0.397885
0.286960 -0.349460 -0.336800
0.286960 -0.291535 0.365245
0.286960 0.452056 0.080231
0.286960 -0.250531 0.382207
0.286960 0.435197 0.163158
0.286960 0.295412 0.360158
0.286960 0.087107 0.478623
0.286960 -0.296957 -0.368425
0.286960 0.470819 0.139140
0.286960 -0.362803 0.268698
0.286960 -0.374310 0.238573
0.286960 -0.032077 -0.449557
0.286960 0.110734 0.470911
0.286960 -0.445013 0.168646
0.286960 0.169410 -0.424344
0.286960 0.100733 0.480533
0.286960 -0.414900 -0.167750
0.286960 0.477626 -0.140132
0.286960 -0.307476 0.368122
0.286960 0.432294 0.119898
0.286960 -0.124602 -0.472658
0.286960 -0.360010 -0.307563
0.286960 0.450501 0.143273
0.286960 -0.170988 0.465278
0.286960 -0.389957 -0.272920
0.286960 -0.110048 0.429517
0.286960 -0.268369 -0.405347
0.286960 -0.212546 -0.423981
0.286960 0.372619 -0.320673
0.286960 -0.347614 0.344015
0.286960 -0.095315 0.457499
0.286960 -0.088232 0.469602
0.286960 0.075183 -0.465605
0.286960 0.485036 -0.027579
0.286960 -0.444516 -0.026813
0.286960 -0.385158 -0.226409
0.286960 0.310531 0.375065
0.286960 -0.030657 -0.495002
0.286960 -0.403582 0.195098
0.286960 -0.253609 0.383935
0.286960 0.009436 -0.499699
0.286960 -0.300456 0.359678
0.286960 0.409133 -0.187905
0.286960 -0.477522 -0.025795
0.286960 -0.032195 -0.462485
0.286960 -0.392423 0.215519
0.286960 -0.236698 0.421909
0.286960 -0.455888 0.005668
0.286960 -0.237513 0.435326
0.286960 0.169658 0.431371
0.286960 0.491357 0.076734
0.286960 -0.199578 -0.411984
0.286960 -0.167975 0.414300
0.286960 -0.456690 0.029206
0.286960 0.491465 -0.021618
0.286960 -0.488021 -0.028747
0.286960 0.350607 0.350294
0.286960 -0.275184 -0.357538
0.286960 -0.205468 -0.414628
0.286960 -0.386860 -0.315077
0.286960 0.257671 -0.366174
0.286960 0.227008 0.440641
0.286960 0.082793 0.464445
0.286960 -0.279396 -0.404416
0.286960 0.239867 -0.435002
0.286960 -0.379861 0.285976
0.286960 -0.124106 0.439364
0.286960 -0.470504 0.083563
0.286960 -0.084815 0.447729
0.286960 0.276803 0.405523
0.286960 0.014330 -0.475124
0.286960 0.369428 -0.272549
0.286960 -0.043106 -0.487555
0.286960 0.047655 -0.486874
0.286960 -0.369123 0.279796
0.286960 -0.457906 -0.072344
0.286960 0.184072 -0.447463
0.286960 0.192287 0.441948
0.286960 -0.146249 0.436058
0.286960 0.084466 0.467167
0.286960 0.238747 0.424852
0.286960 -0.306338 -0.393582
0.286960 0.465712 -0.018874
0.286960 -0.441731 0.052012
0.286960 0.450647 0.195461
0.286960 0.140086 -0.470201
0.286960 0.328595 0.312953
0.286960 0.032096 0.493544
0.286960 -0.465976 0.073566
0.286960 0.437215 -0.136123
0.286960 0.465220 -0.025911
0.286960 0.191950 0.422380
0.286960 -0.274165 0.397651
0.286960 0.462664 -0.163027
0.286960 0.363287 0.302036
0.286960 -0.453354 -0.191954
0.286960 0.454077 -0.117629
0.286960 0.350314 0.324943
0.286960 0.324318 -0.332880
0.286960 -0.016234 -0.471892
0.286960 0.483914 0.022382
0.286960 0.100598 -0.485700
0.286960 -0.366368 0.330530
0.286960 0.321936 -0.335760
0.286960 -0.423061 0.187193
0.286960 -0.243769 0.395873
0.286960 0.004297 0.452736
0.286960 -0.298997 -0.338263
0.286960 0.489160 0.087948
0.286960 0.317490 0.369543
0.286960 -0.454776 -0.136057
0.286960 -0.413086 0.197213
0.286960 0.138797 0.439704
0.286960 -0.095023 0.453744
0.286960 -0.445042 -0.007714
0.286960 -0.218389 0.422890
0.286960 0.397835 -0.208015
0.286960 0.424618 -0.161275
0.286960 0.109204 0.465817
0.286960 -0.334378 -0.368723
0.286960 -0.174786 0.453394
0.286960 0.058159 -0.468745
0.286960 -0.454265 0.008866
0.286960 -0.001922 -0.447652
0.286960 0.150002 -0.452975
0.286960 -0.276390 -0.375159
0.286960 -0.471822 -0.069686
0.286960 0.196850 -0.424069
0.286960 -0.396265 0.203799
0.286960 -0.247688 -0.427325
0.286960 -0.338753 -0.346595
0.286960 -0.415805 0.251441
0.286960 0.407767 -0.249081
0.286960 -0.170246 -0.445507
0.286960 0.302972 -0.396611
0.286960 0.232480 -0.393970
0.286960 0.091699 -0.446131
0.286960 0.402552 0.282259
0.286960 0.438470 0.235006
0.286960 -0.495409 -0.040218
0.286960 -0.465103 -0.120530
0.286960 -0.457427 0.118292
0.286960 -0.450657 0.193621
0.286960 -0.322808 0.338717
0.286960 0.137775 -0.460621
0.286960 -0.434653 0.140691
0.286960 -0.441725 0.112680
0.286960 0.355984 -0.297059
0.286960 0.360722 -0.299589
0.286960 -0.365093 0.334133
0.286960 0.239565 -0.416278
0.286960 -0.355871 -0.283927
0.286960 -0.381397 0.317261
0.286960 0.485364 -0.052919
0.286960 -0.436579 0.145384
0.286960 0.467079 0.068972
0.286960 -0.449390 0.053299
0.286960 0.261502 -0.371049
0.286960 -0.229154 0.399139
0.286960 0.434700 0.147968
0.286960 -0.020500 -0.451855
0.286960 0.089021 -0.466762
0.286960 -0.238711 -0.407274
0.286960 0.141572 -0.448444
0.286960 -0.324996 0.342001
0.286960 0.347182 -0.329530
0.286960 -0.018009 0.488542
0.286960 -0.391544 0.262166
0.286960 0.492984 0.044927
0.286960 -0.475247 -0.053847
0.286960 -0.127345 -0.482627
0.286960 0.394789 0.239672
0.286960 -0.485869 -0.009797
0.286960 -0.247446 0.393496
0.286960 0.228937 0.430564
0.286960 0.382403 0.304456
0.286960 0.323106 0.317729
0.286960 -0.225593 0.421450
0.286960 0.078356 0.462498
0.286960 -0.381158 0.295876
0.286960 -0.445367 0.138014
0.286960 0.407189 0.259557
0.286960 -0.449534 0.017329
0.286960 0.492549 0.004464
0.286960 0.208041 0.441288
0.286960 -0.159033 0.422256
0.286960 -0.024666 0.480173
0.286960 0.452160 0.162068
0.286960 0.126581 -0.441514
0.286960 0.384032 -0.268629
0.286960 0.176572 -0.444388
0.286960 -0.452728 -0.091566
0.286960 0.077824 -0.477065
0.286960 -0.168849 0.453376
0.286960 -0.121631 -0.471002
0.286960 0.213745 -0.427761
0.286960 -0.346535 -0.329687
0.286960 0.444417 -0.219553
0.286960 0.112789 -0.452110
0.286960 0.197421 0.422062
0.286960 -0.378174 0.232386
0.286960 -0.448024 -0.060089
0.286960 -0.298948 -0.353007
0.286960 -0.479912 -0.054668
0.286960 -0.395015 0.261554
0.286960 0.427561 0.221709
0.286960 -0.480907 0.051692
0.286960 0.145731 -0.448515
0.286960 0.072893 0.448639
0.286960 0.063694 0.461022
0.286960 -0.088273 0.458758
0.286960 -0.452885 -0.020091
0.286960 -0.446387 -0.211548
0.286960 0.473140 -0.122885
0.286960 -0.458078 0.073076
0.286960 0.465133 0.039391
0.286960 0.403113 0.208993
0.286960 -0.440577 0.121575
0.286960 -0.472135 0.069535
0.286960 -0.271598 0.392383
0.286960 -0.456855 -0.018789
0.286960 -0.389431 0.307285
0.286960 -0.136540 -0.427814
0.286960 -0.465190 0.153492
0.286960 -0.278401 -0.349355
0.286960 0.430434 -0.159190
0.286960 0.118723 0.432884
0.286960 0.033217 -0.454868
0.286960 0.119504 0.478293
0.286960 -0.407309 -0.246579
0.286960 -0.181223 -0.417579
0.286960 -0.439009 0.101122
0.286960 0.007129 -0.452923
0.286960 0.262315 -0.400146
0.286960 0.482543 0.066341
0.286960 0.378488 0.241289
0.286960 0.328593 0.372137
0.286960 -0.447875 0.020486
0.286960 0.096727 0.432573
0.286960 0.359191 -0.327722
0.286960 -0.462127 -0.112277
0.286960 -0.378538 -0.269682
0.286960 0.411161 -0.277188
0.286960 -0.091697 0.485238
0.286960 0.354243 -0.273323
0.286960 -0.410943 -0.246839
0.286960 0.303322 0.380825
0.286960 -0.218211 -0.423238
0.286960 -0.299656 -0.384059
0.286960 0.041815 -0.466729
0.286960 0.460554 0.144113
0.286960 -0.424542 0.239834
0.286960 -0.170218 -0.432804
0.286960 0.096961 0.465242
0.286960 -0.178200 -0.427094
0.286960 -0.266227 -0.399475
0.286960 -0.130392 0.440722
0.286960 0.308773 0.339786
0.286960 -0.412797 0.219597
0.286960 0.273635 0.358736
0.286960 0.042833 -0.475049
0.286960 0.478804 0.043099
0.286960 0.255419 0.411275
0.286960 0.389687 -0.239264
0.286960 -0.091550 0.466471
0.286960 0.092135 0.441774
0.286960 -0.479649 -0.074576
0.286960 -0.299764 0.327428
0.286960 -0.271875 -0.392171
0.286960 -0.058364 0.451281
0.286960 0.170975 0.445816
0.286960 0.060487 0.452804
0.286960 -0.054681 0.445161
0.286960 0.052086 0.473921
0.286960 0.240223 0.394102
0.286960 0.437172 -0.103529
0.286960 0.136514 -0.463908
0.286960 0.376025 0.274336
0.286960 0.024152 -0.476157
0.286960 -0.131025 0.448933
0.286960 -0.107175 -0.469880
0.286960 0.417072 0.167111
0.286960 0.335449 -0.331658
0.286960 0.366086 0.264971
0.286960 -0.113147 -0.447376
0.286960 0.281997 0.396483
0.286960 -0.403694 -0.206000
0.286960 -0.163090 -0.456641
0.286960 -0.285906 -0.383315
0.286960 -0.472760 0.150165
0.286960 -0.366952 -0.296747
0.286960 0.439917 -0.105637
0.286960 -0.176191 -0.443191
0.286960 -0.424188 0.215746
0.286960 0.259814 0.422370
0.286960 0.303765 -0.334034
0.286960 0.341811 -0.340190
0.286960 0.455727 -0.178355
0.286960 0.215194 -0.421505
0.286960 0.187260 -0.410190
0.286960 -0.249183 -0.380285
0.286960 0.420223 0.228386
0.286960 0.474344 -0.107248
0.286960 0.457060 0.106977
0.286960 0.099319 -0.453908
0.286960 0.229094 0.400591
0.286960 0.490914 0.065656
0.286960 0.284019 0.360139
0.286960 -0.180628 0.433673
0.286960 0.313768 -0.373515
0.286960 -0.289387 -0.383261
0.286960 -0.452274 -0.106357
0.286960 0.215030 0.433492
0.286960 0.293825 0.390479
0.286960 -0.155610 0.423256
0.286960 0.115639 -0.473582
0.286960 -0.473052 0.066343
0.286960 0.247071 -0.413392
0.286960 -0.190055 0.440638
0.286960 0.308887 0.329620
0.286960 -0.250698 -0.418096
0.286960 0.128692 -0.430069
0.286960 0.124953 0.471623
0.286960 -0.331197 0.369137
0.286960 -0.040921 0.442129
0.286960 -0.455914 0.108487
0.286960 -0.396420 -0.257496
0.286960 -0.463625 0.005806
0.286960 0.479660 -0.136549
0.286960 0.400717 0.197429
0.286960 -0.397024 -0.241104
0.286960 -0.160092 -0.472953
0.286960 0.465116 -0.001680
0.286960 0.095239 -0.470699
0.286960 -0.487355 -0.020873
0.286960 -0.226056 0.381200
0.286960 -0.049945 -0.468626
0.286960 -0.493602 -0.043052
0.286960 -0.375818 -0.247905
0.286960 -0.371442 -0.277316
0.286960 0.444617 -0.216413
0.286960 -0.466802 0.091596
0.286960 0.360619 0.329580
0.286960 -0.003524 0.449777
0.286960 -0.386973 -0.308591
0.286960 0.443956 -0.124101
0.286960 -0.418462 0.179029
0.286960 -0.467976 0.139052
0.286960 0.261758 -0.385760
0.286960 0.461312 0.164728
0.286960 0.407327 0.231799
0.286960 -0.446477 -0.113671
0.286960 0.243032 -0.426533
0.286960 0.028723 0.494797
0.286960 -0.453249 -0.163603
0.286960 0.342821 0.324400
0.286960 0.162087 0.430247
0.286960 0.079093 -0.485689
0.286960 -0.306946 -0.354667
0.286960 0.449191 -0.149321
0.286960 -0.447537 -0.081402
0.286960 0.481562 -0.083638
0.286960 -0.466775 0.142022
0.286960 -0.393470 0.231166
0.286960 -0.396847 0.266157
0.286960 0.300314 -0.367387
0.286960 -0.180816 -0.457322
0.286960 0.367434 -0.324326
0.286960 -0.430263 0.203220
0.286960 -0.410729 0.170116
0.286960 -0.123937 0.462908
0.286960 -0.064005 -0.460679
0.286960 -0.460544 -0.085499
0.286960 0.100977 -0.481798
0.286960 0.469785 0.057397
0.286960 0.428499 -0.233793
0.286960 -0.289774 0.353655
0.286960 0.285912 -0.377413
0.286960 -0.478942 0.131316
0.286960 0.004720 0.463046
0.286960 -0.449470 0.030069
0.286960 0.489271 0.036451
0.286960 -0.224975 0.416302
0.286960 -0.428333 0.119051
0.286960 -0.072868 -0.483774
0.286960 -0.113387 -0.476066
0.286960 -0.132896 -0.479197
0.286960 -0.068464 -0.456390
0.286960 0.090425 0.476858
0.286960 0.447979 0.035914
0.286960 -0.464931 -0.137563
0.286960 -0.279441 -0.373069
0.286960 -0.130030 0.474398
0.286960 0.389750 -0.298986
0.286960 -0.324593 0.345230
0.286960 -0.485914 -0.086293
0.286960 -0.459088 0.032238
0.286960 -0.447258 0.178619
0.286960 -0.088673 -0.476210
0.286960 0.394924 -0.283267
0.286960 -0.130191 0.452404
0.286960 0.477573 0.003506
0.286960 0.459846 0.024325
0.286960 0.315682 -0.383558
0.286960 0.273839 0.404174
0.286960 -0.164351 -0.453669
0.286960 0.375996 0.290723
0.286960 -0.055024 0.476366
0.286960 0.476042 -0.068077
0.286960 0.464832 -0.090544
0.286960 -0.375607 0.321168
0.286960 -0.412154 0.172798
0.286960 -0.457437 -0.175298
0.286960 0.259298 -0.405286
0.286960 -0.277443 -0.370254
0.286960 0.378399 0.271638
0.286960 -0.148201 -0.473970
0.286960 -0.059818 -0.488365
0.286960 -0.442032 -0.156802
0.286960 0.356955 0.298913
0.286960 -0.114906 0.446307
0.286960 -0.393348 0.285922
0.286960 0.446187 -0.002208
0.286960 -0.069473 0.439613
0.286960 -0.193359 0.403544
0.286960 0.418814 0.255174
0.286960 0.089032 -0.463159
0.286960 0.444553 -0.163370
0.286960 -0.166846 -0.423610
0.286960 0.343810 0.318148
0.286960 0.100655 0.440119
0.286960 0.357926 -0.312852
0.286960 -0.151290 -0.450084
0.286960 0.380006 -0.262977
0.286960 0.168081 -0.444482
0.286960 0.474614 0.002210
0.286960 0.180489 0.461949
0.286960 0.496851 0.025337
0.286960 0.162619 0.434813
0.286960 0.437780 -0.157490
0.286960 -0.413500 0.192125
0.286960 -0.346769 0.336694
0.286960 -0.162475 0.466743
0.286960 -0.303313 -0.381368
0.286960 -0.310687 -0.331749
0.286960 0.243706 0.414366
0.286960 -0.391821 -0.291761
0.286960 0.221899 -0.438793
0.286960 0.350476 0.320132
0.286960 0.449806 0.123473
0.286960 -0.417694 0.262606
0.286960 0.358087 0.277561
0.286960 -0.093198 -0.485832
0.286960 0.101180 0.435231
0.286960 -0.482295 0.048700
0.286960 0.238969 -0.378922
0.286960 -0.171689 -0.454584
0.286960 -0.240311 0.372625
0.286960 0.012469 -0.464360
0.286960 -0.092121 0.434199
0.286960 0.017609 0.445170
0.286960 -0.262882 -0.400793
0.286960 -0.441085 0.220170
0.286960 -0.295733 0.364534
0.286960 -0.374341 -0.318817
0.286960 0.416225 -0.245636
0.286960 -0.236067 -0.380911
0.286960 -0.380009 -0.233910
0.286960 -0.387777 0.299107
0.286960 0.464951 0.061124
0.286960 -0.372577 -0.330193
0.286960 -0.470109 -0.038517
0.286960 -0.195036 0.432619
0.286960 0.031756 -0.458010
0.286960 0.058321 0.441364
0.286960 -0.303826 -0.335094
0.286960 -0.466780 -0.126691
0.286960 -0.189670 -0.430165
0.286960 -0.468851 -0.085209
0.286960 0.446138 0.160574
0.286960 0.433735 0.158129
0.286960 0.131743 0.442383
0.286960 0.408944 -0.194111
0.286960 0.005431 0.443449
0.286960 0.453863 -0.127578
0.286960 -0.069724 -0.460688
0.286960 -0.360933 0.302817
0.286960 0.173102 0.428938
0.286960 -0.286386 -0.346495
0.286960 0.190622 0.415125
0.286960 0.454760 0.168956
0.286960 0.389126 0.266714
0.286960 0.175673 -0.441028
0.286960 -0.337525 -0.317841
0.286960 0.103870 -0.467907
0.286960 0.446830 0.085044
0.286960 -0.305135 -0.338675
0.286960 -0.382078 -0.289347
0.286960 0.377632 -0.260624
0.286960 -0.412901 -0.174631
0.286960 -0.125038 -0.442702
0.286960 0.288253 -0.360634
0.286960 -0.458208 0.059333
0.286960 0.458583 0.006064
0.286960 -0.314275 -0.386773
0.286960 0.030030 0.487222
0.286960 0.413491 -0.265314
0.286960 -0.479356 -0.107704
0.286960 0.368568 0.250243
0.286960 -0.283289 -0.345588
0.286960 -0.437555 0.138668
0.286960 0.306215 0.363079
0.286960 -0.414683 0.242789
0.286960 0.304119 -0.387612
0.286960 0.453873 -0.160393
0.286960 0.456789 -0.031455
0.286960 -0.427315 -0.154403
0.286960 -0.232282 -0.432806
0.286960 0.208984 -0.413724
0.286960 0.308897 0.347416
0.286960 0.446066 0.184388
0.286960 -0.359992 -0.298386
0.286960 -0.264751 0.383882
0.286960 -0.363808 -0.266563
0.286960 -0.452226 0.109381
0.286960 -0.168204 -0.442261
0.286960 -0.422132 -0.239222
0.286960 0.273463 0.393261
0.286960 0.232028 -0.385951
0.286960 -0.449538 -0.100752
0.286960 0.017698 -0.449869
0.286960 0.326190 -0.313286
0.286960 0.450826 -0.000303
0.286960 -0.280173 0.358541
0.286960 0.312424 0.351535
0.286960 -0.342138 -0.346513
0.286960 -0.293018 0.333567
0.286960 -0.377106 0.296639
0.286960 -0.415323 0.258516
0.286960 0.444994 0.098188
0.286960 -0.360812 -0.329205
0.286960 0.426705 0.170687
0.286960 -0.167726 0.464610
0.286960 -0.133661 0.450516
0.286960 -0.427225 0.160212
0.286960 -0.492730 -0.003199
0.286960 -0.417531 -0.272325
0.286960 -0.119988 0.468142
0.286960 0.235638 -0.381583
0.286960 -0.091602 0.459436
0.286960 0.457184 0.181010
0.286960 -0.439121 0.223417
0.286960 0.105080 -0.462103
0.286960 -0.076420 -0.453269
0.286960 -0.215543 0.392631
0.286960 0.137623 -0.434466
0.286960 -0.239936 0.380550
0.286960 -0.484680 -0.091184
0.286960 -0.320158 -0.354783
0.286960 -0.335113 -0.297975
0.286960 -0.108586 -0.463062
0.286960 -0.151664 -0.456758
0.286960 0.147115 -0.455455
0.286960 -0.038707 0.487343
0.286960 0.288144 0.342594
0.286960 0.447068 -0.160486
0.286960 0.255080 -0.380123
0.286960 0.341574 0.354606
0.286960 0.095395 0.443641
0.286960 -0.455923 0.035103
0.286960 -0.102584 -0.454760
0.286960 -0.376587 -0.258885
0.286960 0.453505 0.050123
0.286960 0.457892 -0.099948
0.286960 0.091768 -0.464758
0.286960 -0.445349 -0.020081
0.286960 -0.161137 0.449119
0.286960 -0.466066 0.124823
0.286960 -0.297057 -0.379149
0.286960 0.403622 -0.218458
0.286960 -0.397685 0.229837
0.286960 0.461410 -0.007118
0.286960 -0.187834 -0.418165
0.286960 0.106181 -0.441837
0.286960 -0.436763 0.233862
0.286960 -0.455125 -0.011550
0.286960 -0.111101 -0.433518
0.286960 -0.061143 0.482723
0.286960 0.180454 0.422805
0.286960 0.381873 -0.236284
0.286960 0.200995 -0.444616
0.286960 -0.200915 0.404184
0.286960 0.098342 0.476574
0.286960 -0.328023 0.369510
0.286960 0.311685 0.338241
0.286960 -0.434539 -0.102786
0.286960 -0.062297 -0.451266
0.286960 -0.428888 -0.167875
0.286960 -0.471369 0.027255
0.286960 -0.462279 0.156775
0.286960 0.431949 0.244673
0.286960 0.319803 -0.343553
0.286960 0.280889 -0.353400
0.286960 0.382764 0.264281
0.286960 0.065893 -0.472442
0.286960 0.291912 -0.376496
0.286960 0.071531 0.459764
0.286960 -0.343731 -0.353510
0.286960 0.322242 0.371689
0.286960 0.442561 -0.130291
0.286960 -0.382207 0.278932
0.286960 0.095340 -0.476422
0.286960 -0.450462 -0.208341
0.286960 -0.348798 -0.278311
0.286960 0.183653 -0.455016
0.286960 -0.464891 0.098587
0.286960 -0.355781 -0.337481
0.286960 -0.085011 0.437286
0.286960 0.414533 -0.251002
0.286960 0.368121 -0.256526
0.286960 -0.376159 0.273414
0.286960 0.190146 -0.424302
0.286960 0.435102 0.130946
0.286960 0.449197 0.072331
0.286960 0.478311 0.024726
0.286960 0.118372 0.442454
0.286960 0.212511 -0.413200
0.286960 0.102675 -0.475840
0.286960 -0.183820 0.416980
0.286960 0.220228 0.397990
0.286960 -0.010153 -0.479593
0.286960 0.007216 0.464968
0.286960 0.482913 0.103487
0.286960 0.105275 0.480050
0.286960 -0.196571 0.428806
0.286960 0.212564 0.399225
0.286960 0.230695 0.383708
0.286960 -0.423510 -0.221078
0.286960 -0.427999 0.249084
0.286960 0.082838 0.436804
0.286960 0.304355 -0.368431
0.286960 -0.351602 0.328964
0.286960 0.331653 -0.364315
0.286960 0.297275 -0.360813
0.286960 -0.313843 -0.329922
0.286960 0.031700 -0.490868
0.286960 -0.191689 -0.460856
0.286960 0.126815 0.467072
0.286960 -0.042128 0.465033
0.286960 0.363006 0.312174
0.286960 -0.399028 -0.211513
0.286960 -0.083866 0.487585
0.286960 -0.062466 -0.479194
0.286960 -0.245351 -0.391098
0.286960 -0.044420 0.447747
0.286960 0.451237 0.102387
0.286960 -0.096613 -0.474189
0.286960 0.405158 -0.275757
0.286960 -0.063676 0.459099
0.286960 -0.019701 -0.473316
0.286960 -0.150018 0.432567
0.286960 0.387779 0.222209
0.286960 0.047550 -0.478743
0.286960 -0.343554 -0.308128
0.286960 -0.346520 -0.325503
0.286960 -0.434443 0.195072
0.286960 -0.340485 -0.354997
0.286960 0.302594 0.368112
0.286960 -0.351198 0.287826
0.286960 0.260439 0.380745
0.286960 -0.430993 -0.226008
0.286960 0.454307 0.000862
0.286960 0.082875 0.476860
0.286960 0.491338 0.018232
0.286960 0.378835 -0.270837
0.286960 0.184767 0.450807
0.286960 0.066019 0.482059
0.286960 -0.322884 0.349538
0.286960 0.398737 -0.232936
0.286960 0.283614 -0.411620
0.286960 -0.492997 0.031897
0.286960 0.285409 0.356838
0.286960 -0.279883 -0.380404
0.286960 0.411922 -0.216753
0.286960 0.379248 0.290378
0.286960 0.372053 -0.269326
0.286960 -0.447841 -0.215418
0.286960 0.305732 0.358695
0.286960 0.437096 -0.094388
0.286960 0.211954 0.432436
0.286960 -0.434488 -0.097619
0.286960 0.398577 -0.204624
0.286960 0.332709 0.324859
0.286960 -0.304432 0.365296
0.286960 0.077320 0.449083
0.286960 0.345722 -0.340379
0.286960 -0.408540 -0.212401
0.286960 -0.362180 -0.323398
0.286960 -0.364675 0.283697
0.286960 0.263498 0.407010
0.286960 -0.456607 0.115295
0.286960 -0.402451 -0.225221
0.286960 -0.434077 -0.125582
0.286960 -0.449094 -0.038161
0.286960 0.403991 0.224677
0.286960 0.171709 -0.469498
0.286960 0.448792 -0.129382
0.286960 -0.180737 0.443835
0.286960 0.421399 0.247874
0.286960 -0.061653 0.490855
0.286960 -0.400407 -0.240745
0.286960 0.468012 0.167890
0.286960 0.109967 0.447585
0.286960 0.335559 0.345844
0.286960 0.052282 -0.482881
0.286960 -0.068375 -0.448889
0.286960 0.045635 0.463969
0.286960 -0.476383 0.053879
0.286960 0.462175 0.149597
0.286960 -0.027122 0.445865
0.286960 0.224731 0.388237
0.286960 0.374280 0.320475
0.286960 0.144992 -0.465546
0.286960 -0.328186 -0.328975
0.286960 -0.143852 0.451704
0.286960 0.404596 0.266906
0.286960 -0.305125 0.335381
0.286960 0.401433 0.241607
0.286960 -0.230321 -0.398883
0.286960 0.168908 0.457765
0.286960 -0.247724 -0.415888
0.286960 -0.191891 0.434817
0.286960 -0.140256 -0.458838
0.286960 -0.475411 0.089804
0.286960 0.116620 0.459242
0.286960 -0.446281 0.044369
0.286960 0.237099 0.420970
0.286960 0.224287 0.404857
0.286960 0.100993 0.467543
0.286960 0.204693 0.407219
0.286960 0.098244 -0.488849
0.286960 0.325249 -0.359715
0.286960 -0.354329 -0.300404
0.286960 0.352435 -0.330342
0.286960 -0.265514 0.392800
0.286960 -0.212311 -0.429408
0.286960 -0.311807 -0.342051
0.286960 0.476673 0.096514
0.286960 -0.424776 0.234033
0.286960 0.457362 0.031045
0.286960 0.154313 0.455098
0.286960 0.383182 0.294278
0.286960 0.400441 0.253301
0.286960 0.480976 -0.132603
0.286960 -0.424914 0.177802
0.286960 -0.490517 -0.013290
0.286960 -0.315060 0.346562
0.286960 -0.206851 -0.445600
0.286960 -0.125286 0.425809
0.286960 -0.328840 0.340524
0.286960 -0.052428 -0.489905
0.286960 -0.358520 0.284350
0.286960 0.477748 0.060073
0.286960 -0.350438 -0.290763
0.286960 0.464867 -0.012674
0.286960 -0.282004 0.365152
0.286960 0.252547 -0.390493
0.286960 0.308054 -0.370183
0.286960 0.479056 -0.092251
0.286960 0.404436 -0.198376
0.286960 -0.463043 0.045291
0.286960 0.174176 0.439538
0.286960 -0.485572 0.014479
0.286960 -0.416902 -0.218259
0.286960 0.488439 0.028246
0.286960 -0.229315 -0.422322
0.286960 0.029359 0.490870
0.286960 0.465755 -0.142989
0.286960 -0.113989 -0.434523
0.286960 -0.199653 0.448575
0.286960 -0.314425 0.376623
0.286960 0.386266 -0.251838
0.286960 0.379880 0.246348
0.286960 0.468737 0.120269
0.286960 0.095763 0.436025
0.286960 -0.373493 0.257040
0.286960 -0.412756 -0.255921
0.286960 0.401392 0.285197
0.286960 0.437534 0.219776
0.286960 0.492024 -0.010832
0.286960 0.304300 0.340277
0.286960 0.436330 0.166888
0.286960 0.461071 -0.180250
0.286960 0.337474 -0.304996
0.286960 0.482090 -0.073642
0.286960 0.357709 -0.300732
0.286960 -0.433125 0.227571
0.286960 -0.313290 -0.353164
0.286960 0.113357 0.437339
0.286960 -0.443178 0.163052
0.286960 0.276835 -0.383390
0.286960 -0.333144 -0.301840
0.286960 0.065608 0.485328
0.286960 0.442124 -0.085725
0.286960 0.483365 -0.116504
0.286960 -0.467062 -0.104410
0.286960 -0.066198 -0.467283
0.286960 -0.106550 -0.445704
0.286960 -0.189884 0.419055
0.286960 0.319602 0.373425
0.286960 0.469479 -0.042715
0.286960 0.462318 -0.026717
0.286960 -0.389561 0.251688
0.286960 -0.213018 -0.438073
0.286960 -0.306545 -0.346467
0.286960 0.472206 0.096426
0.286960 -0.485051 0.040626
0.286960 -0.328104 0.331166
0.286960 -0.080294 -0.482546
0.286960 -0.468315 0.144780
0.286960 0.241990 0.428352
0.286960 0.415028 0.237065
0.286960 -0.446382 0.119401
0.286960 0.112835 0.482524
0.286960 -0.299030 -0.395049
0.286960 0.157133 -0.472917
0.286960 -0.328127 -0.366038
0.286960 -0.316640 0.360545
0.286960 0.220688 0.430263
0.286960 -0.403966 -0.292109
0.286960 0.217440 -0.439221
0.286960 -0.060879 0.439434
0.286960 -0.204093 0.404076
0.286960 -0.161550 -0.425995
0.286960 0.075398 -0.445927
0.286960 0.405442 -0.290958
0.286960 0.458190 -0.021740
0.286960 0.401432 -0.215542
0.286960 -0.495788 -0.001025
0.286960 0.142621 0.423238
0.286960 0.056438 -0.488870
0.286960 0.365264 0.305571
0.286960 -0.303342 -0.389163
0.286960 -0.479798 0.082498
0.286960 -0.164785 -0.419114
0.286960 -0.408971 -0.199463
0.286960 0.459224 0.076549
0.286960 -0.232321 0.413261
0.286960 -0.442198 -0.193053
0.286960 -0.040227 0.475886
0.286960 0.361425 0.275720
0.286960 0.416823 -0.189410
0.286960 -0.408778 -0.270848
0.286960 0.247444 0.409365
0.286960 -0.249338 0.428331
0.286960 -0.239988 -0.380952
0.286960 0.108941 -0.435274
0.286960 -0.029599 -0.498081
0.286960 0.471116 0.047409
0.286960 0.462860 0.125397
0.286960 0.172562 -0.450739
0.286960 -0.389039 -0.278091
0.286960 -0.440988 0.095349
0.286960 -0.338770 -0.366538
0.286960 0.477845 0.127051
0.286960 0.194913 0.401376
0.286960 -0.450386 -0.195251
0.286960 0.363632 0.327235
0.286960 -0.410328 -0.231077
0.286960 0.157332 0.425724
0.286960 -0.328340 0.361849
0.286960 0.163701 -0.427777
0.286960 0.400539 -0.257644
0.286960 0.032747 -0.461265
0.286960 0.455292 0.078576
0.286960 0.433839 -0.172968
0.286960 -0.191633 -0.440445
0.286960 0.427690 0.191884
0.286960 -0.462108 -0.094242
0.286960 -0.483253 0.010784
0.286960 -0.079806 -0.463710
0.286960 0.218241 -0.412080
0.286960 0.017210 0.484238
0.286960 -0.451139 -0.130047
0.286960 -0.439391 -0.224444
0.286960 0.442784 -0.120996
0.286960 -0.474662 0.079291
0.286960 0.385355 0.225235
0.286960 -0.457796 -0.150559
0.286960 0.468424 -0.160029
0.286960 -0.313810 -0.339539
0.286960 0.138774 0.462408
0.286960 0.201235 0.438784
0.286960 0.073055 0.462866
0.286960 0.019686 0.480580
0.286960 0.456516 0.003078
0.286960 -0.243035 -0.382533
0.286960 -0.150473 0.418345
0.286960 0.383784 0.297689
0.286960 -0.144480 0.425893
0.286960 -0.465310 -0.056424
0.286960 -0.276888 0.378009
0.286960 0.415728 -0.178174
0.286960 0.411917 -0.224697
0.286960 0.206783 0.434423
0.286960 -0.200561 0.453002
0.286960 -0.002015 0.481060
0.286960 -0.155420 0.426924
0.286960 0.396671 0.274100
0.286960 0.155427 0.460457
0.286960 -0.426182 0.191709
0.286960 0.473904 -0.140276
0.286960 -0.317897 -0.380830
0.286960 0.341397 0.360169
0.286960 0.210117 -0.448777
0.286960 -0.474595 -0.138214
0.286960 -0.412084 -0.241396
0.286960 -0.492305 0.028517
0.286960 -0.393383 0.247577
0.286960 0.470186 -0.048607
0.286960 -0.478361 0.116903
0.286960 0.317160 0.329396
0.286960 0.418951 -0.179495
0.286960 0.268105 0.382129
0.286960 -0.243243 0.424912
0.286960 0.305115 -0.393760
0.286960 -0.426831 0.166036
0.286960 -0.214818 -0.441737
0.286960 -0.460881 -0.142906
0.286960 0.447319 0.094576
0.286960 -0.211049 -0.403404
0.286960 0.453363 -0.041749
0.286960 0.218880 -0.395845
0.286960 0.424063 -0.193501
0.286960 -0.470488 0.078955
0.286960 -0.040407 0.457899
0.286960 -0.451833 -0.074781
0.286960 -0.356843 0.325037
0.286960 -0.460613 0.068316
0.286960 -0.412183 0.179112
0.286960 -0.339768 0.316176
0.286960 0.438591 -0.117262
0.286960 -0.289118 -0.373771
0.286960 0.073793 0.438813
0.286960 -0.484568 -0.112247
0.286960 -0.374722 -0.243945
0.286960 0.294038 0.348100
0.286960 -0.474438 -0.064252
0.286960 0.108689 -0.444762
0.286960 0.109608 -0.441018
0.286960 -0.336838 -0.323539
0.286960 -0.036860 -0.477061
0.286960 -0.448723 0.006972
0.286960 0.463143 -0.074413
0.286960 0.277509 0.365519
0.286960 0.256484 0.397373
0.286960 0.378981 -0.294467
0.286960 -0.072089 0.459913
0.286960 -0.272399 -0.396145
0.286960 -0.465999 -0.090515
0.286960 0.057029 0.447915
0.286960 -0.422798 0.202994
0.286960 -0.308451 -0.343679
0.286960 -0.209210 0.392977
0.286960 -0.278599 0.355574
0.286960 0.446352 -0.049899
0.286960 0.447183 0.206916
0.286960 0.489945 -0.075602
0.286960 -0.489283 -0.032134
0.286960 -0.006207 0.457411
0.286960 0.347423 0.327201
0.286960 -0.442915 -0.096866
0.286960 0.344476 -0.292442
0.286960 0.372955 0.250067
0.286960 0.467372 -0.100724
0.286960 -0.144233 -0.450081
0.286960 -0.229268 -0.411001
0.286960 -0.462003 0.022997
0.286960 0.412640 -0.244791
0.286960 0.148551 0.472002
0.286960 -0.460597 0.127588
0.286960 0.008828 -0.456654
0.286960 0.367996 -0.290829
0.286960 -0.022202 0.449844
0.286960 0.458314 -0.051433
0.286960 0.064545 0.490668
0.286960 0.433863 -0.160747
0.286960 0.337805 0.320371
0.286960 -0.298035 0.357119
0.286960 0.441238 -0.096302
0.286960 0.262672 -0.416214
0.286960 -0.120364 0.438476
0.286960 0.450305 -0.126075
0.286960 -0.416617 0.174105
0.286960 0.484648 0.081321
0.286960 0.308956 0.351758
0.286960 0.392375 0.212108
0.286960 0.231524 0.415017
0.286960 0.460233 0.038092
0.286960 -0.397404 -0.284309
0.286960 0.433564 0.173171
0.286960 0.423863 -0.144154
0.286960 -0.343215 0.357693
0.286960 -0.376102 0.281038
0.286960 -0.446527 -0.085276
0.286960 -0.453999 -0.196697
0.286960 -0.464863 -0.114191
0.286960 0.241523 -0.383457
0.286960 -0.468523 0.095205
0.286960 0.036798 -0.482609
0.286960 0.445366 0.156087
0.286960 0.167417 0.422001
0.286960 -0.372621 -0.322669
0.286960 -0.242673 -0.376632
0.286960 -0.032660 0.476415
0.286960 0.272296 0.354350
0.286960 0.445053 -0.185972
0.286960 0.444636 0.092279
0.286960 0.001177 0.449924
0.286960 -0.419799 0.175536
0.286960 0.172239 -0.455199
0.286960 0.426155 0.162564
0.286960 0.429311 -0.154902
0.286960 -0.395153 -0.288374
0.286960 -0.110849 0.432490
0.286960 0.279964 0.399227
0.286960 -0.453627 -0.065382
0.286960 0.092207 0.461533
0.286960 0.280641 -0.389513
0.286960 -0.455265 -0.143529
0.286960 0.477801 0.135813
0.286960 -0.054179 0.441843
0.286960 0.140429 -0.455286
0.286960 -0.467358 -0.027089
0.286960 0.273984 -0.394976
0.286960 0.433598 -0.127943
0.286960 -0.442426 0.117884
0.286960 -0.258758 -0.387639
0.286960 0.445822 -0.157013
0.286960 0.113258 0.472873
0.286960 -0.328972 0.313985
0.286960 0.404342 -0.229500
0.286960 -0.004225 0.445017
0.286960 0.476976 -0.059907
0.286960 0.210420 -0.423501
0.286960 0.295598 -0.350363
0.286960 0.427656 0.174615
0.286960 0.452934 -0.166784
0.286960 -0.230268 -0.395367
0.286960 -0.196636 -0.424167
0.286960 -0.290089 -0.406390
0.286960 -0.328017 -0.303076
0.286960 -0.439740 0.082155
0.286960 -0.176597 -0.429750
0.286960 -0.049256 -0.494394
0.286960 0.488855 -0.013092
0.286960 -0.394921 -0.298024
0.286960 -0.268893 0.395346
0.286960 0.461740 -0.023403
0.286960 -0.030272 -0.458517
0.286960 0.075958 0.445598
0.286960 -0.462810 0.036332
0.286960 0.304442 -0.356432
0.286960 -0.356090 0.292628
0.286960 0.313746 -0.320282
0.286960 0.229683 0.417914
0.286960 -0.096255 -0.486322
0.286960 -0.364734 0.263016
0.286960 -0.176223 -0.436117
0.286960 -0.449608 0.180519
0.286960 0.268955 0.397239
0.286960 0.300979 0.351852
0.286960 -0.471679 -0.103833
0.286960 0.432362 -0.247353
0.286960 0.379962 0.294975
0.286960 -0.391714 -0.246634
0.286960 -0.310260 0.351154
0.286960 0.431091 0.218994
0.286960 0.310612 -0.321777
0.286960 -0.421223 -0.229381
0.286960 0.467833 -0.039327
0.286960 0.041320 -0.498184
0.286960 0.203465 0.414688
0.286960 0.035893 0.487946
0.286960 0.287968 0.399529
0.286960 0.477616 -0.103918
0.286960 -0.056855 -0.486127
0.286960 -0.337858 0.300831
0.286960 0.432346 0.109932
0.286960 0.472871 -0.158598
0.286960 0.447550 -0.109252
0.286960 -0.393413 -0.230215
0.286960 0.433064 -0.109665
0.286960 0.478055 -0.116165
0.286960 0.433766 0.103476
0.286960 -0.486931 -0.054697
0.286960 -0.379425 0.267129
0.286960 -0.066439 0.452254
0.286960 -0.187512 0.452664
0.286960 -0.232235 0.384966
0.286960 0.395842 -0.251575
0.286960 -0.210829 0.410830
0.286960 -0.408045 -0.278944
0.286960 -0.414425 0.176535
0.286960 -0.089652 -0.470975
0.286960 -0.458262 -0.141332
0.286960 -0.125148 0.450436
0.286960 -0.127428 -0.448031
0.286960 0.008466 0.482106
0.286960 0.168631 -0.465672
0.286960 0.428707 0.148756
0.286960 -0.471571 -0.087288
0.286960 -0.108372 0.437172
0.286960 0.240534 0.405444
0.286960 0.490925 -0.072326
0.286960 -0.349034 0.302367
0.286960 0.486519 0.071293
0.286960 -0.154701 -0.448092
0.286960 0.307855 0.324729
0.286960 0.160045 0.427487
0.286960 0.420400 -0.223828
0.286960 -0.212093 -0.432749
0.286960 -0.361372 0.316966
0.286960 0.034312 0.470081
0.286960 0.088460 0.473969
0.286960 0.247192 0.378124
0.286960 -0.394720 0.253800
0.286960 0.426932 0.188402
0.286960 -0.404488 0.287423
0.286960 0.077745 0.453102
0.286960 0.436086 -0.236056
0.286960 -0.369193 0.325057
0.286960 0.362426 -0.295489
0.286960 0.308144 0.333052
0.286960 0.124743 -0.456874
0.286960 -0.148813 -0.426537
0.286960 -0.001919 -0.499418
0.286960 -0.398241 -0.237809
0.286960 0.325212 -0.345884
0.286960 0.408634 -0.198855
0.286960 -0.396363 -0.253933
0.286960 -0.398610 0.259891
0.286960 -0.185469 0.422235
0.286960 0.105382 -0.446849
0.286960 0.282544 -0.380116
0.286960 0.035053 -0.474940
0.286960 0.353919 0.327521
0.286960 -0.461929 -0.075247
0.286960 -0.004363 -0.458203
0.286960 0.137857 -0.467552
0.286960 0.136123 0.474133
0.286960 0.067331 0.456405
0.286960 0.359581 -0.266896
0.286960 -0.109445 -0.480417
0.286960 0.224087 0.391464
0.286960 -0.279770 -0.394528
0.286960 -0.257461 -0.426868
0.286960 -0.463556 -0.069257
0.286960 0.438694 -0.224602
0.286960 0.451305 -0.109118
0.286960 -0.492092 -0.059261
0.286960 0.403944 -0.282860
0.286960 0.087736 0.470749
0.286960 -0.287112 -0.360022
0.286960 -0.388618 -0.285099
0.286960 -0.001313 0.473195
0.286960 -0.449358 0.162630
0.286960 -0.425585 0.219438
0.286960 0.440049 0.138087
0.286960 0.193843 0.415367
0.286960 -0.456917 0.105135
0.286960 -0.262101 -0.363472
0.286960 -0.413025 -0.271095
0.286960 0.482775 0.111225
0.286960 -0.433241 0.192189
0.286960 0.203057 -0.424653
0.286960 0.430459 0.141871
0.286960 0.230494 -0.425286
0.286960 -0.409484 -0.237559
0.286960 0.439184 -0.194929
0.286960 0.452957 -0.149614
0.286960 -0.150958 0.435910
0.286960 0.372801 0.274887
0.286960 0.460799 -0.127374
0.286960 -0.116521 0.477598
0.286960 0.447344 -0.124183
0.286960 -0.261226 0.407071
0.286960 0.381897 0.288393
0.286960 0.272806 0.413591
0.286960 0.166129 0.438085
0.286960 -0.234991 -0.425505
0.286960 0.432478 0.166081
0.286960 0.454217 0.091338
0.286960 0.374399 -0.288803
0.286960 0.418616 0.199893
0.286960 0.050078 -0.444992
0.286960 -0.466485 -0.040547
0.286960 0.201537 -0.412364
0.286960 0.055441 -0.456599
0.286960 -0.026784 0.453923
0.286960 -0.225911 0.399195
0.286960 -0.394229 -0.282091
0.286960 0.146613 0.430644
0.286960 -0.225650 -0.429526
0.286960 -0.448331 0.167472
0.286960 0.109238 -0.449163
0.286960 -0.484743 0.089340
0.286960 0.414681 -0.270284
0.286960 0.362608 0.336286
0.286960 -0.439706 -0.164557
0.286960 0.429059 0.226133
0.286960 0.330710 0.366048
0.286960 -0.289319 0.375823
0.286960 -0.417496 0.232007
0.286960 0.407188 0.202109
0.286960 -0.439625 0.132654
0.286960 -0.439014 0.206705
0.286960 -0.324093 -0.332491
0.286960 -0.193963 0.444014
0.286960 0.129147 -0.438915
0.286960 0.335895 -0.323986
0.286960 0.455040 0.020246
0.286960 -0.394797 -0.260325
0.286960 -0.074888 -0.467229
0.286960 -0.300403 -0.379580
0.286960 -0.446455 -0.116888
0.286960 -0.166199 0.444861
0.286960 0.053003 -0.448531
0.286960 -0.479561 -0.088352
0.286960 0.250453 -0.371227
0.286960 0.400924 0.269260
0.286960 0.340952 -0.345560
0.286960 0.073632 -0.456494
0.286960 -0.453434 -0.016384
0.286960 -0.202976 -0.434045
0.286960 0.095684 -0.466837
0.286960 -0.427887 0.183326
0.286960 0.205359 0.446821
0.286960 0.306519 0.344922
0.286960 -0.258688 0.390531
0.286960 0.464496 -0.132271
0.286960 0.013817 0.483766
0.286960 0.212844 -0.400782
0.286960 -0.169118 0.446804
0.286960 -0.249571 0.409861
0.286960 -0.338472 -0.298819
0.286960 -0.094309 -0.458178
0.286960 0.350481 -0.321455
0.286960 -0.347431 0.288331
0.286960 0.440813 -0.114403
0.286960 -0.108704 -0.476330
0.286960 0.222220 -0.444540
0.286960 0.474139 0.138310
0.286960 -0.262187 -0.409477
0.286960 0.037094 -0.478686
0.286960 0.190031 -0.439520
0.286960 -0.136750 0.435550
0.286960 -0.273607 -0.377866
0.286960 -0.353122 -0.335105
0.286960 -0.332685 -0.326522
0.286960 -0.428081 0.234660
0.286960 -0.373189 0.299027
0.286960 0.297916 0.395548
0.286960 0.413695 0.252342
0.286960 -0.364719 -0.279586
0.286960 -0.189171 0.456567
0.286960 0.211443 -0.405488
0.286960 0.462246 0.057731
0.286960 -0.393021 0.292648
0.286960 0.477509 0.016565
0.286960 -0.094080 -0.464248
0.286960 0.103360 0.471026
0.286960 0.119509 -0.460149
0.286960 -0.459346 -0.122861
0.286960 -0.015820 0.484456
0.286960 -0.382062 0.245365
0.286960 0.203827 -0.438216
0.286960 0.468399 -0.096441
0.286960 -0.452010 0.025602
0.286960 0.136472 -0.452158
0.286960 0.171793 -0.414412
0.286960 -0.201121 -0.407254
0.286960 0.310720 -0.382542
0.286960 0.178079 -0.464461
0.286960 0.446733 0.003772
0.286960 0.399803 -0.218348
0.286960 0.083569 -0.493138
0.286960 0.454532 -0.070703
0.286960 -0.045877 0.481244
0.286960 0.436538 -0.190825
0.286960 0.473986 0.133928
0.286960 0.348923 0.343448
0.286960 -0.060471 -0.471917
0.286960 -0.334401 0.317410
0.286960 0.386385 -0.282767
0.286960 0.046705 -0.458604
0.286960 -0.134738 -0.431524
0.286960 -0.275285 -0.364664
0.286960 -0.100658 0.476601
0.286960 0.421230 -0.219402
0.286960 -0.489338 0.005491
0.286960 -0.306799 0.381286
0.286960 0.242815 -0.386872
0.286960 -0.025781 0.490113
0.286960 0.451724 0.207834
0.286960 -0.373052 0.279723
0.286960 -0.184171 -0.451588
0.286960 -0.278920 0.372952
0.286960 -0.141024 -0.465826
0.286960 -0.236505 -0.428182
0.286960 -0.081455 0.461047
0.286960 0.361226 0.293053
0.286960 0.269623 -0.414419
0.286960 -0.481734 -0.026390
0.286960 -0.485830 0.083323
0.286960 -0.482372 0.059077
0.286960 -0.363571 -0.297868
0.286960 0.467098 0.155032
0.286960 -0.236013 0.412875
0.286960 -0.380069 0.307229
0.286960 0.165457 -0.448111
0.286960 0.385128 0.275221
0.286960 0.391731 0.250219
0.286960 0.357961 0.323360
0.286960 0.417403 0.220852
0.286960 -0.322243 0.353217
0.286960 -0.076472 -0.483092
0.286960 0.451024 0.127660
0.286960 -0.459484 0.169847
0.286960 0.181573 -0.459250
0.286960 0.366730 -0.298800
0.286960 -0.330779 0.348367
0.286960 -0.285603 -0.356703
0.286960 0.445478 0.220222
0.286960 0.340282 0.285862
0.286960 -0.464825 -0.179777
0.286960 0.468029 -0.165576
0.286960 0.121484 0.461253
0.286960 -0.452972 0.181294
0.286960 0.427334 -0.170253
0.286960 0.120773 -0.478707
0.286960 0.374053 -0.302076
0.286960 -0.263755 0.361204
0.286960 -0.466532 0.166629
0.286960 0.003745 -0.451384
0.286960 -0.051990 -0.477010
0.286960 -0.406038 -0.273945
0.286960 -0.259694 0.410803
0.286960 -0.162561 0.461071
0.286960 -0.439904 -0.071899
0.286960 0.447829 -0.212291
0.286960 -0.411997 -0.179310
0.286960 0.176524 0.445658
0.286960 -0.265780 -0.367926
0.286960 -0.065441 0.490468
0.286960 -0.410001 -0.186773
0.286960 -0.107442 0.478721
0.286960 -0.149513 0.447972
0.286960 0.093488 0.468390
0.286960 -0.061124 0.486681
0.286960 0.434702 0.222130
0.286960 -0.185518 0.443039
0.286960 0.218573 -0.400788
0.286960 0.208373 -0.401866
0.286960 -0.408264 0.185089
0.286960 -0.420789 0.255370
0.286960 0.359047 -0.345505
0.286960 -0.440562 0.175384
0.286960 -0.148967 0.421615
0.286960 -0.454252 -0.160607
0.286960 -0.012314 -0.489503
0.286960 -0.421113 -0.196498
0.286960 -0.456545 -0.079547
0.286960 -0.471399 0.020342
0.286960 -0.481583 0.014332
0.286960 -0.466872 0.117480
0.286960 -0.196819 -0.410161
0.286960 -0.385894 -0.231045
0.286960 -0.451411 0.115312
0.286960 0.460549 -0.168007
0.286960 -0.127038 -0.459391
0.286960 0.063154 0.474040
0.286960 0.351837 0.274782
0.286960 -0.345072 -0.318139
0.286960 -0.474874 0.132071
0.286960 -0.412000 0.186164
0.286960 0.436679 0.177523
0.286960 0.160634 -0.424979
0.286960 -0.234219 0.431433
0.286960 -0.478454 0.113169
0.286960 0.387882 0.270683
0.286960 -0.285566 -0.403751
0.286960 0.435760 0.193796
0.286960 -0.411582 -0.234193
0.286960 -0.028772 -0.487330
0.286960 -0.243914 -0.428589
0.286960 -0.016045 0.495509
0.286960 0.013699 0.455082
0.286960 -0.445680 -0.062646
0.286960 0.479817 0.112911
0.286960 0.419007 0.184059
0.286960 0.428938 0.164854
0.286960 0.092437 -0.450101
0.286960 0.224986 0.400833
0.286960 -0.235524 0.428020
0.286960 0.487529 -0.056115
0.286960 0.421374 -0.201297
0.286960 -0.081708 -0.488418
0.286960 0.298439 0.343164
0.286960 -0.369299 0.258005
0.286960 -0.218772 -0.390741
0.286960 -0.382527 0.234191
0.286960 -0.104011 -0.448127
0.286960 0.153390 0.440964
0.286960 0.425564 -0.253739
0.286960 0.286190 0.402968
0.286960 0.474327 0.016134
0.286960 -0.405340 -0.199979
0.286960 0.419607 -0.153574
0.286960 0.125856 -0.476203
0.286960 0.352825 0.309352
0.286960 -0.333113 -0.360382
0.286960 -0.459634 0.036111
0.286960 -0.206400 0.409632
0.286960 0.114767 0.444716
0.286960 0.116691 -0.442992
0.286960 0.477132 -0.052641
0.286960 0.164260 0.449511
0.286960 -0.286160 -0.364513
0.286960 0.074524 -0.448820
0.286960 -0.267877 -0.416603
0.286960 0.087033 -0.488066
0.286960 0.377535 0.322607
0.286960 -0.357766 -0.345588
0.286960 -0.339529 0.290370
0.286960 0.459464 -0.111254
0.286960 0.381167 0.239059
0.286960 0.002517 -0.477927
0.286960 -0.413647 -0.277401
0.286960 0.247735 -0.404383
0.286960 -0.083452 -0.462351
0.286960 0.297152 -0.392823
0.286960 0.424703 -0.164645
0.286960 -0.281569 0.391124
0.286960 -0.442016 -0.123336
0.286960 -0.099475 -0.461956
0.286960 0.342557 0.312945
0.286960 -0.299685 0.382329
0.286960 -0.068222 0.468590
0.286960 0.248438 -0.398464
0.286960 0.405653 0.229171
0.286960 -0.452413 0.031804
0.286960 0.152293 0.471846
0.286960 0.301971 0.335478
0.286960 0.412210 0.209303
0.286960 -0.203367 0.436605
0.286960 0.064570 -0.460197
0.286960 -0.300869 -0.341461
0.286960 0.427704 -0.144115
0.286960 -0.208405 -0.409763
0.286960 -0.430258 0.194406
0.286960 0.133182 -0.460258
0.286960 -0.311763 -0.388751
0.286960 0.395287 0.276877
0.286960 0.251686 0.382680
0.286960 0.305079 0.352015
0.286960 0.392499 0.274199
0.286960 -0.350767 0.283323
0.286960 0.423262 0.160295
0.286960 0.440542 0.221592
0.286960 0.452162 -0.182078
0.286960 -0.399066 0.250780
0.286960 0.414249 0.230608
0.286960 -0.437946 0.179877
