0.051652 0.379111 0.232263
0.249613 0.143049 -0.424050
0.258422 0.386701 0.219430
0.273676 0.299775 -0.331873
0.244798 -0.444869 -0.000461
-0.098183 0.352409 -0.274913
0.189852 0.377652 -0.239084
-0.124001 -0.419496 0.145539
0.025924 -0.144775 -0.423060
-0.083336 -0.277244 -0.350179
-0.100616 -0.418775 0.147542
-0.052976 -0.271093 0.350598
-0.217699 0.096448 0.432581
0.216488 0.445612 0.008489
0.110065 -0.393166 0.205857
-0.008407 0.363362 -0.260340
0.080345 0.132126 0.423210
-0.133855 0.372799 -0.246454
0.045119 0.208481 0.391535
-0.036414 -0.336917 -0.292669
-0.289307 0.108656 -0.434206
0.097224 0.399664 -0.199468
-0.063852 -0.419513 -0.149847
-0.172713 -0.368264 -0.251619
0.144145 0.442686 -0.055346
0.118560 0.099676 -0.436213
-0.132656 0.354836 0.267432
-0.055725 0.246678 0.368826
0.135668 -0.056857 0.439502
0.180518 -0.374505 -0.242436
-0.209127 -0.037571 0.441423
0.040937 -0.342662 -0.286152
0.150550 0.083555 -0.439789
0.258971 -0.063067 -0.442872
-0.132969 -0.244628 0.369523
-0.057233 -0.444727 0.004033
-0.179654 0.272075 -0.354984
0.088532 -0.021520 0.442566
0.057584 -0.249196 -0.370773
0.024813 -0.336107 0.289234
0.010550 -0.050485 -0.444556
0.253278 -0.259834 0.359189
-0.195756 0.441195 0.061480
0.192676 -0.234475 -0.380451
0.219270 -0.005725 -0.447416
0.007586 0.208314 0.391620
0.001952 -0.439908 0.063134
0.199248 0.018823 -0.447036
-0.131168 0.441367 -0.064749
-0.104065 0.340977 -0.289226
0.056071 0.440010 0.068964
-0.019964 0.445572 0.009777
0.282542 0.360418 0.260236
0.033284 0.348401 0.275727
0.211478 -0.013133 -0.447183
-0.190176 0.408538 0.175962
0.071809 -0.430000 -0.116148
0.049642 -0.071104 0.437245
0.123307 0.382232 0.226985
-0.205695 0.419321 0.148872
0.040453 -0.051777 -0.444434
0.073236 -0.288397 0.336648
-0.287718 -0.184057 -0.407420
-0.157990 0.445868 -0.004694
0.164247 -0.149222 0.417105
0.270943 0.153795 -0.420181
0.262143 -0.247268 -0.372083
0.034825 0.374556 -0.243868
-0.134219 0.210191 -0.395017
0.110651 -0.431318 -0.111208
0.023073 0.411930 0.168124
-0.006039 0.313366 -0.318952
0.006317 0.339701 -0.290673
-0.066527 0.425094 -0.136561
-0.059956 -0.244190 0.369821
0.223294 0.428869 -0.123568
0.261068 0.091640 0.433656
-0.265416 -0.441820 -0.053671
0.244770 0.190394 0.400750
-0.236705 -0.188521 0.401135
-0.159774 -0.001784 0.443186
0.057958 0.245468 -0.374002
-0.241183 0.297024 0.329946
0.226832 0.401697 -0.195478
0.271002 0.397665 -0.203391
0.167830 -0.411938 0.165738
-0.099581 -0.439613 -0.069353
-0.145426 -0.395524 0.201229
0.226991 0.301534 -0.330322
-0.020227 -0.194417 0.398178
0.284061 0.005634 0.443097
0.188236 -0.312146 0.314794
0.283564 0.056454 0.439728
0.020855 0.334074 0.292702
0.150802 -0.164880 -0.415719
-0.288328 0.328554 -0.303317
-0.128190 -0.233777 -0.380864
0.233027 0.375641 -0.242272
-0.180682 -0.342719 -0.286084
-0.062202 -0.236214 0.375070
-0.002304 -0.401022 0.190439
0.236021 0.031706 0.442075
-0.108364 0.401001 0.192490
0.253674 0.022321 0.442573
0.205986 -0.418986 0.146958
0.141678 0.414098 -0.167468
-0.271999 -0.231773 -0.382049
-0.102707 0.424125 -0.139883
0.133227 -0.373748 -0.243550
0.013389 -0.276389 -0.350843
-0.254041 -0.296472 -0.333882
0.012500 -0.419357 0.145925
-0.082558 0.254328 0.363628
-0.228117 0.441251 0.061126
0.017282 0.351519 -0.276061
-0.145113 -0.333740 0.291918
0.218897 -0.069202 0.437547
0.187099 0.322977 -0.309341
-0.273884 0.329862 0.297480
0.276603 0.128727 0.424198
0.250290 0.445152 0.023138
0.030738 0.279162 0.345133
-0.225654 0.358750 -0.266739
-0.131266 -0.189227 0.400823
-0.206409 0.203394 -0.398480
-0.160285 0.044450 -0.445223
0.134841 -0.213647 -0.392734
0.267835 -0.423023 0.135744
-0.040428 -0.343124 -0.285563
0.165362 0.342568 -0.287421
-0.138031 -0.372608 -0.245227
0.037601 -0.388858 -0.218403
0.248440 -0.444252 -0.023514
0.176467 -0.444335 -0.020882
-0.245988 0.193184 -0.403682
0.003354 -0.414107 0.160508
-0.000501 -0.012593 -0.447200
0.195075 0.445542 -0.015084
0.022053 -0.314135 -0.317159
0.116584 0.224555 0.382571
0.114516 -0.302021 -0.328990
-0.040054 -0.387261 0.216750
0.028785 0.313571 -0.318748
-0.225511 0.377254 0.235403
0.077057 -0.140806 -0.424489
0.096911 -0.225152 0.381612
-0.071694 0.274171 -0.353358
0.166221 0.432911 0.104316
0.221887 -0.144204 -0.423265
-0.081491 -0.437311 0.079532
-0.208448 -0.355670 0.265035
-0.132508 0.426551 0.127195
-0.215233 0.256306 0.362283
0.044936 -0.021681 -0.446914
-0.227497 0.269776 0.352414
-0.235255 0.262324 0.358194
0.232120 -0.263229 0.356697
-0.020644 -0.266397 0.354240
0.046099 -0.117373 0.427198
-0.147076 0.146534 -0.422796
0.167625 0.147305 -0.422518
-0.097827 -0.442975 -0.041451
0.048533 -0.053627 0.439906
0.142644 0.220234 0.385126
0.238724 -0.058678 -0.443567
-0.274759 -0.418637 -0.152279
0.138366 -0.238209 -0.378239
-0.280682 -0.418041 0.149581
-0.117533 -0.442378 -0.047762
0.018677 0.363314 -0.260411
-0.237181 0.304426 0.323420
0.197668 -0.334878 0.290628
-0.056454 -0.262989 0.356884
-0.222639 0.414006 -0.167680
-0.289800 -0.311211 0.315729
-0.025606 0.284877 -0.345008
-0.024491 0.033074 -0.446299
-0.146656 0.379883 0.230957
-0.100662 0.015386 -0.447144
0.085108 -0.432663 -0.105192
-0.152818 0.137371 -0.426040
-0.252116 0.222602 0.383726
-0.228439 -0.260867 -0.362841
-0.186114 -0.430176 0.111188
-0.162234 0.179598 0.405440
-0.256550 -0.388637 0.214422
-0.170149 0.331943 -0.299473
0.113772 0.236569 -0.379819
-0.147625 -0.182339 -0.408163
0.072315 -0.443806 0.028307
0.161464 0.366559 -0.255636
0.078964 -0.017818 -0.447036
-0.208476 0.266739 -0.359123
0.171691 -0.436634 -0.087428
0.268226 -0.344709 0.279166
0.132700 -0.384451 -0.225854
-0.241216 0.203270 -0.398543
0.078690 0.024806 -0.446848
0.038820 0.438915 0.075877
0.190431 -0.400353 -0.196106
0.144856 -0.330486 -0.299963
-0.116620 -0.423338 -0.139079
-0.197209 -0.410762 0.168457
-0.104817 -0.442138 -0.050310
0.219239 -0.344378 -0.283945
0.057319 0.366422 -0.255838
-0.011973 -0.444435 -0.017686
0.111667 -0.035691 -0.445954
0.058643 0.205963 -0.397171
0.122457 -0.444781 0.002342
0.249688 -0.431701 0.105144
0.230338 0.066059 -0.442560
-0.041901 -0.236427 0.374943
0.137419 -0.121699 -0.430295
-0.246265 0.135505 -0.426582
0.202494 0.297564 -0.333823
0.091625 -0.279402 0.344153
-0.218638 0.019708 -0.447009
-0.056061 0.435945 -0.095093
-0.285629 -0.196915 -0.401259
0.210233 -0.349692 0.272741
0.185481 0.098877 0.432038
-0.139483 0.021477 -0.446953
-0.273470 0.384047 -0.228270
0.072765 -0.232890 0.377035
-0.194101 -0.444205 0.020673
0.271873 -0.110394 0.429226
0.023194 -0.177447 0.405927
-0.263360 -0.036850 -0.445845
-0.219646 0.160078 0.413566
0.135696 0.445692 0.005943
0.274597 0.252965 0.364554
-0.119827 0.444924 0.027325
0.119501 -0.018666 -0.447009
0.131063 0.130217 -0.428118
0.278857 -0.377149 0.233848
-0.256293 0.403215 -0.192498
0.125123 0.404115 -0.190537
0.043321 -0.432431 0.101878
0.264289 -0.352210 -0.273849
-0.220360 0.252545 -0.369193
0.098637 0.438692 -0.081639
-0.192173 0.072800 -0.441492
-0.268275 -0.231199 0.378035
-0.033917 -0.443490 -0.036000
-0.023140 -0.305956 -0.325337
0.106826 -0.308876 -0.322418
-0.267251 -0.431444 0.106291
-0.189555 -0.363878 0.253720
-0.064206 -0.300318 -0.330491
0.267758 0.285020 0.340529
-0.114575 0.392201 -0.214116
0.210042 0.379848 0.231017
0.170743 -0.001073 0.443208
0.136484 0.194097 -0.403217
0.031104 -0.077342 -0.440611
0.218000 -0.257366 0.360866
-0.180102 0.192612 0.399621
-0.156427 0.424645 -0.138108
-0.118574 0.087112 0.434668
0.178722 0.422541 0.139929
-0.018187 -0.339415 -0.289835
0.084842 0.204743 -0.397793
-0.134157 0.171043 -0.413495
-0.066186 0.166989 0.410896
-0.244219 -0.068577 0.437645
0.074404 0.359525 0.261386
-0.235432 0.392042 0.210074
0.198458 -0.030712 -0.446425
0.102019 -0.380817 0.227646
0.124470 0.336628 -0.294159
0.028296 0.321814 -0.310504
0.270464 0.340382 0.285548
-0.089126 0.138063 0.421485
0.086877 -0.249212 0.366408
-0.052216 -0.303762 -0.327455
0.085565 0.380104 0.230583
-0.250145 -0.443561 0.030900
0.237141 0.209296 -0.395473
-0.229699 -0.387391 0.216529
-0.163944 -0.087573 0.434336
-0.102646 0.169067 0.409997
-0.003682 0.196023 0.397882
-0.068007 -0.334101 -0.295862
0.102712 -0.419437 0.145703
-0.230496 0.175274 -0.411664
-0.097366 -0.123251 -0.429844
-0.152128 0.327339 -0.304695
0.058346 -0.402235 -0.192412
-0.221797 -0.353912 -0.271655
0.026399 0.160339 -0.417826
-0.025023 0.228581 0.380190
0.014699 0.049698 0.440374
-0.123373 -0.436767 0.082478
0.236881 0.110098 -0.433883
0.061621 -0.051722 -0.444439
0.110912 0.355831 -0.270502
-0.006984 -0.237925 0.374058
-0.261953 0.377776 -0.238874
-0.030969 0.311825 -0.320494
0.208315 0.208768 -0.395742
0.093714 -0.404398 0.183163
0.020038 0.207125 0.392226
0.267802 -0.367821 -0.252271
0.096743 -0.165077 0.411280
-0.225020 0.102145 -0.435661
-0.154953 0.232820 -0.382037
-0.120997 -0.088949 -0.438382
0.149077 0.297161 -0.334178
-0.154294 0.198492 -0.400978
-0.203753 -0.001306 0.443201
0.169657 0.058941 -0.443687
-0.148617 -0.134961 0.422089
0.028278 0.253599 0.364123
-0.137512 0.439916 0.069557
-0.154953 -0.279353 -0.348544
0.059502 0.444546 0.031321
-0.215693 0.389656 0.214432
-0.237376 0.386086 0.220469
-0.106849 -0.438179 -0.078406
0.204497 0.156507 -0.419205
-0.044720 -0.433969 0.094998
0.037569 -0.436865 0.082042
0.146095 0.439348 -0.077495
0.189095 -0.048147 0.440424
-0.263733 0.407563 -0.182569
0.215720 -0.428696 -0.120635
-0.186416 0.419888 0.147298
-0.096103 0.077598 -0.440732
-0.214146 -0.408965 -0.176962
0.077471 -0.307614 0.319326
-0.024821 -0.052330 0.440028
-0.273960 -0.380912 -0.231838
0.194980 0.383177 0.225387
0.078170 0.187803 0.401889
0.014393 -0.258497 0.360098
-0.255976 -0.407341 0.176361
-0.209736 0.328600 0.298912
-0.161766 0.195755 0.398019
0.236613 -0.218044 0.385816
-0.016499 -0.138172 0.421084
-0.176014 0.292515 0.333921
0.171609 0.429937 0.115538
-0.188140 -0.397248 -0.202199
-0.027526 -0.158006 0.413943
-0.268074 0.332633 -0.298690
0.002185 0.367279 0.250223
-0.145709 -0.401494 0.189512
-0.081404 -0.444662 -0.010474
-0.248112 0.424392 -0.138978
-0.010784 -0.199719 0.395477
0.045586 -0.312919 -0.318375
-0.008050 0.220463 -0.389344
0.119444 0.042708 0.441035
0.224086 -0.085125 0.434883
0.249484 -0.271299 0.350438
-0.078186 -0.444528 0.010375
-0.000784 -0.170615 0.408884
-0.205046 0.407217 -0.183370
-0.268519 -0.112134 0.428720
0.151530 -0.364203 -0.257595
0.065052 0.434937 0.095252
0.187839 0.050939 0.440257
0.111063 -0.438569 0.071589
0.023022 0.095083 -0.437240
0.225822 0.433036 0.103754
0.047775 0.293117 0.333390
-0.206267 0.445234 0.020525
-0.002465 -0.437722 -0.081294
0.166207 -0.124048 -0.429613
-0.035116 0.377133 0.235607
-0.084570 0.318658 -0.313660
-0.289546 -0.175314 0.406850
-0.112155 -0.418016 0.149652
-0.257865 0.003204 0.443174
0.199002 0.146145 0.418582
0.036241 -0.442285 -0.048749
-0.130716 0.004181 0.443143
-0.287004 -0.430345 0.110607
0.271061 0.261814 -0.362893
-0.011906 -0.060272 0.438961
0.272773 -0.441079 0.055741
0.087945 0.311112 0.316853
0.278658 0.434731 0.096170
-0.195279 -0.413305 -0.166933
0.085440 -0.074965 -0.440987
0.099634 0.288546 -0.341774
0.103859 0.117834 -0.431716
-0.081234 0.245592 0.369564
0.179777 -0.434366 -0.097575
-0.023938 0.432776 0.104916
0.238099 0.438108 -0.085322
-0.065491 0.439739 0.070675
-0.130991 0.261035 -0.363423
0.014924 0.428650 -0.124323
-0.047277 -0.364494 0.252813
0.074026 0.414322 -0.166950
-0.025375 -0.424861 0.129484
-0.067058 -0.418525 0.148238
0.282684 -0.303556 -0.327636
0.127455 0.282683 -0.346756
-0.289191 -0.084408 0.435043
0.157816 0.281152 -0.347944
-0.042383 -0.313709 0.313231
-0.269213 -0.122545 0.425696
0.178610 0.313856 0.314109
0.268594 -0.138819 -0.425204
-0.020659 -0.348694 -0.278382
-0.038254 0.008612 -0.447357
0.222204 0.253328 -0.368661
0.195497 -0.274275 -0.352482
-0.268510 0.076422 0.436565
0.051703 0.139178 -0.425444
0.103412 -0.403949 -0.188553
0.001759 0.027449 -0.446765
-0.157877 0.440266 -0.071700
0.055899 -0.140179 0.420361
-0.186079 -0.303244 0.323558
-0.002703 -0.108293 -0.434058
0.055424 0.427648 -0.127770
-0.064676 -0.052807 0.439983
-0.154362 -0.126958 -0.428767
0.015548 -0.236779 -0.379089
-0.108704 0.350229 0.273371
0.229527 0.324748 0.303217
0.240056 -0.133798 -0.426780
-0.174186 -0.027329 -0.446737
0.142911 -0.422477 -0.141615
-0.100762 0.140908 -0.424821
-0.088733 0.443660 0.040692
0.248592 -0.089343 -0.438294
0.011489 -0.426284 -0.128938
0.051076 0.410743 0.170867
-0.182090 0.442978 0.047912
0.001012 0.419184 0.149255
0.226746 0.338672 -0.291840
0.060743 0.257692 0.361341
0.128634 -0.167902 -0.414411
0.158583 0.426989 0.125687
-0.098562 -0.334214 0.291381
0.251516 -0.438204 0.073896
0.171584 -0.414668 -0.163305
-0.240179 0.397096 0.200156
0.234243 0.418023 -0.156831
-0.095541 -0.309496 0.317445
-0.191095 -0.064546 -0.442637
0.170721 0.298183 0.328924
-0.170554 0.374133 -0.244492
-0.177781 0.417488 -0.158318
0.191202 -0.045036 -0.445071
0.142307 0.194937 0.398436
-0.282734 0.036993 0.441575
-0.059764 0.142736 0.419809
-0.273045 -0.263269 0.356666
0.041777 0.352554 0.270373
-0.206947 0.442747 0.050351
0.120710 0.124177 0.425519
-0.272673 0.080493 -0.440274
0.004806 -0.063606 0.438433
-0.112971 -0.287859 0.337122
0.160153 0.244105 0.370575
-0.082703 -0.337309 0.287871
0.130736 -0.043260 -0.445239
0.025473 0.316169 0.311796
0.246352 0.155296 0.415288
0.134142 0.431567 0.109927
0.199773 0.440759 0.064231
0.215195 -0.384981 0.220605
-0.259748 0.426184 -0.132809
0.201980 0.393514 0.207185
-0.096576 0.362369 0.257448
0.100067 0.180793 -0.409276
-0.190989 -0.416850 -0.157243
0.178158 -0.207738 -0.395744
-0.101591 -0.377938 -0.236866
-0.091444 -0.425674 0.126686
-0.125325 -0.427258 -0.125585
0.080753 -0.439453 0.066011
0.177888 -0.439433 0.066136
-0.267794 -0.431122 -0.112088
0.012618 0.406567 -0.184871
-0.277878 -0.432640 0.100942
0.105989 0.373428 -0.245529
-0.008002 0.438532 0.078293
0.252215 0.236631 -0.379782
0.174939 0.257037 0.361786
-0.184677 -0.243625 0.370205
-0.111762 -0.247985 0.367242
-0.143338 -0.427672 0.119807
0.057829 0.124942 -0.429651
-0.075716 0.410650 0.171083
0.213125 0.406600 0.180442
0.130719 -0.123976 0.425280
0.208147 -0.319339 -0.311954
-0.158974 0.415486 0.159525
0.026040 -0.165864 -0.415293
0.111424 0.444575 -0.035365
0.088633 0.421997 -0.145793
0.252235 0.047375 0.440593
-0.232204 0.022970 -0.446906
-0.247180 -0.442169 0.045625
0.068074 0.395508 0.203271
-0.289216 -0.343098 -0.285596
-0.199624 -0.171554 0.408477
-0.112275 -0.334689 0.290842
-0.024857 -0.051967 -0.444416
-0.134260 0.430359 0.114086
0.225691 0.444670 0.030003
-0.016419 0.423546 0.137138
-0.266241 -0.082580 -0.439781
-0.234189 0.045155 0.440803
-0.258607 0.099827 0.431826
-0.108330 0.445134 0.023698
-0.272444 0.392641 -0.213252
0.091492 0.203245 0.394203
0.159257 -0.176767 -0.410575
0.119506 -0.141620 -0.424196
0.236486 0.078359 0.436259
-0.210192 -0.433408 0.097505
-0.107234 0.427394 -0.128645
-0.041762 -0.442561 -0.045835
0.119911 -0.357608 -0.266890
0.194937 0.402126 -0.194637
-0.155211 0.019588 0.442659
-0.132793 0.348099 0.276116
-0.134651 0.392392 -0.213740
0.017537 0.264637 0.356401
0.270585 0.221308 0.384491
0.130995 -0.278363 0.344958
0.286019 0.124528 0.425418
-0.085654 0.401861 0.190804
0.283766 -0.319923 -0.311371
-0.177659 -0.167360 0.410292
0.202299 -0.384632 -0.225548
0.230143 -0.008552 0.442973
0.034023 -0.363311 0.254554
0.246619 -0.002248 -0.447525
0.045336 0.241014 0.372676
0.286917 0.246999 0.368609
0.239790 0.360482 -0.264506
-0.187794 -0.016750 -0.447069
0.204995 0.247416 0.368325
0.008138 -0.023125 -0.446869
-0.249502 -0.422868 0.136175
-0.115503 0.027234 0.442419
0.061811 0.329911 -0.301778
-0.241234 0.444865 -0.032300
-0.069364 0.422463 0.140145
-0.143537 -0.424478 -0.135155
-0.191181 -0.082841 0.435386
0.065284 0.225386 0.382079
-0.119948 -0.262639 0.357155
0.130353 -0.083897 -0.439511
0.057179 -0.208160 -0.395530
0.251449 0.264484 -0.360872
-0.033856 -0.421947 0.138733
0.100201 0.341065 -0.289126
0.023769 0.273886 -0.353580
0.230464 -0.274214 -0.352530
0.109496 0.184772 -0.407554
0.151407 -0.037303 0.441449
-0.091929 -0.432759 -0.104762
-0.012950 -0.128644 0.423924
-0.231681 -0.289253 0.335893
-0.085122 -0.074405 0.436723
0.268913 0.321844 -0.310475
-0.004146 -0.285994 0.338767
0.151109 0.350401 -0.277503
-0.172529 0.310977 -0.321341
0.219126 0.374070 0.240230
-0.010120 -0.280716 -0.347487
0.133621 0.403896 0.186690
0.068999 0.445068 0.025801
-0.007983 0.132409 0.423128
-0.103279 0.095926 -0.437051
0.010188 0.410566 0.171276
-0.115081 0.241924 0.372057
-0.279151 0.445508 -0.016149
-0.211580 -0.364034 -0.257843
-0.227260 0.186291 -0.406897
-0.281028 -0.120617 0.426256
0.263697 0.203666 0.393988
-0.115124 0.225471 0.382029
-0.072121 -0.359777 -0.264094
0.147243 0.189733 -0.405407
0.021146 -0.438494 0.072066
0.189716 0.140221 0.420715
-0.090537 0.414556 0.162056
-0.066904 -0.197839 0.396435
0.247563 -0.407655 -0.179989
0.223409 0.136445 -0.426309
-0.091261 0.212579 -0.393800
-0.217309 -0.165449 0.411119
0.041883 0.440068 -0.072951
-0.254005 0.205045 0.393286
0.063280 0.409131 0.174592
-0.244028 -0.423574 -0.138265
0.102892 0.443840 -0.043140
-0.028327 0.340121 0.285843
0.286737 -0.444694 0.005105
0.177412 0.381646 -0.232329
0.064821 -0.411315 0.167178
0.026052 -0.436566 0.083376
-0.204821 -0.396590 0.199136
-0.000794 -0.326425 -0.304569
0.134472 -0.417848 -0.154472
-0.236826 0.199522 0.396099
-0.192497 0.080453 0.435927
-0.108039 -0.315012 -0.316282
-0.092236 -0.435479 -0.092596
-0.002543 0.246543 -0.373272
-0.004672 -0.082923 0.435373
-0.066018 0.114526 -0.432677
-0.229879 -0.298590 -0.332015
-0.253380 0.445231 -0.024960
0.248154 -0.071921 0.437116
-0.166456 -0.114202 -0.432473
-0.117298 -0.342822 -0.285952
0.112168 -0.331134 -0.299228
0.230505 0.445341 0.017133
0.209732 0.432801 -0.109158
0.205449 -0.085720 0.434750
0.133215 -0.159608 0.413366
0.209623 0.081902 0.435697
0.260689 -0.207327 -0.395954
0.159199 0.445317 -0.022248
-0.121357 0.316747 0.311218
0.186502 0.170309 0.409459
0.017513 0.153350 -0.420342
0.260714 0.366121 -0.256281
-0.115934 0.411354 -0.173809
-0.255110 -0.253264 0.363655
0.040280 0.007258 0.443046
0.121235 -0.439324 0.066824
0.233487 -0.101387 0.431248
-0.123107 0.342892 0.282700
-0.045325 -0.391252 -0.213966
-0.065900 0.433618 -0.105505
-0.089931 -0.430065 0.111571
0.076037 -0.350721 0.271415
-0.237344 -0.416311 -0.158741
-0.172559 0.052241 0.440133
-0.135289 -0.357271 -0.267324
0.182411 0.381006 0.229059
-0.096626 -0.000510 -0.447580
-0.158146 -0.403044 0.186290
-0.198167 -0.290972 -0.338731
-0.104445 0.096987 0.432461
0.175453 0.172492 0.408515
0.119093 -0.035559 0.441613
0.110406 -0.341911 -0.287004
-0.037229 -0.369323 0.245708
-0.231569 -0.431635 0.105438
-0.044525 0.350116 -0.277869
0.031004 -0.371670 0.242254
-0.264450 0.210116 -0.395055
-0.059085 -0.394004 -0.208565
0.081224 -0.368787 -0.250850
-0.028713 0.437152 -0.089693
-0.209744 -0.049028 -0.444694
0.134518 0.141089 -0.424756
0.286899 0.046034 -0.445074
0.283777 0.308577 -0.323741
-0.126470 -0.416057 0.155092
-0.226663 0.307125 0.320840
0.268355 -0.443017 0.036653
-0.207823 -0.431218 0.107304
0.173874 -0.315773 0.311168
0.005370 -0.004382 -0.447458
0.258639 0.278013 -0.350378
-0.148413 -0.327107 0.299442
-0.088896 -0.375739 -0.240585
0.091513 0.031908 0.442056
0.116968 -0.097051 -0.436571
-0.126288 0.313980 -0.318339
-0.036192 -0.230817 -0.382615
0.166481 -0.263313 -0.360986
0.146000 0.389118 0.215343
0.253886 -0.324181 0.302759
0.027348 0.308933 0.319032
-0.147537 -0.230505 -0.382799
-0.139931 0.442153 -0.059787
0.171682 -0.252329 -0.368643
0.106077 -0.297947 -0.332582
-0.111660 -0.444203 -0.025075
0.245809 -0.438399 -0.077020
0.268243 0.123937 -0.429943
0.018225 -0.434378 0.093166
-0.069447 -0.404306 0.183375
0.221241 0.172712 0.408420
0.253619 0.000107 0.443246
0.235142 -0.352285 0.269399
-0.267236 0.057789 -0.443870
-0.280754 0.036266 -0.445997
0.035020 0.099966 -0.436148
0.285867 0.430880 0.112294
0.100282 -0.328606 -0.302095
0.002430 -0.291526 -0.338242
0.219582 0.012842 0.442871
-0.284266 -0.399125 -0.198515
0.172503 -0.432069 -0.107850
-0.093310 -0.095570 -0.436902
-0.270069 0.239208 -0.378256
-0.005254 -0.242527 -0.375305
-0.238472 -0.026660 0.442404
0.050855 0.400360 0.193749
-0.186099 -0.442168 0.045637
0.196660 0.042411 0.441063
0.225299 0.234081 0.376937
0.054187 -0.262294 -0.361776
0.284061 0.307756 0.320209
-0.119165 0.103153 -0.435436
0.284267 -0.256401 0.361523
-0.151754 0.287724 -0.342498
0.160666 -0.303141 -0.328002
-0.154909 0.145102 0.418958
0.099956 -0.431229 0.107255
0.092476 -0.125988 0.424696
-0.076874 -0.428516 -0.121255
-0.021210 -0.131880 -0.427337
0.021579 -0.128110 -0.428432
-0.288312 0.401393 -0.196075
-0.231073 0.439887 -0.074091
-0.158747 0.055554 -0.444174
0.231046 -0.385784 0.219247
0.230014 -0.105787 -0.434618
0.160562 0.426563 -0.131505
0.174269 0.387005 -0.223269
0.192347 0.211792 0.389848
0.059373 -0.276723 -0.350584
0.047837 0.028176 0.442389
-0.275300 0.360418 0.260236
0.208459 -0.362844 0.255241
0.121813 0.329298 -0.302473
-0.180243 0.352295 -0.275060
-0.248293 0.286043 -0.343980
-0.130595 -0.329082 0.297203
-0.052278 0.104234 0.430841
0.097561 0.316815 0.311150
0.034791 -0.157568 -0.418454
-0.268963 -0.438297 0.073307
-0.007087 0.034486 -0.446165
-0.239657 0.350460 -0.277426
0.072129 0.099780 -0.436190
0.188566 0.365389 0.253005
0.275664 0.314369 -0.317950
0.038330 -0.037500 -0.445783
-0.288917 0.199427 -0.400502
-0.252468 -0.176712 -0.410598
0.147234 0.019829 -0.447005
-0.229391 0.219451 -0.389943
0.208609 -0.271389 0.350368
0.073255 -0.329170 -0.301456
-0.280985 -0.402115 0.188294
-0.059063 0.240211 -0.377575
0.286852 -0.337856 0.287250
0.142310 -0.372969 0.240343
-0.233140 0.418612 0.150842
0.195082 0.102427 0.431245
0.269616 0.411792 0.168444
0.068800 0.428358 -0.125327
0.092243 0.293120 -0.337741
0.277826 -0.399585 -0.197612
0.157431 -0.418849 -0.151690
0.217292 0.000478 0.443257
-0.097350 -0.231702 -0.382091
-0.045408 -0.213229 0.388593
0.045355 -0.425208 0.128288
0.143451 -0.408694 0.173234
0.227269 0.434469 -0.101697
0.180699 0.371319 -0.248632
-0.237652 0.399541 -0.199709
0.255598 0.444416 -0.037053
-0.132576 -0.443150 0.035252
-0.169975 -0.126478 0.424553
0.178892 0.065829 -0.442596
0.118746 0.013882 0.442838
0.193552 -0.438843 -0.074212
-0.238674 0.434667 -0.100811
0.002641 -0.434130 -0.098629
0.019265 0.085630 0.434999
0.040691 0.423071 -0.142809
0.231058 0.381270 0.228613
-0.119045 -0.310461 -0.320833
0.168521 0.415388 -0.164150
0.133397 0.337724 0.288563
-0.288206 -0.316642 -0.314651
-0.021231 0.396543 0.201240
0.049402 0.445453 0.013565
-0.022733 -0.209615 -0.394788
-0.195888 0.112321 0.428964
-0.237775 -0.396696 0.198929
-0.131320 0.438202 -0.084728
-0.177468 -0.187810 0.401442
-0.115051 -0.095999 0.432452
-0.107903 0.035961 -0.446026
-0.040002 -0.303859 -0.327369
0.252565 -0.439852 0.063492
-0.005656 0.105825 0.430485
0.034309 -0.176869 0.406177
-0.096929 -0.186920 0.401828
0.181958 -0.095153 -0.436995
-0.196396 0.438164 -0.084973
-0.105469 0.190472 0.400711
0.229218 0.181351 0.404681
0.095036 -0.311436 -0.319858
-0.070684 0.391287 -0.215910
0.276841 -0.435067 0.090083
-0.225517 -0.376935 -0.238563
-0.092119 0.242140 0.371911
0.108385 -0.444221 0.020161
-0.136759 -0.407683 -0.179925
-0.084784 -0.408839 0.172899
-0.197613 0.047202 0.440610
-0.220857 0.060016 0.439164
0.171159 0.443769 0.039543
0.037358 -0.273148 -0.353357
0.257173 -0.164082 -0.416064
-0.268648 0.230734 0.378916
-0.204462 -0.119917 0.426459
0.247582 0.362687 0.256980
0.152088 0.051534 0.440200
-0.154526 0.332495 0.294494
0.051152 0.005268 0.443109
0.112488 0.442694 -0.055268
-0.117314 -0.408289 -0.178525
0.215578 -0.078202 0.436121
-0.150583 0.240324 -0.377498
0.109408 0.313249 0.314716
-0.275691 -0.339851 -0.289340
0.092565 0.329004 -0.302807
0.175474 -0.379844 -0.233644
0.038253 -0.195955 -0.401748
-0.268875 -0.254324 -0.367287
-0.141337 -0.057500 0.439400
0.114817 0.292578 0.333865
-0.173625 0.184705 -0.407583
0.149892 0.268279 0.353575
0.009311 0.417352 -0.158696
0.051630 -0.415290 0.157223
0.236863 0.413142 -0.169677
-0.130067 0.253429 0.364238
0.054433 -0.062201 0.438655
-0.009882 -0.412920 0.163468
0.147558 0.445531 -0.015424
-0.113149 -0.188654 -0.405430
0.194238 0.427997 0.122217
-0.268801 0.420618 -0.149625
-0.142493 -0.444514 -0.015185
0.223114 -0.381592 0.226336
0.261291 -0.373326 -0.244171
0.022497 0.021309 -0.446958
-0.248592 0.438271 0.079945
-0.191636 -0.039756 0.441217
-0.243581 0.079546 -0.440424
-0.153262 -0.253134 0.363743
0.126597 0.429745 0.116199
0.142091 0.035319 0.441733
-0.139017 0.325007 0.302958
-0.142152 -0.442362 -0.047932
-0.199309 -0.372609 0.240872
-0.070889 -0.300574 0.325913
0.178441 0.153684 -0.420221
0.255126 0.438461 -0.083093
-0.038596 0.445041 0.026086
0.103301 0.386611 -0.223934
0.167820 0.224627 -0.386882
-0.224102 0.337103 0.289267
-0.082338 -0.435618 -0.091974
0.027721 -0.444806 0.001537
0.179768 0.413517 -0.168810
-0.138380 -0.146794 0.417980
-0.053261 0.423972 0.135954
-0.079444 -0.242258 -0.375487
-0.017693 0.039852 0.441305
-0.071625 0.037537 0.441523
-0.220421 -0.437969 -0.079732
-0.154108 -0.291474 -0.338288
-0.206217 -0.323296 0.303645
0.186578 -0.432079 -0.107804
-0.201587 -0.019411 0.442632
0.137224 0.086350 -0.439192
-0.072824 0.395689 0.202916
0.110916 0.292762 -0.338056
0.170571 -0.307743 0.319198
-0.164952 0.142814 0.419782
-0.209483 0.445897 -0.000567
-0.128364 0.290144 -0.340365
0.073929 -0.382886 -0.228500
-0.191120 -0.121441 -0.430370
-0.233233 -0.424643 -0.134586
0.225853 -0.426755 0.122964
-0.025664 0.078438 0.436246
0.014335 0.163348 -0.416742
-0.052924 0.166180 -0.415599
-0.090759 0.325877 -0.306353
-0.215766 0.445552 0.010392
0.004852 0.345171 0.279891
-0.083053 0.189259 0.401259
0.094066 0.138807 0.421224
-0.089903 0.143226 -0.423986
-0.021496 0.401552 0.191409
0.121503 0.407680 0.177945
0.202145 0.317229 -0.315090
-0.011728 -0.431562 0.105766
0.135857 -0.301590 0.325017
-0.038572 0.445677 -0.010797
-0.264782 -0.327427 -0.303432
-0.091295 0.168714 0.410150
-0.128481 0.333880 -0.297276
0.176491 0.401246 -0.196364
-0.234907 -0.351068 -0.275321
-0.074193 -0.443907 -0.031588
0.094713 0.159718 -0.418049
-0.152720 0.167662 -0.414958
-0.220099 0.140777 0.420515
0.231219 0.005936 0.443088
-0.217819 -0.314085 0.312855
-0.046268 -0.222583 0.383131
0.073351 -0.374453 -0.242512
0.202876 0.439781 -0.074763
0.052613 -0.442973 0.037115
0.283728 0.438840 -0.080703
0.198048 0.287121 0.338676
-0.027151 -0.412978 -0.167689
0.253379 0.037246 0.441551
-0.219073 0.440169 0.067957
-0.176484 0.035320 0.441733
0.131962 -0.133330 0.422562
0.113586 -0.269420 -0.356248
-0.006626 -0.442998 -0.041210
0.123091 0.426386 0.127760
0.065115 -0.425564 0.127064
-0.078101 -0.441413 -0.057971
0.212286 -0.362738 -0.259750
-0.137453 0.230247 0.379204
-0.146506 -0.363922 0.253655
0.087850 0.402761 0.189036
0.283093 0.095540 0.432784
-0.185935 0.060573 -0.443429
-0.103866 -0.151276 0.416366
0.151667 -0.181929 0.403987
-0.113025 0.430308 -0.118615
0.045513 0.068077 -0.442240
0.286647 -0.393770 -0.209025
0.067262 0.203202 0.394225
-0.067822 0.391120 0.211883
0.094378 0.373752 0.240698
-0.245222 0.319389 -0.312930
0.173597 -0.282354 -0.346216
0.249441 0.374805 0.239149
-0.288418 -0.281259 -0.347065
0.166012 0.316072 0.311893
-0.193545 0.352819 -0.274385
-0.057581 -0.420246 0.143457
-0.061531 -0.439713 0.064370
0.141400 0.302177 -0.329756
-0.126788 0.018982 -0.447031
0.030935 0.088786 0.434294
0.271464 0.185311 -0.407321
0.113834 0.023553 -0.446888
0.149896 -0.423902 0.132785
-0.263644 0.396201 0.201911
0.140171 -0.016673 -0.447072
-0.281486 0.075559 -0.441055
-0.086896 -0.128827 -0.428224
0.126495 -0.120196 -0.430732
0.206171 -0.271996 -0.354251
0.043272 0.397378 -0.203955
-0.199272 -0.111251 0.428977
-0.073474 -0.248409 -0.371307
-0.289996 0.358435 0.262792
-0.288525 -0.298727 -0.331894
-0.056441 0.441615 -0.063183
-0.031915 -0.221582 0.383723
-0.112433 -0.169216 0.409489
0.202204 -0.193943 0.398420
0.077374 0.141040 -0.424774
-0.066205 0.189727 0.401056
-0.088170 0.179857 -0.409681
-0.147500 -0.248766 -0.371065
0.139297 0.203377 0.394135
-0.092713 0.154399 -0.419964
0.034704 0.274274 -0.353278
-0.216590 -0.277198 -0.350215
0.069925 -0.046215 -0.444960
0.004426 -0.132376 -0.427193
0.189781 -0.386291 0.218390
-0.282565 0.287990 0.337910
0.113655 -0.421976 0.138653
-0.270238 -0.352217 0.269487
0.146380 -0.444392 -0.019072
0.204502 0.053010 0.440061
0.181882 0.442208 -0.059440
0.139451 0.338302 -0.292260
0.125808 -0.387235 0.216792
-0.285426 -0.438417 0.072550
0.173777 -0.230688 -0.382691
-0.047597 0.410334 -0.176167
-0.060413 0.445104 0.024666
-0.073536 -0.403112 -0.190487
0.175299 0.172556 -0.412840
0.281901 0.432085 -0.112362
-0.142489 -0.442505 0.042075
-0.152644 0.156950 -0.419046
0.251747 0.369704 -0.251008
-0.109264 0.441019 0.062590
0.207883 0.435031 0.094830
-0.164363 -0.426843 -0.127014
0.111998 -0.027931 0.442335
0.174335 0.053949 0.439972
0.256364 -0.149289 0.417082
-0.111835 0.407805 -0.182009
0.214886 0.201672 -0.399357
0.068585 -0.200682 -0.399340
0.011045 -0.129168 0.423772
-0.054259 0.395423 -0.207792
0.042240 0.058563 -0.443747
-0.041258 0.394523 -0.209558
-0.132825 -0.366494 -0.254224
-0.173217 -0.177998 0.405689
0.056074 -0.393540 0.205122
0.220851 -0.443445 -0.036483
-0.040339 -0.441947 0.047973
0.056912 0.414132 0.163037
-0.216418 -0.423764 0.133258
0.189718 0.363477 -0.260171
-0.193978 0.386752 -0.223696
-0.083853 -0.286881 0.337984
-0.187793 0.037479 0.441529
0.066778 0.431907 0.108758
0.084300 -0.286149 0.338629
-0.088091 0.391519 0.211101
0.196976 0.076319 -0.440935
0.246600 0.101304 -0.435849
0.004735 0.443731 -0.044293
0.109822 0.349703 -0.278402
-0.041720 0.102935 -0.435485
-0.042050 0.294756 0.331945
0.108812 0.444793 0.028705
0.196988 0.203138 0.394257
0.198412 -0.218110 -0.390130
0.071133 -0.416481 0.153916
-0.102728 -0.414412 0.159662
-0.232747 0.430422 -0.118224
0.143622 -0.395893 -0.204858
-0.251604 -0.153468 0.415577
0.277903 -0.442358 -0.047978
-0.167483 -0.138547 0.420949
0.221597 -0.411817 0.166018
-0.218835 0.276436 0.347248
-0.204267 -0.082782 0.435396
-0.155537 -0.444523 -0.014879
0.052508 0.366252 0.251734
0.255158 -0.389393 -0.217498
0.171258 0.375806 -0.242029
0.198814 -0.441811 0.049415
0.125582 -0.304583 -0.326711
-0.247920 0.408299 -0.180870
-0.114415 -0.394465 0.203308
0.149501 0.278692 0.345498
-0.169000 -0.371614 0.242337
0.150873 -0.229757 -0.383242
0.160575 -0.415784 0.155851
0.135335 0.379568 -0.235844
-0.252858 -0.332314 -0.297890
0.179538 0.443757 -0.044023
0.155881 0.271523 -0.355413
-0.130734 0.365910 0.252237
0.023703 -0.089573 -0.438242
0.286944 0.181728 -0.408871
-0.141105 0.381223 -0.233046
-0.171605 0.151103 0.416797
0.262886 0.350929 0.272468
0.213379 -0.296305 0.329676
-0.264457 0.221446 0.384409
0.031999 -0.383562 0.223004
-0.126684 0.403888 0.186708
-0.088337 0.248096 -0.372216
-0.090517 -0.391632 0.208867
0.118321 0.409687 -0.177661
-0.107793 0.148633 0.417686
0.179724 -0.139672 0.420544
-0.114241 -0.437910 0.075748
-0.114208 -0.389983 -0.216458
-0.020310 -0.349375 0.273151
-0.103432 0.377690 0.234665
-0.193067 0.443491 0.042480
0.103689 -0.327621 0.298860
-0.058339 0.362059 -0.262257
0.168834 -0.377712 0.232896
0.228300 -0.440031 -0.066714
0.268171 -0.228485 -0.383994
0.079462 -0.041390 -0.445416
0.269996 0.359632 -0.265601
-0.040710 -0.203328 0.393638
-0.010807 -0.089888 -0.438172
0.033980 -0.002753 -0.447509
-0.107127 -0.215446 -0.391705
0.215518 -0.418043 -0.153931
-0.250504 -0.094419 -0.437159
0.009366 0.048376 -0.444852
0.056144 0.424428 -0.138854
-0.206136 0.407219 0.179011
-0.171111 -0.170309 -0.413369
-0.275436 0.435800 -0.095741
0.157751 0.310719 0.317246
0.086118 -0.444442 0.013108
0.272735 0.004261 0.443141
-0.272852 0.310860 0.317105
0.021122 -0.364260 0.253157
0.017917 0.215622 0.387854
-0.198820 0.431317 0.110790
0.068584 0.324764 -0.307554
-0.166735 0.381804 -0.232063
0.058571 -0.096444 0.432353
0.228560 0.059757 0.439205
0.048634 -0.181144 -0.408681
0.038711 0.048258 -0.444863
0.014347 -0.205414 -0.396929
-0.202811 -0.160014 -0.417573
-0.279378 -0.404505 -0.187267
0.139345 -0.351349 -0.274959
-0.217952 -0.400522 -0.195774
0.012191 -0.367286 0.248705
0.257921 0.404380 0.185570
0.163325 -0.077054 0.436303
0.038158 -0.441209 0.054919
0.039245 -0.199925 0.395372
0.070545 -0.204911 0.392831
0.020522 0.440127 -0.072574
0.111647 0.392008 0.210141
-0.065990 0.249832 0.366683
0.203264 -0.444120 0.023363
-0.148905 0.442812 -0.054015
0.234325 0.431996 0.108406
-0.117128 0.398057 0.198268
-0.160804 0.269834 0.352369
0.112331 -0.443620 0.030280
0.029780 -0.421009 0.141339
0.148880 -0.437072 -0.085392
0.094402 -0.434316 0.093445
-0.033426 -0.106782 -0.434396
0.200937 0.306480 0.321485
-0.181208 0.156337 -0.419266
0.148869 -0.337232 -0.292311
0.244384 -0.441332 0.054147
0.190600 0.432051 0.108161
-0.079304 -0.323784 -0.307510
-0.018407 -0.396086 -0.204479
-0.263902 -0.005978 0.443054
0.243880 -0.246751 -0.372434
0.054273 0.357225 -0.268705
-0.199695 -0.317968 0.308972
0.209119 0.372236 -0.247283
-0.076736 0.445404 -0.019483
-0.257943 0.406323 0.181083
-0.076852 0.427153 -0.129475
0.102678 -0.306083 0.320857
-0.075930 -0.398098 -0.200531
-0.152572 -0.429412 -0.118172
0.163638 0.074439 -0.441233
-0.059697 -0.126355 0.424589
-0.008375 -0.341585 -0.287374
-0.014849 -0.074195 0.436756
-0.111029 0.142345 -0.424304
0.113340 0.376902 0.235999
-0.276674 0.378253 -0.238066
0.274268 -0.014095 -0.447153
0.286336 0.343775 -0.286045
0.130978 -0.360219 0.259104
0.166600 -0.442253 -0.049087
0.196462 0.409344 0.174101
0.155090 0.103765 0.430946
-0.251778 0.087540 -0.438926
0.044656 0.272936 -0.354316
0.274873 -0.425341 0.127831
0.261313 0.214509 0.388463
0.265949 0.245831 0.369403
-0.199280 -0.092553 0.433223
-0.259430 0.346421 0.278280
-0.172813 0.427854 0.122707
-0.241001 0.314323 0.313642
-0.100481 0.140647 0.420562
-0.062866 -0.239000 -0.377701
0.004431 -0.381961 0.225711
0.186348 0.388805 -0.220224
-0.273748 0.414842 0.161313
0.258968 0.415815 -0.162966
0.143222 -0.443517 0.031366
-0.120580 0.210669 -0.394773
0.262638 -0.062153 0.438663
-0.146004 -0.150173 -0.421116
0.018136 -0.138272 -0.425401
-0.149410 0.229430 0.379688
-0.115801 -0.152367 0.415973
0.119875 -0.435820 -0.091068
0.233733 -0.013174 -0.447182
0.053021 -0.292172 -0.337673
-0.036122 0.258836 -0.364918
0.226096 0.443768 -0.043900
0.229346 -0.307644 0.319297
0.286643 -0.387834 0.215780
0.265660 0.445028 -0.030578
0.078132 0.384428 -0.227626
0.154324 0.434205 -0.102877
-0.213232 -0.240822 0.372110
0.039789 -0.417766 0.150345
-0.141615 -0.334445 -0.295473
-0.225109 -0.252466 -0.368550
-0.231977 0.307514 -0.324804
-0.037352 0.364470 -0.258710
-0.159775 -0.308257 -0.323037
0.208905 -0.304802 0.322138
-0.174393 -0.408314 -0.178465
-0.136704 -0.421778 -0.143556
0.207856 -0.034318 0.441731
0.212171 0.411037 -0.174541
0.224302 0.103515 0.431002
-0.133458 -0.394219 -0.208144
0.222760 -0.442463 0.042512
-0.088868 -0.444846 0.000273
-0.147631 -0.342913 0.281482
0.050767 0.337987 -0.292617
-0.102232 0.308338 -0.323981
0.190761 0.315918 -0.316400
0.017910 -0.346671 -0.280989
-0.157784 -0.443368 -0.037295
-0.208301 0.117132 -0.431920
0.034069 0.425559 0.130609
-0.136777 0.087906 0.434491
-0.034135 -0.409457 0.171472
0.044350 0.166799 -0.415331
-0.132913 -0.227390 0.380288
0.028925 0.245198 0.369832
-0.222076 0.400833 0.192820
0.247468 0.072202 -0.441587
-0.232305 0.210057 0.390732
0.209397 -0.304467 -0.326827
-0.239071 -0.422846 0.136234
0.200849 0.362303 -0.261899
-0.027082 -0.437891 0.075870
-0.140072 0.427479 -0.128354
-0.135905 0.141244 -0.424700
-0.085469 -0.232127 0.377487
0.013133 0.216281 -0.391817
-0.210872 0.246843 0.368714
0.211918 0.116027 0.427887
0.238044 -0.229012 0.379329
0.205541 -0.011008 0.442896
0.140772 0.271768 0.350869
0.269256 -0.079426 0.435927
-0.264507 -0.426381 -0.128605
0.223920 -0.363994 -0.257903
0.232150 -0.412916 -0.167832
0.212353 -0.285607 0.339108
-0.054132 -0.049743 0.440273
0.107482 0.354083 0.268402
-0.150361 -0.396621 -0.203430
0.019242 -0.174466 -0.411570
0.131703 -0.344552 -0.283722
0.101608 -0.278896 -0.348898
-0.262321 0.292189 -0.338561
-0.184195 0.325892 -0.306337
0.111072 -0.346237 0.277196
0.260192 -0.008938 0.442961
0.111582 -0.133766 -0.426789
-0.132208 0.276669 -0.351421
0.146713 -0.209445 0.390522
-0.170426 0.317226 0.310740
-0.231350 0.433090 0.103512
0.251998 0.171689 0.408862
-0.224191 0.242414 -0.376078
0.134976 0.248090 -0.372220
0.261587 0.250170 -0.370807
0.267995 0.382756 0.226100
0.088529 -0.385654 -0.223821
-0.238627 -0.000582 0.443224
0.233030 0.407957 -0.181659
-0.062527 -0.337943 0.287151
0.272073 -0.008193 0.442985
0.097547 -0.110914 -0.433428
-0.102528 -0.150765 -0.420903
0.120599 -0.436884 0.081957
-0.255348 0.427890 0.122586
-0.127865 -0.088527 0.434123
0.020160 -0.322899 -0.308395
0.274386 -0.063397 0.438466
-0.097916 0.008433 0.443009
-0.138400 -0.434291 -0.097908
0.241596 0.428029 0.122105
0.194632 -0.347786 0.275199
-0.250368 -0.397418 0.197512
0.237697 -0.024919 0.442459
-0.288306 -0.258811 -0.364238
-0.114349 0.286007 0.339658
-0.133245 -0.444687 -0.009683
-0.049106 0.300520 0.326863
0.108789 -0.444564 0.009234
0.072550 0.439121 0.074574
-0.100343 0.315375 0.312590
0.216333 -0.444155 -0.026607
0.252092 -0.251669 0.364738
0.118156 0.445538 -0.015190
-0.230739 -0.435246 -0.093637
0.018226 0.438563 -0.082455
0.090897 -0.123764 -0.429695
0.180050 -0.444249 0.019273
-0.006201 0.177834 -0.410556
0.184732 0.319906 0.308059
0.179073 0.394058 -0.210471
0.052477 0.433837 -0.104522
-0.105459 -0.240998 0.371990
-0.141756 -0.256648 -0.365708
0.207519 -0.140101 0.420389
0.074780 -0.410671 -0.173018
0.244618 -0.436794 -0.086712
0.062223 0.136047 -0.426424
0.053051 -0.335930 0.289435
0.219626 -0.310765 -0.320529
-0.056639 0.270054 0.352199
-0.052967 -0.157595 0.414091
0.223943 -0.165758 -0.415339
-0.199580 0.289777 0.336335
0.145604 -0.434126 0.094293
-0.206745 0.131170 -0.427841
0.179709 0.259364 -0.364559
-0.286150 0.140292 0.420689
-0.246619 -0.442504 -0.046438
-0.143074 -0.352736 -0.273171
0.154962 -0.135608 0.421901
-0.281230 -0.413522 0.162077
0.019328 -0.123666 0.425370
0.285382 0.285138 -0.344777
-0.198671 0.256859 0.361907
-0.180781 0.224414 -0.387007
-0.143661 0.005346 0.443106
0.201526 -0.444801 0.001691
0.190734 0.439419 -0.077047
-0.005094 0.292814 0.333657
0.190253 -0.272211 0.349730
-0.125484 -0.037500 0.441430
-0.207265 -0.311258 0.315683
-0.219667 0.437315 0.084612
-0.154804 -0.021727 0.442559
-0.192603 0.307980 -0.324339
0.053600 0.443427 -0.047514
0.241311 -0.163669 0.411889
0.146636 -0.093190 -0.437434
0.102357 0.425731 0.130016
0.050117 -0.128014 0.424107
0.199345 0.341636 -0.288478
0.210708 0.251135 -0.370151
-0.259942 -0.047240 0.440509
-0.283819 0.239021 0.374015
0.237295 -0.281835 -0.346619
0.022334 0.419797 -0.151903
0.247442 0.329326 -0.302442
0.030427 -0.308108 -0.323186
0.126017 0.216820 0.387145
-0.138260 0.387246 -0.222861
-0.242237 0.384014 -0.228326
-0.083329 -0.403368 0.185541
-0.180083 -0.099504 -0.436023
0.102076 0.031949 -0.446405
-0.288374 -0.002536 0.443162
0.069838 0.028574 0.442371
0.273097 0.352746 -0.274479
-0.164247 -0.414970 -0.162464
0.152773 0.444893 -0.032003
-0.005761 -0.262126 -0.361906
-0.100991 -0.078793 -0.440381
-0.013537 0.387439 -0.222534
0.266265 0.443854 -0.042996
-0.075722 -0.202171 0.394228
-0.225188 -0.071075 -0.441603
-0.179096 -0.040763 0.441122
0.069275 0.176457 -0.411152
0.006619 -0.106730 0.430054
-0.138500 -0.427626 -0.124319
-0.074985 0.003824 0.443154
-0.179081 -0.386147 0.218632
-0.275880 -0.213221 0.388598
0.137280 -0.034908 0.441675
-0.014543 -0.442136 0.045974
0.026254 -0.391998 -0.212503
0.248030 -0.225061 0.381666
0.216950 0.445676 -0.010816
-0.008428 -0.327418 0.299090
-0.255613 -0.141295 0.419959
0.139624 -0.046369 0.440592
0.076656 -0.270092 0.351374
-0.289964 -0.356795 0.263585
0.235412 0.134636 -0.426834
-0.198993 -0.136488 -0.425998
0.184588 0.074215 0.436915
-0.271077 0.441483 0.059660
-0.238991 -0.058215 0.439287
-0.049649 0.255424 0.362882
-0.165369 -0.192008 0.399406
0.125103 -0.200788 -0.399286
0.016129 0.016632 0.442752
-0.140266 -0.264762 0.355509
-0.211266 -0.444515 0.010807
-0.143056 0.107532 -0.434457
-0.000048 -0.444368 0.015476
0.154012 -0.111078 -0.433381
-0.215090 -0.400761 0.190951
-0.231360 0.433034 -0.108117
0.069009 -0.402159 0.188207
-0.280890 0.267360 -0.358642
-0.242633 0.022997 -0.446905
-0.124393 -0.170954 -0.413090
-0.269385 -0.374954 -0.241775
-0.287831 -0.444228 0.019926
0.010798 -0.053545 0.439913
0.177879 0.267711 -0.358369
0.096991 -0.248140 0.367137
0.174451 0.181948 -0.408776
0.146002 -0.248279 0.367042
-0.112601 -0.243976 -0.374320
0.275151 -0.278535 -0.349178
0.060159 0.429387 0.117433
-0.222287 -0.444250 -0.023588
-0.288487 -0.436892 0.081920
-0.280312 0.323778 -0.308540
-0.121648 -0.407543 0.175894
-0.020424 -0.002465 -0.447518
0.192323 0.296295 -0.334941
-0.124832 0.413780 -0.168203
-0.272822 0.027759 -0.446756
-0.215684 -0.378933 0.230831
-0.062723 0.015017 0.442802
0.009751 0.295484 -0.335656
-0.166279 0.261606 0.358681
0.219004 0.049285 -0.444766
-0.109172 -0.431760 -0.109234
-0.122527 -0.443627 0.030199
-0.261668 -0.339773 -0.289429
0.020977 0.442960 -0.052447
0.204200 0.388404 -0.220903
0.195691 -0.040218 0.441173
-0.058683 0.438253 -0.084412
-0.268596 0.339286 0.286791
-0.064519 0.204540 -0.397896
-0.108252 -0.039946 -0.445552
0.246099 0.322325 -0.309993
0.023517 -0.153655 -0.419863
0.202395 -0.199938 -0.399719
-0.050937 -0.321747 0.305193
-0.165613 -0.021115 0.442579
-0.180493 0.375898 0.237541
0.074860 0.117945 0.427330
-0.190772 0.392259 -0.214001
0.226643 0.364808 -0.258212
-0.011392 0.050136 0.440332
-0.050499 0.340395 -0.289885
0.096006 0.097383 -0.436726
0.019397 0.195667 0.398064
-0.120393 -0.131601 0.423065
0.245014 -0.288189 -0.341184
-0.006799 0.236735 -0.379721
0.001944 -0.121109 -0.430467
-0.204251 0.150815 -0.421254
-0.125635 0.362086 -0.262217
-0.281123 -0.033658 -0.446147
0.158886 -0.206147 0.392202
0.206299 0.384856 0.222549
-0.200492 -0.444516 0.010755
0.025445 -0.430305 0.110746
-0.080618 -0.423216 -0.139497
-0.106639 -0.089555 -0.438246
0.058716 0.336233 0.290253
-0.211156 0.346096 -0.283053
0.089816 0.438019 0.081463
-0.185472 0.375643 -0.242269
-0.105287 -0.343453 -0.285139
0.103916 -0.443180 0.034932
-0.260433 -0.156607 -0.418800
0.239597 -0.053380 0.439929
0.277489 -0.428319 0.117582
0.083958 0.440014 -0.073293
0.137388 0.305529 0.322436
-0.266416 -0.209849 -0.394669
-0.054009 0.419937 -0.151516
-0.152692 -0.406344 0.178665
0.285540 -0.437174 -0.084751
0.247648 -0.043793 0.440835
0.070553 -0.275487 -0.351543
-0.134905 -0.130580 0.423362
0.222021 0.157640 0.414444
0.009165 -0.441679 0.050812
0.065911 -0.397351 -0.201996
-0.208915 -0.169639 -0.413659
-0.130891 -0.261807 0.357801
0.259532 0.314287 0.313679
-0.104808 -0.428585 0.116665
0.011661 -0.323415 0.303525
0.105548 -0.428538 0.116826
0.095723 0.445387 0.015642
0.192422 -0.372934 -0.244747
-0.237543 -0.367931 0.247755
0.178535 -0.402691 -0.191461
0.065608 0.344335 0.280969
-0.176921 0.427523 -0.128203
-0.112542 -0.441385 -0.058162
0.036396 0.027101 -0.446776
0.214033 0.405740 -0.186783
-0.270503 0.443381 -0.047996
0.148303 -0.429759 -0.116976
0.285206 -0.206956 -0.396143
-0.092848 -0.045747 0.440650
0.071585 0.007998 -0.447377
0.135347 -0.168608 0.409752
-0.281104 -0.077045 0.436304
0.052483 -0.275932 0.346844
-0.140926 -0.415252 -0.161683
-0.018320 -0.162971 -0.416509
0.210918 -0.091955 -0.437710
-0.084642 -0.184192 0.403008
0.228012 -0.420507 0.142732
-0.198599 -0.349507 0.272980
0.269749 0.235576 0.376053
0.253020 0.349432 0.274398
0.032251 -0.336723 -0.292889
-0.098440 -0.241425 -0.376053
-0.089884 0.289784 0.336329
-0.252296 0.299092 0.328122
0.212931 0.291562 0.334761
0.214170 -0.242821 -0.375104
0.080214 0.444588 0.030873
0.133065 0.443983 -0.041624
0.276719 0.413542 -0.168753
-0.147331 0.440205 -0.072086
-0.210345 -0.131918 -0.427326
0.263443 0.083076 -0.439865
0.282483 -0.144630 -0.423112
-0.110410 -0.266610 0.354075
-0.117445 -0.234064 -0.380694
-0.221767 -0.438852 0.069803
0.227482 0.189282 -0.405602
-0.247309 -0.379982 0.229057
0.273513 -0.389892 0.212283
-0.164161 0.428122 -0.126139
0.240533 -0.393166 0.205856
0.236075 0.345464 -0.283867
0.267292 -0.320732 0.306208
0.019377 -0.113101 0.428440
0.070655 0.127631 -0.428869
-0.193259 -0.369893 -0.249223
-0.106567 -0.100530 -0.435793
0.158196 0.443946 0.037666
-0.110899 0.085140 -0.439462
-0.126938 0.252053 -0.369527
0.159889 -0.008416 -0.447331
0.001290 -0.421150 -0.145299
0.039539 0.445256 0.019812
-0.242023 0.393871 -0.210839
0.127423 -0.430219 -0.115394
-0.116895 -0.325456 0.301315
-0.040253 0.293094 -0.337764
-0.029282 -0.389139 -0.217927
0.174403 -0.428802 -0.120271
-0.160784 -0.076967 -0.440670
0.108506 -0.156217 0.414587
-0.080779 -0.439825 -0.068016
-0.032040 -0.362405 -0.260240
0.165778 -0.078219 -0.440472
0.130705 0.330682 0.296549
-0.046258 -0.025674 0.442435
0.054160 0.230858 0.378843
0.087841 0.167649 -0.414964
0.229036 0.053033 -0.444412
-0.236516 0.012770 -0.447227
0.127143 0.369050 0.247616
-0.149342 0.123519 -0.430064
0.015325 -0.415937 0.155425
-0.144660 0.402666 0.189224
0.009397 -0.117652 0.427117
-0.050753 0.204077 -0.398132
0.137008 -0.075881 0.436489
-0.281636 -0.296175 0.329791
0.230824 0.397016 -0.204665
0.153325 0.417496 -0.158295
-0.175713 0.421428 -0.147374
0.066769 -0.420633 0.142384
0.114510 -0.001760 -0.447540
-0.042680 0.158573 -0.418461
-0.224070 0.150429 0.417040
0.193631 -0.443127 -0.039848
0.170904 -0.205451 0.392556
-0.231733 -0.281467 0.342551
-0.133093 0.215587 0.387874
0.262532 -0.426071 0.125317
-0.266075 0.268674 -0.357623
0.013390 0.314466 0.313499
-0.122857 -0.359413 0.260209
-0.028450 0.354868 0.267390
0.278614 -0.409872 -0.174865
-0.001493 -0.444719 0.004306
-0.191028 -0.292558 0.332979
0.043923 0.320755 -0.311564
-0.122846 0.064076 0.438521
0.011592 -0.361089 0.257823
-0.015987 0.125957 0.425002
0.259528 -0.431654 0.105353
0.286895 0.269871 0.352340
0.262717 -0.438992 0.068920
-0.287599 -0.249684 0.366087
-0.044760 0.011534 0.442912
0.195990 -0.278360 0.344961
-0.243295 -0.340808 0.283901
0.101480 0.194803 -0.402857
0.213236 -0.120831 -0.430547
0.255894 0.260035 0.359749
-0.038822 -0.421776 -0.143561
-0.118939 0.386142 0.220374
-0.041246 -0.293680 -0.336343
0.055037 0.308289 0.319676
-0.254306 0.372029 -0.247588
0.232711 -0.297077 -0.333349
-0.024284 0.272181 0.350548
0.039214 -0.444427 -0.017940
-0.171217 0.444681 -0.034246
0.092066 -0.436976 0.081542
-0.132722 0.028541 0.442374
0.271641 0.318390 0.309575
0.118310 0.015162 -0.447151
-0.234009 0.177679 0.406270
-0.152929 0.326097 0.301750
-0.236190 -0.227609 0.380158
-0.120325 0.412294 0.167284
0.046264 0.383194 0.225359
0.099723 -0.315640 0.311301
0.211029 0.127346 0.424599
-0.071266 -0.365901 -0.255096
0.100810 0.405711 0.182496
0.008733 -0.034668 0.441698
-0.094639 -0.112067 -0.433093
-0.089064 -0.306639 -0.324654
0.285616 0.429587 -0.121095
0.161302 -0.224844 -0.386147
0.057448 0.323074 -0.309245
-0.067109 -0.063891 -0.442741
0.185711 0.109634 0.429634
0.132725 0.090810 0.433842
-0.203654 -0.118553 -0.431209
0.097543 0.444959 0.026953
-0.251854 0.131192 0.423481
0.045936 0.414965 0.160973
-0.198796 0.421105 -0.148270
0.267769 -0.150791 -0.420894
-0.243359 -0.419238 0.146258
0.005835 -0.044048 0.440811
-0.045809 -0.218632 -0.389821
-0.080679 0.411562 -0.173329
0.134241 -0.403718 -0.189087
-0.103787 -0.417312 -0.155960
-0.238204 -0.209736 -0.394727
-0.217580 0.381328 0.228515
0.030959 0.301650 0.325867
-0.256066 -0.235738 0.375351
0.266284 0.222389 -0.388205
0.071494 0.445659 0.007015
0.115023 -0.287243 -0.342018
0.157113 0.404767 0.184678
-0.243357 -0.391757 -0.212975
0.025056 -0.407088 -0.181300
-0.028266 0.426425 -0.131981
-0.168538 -0.305260 0.321681
-0.264956 -0.092445 -0.437600
0.060938 0.235535 -0.380430
-0.035233 0.384359 -0.227742
0.236786 0.445009 0.026419
0.186536 0.264987 0.356129
-0.078263 -0.416536 0.153763
-0.140645 0.243752 -0.375169
0.163268 -0.365241 0.251714
0.056022 -0.192260 -0.403631
0.079966 0.306706 -0.325612
-0.142559 -0.444615 0.007605
0.024994 -0.064920 0.438225
0.209678 0.281871 0.343033
0.145226 0.067079 -0.442399
0.208088 -0.443388 -0.037087
