-0.290288 0.450819 0.147418
-0.290288 -0.393336 -0.223642
-0.290288 0.065349 -0.452604
-0.290288 -0.158526 -0.455935
-0.290288 0.049116 -0.480265
-0.290288 0.199407 0.416487
-0.290288 0.085866 0.472176
-0.290288 -0.367932 0.321630
-0.290288 -0.424398 -0.258273
-0.290288 -0.417408 0.242392
-0.290288 0.386680 -0.290200
-0.290288 -0.266979 -0.390222
-0.290288 0.042465 -0.498157
-0.290288 0.261841 -0.392001
-0.290288 -0.280802 -0.411143
-0.290288 0.484134 0.046415
-0.290288 0.371007 0.330650
-0.290288 -0.016708 0.483569
-0.290288 -0.119120 -0.447668
-0.290288 0.421111 -0.226632
-0.290288 0.490192 0.083324
-0.290288 0.271348 -0.411264
-0.290288 0.445951 0.015598
-0.290288 0.468995 -0.154094
-0.290288 -0.483169 0.013896
-0.290288 -0.168841 0.444674
-0.290288 0.160181 0.444787
-0.290288 0.134507 -0.450785
-0.290288 0.314635 0.347978
-0.290288 0.296552 -0.386237
-0.290288 0.224029 0.442870
-0.290288 0.472698 0.101540
-0.290288 0.398867 -0.250291
-0.290288 -0.453765 -0.082764
-0.290288 -0.068613 -0.472385
-0.290288 -0.389614 -0.233844
-0.290288 0.438778 0.222198
-0.290288 -0.249246 0.376863
-0.290288 -0.476531 -0.012885
-0.290288 0.492847 0.053409
-0.290288 0.444945 0.146278
-0.290288 -0.446079 0.114763
-0.290288 -0.429428 -0.121955
-0.290288 0.209358 0.419685
-0.290288 0.420423 0.225398
-0.290288 -0.102007 -0.471471
-0.290288 -0.288903 -0.378751
-0.290288 0.022947 0.464960
-0.290288 0.287416 -0.384217
-0.290288 0.398589 0.258351
-0.290288 0.141202 0.430657
-0.290288 0.441673 -0.224600
-0.290288 0.423959 -0.195085
-0.290288 0.040365 -0.472169
-0.290288 0.469239 0.114976
-0.290288 -0.392123 -0.287467
-0.290288 0.164997 -0.434714
-0.290288 -0.081272 0.478261
-0.290288 0.417433 -0.233199
-0.290288 0.441097 -0.177267
-0.290288 0.360015 -0.280653
-0.290288 -0.321186 0.371919
-0.290288 -0.472153 0.142074
-0.290288 0.411035 -0.235679
-0.290288 0.131159 0.462110
-0.290288 0.427090 0.134177
-0.290288 0.075276 -0.467586
-0.290288 0.445703 -0.015740
-0.290288 0.334990 -0.348957
-0.290288 0.410151 0.202654
-0.290288 0.448936 0.047224
-0.290288 0.479900 -0.060718
-0.290288 0.422115 0.202903
-0.290288 0.417734 -0.187555
-0.290288 0.444324 -0.189103
-0.290288 0.353691 0.315053
-0.290288 -0.269192 0.372959
-0.290288 -0.370268 0.329064
-0.290288 -0.162876 -0.427783
-0.290288 0.251129 0.381951
-0.290288 0.230161 0.390015
-0.290288 0.441321 0.155183
-0.290288 0.230154 -0.392162
-0.290288 -0.296295 0.341747
-0.290288 0.234931 0.397994
-0.290288 -0.442924 -0.043072
-0.290288 -0.465281 -0.167013
-0.290288 -0.296838 0.329466
-0.290288 -0.438395 0.092676
-0.290288 -0.161019 -0.417355
-0.290288 -0.447865 0.035106
-0.290288 0.179099 -0.455706
-0.290288 -0.384466 -0.298625
-0.290288 -0.153865 0.456973
-0.290288 -0.299330 0.352991
-0.290288 -0.251987 -0.430929
-0.290288 -0.292161 0.351400
-0.290288 -0.473485 0.078078
-0.290288 -0.393818 -0.290125
-0.290288 0.380789 -0.322467
-0.290288 0.360550 -0.318162
-0.290288 0.470451 -0.102633
-0.290288 -0.137427 0.472808
-0.290288 0.010758 -0.451167
-0.290288 -0.471996 -0.083450
-0.290288 0.294807 -0.378450
-0.290288 0.064583 -0.489268
-0.290288 -0.348301 -0.292166
-0.290288 0.405725 -0.250208
-0.290288 0.015989 0.482096
-0.290288 -0.314905 -0.382228
-0.290288 0.465365 -0.106598
-0.290288 -0.113198 -0.439376
-0.290288 0.076994 0.437719
-0.290288 -0.460360 -0.118680
-0.290288 -0.017927 -0.479028
-0.290288 0.095873 0.475070
-0.290288 0.445088 -0.157195
-0.290288 0.382970 -0.312490
-0.290288 0.168679 0.449166
-0.290288 -0.429355 -0.166439
-0.290288 -0.438092 -0.202639
-0.290288 -0.219965 -0.425508
-0.290288 -0.152304 0.469352
-0.290288 -0.097355 -0.478027
-0.290288 -0.153010 -0.474856
-0.290288 -0.091578 -0.438172
-0.290288 -0.173584 -0.447010
-0.290288 0.469959 -0.112285
-0.290288 0.380648 -0.304038
-0.290288 -0.315537 0.333798
-0.290288 0.261265 0.385742
-0.290288 0.012232 0.474774
-0.290288 -0.413317 -0.180136
-0.290288 -0.442067 -0.057808
-0.290288 0.165385 0.435175
-0.290288 0.478777 0.029728
-0.290288 0.345187 -0.285026
-0.290288 0.447634 0.099047
-0.290288 0.078130 0.448323
-0.290288 0.481578 0.111564
-0.290288 0.332314 0.337514
-0.290288 -0.020471 0.464216
-0.290288 -0.400326 0.277295
-0.290288 -0.466339 0.114629
-0.290288 0.325886 -0.358066
-0.290288 0.022750 0.473111
-0.290288 0.475643 0.127999
-0.290288 0.313787 -0.381694
-0.290288 0.253125 0.420721
-0.290288 0.479313 0.000340
-0.290288 -0.314675 -0.319870
-0.290288 0.223163 -0.428813
-0.290288 -0.314220 0.374348
-0.290288 0.238466 0.395219
-0.290288 -0.384703 -0.301904
-0.290288 0.335073 -0.330631
-0.290288 0.444882 -0.068803
-0.290288 0.156905 0.426093
-0.290288 0.360425 -0.287905
-0.290288 -0.429662 -0.176514
-0.290288 -0.275429 0.376696
-0.290288 -0.456623 0.036088
-0.290288 0.146568 -0.446542
-0.290288 -0.300950 -0.377635
-0.290288 -0.444283 0.076606
-0.290288 -0.251899 -0.400713
-0.290288 -0.125532 0.467351
-0.290288 0.358119 -0.306521
-0.290288 -0.416288 0.228452
-0.290288 -0.362941 -0.268490
-0.290288 -0.486260 -0.071976
-0.290288 -0.122087 -0.436277
-0.290288 0.446036 0.171070
-0.290288 0.484106 -0.046014
-0.290288 -0.456275 -0.015467
-0.290288 0.395225 -0.258815
-0.290288 0.218306 -0.423771
-0.290288 -0.324143 -0.330900
-0.290288 0.434055 0.167686
-0.290288 -0.013796 -0.456227
-0.290288 0.290193 -0.398456
-0.290288 -0.448055 -0.080923
-0.290288 0.447057 0.056542
-0.290288 0.361579 -0.270926
-0.290288 -0.037497 0.446538
-0.290288 -0.383343 0.269896
-0.290288 0.204517 -0.421165
-0.290288 -0.440449 -0.151587
-0.290288 0.023153 -0.453987
-0.290288 0.059363 -0.455622
-0.290288 0.207077 -0.433232
-0.290288 -0.457919 -0.183281
-0.290288 0.319039 -0.315745
-0.290288 -0.402135 0.238158
-0.290288 -0.115643 0.470881
-0.290288 -0.246562 -0.413810
-0.290288 0.468128 -0.116017
-0.290288 -0.164724 -0.471408
-0.290288 0.452862 0.180786
-0.290288 -0.016274 -0.490845
-0.290288 0.460777 -0.136875
-0.290288 0.019243 0.446479
-0.290288 0.432391 0.239712
-0.290288 -0.223022 -0.426455
-0.290288 0.481769 0.121222
-0.290288 -0.431088 -0.163518
-0.290288 -0.342019 -0.356711
-0.290288 0.446233 0.167128
-0.290288 -0.332617 0.334415
-0.290288 0.372753 0.311382
-0.290288 0.361684 -0.299852
-0.290288 0.458551 0.061284
-0.290288 0.414382 -0.217942
-0.290288 -0.262643 -0.424889
-0.290288 -0.017417 0.487008
-0.290288 -0.493153 0.030876
-0.290288 -0.387348 0.285575
-0.290288 0.009606 -0.479699
-0.290288 0.246207 0.417233
-0.290288 -0.258966 -0.385098
-0.290288 0.193780 -0.432017
-0.290288 0.280504 0.371370
-0.290288 0.189125 0.425565
-0.290288 0.108130 -0.487703
-0.290288 -0.385935 0.232772
-0.290288 0.457842 0.107440
-0.290288 -0.430136 -0.151495
-0.290288 -0.052880 -0.497026
-0.290288 0.190895 -0.448456
-0.290288 0.041563 0.450306
-0.290288 -0.018479 0.475930
-0.290288 0.359894 0.321961
-0.290288 0.044486 0.453221
-0.290288 0.447236 0.159769
-0.290288 0.240547 0.385570
-0.290288 -0.418632 0.206898
-0.290288 0.395283 0.209490
-0.290288 -0.303943 0.380866
-0.290288 -0.048263 -0.472016
-0.290288 -0.452839 -0.065135
-0.290288 0.351347 -0.348054
-0.290288 -0.309858 -0.365471
-0.290288 -0.161230 0.433238
-0.290288 0.132802 0.441306
-0.290288 -0.272634 0.397007
-0.290288 0.450500 -0.190833
-0.290288 0.460918 0.055218
-0.290288 -0.134555 0.433030
-0.290288 0.447347 0.118334
-0.290288 -0.198964 0.445256
-0.290288 0.485313 0.007144
-0.290288 0.171027 -0.470068
-0.290288 -0.362820 0.315654
-0.290288 -0.144650 -0.459288
-0.290288 0.081562 0.466761
-0.290288 -0.434147 0.114958
-0.290288 0.314882 -0.385605
-0.290288 -0.477092 -0.100178
-0.290288 0.374889 0.288020
-0.290288 -0.120853 -0.433012
-0.290288 0.040495 0.446979
-0.290288 -0.406924 -0.198221
-0.290288 -0.395346 0.294385
-0.290288 -0.359798 -0.287707
-0.290288 0.406704 -0.280945
-0.290288 -0.456135 -0.066180
-0.290288 -0.445728 -0.002650
-0.290288 0.276436 -0.380370
-0.290288 0.027413 0.446621
-0.290288 0.446729 0.070219
-0.290288 -0.426303 0.230423
-0.290288 0.452272 -0.120414
-0.290288 0.238894 0.423596
-0.290288 -0.437952 0.232026
-0.290288 0.357934 0.270202
-0.290288 0.440890 0.161596
-0.290288 0.443276 -0.123724
-0.290288 0.133495 0.464034
-0.290288 0.393142 -0.268869
-0.290288 0.111020 0.447764
-0.290288 0.494911 -0.016259
-0.290288 0.112631 -0.480785
-0.290288 -0.490836 0.045104
-0.290288 0.080022 -0.477660
-0.290288 0.405404 -0.271020
-0.290288 -0.323646 -0.319828
-0.290288 -0.317096 -0.341631
-0.290288 0.078590 0.488617
-0.290288 0.081171 -0.492759
-0.290288 -0.449002 0.088962
-0.290288 0.127658 -0.478922
-0.290288 -0.116000 -0.459830
-0.290288 0.461415 0.129516
-0.290288 -0.427863 -0.248016
-0.290288 -0.188403 -0.442069
-0.290288 0.473379 -0.008938
-0.290288 0.319358 0.316610
-0.290288 -0.116496 -0.439130
-0.290288 -0.156178 -0.438999
-0.290288 -0.464734 0.033167
-0.290288 -0.331942 -0.311506
-0.290288 0.287428 0.339279
-0.290288 0.162539 -0.467364
-0.290288 0.430599 0.165124
-0.290288 0.489567 -0.062199
-0.290288 0.070562 -0.465397
-0.290288 0.313667 -0.367998
-0.290288 0.225530 0.429888
-0.290288 -0.130782 0.434254
-0.290288 0.260202 0.409307
-0.290288 -0.444473 -0.025314
-0.290288 -0.186860 -0.437672
-0.290288 -0.341865 -0.294547
-0.290288 -0.461889 0.073114
-0.290288 0.304065 0.373495
-0.290288 -0.482296 -0.007769
-0.290288 0.498056 0.000102
-0.290288 0.028521 0.486527
-0.290288 0.472085 -0.090999
-0.290288 0.219836 -0.438710
-0.290288 -0.444747 0.004817
-0.290288 -0.088995 0.445061
-0.290288 0.333487 0.340712
-0.290288 -0.046589 -0.463795
-0.290288 -0.402138 -0.265601
-0.290288 0.382261 0.292500
-0.290288 -0.073611 0.483309
-0.290288 -0.022926 0.454860
-0.290288 0.201088 -0.430304
-0.290288 -0.144954 0.422575
-0.290288 0.394094 0.206185
-0.290288 -0.320436 -0.356915
-0.290288 0.392863 -0.308234
-0.290288 -0.305784 0.338609
-0.290288 -0.228894 0.414511
-0.290288 0.387542 -0.299789
-0.290288 0.423969 0.227358
-0.290288 -0.474019 -0.026880
-0.290288 -0.288392 -0.384241
-0.290288 -0.164890 0.421290
-0.290288 0.034282 0.471111
-0.290288 -0.184046 0.452187
-0.290288 -0.234690 0.376280
-0.290288 -0.378979 0.315691
-0.290288 0.379391 0.306396
-0.290288 -0.235048 -0.410436
-0.290288 -0.039119 -0.452097
-0.290288 0.023071 -0.462487
-0.290288 -0.445577 0.192057
-0.290288 -0.169386 0.431651
-0.290288 -0.480500 0.092186
-0.290288 0.241497 -0.430807
-0.290288 0.441963 -0.062606
-0.290288 0.444443 -0.227266
-0.290288 -0.317458 0.376212
-0.290288 -0.416255 0.191303
-0.290288 -0.428295 0.134688
-0.290288 -0.239512 0.418996
-0.290288 -0.434901 0.092585
-0.290288 0.311233 0.344949
-0.290288 -0.389843 0.260495
-0.290288 -0.435447 0.148331
-0.290288 -0.406861 -0.251617
-0.290288 0.046536 0.444085
-0.290288 -0.481079 -0.120348
-0.290288 -0.347242 0.352758
-0.290288 -0.076321 0.459118
-0.290288 0.032246 0.489182
-0.290288 0.145093 0.448824
-0.290288 0.290371 -0.386274
-0.290288 -0.025415 0.467085
-0.290288 0.330338 0.320734
-0.290288 -0.450283 -0.150620
-0.290288 0.045511 -0.486000
-0.290288 -0.042874 -0.478043
-0.290288 -0.413448 0.182938
-0.290288 0.441430 -0.155328
-0.290288 -0.274503 0.347967
-0.290288 -0.158861 -0.451479
-0.290288 0.286524 0.347367
-0.290288 -0.177542 -0.466560
-0.290288 -0.440728 0.060257
-0.290288 -0.117526 0.477043
-0.290288 -0.457203 -0.050056
-0.290288 -0.446328 -0.136478
-0.290288 -0.262071 0.388477
-0.290288 0.297539 0.351044
-0.290288 0.428125 -0.202739
-0.290288 -0.447353 -0.176641
-0.290288 0.134985 -0.460440
-0.290288 0.465223 -0.058085
-0.290288 -0.358045 -0.273422
-0.290288 0.447551 -0.110173
-0.290288 0.447393 0.177219
-0.290288 0.436257 -0.186866
-0.290288 0.433648 -0.202330
-0.290288 0.377008 -0.311330
-0.290288 0.395405 0.232236
-0.290288 0.457482 -0.146405
-0.290288 -0.115000 0.453291
-0.290288 -0.209794 0.433210
-0.290288 -0.449983 -0.048358
-0.290288 0.297929 0.354375
-0.290288 -0.131378 -0.427862
-0.290288 0.245515 -0.378888
-0.290288 -0.423370 -0.195989
-0.290288 -0.149263 0.463087
-0.290288 -0.318932 -0.313766
-0.290288 -0.105184 0.484317
-0.290288 0.052335 0.473393
-0.290288 0.078055 -0.469200
-0.290288 -0.201645 0.404921
-0.290288 0.021032 -0.459748
-0.290288 0.448844 0.025860
-0.290288 -0.005733 -0.453922
-0.290288 0.434287 -0.149028
-0.290288 -0.462840 0.142831
-0.290288 0.445428 -0.089994
-0.290288 -0.406782 0.277536
-0.290288 -0.434694 0.233484
-0.290288 0.418967 -0.182794
-0.290288 -0.328023 -0.369363
-0.290288 -0.345976 0.298245
-0.290288 0.019896 0.449459
-0.290288 0.408722 -0.194341
-0.290288 -0.355903 -0.288624
-0.290288 -0.349593 0.275459
-0.290288 0.480079 -0.110363
-0.290288 0.046328 -0.489551
-0.290288 0.184279 -0.438533
-0.290288 -0.329493 -0.373454
-0.290288 -0.431218 0.159880
-0.290288 -0.388966 0.234958
-0.290288 -0.027715 0.450682
-0.290288 -0.139161 -0.441122
-0.290288 0.307183 0.355809
-0.290288 0.101194 0.443539
-0.290288 -0.057691 -0.480242
-0.290288 -0.107534 -0.442467
-0.290288 -0.078532 -0.485312
-0.290288 0.456787 0.028182
-0.290288 0.437602 -0.230049
-0.290288 -0.295263 0.353291
-0.290288 0.048988 0.472986
-0.290288 0.158065 0.469276
-0.290288 -0.405750 -0.236984
-0.290288 -0.478338 -0.053250
-0.290288 -0.335873 -0.314059
-0.290288 -0.098192 -0.437620
-0.290288 0.199385 -0.412277
-0.290288 -0.404761 -0.291532
-0.290288 -0.179110 -0.421025
-0.290288 0.337061 -0.302407
-0.290288 0.358859 -0.310215
-0.290288 0.483566 0.077079
-0.290288 0.290314 0.385710
-0.290288 0.313759 0.358050
-0.290288 -0.265212 -0.393034
-0.290288 -0.238355 -0.427245
-0.290288 -0.465983 -0.009370
-0.290288 0.440639 0.146325
-0.290288 -0.460532 -0.076743
-0.290288 0.194275 0.416811
-0.290288 0.116346 -0.464583
-0.290288 -0.426439 -0.241679
-0.290288 0.427743 0.215659
-0.290288 0.416778 0.220365
-0.290288 0.469006 0.027352
-0.290288 -0.281130 0.377127
-0.290288 0.432298 0.245365
-0.290288 0.333306 0.318553
-0.290288 0.367350 0.252094
-0.290288 -0.455451 0.033152
-0.290288 -0.118288 -0.473369
-0.290288 0.446888 0.076986
-0.290288 0.474671 -0.013136
-0.290288 0.415783 0.158960
-0.290288 0.218829 0.415976
-0.290288 0.358451 0.289530
-0.290288 -0.095389 -0.480588
-0.290288 -0.465261 0.080463
-0.290288 -0.245399 0.369707
-0.290288 -0.139575 -0.476703
-0.290288 -0.323698 0.338280
-0.290288 -0.333641 0.319925
-0.290288 0.440375 0.188534
-0.290288 -0.427350 -0.232327
-0.290288 -0.446959 0.198356
-0.290288 0.468319 -0.158674
-0.290288 -0.163575 -0.458280
-0.290288 -0.453188 -0.047493
-0.290288 -0.452021 0.095823
-0.290288 0.476173 -0.125494
-0.290288 0.469588 -0.060356
-0.290288 -0.476775 -0.078639
-0.290288 -0.032775 -0.498771
-0.290288 0.491736 0.021662
-0.290288 0.430053 0.143958
-0.290288 0.323292 -0.330826
-0.290288 0.462733 -0.032633
-0.290288 0.469911 -0.086962
-0.290288 -0.476370 -0.016937
-0.290288 -0.440526 0.176973
-0.290288 0.068798 -0.455169
-0.290288 -0.084986 0.486007
-0.290288 -0.174587 -0.422181
-0.290288 0.333684 -0.356744
-0.290288 -0.355224 -0.337387
-0.290288 0.362789 0.261059
-0.290288 0.391675 0.272737
-0.290288 0.435914 0.159484
-0.290288 0.491610 -0.043588
-0.290288 0.121331 0.480283
-0.290288 0.178762 0.461941
-0.290288 -0.089673 -0.483581
-0.290288 0.437139 0.198346
-0.290288 -0.435258 0.211686
-0.290288 0.453794 -0.065861
-0.290288 -0.430309 0.185435
-0.290288 0.411928 0.260446
-0.290288 0.447881 0.202647
-0.290288 -0.449387 -0.206396
-0.290288 -0.109718 0.455741
-0.290288 0.491104 0.027416
-0.290288 -0.045933 0.467696
-0.290288 0.410260 -0.276039
-0.290288 0.019465 -0.487767
-0.290288 -0.040946 0.484668
-0.290288 0.324689 0.345174
-0.290288 -0.473903 -0.100811
-0.290288 -0.230102 -0.442322
-0.290288 0.464113 0.014784
-0.290288 0.117834 0.468739
-0.290288 -0.431362 -0.220215
-0.290288 -0.345990 -0.303088
-0.290288 0.093333 -0.446296
-0.290288 0.422501 0.234338
-0.290288 0.177365 0.412662
-0.290288 0.383713 -0.229321
-0.290288 0.245294 -0.402418
-0.290288 -0.300264 -0.340956
-0.290288 -0.388047 -0.309338
-0.290288 -0.080655 -0.492283
-0.290288 -0.433233 -0.175766
-0.290288 -0.484500 -0.082300
-0.290288 0.362325 0.306764
-0.290288 -0.445228 0.144821
-0.290288 0.453488 0.036979
-0.290288 0.398445 -0.300774
-0.290288 0.058701 -0.477647
-0.290288 0.264702 -0.372196
-0.290288 0.109284 -0.466709
-0.290288 -0.091493 0.437903
-0.290288 0.487108 -0.015118
-0.290288 0.008272 0.469232
-0.290288 -0.102611 0.446534
-0.290288 0.160436 0.460561
-0.290288 -0.304672 0.390007
-0.290288 -0.474507 -0.124667
-0.290288 0.332262 -0.309231
-0.290288 -0.365518 -0.297059
-0.290288 0.380981 -0.234202
-0.290288 0.258603 0.405619
-0.290288 0.290746 0.391175
-0.290288 -0.131199 -0.466286
-0.290288 -0.087780 0.487695
-0.290288 0.455344 0.120548
-0.290288 -0.324285 -0.358281
-0.290288 0.067292 -0.492166
-0.290288 0.350988 -0.344946
-0.290288 -0.448657 -0.113949
-0.290288 -0.450376 -0.211482
-0.290288 -0.029493 -0.497546
-0.290288 -0.461298 -0.152998
-0.290288 -0.380282 -0.283936
-0.290288 0.278972 -0.383841
-0.290288 0.488379 0.020024
-0.290288 0.094434 0.481973
-0.290288 -0.459485 -0.019634
-0.290288 0.109564 0.444661
-0.290288 -0.473623 -0.139043
-0.290288 -0.241874 0.408551
-0.290288 -0.326210 -0.322567
-0.290288 -0.337347 -0.307020
-0.290288 0.478345 -0.051348
-0.290288 0.445064 -0.127685
-0.290288 -0.434930 0.119591
-0.290288 -0.208247 0.397535
-0.290288 0.130439 -0.472259
-0.290288 0.449121 0.015356
-0.290288 -0.299708 -0.395454
-0.290288 -0.262801 -0.380807
-0.290288 -0.419535 -0.204771
-0.290288 0.133884 0.425080
-0.290288 -0.466812 0.143040
-0.290288 -0.191900 -0.452771
-0.290288 -0.252907 -0.368685
-0.290288 -0.431694 0.241159
-0.290288 0.399980 -0.283352
-0.290288 -0.396605 0.277546
-0.290288 0.421315 -0.266801
-0.290288 -0.010358 0.489163
-0.290288 -0.145359 -0.436609
-0.290288 0.441290 -0.146973
-0.290288 -0.331447 -0.337100
-0.290288 -0.481561 -0.113072
-0.290288 0.444849 0.180758
-0.290288 -0.217604 -0.400781
-0.290288 -0.458470 -0.026299
-0.290288 0.450424 0.097013
-0.290288 -0.442113 -0.054351
-0.290288 0.031043 0.447381
-0.290288 -0.038220 -0.472843
-0.290288 0.498628 -0.007818
-0.290288 0.305505 0.368854
-0.290288 0.293615 -0.389821
-0.290288 0.173868 0.418601
-0.290288 -0.453746 0.030052
-0.290288 -0.005097 -0.490731
-0.290288 0.309684 -0.372023
-0.290288 -0.309645 0.366704
-0.290288 0.349790 -0.287227
-0.290288 0.413875 0.240590
-0.290288 0.058961 0.456896
-0.290288 0.251322 0.427777
-0.290288 -0.467953 0.072744
-0.290288 -0.250051 -0.405803
-0.290288 0.367114 -0.309927
-0.290288 -0.195629 0.432898
-0.290288 0.170202 -0.421923
-0.290288 0.004657 0.447251
-0.290288 -0.468661 0.038402
-0.290288 0.319065 0.353681
-0.290288 0.163695 -0.429960
-0.290288 0.446984 0.152879
-0.290288 0.466748 -0.094552
-0.290288 -0.402497 -0.201876
-0.290288 0.451167 -0.159691
-0.290288 0.356708 -0.269869
-0.290288 -0.354449 -0.302443
-0.290288 0.442960 0.183084
-0.290288 0.132436 -0.463698
-0.290288 0.148975 -0.473766
-0.290288 -0.274947 0.408498
-0.290288 -0.288772 0.343810
-0.290288 -0.242064 -0.409995
-0.290288 -0.426080 0.194479
-0.290288 -0.346636 0.294941
-0.290288 0.474012 -0.153185
-0.290288 0.393049 0.269319
-0.290288 -0.453496 -0.118747
-0.290288 0.466795 0.147008
-0.290288 0.117619 -0.456623
-0.290288 0.136289 -0.475972
-0.290288 -0.351423 0.298290
-0.290288 0.469723 0.076140
-0.290288 -0.031248 0.470941
-0.290288 0.327092 -0.369643
-0.290288 0.461525 0.038223
-0.290288 0.143455 -0.428119
-0.290288 0.399013 -0.274776
-0.290288 -0.390649 -0.252100
-0.290288 0.412491 0.187451
-0.290288 0.013597 -0.469332
-0.290288 0.475965 0.074073
-0.290288 0.265073 0.363714
-0.290288 0.177378 -0.440756
-0.290288 0.427381 -0.234790
-0.290288 0.450939 -0.032690
-0.290288 0.463791 0.161106
-0.290288 -0.361325 -0.275460
-0.290288 -0.408252 0.250329
-0.290288 0.440123 -0.220135
-0.290288 0.489215 0.093157
-0.290288 0.486228 -0.000342
-0.290288 -0.335127 0.316618
-0.290288 0.378594 -0.262261
-0.290288 -0.393656 0.288795
-0.290288 -0.031302 -0.486538
-0.290288 -0.134368 0.442829
-0.290288 -0.479256 0.119647
-0.290288 0.439994 0.140288
-0.290288 -0.422806 0.253405
-0.290288 0.263746 -0.399888
-0.290288 -0.037489 0.450980
-0.290288 -0.452359 0.119142
-0.290288 0.480832 0.004143
-0.290288 -0.479817 -0.070827
-0.290288 -0.432200 0.152039
-0.290288 0.292298 0.401176
-0.290288 0.356239 -0.334877
-0.290288 -0.111766 0.469594
-0.290288 0.238790 0.407722
-0.290288 0.381841 -0.296993
-0.290288 -0.461016 -0.023391
-0.290288 -0.035979 -0.483306
-0.290288 -0.411597 -0.192465
-0.290288 0.482789 -0.122206
-0.290288 -0.393578 -0.219564
-0.290288 -0.096264 0.474827
-0.290288 0.108568 -0.480582
-0.290288 -0.305908 0.371738
-0.290288 0.453384 -0.109898
-0.290288 0.091756 -0.467574
-0.290288 0.494597 0.039984
-0.290288 0.480765 0.114599
-0.290288 -0.296509 0.333526
-0.290288 0.362378 -0.262680
-0.290288 0.067558 -0.448285
-0.290288 -0.336769 0.326339
-0.290288 -0.199820 0.418680
-0.290288 0.229844 0.401954
-0.290288 0.443325 0.076123
-0.290288 -0.213392 0.397746
-0.290288 -0.398727 -0.299344
-0.290288 0.322192 -0.369028
-0.290288 0.340742 -0.311099
-0.290288 0.319976 -0.323485
-0.290288 -0.464084 0.176751
-0.290288 -0.449359 0.117110
-0.290288 0.425808 0.255465
-0.290288 0.073453 -0.477000
-0.290288 0.356688 0.344376
-0.290288 0.004297 -0.463378
-0.290288 -0.298836 0.368970
-0.290288 -0.069835 -0.444727
-0.290288 0.142940 -0.434469
-0.290288 0.484109 -0.111616
-0.290288 -0.450792 0.135004
-0.290288 -0.462234 0.010385
-0.290288 -0.393973 -0.243135
-0.290288 0.486951 -0.065991
-0.290288 0.022679 0.446471
-0.290288 -0.260760 -0.401098
-0.290288 -0.104568 0.454720
-0.290288 -0.230250 0.429530
-0.290288 -0.440975 -0.069888
-0.290288 0.351645 -0.312629
-0.290288 0.228499 -0.431888
-0.290288 0.165461 0.425911
-0.290288 0.412564 -0.233026
-0.290288 -0.382756 -0.318586
-0.290288 0.018792 -0.493861
-0.290288 0.431139 -0.139323
-0.290288 0.294427 0.332412
-0.290288 0.378246 -0.324763
-0.290288 -0.368824 -0.321392
-0.290288 -0.427284 -0.227616
-0.290288 -0.290153 -0.356620
-0.290288 0.413518 0.167309
-0.290288 -0.310697 0.350094
-0.290288 -0.110192 0.461968
-0.290288 0.405055 0.196949
-0.290288 -0.147607 -0.434128
-0.290288 -0.487433 0.045910
-0.290288 -0.150583 -0.440964
-0.290288 0.324871 -0.349966
-0.290288 0.261485 -0.380759
-0.290288 0.164887 0.448853
-0.290288 0.037935 0.469366
-0.290288 0.458556 -0.133180
-0.290288 0.361634 0.300180
-0.290288 0.402539 -0.250175
-0.290288 0.428884 0.170055
-0.290288 -0.449903 0.054672
-0.290288 -0.036685 -0.463448
-0.290288 0.341162 -0.354860
-0.290288 -0.484437 -0.102001
-0.290288 -0.460179 0.110372
-0.290288 0.447842 -0.102169
-0.290288 0.490394 -0.000241
-0.290288 0.202180 -0.439612
-0.290288 -0.381027 0.243572
-0.290288 0.424541 -0.217975
-0.290288 0.199684 0.396843
-0.290288 0.421275 0.217330
-0.290288 0.019783 -0.463403
-0.290288 -0.432970 0.166072
-0.290288 -0.483425 0.070370
-0.290288 0.398735 0.199054
-0.290288 0.074493 0.486100
-0.290288 0.474090 0.012274
-0.290288 0.455745 -0.070101
-0.290288 0.172367 0.457882
-0.290288 0.335868 0.353757
-0.290288 0.058415 0.448005
-0.290288 -0.072230 -0.442461
-0.290288 0.065439 0.458078
-0.290288 -0.388763 -0.279926
-0.290288 -0.201723 -0.405016
-0.290288 0.003181 -0.485182
-0.290288 0.137450 -0.472199
-0.290288 0.248215 -0.425732
-0.290288 0.349248 0.311017
-0.290288 -0.313046 0.316252
-0.290288 0.183899 -0.448101
-0.290288 0.462767 0.125628
-0.290288 0.112808 -0.445430
-0.290288 -0.187726 0.420259
-0.290288 -0.021262 0.477527
-0.290288 -0.462569 -0.173252
-0.290288 0.170515 -0.451992
-0.290288 -0.177516 -0.427859
-0.290288 -0.083678 -0.454905
-0.290288 -0.148656 -0.454988
-0.290288 -0.404581 0.205021
-0.290288 -0.029310 0.481302
-0.290288 0.057200 -0.462442
-0.290288 0.398296 0.230791
-0.290288 0.184720 0.417931
-0.290288 0.381905 0.284564
-0.290288 0.337898 0.294680
-0.290288 -0.486657 0.004523
-0.290288 0.448752 0.172725
-0.290288 0.049144 0.441527
-0.290288 0.430261 -0.205716
-0.290288 0.342454 0.323257
-0.290288 -0.250663 0.427403
-0.290288 -0.260892 0.408292
-0.290288 -0.227291 -0.439863
-0.290288 0.017990 0.494799
-0.290288 0.476424 -0.032009
-0.290288 -0.217971 -0.409846
-0.290288 -0.127890 -0.451254
-0.290288 0.134638 0.444027
-0.290288 -0.390471 -0.215980
-0.290288 0.414200 -0.168116
-0.290288 0.022431 -0.476105
-0.290288 0.084789 0.444348
-0.290288 -0.371849 0.287951
-0.290288 0.352056 0.275376
-0.290288 0.269867 0.394199
-0.290288 0.274570 -0.410982
-0.290288 0.427625 0.226991
-0.290288 -0.182797 0.455891
-0.290288 0.011716 0.495738
-0.290288 0.473649 0.144773
-0.290288 0.316014 0.350834
-0.290288 -0.044304 -0.497440
-0.290288 -0.172066 0.408475
-0.290288 -0.359182 0.269939
-0.290288 -0.145883 0.446939
-0.290288 0.437508 -0.103416
-0.290288 -0.127478 0.475460
-0.290288 -0.016121 0.462442
-0.290288 -0.457652 0.061033
-0.290288 -0.037237 -0.455305
-0.290288 0.460743 0.121866
-0.290288 -0.088448 0.441719
-0.290288 0.445632 -0.031275
-0.290288 -0.309707 -0.322780
-0.290288 -0.052661 0.484735
-0.290288 0.430418 -0.168578
-0.290288 0.455080 -0.048542
-0.290288 0.248900 -0.399896
-0.290288 0.475919 0.114537
-0.290288 0.437839 0.218088
-0.290288 0.445715 -0.181799
-0.290288 -0.479625 -0.065854
-0.290288 -0.429625 -0.195356
-0.290288 -0.049535 0.489292
-0.290288 -0.284791 0.378885
-0.290288 -0.459191 -0.089781
-0.290288 0.399277 0.295269
-0.290288 -0.359840 0.265701
-0.290288 -0.385046 -0.247241
-0.290288 0.437666 0.092081
-0.290288 -0.366424 -0.287931
-0.290288 -0.450737 -0.007269
-0.290288 0.411842 -0.215350
-0.290288 -0.495504 0.000424
-0.290288 -0.422291 0.217325
-0.290288 0.280033 0.409679
-0.290288 0.127966 -0.483332
-0.290288 -0.453801 0.088552
-0.290288 0.258000 -0.416319
-0.290288 -0.440756 0.083547
-0.290288 -0.477266 -0.004007
-0.290288 -0.432294 0.121226
-0.290288 0.388400 -0.253768
-0.290288 -0.237018 -0.418075
-0.290288 0.439658 0.099534
-0.290288 -0.461060 -0.138928
-0.290288 -0.399660 0.215162
-0.290288 -0.379789 -0.235069
-0.290288 -0.016710 0.490482
-0.290288 -0.458872 -0.103553
-0.290288 0.098540 -0.467737
-0.290288 -0.003435 0.487098
-0.290288 -0.477924 0.042167
-0.290288 -0.440160 -0.103320
-0.290288 -0.446981 0.070106
-0.290288 0.447332 0.108830
-0.290288 -0.451434 0.043039
-0.290288 0.124680 0.436313
-0.290288 0.462546 0.148005
-0.290288 0.088945 0.440058
-0.290288 -0.444865 -0.007446
-0.290288 -0.390684 -0.276209
-0.290288 -0.128434 0.446868
-0.290288 -0.325515 0.348408
-0.290288 -0.033328 0.442024
-0.290288 -0.350680 -0.308236
-0.290288 0.400768 -0.241414
-0.290288 -0.460900 0.161964
-0.290288 -0.223552 -0.391733
-0.290288 -0.354334 0.300856
-0.290288 0.128187 0.453304
-0.290288 0.310890 -0.378956
-0.290288 0.419093 -0.206780
-0.290288 -0.249218 -0.394403
-0.290288 0.452253 -0.069543
-0.290288 -0.336538 0.322452
-0.290288 0.418161 -0.229532
-0.290288 0.064643 0.490450
-0.290288 -0.185502 -0.410215
-0.290288 -0.319397 0.320299
-0.290288 0.423170 -0.253335
-0.290288 -0.241282 0.389159
-0.290288 0.450318 -0.089261
-0.290288 0.178780 -0.433327
-0.290288 -0.488867 0.088968
-0.290288 0.316221 0.364132
-0.290288 0.408824 -0.268191
-0.290288 -0.399151 0.230543
-0.290288 0.434480 0.127860
-0.290288 0.433543 -0.175563
-0.290288 -0.030523 0.489842
-0.290288 0.276748 -0.396003
-0.290288 -0.477152 -0.112344
-0.290288 -0.052698 -0.448801
-0.290288 -0.401719 0.246439
-0.290288 -0.216422 -0.443912
-0.290288 -0.411143 0.240607
-0.290288 -0.363177 0.285444
-0.290288 0.399655 0.274898
-0.290288 -0.044545 -0.460839
-0.290288 -0.095525 -0.462528
-0.290288 -0.446346 0.205179
-0.290288 -0.356266 -0.268787
-0.290288 0.405813 -0.228366
-0.290288 -0.370355 -0.269672
-0.290288 0.434235 -0.235863
-0.290288 0.106988 -0.484185
-0.290288 -0.473242 0.055559
-0.290288 -0.277416 -0.369615
-0.290288 -0.389491 0.270532
-0.290288 -0.275307 -0.415256
-0.290288 0.328698 -0.311493
-0.290288 0.103363 -0.447015
-0.290288 -0.376213 0.251642
-0.290288 -0.465558 0.055190
-0.290288 0.248472 0.420584
-0.290288 0.387708 0.278538
-0.290288 0.296188 0.389119
-0.290288 0.233553 -0.414661
-0.290288 0.440779 -0.114618
-0.290288 -0.476470 -0.115412
-0.290288 0.272303 -0.383748
-0.290288 0.338612 -0.334185
-0.290288 0.302909 -0.373351
-0.290288 0.268425 0.390316
-0.290288 -0.476230 0.097929
-0.290288 0.472949 -0.029704
-0.290288 -0.388518 0.307144
-0.290288 -0.313756 -0.387792
-0.290288 0.208342 -0.420991
-0.290288 0.417626 0.223589
-0.290288 0.267220 -0.358815
-0.290288 0.037204 0.462273
-0.290288 -0.465545 -0.052995
-0.290288 0.105713 0.460995
-0.290288 0.496808 0.031145
-0.290288 0.449577 0.050715
-0.290288 -0.323931 -0.370634
-0.290288 0.107076 -0.452467
-0.290288 -0.447825 0.050698
-0.290288 0.423439 0.259533
-0.290288 0.330478 -0.336613
-0.290288 -0.469742 0.022504
-0.290288 0.346343 0.344840
-0.290288 -0.385995 -0.250182
-0.290288 -0.051065 0.464803
-0.290288 0.325332 0.324171
-0.290288 0.382634 0.288360
-0.290288 -0.421992 -0.223233
-0.290288 0.407606 -0.182926
-0.290288 -0.151718 0.416303
-0.290288 -0.444145 0.025831
-0.290288 -0.424620 -0.173843
-0.290288 -0.443857 -0.073649
-0.290288 -0.320609 -0.378159
-0.290288 0.204507 -0.402606
-0.290288 -0.400629 -0.230994
-0.290288 0.445392 -0.209397
-0.290288 -0.029412 0.453632
-0.290288 -0.333506 0.297395
-0.290288 -0.489629 -0.046357
-0.290288 -0.308552 0.363522
-0.290288 -0.406918 0.254700
-0.290288 0.202114 0.447401
-0.290288 -0.408821 -0.260240
-0.290288 0.007856 -0.477089
-0.290288 -0.395545 0.244456
-0.290288 0.459509 -0.091824
-0.290288 -0.183033 -0.442305
-0.290288 -0.433285 0.137412
-0.290288 0.461033 -0.158231
-0.290288 0.124809 0.445985
-0.290288 -0.378834 0.233176
-0.290288 -0.355256 0.310703
-0.290288 -0.427529 -0.147991
-0.290288 -0.415584 -0.204178
-0.290288 0.166279 0.456383
-0.290288 0.459170 -0.168077
-0.290288 0.348176 -0.353704
-0.290288 0.474998 -0.146663
-0.290288 -0.429873 0.130808
-0.290288 0.438023 -0.178261
-0.290288 0.185445 -0.422707
-0.290288 -0.475843 -0.059451
-0.290288 0.465399 0.069005
-0.290288 -0.284371 0.386909
-0.290288 0.472957 -0.111587
-0.290288 0.424745 -0.182404
-0.290288 0.488077 -0.038289
-0.290288 -0.142842 0.457377
-0.290288 -0.386290 0.295481
-0.290288 -0.251079 -0.376860
-0.290288 -0.197467 -0.431169
-0.290288 -0.489192 0.019981
-0.290288 -0.330748 -0.361735
-0.290288 0.231005 -0.421121
-0.290288 0.434837 0.214610
-0.290288 -0.439793 0.221726
-0.290288 -0.126300 -0.466050
-0.290288 0.333096 0.366431
-0.290288 -0.290284 -0.372232
-0.290288 -0.082862 0.453604
-0.290288 -0.445241 0.210943
-0.290288 0.371880 -0.314338
-0.290288 -0.423362 0.168731
-0.290288 -0.477665 -0.043987
-0.290288 0.373948 -0.245985
-0.290288 -0.417816 0.176925
-0.290288 -0.466730 0.029250
-0.290288 0.441338 -0.195215
-0.290288 0.066650 0.438806
-0.290288 0.422532 -0.229907
-0.290288 -0.125320 0.448221
-0.290288 0.454143 0.095978
-0.290288 -0.351231 -0.343884
-0.290288 0.441978 0.085109
-0.290288 0.086358 0.468217
-0.290288 0.364295 0.310469
-0.290288 -0.352930 0.268996
-0.290288 0.470405 -0.010233
-0.290288 -0.248726 -0.371508
-0.290288 0.183985 0.409644
-0.290288 -0.113463 0.464379
-0.290288 0.001516 -0.488758
-0.290288 0.130000 -0.454865
-0.290288 -0.428608 0.212078
-0.290288 0.000679 0.454988
-0.290288 0.092356 0.466947
-0.290288 -0.034754 -0.474678
-0.290288 -0.058563 -0.476582
-0.290288 -0.136841 0.438934
-0.290288 0.251857 -0.412453
-0.290288 0.142695 0.420005
-0.290288 -0.466691 0.089867
-0.290288 -0.038235 0.475563
-0.290288 0.213776 -0.399144
-0.290288 -0.381170 0.282032
-0.290288 -0.411189 0.206891
-0.290288 -0.455428 -0.185629
-0.290288 0.487375 -0.076036
-0.290288 0.405594 -0.224757
-0.290288 -0.000239 0.488244
-0.290288 0.396500 0.217368
-0.290288 0.399660 -0.225498
-0.290288 -0.323097 -0.334940
-0.290288 0.439014 0.137454
-0.290288 -0.445059 0.218120
-0.290288 -0.451069 -0.165458
-0.290288 0.483476 -0.006631
-0.290288 -0.088761 -0.468996
-0.290288 -0.179732 0.446931
-0.290288 -0.021437 -0.478814
-0.290288 -0.299946 -0.382002
-0.290288 -0.009810 0.456054
-0.290288 -0.363334 0.331974
-0.290288 -0.329193 -0.325071
-0.290288 0.103119 -0.439231
-0.290288 -0.175844 0.407982
-0.290288 0.300717 0.372387
-0.290288 -0.042508 -0.471270
-0.290288 -0.067153 -0.492149
-0.290288 0.470456 0.081334
-0.290288 -0.473989 0.049276
-0.290288 0.255580 -0.375366
-0.290288 0.184624 0.434132
-0.290288 -0.184238 -0.457024
-0.290288 -0.458215 0.144009
-0.290288 -0.388594 -0.302431
-0.290288 0.257427 0.401445
-0.290288 -0.149271 -0.464182
-0.290288 -0.448132 -0.072778
-0.290288 -0.454705 0.155180
-0.290288 0.465264 0.127980
-0.290288 0.226447 -0.400996
-0.290288 -0.244267 -0.416395
-0.290288 -0.485719 -0.106033
-0.290288 -0.374219 0.275399
-0.290288 0.371013 -0.303773
-0.290288 0.189324 -0.461124
-0.290288 -0.471856 0.037817
-0.290288 0.017347 -0.460160
-0.290288 -0.137648 -0.455486
-0.290288 0.054012 -0.459847
-0.290288 0.445704 0.008829
-0.290288 -0.200716 -0.415068
-0.290288 0.433229 -0.122788
-0.290288 0.045777 0.483076
-0.290288 -0.020989 -0.467973
-0.290288 -0.222963 -0.398877
-0.290288 -0.335762 0.364902
-0.290288 0.221436 -0.412487
-0.290288 0.227649 -0.436001
-0.290288 0.387346 -0.258274
-0.290288 0.379289 0.276267
-0.290288 0.150054 -0.446423
-0.290288 0.338938 -0.298113
-0.290288 -0.280045 -0.360754
-0.290288 -0.422684 0.154442
-0.290288 -0.224020 0.421510
-0.290288 0.248195 -0.376874
-0.290288 -0.017604 -0.474838
-0.290288 -0.171161 -0.449692
-0.290288 0.141473 0.459976
-0.290288 0.303308 0.353453
-0.290288 0.018289 -0.499277
-0.290288 0.460340 -0.190992
-0.290288 -0.434356 0.206788
-0.290288 -0.464711 0.066948
-0.290288 0.034881 -0.475646
-0.290288 0.289998 -0.391206
-0.290288 -0.281148 0.384088
-0.290288 0.060714 0.442520
-0.290288 -0.448902 0.195776
-0.290288 0.397376 -0.239687
-0.290288 0.364753 -0.321816
-0.290288 0.268174 -0.373129
-0.290288 0.436670 0.144970
-0.290288 0.426475 0.157332
-0.290288 0.145304 -0.449881
-0.290288 0.006876 -0.467212
-0.290288 -0.107633 0.439625
-0.290288 -0.479702 -0.029748
-0.290288 0.400526 0.282977
-0.290288 0.120514 0.428354
-0.290288 0.167465 0.423435
-0.290288 0.222447 0.415420
-0.290288 -0.335316 -0.324643
-0.290288 -0.463889 -0.155121
-0.290288 0.443162 -0.132275
-0.290288 0.003231 0.495529
-0.290288 0.429402 -0.242236
-0.290288 -0.428147 0.245405
-0.290288 -0.064283 0.466914
-0.290288 0.317945 0.327474
-0.290288 0.463317 -0.119881
-0.290288 0.153346 -0.427277
-0.290288 0.414908 0.214605
-0.290288 -0.483035 0.020216
-0.290288 0.451057 0.115824
-0.290288 -0.067322 0.489854
-0.290288 -0.311376 0.342750
-0.290288 0.475902 0.068217
-0.290288 -0.496414 -0.018160
-0.290288 0.438921 -0.159937
-0.290288 0.282086 -0.377381
-0.290288 0.274835 -0.366815
-0.290288 0.084956 0.458981
-0.290288 -0.480968 0.044619
-0.290288 -0.031273 0.484617
-0.290288 -0.383174 0.279497
-0.290288 0.104982 -0.463324
-0.290288 0.129101 0.432154
-0.290288 0.473796 -0.088033
-0.290288 -0.237345 -0.385787
-0.290288 0.444622 -0.195226
-0.290288 -0.079292 -0.457846
-0.290288 -0.484123 -0.016321
-0.290288 -0.189943 0.457409
-0.290288 -0.109429 -0.439361
-0.290288 -0.495420 -0.045213
-0.290288 -0.138749 -0.437566
-0.290288 -0.450173 -0.032747
-0.290288 0.068265 0.490747
-0.290288 -0.494797 -0.051370
-0.290288 0.391583 -0.304827
-0.290288 0.366874 -0.324234
-0.290288 -0.032377 -0.483581
-0.290288 0.085902 -0.446398
-0.290288 0.050555 -0.445959
-0.290288 0.088203 0.484199
-0.290288 -0.436935 0.127175
-0.290288 0.320067 0.363079
-0.290288 -0.038003 0.482211
-0.290288 -0.074894 0.489131
-0.290288 -0.167198 0.465601
-0.290288 0.350338 0.344128
-0.290288 0.201115 0.433196
-0.290288 -0.485784 -0.003864
-0.290288 -0.005108 0.447565
-0.290288 0.417864 -0.220221
-0.290288 -0.112465 0.472985
-0.290288 0.013440 0.456173
-0.290288 -0.424658 -0.225938
-0.290288 0.028398 0.473254
-0.290288 0.170974 -0.463287
-0.290288 0.098231 -0.447617
-0.290288 -0.449334 0.210699
-0.290288 0.424998 -0.204928
-0.290288 0.073456 -0.483921
-0.290288 -0.172607 -0.468888
-0.290288 -0.439444 0.143318
-0.290288 0.320846 0.369779
-0.290288 -0.394170 -0.297841
-0.290288 -0.198241 -0.410228
-0.290288 -0.011252 -0.469627
-0.290288 -0.494351 0.003786
-0.290288 0.391315 0.248424
-0.290288 -0.100352 -0.480496
-0.290288 0.070273 0.455272
-0.290288 0.391651 -0.298345
-0.290288 0.393153 0.289790
-0.290288 0.432751 -0.211802
-0.290288 0.015802 0.461387
-0.290288 -0.376372 0.289507
-0.290288 0.156572 0.444566
-0.290288 0.211573 0.393577
-0.290288 0.015033 -0.466228
-0.290288 0.145863 -0.431585
-0.290288 -0.251904 0.422149
-0.290288 -0.467498 -0.023035
-0.290288 -0.369436 0.254875
-0.290288 0.233666 0.386940
-0.290288 0.256779 0.382798
-0.290288 0.244884 0.397949
-0.290288 -0.407979 0.178612
-0.290288 -0.425383 0.143122
-0.290288 0.272740 0.373958
-0.290288 -0.204855 -0.442502
-0.290288 0.359448 0.304040
-0.290288 0.023814 -0.450450
-0.290288 -0.119571 -0.460826
-0.290288 0.451095 0.203564
-0.290288 0.126454 0.458132
-0.290288 -0.325826 -0.351148
-0.290288 -0.302577 0.337086
-0.290288 -0.118320 0.480871
-0.290288 0.423853 -0.199338
-0.290288 0.222454 0.389613
-0.290288 -0.264813 -0.411337
-0.290288 -0.351830 0.306523
-0.290288 -0.065889 -0.456259
-0.290288 0.385665 0.241302
-0.290288 -0.211869 0.390294
-0.290288 -0.444961 0.011495
-0.290288 0.448712 0.213715
-0.290288 0.454789 0.043691
-0.290288 -0.303200 0.346589
-0.290288 0.357101 -0.286011
-0.290288 0.394881 -0.272501
-0.290288 -0.214162 0.444122
-0.290288 -0.035388 -0.486714
-0.290288 0.409015 0.192717
-0.290288 0.429541 0.189521
-0.290288 0.442518 0.217581
-0.290288 -0.462201 -0.002975
-0.290288 -0.454283 -0.032854
-0.290288 -0.475116 0.062476
-0.290288 -0.313266 0.366532
-0.290288 0.423715 0.160876
-0.290288 -0.479634 0.088599
-0.290288 0.244334 -0.375908
-0.290288 -0.014496 -0.482476
-0.290288 -0.469575 -0.030755
-0.290288 -0.438904 0.149505
-0.290288 0.438597 -0.191985
-0.290288 0.448881 -0.206807
-0.290288 0.068689 0.480544
-0.290288 0.340455 -0.336966
-0.290288 0.413461 0.275530
-0.290288 0.433040 0.229468
-0.290288 0.153492 -0.447715
-0.290288 -0.482049 0.113653
-0.290288 -0.033017 0.453555
-0.290288 0.478711 0.128421
-0.290288 -0.366248 0.261953
-0.290288 -0.219330 0.386019
-0.290288 -0.142844 -0.466855
-0.290288 0.202278 0.443560
-0.290288 0.402788 -0.239030
-0.290288 0.036977 -0.446228
-0.290288 0.280873 0.355780
-0.290288 0.051851 -0.483427
-0.290288 0.321858 -0.363836
-0.290288 0.435228 0.236550
-0.290288 -0.149054 0.459883
-0.290288 -0.427877 0.139267
-0.290288 0.016891 0.491190
-0.290288 0.062767 -0.474428
-0.290288 -0.444026 0.041006
-0.290288 0.493732 0.014379
-0.290288 0.096535 -0.456618
-0.290288 -0.432829 0.176278
-0.290288 -0.433341 0.201791
-0.290288 -0.156999 -0.459800
-0.290288 0.215474 -0.410336
-0.290288 -0.333074 -0.339861
-0.290288 -0.269669 0.362313
-0.290288 0.434866 0.164268
-0.290288 -0.400402 -0.292703
-0.290288 0.020947 0.489159
-0.290288 0.336308 0.321099
-0.290288 0.399674 -0.228858
-0.290288 0.220625 -0.444505
-0.290288 0.054376 0.450715
-0.290288 -0.450994 0.050980
-0.290288 0.450158 0.022282
-0.290288 0.456381 -0.081126
-0.290288 -0.179082 0.437545
-0.290288 0.065100 -0.443012
-0.290288 -0.075633 -0.483500
-0.290288 -0.385905 -0.223676
-0.290288 -0.432028 -0.130471
-0.290288 0.354258 -0.344383
-0.290288 0.454095 0.068130
-0.290288 0.158548 -0.460207
-0.290288 0.358838 0.297934
-0.290288 0.431637 0.153296
-0.290288 0.216399 0.418640
-0.290288 -0.347548 -0.317514
-0.290288 -0.329450 0.357855
-0.290288 0.300500 0.360364
-0.290288 0.274366 0.380044
-0.290288 0.335269 -0.296163
-0.290288 0.426458 -0.254756
-0.290288 -0.259660 -0.412512
-0.290288 0.077541 -0.480736
-0.290288 -0.099769 0.442385
-0.290288 0.306527 0.349787
-0.290288 -0.469861 -0.039166
-0.290288 -0.101135 0.450582
-0.290288 0.285191 0.367178
-0.290288 0.401550 0.197654
-0.290288 0.141073 -0.438390
-0.290288 -0.232362 0.437526
-0.290288 0.258050 -0.403204
-0.290288 -0.417773 -0.272043
-0.290288 -0.388339 -0.305570
-0.290288 0.157969 -0.425337
-0.290288 -0.449989 -0.200685
-0.290288 -0.156168 0.420108
-0.290288 0.456895 0.135884
-0.290288 0.042473 0.474253
-0.290288 0.201987 -0.450039
-0.290288 -0.410211 -0.222602
-0.290288 -0.048634 0.458809
-0.290288 -0.342078 0.307060
-0.290288 -0.114589 0.475460
-0.290288 -0.285777 -0.343660
-0.290288 0.416176 0.268343
-0.290288 0.285014 0.394387
-0.290288 -0.427900 -0.221952
-0.290288 0.205048 0.433938
-0.290288 0.459195 0.104133
-0.290288 0.490874 -0.080824
-0.290288 0.425944 0.163904
-0.290288 -0.218747 0.444497
-0.290288 -0.097069 0.454914
-0.290288 -0.016719 0.495002
-0.290288 -0.025524 0.474624
-0.290288 -0.146327 -0.440164
-0.290288 -0.409933 -0.177773
-0.290288 0.460728 -0.036014
-0.290288 -0.272910 -0.372336
-0.290288 -0.291242 -0.396170
-0.290288 -0.442783 0.171141
-0.290288 0.433065 0.105699
-0.290288 -0.325721 -0.375170
-0.290288 0.149000 0.445299
-0.290288 -0.071135 -0.464523
-0.290288 0.321912 0.337826
-0.290288 0.098562 0.477520
-0.290288 0.282365 0.403159
-0.290288 -0.184397 0.407627
-0.290288 -0.442350 0.108021
-0.290288 -0.127098 0.424502
-0.290288 -0.244993 0.422045
-0.290288 0.045002 0.466289
-0.290288 -0.452713 -0.037046
-0.290288 -0.464146 -0.023533
-0.290288 -0.155277 -0.450855
-0.290288 -0.243195 -0.383002
-0.290288 -0.076721 -0.469079
-0.290288 0.333384 -0.304354
-0.290288 0.092591 -0.471214
-0.290288 0.241778 -0.389784
-0.290288 -0.128235 0.464046
-0.290288 -0.424816 -0.138088
-0.290288 0.414121 -0.197534
-0.290288 -0.464614 0.049071
-0.290288 -0.402969 -0.211984
-0.290288 -0.454127 -0.089396
-0.290288 0.397062 0.250438
-0.290288 -0.486724 0.069458
-0.290288 -0.275665 0.369598
-0.290288 0.054593 0.456211
-0.290288 -0.121950 0.453834
-0.290288 0.323327 -0.334290
-0.290288 -0.402904 -0.219070
-0.290288 0.261640 0.371282
-0.290288 0.291857 0.366417
-0.290288 0.202896 -0.443924
-0.290288 0.309927 -0.326104
-0.290288 -0.470945 0.011341
-0.290288 0.447339 -0.119177
-0.290288 0.011609 -0.475882
-0.290288 0.173869 0.425701
-0.290288 -0.046710 0.484462
-0.290288 -0.478812 0.058552
-0.290288 -0.488650 -0.068816
-0.290288 0.122414 -0.469660
-0.290288 0.463000 0.100454
-0.290288 0.492940 -0.074096
-0.290288 0.121093 0.447872
-0.290288 -0.190543 -0.419288
-0.290288 0.483485 -0.115082
-0.290288 0.479634 -0.124335
-0.290288 -0.410321 0.226942
-0.290288 -0.432835 -0.167625
-0.290288 -0.308512 0.353806
-0.290288 0.389965 -0.279586
-0.290288 0.450959 0.005013
-0.290288 -0.278445 0.355839
-0.290288 0.219651 0.411379
-0.290288 0.071904 0.472361
-0.290288 -0.175703 -0.431023
-0.290288 0.305877 0.389847
-0.290288 -0.438145 -0.206141
-0.290288 -0.014193 -0.468518
-0.290288 0.447243 -0.187483
-0.290288 -0.054389 0.441578
-0.290288 0.426332 0.245663
-0.290288 0.340182 -0.345303
-0.290288 0.488822 -0.092792
-0.290288 0.272634 0.366720
-0.290288 0.199372 0.445440
-0.290288 0.384072 -0.299911
-0.290288 0.462163 0.143911
-0.290288 0.055241 -0.477683
-0.290288 -0.205817 -0.411270
-0.290288 -0.489200 -0.056667
-0.290288 0.451162 -0.134699
-0.290288 0.472601 -0.037257
-0.290288 0.289938 0.351221
-0.290288 -0.418563 0.194937
-0.290288 -0.254146 -0.425403
-0.290288 -0.164085 0.463750
-0.290288 -0.428805 0.143174
-0.290288 0.046548 0.476964
-0.290288 0.439084 -0.153050
-0.290288 0.489510 -0.051620
-0.290288 -0.004032 -0.486549
-0.290288 -0.491281 -0.009575
-0.290288 0.112013 0.430172
-0.290288 0.477821 0.011475
-0.290288 -0.367669 -0.308654
-0.290288 -0.446490 -0.062329
-0.290288 0.344099 -0.310314
-0.290288 0.304576 0.380070
-0.290288 0.382597 0.304697
-0.290288 0.432019 0.171233
-0.290288 -0.418783 -0.259906
-0.290288 0.480793 -0.018103
-0.290288 -0.336548 -0.321532
-0.290288 -0.449433 -0.138139
-0.290288 -0.011624 0.458855
-0.290288 -0.244601 0.417461
-0.290288 -0.142136 0.469071
-0.290288 -0.404851 0.283179
-0.290288 -0.317437 -0.330155
-0.290288 0.176810 -0.415390
-0.290288 0.319299 0.309935
-0.290288 -0.337167 0.296098
-0.290288 -0.101527 -0.440126
-0.290288 0.109044 -0.462913
-0.290288 -0.458107 -0.002923
-0.290288 0.319867 0.334644
-0.290288 -0.071313 0.489908
-0.290288 0.380239 0.264701
-0.290288 0.174475 -0.426029
-0.290288 -0.082443 0.481415
-0.290288 0.104142 -0.487008
-0.290288 -0.477407 -0.140832
-0.290288 0.400739 -0.211446
-0.290288 0.473833 0.110567
-0.290288 -0.399659 -0.204088
-0.290288 -0.170104 -0.459878
-0.290288 -0.420818 -0.234961
-0.290288 0.271900 0.407593
-0.290288 -0.278163 -0.393821
-0.290288 0.413040 -0.171626
-0.290288 -0.402597 0.241756
-0.290288 -0.112819 0.482453
-0.290288 -0.163848 0.467668
-0.290288 -0.271711 0.359721
-0.290288 -0.375057 0.314451
-0.290288 -0.290174 -0.404002
-0.290288 -0.033797 0.445431
-0.290288 -0.415931 -0.169548
-0.290288 -0.419223 0.147775
-0.290288 -0.213412 -0.417429
-0.290288 0.464141 0.034943
-0.290288 -0.007770 -0.457718
-0.290288 0.284945 0.381281
-0.290288 0.056875 -0.457873
-0.290288 0.111009 0.455362
-0.290288 0.462069 0.032303
-0.290288 0.150356 -0.456454
-0.290288 -0.475527 0.067958
-0.290288 -0.193909 0.416632
-0.290288 -0.100802 0.439115
-0.290288 0.310787 -0.343452
-0.290288 -0.101883 0.475704
-0.290288 0.028052 0.456190
-0.290288 -0.247427 0.387266
-0.290288 -0.112858 0.457472
-0.290288 0.236369 -0.388291
-0.290288 -0.326513 -0.328833
-0.290288 0.074124 -0.452466
-0.290288 -0.213249 -0.396420
-0.290288 -0.044237 0.482537
-0.290288 -0.427459 -0.163082
-0.290288 0.457266 0.004920
-0.290288 0.405604 0.255749
-0.290288 0.438635 -0.125978
-0.290288 0.071969 0.463581
-0.290288 -0.443733 -0.150958
-0.290288 -0.311172 -0.353501
-0.290288 -0.222526 0.418237
-0.290288 -0.384285 -0.253298
-0.290288 -0.098618 -0.447163
-0.290288 -0.103992 -0.474320
-0.290288 -0.414616 0.178373
-0.290288 -0.155636 0.470324
-0.290288 0.427765 -0.153436
-0.290288 0.092898 0.439549
-0.290288 0.427548 -0.219662
-0.290288 0.470586 0.031144
-0.290288 -0.080076 -0.469112
-0.290288 0.439940 0.131008
-0.290288 -0.357697 0.322849
-0.290288 0.277892 0.406614
-0.290288 0.432243 0.185901
-0.290288 -0.134983 -0.470064
-0.290288 0.431199 -0.153032
-0.290288 -0.221215 0.394888
-0.290288 0.198818 0.400697
-0.290288 0.449570 0.012136
-0.290288 0.120719 -0.431257
-0.290288 -0.278883 -0.377855
-0.290288 -0.060565 -0.458600
-0.290288 0.283878 -0.371156
-0.290288 -0.413834 0.236225
-0.290288 -0.465714 -0.122796
-0.290288 -0.200846 0.438093
-0.290288 0.050743 -0.470719
-0.290288 -0.210586 -0.423606
-0.290288 0.375926 0.274908
-0.290288 -0.327316 -0.304679
-0.290288 -0.306093 0.366377
-0.290288 0.114542 0.466391
-0.290288 0.103720 0.479071
-0.290288 0.118879 0.450600
-0.290288 0.373178 -0.301312
-0.290288 -0.096038 0.439461
-0.290288 -0.460558 -0.058276
-0.290288 -0.223545 0.400149
-0.290288 -0.488260 -0.076469
-0.290288 0.363569 0.324579
-0.290288 0.423306 0.211191
-0.290288 -0.220763 -0.401014
-0.290288 0.414740 0.181193
-0.290288 -0.376333 0.285554
-0.290288 -0.420971 0.257788
-0.290288 -0.319740 -0.344078
-0.290288 0.380012 -0.246048
-0.290288 -0.441667 0.093542
-0.290288 0.397239 0.206793
-0.290288 -0.363954 0.307057
-0.290288 -0.080777 -0.464691
-0.290288 -0.459139 0.011848
-0.290288 -0.470305 0.088908
-0.290288 -0.325994 -0.313847
-0.290288 0.357670 -0.325247
-0.290288 0.461497 -0.080350
-0.290288 0.236483 0.410823
-0.290288 0.278873 -0.410687
-0.290288 0.415595 -0.181048
-0.290288 -0.470556 -0.026470
-0.290288 -0.438081 -0.167003
-0.290288 0.133229 0.449893
-0.290288 -0.465142 -0.077308
-0.290288 -0.455594 0.195573
-0.290288 -0.373151 0.272291
-0.290288 0.056194 -0.470988
-0.290288 0.467772 -0.014318
-0.290288 0.269990 0.387209
-0.290288 0.491041 0.034903
-0.290288 0.087086 0.462687
-0.290288 -0.136535 -0.425992
-0.290288 -0.066698 -0.482337
-0.290288 -0.405154 0.234873
-0.290288 -0.342480 0.324336
-0.290288 0.357926 -0.303412
-0.290288 -0.275702 -0.402466
-0.290288 0.460258 -0.051627
-0.290288 0.240882 -0.419827
-0.290288 -0.459569 0.057354
-0.290288 0.261863 0.381647
-0.290288 -0.135136 -0.440739
-0.290288 0.354628 0.279145
-0.290288 -0.453682 -0.191265
-0.290288 -0.401467 0.270335
-0.290288 -0.314365 0.370844
-0.290288 -0.368345 0.300709
-0.290288 -0.155958 -0.422901
-0.290288 -0.306307 -0.363982
-0.290288 -0.191505 -0.405828
-0.290288 0.462682 -0.077049
-0.290288 0.414616 0.177486
-0.290288 0.162140 0.415212
-0.290288 -0.355490 0.304295
-0.290288 -0.067997 0.439995
-0.290288 -0.051181 -0.461745
-0.290288 -0.396593 -0.259646
-0.290288 -0.365943 -0.323020
-0.290288 0.340208 0.347444
-0.290288 -0.344769 -0.319240
