-0.290288 0.225609 0.401920
-0.290288 0.313129 0.335641
-0.290288 -0.410294 0.228371
-0.290288 -0.412851 0.179898
-0.290288 -0.323213 -0.334704
-0.290288 -0.464267 -0.011334
-0.290288 -0.382146 0.276093
-0.290288 0.174287 0.454052
-0.290288 -0.276797 -0.364195
-0.290288 -0.036717 0.456471
-0.290288 0.109350 -0.479726
-0.290288 0.364799 -0.328638
-0.290288 0.096858 -0.481532
-0.290288 -0.363438 0.291109
-0.290288 -0.302834 0.353542
-0.290288 0.464671 0.085008
-0.290288 0.105089 -0.484777
-0.290288 0.464879 0.141371
-0.290288 0.327637 -0.318854
-0.290288 -0.466132 0.006501
-0.290288 0.478794 -0.014727
-0.290288 0.160857 -0.430881
-0.290288 -0.451501 -0.098447
-0.290288 0.450620 0.008961
-0.290288 0.286840 -0.380886
-0.290288 -0.175647 0.453185
-0.290288 0.204662 -0.451933
-0.290288 -0.360815 -0.343843
-0.290288 0.059198 -0.450834
-0.290288 -0.478440 0.110660
-0.290288 0.145569 0.452381
-0.290288 0.051050 -0.492928
-0.290288 -0.438721 0.220639
-0.290288 -0.110280 -0.435019
-0.290288 0.176555 -0.466549
-0.290288 -0.372398 -0.259733
-0.290288 -0.429172 0.194765
-0.290288 0.407614 0.215696
-0.290288 0.473621 -0.088059
-0.290288 -0.189970 0.428583
-0.290288 0.273551 0.414248
-0.290288 0.379095 -0.268960
-0.290288 -0.398507 0.196820
-0.290288 -0.185601 -0.444754
-0.290288 0.272333 0.400233
-0.290288 -0.462175 0.142542
-0.290288 -0.336453 0.308914
-0.290288 0.424755 0.180051
-0.290288 0.095490 0.457660
-0.290288 -0.452205 0.049536
-0.290288 -0.261961 0.396039
-0.290288 -0.254076 -0.421138
-0.290288 0.218148 -0.428425
-0.290288 0.303593 0.331435
-0.290288 0.011626 0.491701
-0.290288 -0.103595 0.448759
-0.290288 0.322781 -0.324705
-0.290288 -0.493056 0.031995
-0.290288 -0.168496 0.424752
-0.290288 -0.196137 0.398286
-0.290288 -0.489905 -0.032873
-0.290288 0.486923 0.028362
-0.290288 -0.455049 0.015438
-0.290288 0.192597 -0.448017
-0.290288 0.489522 0.088687
-0.290288 -0.424802 0.150881
-0.290288 0.468501 -0.045934
-0.290288 -0.170218 0.419307
-0.290288 -0.217105 -0.391064
-0.290288 -0.138240 0.455102
-0.290288 0.311890 -0.335912
-0.290288 -0.249856 0.424059
-0.290288 0.177609 -0.436629
-0.290288 -0.348137 0.347102
-0.290288 -0.483238 0.100097
-0.290288 -0.063198 -0.482734
-0.290288 0.337512 0.295444
-0.290288 0.454352 -0.088665
-0.290288 0.061113 -0.473278
-0.290288 -0.230854 0.423044
-0.290288 -0.365758 0.271127
-0.290288 -0.449338 0.052409
-0.290288 0.244779 -0.394730
-0.290288 0.433505 -0.214411
-0.290288 -0.420902 -0.243311
-0.290288 0.436467 -0.131457
-0.290288 -0.475528 0.142019
-0.290288 -0.340032 -0.333224
-0.290288 0.300562 -0.394546
-0.290288 0.149184 0.436755
-0.290288 -0.343267 -0.346554
-0.290288 0.041380 -0.462588
-0.290288 0.459270 -0.091814
-0.290288 -0.104142 -0.463817
-0.290288 0.264781 -0.418700
-0.290288 0.173158 0.427188
-0.290288 -0.316419 -0.318198
-0.290288 0.495753 0.048634
-0.290288 0.387599 -0.264280
-0.290288 0.296610 -0.340102
-0.290288 -0.169742 0.449405
-0.290288 -0.348938 -0.295372
-0.290288 0.107577 -0.486536
-0.290288 0.276570 -0.413999
-0.290288 -0.073747 0.440250
-0.290288 0.162204 -0.417183
-0.290288 0.421473 -0.213666
-0.290288 -0.355503 -0.276155
-0.290288 -0.314444 0.313099
-0.290288 -0.095541 -0.452710
-0.290288 0.086108 0.484517
-0.290288 0.488934 0.000158
-0.290288 -0.245765 -0.411234
-0.290288 0.301646 -0.388826
-0.290288 -0.410249 0.224842
-0.290288 0.346544 -0.336940
-0.290288 -0.304523 0.356498
-0.290288 -0.428456 -0.239714
-0.290288 -0.449272 -0.011341
-0.290288 0.073927 -0.494030
-0.290288 -0.260906 -0.366696
-0.290288 -0.446414 -0.007924
-0.290288 -0.047420 0.444951
-0.290288 -0.433786 0.186263
-0.290288 -0.086139 -0.443695
-0.290288 0.273536 -0.360664
-0.290288 -0.486349 -0.010544
-0.290288 0.125099 -0.453535
-0.290288 -0.452115 0.204805
-0.290288 -0.381535 0.292956
-0.290288 0.350544 -0.305298
-0.290288 -0.483581 -0.079080
-0.290288 0.445511 -0.130205
-0.290288 -0.435775 -0.161306
-0.290288 -0.461712 0.135069
-0.290288 -0.451774 0.200702
-0.290288 -0.459561 -0.048010
-0.290288 -0.460254 -0.011149
-0.290288 -0.435577 0.118472
-0.290288 -0.119719 -0.458243
-0.290288 -0.431746 0.167201
-0.290288 -0.391187 -0.227080
-0.290288 0.115016 0.473561
-0.290288 0.303189 0.381344
-0.290288 0.023193 0.453373
-0.290288 0.435871 0.211655
-0.290288 0.482963 -0.085259
-0.290288 -0.166739 0.449901
-0.290288 -0.466856 -0.081579
-0.290288 0.381383 -0.250687
-0.290288 -0.480698 -0.112686
-0.290288 0.429320 -0.158352
-0.290288 0.421734 -0.225005
-0.290288 0.073773 0.483414
-0.290288 0.234276 -0.385385
-0.290288 -0.138865 -0.425238
-0.290288 -0.266658 -0.358664
-0.290288 -0.190597 0.405915
-0.290288 -0.350696 -0.322442
-0.290288 0.362827 0.313005
-0.290288 0.331984 -0.302775
-0.290288 -0.369880 0.284815
-0.290288 -0.271693 0.356871
-0.290288 0.299174 0.349041
-0.290288 -0.462971 0.170235
-0.290288 0.121165 0.470254
-0.290288 -0.437384 0.140892
-0.290288 -0.234909 -0.392271
-0.290288 0.218946 -0.424292
-0.290288 0.349688 0.334792
-0.290288 -0.325053 0.343254
-0.290288 -0.464736 0.102637
-0.290288 -0.280809 0.369425
-0.290288 -0.473486 -0.144281
-0.290288 0.331313 -0.370049
-0.290288 0.270364 -0.391072
-0.290288 -0.371285 -0.256759
-0.290288 -0.425443 -0.179758
-0.290288 0.283724 0.406356
-0.290288 0.456099 -0.203071
-0.290288 -0.216494 -0.421893
-0.290288 -0.276590 -0.373535
-0.290288 -0.207608 0.403239
-0.290288 0.435828 -0.193811
-0.290288 0.363833 -0.314968
-0.290288 0.348637 -0.328031
-0.290288 -0.487440 -0.028064
-0.290288 0.440786 0.105296
-0.290288 -0.152296 -0.454830
-0.290288 0.235234 0.408615
-0.290288 0.322724 -0.349779
-0.290288 -0.392809 -0.262941
-0.290288 -0.007525 0.462413
-0.290288 0.366005 -0.291243
-0.290288 0.097874 -0.445721
-0.290288 0.379277 0.289812
-0.290288 0.290705 0.354254
-0.290288 -0.009128 -0.455537
-0.290288 0.446932 -0.184348
-0.290288 0.361672 -0.344928
-0.290288 0.179198 0.435130
-0.290288 -0.048167 0.490054
-0.290288 -0.443820 0.138740
-0.290288 0.440391 -0.122732
-0.290288 -0.293415 -0.354908
-0.290288 0.442049 0.186713
-0.290288 -0.198009 -0.421079
-0.290288 0.415246 -0.245233
-0.290288 0.464763 0.176996
-0.290288 -0.382176 -0.237588
-0.290288 0.055407 0.448144
-0.290288 0.059736 -0.469254
-0.290288 -0.234962 -0.395819
-0.290288 0.382007 0.298108
-0.290288 -0.041616 0.452020
-0.290288 -0.461577 0.025184
-0.290288 -0.374082 -0.289323
-0.290288 0.456597 0.028500
-0.290288 0.355818 0.289084
-0.290288 -0.039040 -0.485107
-0.290288 -0.371689 0.282375
-0.290288 0.181388 -0.450941
-0.290288 -0.159215 0.461671
-0.290288 0.339363 0.305520
-0.290288 -0.271214 -0.402635
-0.290288 -0.014622 -0.447488
-0.290288 -0.459511 -0.058803
-0.290288 -0.194601 -0.451136
-0.290288 -0.463038 0.056295
-0.290288 -0.278824 0.376620
-0.290288 -0.471248 0.068342
-0.290288 0.340571 -0.364077
-0.290288 0.004120 -0.487108
-0.290288 0.138720 0.476048
-0.290288 -0.049359 0.460246
-0.290288 0.191731 -0.439720
-0.290288 0.428475 0.129096
-0.290288 0.424528 0.138349
-0.290288 -0.397077 0.272982
-0.290288 0.453282 0.075514
-0.290288 0.446405 0.144324
-0.290288 -0.459870 0.039846
-0.290288 0.461411 -0.165411
-0.290288 -0.421219 -0.204288
-0.290288 -0.419693 -0.251983
-0.290288 0.468406 -0.097242
-0.290288 -0.245030 0.395120
-0.290288 0.470732 0.161491
-0.290288 -0.450547 -0.183378
-0.290288 -0.185617 -0.452435
-0.290288 -0.469762 0.014200
-0.290288 0.482286 0.000707
-0.290288 0.468187 0.143952
-0.290288 -0.346014 0.334510
-0.290288 -0.098214 -0.462501
-0.290288 0.337675 -0.306852
-0.290288 0.457077 -0.170295
-0.290288 -0.113421 0.479266
-0.290288 0.253894 0.425813
-0.290288 0.419602 -0.178295
-0.290288 -0.452521 0.033600
-0.290288 -0.413770 0.254487
-0.290288 0.454297 0.050172
-0.290288 0.463576 0.014823
-0.290288 -0.462890 -0.148266
-0.290288 0.340250 -0.342368
-0.290288 0.295909 0.337092
-0.290288 0.414133 -0.175365
-0.290288 0.448692 -0.105827
-0.290288 0.358151 0.311183
-0.290288 -0.010356 0.480494
-0.290288 -0.492167 -0.070575
-0.290288 -0.427550 -0.216275
-0.290288 0.425565 -0.222714
-0.290288 -0.175713 0.410628
-0.290288 -0.307691 0.359974
-0.290288 0.443241 -0.091033
-0.290288 -0.267974 -0.394763
-0.290288 -0.470276 0.017965
-0.290288 -0.460849 0.096445
-0.290288 0.042821 -0.497943
-0.290288 -0.080970 0.435807
-0.290288 0.472130 0.137621
-0.290288 -0.353484 -0.289577
-0.290288 0.247977 -0.401319
-0.290288 -0.055945 -0.477481
-0.290288 0.346136 0.315267
-0.290288 -0.051812 0.480644
-0.290288 -0.380807 0.233237
-0.290288 0.458792 -0.048936
-0.290288 0.436822 -0.106559
-0.290288 -0.123217 -0.448639
-0.290288 -0.127698 0.432614
-0.290288 0.008291 0.457167
-0.290288 0.190412 -0.415843
-0.290288 -0.096901 -0.443662
-0.290288 -0.467300 -0.042580
-0.290288 -0.038047 -0.473168
-0.290288 0.245544 -0.425473
-0.290288 0.356047 -0.283175
-0.290288 0.022860 -0.475278
-0.290288 0.301325 0.394133
-0.290288 0.446677 -0.190586
-0.290288 -0.481173 -0.081975
-0.290288 -0.078294 0.442183
-0.290288 -0.469535 0.035960
-0.290288 0.201947 -0.423029
-0.290288 -0.447676 -0.117454
-0.290288 0.166372 0.449597
-0.290288 0.351812 0.317384
-0.290288 -0.096147 0.446458
-0.290288 0.055041 -0.469338
-0.290288 -0.149959 -0.429043
-0.290288 -0.435986 -0.240131
-0.290288 0.437093 -0.171280
-0.290288 0.393484 -0.288672
-0.290288 0.012936 0.478444
-0.290288 0.483962 -0.093543
-0.290288 0.437142 -0.090228
-0.290288 -0.057077 -0.486593
-0.290288 -0.483017 0.054952
-0.290288 -0.428149 0.123587
-0.290288 0.158179 -0.420311
-0.290288 -0.154471 -0.457313
-0.290288 0.095737 -0.450215
-0.290288 -0.496293 -0.032623
-0.290288 0.287971 0.362260
-0.290288 -0.471706 0.027055
-0.290288 -0.419538 -0.186732
-0.290288 0.475328 0.025424
-0.290288 -0.022830 0.446884
-0.290288 0.277288 -0.382367
-0.290288 0.357100 -0.274570
-0.290288 0.275848 -0.408958
-0.290288 -0.496807 0.019233
-0.290288 -0.429869 -0.155287
-0.290288 0.418094 0.262960
-0.290288 -0.419240 -0.169090
-0.290288 0.046481 -0.446911
-0.290288 0.083663 -0.481589
-0.290288 0.276694 -0.357165
-0.290288 0.481296 -0.071400
-0.290288 -0.467000 -0.163062
-0.290288 -0.484232 0.012813
-0.290288 0.410416 -0.182525
-0.290288 -0.112801 0.474438
-0.290288 0.393307 0.232102
-0.290288 -0.125178 0.468040
-0.290288 0.474939 0.069326
-0.290288 -0.392928 -0.218275
-0.290288 -0.087085 -0.492349
-0.290288 0.350431 -0.313937
-0.290288 -0.291768 0.351711
-0.290288 -0.471256 -0.006348
-0.290288 -0.397694 -0.297571
-0.290288 0.280915 0.365861
-0.290288 0.449383 -0.173762
-0.290288 0.232542 0.395306
-0.290288 -0.475886 0.063539
-0.290288 -0.035820 0.491996
-0.290288 0.156629 0.432748
-0.290288 0.446227 0.051405
-0.290288 -0.276133 0.392379
-0.290288 -0.483552 0.065321
-0.290288 -0.439628 -0.223176
-0.290288 -0.277798 0.358421
-0.290288 0.315900 0.379683
-0.290288 0.405430 -0.245493
-0.290288 -0.307977 0.336273
-0.290288 0.145304 0.465717
-0.290288 0.448730 -0.168458
-0.290288 -0.434531 0.142895
-0.290288 -0.453422 -0.071675
-0.290288 -0.124952 -0.444629
-0.290288 -0.444100 0.064199
-0.290288 0.422283 -0.164595
-0.290288 -0.438304 -0.219899
-0.290288 0.452729 -0.072483
-0.290288 -0.270584 -0.415731
-0.290288 0.410932 -0.209683
-0.290288 -0.262316 -0.386647
-0.290288 -0.147530 0.435748
-0.290288 0.393434 0.214775
-0.290288 -0.383423 0.288761
-0.290288 -0.412786 0.176012
-0.290288 -0.400787 -0.271325
-0.290288 -0.304175 0.365835
-0.290288 -0.295306 -0.339344
-0.290288 -0.241358 -0.428575
-0.290288 0.447630 0.213392
-0.290288 0.305656 0.344506
-0.290288 -0.395787 -0.215379
-0.290288 0.439703 -0.128487
-0.290288 -0.134567 0.448933
-0.290288 0.441034 -0.148108
-0.290288 -0.457288 -0.064483
-0.290288 -0.290358 0.341361
-0.290288 0.396856 0.286246
-0.290288 -0.427629 0.146633
-0.290288 -0.218727 0.417736
-0.290288 0.454340 -0.075157
-0.290288 -0.469746 -0.026825
-0.290288 0.085554 0.465043
-0.290288 0.284257 -0.370434
-0.290288 -0.388678 0.216660
-0.290288 0.480390 -0.075374
-0.290288 0.014369 -0.499925
-0.290288 0.466063 -0.059555
-0.290288 -0.474942 0.011006
-0.290288 -0.355704 0.336571
-0.290288 0.388123 -0.233586
-0.290288 -0.317174 0.362621
-0.290288 -0.471955 -0.117118
-0.290288 0.356538 -0.318366
-0.290288 0.395152 -0.239019
-0.290288 -0.021663 0.483950
-0.290288 -0.357533 0.281673
-0.290288 -0.399393 0.292624
-0.290288 -0.340684 0.346413
-0.290288 -0.051030 -0.488616
-0.290288 -0.331143 -0.356846
-0.290288 0.317290 0.317532
-0.290288 0.462995 -0.055537
-0.290288 -0.427503 0.222594
-0.290288 0.362805 0.327231
-0.290288 -0.431841 -0.108890
-0.290288 0.305057 0.373328
-0.290288 -0.241030 0.424730
-0.290288 -0.120779 0.426519
-0.290288 -0.002820 0.483416
-0.290288 -0.376288 0.280303
-0.290288 -0.350616 -0.318624
-0.290288 -0.105083 -0.467371
-0.290288 0.152868 0.444130
-0.290288 0.408151 -0.254936
-0.290288 0.094717 -0.438047
-0.290288 0.479357 0.132563
-0.290288 -0.182738 0.438465
-0.290288 0.465558 -0.079877
-0.290288 -0.124159 0.455188
-0.290288 0.317339 0.356138
-0.290288 -0.154132 -0.450648
-0.290288 0.444856 0.110916
-0.290288 -0.478390 0.122881
-0.290288 -0.443898 0.164810
-0.290288 -0.254446 0.388102
-0.290288 -0.390636 0.225868
-0.290288 -0.422849 0.194708
-0.290288 0.248791 -0.429251
-0.290288 0.106627 -0.477825
-0.290288 -0.438483 0.185335
-0.290288 -0.288982 0.368963
-0.290288 -0.316137 -0.328165
-0.290288 0.449248 -0.152150
-0.290288 0.193913 0.455910
-0.290288 0.227786 0.399693
-0.290288 0.279039 0.376272
-0.290288 0.053101 -0.484605
-0.290288 -0.454072 -0.001931
-0.290288 -0.337276 0.318616
-0.290288 -0.427743 -0.244785
-0.290288 -0.224458 0.387167
-0.290288 -0.476615 0.003384
-0.290288 -0.434616 0.225830
-0.290288 0.356998 0.328156
-0.290288 -0.470470 0.007030
-0.290288 0.489907 -0.052237
-0.290288 0.449572 0.089864
-0.290288 0.393370 -0.279101
-0.290288 -0.229716 -0.412071
-0.290288 0.234783 0.413188
-0.290288 0.175334 -0.443757
-0.290288 -0.395014 0.205448
-0.290288 0.129481 0.450087
-0.290288 0.401678 -0.275105
-0.290288 0.084756 0.474810
-0.290288 0.320982 0.359269
-0.290288 0.288553 -0.408260
-0.290288 0.162619 -0.442234
-0.290288 -0.010400 0.491366
-0.290288 0.445371 0.062995
-0.290288 0.282622 0.402824
-0.290288 -0.237115 0.417844
-0.290288 0.476606 0.064588
-0.290288 -0.405599 0.213972
-0.290288 -0.388178 0.238018
-0.290288 -0.420099 -0.197687
-0.290288 -0.000134 -0.495736
-0.290288 0.173199 0.441352
-0.290288 -0.142416 -0.455131
-0.290288 0.146290 0.473552
-0.290288 -0.476736 -0.126579
-0.290288 -0.093113 -0.438291
-0.290288 -0.033121 0.457363
-0.290288 -0.427438 -0.256777
-0.290288 0.395579 0.245825
-0.290288 0.451628 -0.060321
-0.290288 0.271378 -0.364827
-0.290288 -0.198952 0.401522
-0.290288 -0.186474 -0.455772
-0.290288 0.076162 -0.460892
-0.290288 -0.270466 -0.387870
-0.290288 -0.445223 -0.107297
-0.290288 -0.470577 -0.120334
-0.290288 0.394020 -0.218849
-0.290288 0.044571 0.475373
-0.290288 0.147947 0.467911
-0.290288 0.409237 -0.207093
-0.290288 -0.422222 -0.194970
-0.290288 0.456502 -0.139885
-0.290288 0.299802 -0.341379
-0.290288 -0.393310 0.214300
-0.290288 -0.452876 -0.128104
-0.290288 -0.352391 0.286339
-0.290288 -0.415057 -0.262789
-0.290288 -0.449706 -0.146753
-0.290288 0.323534 0.329911
-0.290288 -0.332046 0.353218
-0.290288 0.424713 0.169214
-0.290288 -0.333368 -0.361990
-0.290288 0.141527 -0.446972
-0.290288 -0.018296 0.459273
-0.290288 -0.444053 0.087298
-0.290288 -0.389614 0.262359
-0.290288 0.437611 0.110539
-0.290288 -0.413632 0.210610
-0.290288 -0.467320 -0.136277
-0.290288 -0.037806 0.452211
-0.290288 0.209673 0.401728
-0.290288 -0.162353 0.412788
-0.290288 -0.262688 -0.391637
-0.290288 -0.413705 0.196107
-0.290288 0.039682 0.462929
-0.290288 0.324055 -0.317461
-0.290288 -0.455201 -0.139576
-0.290288 0.239963 -0.384745
-0.290288 0.445216 -0.088046
-0.290288 -0.073969 -0.447203
-0.290288 -0.048039 -0.451964
-0.290288 0.393897 0.291234
-0.290288 -0.317252 0.343521
-0.290288 -0.337243 0.289714
-0.290288 -0.434039 0.099636
-0.290288 -0.447001 -0.100297
-0.290288 0.189841 -0.405704
-0.290288 0.025671 -0.477271
-0.290288 -0.302144 0.325140
-0.290288 -0.447506 0.119610
-0.290288 -0.303181 0.340653
-0.290288 -0.141617 0.429887
-0.290288 0.018040 0.484131
-0.290288 0.030049 0.494109
-0.290288 -0.431548 0.227923
-0.290288 -0.166402 -0.463362
-0.290288 0.128883 -0.447330
-0.290288 0.349877 -0.331546
-0.290288 0.002862 -0.494909
-0.290288 0.333240 0.317800
-0.290288 -0.243364 -0.421881
-0.290288 0.117910 -0.453757
-0.290288 0.441352 0.063851
-0.290288 -0.042755 -0.456544
-0.290288 -0.461245 -0.031442
-0.290288 0.438158 0.148892
-0.290288 -0.423417 0.223270
-0.290288 -0.028364 0.490290
-0.290288 -0.478332 0.127625
-0.290288 0.432449 -0.248479
-0.290288 -0.451659 -0.141109
-0.290288 0.297210 -0.401325
-0.290288 0.082716 0.487341
-0.290288 0.034377 0.489773
-0.290288 0.136527 -0.465538
-0.290288 -0.261836 0.385735
-0.290288 0.193373 -0.405562
-0.290288 0.082859 0.466676
-0.290288 0.216954 -0.450041
-0.290288 0.456743 -0.177370
-0.290288 0.277583 0.405072
-0.290288 -0.262918 -0.407759
-0.290288 -0.432931 -0.205663
-0.290288 -0.407772 0.260600
-0.290288 -0.368195 -0.293376
-0.290288 0.044195 -0.449023
-0.290288 -0.252314 -0.381906
-0.290288 0.070270 0.490911
-0.290288 0.314565 -0.365202
-0.290288 0.355794 0.332559
-0.290288 0.422950 -0.238261
-0.290288 -0.443622 -0.067973
-0.290288 -0.264933 -0.368892
-0.290288 0.295474 -0.368568
-0.290288 0.425571 -0.227041
-0.290288 -0.282689 0.362675
-0.290288 -0.452209 0.043202
-0.290288 -0.180445 0.445075
-0.290288 -0.243033 -0.387619
-0.290288 0.198774 -0.415183
-0.290288 0.248828 0.370356
-0.290288 0.233759 -0.396087
-0.290288 -0.325150 -0.371781
-0.290288 -0.474165 0.023366
-0.290288 -0.340314 -0.321177
-0.290288 -0.345408 0.310962
-0.290288 0.398069 0.233930
-0.290288 0.430609 -0.228505
-0.290288 0.160293 0.442368
-0.290288 0.327738 -0.354122
-0.290288 0.455051 -0.112393
-0.290288 -0.161603 0.420965
-0.290288 -0.034326 0.460575
-0.290288 -0.184723 -0.458307
-0.290288 0.393793 0.271915
-0.290288 -0.066941 0.490254
-0.290288 -0.285823 0.346287
-0.290288 -0.481142 0.020239
-0.290288 -0.418704 -0.153426
-0.290288 0.011949 0.488096
-0.290288 -0.356948 0.294627
-0.290288 0.432704 -0.160336
-0.290288 -0.446265 -0.103596
-0.290288 -0.294078 0.371268
-0.290288 0.344094 0.348211
-0.290288 0.096408 0.478723
-0.290288 0.452895 -0.077973
-0.290288 0.388522 0.246700
-0.290288 -0.384773 -0.301630
-0.290288 -0.394155 0.223946
-0.290288 0.012794 -0.480965
-0.290288 -0.369908 0.269064
-0.290288 0.258928 0.379013
-0.290288 0.438969 0.171735
-0.290288 -0.478653 -0.071261
-0.290288 0.248419 -0.392967
-0.290288 0.200917 -0.406460
-0.290288 0.149249 -0.460574
-0.290288 -0.030383 -0.488169
-0.290288 -0.306584 -0.325675
-0.290288 0.346719 -0.291486
-0.290288 -0.478670 0.045390
-0.290288 -0.212836 0.417480
-0.290288 -0.216919 0.386708
-0.290288 -0.322491 -0.352534
-0.290288 -0.319993 -0.335960
-0.290288 0.105844 -0.461281
-0.290288 0.123626 0.455021
-0.290288 -0.113298 -0.433346
-0.290288 -0.040342 0.448612
-0.290288 -0.399012 -0.280144
-0.290288 -0.357151 -0.292115
-0.290288 -0.402433 -0.220937
-0.290288 0.212572 0.446729
-0.290288 0.021322 0.494981
-0.290288 0.433833 0.129093
-0.290288 -0.436803 -0.208131
-0.290288 -0.480782 -0.027506
-0.290288 0.143302 0.474622
-0.290288 0.339098 0.314005
-0.290288 0.302745 -0.369057
-0.290288 -0.440212 0.150187
-0.290288 0.220094 0.441567
-0.290288 0.477791 -0.126290
-0.290288 0.496766 0.022239
-0.290288 -0.472875 -0.078919
-0.290288 0.294873 0.396087
-0.290288 -0.440374 -0.176415
-0.290288 -0.380921 -0.314885
-0.290288 0.255656 0.406297
-0.290288 0.094496 -0.442898
-0.290288 -0.437313 0.085434
-0.290288 0.410219 0.222481
-0.290288 -0.175614 0.437122
-0.290288 -0.438786 -0.129068
-0.290288 0.068794 0.463899
-0.290288 0.148960 -0.448258
-0.290288 0.359513 -0.342738
-0.290288 0.399364 -0.202737
-0.290288 -0.160127 0.418046
-0.290288 0.491096 0.053800
-0.290288 0.017770 0.472854
-0.290288 0.380499 -0.282300
-0.290288 0.145728 0.448873
-0.290288 0.370478 -0.334763
-0.290288 0.461783 -0.109412
-0.290288 -0.353008 -0.307827
-0.290288 0.425441 -0.139163
-0.290288 -0.468580 0.151361
-0.290288 -0.056033 0.458079
-0.290288 -0.413306 -0.206397
-0.290288 -0.370139 -0.290878
-0.290288 0.152691 -0.437913
-0.290288 0.459957 0.163939
-0.290288 0.114099 0.436146
-0.290288 -0.391160 0.248798
-0.290288 -0.445621 -0.063066
-0.290288 0.434519 -0.236676
-0.290288 -0.073893 0.487843
-0.290288 0.442966 -0.126525
-0.290288 0.271090 -0.401055
-0.290288 0.094004 0.465429
-0.290288 -0.018089 0.454892
-0.290288 -0.265871 -0.409933
-0.290288 0.410070 0.279401
-0.290288 -0.432719 0.199476
-0.290288 0.273551 -0.398465
-0.290288 0.166190 0.431262
-0.290288 0.348418 0.288793
-0.290288 -0.162106 0.462498
-0.290288 -0.160150 0.432258
-0.290288 -0.419990 0.237876
-0.290288 0.208703 -0.453557
-0.290288 -0.101787 -0.448509
-0.290288 0.390058 -0.247312
-0.290288 -0.363204 -0.316323
-0.290288 0.451252 -0.189880
-0.290288 -0.122086 0.451831
-0.290288 0.357734 -0.286452
-0.290288 -0.203500 -0.403528
-0.290288 0.454433 0.116751
-0.290288 0.439698 -0.098455
-0.290288 0.459069 -0.081493
-0.290288 -0.191394 -0.432088
-0.290288 -0.011186 -0.447937
-0.290288 0.381560 -0.264101
-0.290288 0.080600 0.445879
-0.290288 0.352939 0.296678
-0.290288 0.403646 0.283559
-0.290288 -0.060473 -0.480841
-0.290288 0.448592 0.109858
-0.290288 -0.189987 0.457314
-0.290288 0.416884 0.230552
-0.290288 -0.307322 0.322124
-0.290288 0.021787 -0.492561
-0.290288 -0.136553 0.465121
-0.290288 0.200777 0.427601
-0.290288 -0.463152 0.048865
-0.290288 0.474033 0.129220
-0.290288 -0.364422 -0.294101
-0.290288 -0.181436 -0.444604
-0.290288 0.035406 -0.466538
-0.290288 -0.462440 0.147133
-0.290288 0.174296 -0.436543
-0.290288 0.394697 -0.266788
-0.290288 0.160240 0.461379
-0.290288 -0.255409 0.383810
-0.290288 0.375909 0.291353
-0.290288 0.417096 0.173019
-0.290288 -0.169803 -0.419883
-0.290288 0.447913 0.197634
-0.290288 0.241428 0.421648
-0.290288 -0.387143 0.245643
-0.290288 -0.396419 -0.261068
-0.290288 -0.455748 0.145767
-0.290288 -0.187647 0.449145
-0.290288 -0.075460 0.471082
-0.290288 -0.470579 -0.044456
-0.290288 0.195117 -0.430165
-0.290288 -0.462388 0.001372
-0.290288 0.270079 0.394521
-0.290288 0.291928 -0.345872
-0.290288 0.329031 0.299275
-0.290288 -0.466565 0.087587
-0.290288 -0.446328 0.202724
-0.290288 -0.459040 0.014925
-0.290288 0.401053 0.269705
-0.290288 -0.483181 -0.048378
-0.290288 -0.409287 -0.238818
-0.290288 0.038442 0.483039
-0.290288 0.286653 0.395099
-0.290288 0.179717 0.457098
-0.290288 0.372703 0.291519
-0.290288 0.317382 -0.386078
-0.290288 -0.380301 0.228604
-0.290288 0.476549 -0.090534
-0.290288 0.259262 -0.405813
-0.290288 -0.315286 -0.355186
-0.290288 -0.295999 0.346083
-0.290288 0.414619 0.190725
-0.290288 0.110940 0.436568
-0.290288 -0.375001 0.315987
-0.290288 -0.376116 0.237176
-0.290288 0.473777 0.152030
-0.290288 0.452555 -0.004464
-0.290288 -0.473016 0.061417
-0.290288 -0.193782 -0.413377
-0.290288 -0.200876 0.404174
-0.290288 0.411604 -0.265922
-0.290288 -0.469151 0.162228
-0.290288 0.477748 0.078608
-0.290288 0.224745 0.433217
-0.290288 0.181655 0.461465
-0.290288 0.446763 -0.215236
-0.290288 -0.196884 0.428413
-0.290288 0.365639 -0.303798
-0.290288 -0.346486 -0.344713
-0.290288 0.024357 0.448774
-0.290288 0.352261 -0.344961
-0.290288 0.334475 0.352308
-0.290288 -0.436663 0.148213
-0.290288 -0.447356 -0.216672
-0.290288 0.156934 0.438822
-0.290288 -0.249815 0.395209
-0.290288 0.202178 0.401935
-0.290288 0.192505 -0.461612
-0.290288 -0.452125 -0.021271
-0.290288 -0.107255 -0.441986
-0.290288 -0.026113 -0.497869
-0.290288 -0.367416 0.267341
-0.290288 -0.457100 0.006367
-0.290288 -0.320354 -0.377543
-0.290288 -0.406334 -0.228721
-0.290288 -0.185657 -0.440597
-0.290288 0.182113 -0.408730
-0.290288 0.471284 0.118554
-0.290288 -0.191314 0.411237
-0.290288 0.210439 0.413171
-0.290288 0.053258 0.490536
-0.290288 0.069679 -0.470004
-0.290288 -0.112931 -0.452036
-0.290288 -0.465006 0.026397
-0.290288 0.076805 0.477746
-0.290288 0.461108 -0.151882
-0.290288 -0.480156 0.009526
-0.290288 0.183223 0.432712
-0.290288 0.462409 0.174982
-0.290288 0.481122 -0.132732
-0.290288 -0.354925 0.278824
-0.290288 0.170441 -0.467877
-0.290288 0.167929 -0.442352
-0.290288 -0.238652 0.410792
-0.290288 0.383111 0.229278
-0.290288 -0.374778 -0.286109
-0.290288 -0.464422 -0.138372
-0.290288 0.217922 0.404153
-0.290288 -0.240553 0.417150
-0.290288 -0.204741 -0.438129
-0.290288 0.472467 -0.000964
-0.290288 -0.163080 0.442166
-0.290288 0.161008 0.413705
-0.290288 -0.150826 0.438067
-0.290288 0.185079 -0.415518
-0.290288 0.082769 0.437695
-0.290288 -0.102738 -0.451956
-0.290288 -0.365271 -0.326530
-0.290288 0.163910 0.441257
-0.290288 0.461871 0.009329
-0.290288 0.458185 0.101844
-0.290288 -0.389433 -0.257997
-0.290288 0.442204 -0.137696
-0.290288 -0.148700 0.445623
-0.290288 0.429108 -0.189806
-0.290288 0.362718 0.304242
-0.290288 -0.071589 -0.443593
-0.290288 0.438988 0.157164
-0.290288 0.314158 0.321836
-0.290288 0.471569 -0.049838
-0.290288 -0.140988 0.474899
-0.290288 0.144503 0.442473
-0.290288 -0.459174 0.184140
-0.290288 0.282186 -0.388143
-0.290288 0.285513 -0.406598
-0.290288 0.454141 -0.118697
-0.290288 -0.395145 0.285063
-0.290288 -0.344928 0.348446
-0.290288 0.451237 -0.136685
-0.290288 0.426631 0.165144
-0.290288 0.364313 -0.280635
-0.290288 -0.312588 0.373548
-0.290288 -0.477516 -0.061553
-0.290288 -0.106508 0.446999
-0.290288 -0.143043 -0.434781
-0.290288 0.391448 0.306083
-0.290288 -0.036225 -0.463993
-0.290288 0.479754 0.041226
-0.290288 0.459501 -0.148368
-0.290288 -0.429848 -0.162217
-0.290288 -0.296895 0.369293
-0.290288 -0.308710 0.319099
-0.290288 0.278753 0.410664
-0.290288 -0.254754 -0.410283
-0.290288 -0.042711 0.482872
-0.290288 0.250775 -0.419470
-0.290288 -0.444458 0.107772
-0.290288 -0.448451 0.069546
-0.290288 -0.346546 0.297668
-0.290288 0.478394 0.099307
-0.290288 -0.473856 0.030299
-0.290288 -0.295446 0.395687
-0.290288 -0.335878 -0.333809
-0.290288 -0.447444 0.087009
-0.290288 0.338162 -0.348580
-0.290288 -0.472845 -0.096169
-0.290288 0.416661 -0.172617
-0.290288 -0.251487 0.366584
-0.290288 0.466247 -0.145938
-0.290288 -0.388012 -0.300485
-0.290288 0.388071 0.287795
-0.290288 0.333641 0.305011
-0.290288 0.008682 -0.474572
-0.290288 -0.464698 -0.074882
-0.290288 -0.332257 0.331296
-0.290288 0.271475 -0.385236
-0.290288 0.347618 -0.317222
-0.290288 0.098768 0.458981
-0.290288 0.180697 0.441383
-0.290288 0.235193 0.416759
-0.290288 0.398144 -0.291165
-0.290288 -0.326611 0.309864
-0.290288 0.346420 -0.359757
-0.290288 0.466983 -0.090534
-0.290288 -0.192515 -0.410043
-0.290288 -0.185205 0.446292
-0.290288 -0.326465 0.337726
-0.290288 -0.345067 -0.333449
-0.290288 0.382112 -0.255759
-0.290288 -0.224129 -0.409641
-0.290288 0.300545 -0.337977
-0.290288 0.013130 0.485189
-0.290288 -0.344909 -0.286762
-0.290288 -0.335018 -0.316491
-0.290288 -0.326070 -0.324172
-0.290288 -0.176679 0.443204
-0.290288 0.317986 -0.379867
-0.290288 -0.477611 0.089883
-0.290288 -0.155742 -0.426141
-0.290288 0.079843 0.459179
-0.290288 0.385526 0.233043
-0.290288 0.308971 0.369494
-0.290288 -0.239716 -0.438182
-0.290288 0.377510 0.305813
-0.290288 0.063976 0.443919
-0.290288 0.460420 -0.078484
-0.290288 -0.447111 0.140835
-0.290288 -0.436924 -0.227478
-0.290288 0.394378 0.228077
-0.290288 -0.368911 -0.287536
-0.290288 -0.470513 -0.018054
-0.290288 0.163615 -0.428818
-0.290288 -0.417698 -0.271091
-0.290288 0.209217 -0.396654
-0.290288 0.249959 0.381619
-0.290288 0.488908 -0.013581
-0.290288 0.449873 -0.082164
-0.290288 0.356331 -0.345156
-0.290288 -0.413353 -0.272578
-0.290288 0.128019 0.463192
-0.290288 -0.101711 0.457518
-0.290288 0.021047 -0.455805
-0.290288 -0.464906 0.062096
-0.290288 0.241964 0.416461
-0.290288 -0.256072 0.415646
-0.290288 0.123614 0.441098
-0.290288 -0.449510 -0.003869
-0.290288 -0.474749 -0.019613
-0.290288 -0.145341 0.446597
-0.290288 -0.004405 -0.492581
-0.290288 0.433998 -0.244126
-0.290288 -0.204344 0.401835
-0.290288 0.055281 -0.444853
-0.290288 -0.339001 0.350127
-0.290288 -0.361869 -0.268982
-0.290288 0.264938 -0.411787
-0.290288 -0.361865 0.285445
-0.290288 0.454315 -0.185834
-0.290288 -0.129357 -0.481904
-0.290288 -0.112449 -0.483868
-0.290288 0.367022 0.305683
-0.290288 -0.420876 0.245401
-0.290288 -0.358455 0.267672
-0.290288 -0.192845 0.455880
-0.290288 0.361815 -0.298394
-0.290288 -0.370600 -0.271871
-0.290288 0.217904 -0.437094
-0.290288 -0.360811 0.288405
-0.290288 0.133210 0.430276
-0.290288 -0.421631 0.253098
-0.290288 0.107730 0.483744
-0.290288 -0.211428 0.431488
-0.290288 -0.440714 0.227758
-0.290288 -0.262890 -0.411003
-0.290288 -0.424299 0.181800
-0.290288 0.371084 -0.316816
-0.290288 -0.468836 0.133462
-0.290288 0.238360 -0.395824
-0.290288 0.204634 -0.405068
-0.290288 -0.261571 0.414952
-0.290288 -0.075567 -0.441433
-0.290288 -0.390136 0.290085
-0.290288 0.242534 0.432580
-0.290288 0.166150 0.437804
-0.290288 -0.197278 0.452661
-0.290288 0.462562 -0.023976
-0.290288 -0.390864 -0.273329
-0.290288 -0.289838 -0.398410
-0.290288 -0.335157 -0.295209
-0.290288 -0.344688 -0.359597
-0.290288 0.031827 0.468173
-0.290288 0.036762 -0.494770
-0.290288 -0.321047 -0.382059
-0.290288 0.176502 0.425097
-0.290288 -0.404172 0.203895
-0.290288 0.482373 -0.035720
-0.290288 -0.374323 -0.314447
-0.290288 0.047919 0.441929
-0.290288 0.450961 0.200169
-0.290288 0.435331 -0.240717
-0.290288 -0.038881 0.493975
-0.290288 -0.304878 -0.347182
-0.290288 0.266330 -0.375466
-0.290288 0.156129 0.451054
-0.290288 0.204131 0.394769
-0.290288 -0.251100 -0.372683
-0.290288 -0.330312 0.315878
-0.290288 -0.074320 0.443948
-0.290288 -0.252477 -0.430069
-0.290288 -0.462836 -0.162850
-0.290288 -0.438605 0.075213
-0.290288 -0.445054 -0.132081
-0.290288 0.201219 -0.439075
-0.290288 -0.315270 0.378885
-0.290288 -0.476474 -0.043351
-0.290288 -0.052006 -0.459467
-0.290288 0.024711 -0.480207
-0.290288 -0.404327 -0.263490
-0.290288 0.069841 0.484973
-0.290288 0.452972 0.147684
-0.290288 -0.429737 0.114976
-0.290288 -0.192269 -0.428770
-0.290288 0.247361 0.384532
-0.290288 -0.082645 -0.439820
-0.290288 -0.482932 -0.034990
-0.290288 -0.038448 0.489547
-0.290288 -0.194309 0.409338
-0.290288 0.215650 -0.423157
-0.290288 0.101694 -0.483729
-0.290288 0.363219 -0.322493
-0.290288 0.124304 -0.444683
-0.290288 0.442947 0.061116
-0.290288 -0.187570 0.410621
-0.290288 -0.182605 -0.423558
-0.290288 0.430067 0.210619
-0.290288 -0.340696 -0.344425
-0.290288 -0.422148 -0.144435
-0.290288 -0.408125 -0.268267
-0.290288 0.284186 -0.378755
-0.290288 -0.336765 0.303907
-0.290288 -0.176181 0.414487
-0.290288 -0.485638 -0.104977
-0.290288 -0.343761 0.320631
-0.290288 0.002102 -0.490518
-0.290288 -0.068981 0.450657
-0.290288 0.447956 -0.084523
-0.290288 -0.446856 0.214620
-0.290288 0.047377 -0.475604
-0.290288 0.326556 0.352351
-0.290288 -0.002658 0.454105
-0.290288 0.311212 -0.375999
-0.290288 -0.196170 -0.409128
-0.290288 -0.480006 -0.105728
-0.290288 -0.491130 -0.074484
-0.290288 -0.217721 0.433686
-0.290288 0.134623 0.453498
-0.290288 -0.006932 0.491664
-0.290288 -0.279278 0.344731
-0.290288 -0.447170 0.164161
-0.290288 0.265851 -0.385941
-0.290288 -0.489193 -0.012132
-0.290288 -0.220403 -0.392819
-0.290288 0.302855 0.369282
-0.290288 -0.491905 -0.016547
-0.290288 0.464662 0.078633
-0.290288 0.451129 -0.148310
-0.290288 0.446914 0.153130
-0.290288 -0.432055 0.121916
-0.290288 -0.295342 0.388727
-0.290288 -0.002883 -0.450753
-0.290288 -0.341218 0.330756
-0.290288 -0.258868 0.412444
-0.290288 0.070841 0.450510
-0.290288 -0.476927 -0.034355
-0.290288 0.419143 -0.222624
-0.290288 0.087559 -0.446182
-0.290288 0.489538 0.003360
-0.290288 0.306113 -0.378914
-0.290288 0.371434 0.300359
-0.290288 -0.103179 -0.479898
-0.290288 -0.388613 -0.229179
-0.290288 0.211024 -0.440190
-0.290288 0.457738 -0.162036
-0.290288 0.361711 -0.327393
-0.290288 -0.057014 0.478991
-0.290288 -0.420432 0.234760
-0.290288 -0.371121 -0.333475
-0.290288 0.116175 -0.459731
-0.290288 0.440823 -0.225118
-0.290288 0.075623 0.489358
-0.290288 -0.114385 0.461688
-0.290288 -0.135885 0.457233
-0.290288 -0.471789 0.115711
-0.290288 0.423853 0.212523
-0.290288 -0.190858 0.432589
-0.290288 0.240617 -0.380980
-0.290288 0.446797 -0.055668
-0.290288 0.442630 0.055015
-0.290288 0.422661 -0.201212
-0.290288 0.341749 -0.288462
-0.290288 -0.453761 0.075738
-0.290288 0.061100 -0.477323
-0.290288 0.416690 0.259325
-0.290288 -0.190953 0.419345
-0.290288 0.463328 -0.120355
-0.290288 0.253659 0.364136
-0.290288 -0.031740 0.477311
-0.290288 0.118672 0.464975
-0.290288 0.442043 0.183596
-0.290288 -0.440296 -0.187870
-0.290288 -0.446689 0.116591
-0.290288 -0.290496 0.390927
-0.290288 0.000242 -0.465073
-0.290288 -0.466167 0.017520
-0.290288 0.344267 0.355014
-0.290288 -0.209908 -0.448275
-0.290288 0.103396 -0.476173
-0.290288 0.220326 0.412375
-0.290288 0.471938 0.077027
-0.290288 0.232397 0.391215
-0.290288 0.154187 0.461774
-0.290288 0.080416 -0.449210
-0.290288 0.472597 0.065087
-0.290288 0.449775 0.065942
-0.290288 -0.354952 0.305086
-0.290288 0.335046 0.331600
-0.290288 -0.316248 -0.336933
-0.290288 0.176198 0.442429
-0.290288 -0.093315 -0.469703
-0.290288 -0.440149 -0.088530
-0.290288 0.028122 -0.458385
-0.290288 0.298872 -0.370388
-0.290288 -0.399613 -0.222915
-0.290288 -0.218015 0.397920
-0.290288 -0.292935 -0.367279
-0.290288 0.007831 -0.487902
-0.290288 0.259319 0.361427
-0.290288 0.363310 -0.272719
-0.290288 0.236066 0.423043
-0.290288 -0.469633 -0.110907
-0.290288 0.370344 0.315655
-0.290288 -0.464228 -0.105693
-0.290288 -0.424593 -0.205246
-0.290288 -0.254168 0.402954
-0.290288 0.404184 -0.190451
-0.290288 -0.243600 0.418735
-0.290288 -0.035941 -0.484100
-0.290288 -0.044239 -0.471465
-0.290288 -0.351785 -0.292542
-0.290288 0.471873 -0.129303
-0.290288 -0.466399 -0.071964
-0.290288 0.005926 0.492477
-0.290288 -0.319477 -0.350393
-0.290288 -0.456299 -0.021161
-0.290288 -0.013632 -0.470006
-0.290288 -0.139049 0.437722
-0.290288 -0.239177 -0.400938
-0.290288 0.091380 0.459093
-0.290288 -0.264373 -0.402457
-0.290288 -0.320935 -0.341433
-0.290288 0.140380 -0.425139
-0.290288 -0.444019 -0.043146
-0.290288 -0.448969 -0.129369
-0.290288 0.371077 0.325419
-0.290288 0.382470 0.235963
-0.290288 -0.441933 0.124738
-0.290288 -0.059006 -0.468894
-0.290288 0.405521 0.246763
-0.290288 0.341397 -0.345705
-0.290288 -0.493122 -0.019775
-0.290288 0.463515 -0.004935
-0.290288 0.130003 0.424261
-0.290288 0.463276 0.108444
-0.290288 0.483014 -0.020522
-0.290288 0.238728 0.407907
-0.290288 -0.244292 0.411131
-0.290288 0.340790 -0.327526
-0.290288 -0.445629 -0.155853
-0.290288 -0.437520 -0.113684
-0.290288 -0.390188 0.280274
-0.290288 0.402589 0.217534
-0.290288 0.031968 0.461635
-0.290288 0.289538 0.347157
-0.290288 -0.247001 -0.434399
-0.290288 0.128883 -0.450781
-0.290288 0.098039 -0.469069
-0.290288 -0.002920 0.467269
-0.290288 -0.456233 0.110062
-0.290288 -0.461959 -0.180108
-0.290288 -0.249223 -0.413040
-0.290288 0.173634 -0.465293
-0.290288 -0.323347 -0.308467
-0.290288 -0.356858 -0.343729
-0.290288 -0.218673 -0.431841
-0.290288 0.480887 -0.124467
-0.290288 0.206627 -0.449282
-0.290288 0.419814 -0.174818
-0.290288 -0.450469 -0.007058
-0.290288 0.097203 -0.465077
-0.290288 -0.438157 -0.079244
-0.290288 0.116862 -0.478360
-0.290288 0.198688 -0.436836
-0.290288 -0.404230 0.236885
-0.290288 -0.488436 -0.018854
-0.290288 -0.260910 0.374943
-0.290288 -0.097838 0.481624
-0.290288 0.492832 -0.023993
-0.290288 -0.006773 -0.486593
-0.290288 0.082415 -0.465815
-0.290288 0.459674 0.190094
-0.290288 -0.314343 0.351074
-0.290288 0.399123 0.247838
-0.290288 -0.447358 0.061615
-0.290288 0.411605 0.267961
-0.290288 -0.465234 0.070785
-0.290288 0.444621 0.119717
-0.290288 0.157580 0.454942
-0.290288 0.011238 -0.499010
-0.290288 0.028250 -0.482776
-0.290288 -0.014082 0.484866
-0.290288 -0.445543 0.189259
-0.290288 -0.433740 -0.177170
-0.290288 0.451236 -0.121450
-0.290288 -0.176332 -0.425459
-0.290288 0.450535 -0.093405
-0.290288 0.228510 0.440196
-0.290288 -0.061979 0.455873
-0.290288 -0.326551 -0.336830
-0.290288 -0.412599 0.184931
-0.290288 -0.484337 0.081879
-0.290288 0.168714 -0.456039
-0.290288 -0.423786 -0.166258
-0.290288 -0.294396 0.360568
-0.290288 0.006173 0.443414
-0.290288 -0.173735 0.460102
-0.290288 0.382866 -0.270301
-0.290288 0.210670 -0.411925
-0.290288 -0.386500 0.263784
-0.290288 -0.427041 -0.167380
-0.290288 -0.478563 0.132309
-0.290288 0.025684 0.486596
-0.290288 -0.052787 -0.468786
-0.290288 -0.426442 0.193262
-0.290288 0.387169 -0.258195
-0.290288 -0.416521 0.222129
-0.290288 -0.307101 -0.381827
-0.290288 0.188448 -0.434557
-0.290288 -0.434184 -0.237059
-0.290288 -0.457910 0.089759
-0.290288 0.357833 -0.297463
-0.290288 -0.409105 -0.231328
-0.290288 0.449231 -0.026028
-0.290288 0.295733 -0.351066
-0.290288 0.310124 0.383195
-0.290288 0.118832 0.468066
-0.290288 0.095858 0.462522
-0.290288 -0.072408 0.470341
-0.290288 0.262143 -0.371649
-0.290288 -0.470462 -0.082922
-0.290288 -0.236929 -0.389867
-0.290288 0.447888 -0.110278
-0.290288 -0.326176 -0.319807
-0.290288 -0.098938 -0.477698
-0.290288 0.403466 0.198266
-0.290288 -0.292884 0.367997
-0.290288 -0.059101 0.483459
-0.290288 -0.387701 0.222833
-0.290288 -0.021930 0.490266
-0.290288 0.409727 0.218865
-0.290288 0.008702 -0.470768
-0.290288 -0.349702 -0.305219
-0.290288 -0.445730 -0.039847
-0.290288 -0.424589 0.190708
-0.290288 0.060052 0.480058
-0.290288 0.021524 0.471732
-0.290288 -0.153339 0.442357
-0.290288 -0.409777 -0.184939
-0.290288 0.354211 -0.351053
-0.290288 0.242242 0.396086
-0.290288 0.226698 0.391838
-0.290288 0.367472 0.257622
-0.290288 0.016542 -0.484139
-0.290288 -0.401708 0.213212
-0.290288 -0.255272 -0.414132
-0.290288 -0.469722 0.022766
-0.290288 -0.433178 -0.158213
-0.290288 0.421812 0.246379
-0.290288 0.398855 0.198910
-0.290288 0.236526 -0.423945
-0.290288 -0.459789 0.051301
-0.290288 0.041020 0.475142
-0.290288 -0.309281 0.349836
-0.290288 0.452906 0.071386
-0.290288 0.111781 -0.483578
-0.290288 0.231630 0.437849
-0.290288 -0.206242 -0.445850
-0.290288 -0.467274 -0.028587
-0.290288 0.322106 -0.363684
-0.290288 0.443976 -0.193893
-0.290288 -0.074249 -0.487967
-0.290288 0.386637 -0.268109
-0.290288 -0.084944 -0.447143
-0.290288 -0.270696 0.363798
-0.290288 0.441770 0.111634
-0.290288 0.442497 -0.155371
-0.290288 0.011717 -0.455623
-0.290288 0.123954 0.434646
-0.290288 -0.111106 0.463162
-0.290288 -0.115989 0.435227
-0.290288 -0.116592 -0.470123
-0.290288 0.229746 -0.390614
-0.290288 0.488274 -0.061153
-0.290288 0.308415 -0.340938
-0.290288 -0.013014 0.462499
-0.290288 0.464333 -0.065100
-0.290288 -0.243084 -0.395891
-0.290288 -0.477108 0.095130
-0.290288 0.488589 -0.046867
-0.290288 0.329896 0.369591
-0.290288 0.094879 0.437058
-0.290288 -0.361044 -0.293469
-0.290288 0.032732 -0.485804
-0.290288 -0.053106 -0.481562
-0.290288 0.346453 -0.297152
-0.290288 0.158885 -0.426226
-0.290288 0.019396 0.469051
-0.290288 -0.121854 0.447888
-0.290288 -0.333889 -0.326647
-0.290288 -0.019525 -0.455157
-0.290288 -0.380429 0.261661
-0.290288 0.015142 0.443153
-0.290288 -0.482714 0.028050
-0.290288 -0.317219 0.372548
-0.290288 -0.324749 -0.341484
-0.290288 0.408037 -0.287491
-0.290288 0.481308 -0.056558
-0.290288 -0.420199 -0.236436
-0.290288 0.072787 -0.449400
-0.290288 0.466430 -0.171414
-0.290288 -0.284766 -0.394587
-0.290288 0.475740 0.139176
-0.290288 -0.393638 -0.282868
-0.290288 -0.142733 -0.444886
-0.290288 0.371008 0.283973
-0.290288 -0.082173 0.456459
-0.290288 -0.182606 -0.420370
-0.290288 0.395804 0.255703
-0.290288 0.469464 0.018264
-0.290288 0.047765 -0.491124
-0.290288 -0.292908 -0.397656
-0.290288 -0.020903 0.472268
-0.290288 0.288096 0.391988
-0.290288 0.415029 0.164526
-0.290288 0.377092 0.281018
-0.290288 0.378262 -0.316622
-0.290288 0.434045 -0.142771
-0.290288 0.379724 0.241909
-0.290288 0.257793 0.418916
-0.290288 0.284820 0.363962
-0.290288 -0.299008 -0.332355
-0.290288 -0.257590 0.400845
-0.290288 -0.421375 0.141685
-0.290288 0.215367 0.444913
-0.290288 -0.307593 0.377806
-0.290288 0.295611 0.350251
-0.290288 -0.461220 0.166168
-0.290288 0.495964 0.040513
-0.290288 0.059445 -0.444497
-0.290288 0.386858 -0.223959
-0.290288 0.107312 -0.471406
-0.290288 -0.288362 -0.342543
-0.290288 0.407899 -0.258020
-0.290288 -0.188909 0.436462
-0.290288 -0.060897 -0.452973
-0.290288 -0.274149 -0.406079
-0.290288 0.383862 -0.266699
-0.290288 -0.410883 0.203818
-0.290288 -0.475415 -0.007654
-0.290288 0.286871 0.341486
-0.290288 0.441054 -0.167099
-0.290288 0.178800 0.448842
-0.290288 -0.385364 -0.228758
-0.290288 -0.210535 0.405217
-0.290288 -0.207185 0.400080
-0.290288 0.351036 0.302305
-0.290288 -0.098916 -0.486109
-0.290288 -0.363601 -0.282121
-0.290288 -0.405323 -0.241523
-0.290288 0.443412 0.157687
-0.290288 -0.079632 -0.490563
-0.290288 -0.070801 0.437437
-0.290288 -0.020399 0.493128
-0.290288 -0.121880 -0.463117
-0.290288 -0.355854 -0.302383
-0.290288 0.450189 -0.213020
-0.290288 0.383615 0.305029
-0.290288 -0.257655 -0.400598
-0.290288 0.442161 -0.203816
-0.290288 -0.107701 0.460479
-0.290288 0.466724 0.123941
-0.290288 0.341740 -0.355962
-0.290288 -0.149767 0.427916
-0.290288 0.419080 0.181722
-0.290288 -0.181492 0.420556
-0.290288 0.435718 -0.181332
-0.290288 -0.415259 -0.186004
-0.290288 0.087214 -0.467827
-0.290288 -0.110438 -0.443402
-0.290288 -0.491129 -0.078641
-0.290288 0.235650 -0.401092
-0.290288 -0.475840 -0.048920
-0.290288 0.346694 0.327277
-0.290288 -0.341199 -0.296685
-0.290288 -0.054824 -0.451465
-0.290288 0.321586 0.362602
-0.290288 0.086853 0.488207
-0.290288 0.426454 0.229242
-0.290288 0.122159 -0.484223
-0.290288 -0.331712 -0.350845
-0.290288 -0.286751 0.339169
-0.290288 0.389918 -0.269537
-0.290288 0.459674 0.077596
-0.290288 0.489352 0.066536
-0.290288 0.364329 0.301608
-0.290288 -0.457280 0.077269
-0.290288 -0.428251 0.177187
-0.290288 0.160189 -0.447459
-0.290288 0.327994 0.334965
-0.290288 -0.457003 -0.054195
-0.290288 0.328734 -0.340855
-0.290288 0.402106 0.201475
-0.290288 -0.099040 -0.466422
-0.290288 -0.436117 -0.148583
-0.290288 -0.228901 0.386309
-0.290288 0.468245 -0.161941
-0.290288 0.019935 0.475102
-0.290288 0.177378 -0.450791
-0.290288 0.442527 0.151214
-0.290288 0.432369 0.158290
-0.290288 -0.117509 0.481497
-0.290288 0.467285 0.083193
-0.290288 -0.440872 0.175132
-0.290288 -0.300503 -0.352160
-0.290288 0.430738 0.151656
-0.290288 0.409317 -0.270691
-0.290288 -0.344961 0.295002
-0.290288 -0.134427 -0.442468
-0.290288 0.389580 0.284084
-0.290288 0.276913 -0.400219
-0.290288 0.472497 0.056780
-0.290288 0.473184 0.148007
-0.290288 -0.087892 -0.459823
-0.290288 -0.093713 -0.489456
-0.290288 0.195846 0.404483
-0.290288 -0.334645 -0.358448
-0.290288 -0.263024 0.392855
-0.290288 -0.275756 -0.402479
-0.290288 -0.160533 -0.470350
-0.290288 0.443538 -0.222443
-0.290288 -0.295143 0.337052
-0.290288 0.376497 0.243416
-0.290288 0.002901 0.444014
-0.290288 0.418235 0.165626
-0.290288 0.471751 0.144895
-0.290288 -0.474100 -0.082940
-0.290288 -0.453100 -0.043296
-0.290288 0.071391 0.473493
-0.290288 -0.358067 0.290046
-0.290288 -0.437832 0.098144
-0.290288 0.026214 0.482879
-0.290288 -0.170520 0.460741
-0.290288 0.316258 0.330836
-0.290288 -0.028023 0.472584
-0.290288 0.178348 -0.463888
-0.290288 -0.016520 0.464370
-0.290288 -0.399065 0.218357
-0.290288 -0.437791 -0.143891
-0.290288 -0.277622 0.395819
-0.290288 -0.394833 0.208734
-0.290288 0.455306 0.199000
-0.290288 0.429082 -0.149415
-0.290288 0.479058 -0.100311
-0.290288 -0.375616 -0.326551
-0.290288 0.443534 -0.228249
-0.290288 0.003977 0.456752
-0.290288 -0.218083 -0.418690
-0.290288 -0.209595 0.397236
-0.290288 0.312935 0.316520
-0.290288 -0.326402 -0.311146
-0.290288 0.172253 -0.446597
-0.290288 0.314908 0.366462
-0.290288 -0.442330 0.104218
-0.290288 0.213594 -0.413601
-0.290288 0.263717 -0.414988
-0.290288 -0.442126 0.051656
-0.290288 -0.172641 0.456924
-0.290288 -0.439820 0.192614
-0.290288 -0.221772 0.416598
-0.290288 0.354416 -0.347719
-0.290288 -0.148087 -0.425169
-0.290288 0.010353 -0.463903
-0.290288 -0.091574 -0.480522
-0.290288 0.430239 0.173906
-0.290288 -0.255370 0.375055
-0.290288 -0.145039 0.427022
-0.290288 -0.400459 0.205600
-0.290288 -0.450537 -0.202961
-0.290288 -0.038195 -0.455875
-0.290288 -0.101843 -0.468058
-0.290288 0.269512 -0.377477
-0.290288 -0.448553 0.075125
-0.290288 0.044476 0.454897
-0.290288 0.188001 0.408034
-0.290288 0.236725 -0.389305
-0.290288 0.439047 -0.210736
-0.290288 -0.486823 -0.039701
-0.290288 0.071830 0.478785
-0.290288 -0.175047 0.425572
-0.290288 0.436763 0.153982
-0.290288 -0.358721 0.262114
-0.290288 -0.212932 0.411486
-0.290288 0.132040 0.438030
-0.290288 -0.276649 -0.380820
-0.290288 0.010796 0.475580
-0.290288 -0.073407 0.473617
-0.290288 0.265210 -0.382770
-0.290288 0.455196 0.079522
-0.290288 -0.037872 0.446634
-0.290288 -0.422689 -0.183039
-0.290288 -0.371526 -0.275591
-0.290288 0.195521 -0.437343
-0.290288 -0.258710 -0.410840
-0.290288 -0.401946 0.279643
-0.290288 0.253341 -0.399975
-0.290288 -0.306596 0.353054
-0.290288 -0.162195 -0.449464
-0.290288 -0.118722 -0.480009
-0.290288 -0.274437 -0.385072
-0.290288 0.392027 -0.215503
-0.290288 -0.119280 0.453498
-0.290288 0.207245 0.411337
-0.290288 -0.225090 0.392742
-0.290288 -0.445576 -0.002659
-0.290288 -0.452200 -0.193496
-0.290288 -0.281843 -0.370741
-0.290288 0.436936 0.142146
-0.290288 0.042795 -0.477109
-0.290288 -0.008769 0.457290
-0.290288 -0.267254 0.375490
-0.290288 0.465220 -0.125518
-0.290288 -0.321126 0.342097
-0.290288 0.382171 -0.278571
-0.290288 0.483652 0.068218
-0.290288 0.103217 0.475578
-0.290288 0.333792 0.367666
-0.290288 0.466932 0.025376
-0.290288 0.176277 0.416923
-0.290288 0.400051 0.264083
-0.290288 0.405571 0.238223
-0.290288 -0.475039 -0.015844
-0.290288 0.170409 -0.435581
-0.290288 -0.243108 0.384525
-0.290288 0.438660 0.099602
-0.290288 -0.202808 0.433625
-0.290288 -0.030472 0.461838
-0.290288 -0.433072 -0.104130
-0.290288 0.464194 0.117226
-0.290288 0.026413 0.464921
-0.290288 0.278661 0.402129
-0.290288 -0.465638 0.162587
-0.290288 -0.363749 -0.334162
-0.290288 -0.452141 0.157948
-0.290288 0.381785 -0.246237
-0.290288 0.331622 0.364596
-0.290288 0.053441 -0.448351
-0.290288 -0.274351 -0.368238
-0.290288 0.419801 0.148709
-0.290288 -0.385326 0.249793
-0.290288 -0.413345 -0.257214
-0.290288 0.463149 -0.037407
-0.290288 -0.356988 0.307444
-0.290288 -0.143690 -0.439554
-0.290288 -0.431633 0.125649
-0.290288 0.451990 -0.130882
-0.290288 -0.395913 -0.264521
-0.290288 -0.331134 0.342341
-0.290288 -0.461760 0.131839
-0.290288 -0.293202 -0.361623
-0.290288 0.070945 0.444886
-0.290288 0.460724 0.183996
-0.290288 0.454033 -0.168294
-0.290288 0.448280 0.029806
-0.290288 -0.381687 -0.251425
-0.290288 -0.451026 -0.166015
-0.290288 -0.021442 -0.468115
-0.290288 0.389446 -0.253597
-0.290288 0.157351 -0.436501
-0.290288 0.078060 0.449883
-0.290288 0.135602 0.426266
-0.290288 0.456111 0.168256
-0.290288 0.425200 0.244461
-0.290288 -0.389192 -0.224201
-0.290288 0.073709 0.446659
-0.290288 -0.430560 0.243843
-0.290288 -0.233040 -0.382139
-0.290288 0.460515 -0.021493
-0.290288 -0.438358 0.178900
-0.290288 -0.097962 0.436503
-0.290288 -0.357449 -0.326049
-0.290288 0.412793 -0.270761
-0.290288 0.468999 0.029573
-0.290288 -0.439187 0.110286
-0.290288 0.276882 0.353301
-0.290288 0.483602 -0.115866
-0.290288 0.455913 0.149934
-0.290288 -0.463076 -0.020465
-0.290288 0.091795 0.455736
-0.290288 0.418580 0.176000
-0.290288 -0.433472 -0.111900
-0.290288 -0.480916 0.103437
-0.290288 -0.271872 0.387454
-0.290288 0.146247 -0.441093
-0.290288 -0.450712 0.055545
-0.290288 0.465945 -0.052300
-0.290288 -0.014377 0.468012
-0.290288 0.448958 -0.113599
-0.290288 -0.480510 -0.078264
-0.290288 0.395328 0.210542
-0.290288 -0.474960 -0.135207
-0.290288 0.026896 0.469440
-0.290288 -0.286359 -0.406777
-0.290288 0.258734 -0.380775
-0.290288 0.423200 -0.191522
-0.290288 -0.454979 0.141803
-0.290288 0.401068 0.205659
-0.290288 -0.393904 -0.291769
-0.290288 -0.067389 -0.486997
-0.290288 -0.148647 0.432145
-0.290288 0.186875 0.425370
-0.290288 -0.414546 0.266750
-0.290288 -0.417299 -0.240940
-0.290288 -0.449533 0.015954
-0.290288 -0.383372 -0.256034
-0.290288 -0.079293 -0.465083
-0.290288 0.308394 0.358265
-0.290288 -0.354217 -0.272661
-0.290288 0.446004 0.023041
-0.290288 0.373059 -0.308175
