-0.122078 -0.251092 -0.369484
-0.026931 0.230892 -0.383176
-0.063903 -0.438823 0.069985
-0.212690 -0.421130 0.141002
-0.118543 -0.346665 0.276645
-0.230894 -0.443242 -0.038624
-0.176562 -0.005666 0.443064
-0.263238 0.275433 -0.352380
-0.283993 -0.444103 -0.028253
-0.289731 0.355690 0.266330
0.107520 0.415389 -0.164148
0.236066 0.115983 0.427900
-0.008927 -0.291004 -0.338703
0.187546 0.291225 -0.339412
0.211649 0.416603 0.156422
-0.079744 -0.072298 0.437056
-0.117436 -0.365158 0.251835
0.260071 0.445355 -0.021039
-0.055763 0.039509 0.441337
-0.148555 -0.373595 0.239421
0.015064 -0.381029 -0.231641
0.227803 -0.316880 0.310060
-0.037789 0.345082 -0.284360
-0.218969 -0.118077 -0.431347
-0.252397 -0.444910 -0.001762
0.030254 0.445181 0.022201
0.003687 0.385010 0.222289
-0.275239 -0.342765 -0.286026
-0.153221 -0.298313 -0.332259
-0.099684 -0.292375 -0.337494
-0.079246 0.414176 0.162935
0.076185 0.115508 0.428038
0.282464 0.025841 -0.446816
0.121953 0.385371 -0.226031
0.172560 -0.221802 -0.387946
-0.127870 -0.393327 0.205540
-0.170383 0.414261 0.162738
-0.181314 -0.128706 -0.428259
0.233798 -0.432477 -0.106026
-0.214462 0.264366 0.356611
0.038071 -0.428038 0.118547
-0.097358 0.418407 -0.155766
0.190143 -0.444326 -0.021153
0.166575 0.430687 0.112957
-0.205631 -0.093851 0.432933
0.095863 0.324964 -0.307355
0.006099 -0.419544 0.145407
0.205623 0.411302 -0.173928
-0.279228 -0.364344 0.253034
-0.121864 -0.222386 0.383248
-0.164926 0.225837 -0.386166
-0.144606 -0.435745 0.087049
-0.049278 0.431817 0.109068
0.236088 -0.103744 -0.435075
0.057739 0.341899 -0.288180
-0.032269 -0.315928 -0.315366
0.110550 0.113413 0.428647
0.049493 -0.062059 0.438678
-0.115701 0.176152 0.406931
-0.087627 0.436240 0.089421
0.085071 0.013974 0.442835
-0.038926 -0.406714 -0.182163
-0.043854 0.362728 0.256920
0.086855 0.110723 -0.433744
-0.001981 -0.434856 -0.095381
-0.226000 -0.109748 -0.433733
0.199666 -0.444843 -0.004713
-0.130018 -0.348503 0.274275
-0.200906 -0.388386 0.214847
-0.195951 0.445425 0.014443
-0.216804 -0.425924 0.125824
0.107455 -0.444631 0.007113
0.181163 -0.332752 0.293039
0.265073 0.141125 0.420390
0.108959 0.362029 0.257948
0.038770 -0.444345 -0.020559
0.189191 0.061281 -0.443317
0.083221 0.290525 0.335675
-0.061386 0.368571 0.248322
0.200462 -0.291950 0.333516
0.211105 0.060735 0.439050
0.256365 0.361651 -0.262858
0.018085 -0.177489 -0.410262
-0.263649 0.409182 -0.178828
0.010660 -0.086651 0.434542
0.031426 0.359386 0.261566
0.195713 0.436052 -0.094617
0.141849 0.445775 0.003307
-0.052333 -0.205366 0.392600
0.071065 0.365778 0.252432
-0.003689 0.200131 -0.400143
-0.119398 -0.213413 0.388500
-0.057177 -0.395644 -0.205346
0.142087 0.310044 0.317921
-0.206860 0.016086 0.442769
-0.235119 -0.056424 0.439570
-0.019978 -0.321601 0.305340
0.224465 0.104848 0.430703
0.000760 0.441820 0.057535
-0.236947 0.436065 0.090203
-0.134909 -0.439375 -0.070852
-0.170650 -0.186741 -0.406258
0.280202 -0.312709 -0.318584
0.066819 -0.091196 0.433526
-0.157152 -0.075398 0.436565
-0.083062 0.139979 -0.425156
0.183270 -0.444884 -0.003395
0.015587 0.364147 -0.259184
-0.028086 0.066526 0.438133
-0.099828 0.432784 -0.109237
0.094412 -0.325299 0.301493
-0.288261 0.263095 -0.361949
-0.014537 0.404133 -0.190496
0.116928 -0.250115 -0.370148
0.082477 0.422289 -0.144983
-0.030233 -0.424766 0.129809
0.008837 -0.191095 0.399871
0.112891 -0.399114 0.194183
0.219977 -0.103390 0.430800
0.164573 -0.094755 0.432731
-0.029996 -0.367169 -0.253230
-0.048800 0.312666 -0.319653
0.108231 -0.329850 -0.300684
-0.247252 0.442135 0.055547
0.004175 0.400691 -0.197452
-0.213481 -0.394526 -0.207542
-0.062978 -0.263523 0.356470
-0.157609 -0.331129 0.294880
-0.085234 0.066702 0.438105
-0.103527 -0.384390 0.221603
0.089362 -0.434497 -0.096988
-0.261742 0.241430 -0.376747
-0.232891 0.256068 0.362445
0.061725 0.409170 -0.178857
-0.064787 -0.215285 -0.391801
0.030819 0.314161 -0.318158
-0.078762 0.055659 0.439810
-0.150273 -0.166958 -0.414819
-0.052504 -0.442752 -0.043807
-0.124091 0.442232 0.054936
-0.253529 0.362486 0.257275
-0.089586 -0.323878 0.303062
0.188508 0.211367 -0.394418
0.133683 0.445287 0.018843
0.260167 0.346432 0.278266
-0.251607 -0.402327 -0.192231
-0.151638 -0.205202 0.392683
0.193927 0.422290 0.140627
-0.140882 0.362366 -0.261806
0.268315 -0.123029 0.425555
-0.289957 -0.437443 0.078698
0.110284 0.094713 0.432969
-0.137523 0.445890 -0.004012
-0.235763 0.320923 0.307042
0.201454 -0.174647 0.407138
-0.164564 0.374716 -0.243634
0.165129 0.308983 0.318982
0.260363 -0.069222 0.437543
-0.025037 -0.442029 0.047111
0.162888 -0.431211 -0.111688
0.209873 -0.425951 -0.130084
-0.140026 -0.161224 -0.417138
0.148565 0.381415 0.228368
-0.160127 -0.135358 -0.426327
0.180250 0.224833 0.382407
-0.238528 0.445283 -0.023313
0.090894 -0.042115 -0.445347
-0.048233 -0.403244 0.185828
0.065845 -0.439815 0.063724
0.208803 0.023142 -0.446901
0.072227 0.380588 0.229765
-0.170558 -0.253693 -0.367716
-0.057484 0.073514 0.437026
-0.185791 -0.371531 -0.246812
0.024336 -0.442574 -0.045697
-0.043973 -0.168670 -0.414078
0.180022 -0.324939 0.301901
-0.045890 -0.020638 -0.446947
-0.000270 -0.046672 0.440563
0.076703 0.050379 -0.444663
0.114159 -0.323047 0.303894
-0.179646 0.076484 -0.440909
-0.149515 0.047747 -0.444912
0.009401 -0.130867 -0.427632
0.117057 0.087046 0.434683
0.233677 -0.071213 0.437228
-0.043287 0.174193 0.407779
-0.289593 0.254300 0.363647
0.286118 0.444239 0.034572
0.253694 0.222709 0.383663
0.085710 -0.206167 -0.396545
0.019727 0.401828 0.190868
-0.134002 -0.351731 -0.274467
0.273044 -0.444246 -0.023713
0.138184 -0.237981 -0.378378
0.065682 -0.442350 0.043709
0.231450 -0.435186 0.089550
-0.186734 -0.360416 0.258814
0.265957 -0.276319 -0.350898
0.060291 0.421623 0.142480
0.136332 0.188699 -0.405855
0.250294 0.411477 -0.173524
0.152206 0.046988 0.440630
0.005338 -0.312613 -0.318680
-0.238524 -0.010210 -0.447275
-0.165185 0.378878 0.232658
-0.262075 0.429507 -0.121373
-0.159149 -0.056761 -0.443870
0.172882 0.276204 0.347428
-0.101867 0.423306 -0.142157
0.157404 0.256597 0.362086
-0.205913 0.318631 -0.313687
0.158370 0.323443 -0.308876
0.025863 -0.310926 0.316014
0.093035 0.038291 0.441452
-0.117783 -0.371030 0.243196
0.239674 0.328899 0.298572
0.188270 0.112007 -0.433408
0.011138 -0.432848 0.100009
0.137058 -0.317807 0.309134
0.266482 0.421096 -0.148295
-0.106669 0.444163 0.035373
-0.014487 -0.431124 0.107725
-0.230586 -0.435922 0.086258
0.201593 -0.164588 -0.415845
-0.222180 -0.378327 0.231856
-0.064238 -0.424988 0.129046
-0.275726 0.436379 -0.093151
-0.208888 0.280232 -0.348657
-0.057665 -0.232244 0.377417
0.072609 0.410837 -0.175003
0.045631 0.432896 0.104381
-0.219374 0.202896 -0.398734
0.143092 -0.399207 -0.198354
0.046120 -0.354493 0.266552
-0.246444 0.125696 0.425078
-0.093580 0.012207 -0.447244
-0.177631 0.348679 -0.279723
-0.049745 -0.407239 0.176597
0.224991 0.199177 0.396275
0.075568 -0.229261 -0.383535
-0.267770 0.199323 -0.400554
-0.189888 0.109924 0.429569
-0.034137 0.445416 0.014747
0.089460 -0.421860 0.138975
-0.162350 -0.437237 0.080000
-0.016677 0.240835 -0.377151
-0.243339 -0.007285 0.443013
0.178080 0.445759 -0.008178
0.191547 -0.389756 0.212531
-0.096133 -0.444647 0.006599
0.151211 0.375708 -0.242173
0.023033 -0.034064 -0.446108
-0.159213 0.240985 -0.377049
0.259941 0.445363 0.016409
-0.126602 -0.415154 -0.161954
0.285228 -0.408826 0.172931
-0.278067 0.445756 0.003908
-0.272994 0.270473 -0.356226
-0.231890 0.058812 0.439354
-0.092324 0.350112 0.273521
-0.155149 -0.361913 -0.260964
0.075084 -0.412158 0.165229
0.002363 -0.250325 -0.370005
0.213690 -0.018789 0.442652
0.028993 0.252780 0.364680
0.113358 0.160853 0.413287
0.092019 -0.151833 -0.420519
-0.114633 -0.311042 -0.320252
0.008635 0.318056 0.309909
0.110394 0.433718 0.100705
0.218816 0.185713 0.402793
0.037867 -0.261513 -0.362382
0.212598 0.143193 0.419645
-0.229081 0.362361 0.257459
0.028527 -0.334320 0.291261
0.168520 0.445343 0.017049
0.234526 -0.241983 -0.375675
-0.129869 -0.210312 0.390080
-0.186237 0.289622 0.336471
-0.227709 0.192012 -0.404280
0.079272 0.348709 -0.279683
-0.094576 0.312727 0.315238
0.273227 -0.338434 -0.290948
-0.020234 -0.013394 -0.447175
-0.127785 0.004882 0.443121
-0.213902 -0.403514 0.185204
0.033272 0.079306 0.436109
-0.195575 0.235318 0.376205
-0.271631 0.225944 0.381749
-0.266133 0.324136 0.303829
0.047808 -0.422594 0.136934
0.263699 0.089931 -0.438391
0.192069 0.443057 -0.051426
-0.277120 -0.351509 -0.274753
0.254626 -0.196246 0.397247
-0.072704 0.405325 0.183387
0.130549 0.224295 -0.387078
-0.009874 -0.335605 0.289804
-0.157716 0.436645 -0.091963
-0.245883 0.192745 -0.403906
-0.177330 0.241797 0.372144
0.159320 0.276775 0.346985
0.210309 -0.444799 -0.006097
0.066581 -0.195316 0.397721
-0.131787 -0.359091 -0.264978
-0.012618 0.286992 0.338790
-0.117262 0.385180 0.222001
-0.259195 0.011609 0.442910
0.169609 0.392553 -0.213424
0.211426 0.237978 0.374633
0.170958 0.041261 0.441171
0.084014 0.198676 0.396531
0.210030 0.399489 0.195459
-0.114763 -0.026838 -0.446752
0.249117 -0.224352 0.382085
0.257295 -0.007500 -0.447360
-0.166724 -0.441197 0.054998
-0.184231 0.442876 -0.053336
-0.134402 -0.442191 -0.049744
-0.027463 0.314494 -0.317825
-0.018605 0.441120 0.061952
-0.059577 0.317770 0.310195
0.186764 0.374703 0.239299
-0.262081 0.434478 0.097305
0.093266 -0.444741 -0.007954
-0.040593 0.220522 0.384956
0.241149 0.438576 0.078016
-0.111594 -0.338125 -0.291298
-0.240025 0.438617 -0.082111
0.097852 0.172538 -0.412848
0.059516 -0.057980 0.439324
0.169621 -0.397597 0.197161
-0.169101 -0.290463 0.334826
0.200667 0.012483 0.442882
0.182201 -0.031350 -0.446365
0.062837 -0.235881 -0.379620
-0.164587 0.404164 0.186070
0.067387 0.435228 -0.098302
-0.152542 -0.331414 -0.298910
0.013089 -0.269228 0.352044
-0.217128 -0.232673 -0.381517
-0.019394 -0.157200 0.414233
0.230288 -0.360943 -0.262391
0.128546 -0.208518 0.390994
-0.113309 -0.415784 -0.160205
-0.220634 0.372304 -0.247182
-0.091319 -0.371145 -0.247379
0.049976 0.269570 0.352574
-0.145190 0.203028 0.394313
-0.068242 0.220446 0.385001
-0.134696 -0.137767 -0.425583
-0.217547 0.255603 0.362761
0.207611 -0.274307 0.348104
0.048623 0.052829 -0.444431
0.202872 -0.165144 0.411251
0.172645 -0.437214 -0.084497
-0.041648 -0.437900 -0.080169
-0.062187 -0.197167 -0.401131
-0.038851 0.439284 -0.077899
-0.289438 0.077300 -0.440780
0.194074 -0.298687 -0.331929
0.227379 0.311118 -0.321200
0.043527 0.142841 0.419772
-0.103580 0.163692 0.412265
0.122645 -0.177783 -0.410135
-0.288707 0.445924 -0.002930
-0.154993 -0.018942 -0.447000
-0.004394 -0.417119 0.152144
-0.075487 -0.444754 -0.007535
-0.205161 0.376710 0.236322
0.271738 0.003637 -0.447514
-0.168967 0.399751 0.194943
-0.166486 0.144075 -0.423681
-0.032865 -0.278039 0.345210
-0.267000 -0.179859 -0.409237
-0.169639 -0.349090 0.273518
-0.280010 0.256682 -0.366381
-0.096002 -0.431742 0.104959
0.186200 -0.438513 -0.076297
0.231785 0.337584 -0.293075
-0.047770 0.391364 -0.215758
0.021654 -0.119457 0.426593
0.218705 0.355689 0.266332
0.107571 0.356681 -0.269406
-0.050699 0.018663 0.442688
-0.164541 0.084385 0.435278
0.143034 -0.253696 0.363360
-0.284710 0.300412 0.326959
-0.039145 0.442093 -0.060165
-0.131230 -0.100008 -0.435910
0.224828 0.426384 0.127769
0.227116 -0.253058 0.363795
-0.091309 0.250099 -0.370855
-0.042016 0.029181 0.442313
0.254298 0.394997 0.204274
0.282679 -0.019508 -0.446983
-0.221948 0.400911 0.192667
0.193478 0.417807 -0.157432
0.193276 -0.344093 0.279960
-0.186705 0.295470 -0.335669
-0.201224 0.132875 0.422992
0.063863 0.111758 0.429127
-0.147691 -0.441616 -0.055829
-0.098007 -0.366614 -0.254046
-0.017167 0.256171 -0.366728
0.078254 -0.025421 -0.446797
0.104444 0.292674 -0.338134
0.277570 0.440587 0.065317
-0.217663 0.222456 0.383812
-0.277370 -0.313743 0.313197
-0.204150 -0.282462 0.341779
0.092333 0.026204 -0.446804
-0.251054 0.098486 0.432126
0.218731 -0.039084 0.441280
0.080138 0.202921 -0.398721
-0.142966 -0.325011 0.301819
-0.169806 -0.425440 0.127489
0.192063 -0.383808 -0.226942
0.283310 -0.417671 -0.154962
0.174620 -0.434381 -0.097505
0.159543 -0.386140 -0.222998
-0.222741 0.438207 0.080345
-0.240605 -0.435800 0.086805
-0.011874 0.387789 0.217589
0.263658 -0.075375 -0.440922
-0.188751 0.374226 0.240001
-0.201280 0.219256 0.385705
-0.060839 -0.142741 -0.423792
0.176311 0.192967 0.399439
-0.117401 0.058771 -0.443714
0.005949 0.000943 0.443245
0.129163 0.441286 -0.065256
-0.220452 0.443093 -0.051040
-0.090595 0.420110 0.146680
-0.217138 -0.413027 -0.167575
-0.134792 -0.170682 0.408854
0.136172 -0.260523 0.358721
-0.174361 0.379582 -0.235820
0.061175 0.445389 0.015586
0.037855 0.431811 -0.113440
0.073317 0.221296 -0.388852
0.198735 -0.188055 0.401337
0.286473 0.416331 0.157179
-0.159567 0.152544 -0.420632
-0.064741 0.133466 0.422821
-0.006605 0.153279 -0.420367
-0.058190 -0.425982 -0.129978
0.010302 0.445820 -0.006227
0.089820 -0.149207 0.417111
-0.187450 0.348669 0.275381
-0.276381 0.243776 0.370799
-0.073664 0.445555 0.010303
0.064705 -0.427121 -0.126057
0.252002 -0.444049 0.025621
0.003790 -0.336619 0.288653
0.203087 -0.231919 -0.381963
0.133846 0.442620 0.051698
0.254991 0.124570 0.425405
-0.108757 0.324436 0.303529
-0.124573 -0.442816 -0.043132
0.014033 0.351428 -0.276179
-0.238483 0.143640 0.419484
0.284627 -0.285377 0.339310
-0.047975 -0.310131 0.316809
-0.039932 0.423770 -0.140868
0.055675 0.276868 -0.351266
-0.024818 0.146052 0.418616
-0.273795 0.316686 0.311279
0.058936 -0.371569 -0.246756
0.217436 0.186531 -0.406793
-0.204724 0.445083 0.025345
0.042756 -0.278246 -0.349402
-0.016775 0.189577 0.401121
-0.278432 -0.441666 -0.055296
0.034232 0.193778 0.399026
0.127480 0.240468 0.373047
0.046204 0.404563 -0.189503
-0.289152 0.119491 -0.431234
0.006312 0.425250 -0.136024
0.206191 0.006528 -0.447423
0.281133 0.445565 0.009980
0.228599 0.213151 0.389155
0.196175 -0.019159 -0.446994
0.086718 0.386230 0.220225
-0.000384 -0.029505 0.442186
0.033365 -0.078472 -0.440432
0.201496 0.059033 -0.443673
0.168146 -0.396883 -0.202914
0.084185 0.077935 0.436326
-0.160251 -0.444155 -0.026590
-0.076132 0.293989 -0.336975
0.123048 -0.101911 0.431131
0.143300 0.444805 0.028584
0.183386 -0.176649 0.406272
0.256003 0.417160 -0.159230
-0.203595 -0.247193 0.367780
-0.184107 0.445403 0.015156
0.233674 -0.442912 0.037765
-0.235624 -0.235788 -0.379675
0.209796 0.427198 0.124966
0.004932 0.029310 -0.446655
0.129379 0.040406 0.441252
0.258223 0.381398 0.228396
-0.038693 0.095290 0.432840
-0.184486 0.198761 0.396487
0.203360 -0.347146 0.276024
-0.007918 -0.237081 0.374557
-0.247651 -0.432853 -0.104343
-0.142209 -0.444597 -0.012525
-0.159755 0.396083 -0.206496
-0.215307 0.115170 -0.432490
0.266656 -0.302000 0.324655
0.176656 -0.435740 0.087075
0.234174 -0.049888 -0.444612
-0.067510 0.432253 -0.111610
0.151831 0.128291 0.424324
-0.216899 -0.371754 0.242130
-0.152585 0.011710 0.442906
0.011618 -0.170429 -0.413317
-0.174328 0.445178 -0.026656
-0.168172 0.403107 -0.192711
0.077098 -0.343067 -0.285636
0.269073 -0.077473 0.436237
-0.102561 0.212251 0.389614
0.033808 -0.018295 0.442667
0.281922 0.035170 0.441747
0.249078 0.404699 0.184835
0.263661 0.324072 0.303893
0.129712 0.370114 0.246051
-0.104156 -0.191488 -0.404024
-0.143609 0.208481 -0.395888
0.029957 0.277106 0.346729
-0.249317 0.108358 -0.434272
-0.046735 0.069883 0.437601
0.255102 -0.405135 0.181459
-0.121900 -0.424687 0.130083
-0.108751 0.237168 0.375111
0.129115 0.054845 -0.444241
-0.058342 0.188622 0.401535
-0.160435 0.419347 0.148802
0.238487 0.374643 0.239387
-0.223668 0.424821 -0.137500
-0.032841 0.035583 0.441708
0.238681 0.441497 0.059572
0.141676 0.347543 0.276833
-0.217964 0.315228 -0.317090
-0.147122 -0.387063 0.217085
0.178368 -0.114627 -0.432350
-0.235945 0.115520 -0.432388
0.208739 -0.066645 0.437951
-0.240398 0.313717 0.314248
-0.240955 0.362113 -0.262178
0.103633 0.438724 0.077080
0.236353 -0.233206 -0.381202
-0.063176 -0.228875 -0.383763
-0.131099 0.287561 0.338288
-0.052708 0.349519 0.274286
-0.096675 -0.156701 -0.418766
-0.250618 -0.444155 -0.026595
0.068456 0.298220 0.328891
-0.041219 0.259737 0.359952
0.058150 -0.145771 0.418348
-0.015872 -0.443627 0.030197
0.282149 -0.272472 0.349528
0.213414 0.422134 -0.145413
0.163408 -0.436430 0.083986
-0.237690 -0.376978 0.234137
0.119150 -0.444052 -0.029886
-0.197100 0.068729 -0.442137
0.164068 0.340741 -0.289493
0.163613 0.256926 -0.366216
0.286880 0.242121 -0.376277
-0.231889 -0.211733 0.389356
0.181630 0.015941 0.442773
0.077677 0.442506 0.052896
-0.075033 0.428586 0.120188
-0.212846 -0.443566 -0.035196
-0.113473 0.086882 0.434719
-0.115385 0.126957 0.424712
-0.287631 0.415874 0.158448
-0.151215 -0.444683 0.005463
-0.054046 0.076929 -0.440838
0.032515 0.069350 0.437685
-0.044284 0.187677 0.401944
-0.013624 -0.442133 0.046008
-0.208572 0.445833 -0.005803
0.194547 -0.147476 0.417734
0.205958 -0.246364 0.368344
-0.181041 0.262447 0.358099
0.116593 0.339247 -0.291188
0.144205 -0.114884 -0.432275
0.080487 0.361096 0.259321
-0.231262 -0.337210 -0.292336
0.055438 -0.182489 0.403745
-0.053342 0.412669 -0.170771
-0.015551 -0.090302 -0.438079
-0.196395 -0.437113 0.080781
0.172878 -0.113220 0.428405
-0.136868 -0.183099 0.403481
0.018435 -0.365786 0.250912
-0.138134 0.095289 -0.437194
-0.102790 -0.083804 -0.439532
-0.161789 0.240679 0.372903
0.074400 0.430841 -0.116779
0.152307 0.220272 -0.389457
-0.109011 0.430709 -0.117235
0.166728 0.138828 0.421216
0.135164 0.434175 0.098657
-0.063320 0.429468 0.117153
-0.110414 -0.038415 -0.445697
-0.150032 0.134595 0.422493
0.142507 -0.392908 0.206364
0.095597 -0.099472 0.431676
-0.256109 0.438393 0.079172
0.100594 0.162767 -0.416951
-0.224968 -0.342373 -0.286480
-0.183653 -0.386988 -0.221564
-0.074769 -0.344748 -0.283469
-0.133376 -0.402105 -0.192666
0.114314 0.443729 -0.044311
0.111594 0.037779 -0.445854
-0.185881 -0.001536 -0.447547
-0.242500 0.322311 -0.310007
-0.290248 -0.259581 -0.363715
-0.145325 0.437536 0.083623
0.244183 -0.284926 0.339708
-0.127335 0.394525 -0.209554
0.021357 -0.376264 -0.239698
0.012044 0.261574 0.358703
0.006692 -0.284659 0.339944
0.014454 0.342722 0.282893
-0.167611 -0.400270 0.191914
-0.079012 0.405370 -0.187637
-0.169021 0.436416 0.088633
-0.102888 0.009950 0.442962
0.109496 0.194096 -0.403217
0.224217 0.176008 0.406993
0.185676 0.425546 -0.135004
-0.149083 -0.281900 -0.346568
0.042871 0.297254 -0.334097
0.182212 -0.226504 -0.385165
0.109490 -0.351773 0.270059
0.129126 -0.369108 -0.250378
-0.023157 -0.060368 -0.443299
0.181757 -0.328156 -0.302606
-0.068494 0.443783 0.039394
-0.001487 -0.185006 -0.407009
-0.109345 0.303790 0.323981
-0.132958 0.407900 -0.181791
-0.061183 -0.390346 0.211391
-0.088338 0.356066 -0.270199
-0.202372 0.292756 0.333709
0.247471 -0.412337 -0.169169
-0.238353 -0.220807 0.384181
0.051718 -0.170407 -0.413327
0.074465 0.145898 0.418671
-0.195852 0.290319 -0.340210
-0.088938 -0.402408 -0.192073
-0.176472 -0.363567 0.254177
-0.034797 -0.410689 -0.172978
0.009060 -0.418179 -0.153552
-0.112977 -0.189509 0.400679
0.176678 -0.352305 0.269373
-0.013603 -0.442666 -0.044717
-0.090839 -0.422096 0.138318
0.245253 0.289642 0.336453
-0.038526 -0.323482 -0.307812
0.077550 0.444460 -0.036578
0.277737 -0.419715 0.144933
-0.033660 0.222695 -0.388024
0.146836 0.289586 -0.340856
0.120175 -0.434034 -0.099059
0.269572 -0.013068 0.442832
-0.105945 0.063684 0.438583
-0.045713 -0.157484 -0.418484
0.032935 -0.299871 0.326532
0.148914 -0.349348 0.273186
0.240292 0.020324 -0.446989
0.072585 0.418575 -0.155298
-0.154417 -0.355083 -0.270144
0.229778 -0.427819 0.119302
-0.208891 -0.139957 0.420441
0.005639 -0.231180 0.378047
0.259488 -0.268161 0.352872
0.210304 -0.172263 -0.412524
-0.066057 -0.274004 -0.352693
-0.039751 -0.409044 0.172425
0.238138 -0.072732 -0.441341
-0.195222 -0.393066 0.206053
0.058827 0.029771 -0.446611
0.263187 0.119019 0.427018
0.168826 -0.368045 0.247588
0.064815 -0.031810 0.441968
0.032892 -0.434212 -0.098261
0.213527 -0.231616 0.377789
-0.128491 0.444353 -0.037713
0.027338 -0.288272 -0.341111
-0.188287 -0.430965 -0.112790
-0.254786 -0.434679 0.091818
-0.097433 0.445599 0.008896
-0.220033 -0.159367 0.413453
0.237471 -0.311035 -0.320258
0.286200 0.339032 -0.291431
-0.164475 0.444024 -0.041193
0.270117 -0.021172 -0.446930
0.074897 -0.442840 0.038531
0.069015 0.289202 0.336842
0.200788 -0.433899 -0.099662
0.261710 -0.405316 -0.185394
0.046553 -0.076126 -0.440803
0.095275 -0.279118 -0.348726
-0.019612 -0.440745 -0.062205
-0.238781 -0.016545 0.442722
0.238327 -0.008131 -0.447340
0.261390 0.132130 0.423209
0.276816 -0.444573 0.008946
-0.134609 0.066942 -0.442420
-0.076811 0.421677 -0.146683
-0.086448 -0.414770 -0.163022
-0.097800 -0.182522 -0.408084
-0.199510 -0.362575 -0.259990
0.171686 0.014347 0.442824
-0.238346 0.445823 -0.006136
0.031154 -0.344394 -0.283925
-0.012178 -0.123991 0.425276
0.041002 -0.134869 0.422115
0.076971 -0.007535 0.443005
-0.007512 0.069847 -0.441960
-0.203009 -0.155685 -0.419132
-0.222972 0.109220 -0.434080
0.269384 -0.191877 0.399473
0.276257 -0.444065 0.025123
0.265268 0.370141 -0.250364
0.015247 -0.364416 -0.257282
-0.044948 -0.180606 -0.408913
-0.073692 -0.139559 -0.424938
-0.184186 -0.371391 0.242665
0.005237 -0.177958 -0.410059
-0.161997 0.439890 0.069721
-0.191126 0.195364 -0.402572
0.128677 0.215148 -0.392487
0.267879 0.342181 0.283507
-0.144207 -0.010927 0.442899
0.228667 -0.279636 -0.348324
0.266157 0.437457 -0.088328
0.145362 0.424581 0.133972
0.215743 0.073282 -0.441416
0.206758 0.445918 -0.001248
-0.114232 0.443183 0.045734
0.041801 0.346429 -0.282622
0.220944 -0.402605 0.187305
0.078281 -0.146683 -0.422373
0.238609 0.096154 0.432647
-0.273995 0.079293 -0.440464
0.137171 -0.246952 -0.372297
0.029482 0.442051 0.056074
0.285624 -0.443457 0.031995
-0.230217 -0.277388 -0.350068
-0.153163 0.390410 0.213157
0.123298 0.231323 0.378568
-0.118367 0.365149 0.253358
-0.134675 0.293862 -0.337087
0.197714 0.423376 -0.141964
-0.219562 -0.395997 0.200302
0.077591 0.411139 0.169954
-0.123544 0.400925 0.192641
0.195979 0.436260 0.089333
0.120476 0.265337 -0.360211
-0.187758 -0.404982 0.181812
0.164203 -0.421986 -0.142979
0.206492 0.444437 -0.036826
0.172177 -0.372909 -0.244785
-0.030695 0.233978 0.376998
0.225422 -0.366811 -0.253757
0.283829 -0.424902 0.129342
-0.016787 -0.004090 -0.447467
-0.071879 -0.379252 0.230292
-0.286575 -0.009272 -0.447304
0.163279 0.316326 0.311639
0.232902 0.132387 -0.427488
0.202161 0.292061 -0.338674
-0.020831 -0.227175 0.380415
0.242693 -0.434880 -0.095274
0.274022 0.049505 0.440392
0.112181 -0.435545 -0.092298
-0.197361 -0.315341 0.311599
-0.204155 0.028997 0.442331
0.104707 -0.411750 0.166173
0.004406 -0.043946 -0.445174
-0.271241 -0.227874 -0.384355
0.084611 -0.086470 -0.438936
0.004421 -0.113449 -0.432692
0.248472 -0.360106 0.259270
0.250808 -0.384835 -0.225204
0.191942 0.430011 -0.119636
-0.062071 0.445942 -0.002018
-0.274110 -0.442640 -0.044991
0.169024 0.169372 -0.414218
-0.149217 0.264406 0.356580
-0.046182 -0.418434 0.148491
-0.070487 -0.273753 0.348535
0.098506 0.209309 -0.395466
0.258050 -0.014465 0.442788
0.276060 0.143571 0.419509
0.252158 0.445079 -0.029818
0.095253 0.392447 -0.213632
-0.286640 0.427432 -0.128513
-0.202286 0.259497 0.360115
-0.231173 -0.201337 -0.399006
-0.020979 -0.065071 0.438201
-0.174977 -0.003868 -0.447474
-0.269665 -0.357008 -0.267663
-0.207573 -0.442448 -0.047023
-0.252804 -0.056655 -0.443887
0.046861 0.251488 -0.369911
0.244606 0.079711 -0.440398
-0.261921 0.059143 -0.443655
-0.175833 -0.157064 0.414282
-0.034796 0.248354 -0.372041
0.132261 -0.053728 0.439896
-0.289471 -0.287177 0.337723
0.060573 0.285624 -0.344349
-0.279205 0.364607 -0.258508
0.142703 0.216216 -0.391856
-0.161977 -0.303089 -0.328048
0.096603 0.008169 0.443018
-0.117205 0.317303 0.310662
-0.197903 -0.372272 0.241368
-0.236543 -0.356082 0.264504
-0.068552 -0.018245 0.442669
-0.288972 -0.427914 0.118976
-0.226401 0.025831 0.442463
-0.067089 -0.358378 0.261544
0.173546 -0.383812 0.222581
-0.000653 -0.434890 0.090876
-0.007930 0.131669 0.423343
-0.249885 -0.273672 0.348597
0.098323 -0.020219 -0.446960
0.232028 0.367278 -0.254578
-0.092403 0.171591 -0.413258
-0.238613 -0.142172 -0.423997
-0.112646 -0.199530 0.395573
-0.236028 0.415609 -0.163537
0.285620 0.046114 0.440713
0.132683 -0.307413 0.319527
-0.211634 0.185881 0.402721
0.181484 -0.346258 0.277168
-0.075507 -0.030669 -0.446429
-0.265171 0.100874 0.431592
0.171844 0.400026 0.194404
0.184827 -0.066725 0.437939
0.160582 0.274528 -0.353082
0.115974 0.413403 -0.169073
-0.222302 -0.260103 0.359006
0.196582 0.309055 -0.323264
-0.287415 -0.373878 0.239006
0.044550 0.139417 -0.425358
-0.066457 -0.309347 0.317593
0.123147 -0.046077 0.440619
0.266449 0.415053 -0.165082
0.248633 0.117015 -0.431954
0.139198 0.429877 0.115744
-0.108870 0.445261 -0.024008
-0.033801 0.412336 -0.171539
0.164537 -0.013944 -0.447157
0.201622 -0.155294 0.414920
-0.107067 0.440682 -0.069073
0.118216 -0.424086 -0.136504
0.034970 0.371201 0.244453
0.157632 -0.033907 -0.446123
0.145359 -0.232446 0.377298
0.090518 -0.413679 -0.166052
-0.230868 -0.154017 0.415379
-0.124131 0.060445 0.439096
-0.153779 -0.016140 0.442735
0.000553 -0.330394 0.295714
0.116188 0.342019 0.283691
0.072806 0.422852 0.139066
0.227115 -0.431913 0.104194
0.280262 -0.305245 -0.326048
-0.027345 0.298317 0.328805
-0.025243 0.333913 0.292885
0.202871 0.181544 -0.408951
-0.230676 0.304916 -0.327342
0.042564 0.430048 0.115155
-0.022825 -0.423030 -0.140078
-0.002497 -0.291393 0.334007
-0.189346 -0.162709 -0.416603
0.149625 -0.444705 -0.009088
-0.082670 -0.180595 0.404565
0.142689 0.230773 0.378894
0.209336 0.278948 -0.349653
0.197786 0.258215 -0.365339
0.152533 -0.374742 0.237733
0.018845 0.439457 0.072453
-0.068989 -0.411736 -0.170558
0.115687 -0.331978 0.293917
-0.150190 -0.301890 0.324752
0.201324 -0.123186 0.425510
-0.201869 -0.315031 -0.316263
-0.223416 0.389960 -0.218271
0.066930 -0.360868 0.258148
-0.097916 0.275659 0.347851
0.058175 0.067819 -0.442281
-0.063301 -0.183431 0.403338
0.259659 -0.339151 0.285781
-0.038197 -0.428336 -0.121877
-0.166247 -0.412074 -0.169777
-0.110610 -0.293830 -0.336212
0.116047 0.382593 0.226374
0.284515 0.318371 0.309594
0.145972 0.312238 -0.320081
0.048232 0.292014 0.334363
0.052191 0.221371 -0.388807
0.274102 0.227780 -0.385017
-0.011475 -0.203712 0.393443
0.031520 -0.148784 0.417263
0.122620 0.429562 0.116828
-0.073013 -0.311939 -0.319355
0.224446 -0.262797 -0.361386
0.254900 -0.328160 0.298248
0.051643 0.170083 -0.413911
-0.266501 0.425169 0.131949
-0.087275 -0.027021 0.442393
-0.013663 -0.173368 -0.412045
0.178913 0.416802 0.155871
0.069358 -0.399673 0.193086
0.159845 -0.222623 -0.387461
-0.054446 0.205568 -0.397372
0.180295 0.390582 -0.217221
0.214406 -0.084308 -0.439419
-0.235358 0.064309 -0.442837
0.084453 0.366703 0.251070
-0.163237 -0.444147 0.022501
0.161157 -0.253428 0.363543
0.134859 0.116562 0.427732
0.195145 -0.366216 0.250279
0.114586 0.401190 0.192120
-0.092412 -0.438154 0.074213
-0.144835 -0.209339 -0.394929
0.258595 -0.017249 -0.447054
0.002844 0.365547 -0.257125
-0.100239 -0.158474 0.413774
0.014184 0.299650 0.327631
0.242695 0.421850 0.141850
0.132124 0.257768 0.361290
-0.043740 0.132853 -0.427352
0.222573 -0.172027 -0.412626
0.012582 0.427313 0.124570
-0.061617 0.175229 0.407330
0.080875 0.324545 0.303420
0.232606 -0.004644 0.443096
0.077582 0.445808 0.002266
-0.036064 0.380585 -0.234123
-0.114901 -0.444369 -0.019799
-0.062996 -0.125805 -0.429102
0.147805 -0.441320 0.054223
-0.081018 -0.337860 -0.291598
0.068356 -0.285618 0.339098
0.269693 -0.298208 -0.332351
-0.279903 -0.437939 -0.079920
-0.013719 -0.398779 -0.199194
0.088655 -0.042911 0.440919
0.156201 0.009863 0.442964
0.096001 0.373321 0.241333
0.271108 0.307911 0.320054
0.257322 -0.055696 0.439686
0.161480 0.035663 0.441700
0.130530 0.298778 0.328399
0.245410 0.150107 0.417156
0.191518 -0.158035 -0.418286
0.185196 -0.206499 -0.396376
0.250887 -0.136292 0.421702
-0.203047 -0.083034 0.435351
-0.100893 -0.050584 0.440193
-0.249032 0.177363 -0.410760
-0.039042 0.332130 -0.299261
-0.211833 -0.214054 0.388173
0.146858 0.162745 0.412606
0.081959 -0.376853 0.234349
-0.189671 0.144568 -0.423504
-0.257079 -0.383462 0.223172
0.225090 -0.164366 0.411588
-0.267447 0.363545 0.255717
0.035403 -0.370562 0.243885
0.210771 -0.113950 -0.432546
-0.149810 0.202021 -0.399180
-0.101062 0.421747 0.142134
-0.289377 -0.444537 0.010093
0.182220 -0.365761 -0.255303
0.239128 0.412308 -0.171605
-0.119682 0.205373 0.393118
-0.167385 -0.044171 0.440799
-0.191869 0.420254 -0.150636
0.264253 -0.433304 0.097973
0.230514 0.409818 -0.177359
0.005973 -0.220701 0.384244
0.198390 -0.211298 -0.393931
-0.192811 0.311867 0.316098
0.019370 0.226495 0.381423
-0.287686 -0.416738 0.153201
0.224907 -0.344049 -0.284370
-0.052343 0.430157 -0.119136
-0.222889 -0.407940 0.174976
-0.196539 0.134677 -0.426822
0.036208 0.368004 -0.253509
-0.193679 -0.402088 -0.192701
0.004424 0.245148 -0.374220
-0.231909 -0.255557 0.362096
0.117465 -0.052885 -0.444329
-0.008367 0.329620 0.297754
-0.077528 -0.138592 0.420932
-0.152843 -0.064157 0.438346
0.152691 -0.155537 -0.419185
0.033559 -0.004872 -0.447443
0.230427 -0.417710 -0.154854
0.039141 0.338437 0.287754
0.180613 -0.147222 -0.422179
0.233646 0.047510 -0.444934
-0.015151 0.339472 -0.290933
0.271870 0.442723 -0.054955
0.271285 -0.218178 -0.390089
0.012564 -0.400392 -0.196028
0.248478 0.345661 -0.283613
-0.094853 -0.411929 0.165760
0.014091 -0.426828 -0.127067
-0.287504 -0.248842 0.366660
0.216885 -0.428258 -0.122143
-0.109534 0.082583 -0.439943
-0.015436 0.427804 0.122879
-0.097698 -0.311505 0.315435
-0.046123 0.107061 -0.434562
0.084242 0.390739 -0.216955
-0.141541 0.290851 0.335388
0.199043 -0.008666 -0.447323
-0.186448 0.065445 -0.442657
-0.133976 -0.311276 0.315664
-0.007619 -0.175194 0.406902
0.137572 -0.336054 0.289295
-0.053975 -0.302286 -0.328757
0.024710 -0.104537 0.430544
0.077311 -0.245221 0.369120
-0.217420 0.363978 -0.259434
0.239455 -0.437812 0.076371
0.030783 -0.389322 0.213265
0.185476 -0.436926 0.081768
-0.151328 0.334769 -0.296268
0.088715 -0.116740 -0.431736
-0.250504 0.445912 -0.003302
-0.219748 0.328055 0.299529
0.241359 0.269524 -0.356963
-0.227559 0.341535 0.284240
-0.007616 0.185167 0.403030
0.033090 0.229535 0.379626
-0.150827 0.411016 -0.174590
-0.049924 0.367321 -0.254515
-0.181804 0.402376 0.189793
0.156384 -0.336177 0.289155
0.127572 -0.285954 -0.343155
-0.073104 0.366058 0.252019
-0.053536 0.424557 -0.138409
0.075731 0.427880 -0.126973
0.085087 0.281178 -0.347923
0.212816 -0.407378 0.176275
0.052728 0.384117 -0.228152
0.273894 0.122252 0.426079
-0.003884 0.339098 0.287003
0.091470 -0.089349 0.433939
0.273940 0.285971 0.339690
-0.080681 -0.422185 0.138073
-0.143519 -0.074463 0.436713
-0.223429 0.187692 0.401937
0.069835 -0.055159 -0.444114
0.284437 0.177906 -0.410525
-0.261726 -0.443607 -0.034765
0.272191 0.408932 0.175053
-0.054762 0.009454 0.442977
-0.160177 -0.326433 -0.304561
0.181600 0.020019 -0.446999
0.063431 -0.116943 0.427323
0.065740 -0.408158 -0.178826
0.207977 0.350698 -0.277120
-0.137117 0.402499 0.189550
0.283022 -0.437853 -0.080465
-0.167157 0.285496 0.340109
-0.156752 0.422948 0.138797
-0.087646 0.148821 -0.421972
0.154514 -0.246055 0.368554
-0.164367 -0.313053 0.313887
-0.287053 -0.410577 -0.173235
0.233860 -0.191990 -0.403768
-0.137230 -0.442695 0.040060
-0.184809 0.222321 -0.388245
0.023949 0.400949 -0.196947
0.068791 -0.302932 0.323833
-0.095377 -0.212598 0.388915
-0.016188 0.345004 0.280107
-0.227532 0.442361 -0.058471
0.149631 0.399310 0.195809
0.061816 -0.403723 0.184721
-0.187174 -0.012107 0.442862
-0.130533 -0.443918 0.027120
0.081374 0.400686 -0.197462
-0.273251 -0.102322 -0.435392
0.013973 -0.437170 -0.084775
0.095772 0.445734 0.004617
0.058988 -0.411724 0.166232
0.157429 0.172159 -0.413012
-0.072878 -0.082725 0.435405
0.242543 -0.103119 0.430861
-0.214451 0.338552 -0.291977
-0.142157 -0.404745 -0.186713
0.016603 0.134715 -0.426811
0.040356 -0.420111 -0.148187
0.175049 -0.428572 0.116709
-0.227386 -0.424491 0.130755
-0.025596 -0.090339 -0.438071
-0.121620 -0.333983 -0.295997
0.109816 -0.278735 0.344670
0.027824 0.417686 0.153413
-0.200004 0.432985 0.103982
-0.157488 0.090844 0.433834
0.164933 0.076493 0.436554
-0.083786 0.423336 0.137720
-0.046185 -0.291181 -0.338547
-0.251449 0.436135 0.089890
-0.008267 -0.409377 -0.176009
-0.010861 -0.282433 0.341801
-0.182497 0.121377 0.426333
0.239540 -0.082184 0.435490
0.046184 0.272206 -0.354882
0.043306 -0.418168 0.149230
0.276110 0.299241 -0.332344
-0.241252 0.360612 0.259985
-0.137747 -0.285001 -0.343995
0.180488 -0.272337 0.349632
-0.103305 -0.220619 -0.388646
0.154973 -0.432711 -0.104976
0.216563 0.444871 -0.032237
-0.278120 -0.389594 -0.217158
0.011094 -0.305150 -0.326144
-0.052717 -0.155973 0.414675
-0.160942 0.411361 -0.173793
0.052516 -0.271642 0.350171
0.147295 -0.290345 -0.339284
-0.175254 -0.027330 0.442383
-0.179661 -0.413547 -0.166372
0.275330 0.398162 0.198063
0.013715 -0.059583 0.439070
-0.007813 -0.374406 -0.242581
0.257428 -0.270549 -0.355373
0.007047 -0.358447 -0.265808
-0.039029 -0.047002 -0.444885
0.044978 0.442180 -0.059615
0.123584 0.210754 0.390377
0.250292 -0.337392 -0.292129
-0.242593 -0.444706 0.004729
-0.000860 0.415933 0.158284
-0.267649 0.204624 0.393500
0.067030 0.415695 0.158945
-0.219895 -0.063984 -0.442726
0.117884 0.040465 0.441247
0.165345 -0.280483 0.343314
-0.287759 0.092827 0.433391
-0.223646 0.430660 0.113048
-0.070487 0.374856 0.239074
0.100748 -0.089188 -0.438328
-0.197937 0.084184 -0.439676
0.196300 0.201772 -0.399306
0.191755 0.418238 0.151881
-0.154684 -0.382862 -0.228540
0.269851 0.378527 0.233251
0.144176 0.442921 0.048511
-0.026581 0.443309 -0.048754
-0.237583 0.234475 0.376704
-0.036613 0.352658 0.270239
0.286410 -0.111486 -0.433262
-0.000476 -0.444031 0.025924
0.179724 0.404473 0.185357
-0.268130 0.413228 -0.169479
0.091560 0.440616 0.065139
0.152674 -0.438306 -0.077601
0.264411 0.445730 0.004748
0.058340 0.441484 0.059656
0.037556 0.445393 -0.019806
-0.268101 -0.295650 -0.334606
0.138726 0.445394 -0.019792
0.226199 0.241750 0.372176
0.142893 0.428450 -0.125010
0.133538 0.007827 -0.447382
0.176884 -0.339972 -0.289203
-0.230813 0.292511 0.333924
0.047053 0.406572 0.180506
-0.275039 -0.116010 -0.431948
0.103854 0.422571 -0.144200
-0.143168 0.190718 0.400585
0.249134 -0.438202 0.073908
-0.129806 -0.166249 -0.415126
-0.071360 0.021818 -0.446942
-0.273286 0.373025 -0.246121
0.164748 0.188835 0.401442
-0.027849 -0.408852 0.172869
0.150261 -0.239374 -0.377447
0.268191 0.242261 -0.376181
0.243865 -0.433584 0.096720
0.188005 -0.138252 0.421055
0.208589 -0.418685 -0.152147
-0.240649 -0.414499 -0.163775
0.123960 -0.371333 0.242749
0.122276 0.191750 -0.404413
0.163572 -0.433887 -0.099716
0.120722 -0.440725 -0.062331
0.107311 -0.406624 -0.182372
0.139916 0.442512 -0.057191
0.131423 -0.417267 -0.156084
-0.020268 -0.422205 0.138017
-0.210223 0.180536 -0.409387
0.015310 0.423568 -0.141429
0.195576 0.171598 -0.413255
0.135028 -0.370776 0.243569
0.183926 -0.366544 0.249797
-0.165139 -0.137930 0.421171
0.127079 0.432042 0.108201
0.239884 -0.365773 -0.255285
0.154633 0.347439 0.276967
-0.096885 0.070552 0.437495
-0.154844 -0.444461 -0.016862
-0.233293 -0.437827 0.076277
0.031916 -0.321823 -0.309471
-0.022123 -0.443715 -0.033626
-0.058333 0.444741 -0.033613
0.214668 0.062878 -0.443064
-0.211067 -0.041780 -0.445379
-0.175715 -0.016031 0.442738
0.071108 0.194560 -0.402981
-0.285351 0.213129 0.389166
0.037986 0.081121 -0.440175
-0.101116 0.079939 0.436008
0.158291 -0.406282 0.178808
-0.163537 0.293980 0.332629
-0.205788 0.427487 0.123973
-0.191234 -0.441598 0.051669
0.146822 0.361379 -0.263258
0.212137 0.362414 0.257382
-0.286555 0.329251 0.298173
-0.193417 -0.279323 0.344214
-0.093941 -0.336286 0.289031
-0.130970 -0.101809 0.431154
0.283222 0.400746 -0.197345
0.152738 -0.411266 -0.171644
0.102717 0.102856 0.431149
0.056826 0.229676 0.379542
0.107486 0.255900 0.362559
0.094094 0.434019 0.099358
0.045477 -0.116322 -0.431857
0.133770 0.221751 0.384229
0.285556 0.442105 0.055733
-0.278281 -0.365769 -0.255291
0.098177 -0.379333 -0.234507
-0.083205 0.092601 0.433441
0.120555 -0.205276 -0.396999
-0.136308 0.433845 0.100134
-0.271632 -0.314265 -0.317029
-0.177035 -0.116916 0.427331
-0.190081 0.149422 0.417402
0.129756 -0.031053 -0.446393
-0.064280 0.296811 0.330133
-0.032243 0.022993 -0.446905
0.182065 -0.081588 0.435585
-0.289306 0.243581 0.370932
0.024487 -0.319063 0.307878
0.145914 0.272245 0.350499
0.028544 -0.265200 0.355169
-0.230856 0.247608 0.368195
0.245945 -0.420416 0.142984
-0.277698 -0.372094 -0.245983
-0.014975 0.441261 -0.065415
-0.005497 0.428383 -0.125241
0.042575 0.207291 0.392141
0.131422 0.409117 -0.178979
0.245911 -0.436109 0.085424
-0.136729 -0.329667 -0.300892
-0.275762 -0.428101 0.118332
-0.016560 -0.380675 0.227886
0.090506 -0.112224 0.428694
0.286761 -0.354878 -0.270409
0.267313 0.152398 0.416331
0.041930 -0.382672 0.224509
0.229817 0.399150 0.196125
0.214823 -0.320637 0.306303
-0.189316 0.376301 -0.241301
-0.025469 -0.203207 0.393700
-0.240665 0.103095 0.431095
0.061135 -0.013488 0.442818
0.211406 -0.201532 -0.398907
-0.048071 -0.429050 0.115064
0.167682 0.419803 -0.151889
0.266581 -0.400241 -0.196326
0.114273 -0.197231 -0.401098
0.017477 -0.096337 0.432377
0.028143 -0.255944 0.361833
-0.222297 0.309113 -0.323205
0.256612 0.430199 0.114638
0.060786 0.418424 -0.155719
0.255237 -0.441185 -0.059429
-0.073950 0.172388 0.408560
-0.122986 -0.432476 -0.106027
-0.125124 0.445384 -0.020092
0.185200 0.332075 -0.299324
-0.110918 0.379355 0.231850
-0.206769 0.101814 0.431382
-0.014857 0.123396 0.425746
-0.171925 -0.310939 -0.320355
-0.238732 -0.311063 -0.320231
-0.022728 -0.194931 0.397917
0.234793 -0.342587 -0.286238
0.118890 0.379418 -0.236097
-0.223501 0.154678 -0.419864
0.159688 -0.235982 0.375207
-0.089404 -0.075484 -0.440905
-0.195381 -0.201051 0.394799
-0.027378 0.390933 0.212250
0.035739 0.445618 0.008298
-0.148864 0.075032 0.436785
-0.289334 0.414012 -0.167667
0.046790 0.429084 -0.122828
0.155375 -0.380836 0.227614
-0.254656 0.368472 0.248468
-0.210527 -0.164671 -0.415809
0.174851 0.417180 -0.159173
-0.215027 -0.330613 -0.299819
-0.169636 -0.444826 0.000891
0.171985 -0.040977 0.441101
-0.005014 -0.432669 -0.105166
-0.286986 -0.195769 -0.401843
0.037261 0.044750 0.440842
0.145939 -0.217308 -0.390604
-0.066043 0.258368 0.360882
0.241640 0.023377 0.442540
-0.178368 -0.156984 -0.418664
-0.032582 0.398490 -0.201773
0.262399 -0.359978 0.259458
0.137770 0.176916 -0.410953
-0.234853 0.428527 -0.124745
-0.087419 -0.036104 -0.445915
-0.246596 0.024482 0.442505
-0.108323 -0.389186 0.213494
0.184393 0.083615 0.435426
0.076177 -0.247227 -0.372111
0.137212 0.044998 -0.445171
-0.047165 -0.444705 0.004759
-0.182282 -0.147964 -0.421912
0.242571 0.432186 -0.111910
-0.111527 -0.112075 0.428738
0.268666 -0.417160 -0.156383
0.122051 -0.433369 0.097681
0.185291 -0.429782 -0.116897
0.190860 0.040990 -0.445550
-0.183625 -0.405736 -0.184423
-0.118958 -0.421549 0.139837
0.088568 0.439943 -0.073737
0.268839 0.190753 0.400568
-0.088753 -0.201626 -0.398859
0.023721 -0.314716 -0.316577
0.071702 -0.324987 0.301847
-0.286643 0.198639 -0.400903
-0.194647 -0.096665 -0.436657
-0.096801 -0.390187 0.211702
0.086557 0.331194 0.295969
-0.041502 0.053554 -0.444363
-0.273588 0.389176 -0.219597
0.146140 0.404393 0.185541
0.274475 -0.429784 -0.116892
-0.259883 -0.206606 0.391968
-0.143625 -0.144740 -0.423072
0.174570 0.408140 0.176883
0.034713 -0.444642 0.006759
-0.031390 0.436803 -0.091254
0.188078 0.265470 0.355754
-0.011562 0.445299 -0.022816
0.056494 0.438166 0.080603
-0.261872 -0.054794 0.439795
0.115870 -0.074044 -0.441133
0.030902 0.410214 -0.176442
-0.242316 -0.438250 -0.077956
-0.025585 0.113100 0.428738
-0.240652 -0.439896 -0.067567
0.157291 0.439609 -0.075846
0.128859 0.366351 -0.255943
-0.083959 0.441339 -0.064928
0.223899 0.235938 -0.380192
0.196627 0.341926 0.283797
-0.012410 0.445694 -0.010256
0.282726 0.183977 0.403545
-0.287218 0.281290 -0.347836
-0.212820 -0.410111 0.169959
-0.159532 0.307793 -0.324525
0.243457 -0.341089 0.283583
0.274920 0.357263 -0.268656
0.203898 0.250120 0.366488
-0.151900 -0.084617 -0.439350
0.054208 -0.395853 -0.204937
0.229150 -0.111422 -0.433281
0.106950 -0.428161 -0.122476
0.034604 -0.147527 -0.422069
0.062477 0.433445 0.101925
-0.231268 -0.131485 0.423099
0.055680 0.445942 -0.001991
-0.211482 -0.388628 -0.218791
0.204250 -0.250576 -0.369835
0.120162 -0.149781 -0.421258
-0.166949 -0.360796 0.258255
0.240317 0.096066 -0.437020
-0.147520 0.150258 -0.421455
-0.241421 0.349732 0.274011
-0.187056 -0.233941 -0.380767
-0.209406 -0.429289 -0.118596
-0.206488 0.236394 -0.379923
0.049165 0.435892 -0.095332
0.220159 -0.379257 0.230282
0.123767 -0.195485 -0.401988
-0.019400 0.327413 0.300258
0.285846 0.380478 0.229952
0.200033 -0.219602 -0.389247
-0.064770 -0.437126 -0.085056
0.228661 -0.182611 -0.408046
-0.035973 -0.254475 0.362831
-0.052861 -0.435800 -0.091157
0.098204 0.408703 0.175581
-0.144142 -0.054285 -0.444197
-0.276348 -0.435697 0.087267
-0.085078 0.287204 -0.342956
-0.231642 0.347657 0.276686
0.044710 0.413026 0.165591
-0.113159 0.197487 0.397137
-0.251288 -0.442473 0.042412
0.285887 0.279296 0.345029
0.021147 0.056064 -0.444125
-0.136392 -0.173844 -0.411840
0.241284 -0.444674 -0.010104
-0.142158 -0.365700 -0.255392
0.144126 -0.265341 -0.359413
0.206128 -0.207689 0.391416
-0.038744 0.269137 -0.357263
-0.082658 0.022395 -0.446924
-0.228018 -0.392751 0.206672
0.199852 0.445150 -0.027545
0.229564 -0.200477 -0.399444
0.161386 0.399394 0.195644
0.080539 0.064218 0.438498
0.150745 -0.304652 -0.326641
0.222079 -0.306671 0.320269
0.284106 0.429304 0.117718
-0.271103 -0.289827 0.335387
0.213379 0.383320 -0.229499
-0.197077 0.429266 0.117849
0.009030 -0.347453 -0.279981
-0.157198 0.298748 -0.332779
-0.100448 0.336295 0.290183
-0.143696 -0.359395 -0.264587
-0.175566 0.080169 0.435972
-0.288173 -0.443196 0.034763
-0.010286 0.079657 -0.440406
-0.276059 -0.163643 -0.416254
-0.278886 -0.159007 0.413583
0.217198 0.156706 0.414780
0.276787 0.445198 0.021675
0.253459 -0.157450 -0.418496
0.239181 0.323485 -0.308833
0.255780 -0.352666 -0.273261
0.263506 0.321809 -0.310509
0.084080 -0.342799 0.281628
0.215367 0.372449 -0.246970
-0.244815 -0.132712 0.422742
-0.164940 -0.349880 -0.276852
0.099127 0.272822 0.350051
0.184761 0.351514 -0.276067
-0.248848 0.097141 -0.436780
-0.158999 0.044915 0.440826
0.068142 0.336862 -0.293893
0.238932 0.288732 -0.341609
0.282430 -0.363624 0.254094
0.002451 -0.366150 0.250376
0.219682 -0.345892 0.277641
0.164739 -0.225455 0.381432
-0.004609 -0.403759 0.184638
-0.185889 -0.396319 -0.204022
-0.003580 0.390367 0.213230
0.207450 0.433170 -0.107511
0.182520 0.059517 0.439243
-0.046429 -0.366450 0.249936
-0.086300 0.407280 0.178871
0.225948 -0.125809 0.424748
-0.119041 -0.407433 0.176150
-0.027189 0.430126 0.114890
-0.152250 -0.422757 -0.140835
0.247675 -0.431460 0.106222
0.143225 0.372776 0.242135
-0.242378 0.342000 -0.288065
-0.093741 0.444404 -0.037176
0.155068 -0.442836 0.038570
0.112820 0.352884 0.269948
0.081228 -0.440029 0.062373
0.059388 -0.240655 0.372223
0.102794 0.113485 -0.432979
0.023475 0.168684 -0.414516
0.176790 -0.415343 -0.161429
-0.020562 -0.273963 0.348371
0.245302 0.444348 0.033412
-0.115435 -0.090681 0.433641
-0.073884 0.395285 -0.208063
-0.038391 -0.019678 0.442624
-0.286517 0.433802 -0.104682
0.189256 0.005858 0.443090
-0.149486 -0.178768 0.405355
0.266526 0.439413 -0.077084
-0.040724 -0.304499 0.322441
-0.264259 -0.047634 -0.444825
-0.219237 0.132261 0.423171
0.023873 0.428431 0.120721
0.048394 0.384062 0.223891
-0.247730 0.421553 -0.147027
0.036464 -0.362219 -0.260515
0.235180 -0.421308 0.140509
0.266919 0.044963 -0.445175
-0.238528 0.013453 -0.447205
0.087084 -0.396037 0.200223
0.200277 0.379936 0.230868
0.089668 -0.268589 -0.356893
-0.211078 0.438348 0.079458
0.230342 -0.339271 0.285646
-0.194715 -0.348389 -0.278775
0.171915 -0.353359 -0.272367
-0.105266 0.049668 0.440377
0.029731 -0.415843 0.155686
-0.092599 0.100282 -0.436078
0.275089 0.315359 -0.316959
-0.256902 -0.036622 -0.445866
-0.147682 0.356122 -0.270126
-0.032201 0.366821 -0.255250
-0.083738 0.228630 -0.384514
0.274732 -0.199842 0.395414
0.092789 0.119713 0.426816
-0.016867 -0.410805 0.168357
0.170271 -0.038021 -0.445734
-0.150118 0.280814 -0.348206
-0.172003 -0.319272 0.307669
-0.053827 -0.075070 -0.440971
-0.009868 0.267879 0.353885
0.120806 -0.377770 -0.237151
-0.252428 0.357338 -0.268559
-0.288914 0.070693 0.437473
-0.198511 -0.002002 0.443179
-0.144061 -0.337545 -0.291957
0.036655 -0.201039 0.394804
0.061297 0.204392 -0.397971
0.072591 0.419171 0.149289
0.283226 0.208415 0.391568
-0.087330 -0.429736 0.112703
-0.137538 -0.304989 -0.326304
0.038415 0.436940 0.086291
-0.166115 0.410097 0.172360
0.023846 0.127551 0.424539
-0.095081 0.441227 0.061281
-0.201930 -0.050081 -0.444594
0.131622 0.426109 -0.133069
-0.164508 0.344274 0.281048
-0.063144 -0.410111 0.169961
-0.226880 0.442302 0.054489
-0.043023 -0.116247 0.427525
0.074568 0.392105 -0.214304
-0.005429 -0.003788 0.443123
0.020220 0.360666 0.259915
0.001816 0.270716 -0.356038
0.195852 0.432960 -0.108449
-0.066466 -0.107918 0.429788
-0.253244 -0.026841 -0.446752
0.146245 0.194212 -0.403159
-0.275131 0.117659 -0.431767
0.231584 0.444444 0.032401
-0.057332 -0.269468 -0.356212
-0.111149 -0.306410 0.320530
-0.191883 -0.366734 -0.253870
0.023182 -0.351282 0.270693
-0.132984 0.432472 -0.110631
0.035982 0.251715 -0.369757
-0.190061 0.404886 0.184402
0.105963 -0.238706 0.373548
-0.156812 0.400882 0.192725
0.186098 -0.443946 0.026830
-0.060277 -0.022249 -0.446897
0.081333 0.107137 0.430192
0.241518 -0.171680 -0.412776
-0.152335 0.375706 0.237823
-0.116163 0.442621 -0.056037
0.265865 0.445751 -0.008429
-0.141431 0.247535 -0.372598
0.083026 0.434733 -0.100514
-0.250515 -0.035091 0.441658
-0.246947 0.429477 -0.121474
0.151541 -0.409472 0.171436
0.275126 0.434375 0.097763
0.198461 0.445433 0.014192
0.125484 0.440788 0.064051
-0.022186 0.445780 0.003154
0.068726 0.439327 0.073273
-0.041926 0.335857 0.290680
0.078039 -0.035674 0.441603
0.275211 -0.318974 -0.312320
-0.079666 0.079979 -0.440355
-0.015667 0.093822 0.433168
-0.100745 -0.278840 -0.348942
0.265282 0.300866 -0.330912
0.102574 -0.055784 0.439672
-0.139479 -0.377701 0.232914
0.112671 -0.214446 0.387943
-0.175972 -0.208020 0.391247
-0.078670 0.038364 0.441445
-0.206135 0.396653 0.201025
0.212197 0.433067 0.103615
-0.067161 0.357046 -0.268936
-0.080068 0.155811 -0.419456
-0.167007 -0.416595 -0.157952
0.169747 -0.269849 -0.355916
0.184458 0.072974 -0.441465
-0.231552 -0.442308 -0.048508
-0.205718 -0.416830 0.152945
-0.226893 -0.245290 0.369073
0.208740 -0.389172 0.213518
-0.154106 -0.144910 -0.423011
-0.026859 0.442616 0.051735
0.075972 -0.046032 -0.444977
0.150627 -0.044708 -0.445102
0.165382 0.386847 -0.223536
-0.038635 0.445858 -0.005017
-0.065682 -0.350349 0.271895
-0.188746 0.063345 0.438636
0.145007 -0.302184 0.324493
0.066202 -0.026567 -0.446761
-0.267959 0.362786 -0.261188
0.240497 0.141314 0.420321
0.009006 0.088504 0.434357
-0.047963 -0.412414 0.164639
-0.143204 0.039442 0.441343
-0.063452 0.429753 -0.120524
0.021404 -0.147801 -0.421970
0.160391 0.148589 0.417702
-0.021361 -0.368823 0.246444
0.196312 -0.443493 0.031613
-0.289217 0.395553 -0.207537
-0.125219 0.342360 0.283304
-0.183249 -0.317135 -0.314159
0.224314 -0.436590 -0.087623
0.114932 0.289856 -0.340619
-0.152659 -0.001070 0.443209
0.220196 0.027937 -0.446750
-0.232915 -0.349613 -0.277197
-0.122523 0.070573 0.437492
0.163241 0.199322 -0.400555
0.168901 0.260987 0.359102
-0.082417 -0.293207 0.332407
-0.119254 0.436327 0.089031
0.200814 -0.444698 0.004973
0.272860 0.343615 -0.286234
0.037669 0.436483 -0.092686
0.232509 0.331033 -0.300505
-0.187595 0.002373 0.443200
-0.170248 -0.165429 0.411128
-0.039877 0.205977 -0.397164
-0.119421 0.432821 -0.109070
-0.149961 -0.348499 -0.278633
-0.223364 0.308746 0.319219
0.143331 0.445084 -0.029660
0.041074 -0.287826 0.337151
0.172953 0.273715 -0.353712
-0.129956 0.202478 0.394594
0.144623 0.219009 0.385851
0.192415 -0.134569 -0.426556
0.086573 0.003912 -0.447505
-0.057691 -0.356092 0.264490
0.121633 -0.116433 -0.431825
-0.100028 -0.439754 0.064109
0.157752 -0.031544 0.441993
-0.092392 0.163571 0.412308
-0.110065 -0.005957 0.443055
