0.067397 0.485388 0.111772
0.093507 0.028765 -0.499457
0.012126 -0.330958 0.369522
-0.036120 -0.061417 0.491986
-0.025878 0.327332 -0.377866
-0.070619 0.182221 -0.465900
0.204717 -0.468893 0.164208
-0.275695 0.482295 0.123814
-0.213669 -0.485654 0.105711
0.285444 0.387439 -0.315617
-0.038765 -0.434523 -0.244509
0.003286 0.417108 0.270576
0.178032 0.446599 0.219071
-0.151843 -0.280975 -0.412944
0.263661 -0.249881 -0.432702
0.163383 -0.128600 0.478744
-0.085782 -0.313751 0.384287
0.252266 0.403822 0.290016
-0.179971 -0.487381 0.098446
0.261207 -0.366747 -0.338760
-0.053969 -0.033265 -0.499101
0.055804 -0.076688 -0.494149
0.130058 -0.494703 -0.055915
-0.255874 -0.081168 -0.493378
-0.193836 0.292628 0.401158
-0.253790 -0.497264 0.012588
-0.209140 -0.239452 0.434217
-0.249318 0.373563 -0.332042
-0.057408 -0.468843 -0.168507
-0.067960 -0.200777 0.453383
0.038796 0.490761 0.086127
0.221190 -0.064720 -0.495964
0.124794 -0.314386 0.383743
0.069162 -0.471235 -0.161571
0.053421 -0.065461 -0.495884
-0.288457 -0.218669 -0.449515
-0.038177 0.467102 -0.176067
0.229116 -0.155202 0.470840
-0.137516 0.466097 0.175069
0.178695 0.489818 -0.094871
-0.095615 0.350458 -0.356427
0.040648 0.411282 -0.283661
0.220035 -0.358278 -0.347459
-0.189708 0.403379 0.290603
0.280544 -0.248447 -0.433576
0.166635 0.497310 0.032041
-0.215496 -0.407946 -0.287256
-0.194206 -0.264969 -0.423503
0.230075 -0.496807 0.022784
0.060547 0.357115 0.345353
0.230116 -0.482201 0.120241
0.157815 0.445525 -0.225775
-0.205909 -0.480412 0.127770
0.031789 -0.437098 0.235479
0.083378 -0.489264 0.087779
0.178028 0.392951 0.304426
-0.239487 -0.444324 0.221756
0.193265 0.482381 -0.128149
-0.239604 0.496691 0.039673
0.237579 -0.457800 0.192729
-0.049983 0.498163 0.018281
0.160760 0.219024 -0.449612
0.030065 -0.056880 0.492642
0.040958 -0.463017 0.179868
-0.279390 0.492537 0.074533
-0.257442 0.498620 -0.007093
0.168304 -0.496069 0.037201
0.248888 0.493107 0.070590
0.170911 -0.469776 -0.165802
-0.155397 0.458366 -0.198105
0.286526 0.009388 -0.500036
-0.197137 -0.120062 -0.485328
0.097594 0.204007 -0.456817
0.261667 0.228142 -0.445119
0.102325 -0.492140 0.071076
-0.094987 -0.242196 0.432643
0.138728 -0.275780 -0.416577
-0.069361 0.278557 -0.415279
0.119443 -0.495890 -0.041269
-0.231695 -0.497377 -0.009353
-0.031176 0.285763 0.405959
-0.073652 -0.469613 0.162291
-0.023783 0.442643 -0.231249
-0.129041 0.388011 -0.314900
0.026638 0.032757 0.494816
0.123465 -0.494252 0.054016
-0.046775 -0.053567 0.493011
0.261350 -0.268100 0.417152
-0.258216 -0.495496 -0.046137
-0.275216 0.294897 0.399571
-0.000251 0.453913 0.204227
0.071744 0.428583 0.252301
0.085755 0.470447 -0.167152
-0.164766 0.127267 0.479506
-0.132913 -0.435317 0.238862
-0.152262 -0.437417 -0.239462
-0.081874 -0.497229 -0.017585
0.255804 -0.388222 0.308997
0.256107 0.018137 -0.499878
0.021303 0.466480 0.173972
0.001991 -0.134097 0.477227
0.060037 0.476380 0.145240
-0.080373 -0.202429 0.452694
0.284577 0.493946 -0.070683
-0.212277 -0.316279 -0.386432
0.251913 0.258140 0.423938
-0.026162 0.008054 0.495924
-0.033700 -0.317718 0.380883
-0.275564 0.455307 -0.204923
-0.155768 0.360702 0.341668
0.075810 0.317286 -0.386487
-0.134437 0.469682 0.164692
-0.280532 -0.231205 0.438751
0.281513 0.445188 0.221934
0.271351 0.293778 -0.404677
0.233883 -0.453048 0.203319
-0.156275 -0.116273 -0.486229
-0.280398 0.140663 -0.480050
0.073438 0.441111 0.230208
-0.086186 -0.140989 -0.479603
0.218913 -0.491647 -0.077952
-0.023115 0.176256 0.463717
-0.148980 0.388117 0.310757
0.041002 0.494046 -0.069758
0.259659 0.456660 -0.201906
-0.232661 0.055341 -0.497304
-0.088967 -0.127190 -0.483634
-0.106298 0.416235 -0.276579
-0.260246 -0.466854 0.169643
-0.287805 0.131021 -0.482712
-0.053390 0.495007 0.057457
-0.148238 -0.397116 0.297842
-0.226281 0.438768 -0.238607
0.097599 -0.447803 -0.218901
0.037571 -0.220753 -0.448417
0.158108 0.487018 -0.108637
0.008535 0.006383 0.495948
-0.239411 -0.086652 0.488310
0.202474 0.463854 -0.184723
0.015037 -0.229261 -0.443938
-0.136188 -0.376365 0.323463
0.286741 0.480483 0.130379
-0.182787 -0.046443 0.493589
-0.262013 0.496677 0.039848
-0.114893 0.337332 0.364575
-0.169734 -0.247009 -0.434453
-0.030382 -0.034150 0.494585
-0.047434 0.323950 0.376696
-0.267683 0.495201 -0.059076
-0.102949 0.021236 0.495332
-0.043957 0.498604 -0.006203
-0.197014 -0.183731 0.460490
0.015752 -0.226060 0.441286
0.245581 -0.283730 0.406834
0.121643 0.177637 0.463199
0.103248 -0.184881 0.460011
-0.198548 -0.232515 -0.442225
0.230083 -0.186945 -0.463675
-0.162684 0.495994 0.048281
-0.179446 -0.149902 -0.476883
-0.095316 0.188676 -0.463209
-0.008669 -0.206419 0.450964
0.224675 0.312088 -0.390864
0.097153 0.269542 -0.421230
0.012693 -0.096910 -0.490668
0.193682 -0.378637 0.320955
0.030742 -0.359988 0.341545
-0.087630 0.415941 0.272343
0.257204 0.470545 0.162188
0.073567 0.036006 0.494670
0.023701 0.153871 0.471632
-0.032919 -0.311137 -0.390531
0.275434 -0.345659 -0.360422
-0.012029 -0.300006 0.394852
0.267274 -0.483440 -0.120306
0.137244 -0.413561 -0.278749
-0.168180 0.224073 0.442856
0.094405 0.116836 0.481985
0.198851 0.418555 -0.273046
0.165581 -0.272128 -0.419132
0.016055 -0.495178 -0.050061
0.093746 0.488885 -0.100291
0.208524 0.483719 0.118653
-0.148760 0.466222 0.174722
-0.148127 0.430694 0.248619
0.162600 -0.380051 -0.323316
-0.253735 -0.282061 -0.412185
-0.003631 0.459630 0.190580
-0.272402 0.096957 -0.490720
0.171014 0.077249 0.489876
-0.289155 0.173795 -0.469133
-0.097397 0.282135 -0.412916
0.129534 -0.457003 -0.198776
0.025482 0.310949 0.387145
0.248676 -0.351893 0.349679
0.158636 -0.020520 -0.499672
0.007759 -0.275422 0.412318
-0.129096 0.489250 -0.098169
0.285893 -0.053609 -0.497165
0.046931 0.239497 -0.439132
0.002077 -0.023713 -0.499529
0.110788 0.467516 -0.174964
-0.251825 0.480083 0.131828
-0.034953 0.299623 -0.400268
0.284936 0.259310 0.423225
-0.116232 0.352857 0.349727
-0.281098 0.498278 0.011864
0.199460 0.384081 0.315461
0.193019 -0.492705 0.067792
-0.128234 0.317748 -0.386090
-0.131348 -0.413830 -0.278342
-0.046524 0.385731 -0.317760
-0.181952 0.449961 -0.216836
-0.181310 -0.166314 0.467007
0.013646 -0.417519 -0.272754
0.270093 -0.400230 -0.297773
0.011482 -0.488842 -0.094749
-0.072743 0.227816 -0.445280
0.037249 0.005318 -0.500109
-0.202366 -0.146413 0.473827
0.058957 -0.242935 -0.436738
-0.014636 -0.199430 -0.458229
-0.063457 -0.340565 -0.365072
-0.230323 0.453593 0.204878
-0.030058 -0.346746 -0.359305
0.076132 0.476342 -0.148910
-0.000517 0.430366 0.249193
-0.287734 -0.206090 -0.455241
0.205350 -0.488248 -0.097584
-0.147837 -0.209970 -0.453499
0.144796 -0.491739 -0.077319
-0.211148 -0.058970 0.492340
0.159770 -0.476719 0.139963
0.236134 -0.166797 0.466840
-0.100411 -0.319167 0.379639
0.206807 -0.354128 -0.351722
0.083754 0.435453 -0.244904
-0.264898 0.480184 0.131462
-0.266732 0.383221 -0.320907
0.278461 -0.267833 0.417329
0.114528 -0.478724 0.133390
-0.183521 -0.443197 0.223897
0.243708 0.394549 -0.306701
-0.105982 -0.268278 -0.421486
-0.113985 0.014549 0.495632
-0.214206 0.397671 -0.302785
-0.210168 0.394042 0.302979
0.126277 -0.397073 -0.301958
0.283862 -0.495305 0.044278
-0.248094 -0.427738 -0.256341
-0.073877 -0.325418 0.374276
0.255543 0.482817 0.121922
-0.241756 -0.494604 0.050760
-0.026243 0.348622 0.354077
0.036167 -0.110372 -0.487631
-0.070666 -0.465325 -0.178705
-0.155529 0.220606 0.444681
0.286891 0.365458 0.336783
0.243840 0.425883 0.257010
-0.226253 -0.387597 0.309781
-0.281807 -0.130536 -0.482792
0.163489 -0.497003 -0.027528
-0.022110 -0.292896 -0.404607
-0.097512 0.427480 0.254224
-0.208084 -0.494574 0.051041
-0.000481 0.447572 0.217097
0.113135 -0.321253 0.377850
-0.165349 -0.191553 -0.461764
-0.171583 0.381341 -0.323264
0.155369 -0.135706 0.476782
-0.049097 -0.483612 0.114303
-0.171681 0.433416 0.243873
0.029820 -0.496062 0.037274
0.246594 -0.289144 -0.407231
0.243389 -0.481036 0.125146
0.060540 -0.145674 -0.478173
0.206052 0.024314 -0.499767
-0.140667 -0.423814 0.258384
-0.167098 0.321561 0.378684
-0.218512 0.280842 -0.413770
0.216893 0.245006 0.431834
0.006561 -0.492834 -0.069748
-0.133381 -0.468306 0.165772
0.105896 -0.422658 0.260281
-0.245818 -0.131234 0.478017
0.039953 -0.427142 0.252925
0.269651 -0.496600 0.027401
-0.149722 -0.444523 0.221377
0.106369 -0.352508 -0.353386
-0.160683 -0.190450 0.457689
0.142338 0.108329 0.484007
-0.226618 -0.331348 -0.373420
-0.086997 -0.280151 -0.413520
0.118414 -0.482402 0.119395
0.275672 -0.484819 0.109225
0.215633 0.154903 0.471317
0.070242 -0.496945 0.019702
-0.096661 0.141620 0.475370
-0.107028 -0.414867 -0.276772
0.206812 -0.390867 0.305679
-0.055920 -0.036094 0.494427
-0.204563 -0.085465 -0.492638
-0.138813 -0.482477 0.119081
-0.257196 0.463948 -0.184473
-0.202292 0.328007 -0.377287
-0.165193 0.498534 -0.002305
0.093423 0.452798 0.206491
0.153654 -0.307648 0.389087
-0.136294 0.382553 -0.321745
-0.105639 -0.103328 0.484817
-0.109394 -0.258465 -0.427468
-0.040228 0.487501 0.101689
0.230342 0.153477 -0.476142
0.044215 0.433439 -0.248630
0.076049 0.416288 -0.276503
-0.151438 0.279712 0.410191
0.096539 -0.496265 0.034871
0.034020 -0.480793 -0.129894
-0.118940 0.441504 -0.233411
0.145116 -0.490433 0.080993
-0.159566 -0.440545 0.228933
-0.001419 -0.364998 -0.340557
-0.168266 -0.391137 0.305341
0.282271 0.461309 -0.191505
-0.267188 -0.253085 -0.430748
0.245096 -0.435345 -0.243076
0.256355 0.462236 -0.189033
0.118547 -0.046589 -0.497924
0.054311 0.136770 -0.481125
-0.026555 0.454275 0.203423
0.180367 0.409628 -0.286025
-0.114462 0.498480 0.000659
-0.133645 -0.311920 -0.389907
-0.121911 0.276544 0.412406
0.139781 0.401160 -0.298134
0.171776 -0.253754 0.426015
0.015922 0.048505 -0.497858
0.268690 -0.197907 0.454580
0.107801 -0.461437 -0.188142
0.129277 -0.215426 0.446526
0.077054 -0.237827 0.435148
-0.067971 -0.216615 -0.450517
0.039910 -0.353023 -0.352857
-0.194478 -0.307424 -0.393492
-0.178572 0.223697 0.443054
-0.192521 0.498594 -0.005667
-0.290160 0.466193 -0.178489
0.055458 0.494845 -0.062368
-0.191942 0.229080 -0.444657
0.247670 -0.019113 -0.499735
0.025370 -0.474392 0.147590
0.128176 0.063183 -0.496232
-0.020731 -0.462591 -0.185373
0.172223 0.040772 -0.498485
0.284197 -0.423278 -0.264031
-0.047717 -0.443514 -0.227606
0.185519 0.314687 -0.388717
-0.199165 0.349580 0.353093
-0.205024 0.357160 0.345307
0.068860 -0.345149 -0.360920
0.052205 -0.343434 0.357915
-0.271782 0.293624 -0.404793
0.095189 0.019638 0.495404
-0.136225 -0.491115 0.077027
0.082116 0.493248 0.069618
0.113026 0.459115 0.191814
-0.057070 -0.188885 -0.462947
-0.240789 0.083283 -0.493324
-0.275590 0.497911 -0.025367
0.187052 0.357723 0.344729
-0.282121 0.476181 -0.149438
-0.235509 0.283892 -0.411757
0.002732 0.486248 0.107666
-0.119205 -0.486404 0.102558
-0.189161 0.355655 0.346853
0.258745 0.494692 -0.063781
-0.044045 0.283297 0.407683
0.146727 0.089471 0.487772
0.200717 -0.423199 0.259393
-0.059188 -0.414102 0.273809
0.053431 -0.097007 0.486141
-0.203076 -0.479036 -0.136260
0.146711 -0.018225 0.495505
0.104412 0.092068 -0.491744
0.255768 0.429560 -0.254993
-0.272912 -0.344256 0.357114
0.053482 -0.281867 -0.412320
0.140527 0.168724 -0.470883
0.009978 -0.492246 0.070459
-0.129208 -0.487896 0.095726
-0.043131 -0.168103 0.466390
0.116055 -0.468188 0.166087
0.121390 -0.095314 0.486496
-0.034903 -0.327225 0.372726
-0.209998 -0.089306 0.487754
-0.182671 0.487076 -0.108393
-0.078931 -0.491235 -0.080803
0.042702 -0.000539 0.495823
0.010407 0.497380 0.031178
-0.166623 0.155058 0.471269
-0.131428 -0.145263 0.474144
-0.221870 -0.237444 0.435368
-0.138697 -0.457650 -0.197225
-0.122420 0.017955 -0.499881
-0.161438 -0.132675 0.477619
-0.216366 -0.286923 -0.408784
-0.135407 0.414134 0.275081
0.046905 -0.112418 -0.487145
-0.063053 0.492193 0.076908
0.174986 -0.240145 0.433819
0.061187 -0.491293 0.075997
-0.106263 -0.488956 0.089569
0.078033 -0.424260 -0.262406
-0.027543 -0.431475 -0.249825
-0.205731 0.277714 -0.415836
-0.007061 -0.482132 -0.125044
-0.112161 0.446680 0.218907
0.260796 -0.115287 -0.486463
0.214060 -0.033974 -0.499069
-0.096402 0.332784 -0.373188
-0.205231 -0.283834 -0.410944
0.156482 0.492493 0.074838
-0.158713 -0.082648 0.488914
0.155585 -0.171130 -0.469610
-0.182015 0.315847 0.383239
-0.258246 0.305145 0.391773
0.206722 -0.138149 0.476108
-0.132308 -0.012866 0.495601
-0.074851 0.278535 0.411013
0.261237 -0.053068 -0.497224
0.193468 -0.123998 -0.484393
-0.131302 0.496749 -0.044750
0.145512 0.483141 -0.124951
0.153542 -0.268490 0.416895
-0.202996 -0.494613 -0.057033
-0.086893 0.145708 -0.478658
0.211204 -0.497018 -0.027343
-0.043370 -0.439397 -0.235962
-0.104616 0.338740 0.363300
0.201116 0.154820 -0.475679
0.153405 0.498431 0.003372
-0.227319 -0.110566 0.483301
0.004278 -0.434625 -0.244330
0.274489 -0.497243 -0.016796
0.216396 -0.496688 0.025426
-0.019964 -0.485426 0.106673
-0.053246 -0.490389 -0.086649
0.187078 -0.424276 0.257627
0.104746 0.485220 -0.116203
-0.099166 -0.307670 0.389070
-0.067458 -0.462029 0.182502
0.190259 0.206607 0.451115
-0.153111 0.363909 -0.342700
-0.158503 -0.311574 0.386124
-0.187624 0.029475 -0.499400
-0.253215 -0.382133 -0.320891
-0.220597 -0.295793 -0.402581
-0.040093 0.480298 0.131049
-0.029466 0.484885 0.114175
-0.077061 -0.259736 -0.426694
0.062225 0.461916 0.185096
-0.021121 0.100494 0.485869
-0.018384 -0.188018 0.458703
0.008709 0.369214 -0.336843
0.046522 0.077194 0.489885
-0.048189 -0.495739 -0.043130
-0.175581 0.365174 -0.341304
0.175686 0.198264 0.454859
-0.162258 0.102187 0.485466
-0.112416 0.336302 -0.370170
0.260426 -0.125928 -0.483934
0.060528 -0.256698 0.424327
0.146569 0.208835 -0.454633
-0.247144 -0.180613 -0.466051
0.074933 -0.309181 -0.392091
0.034006 -0.468892 -0.168365
-0.230557 -0.485987 0.104309
0.141621 -0.145630 -0.478187
0.027513 -0.036480 -0.498956
0.084510 0.498182 0.017218
-0.213701 0.460527 0.188428
-0.148500 -0.048170 -0.497753
0.204517 -0.479577 0.130597
0.198537 -0.496932 -0.028409
0.039137 0.175748 -0.468460
0.028623 0.203087 0.452694
0.169423 -0.359381 -0.346327
0.012498 -0.472036 -0.159248
0.153953 -0.400667 0.293019
-0.287624 0.008244 0.495915
0.140713 0.477418 -0.145385
-0.060999 0.188378 0.459169
0.032689 -0.459990 0.187850
-0.244400 -0.488357 -0.097060
0.245335 0.242076 0.433377
0.146668 -0.469968 0.161346
-0.058159 -0.153565 0.471405
-0.099995 -0.477458 -0.141977
-0.243831 -0.335349 -0.369796
0.252178 -0.010840 0.495638
0.090038 0.336237 0.365567
-0.113104 0.271612 0.415725
-0.070078 0.163417 0.468535
-0.033667 0.270051 0.416676
0.129053 0.101049 -0.489862
-0.208731 -0.156827 0.470280
-0.045984 -0.067196 0.491150
0.136947 -0.186858 0.459186
0.268512 -0.314831 -0.387586
0.050766 0.460685 0.188049
0.181633 0.093440 -0.491456
0.181824 -0.461404 -0.188219
0.284545 0.335975 -0.370450
0.137489 -0.301208 0.393945
-0.045076 0.415495 0.273020
0.060251 0.374023 -0.331534
-0.212422 -0.491174 -0.081221
-0.073551 -0.330658 -0.374045
-0.145695 0.392758 -0.308947
0.005560 0.047940 -0.497904
0.127519 -0.355271 0.346391
-0.079292 0.322297 -0.382186
-0.223143 0.351413 0.351210
-0.111395 0.451567 -0.213256
0.164609 0.381343 0.318652
0.179694 0.498618 -0.006983
0.059818 0.365335 -0.341127
0.028790 0.109806 0.483656
-0.237754 -0.374149 -0.330194
0.268525 0.280445 0.409678
-0.183560 -0.190217 0.457786
-0.101668 -0.298324 0.396121
0.043876 -0.353817 0.347807
-0.012093 -0.360329 -0.345352
0.057941 -0.335847 -0.369345
0.280299 -0.012946 0.495600
-0.160408 0.114272 0.482594
-0.230114 0.256780 -0.429221
0.229377 0.080141 -0.493779
-0.128510 0.373747 0.327503
0.084762 -0.231113 -0.442962
0.195718 -0.279788 0.409436
0.096488 0.454619 -0.206455
0.047074 0.358854 0.343567
0.213013 0.231660 0.438861
-0.140258 0.465065 -0.181496
0.232704 -0.459985 -0.191623
0.189154 0.498521 -0.001602
-0.085069 -0.016035 -0.499873
0.180308 -0.472794 0.152828
-0.135563 0.279254 0.410511
-0.075258 0.379355 -0.325647
0.122264 -0.142499 -0.479142
-0.082610 0.328637 0.372451
-0.247755 0.410855 0.280047
0.083880 0.293732 -0.404712
-0.108762 0.182426 0.461402
0.082346 0.034830 -0.498966
-0.020417 0.395709 -0.305245
-0.268703 0.201122 -0.458020
0.246966 -0.384650 0.313477
0.010487 -0.456966 0.194588
-0.030510 0.275390 -0.417369
0.079093 0.452782 0.206523
-0.131516 0.045742 0.493773
0.102573 -0.146989 -0.477772
-0.263080 -0.480715 0.126497
0.239810 -0.275908 0.411997
0.194329 0.426212 0.256436
0.140664 -0.495882 0.038940
-0.153245 -0.361279 -0.344376
-0.285290 -0.137538 0.476277
-0.215903 0.088481 0.487942
-0.196187 0.210367 0.449428
0.079294 0.488814 0.095419
0.006832 0.153581 -0.476106
0.067683 0.451041 0.210057
0.249183 0.477348 0.141734
0.255270 0.494995 0.057540
0.163338 -0.134205 -0.481673
-0.205505 0.142438 0.475120
-0.254729 0.497465 -0.035308
0.235986 -0.097234 0.486093
-0.276082 -0.450482 -0.213465
-0.252149 0.477976 -0.143554
-0.229776 -0.480433 0.127680
0.276108 0.492568 -0.078894
-0.230606 0.344472 0.358108
0.209561 -0.447521 0.215636
-0.158177 0.300550 0.395437
0.217510 -0.332855 -0.372055
0.254348 0.422187 0.262882
-0.229437 0.153948 0.471608
-0.176971 -0.303435 0.392265
-0.010682 0.415658 -0.277404
0.085530 0.143345 -0.479310
0.256347 0.418206 -0.273617
-0.092175 0.498554 -0.003450
-0.267513 0.051683 -0.497601
-0.202491 -0.444388 -0.225832
-0.155262 0.326593 -0.378501
0.274166 0.494331 -0.067122
0.164316 -0.255205 -0.429456
-0.288117 -0.430638 -0.251284
-0.098111 -0.399626 0.294508
0.088437 -0.143492 -0.478839
0.152699 -0.066791 0.491208
-0.181248 -0.091701 0.487253
0.036093 -0.494557 0.051195
0.267368 -0.200832 -0.457600
-0.027614 0.455432 -0.204643
-0.232320 -0.067154 -0.495701
-0.082798 0.404224 0.289483
0.222487 0.391019 -0.311128
0.271877 0.366141 -0.340236
0.263334 0.062514 -0.496329
-0.040253 0.265579 -0.423847
-0.222448 -0.494737 0.049528
0.212676 0.090935 0.487520
0.147259 0.275157 -0.417523
-0.231460 -0.241983 0.432765
-0.144826 -0.411936 -0.281211
-0.122209 0.285206 0.406348
0.044688 0.498354 0.007666
0.107363 0.348254 0.354455
-0.074082 -0.405048 -0.291387
-0.287477 -0.324758 0.374842
-0.057338 -0.494390 0.052742
0.037461 -0.180004 -0.466280
-0.000071 0.376356 -0.328958
-0.153539 0.349842 -0.357027
-0.077583 -0.313594 -0.388573
-0.217299 0.274263 0.414002
-0.195189 -0.430963 0.246658
-0.076210 0.008794 -0.500046
-0.092958 -0.430112 0.248054
-0.154772 -0.491622 0.074086
0.283713 -0.468637 0.164891
0.179408 -0.493559 -0.064733
-0.052126 0.497025 0.035556
-0.250405 0.496665 0.039998
0.163378 0.459641 -0.195264
0.057535 -0.451697 -0.210999
-0.003003 -0.207717 -0.454510
0.182933 -0.156232 0.470485
0.154600 0.077450 -0.494168
0.249372 0.498295 0.010955
0.203023 0.212866 0.448306
0.139893 0.472832 -0.160414
0.266693 0.427608 -0.258195
-0.082151 -0.045757 -0.498014
0.198818 0.369830 -0.336163
0.194613 0.364271 0.338002
0.016473 -0.497326 0.011199
0.051802 -0.235053 -0.440888
-0.048094 -0.497476 -0.003878
0.144575 -0.363979 -0.341604
-0.253729 0.442578 -0.231371
0.141243 0.408101 -0.288209
0.286092 0.485000 0.113624
0.267370 -0.458676 0.190777
-0.186558 -0.087806 -0.492235
0.244641 0.481199 -0.132991
-0.288988 -0.495860 0.039142
0.232409 -0.423810 -0.263191
-0.106807 -0.452955 -0.208446
-0.276736 -0.332838 0.367909
-0.207510 -0.044650 -0.498133
0.174184 0.423675 0.260628
0.110621 -0.127492 0.479050
-0.217856 -0.497543 0.006368
0.025766 -0.116395 -0.486200
0.237696 -0.007049 -0.500276
-0.217781 -0.194547 -0.460420
-0.209779 -0.204112 -0.456128
0.216260 0.306551 -0.395041
0.150342 -0.031444 -0.499182
-0.258138 -0.461427 -0.188165
-0.219369 0.471443 0.159586
-0.158938 -0.253993 -0.430195
0.083694 -0.484310 -0.116383
-0.241801 0.427024 0.255019
0.078862 0.496448 0.042675
0.173261 0.301451 -0.398888
-0.137911 0.279345 -0.414759
-0.099585 -0.221490 0.443538
-0.236115 0.082519 0.488968
0.270998 0.052706 0.493020
0.276124 0.469676 0.164709
0.191012 -0.336268 -0.368964
-0.190771 0.300676 -0.399473
0.213810 0.473457 0.153748
0.060063 0.124667 0.480124
0.219286 0.360624 0.341749
0.179863 0.276169 0.412669
0.160237 0.165318 -0.472058
0.201201 0.158908 0.470095
-0.246953 0.433173 0.244296
-0.000089 0.409247 0.282483
-0.258727 0.496524 -0.046827
0.019617 0.485173 -0.116400
-0.106946 0.187870 -0.463545
0.233669 -0.492975 -0.068770
0.132803 -0.275294 0.412403
-0.167762 0.351681 0.350935
0.286072 -0.381765 -0.321319
-0.289533 -0.451979 -0.210427
-0.008647 0.434514 0.241959
0.179693 -0.491283 0.076054
0.041648 -0.455508 -0.202362
-0.115688 -0.372872 -0.331683
0.221933 -0.497142 -0.022437
0.083388 0.262167 -0.426099
0.195627 -0.054917 -0.497024
0.059705 0.011453 0.495771
-0.126356 0.092085 0.487322
-0.228975 -0.394559 0.301050
0.119744 -0.471929 0.155662
0.164713 -0.140908 0.475347
0.061342 0.080956 -0.493661
-0.238258 0.217182 -0.450519
0.218498 -0.124527 0.479868
-0.001373 0.468530 0.168031
-0.119956 -0.129226 0.478571
0.056696 -0.492943 0.066135
0.007253 -0.215893 0.446296
-0.070485 -0.069656 -0.495360
-0.041659 -0.148702 -0.477249
0.223184 -0.492236 0.070518
0.246163 -0.496839 0.022072
0.068889 0.309812 -0.392580
-0.047277 0.315010 0.383907
0.017659 0.349953 0.352710
-0.262581 0.369306 0.332680
-0.037231 -0.497552 0.000351
-0.194669 -0.002166 -0.500244
-0.086234 -0.182189 -0.465460
0.065295 0.280901 0.409359
-0.043035 -0.292409 0.400583
0.220600 0.112747 -0.487412
0.121053 0.430823 0.248395
-0.215500 -0.384740 0.313363
-0.076769 0.470906 0.161143
-0.220520 -0.492652 -0.071004
0.184358 0.024240 -0.499768
0.146135 -0.459135 0.189754
-0.242378 -0.285916 -0.409488
-0.278329 -0.077278 0.489691
0.233343 -0.470967 0.158681
-0.231512 -0.381051 0.317989
-0.179628 0.481779 0.125681
0.261157 -0.461792 0.183132
0.128935 0.383739 0.315860
-0.041776 -0.196954 -0.459340
0.036575 -0.015272 -0.499908
-0.093609 0.420947 0.264761
0.128301 -0.073946 -0.494621
-0.140739 -0.440790 0.228468
0.202156 0.270208 -0.420790
-0.207675 -0.111465 -0.487372
-0.014833 -0.033779 -0.499077
-0.241187 -0.464100 -0.181754
-0.225580 0.370928 0.330789
-0.250782 0.075596 -0.494436
0.065403 -0.463191 0.179404
-0.044870 0.307119 0.390199
-0.115533 -0.479320 -0.135233
0.132572 -0.198051 0.454520
0.120436 -0.133394 0.477421
0.081350 -0.113936 -0.486784
-0.210660 0.343913 -0.362800
0.153567 0.437298 0.237104
-0.149160 0.311061 0.387056
-0.207964 0.386308 -0.317035
0.207697 0.013338 0.495687
-0.243988 -0.464065 0.177076
-0.090832 -0.335937 -0.369264
-0.044930 0.483304 -0.124267
0.037109 -0.230832 0.438935
0.103470 0.485979 0.108952
0.133083 -0.232361 0.438182
0.111777 -0.173506 -0.468718
0.001156 0.151224 0.472439
-0.176948 0.381706 0.318228
0.163201 0.230198 0.439631
-0.168383 -0.485312 0.107151
0.108091 0.283767 0.407355
-0.200188 -0.054929 0.492901
0.109653 0.368615 0.333484
-0.099821 0.357676 0.344777
0.092744 0.494442 0.061362
-0.270152 -0.314463 0.383676
0.105473 -0.460428 0.186767
0.186647 -0.265944 0.418576
-0.142378 0.372524 0.328929
-0.033854 -0.362068 0.339248
0.065729 -0.023196 -0.499552
-0.169469 -0.182243 -0.465440
-0.256545 0.295845 -0.403118
-0.014936 -0.253676 -0.430388
-0.110695 -0.116543 -0.486165
-0.095524 0.484965 0.113795
-0.093831 -0.356988 -0.348784
0.011157 0.429132 0.251344
0.118056 0.017866 0.495484
0.157704 0.498288 -0.016954
0.159263 0.333728 0.367839
-0.261436 0.374594 -0.330903
0.261476 0.280222 -0.414179
-0.269775 0.122534 0.480631
-0.017729 0.240974 -0.438285
0.251512 -0.212491 -0.452368
0.207804 -0.383491 0.314930
-0.099141 -0.473971 -0.153639
-0.215975 -0.427116 0.252967
0.272886 0.003980 -0.500133
-0.052071 0.434893 -0.245968
0.275428 0.031650 -0.499224
-0.166989 0.466684 -0.177180
0.285105 -0.161760 -0.473125
0.104301 -0.394182 0.301522
-0.205628 0.273377 0.414621
0.117965 0.470497 -0.167020
-0.221032 -0.282210 0.407837
0.033365 0.045939 -0.498066
0.266566 -0.495640 0.041179
0.086131 -0.360052 -0.345637
-0.009405 -0.369256 -0.335897
0.123662 0.329615 -0.375908
0.052711 -0.279103 0.409888
-0.105174 -0.154691 0.471017
0.103725 0.406914 -0.289906
-0.267373 0.276525 -0.416620
-0.011225 -0.491753 0.073325
-0.231009 -0.496647 0.026353
0.127836 -0.401661 0.291598
0.217269 0.497850 0.025368
-0.016290 0.228001 0.440787
-0.233395 -0.174360 0.464232
-0.146861 -0.027917 -0.499340
-0.100017 -0.466575 -0.175079
-0.076241 -0.293318 0.399898
-0.069100 0.243944 -0.436581
-0.159205 -0.447180 0.216332
-0.087810 -0.033228 -0.499102
-0.263075 -0.412725 0.275779
0.246965 0.458485 -0.197840
-0.217092 0.497493 0.029778
-0.066202 -0.146305 -0.477981
-0.099999 0.362378 -0.344391
-0.079250 0.492659 0.073690
0.076050 -0.496001 -0.039899
-0.248185 -0.095175 0.486525
0.256875 -0.485262 -0.111835
0.085522 0.032621 0.494822
-0.070083 0.373697 0.327562
0.113139 0.030543 0.494915
0.212791 0.275362 -0.417388
-0.049866 0.240955 0.433967
-0.005521 -0.439884 -0.234972
-0.198743 0.462523 -0.188269
0.016329 0.474495 -0.154964
0.235394 0.114532 -0.487038
0.254946 -0.065916 0.491335
0.228122 0.426989 -0.259211
0.051039 0.149150 0.473072
-0.276844 0.258977 0.423428
-0.218277 -0.261369 0.421596
0.014187 0.025888 -0.499690
0.026506 0.455294 -0.204950
-0.026451 0.447953 -0.221163
-0.140566 0.039975 0.494396
-0.016223 0.383502 -0.320555
-0.131999 -0.051152 0.493207
-0.263760 -0.435074 -0.243547
0.166221 -0.220246 0.444151
0.141284 0.183404 0.461035
-0.224775 -0.182031 0.461199
-0.002473 0.479087 0.135434
-0.021034 0.134134 -0.481852
0.144180 -0.482902 -0.122255
0.115373 -0.472594 -0.157631
0.191903 0.498183 0.017152
-0.057247 0.377103 -0.328133
-0.101407 -0.328527 0.371608
0.173469 -0.375010 -0.329191
-0.031390 0.184291 0.460702
0.062443 0.485097 -0.116723
0.135997 0.045292 -0.498118
-0.008823 -0.350588 0.350950
-0.187994 0.072346 0.490720
0.185687 0.304527 -0.396568
0.001025 -0.014654 0.495569
-0.228097 -0.327546 0.372449
0.127080 -0.496183 0.036149
0.033164 -0.201733 0.452985
0.106051 0.498481 0.000598
-0.031783 -0.246550 -0.434732
-0.238731 -0.401557 -0.296014
-0.095534 0.472661 -0.160973
-0.095220 0.294773 0.399657
0.268637 0.357055 0.345415
0.185922 -0.495382 0.043565
0.286679 -0.485968 0.104391
0.123687 -0.496677 -0.031551
-0.211377 -0.369573 0.330962
-0.163268 0.042755 0.494096
-0.175371 0.350233 -0.356647
-0.104022 -0.491851 -0.076546
-0.029169 -0.144731 0.474291
0.250226 0.491616 0.080899
-0.030832 -0.284867 -0.410222
0.001321 0.036897 -0.498799
0.158461 0.229014 -0.444689
-0.271866 0.464019 0.180052
-0.041622 0.148174 0.473370
-0.288248 0.377904 0.322660
0.042634 0.311502 0.386704
-0.219939 -0.457358 0.193715
-0.102417 0.398007 0.297724
0.142837 0.369717 -0.336288
-0.077336 -0.372560 -0.332047
0.131058 -0.044446 0.493750
-0.080272 0.162609 -0.472992
-0.180490 -0.314136 0.383957
0.211778 0.265195 0.419637
0.273305 0.484701 -0.118386
-0.219344 -0.117636 0.481771
0.153364 -0.005946 -0.500312
0.174170 -0.262663 -0.424909
-0.095923 -0.010027 -0.500143
-0.151655 -0.431806 -0.249247
0.159126 -0.469536 0.162496
-0.246102 0.048284 -0.497876
0.021010 -0.338423 -0.367012
-0.027757 0.469049 -0.170879
0.153658 0.324850 0.375880
0.239535 -0.322716 -0.381238
0.115432 -0.390085 -0.311219
-0.277515 0.096781 0.486513
-0.203421 -0.495557 -0.045382
0.238993 0.446849 -0.223260
0.171126 0.168951 0.466459
0.130234 -0.467168 -0.173362
0.073068 0.309756 0.388096
0.019773 -0.492478 -0.072209
0.038214 0.475983 -0.150087
0.064043 0.001294 -0.500182
-0.274469 0.463238 -0.186363
-0.072095 -0.481297 0.124045
0.107581 0.199292 -0.458783
0.020008 -0.214256 0.447103
0.063655 -0.298464 0.396015
0.254196 0.491297 -0.086281
-0.261290 0.022102 -0.499807
-0.264433 -0.133484 0.477396
0.008127 -0.143004 0.474768
-0.091283 0.484783 -0.118041
0.172406 0.462357 0.184040
0.285502 0.401053 0.293686
-0.019768 -0.160383 -0.473642
0.049282 -0.260795 0.421975
-0.137417 -0.331611 0.368962
-0.054748 -0.475592 -0.148737
0.083077 0.123146 0.480486
0.111275 0.075737 0.490136
-0.289233 -0.055767 -0.496932
0.027576 -0.429612 0.248874
-0.068634 -0.093579 0.486859
0.027381 -0.095293 0.486500
-0.051125 0.131560 0.478439
0.138315 0.488708 -0.101317
0.160636 -0.049830 -0.497574
-0.223420 0.108717 -0.488256
0.002778 0.313998 0.384714
0.119617 -0.222528 0.443027
0.155672 -0.421557 -0.266637
-0.111339 0.301629 -0.398754
0.230387 0.359011 0.343405
0.285689 -0.490159 0.082582
0.202347 -0.475668 0.143408
0.223655 -0.324301 0.375235
0.096192 -0.477025 -0.143545
-0.280957 -0.042210 -0.498397
-0.117230 -0.220503 -0.448549
-0.168951 -0.329710 0.370593
-0.021340 0.367269 -0.338991
-0.011027 0.171638 -0.469877
0.041381 0.054439 -0.497377
0.140632 0.419620 0.266771
-0.051407 -0.420541 0.263753
0.153320 -0.426038 0.254736
-0.122481 0.203167 0.452659
0.005353 0.292200 -0.405867
0.006865 -0.079499 0.489370
0.010595 -0.154108 0.471218
-0.261654 0.418587 0.268336
0.023690 -0.234349 0.437143
-0.161077 0.402745 0.291444
0.044914 0.490991 -0.088055
0.071309 0.369876 -0.336113
-0.115516 -0.364614 -0.340951
-0.088111 0.498390 -0.014695
0.260558 -0.322123 -0.381772
-0.150438 0.321283 0.378905
0.265189 0.256684 0.424826
0.267229 -0.094382 0.486691
-0.200998 -0.229574 0.439555
-0.238138 -0.484054 0.112446
-0.239610 -0.486439 -0.106218
-0.124469 -0.292379 -0.404968
0.003875 0.065895 -0.495840
0.049742 -0.069877 0.490762
-0.079379 0.061072 0.492116
-0.057911 -0.165779 -0.471618
-0.111590 -0.433495 0.242323
-0.118784 0.226151 -0.446100
-0.107798 0.258935 0.423453
-0.019046 -0.010282 -0.500131
0.059214 0.394305 0.302630
0.207040 0.497670 0.027601
-0.010984 -0.282927 -0.411578
-0.288894 0.491617 -0.084420
-0.108393 -0.324632 -0.379503
0.026241 -0.332061 0.368576
-0.145509 -0.497129 0.015590
0.070140 -0.399629 -0.298569
0.185201 0.375253 0.325749
-0.110505 0.014914 -0.499936
0.115503 -0.464693 -0.180332
-0.058650 0.339991 0.362166
-0.111502 -0.028394 0.495051
-0.159062 -0.134967 -0.481440
-0.213966 0.476570 0.144552
-0.118482 0.150979 0.472514
-0.237888 0.498232 0.014423
0.176879 0.472602 0.156227
-0.088737 0.032214 -0.499178
-0.152294 -0.265891 0.418611
-0.236374 0.111214 -0.487733
-0.246858 0.028503 0.495007
0.021131 0.103722 -0.489302
0.051879 0.168524 0.466619
-0.136638 -0.497473 0.007919
-0.267357 0.240747 -0.438415
-0.045457 0.145588 -0.478691
0.259164 0.090947 0.487518
-0.084639 -0.271489 -0.419529
0.212176 0.490444 -0.091231
-0.265720 -0.091220 -0.491648
0.275001 -0.465860 0.172292
0.004022 -0.252168 0.426924
-0.135481 0.495122 -0.059800
0.165087 0.203698 -0.456946
0.083868 0.206186 0.451304
-0.284943 -0.376651 -0.327279
0.012454 0.478096 -0.143160
-0.014223 0.485172 0.112805
0.285779 0.434630 -0.246466
0.171169 0.344669 0.357930
-0.162766 0.075110 0.490244
-0.045079 0.061260 0.492096
0.198072 0.401027 -0.298324
0.109513 0.492859 -0.077207
0.193696 0.055545 -0.497288
0.220942 0.253566 0.426726
0.274432 0.434139 -0.247399
-0.066502 0.210611 0.449318
0.210161 0.141199 0.475498
-0.006628 0.124251 -0.484581
0.182682 -0.493829 0.057931
-0.191064 -0.366454 -0.339062
-0.235802 0.344638 -0.362094
0.222158 -0.408531 0.281776
0.113055 -0.491403 0.075359
-0.287061 -0.332699 0.368028
0.226195 0.068941 -0.495399
0.189446 -0.127594 0.479022
-0.149773 0.011435 -0.499999
0.127364 0.489355 -0.097556
-0.170888 -0.203425 -0.456436
0.233382 0.010388 0.495819
-0.128173 0.220531 0.444721
0.102521 -0.399317 -0.298983
0.088813 0.233458 -0.442499
0.150782 -0.193843 0.456274
0.274970 0.287372 0.404834
-0.214336 0.460952 -0.192342
0.065292 0.375142 0.325878
-0.241929 0.465608 -0.180048
-0.286397 -0.195295 0.455669
0.058681 -0.481323 0.123938
0.285895 0.239250 0.434864
-0.157817 -0.464110 0.176955
-0.093055 -0.390017 0.306746
-0.106046 0.119530 0.481345
-0.285326 -0.342891 0.358443
0.117036 -0.481776 -0.126336
-0.021428 -0.388181 0.309048
0.168103 -0.326709 -0.377621
-0.256927 -0.474307 0.147869
0.150517 0.440399 -0.235509
-0.041294 0.043003 -0.498304
-0.176330 0.476125 -0.149622
-0.230404 -0.473605 0.150168
0.165769 -0.167741 -0.470881
0.067341 0.431867 -0.251210
0.192072 0.496605 0.040746
0.141400 -0.107842 -0.488232
0.228397 0.489220 -0.098345
0.108145 -0.100013 -0.490093
0.088249 0.291239 0.402129
0.215440 -0.008353 0.495683
-0.134020 0.452992 -0.210080
-0.097273 0.220416 -0.448926
0.102500 -0.466040 -0.176631
-0.191963 -0.478965 -0.136516
-0.069975 -0.495923 -0.040864
0.239568 -0.232668 0.438030
-0.179543 -0.206742 0.450805
0.201326 0.133176 -0.482117
0.184493 -0.476631 -0.144973
-0.237714 0.329315 0.371836
-0.189907 -0.318223 -0.384881
0.259686 -0.488167 0.094150
0.070746 0.256335 0.425038
0.203282 -0.211990 -0.452593
0.022272 -0.491998 0.071901
0.114093 0.459971 -0.194529
-0.204246 -0.493020 -0.068464
0.112892 -0.433662 0.242006
0.285575 0.495164 -0.059415
0.058302 -0.176712 -0.467515
-0.141903 -0.155910 0.470596
0.003479 -0.353031 -0.352849
-0.099513 -0.485940 0.104507
0.066044 -0.435992 -0.241947
-0.171573 -0.446278 -0.221996
-0.247195 -0.104422 -0.489045
0.033259 -0.379618 0.319787
0.012330 -0.487878 0.095833
-0.136053 0.011957 0.495749
0.072008 0.198597 -0.459073
-0.061485 -0.492720 0.067708
-0.167075 0.465541 0.176400
0.183816 -0.241296 -0.437601
-0.273494 -0.199127 0.454071
-0.145089 0.476910 0.143322
0.179054 0.358317 -0.348776
0.184623 -0.181974 0.461222
-0.011351 -0.009634 0.495659
-0.037745 0.380579 -0.324221
0.127467 0.256277 -0.429509
0.233520 0.441522 -0.233377
-0.098766 0.177466 -0.467867
-0.182238 0.236881 -0.440632
0.286342 -0.436143 -0.241683
0.138618 0.314092 -0.389227
-0.072017 0.335670 0.366080
0.120749 -0.047937 0.493468
0.225238 0.175119 0.464144
-0.203275 0.332901 0.368588
0.175099 0.139372 -0.480407
-0.122811 0.179913 0.462345
-0.124734 0.472185 0.157436
0.223658 0.485238 -0.116126
-0.089550 -0.447614 -0.219286
-0.197576 -0.436452 0.236706
0.030284 -0.486641 -0.105254
0.122402 0.495847 -0.053099
0.201536 0.304080 0.392622
-0.252397 0.134548 0.477527
0.135200 0.235594 0.436790
0.228612 -0.221620 -0.447961
0.236151 0.139575 0.475993
0.107899 -0.475213 -0.150039
-0.237268 -0.493578 -0.064606
-0.139231 0.496075 0.047285
-0.051231 0.481272 -0.132754
-0.127217 -0.301937 -0.397867
-0.028738 -0.487144 -0.102853
0.119785 0.441882 -0.232694
-0.141591 -0.460216 0.187334
0.173501 0.376534 0.324256
-0.135152 -0.476829 -0.144255
-0.253972 0.373858 0.327374
0.245922 -0.476392 -0.145839
0.131193 0.304316 0.392434
0.118266 0.257897 0.424086
0.093973 0.497920 -0.025160
-0.057328 0.404853 0.288650
0.072064 0.484083 -0.120987
0.068190 0.394112 -0.307248
-0.029563 -0.435266 0.238960
0.053107 -0.447334 0.216039
-0.191845 0.498203 -0.018865
-0.090377 -0.383603 -0.319177
-0.069255 -0.446962 -0.220608
-0.072361 0.287388 -0.409449
-0.210635 -0.462814 -0.184837
0.248220 -0.369305 -0.335840
-0.154577 -0.073668 -0.494669
0.245774 0.067183 -0.495653
-0.273421 0.108815 -0.488235
0.152548 -0.415617 0.271644
0.022530 0.206240 -0.455886
-0.065739 -0.497484 0.007682
-0.085438 0.382033 -0.322397
0.286273 -0.356530 -0.349255
-0.046470 -0.322252 0.376993
0.283957 0.421229 -0.268659
-0.129096 -0.497500 -0.002564
-0.127020 -0.440492 -0.233738
0.210456 0.498474 0.001012
0.266636 -0.241315 0.433148
0.087615 0.440929 -0.234504
0.251973 -0.460744 -0.189802
0.008745 -0.428027 -0.255837
-0.074818 -0.377739 0.321946
0.249116 -0.377764 0.321918
-0.007652 -0.183151 0.460732
-0.054835 -0.379548 -0.323903
0.058209 -0.388942 0.308094
-0.170464 0.473014 -0.159818
-0.223065 0.266719 -0.423094
-0.253119 -0.298420 -0.400672
0.167721 0.376427 -0.328880
-0.079064 -0.283893 0.406726
-0.281492 -0.247221 -0.434323
-0.039154 0.374994 0.326051
-0.150220 0.470660 -0.166584
-0.234852 0.226093 -0.446129
0.045382 -0.488403 0.092785
-0.133932 0.479515 -0.138512
0.184966 -0.448720 -0.217040
0.236304 0.347811 -0.359004
-0.178642 -0.334171 0.366765
-0.120490 -0.231534 0.438589
-0.095545 -0.473009 0.152123
0.063463 0.037253 -0.498770
0.074469 0.498224 0.014888
-0.095720 -0.393372 -0.306863
-0.106835 0.497819 -0.027422
0.071285 -0.005096 0.495741
0.032592 -0.037195 0.494338
0.171003 -0.473420 -0.155237
-0.227496 -0.393537 -0.306644
-0.144891 -0.403880 -0.292935
0.035450 -0.071556 -0.495033
-0.085572 -0.252227 0.426891
0.214179 -0.485724 0.105417
-0.198859 -0.360407 -0.345272
-0.208796 -0.409638 0.280192
-0.055510 0.097016 -0.490707
0.043688 -0.397044 0.297932
-0.072809 0.434516 -0.246684
0.218760 0.481110 0.128107
0.008893 0.493216 -0.075130
0.239276 0.153162 0.471848
0.282483 0.309011 -0.393185
0.230545 -0.242781 -0.436819
-0.013264 0.498082 0.022509
0.262178 0.255860 -0.429748
0.009050 0.412258 0.277923
0.280461 -0.371297 0.329059
-0.088212 -0.303197 0.392444
-0.010909 0.335584 0.366158
0.107324 0.463633 -0.185313
0.145314 0.418053 -0.273869
0.171959 0.498275 0.012075
-0.060088 0.401874 -0.297113
-0.159073 0.486315 0.107350
-0.186796 -0.114581 -0.486631
-0.288377 -0.445181 -0.224222
0.226506 -0.037388 0.494322
-0.264669 -0.144400 0.474382
0.084217 -0.316627 -0.386154
0.140462 0.411729 0.278725
0.109532 -0.405488 -0.290803
0.252514 0.019186 0.495424
0.068569 -0.233779 -0.441559
-0.269889 0.229740 -0.444331
0.091680 -0.219397 0.444570
0.011228 -0.446086 -0.222386
0.116286 0.233574 -0.442442
-0.284253 0.117006 0.481945
-0.259504 0.269348 0.417105
-0.187562 -0.157760 -0.474486
-0.175495 0.334296 0.367325
-0.148322 -0.097130 -0.490630
-0.267288 -0.328528 0.371607
-0.242719 0.438753 -0.238637
0.096857 -0.029287 -0.499279
-0.212842 -0.096688 -0.490706
-0.051155 -0.099524 0.485614
-0.262617 -0.497565 0.001092
0.003469 0.180644 0.462071
-0.180302 0.296147 -0.402890
0.139129 -0.333936 0.366967
-0.026463 -0.447161 -0.220205
-0.090391 0.381300 0.318702
0.192346 -0.007383 -0.500261
-0.257438 -0.068883 -0.495493
0.061853 0.203579 0.452474
0.016250 -0.485459 0.106531
-0.174753 -0.113385 -0.486915
0.076532 0.155337 0.471184
0.285001 -0.222623 -0.447433
0.199365 -0.443420 -0.227796
-0.240731 0.333357 -0.372696
-0.087273 0.444841 0.222638
-0.033912 -0.461905 -0.187017
0.232762 -0.491227 -0.080858
0.133236 0.363868 -0.342746
0.284901 0.498383 0.006064
0.260040 0.489598 -0.096148
-0.172425 -0.295438 -0.402829
-0.128155 -0.425557 -0.260145
0.218194 -0.267849 0.417318
-0.060789 0.202050 -0.457633
0.120373 0.474030 0.152087
0.006780 0.445754 -0.225340
0.166898 -0.335004 -0.370109
-0.221404 0.497257 -0.039958
0.096452 -0.177171 -0.467343
-0.045659 0.116352 0.482100
0.119892 0.053528 0.492931
0.151935 0.426733 0.255528
0.078154 -0.463496 -0.183202
-0.217782 -0.043908 -0.498214
-0.095162 -0.437264 0.235165
-0.229079 0.001689 0.495863
0.247801 -0.428313 0.251004
0.100045 0.340269 0.361915
0.214743 0.311747 0.386509
-0.223002 0.360565 -0.346393
0.077814 -0.239422 -0.438588
0.079634 0.497733 0.026822
0.225589 0.338191 0.363797
0.259609 -0.289518 0.402764
0.090297 0.495910 0.049313
-0.125016 0.410245 0.280972
-0.143635 -0.013838 -0.499972
-0.092774 0.002019 -0.500169
-0.139173 0.484234 -0.120352
-0.162475 0.498331 0.008956
-0.104805 -0.497119 -0.023699
0.065289 0.400975 -0.298398
0.093231 -0.437003 0.235661
-0.111699 0.211554 -0.453293
0.050961 -0.179073 0.462432
-0.109017 0.310744 -0.391877
-0.108402 0.105351 -0.488961
0.001719 0.435712 0.239869
-0.236297 0.494279 -0.067606
-0.244921 0.060763 0.492149
-0.105366 -0.315807 -0.386808
0.251191 0.222482 0.443693
-0.157804 0.224125 -0.447098
0.191653 0.165312 0.467824
0.152732 0.109261 0.483785
0.104296 0.489368 -0.097482
-0.139112 0.091080 0.487495
-0.091777 -0.109958 0.483428
0.202235 -0.319980 -0.383480
0.072721 0.100410 0.485888
0.056014 0.298552 0.397014
0.077351 -0.137642 0.476248
-0.149531 -0.091541 0.487286
-0.024736 -0.492953 0.066039
-0.287762 0.491353 0.082713
-0.264120 -0.139091 -0.480182
-0.070122 0.168532 -0.470949
0.017252 0.496977 -0.042643
0.206457 0.183894 -0.465203
-0.242746 -0.492159 -0.074413
0.186913 -0.488598 0.091648
0.074543 0.421918 -0.267529
-0.112131 0.150531 -0.477158
0.096620 -0.489240 -0.092849
-0.192017 -0.458871 0.190344
-0.143328 -0.490433 -0.086346
-0.284476 0.155382 0.471170
-0.076546 -0.471242 -0.161551
-0.248291 0.285805 0.405929
-0.012067 0.497590 -0.032529
-0.016526 0.484926 -0.117443
-0.276149 0.481823 -0.130499
0.176646 -0.227371 0.440641
0.216622 0.496924 0.036805
0.108083 -0.205721 -0.455406
0.221568 0.476787 -0.147450
-0.033196 0.491776 0.079794
0.158250 0.403447 0.290513
-0.193715 0.141023 0.475552
-0.145338 0.094903 -0.491150
-0.149614 0.030873 0.494900
0.152499 0.396369 0.299895
-0.034709 0.403510 -0.294774
-0.194782 0.453681 -0.208545
-0.250424 -0.307229 0.389403
-0.231597 0.290537 0.402620
0.114460 0.283357 -0.412110
0.144259 0.119960 0.481243
-0.046383 -0.477866 0.136204
0.109994 -0.136477 -0.480979
0.239585 -0.028305 -0.499323
0.084267 0.483132 -0.124989
0.054030 0.412496 -0.281925
-0.230622 0.320067 -0.384100
-0.248035 0.403886 0.289932
-0.181042 0.072533 -0.494879
-0.179193 -0.496350 0.032974
-0.074733 0.003030 0.495888
-0.084826 -0.495795 -0.042438
0.006960 0.328520 -0.376847
-0.234689 -0.483581 -0.119796
0.023728 0.488630 -0.101768
0.061912 0.242236 -0.437561
-0.038190 -0.339822 -0.365745
-0.027026 -0.496462 0.030477
0.122479 -0.167622 0.466556
0.134504 -0.178262 -0.466933
0.229793 -0.174424 -0.468374
-0.063300 0.422517 0.262383
0.201150 0.412568 -0.281822
0.201522 0.066156 0.491567
0.092385 -0.299114 0.395525
-0.138462 -0.439344 -0.236068
-0.270647 0.439430 0.233386
-0.128682 0.472976 -0.159942
0.183194 0.437644 0.236499
-0.109847 -0.412158 0.276590
-0.169403 -0.487709 0.096813
-0.214637 0.482978 0.121340
-0.118495 -0.061443 -0.496319
-0.103068 0.318640 -0.385325
0.283530 0.496453 -0.047489
0.246269 0.356830 -0.350224
0.059319 0.202372 -0.457499
-0.267633 -0.440573 0.228880
0.060460 0.100956 -0.489882
0.175936 -0.392582 -0.307910
0.104528 0.456038 0.199196
0.070407 0.320353 0.379647
0.160834 0.411260 0.279434
-0.132469 0.359505 -0.347563
-0.207172 -0.482895 0.117322
-0.171689 -0.066855 0.491199
-0.232713 0.090363 -0.492101
0.105402 -0.481699 -0.126611
-0.054057 0.146125 0.473995
-0.194786 -0.289378 -0.407067
0.095589 -0.469442 -0.166771
0.007064 -0.490929 -0.082916
0.185655 0.497428 0.030582
-0.115424 -0.307372 -0.393533
-0.176140 0.295772 0.398959
0.240809 0.401285 0.293378
-0.140734 0.119194 -0.485977
0.251857 0.467788 -0.174239
0.131299 0.498317 0.009744
0.032948 0.474067 0.151978
-0.253762 0.448068 -0.220945
-0.035796 -0.237227 -0.439743
0.130197 0.105033 0.484790
0.132497 0.494869 -0.062141
0.006502 -0.028752 0.495022
-0.040455 -0.492380 0.069681
0.035617 0.118597 -0.486142
0.079008 -0.464853 0.174976
0.275522 -0.027914 0.495090
0.047993 0.244875 0.431903
0.168990 0.113621 0.482749
-0.177550 -0.118878 0.481428
-0.030967 0.248697 -0.433856
-0.143612 0.367010 -0.339277
0.271595 0.399618 0.295588
-0.078829 -0.386060 -0.316314
0.233592 -0.040616 -0.498569
-0.090444 -0.177396 0.463131
0.070057 -0.493842 -0.062782
-0.211548 -0.270463 0.415592
0.231486 -0.267885 -0.421726
0.092193 -0.460415 0.186802
0.277307 -0.324295 0.375239
-0.246038 -0.194237 0.456110
0.136396 0.094396 0.486924
-0.048085 -0.491873 -0.076387
-0.169240 -0.012862 0.495601
-0.009123 -0.101325 0.485236
0.261959 0.315403 0.383594
-0.119503 -0.497253 -0.016243
0.084032 0.480040 -0.136790
0.038236 0.276016 -0.416956
0.167613 0.277330 0.411856
0.085869 0.206123 -0.455935
-0.099244 0.306321 0.390836
-0.257539 -0.441627 -0.231436
0.120381 -0.250301 -0.432446
-0.154553 0.302570 -0.398044
0.105451 -0.493684 -0.063874
0.115773 0.292691 0.401114
-0.196092 -0.444589 0.221252
-0.241474 0.255914 0.425295
0.195952 -0.417732 0.268361
-0.016420 0.246562 0.430997
-0.145257 -0.059686 -0.496509
-0.006081 0.443309 -0.229984
0.041698 -0.463707 -0.182696
-0.001614 -0.153767 -0.475704
0.235761 0.494914 -0.061726
0.099000 0.480799 0.129231
0.176861 -0.380500 0.318680
-0.144437 -0.478468 -0.138317
-0.029521 0.168448 -0.470978
0.240814 -0.427298 -0.257108
0.011826 -0.196983 0.454965
0.256518 0.352844 -0.354104
-0.045090 -0.268258 0.417048
-0.177814 -0.454010 -0.205956
-0.020558 0.384127 0.315407
-0.045998 0.352986 0.349594
-0.021171 -0.232695 -0.442130
0.246739 -0.268587 -0.421298
0.284314 -0.191023 -0.462002
-0.278255 0.164563 0.468105
0.008996 0.484978 -0.117222
0.018851 -0.424815 -0.261439
-0.223895 -0.096058 -0.490815
0.018733 0.122203 0.480710
-0.019340 0.479493 0.133962
0.161681 -0.451712 0.206296
-0.046294 0.085468 -0.493008
0.142863 -0.402610 0.290242
0.180810 -0.253964 -0.430212
0.011575 0.166499 -0.471650
0.207692 -0.416619 -0.274118
-0.159540 0.497471 0.030048
0.141225 0.338816 0.363231
0.171310 0.286407 0.405509
-0.090425 -0.232813 -0.442068
0.178313 0.172227 -0.469674
0.256243 0.288451 0.404079
0.171264 -0.158689 0.469637
-0.215165 0.333159 -0.372866
0.008297 0.311504 -0.391304
-0.174721 -0.348078 -0.357937
0.164986 0.498103 0.021579
-0.002257 -0.078514 -0.493835
-0.038609 -0.091573 -0.491587
-0.180385 -0.179554 0.462231
0.062357 -0.365579 -0.339960
-0.161847 -0.494441 -0.058640
0.266787 -0.063664 -0.496079
0.093368 -0.355933 0.345746
0.246669 0.175536 -0.468533
0.096560 0.475948 -0.150200
-0.200814 -0.059493 -0.496529
-0.212485 -0.497278 -0.014884
0.242245 -0.392017 0.304238
-0.087010 0.488242 0.098152
-0.157288 0.287849 0.404499
-0.230869 0.467241 -0.175695
0.181038 -0.497175 -0.020590
0.025324 -0.494887 0.048140
-0.283752 0.095226 -0.491082
-0.020582 0.157367 0.470565
0.239593 0.490545 0.087157
-0.284179 -0.274931 -0.417171
0.049562 -0.383447 0.314985
-0.087836 0.276746 0.412265
0.149039 0.484406 0.116168
-0.257778 0.495789 0.050813
-0.126896 0.247243 0.430581
-0.089105 0.493378 0.068720
-0.097781 0.188443 0.459144
0.279277 0.460750 0.187894
0.261979 0.217627 0.446170
0.216543 -0.433024 -0.247122
-0.033535 0.132754 -0.482234
-0.168797 -0.450822 0.208279
0.126449 -0.493048 0.065155
-0.064819 0.451046 -0.214417
0.080575 0.012620 -0.499977
-0.029760 -0.350655 0.350884
-0.156521 -0.402197 -0.295165
-0.204141 -0.451694 -0.211006
0.038748 -0.284957 0.406023
-0.067564 0.356645 0.345836
0.025805 0.178949 -0.467264
0.123964 -0.452318 -0.209739
0.165693 -0.010870 -0.500105
0.046782 0.488818 -0.100675
-0.026520 -0.011156 0.495632
0.240025 -0.490201 -0.087949
-0.092958 -0.413472 0.274711
-0.109794 -0.006923 -0.500282
0.154766 -0.456124 0.196463
-0.236293 -0.495608 -0.044755
0.218909 0.381830 0.318084
-0.085095 -0.327672 -0.376750
-0.145317 -0.105604 0.484340
-0.178855 -0.280834 0.408745
-0.253960 0.225943 0.441871
-0.027545 0.487573 0.101344
0.079347 0.406770 0.286109
0.239407 0.497964 -0.024177
-0.034451 0.346812 -0.359977
0.155910 -0.497403 -0.007915
0.078376 0.434166 0.242565
0.029972 0.396849 -0.303816
0.217316 0.259076 -0.427904
0.226149 0.444752 0.222820
0.216557 0.331593 0.369773
0.001859 0.317880 -0.385977
0.193063 -0.368090 -0.337256
-0.129269 -0.361533 -0.344115
0.164626 -0.404655 0.287318
0.281427 0.209799 -0.454157
0.271736 -0.311000 0.386557
-0.068438 0.437287 0.237122
0.225337 0.263175 0.420868
-0.259646 -0.494639 -0.056716
-0.005503 -0.244463 -0.435934
-0.053174 0.494760 -0.063150
-0.080533 0.353213 0.349361
-0.267233 -0.297454 -0.401419
-0.175614 0.087912 0.488040
0.107008 -0.113487 0.482689
-0.057451 -0.177988 -0.467036
0.062316 -0.065732 0.491362
-0.096291 -0.058875 0.492354
0.004292 -0.442037 -0.230603
-0.138384 -0.136454 0.476576
-0.203762 -0.067969 0.491038
-0.116786 0.171330 0.465566
-0.124124 0.029862 -0.499368
0.059752 0.472465 -0.161618
-0.110613 0.380592 -0.324204
-0.082460 -0.414818 0.272787
-0.092703 0.434702 0.241630
0.073820 -0.365723 0.335213
0.209606 -0.185422 0.459785
-0.067737 0.497191 0.033511
0.180432 0.239626 0.434667
-0.134724 0.341264 -0.365379
-0.003927 0.305134 0.391782
0.106739 -0.031736 0.494780
0.282524 0.178387 -0.467499
0.065715 -0.339535 0.361710
0.213977 -0.068837 0.490912
-0.051827 -0.142744 0.474840
-0.191624 0.373320 -0.332310
-0.191136 -0.324350 0.375192
0.073556 0.480639 0.129813
-0.174535 -0.055157 0.492883
0.252604 -0.405993 -0.290134
-0.098755 -0.457291 -0.198086
0.068349 -0.485317 -0.111575
-0.221634 0.477040 -0.146622
0.091760 0.153969 -0.475973
-0.041760 -0.429023 0.249840
0.144107 -0.115265 0.482316
-0.131036 0.126765 -0.483887
0.024770 0.261902 -0.426274
-0.067927 0.358669 -0.348434
-0.007673 -0.260976 0.421855
0.153077 -0.054163 0.492963
0.109571 0.388674 0.310094
0.038173 -0.260991 0.421845
0.010201 0.209969 -0.454074
-0.246215 -0.232624 -0.442167
0.011076 -0.252945 -0.430834
-0.204737 -0.441925 0.226313
0.156164 -0.025230 0.495307
-0.081902 -0.489475 0.086553
0.185434 0.484611 -0.118765
-0.004998 -0.495674 -0.043931
-0.146341 0.038006 -0.498709
0.057105 0.126032 -0.484089
-0.194602 -0.036046 -0.498976
-0.170328 0.179623 0.462454
-0.165676 -0.351572 0.349992
