0.286960 0.421127 0.236971
0.286960 -0.093357 0.470337
0.286960 0.303334 0.327019
0.286960 -0.299299 -0.345356
0.286960 0.126036 0.463431
0.286960 0.474320 -0.014642
0.286960 0.065105 -0.453036
0.286960 0.489765 -0.015359
0.286960 -0.103415 -0.439762
0.286960 0.478400 -0.062087
0.286960 -0.447996 -0.190871
0.286960 0.258004 -0.371552
0.286960 0.089610 -0.454071
0.286960 0.045597 -0.459284
0.286960 -0.440202 0.217267
0.286960 -0.073922 -0.473981
0.286960 0.347789 -0.350206
0.286960 -0.249408 -0.395519
0.286960 0.445362 -0.153833
0.286960 0.455137 0.112074
0.286960 0.102221 0.435429
0.286960 0.193077 0.425296
0.286960 -0.311855 0.365106
0.286960 0.254684 0.419616
0.286960 -0.225436 -0.428877
0.286960 -0.322230 -0.361636
0.286960 -0.365352 -0.323500
0.286960 -0.487189 0.097920
0.286960 -0.441005 0.057045
0.286960 0.198629 -0.458943
0.286960 0.114702 -0.442674
0.286960 -0.410784 0.270588
0.286960 -0.301609 0.369774
0.286960 -0.481046 0.041878
0.286960 0.256873 -0.421263
0.286960 -0.469450 -0.150081
0.286960 0.262893 -0.403233
0.286960 -0.260495 0.363930
0.286960 0.119585 -0.435823
0.286960 -0.471394 0.004288
0.286960 -0.301036 -0.354154
0.286960 -0.173069 0.433812
0.286960 -0.312626 0.359336
0.286960 0.207333 0.427105
0.286960 -0.445649 0.200669
0.286960 0.477497 -0.070027
0.286960 -0.026786 0.464109
0.286960 -0.335724 0.294250
0.286960 -0.160611 -0.470679
0.286960 0.165803 -0.457681
0.286960 0.385369 -0.268543
0.286960 -0.358836 0.307835
0.286960 0.427220 0.190296
0.286960 0.443878 -0.194856
0.286960 0.429181 -0.215838
0.286960 0.458686 0.123897
0.286960 0.308427 -0.355318
0.286960 0.490240 -0.089143
0.286960 -0.304908 0.358127
0.286960 -0.427040 0.219108
0.286960 0.021361 -0.457356
0.286960 -0.277967 -0.352015
0.286960 -0.262920 -0.362030
0.286960 0.241784 0.387357
0.286960 -0.459139 0.143525
0.286960 -0.479061 0.035284
0.286960 0.490025 -0.006209
0.286960 0.088482 -0.439170
0.286960 -0.175321 0.421924
0.286960 0.457885 -0.105557
0.286960 -0.203246 0.451190
0.286960 -0.101854 0.456127
0.286960 -0.249880 -0.388209
0.286960 0.310742 -0.389683
0.286960 -0.319806 -0.368282
0.286960 0.403526 -0.202191
0.286960 0.448262 0.130172
0.286960 0.148791 -0.430772
0.286960 -0.230986 0.419343
0.286960 -0.218338 -0.408370
0.286960 -0.372256 -0.272855
0.286960 -0.185077 0.443221
0.286960 -0.416769 0.245609
0.286960 0.207635 -0.410352
0.286960 -0.443237 0.209069
0.286960 0.009550 -0.455141
0.286960 0.424717 -0.187864
0.286960 -0.471074 -0.056572
0.286960 -0.170480 0.462581
0.286960 0.183735 0.441484
0.286960 -0.247955 -0.382939
0.286960 0.008824 0.477986
0.286960 -0.172608 -0.412429
0.286960 0.450965 0.190483
0.286960 -0.365916 -0.297720
0.286960 -0.446793 -0.135369
0.286960 -0.452510 0.071420
0.286960 -0.294821 0.331920
0.286960 -0.379780 -0.312971
0.286960 0.444063 0.038736
0.286960 0.196660 0.432170
0.286960 -0.220057 0.434407
0.286960 -0.410849 0.262175
0.286960 0.460678 -0.020292
0.286960 -0.371287 0.304098
0.286960 -0.044724 -0.446857
0.286960 0.396747 0.280127
0.286960 -0.071550 0.488836
0.286960 0.259466 0.403793
0.286960 0.452293 -0.139048
0.286960 -0.203427 -0.455311
0.286960 -0.236253 0.398467
0.286960 -0.211227 -0.436246
0.286960 -0.298486 0.330271
0.286960 0.233056 0.412832
0.286960 -0.418780 0.165015
0.286960 -0.348737 0.312718
0.286960 -0.219044 0.431291
0.286960 0.058955 -0.493112
0.286960 -0.366253 -0.254679
0.286960 0.229077 -0.391525
0.286960 -0.344086 0.340600
0.286960 -0.038199 0.445425
0.286960 -0.312415 -0.356348
0.286960 0.301372 0.330818
0.286960 -0.182788 -0.447089
0.286960 0.349150 0.317689
0.286960 -0.423386 -0.249833
0.286960 -0.008147 -0.490598
0.286960 -0.147883 0.462069
0.286960 -0.450957 -0.054456
0.286960 -0.079611 0.470449
0.286960 0.129715 -0.479850
0.286960 0.458016 -0.049710
0.286960 0.443157 -0.095185
0.286960 0.421765 0.148882
0.286960 0.483945 0.040602
0.286960 -0.094297 0.479888
0.286960 -0.427622 0.227423
0.286960 0.373399 0.286924
0.286960 -0.252485 0.376735
0.286960 0.181663 -0.455094
0.286960 -0.013461 0.471312
0.286960 0.445206 0.135717
0.286960 0.008080 0.448603
0.286960 0.000133 -0.467512
0.286960 0.059848 -0.474113
0.286960 0.296120 -0.381606
0.286960 0.407206 0.216133
0.286960 0.347422 0.304747
0.286960 -0.491533 -0.035860
0.286960 0.136041 -0.450026
0.286960 -0.366357 -0.337456
0.286960 0.145443 0.450671
0.286960 0.458844 0.136926
0.286960 -0.043907 0.478732
0.286960 -0.012395 0.488420
0.286960 -0.302573 0.378737
0.286960 -0.045451 -0.465199
0.286960 0.451600 -0.150849
0.286960 -0.412133 -0.181766
0.286960 -0.233638 0.406123
0.286960 -0.069916 -0.465353
0.286960 -0.100469 0.467531
0.286960 0.435755 -0.164882
0.286960 -0.421137 -0.161267
0.286960 0.054490 0.483366
0.286960 0.065374 0.488478
0.286960 -0.148056 -0.474359
0.286960 0.465744 0.021845
0.286960 -0.463660 0.022288
0.286960 0.374293 0.308301
0.286960 -0.071276 -0.462047
0.286960 -0.323036 -0.343170
0.286960 0.494130 -0.064175
0.286960 0.288963 -0.359397
0.286960 0.163304 -0.472041
0.286960 -0.453740 -0.130825
0.286960 -0.239593 -0.413330
0.286960 -0.382562 0.262035
0.286960 -0.356316 -0.309038
0.286960 -0.301737 0.358135
0.286960 0.332204 0.295475
0.286960 -0.352456 0.297460
0.286960 0.341568 -0.306687
0.286960 0.381363 0.251556
0.286960 0.485820 -0.080207
0.286960 -0.036599 0.485035
0.286960 0.285018 -0.375715
0.286960 0.290619 -0.389507
0.286960 -0.479920 -0.004875
0.286960 -0.402616 0.201052
0.286960 -0.310937 0.344818
0.286960 -0.468242 -0.088782
0.286960 0.479249 -0.007737
0.286960 0.440664 -0.073549
0.286960 -0.417407 0.202304
0.286960 -0.084377 0.465304
0.286960 -0.192400 0.405399
0.286960 -0.075314 -0.450375
0.286960 0.361707 -0.274045
0.286960 0.462726 0.027942
0.286960 0.483818 -0.029327
0.286960 -0.124350 -0.437046
0.286960 -0.468900 -0.156171
0.286960 0.448202 -0.220640
0.286960 -0.470980 0.103588
0.286960 -0.042521 -0.482923
0.286960 0.402079 0.262677
0.286960 0.057661 0.453460
0.286960 -0.438686 0.163298
0.286960 0.215391 -0.397211
0.286960 -0.259845 0.386949
0.286960 -0.401219 -0.230586
0.286960 0.357690 0.300056
0.286960 -0.147971 0.434798
0.286960 0.389385 -0.238245
0.286960 -0.428180 -0.223782
0.286960 0.412219 -0.177242
0.286960 0.465205 -0.079633
0.286960 -0.348645 -0.349803
0.286960 0.122689 0.463826
0.286960 -0.478020 0.043287
0.286960 -0.309424 0.378037
0.286960 -0.444491 -0.189336
0.286960 0.226248 0.419364
0.286960 -0.153553 -0.471876
0.286960 -0.352705 0.316552
0.286960 -0.420790 -0.148405
0.286960 -0.273551 -0.409773
0.286960 -0.203630 -0.447226
0.286960 0.334296 -0.302587
0.286960 0.376698 -0.277567
0.286960 0.451425 0.017578
0.286960 -0.046022 0.493381
0.286960 0.428271 0.199992
0.286960 -0.412436 -0.170129
0.286960 0.425534 -0.259844
0.286960 0.368573 -0.323167
0.286960 0.097532 0.475661
0.286960 0.034166 0.451786
0.286960 -0.002973 0.486687
0.286960 -0.373943 0.305689
0.286960 0.468761 0.013953
0.286960 -0.052980 0.489404
0.286960 -0.443692 -0.064685
0.286960 0.300959 -0.376108
0.286960 0.385458 -0.317555
0.286960 0.326916 0.339079
0.286960 -0.261344 -0.369083
0.286960 -0.414451 0.204113
0.286960 -0.425612 0.224200
0.286960 0.350877 0.336910
0.286960 0.351512 0.310570
0.286960 -0.484583 0.091297
0.286960 -0.075122 -0.489204
0.286960 -0.065154 -0.446312
0.286960 -0.334151 0.356633
0.286960 0.401097 0.203837
0.286960 0.311585 0.336063
0.286960 0.349601 -0.300594
0.286960 0.308106 -0.349899
0.286960 -0.369793 -0.257187
0.286960 -0.302989 0.374280
0.286960 -0.315102 0.339829
0.286960 0.384680 -0.290723
0.286960 -0.421487 -0.214018
0.286960 -0.072109 0.437307
0.286960 0.005722 0.486860
0.286960 0.390084 -0.229951
0.286960 -0.474508 -0.076322
0.286960 0.486661 0.050380
0.286960 -0.249059 -0.370868
0.286960 0.241683 -0.380293
0.286960 -0.440691 -0.100208
0.286960 -0.150388 0.459627
0.286960 -0.235228 -0.431993
0.286960 0.478503 0.071104
0.286960 -0.062582 -0.481608
0.286960 0.428114 0.146228
0.286960 -0.072457 0.460969
0.286960 -0.183193 0.429543
0.286960 0.357688 0.304099
0.286960 0.206368 -0.397306
0.286960 -0.277469 -0.392613
0.286960 -0.224449 0.406219
0.286960 -0.182675 -0.423747
0.286960 0.285092 0.340736
0.286960 0.406908 -0.220983
0.286960 0.321575 0.329746
0.286960 -0.316561 0.352531
0.286960 -0.081256 -0.493096
0.286960 -0.416727 -0.169153
0.286960 -0.403262 0.190267
0.286960 0.283601 0.370549
0.286960 -0.072788 0.448870
0.286960 0.347270 0.348352
0.286960 0.365971 0.321475
0.286960 -0.449340 0.137898
0.286960 0.290416 -0.351810
0.286960 -0.424051 -0.253881
0.286960 -0.157151 0.426996
0.286960 -0.412455 0.214819
0.286960 -0.293654 -0.340521
0.286960 0.313927 0.340119
0.286960 -0.364043 -0.274876
0.286960 -0.120934 -0.456144
0.286960 0.299927 -0.367332
0.286960 0.329876 -0.360534
0.286960 0.430624 0.248292
0.286960 -0.448387 0.141951
0.286960 0.457513 0.145963
0.286960 -0.385646 -0.311733
0.286960 0.459227 0.131141
0.286960 -0.090118 -0.479537
0.286960 -0.444889 -0.070501
0.286960 0.171176 -0.424891
0.286960 0.417571 0.221087
0.286960 0.382977 -0.238903
0.286960 0.467589 -0.009997
0.286960 -0.205253 0.423224
0.286960 -0.420509 0.218007
0.286960 -0.430279 0.218322
0.286960 -0.470894 0.143420
0.286960 -0.161854 0.413030
0.286960 -0.467142 0.101970
0.286960 -0.452061 0.042760
0.286960 0.446405 -0.103513
0.286960 0.328357 0.355134
0.286960 -0.397307 -0.211436
0.286960 0.112122 -0.482713
0.286960 -0.359078 0.311138
0.286960 0.199126 -0.449164
0.286960 0.228348 0.392778
0.286960 -0.000887 0.489746
0.286960 0.193699 0.403232
0.286960 -0.490677 0.045106
0.286960 -0.332641 -0.313570
0.286960 -0.064546 -0.443069
0.286960 0.200220 -0.418824
0.286960 -0.381431 0.290432
0.286960 0.466658 0.131235
0.286960 -0.230929 0.398413
0.286960 0.366361 -0.339247
0.286960 -0.341048 0.300569
0.286960 -0.359594 0.293785
0.286960 -0.485090 0.060653
0.286960 0.486053 -0.046084
0.286960 -0.058231 -0.484268
0.286960 -0.149164 0.417304
0.286960 -0.265089 0.377236
0.286960 0.038475 0.476673
0.286960 -0.010379 -0.487698
0.286960 -0.127550 -0.444280
0.286960 0.448281 0.178088
0.286960 0.373434 -0.256477
0.286960 -0.385499 -0.304156
0.286960 -0.214850 0.430361
0.286960 0.029702 0.468576
0.286960 -0.211436 0.389725
0.286960 0.077348 -0.471581
0.286960 0.180138 -0.435928
0.286960 -0.319058 0.327181
0.286960 -0.179977 0.460434
0.286960 0.461695 -0.052746
0.286960 -0.287163 -0.390142
0.286960 0.144706 -0.475971
0.286960 0.329905 -0.356641
0.286960 0.094926 0.433637
0.286960 -0.210386 0.401871
0.286960 0.324928 0.325101
0.286960 -0.075249 0.452827
0.286960 0.099103 -0.486769
0.286960 -0.444584 0.083296
0.286960 -0.413936 -0.264624
0.286960 -0.434298 0.164730
0.286960 -0.200862 -0.420234
0.286960 -0.393907 -0.253440
0.286960 0.496565 0.039038
0.286960 -0.413265 -0.241195
0.286960 0.146224 0.427920
0.286960 0.164888 -0.453806
0.286960 -0.482306 -0.116194
0.286960 -0.319078 -0.351990
0.286960 -0.409380 0.258743
0.286960 -0.277640 0.392684
0.286960 0.462384 0.130786
0.286960 -0.235892 -0.401315
0.286960 -0.376236 0.317766
0.286960 0.106164 0.456668
0.286960 -0.386197 -0.227288
0.286960 0.017338 0.448773
0.286960 0.363733 0.325685
0.286960 0.378911 0.281874
0.286960 0.450496 0.167688
0.286960 0.497267 0.008844
0.286960 0.345702 0.317979
0.286960 0.103877 0.473701
0.286960 0.266173 -0.415774
0.286960 -0.424758 -0.218967
0.286960 -0.438476 -0.082912
0.286960 -0.327542 -0.316258
0.286960 -0.336131 0.310143
0.286960 -0.304599 0.332516
0.286960 -0.431541 0.166666
0.286960 -0.102507 0.459395
0.286960 -0.423210 -0.221719
0.286960 0.373621 -0.285978
0.286960 -0.327483 0.316112
0.286960 -0.182974 0.440258
0.286960 0.323563 -0.314453
0.286960 -0.035034 -0.485928
0.286960 0.363966 -0.317120
0.286960 -0.395941 -0.287973
0.286960 -0.229498 0.409063
0.286960 -0.411721 0.239001
0.286960 -0.363500 0.295448
0.286960 -0.003897 0.462835
0.286960 -0.396570 0.275305
0.286960 -0.009292 0.449728
0.286960 0.465836 -0.119991
0.286960 -0.455435 0.141367
0.286960 0.363110 -0.320950
0.286960 0.335094 -0.338780
0.286960 -0.448048 -0.016162
0.286960 0.484018 0.096717
0.286960 -0.127024 -0.447573
0.286960 -0.091633 -0.464124
0.286960 -0.368897 0.264641
0.286960 -0.383368 -0.295406
0.286960 0.165810 0.454541
0.286960 -0.473495 0.001288
0.286960 0.164252 0.428616
0.286960 0.412704 0.251968
0.286960 0.448221 0.192765
0.286960 0.196913 -0.421710
0.286960 -0.069576 0.469963
0.286960 -0.067271 0.491090
0.286960 -0.394702 0.212695
0.286960 0.472441 -0.154671
0.286960 -0.290069 -0.396212
0.286960 -0.460939 -0.050411
0.286960 0.107879 0.472474
0.286960 0.013144 0.481846
0.286960 0.379913 0.231668
0.286960 -0.257138 0.369261
0.286960 -0.132606 -0.431647
0.286960 0.084177 -0.446497
0.286960 0.231799 -0.431572
0.286960 -0.432368 0.135223
0.286960 -0.251588 0.372836
0.286960 0.485050 -0.103480
0.286960 -0.469523 -0.022799
0.286960 0.368310 0.318127
0.286960 0.250827 0.366905
0.286960 -0.454590 0.175288
0.286960 -0.284891 -0.392628
0.286960 -0.194166 0.426015
0.286960 -0.094735 0.443586
0.286960 0.439533 0.159286
0.286960 -0.459550 -0.140335
0.286960 0.211577 0.398090
0.286960 -0.286032 0.387428
0.286960 0.408027 0.195000
0.286960 -0.330549 0.358338
0.286960 0.318294 -0.315587
0.286960 0.083177 0.457014
0.286960 0.335735 0.324557
0.286960 -0.240575 0.404923
0.286960 -0.141565 0.460638
0.286960 -0.082145 -0.480661
0.286960 0.340813 0.329813
0.286960 -0.291668 0.335211
0.286960 -0.043860 0.449626
0.286960 0.341847 0.284082
0.286960 -0.459119 0.072738
0.286960 -0.269388 -0.370560
0.286960 -0.325533 0.362709
0.286960 0.496989 0.027823
0.286960 -0.138269 -0.450969
0.286960 -0.135223 0.446274
0.286960 -0.180400 0.428202
0.286960 0.383864 0.227143
0.286960 0.482555 0.022807
0.286960 0.065140 -0.459564
0.286960 -0.222096 -0.447618
0.286960 0.158905 0.432143
0.286960 0.352971 0.340019
0.286960 -0.080941 -0.489896
0.286960 -0.202087 -0.451472
0.286960 0.346358 -0.300405
0.286960 -0.033847 0.456025
0.286960 0.432541 0.109463
0.286960 0.441371 0.088796
0.286960 -0.478162 -0.110171
0.286960 0.439564 -0.123372
0.286960 -0.140359 -0.477771
0.286960 0.399875 -0.257499
0.286960 -0.496237 0.015391
0.286960 0.228135 0.424815
0.286960 -0.298559 0.361464
0.286960 -0.321110 0.343488
0.286960 0.272774 -0.361490
0.286960 -0.493179 0.028859
0.286960 -0.347861 0.332832
0.286960 0.378022 -0.302846
0.286960 -0.425934 -0.150665
0.286960 -0.324490 -0.315902
0.286960 -0.299934 -0.330926
0.286960 -0.412467 0.178332
0.286960 0.259364 -0.364720
0.286960 0.407741 -0.234542
0.286960 -0.115422 0.432330
0.286960 0.054157 -0.485465
0.286960 0.427138 -0.170325
0.286960 0.203684 -0.427584
0.286960 -0.127792 -0.462473
0.286960 0.467118 0.073600
0.286960 0.129439 0.470261
0.286960 0.391036 0.264315
0.286960 0.431233 0.223774
0.286960 0.458975 -0.146582
0.286960 0.471264 -0.028193
0.286960 -0.107408 0.446382
0.286960 0.130746 -0.427981
0.286960 0.368929 -0.312179
0.286960 -0.444110 0.066305
0.286960 -0.027253 -0.494024
0.286960 -0.481562 0.090884
0.286960 0.199083 -0.455165
0.286960 0.073870 0.458816
0.286960 -0.477274 0.080458
0.286960 0.417150 0.155915
0.286960 0.220917 0.394599
0.286960 0.126586 0.450054
0.286960 -0.140153 -0.454209
0.286960 0.029151 0.445285
0.286960 -0.042102 -0.456095
0.286960 0.005227 0.458780
0.286960 0.026672 -0.470292
0.286960 0.436530 -0.092627
0.286960 0.335620 0.339466
0.286960 -0.023922 0.493872
0.286960 0.220056 -0.448863
0.286960 -0.442349 -0.141540
0.286960 -0.204699 0.428933
0.286960 -0.247712 -0.406726
0.286960 -0.097332 0.476517
0.286960 -0.333760 0.296595
0.286960 -0.410510 -0.190065
0.286960 0.425092 -0.244665
0.286960 -0.086383 0.446276
0.286960 0.478978 0.098464
0.286960 0.443710 -0.054775
0.286960 -0.218107 -0.442788
0.286960 -0.271299 0.388055
0.286960 0.419289 0.168002
0.286960 -0.421798 -0.264887
0.286960 -0.404715 -0.228862
0.286960 -0.428524 -0.158495
0.286960 0.473418 -0.051476
0.286960 -0.424240 -0.178077
0.286960 -0.112211 -0.441275
0.286960 0.386833 0.271181
0.286960 -0.121176 0.458321
0.286960 0.473150 -0.094255
0.286960 0.220410 0.411477
0.286960 0.468522 -0.046443
0.286960 0.398006 0.271017
0.286960 -0.246937 -0.402899
0.286960 -0.462172 0.064252
0.286960 -0.192386 0.409234
0.286960 0.496110 -0.039757
0.286960 -0.486696 0.039914
0.286960 0.445852 0.164935
0.286960 -0.038567 -0.498546
0.286960 -0.008832 -0.459653
0.286960 -0.379731 0.318488
0.286960 0.471769 -0.048675
0.286960 -0.475802 -0.096787
0.286960 0.063314 0.451880
0.286960 0.210582 0.426168
0.286960 -0.383749 -0.282702
0.286960 0.420662 0.175716
0.286960 -0.204063 -0.408670
0.286960 -0.361321 -0.272255
0.286960 -0.395313 -0.250162
0.286960 -0.017837 0.489821
0.286960 0.443369 0.103029
0.286960 -0.287149 -0.370776
0.286960 -0.451583 0.112464
0.286960 0.178942 -0.412621
0.286960 -0.315521 0.346795
0.286960 0.344775 0.326493
0.286960 0.246040 -0.374167
0.286960 0.257623 -0.426294
0.286960 0.426302 0.132633
0.286960 -0.433646 -0.190087
0.286960 0.496534 0.002733
0.286960 0.136238 0.441596
0.286960 -0.496540 -0.033174
0.286960 0.263017 0.400056
0.286960 0.133605 -0.447230
0.286960 -0.436342 -0.171859
0.286960 0.418231 0.212118
0.286960 0.376537 -0.271809
0.286960 -0.078640 -0.461578
0.286960 -0.373568 0.248998
0.286960 0.479210 0.126469
0.286960 0.451606 0.170586
0.286960 -0.164425 0.426300
0.286960 0.342155 -0.288581
0.286960 -0.497528 -0.000409
0.286960 -0.363617 0.315831
0.286960 0.408686 -0.256425
0.286960 -0.490106 -0.087111
0.286960 -0.428425 -0.171600
0.286960 0.169863 0.434699
0.286960 -0.452071 0.163829
0.286960 -0.101408 0.475535
0.286960 0.448966 0.078668
0.286960 -0.184770 0.407382
0.286960 0.283930 0.377395
0.286960 -0.368776 0.278016
0.286960 -0.307758 -0.360587
0.286960 -0.394020 -0.213976
0.286960 0.468301 -0.147892
0.286960 -0.189067 0.415752
0.286960 -0.433775 -0.163400
0.286960 -0.476706 -0.125220
0.286960 -0.412712 0.274647
0.286960 0.330877 -0.301814
0.286960 0.311365 -0.334079
0.286960 -0.164301 0.416943
0.286960 0.409692 0.203699
0.286960 -0.484779 0.018716
0.286960 0.204150 -0.455556
0.286960 -0.146126 0.428371
0.286960 0.411781 0.211004
0.286960 0.439640 -0.158858
0.286960 -0.465406 -0.095496
0.286960 -0.429014 0.130186
0.286960 0.374265 0.298792
0.286960 0.054259 0.459980
0.286960 0.308817 0.348422
0.286960 0.483056 -0.061326
0.286960 0.396369 0.283587
0.286960 -0.003036 -0.474014
0.286960 0.485863 -0.072203
0.286960 -0.024714 0.453755
0.286960 -0.136124 0.436145
0.286960 0.427049 -0.143119
0.286960 -0.231773 -0.420951
0.286960 0.280531 -0.366772
0.286960 0.236643 0.384596
0.286960 0.395362 0.261675
0.286960 0.120439 0.428510
0.286960 -0.256943 -0.420823
0.286960 -0.252841 0.388364
0.286960 -0.246639 0.407635
0.286960 -0.102135 -0.458979
0.286960 0.445328 -0.145634
0.286960 -0.247896 -0.419446
0.286960 -0.443372 -0.167369
0.286960 -0.310803 -0.390326
0.286960 0.241123 0.433378
0.286960 -0.075650 0.436745
0.286960 -0.420871 0.142127
0.286960 0.460874 -0.162403
0.286960 0.439882 0.076739
0.286960 0.172574 -0.465144
0.286960 -0.157296 0.452287
0.286960 0.091396 0.473721
0.286960 -0.271098 -0.391651
0.286960 -0.168558 -0.430049
0.286960 0.257672 0.382582
0.286960 0.333593 -0.308440
0.286960 -0.163409 -0.472477
0.286960 -0.068219 -0.452567
0.286960 -0.431167 -0.147333
0.286960 -0.456937 0.065623
0.286960 -0.473738 0.059852
0.286960 0.447058 0.182544
0.286960 -0.465182 -0.004841
0.286960 -0.443758 -0.095793
0.286960 0.484441 -0.035750
0.286960 0.483622 -0.113773
0.286960 0.246773 -0.417756
0.286960 -0.053141 -0.472610
0.286960 0.491311 0.057747
0.286960 -0.346681 -0.332804
0.286960 0.430479 -0.212309
0.286960 -0.229168 -0.427601
0.286960 0.177035 0.419360
0.286960 0.322782 0.305511
0.286960 0.009899 -0.471675
0.286960 0.454227 -0.207213
0.286960 0.243476 0.371761
0.286960 -0.485709 -0.107609
0.286960 0.466306 0.011409
0.286960 -0.489453 -0.056266
0.286960 0.410475 -0.216878
0.286960 -0.365544 0.308310
0.286960 -0.047963 -0.445936
0.286960 0.282840 0.381144
0.286960 0.254098 -0.425872
0.286960 0.481049 0.094755
0.286960 -0.450327 0.172996
0.286960 -0.143592 0.443841
0.286960 0.274019 -0.410943
0.286960 -0.038252 0.488952
0.286960 -0.310515 -0.377439
0.286960 0.304565 0.348819
0.286960 -0.381012 0.276249
0.286960 -0.395551 0.253144
0.286960 -0.015742 -0.465837
0.286960 -0.147427 -0.422773
0.286960 -0.007465 0.461320
0.286960 0.441746 -0.100867
0.286960 -0.007651 0.467922
0.286960 0.291090 0.369844
0.286960 -0.244560 -0.391612
0.286960 0.109315 0.476863
0.286960 0.480034 -0.040134
0.286960 -0.405891 0.238219
0.286960 0.085075 0.464074
0.286960 -0.401204 0.282734
0.286960 0.224638 -0.443154
0.286960 -0.351271 -0.321428
0.286960 0.481840 -0.124836
0.286960 -0.078452 -0.477924
0.286960 -0.444429 -0.192373
0.286960 -0.487363 -0.093913
0.286960 -0.037054 0.451637
0.286960 0.245213 0.431174
0.286960 0.244427 -0.431398
0.286960 -0.463961 0.089474
0.286960 -0.364742 -0.311952
0.286960 -0.282871 -0.357849
0.286960 0.158559 0.438683
0.286960 0.254050 -0.399840
0.286960 -0.419376 -0.236171
0.286960 0.428845 -0.138074
0.286960 0.008266 0.495620
0.286960 -0.454271 -0.069447
0.286960 -0.285213 -0.401687
0.286960 -0.226133 0.430082
0.286960 0.419726 -0.248577
0.286960 0.080695 0.438897
0.286960 0.415943 0.173506
0.286960 -0.128950 -0.472229
0.286960 -0.467851 -0.043182
0.286960 0.463171 -0.002151
0.286960 -0.197860 0.418307
0.286960 0.398612 -0.216540
0.286960 0.479448 0.038984
0.286960 -0.385807 -0.316351
0.286960 -0.382714 0.280673
0.286960 -0.404595 0.221310
0.286960 0.260389 -0.406755
0.286960 -0.435198 0.193974
0.286960 0.446306 0.118067
0.286960 -0.453883 -0.156883
0.286960 0.024579 0.479308
0.286960 0.428610 -0.153928
0.286960 0.262730 -0.418086
0.286960 -0.214782 0.425764
0.286960 -0.108195 0.469140
0.286960 -0.395856 -0.231976
0.286960 0.470019 -0.016712
0.286960 0.294751 -0.341034
0.286960 0.368794 -0.263098
0.286960 -0.483619 0.012708
0.286960 -0.444777 0.169465
0.286960 0.306191 -0.381363
0.286960 -0.423092 0.187630
0.286960 0.341539 0.291880
0.286960 0.401434 -0.212660
0.286960 -0.388694 0.293909
0.286960 0.479368 -0.106895
0.286960 0.482015 0.055652
0.286960 0.216070 0.427044
0.286960 0.454542 -0.021756
0.286960 0.482593 -0.117957
0.286960 -0.480546 0.014584
0.286960 -0.455433 0.003203
0.286960 -0.164432 0.467332
0.286960 0.135566 -0.430036
0.286960 0.401771 0.269742
0.286960 0.033399 0.461975
0.286960 -0.088555 -0.484706
0.286960 -0.137373 0.441870
0.286960 0.440430 0.170453
0.286960 0.474217 0.035337
0.286960 -0.158846 -0.433689
0.286960 -0.347227 -0.338957
0.286960 0.208564 0.418449
0.286960 -0.204505 0.447544
0.286960 0.423440 0.219192
0.286960 0.042897 0.466239
0.286960 -0.142496 0.440549
0.286960 0.429557 0.238755
0.286960 0.257036 0.413498
0.286960 0.302352 0.375870
0.286960 0.449492 0.201007
0.286960 -0.239697 0.416483
0.286960 0.294330 0.348178
0.286960 0.383941 0.260845
0.286960 -0.386719 0.225449
0.286960 -0.423567 0.230286
0.286960 -0.339529 0.333959
0.286960 -0.477457 0.002354
0.286960 0.109735 0.438182
0.286960 -0.051215 -0.464203
0.286960 -0.159280 0.433667
0.286960 0.434659 -0.205959
0.286960 -0.285488 0.347665
0.286960 0.114520 -0.465925
0.286960 0.242902 -0.383217
0.286960 0.427820 0.129906
0.286960 -0.433916 -0.205054
0.286960 0.388557 0.305694
0.286960 0.445693 -0.091195
0.286960 -0.038105 -0.454061
0.286960 -0.279165 0.357466
0.286960 0.440304 -0.203338
0.286960 -0.485115 0.032595
0.286960 -0.472505 0.037526
0.286960 -0.337066 0.324872
0.286960 -0.042380 0.473512
0.286960 -0.481377 0.037993
0.286960 0.342690 0.353378
0.286960 -0.421672 -0.188655
0.286960 -0.109617 0.482388
0.286960 0.468345 0.098817
0.286960 -0.054147 0.480695
0.286960 0.215241 -0.450084
0.286960 -0.354767 -0.285494
0.286960 0.098079 0.441434
0.286960 -0.263498 0.395059
0.286960 0.421558 0.213237
0.286960 0.334594 -0.329637
0.286960 0.281805 0.343329
0.286960 0.393272 -0.307949
0.286960 -0.446373 0.183607
0.286960 0.091088 0.452613
0.286960 -0.435644 0.089877
0.286960 0.437288 0.108836
0.286960 -0.462269 -0.046647
0.286960 -0.446951 0.080069
0.286960 -0.480516 -0.015475
0.286960 0.498203 -0.004458
0.286960 -0.451664 -0.003079
0.286960 0.409568 0.198642
0.286960 0.352178 -0.285006
0.286960 0.430693 -0.169440
0.286960 0.413692 0.181877
0.286960 0.367991 -0.326446
0.286960 0.393536 0.290256
0.286960 0.491204 -0.019964
0.286960 0.228787 0.397544
0.286960 -0.129567 -0.432955
0.286960 -0.010031 0.492141
0.286960 -0.406398 -0.279853
0.286960 -0.457568 -0.172431
0.286960 -0.141151 0.436307
0.286960 -0.323232 0.368856
0.286960 0.198850 0.453267
0.286960 -0.266498 0.372460
0.286960 0.445596 -0.020002
0.286960 -0.198049 0.437710
0.286960 -0.109583 -0.455358
0.286960 -0.269016 0.375256
0.286960 0.111629 0.461179
0.286960 0.273120 -0.397090
0.286960 0.400823 0.292310
0.286960 0.450004 0.115550
0.286960 -0.313756 0.355602
0.286960 0.452141 -0.029927
0.286960 0.134531 -0.440767
0.286960 -0.450936 0.129581
0.286960 -0.271819 0.393902
0.286960 0.190336 -0.461326
0.286960 -0.433523 0.138924
0.286960 0.419798 0.230992
0.286960 0.046938 0.457216
0.286960 0.403412 -0.234828
0.286960 0.405632 0.264376
0.286960 0.163216 -0.432161
0.286960 -0.467765 -0.054391
0.286960 -0.225288 -0.442052
0.286960 -0.012134 -0.473152
0.286960 0.079735 0.449770
0.286960 -0.094030 -0.467019
0.286960 0.077275 -0.449349
0.286960 -0.341211 -0.303660
0.286960 -0.160566 0.427511
0.286960 0.073188 -0.476621
0.286960 0.114688 0.457417
0.286960 0.242920 0.383938
0.286960 0.455864 0.027214
0.286960 -0.276946 -0.371046
0.286960 -0.103610 -0.484912
0.286960 0.217978 -0.405801
0.286960 -0.180636 -0.458262
0.286960 -0.456493 0.158017
0.286960 -0.301862 -0.348403
0.286960 -0.024086 -0.494360
0.286960 0.086341 -0.461706
0.286960 0.446468 -0.209622
0.286960 0.240417 -0.393315
0.286960 0.216157 0.399511
0.286960 0.095583 0.437795
0.286960 0.428281 0.126059
0.286960 -0.020645 -0.487223
0.286960 0.453714 0.081419
0.286960 0.440389 -0.227172
0.286960 0.013182 -0.454067
0.286960 0.430249 -0.223707
0.286960 -0.447022 0.186995
0.286960 -0.347646 -0.291194
0.286960 -0.204893 0.410713
0.286960 0.286921 -0.354056
0.286960 -0.065950 -0.468391
0.286960 -0.239264 0.373651
0.286960 -0.487822 0.068572
0.286960 0.403967 0.230238
0.286960 0.314897 0.332845
0.286960 0.445602 -0.070184
0.286960 0.219473 -0.390695
0.286960 0.438404 -0.206206
0.286960 -0.028773 -0.466420
0.286960 -0.129941 0.450912
0.286960 0.301880 -0.386512
0.286960 0.014542 0.451620
0.286960 0.419983 0.172186
0.286960 -0.411512 0.253080
0.286960 -0.427434 0.136618
0.286960 0.401450 0.195617
0.286960 0.078244 0.457620
0.286960 0.256037 0.388306
0.286960 0.019919 0.470216
0.286960 -0.164979 0.412258
0.286960 0.460558 0.030574
0.286960 -0.460477 0.160071
0.286960 0.153928 -0.435546
0.286960 0.451721 0.050073
0.286960 -0.466337 0.156696
0.286960 0.480272 0.016893
0.286960 0.372796 -0.269406
0.286960 -0.072744 -0.477205
0.286960 -0.372652 0.242129
0.286960 -0.216991 0.422149
0.286960 0.185314 -0.446043
0.286960 -0.383047 -0.239363
0.286960 0.352402 -0.327525
0.286960 -0.093218 0.463225
0.286960 -0.388685 -0.271630
0.286960 0.193198 0.429553
0.286960 0.145927 -0.452040
0.286960 -0.477734 0.007986
0.286960 -0.414448 -0.200173
0.286960 -0.265684 0.389310
0.286960 -0.406406 -0.269855
0.286960 0.384330 -0.243031
0.286960 0.440512 -0.193435
0.286960 0.493655 -0.033973
0.286960 -0.474045 0.042745
0.286960 0.465198 0.076627
0.286960 -0.196971 -0.408215
0.286960 0.368987 -0.333119
0.286960 -0.312759 -0.345072
0.286960 0.227822 -0.445037
0.286960 -0.423133 -0.140968
0.286960 0.482173 -0.109074
0.286960 0.297663 -0.351135
0.286960 0.450362 -0.072494
0.286960 -0.314934 -0.349245
0.286960 -0.435801 -0.196582
0.286960 0.342658 0.339728
0.286960 0.445839 0.022952
0.286960 0.345376 0.342975
0.286960 0.237462 0.434267
0.286960 0.290252 0.389393
0.286960 0.488782 -0.048991
0.286960 -0.115141 0.460317
0.286960 -0.406058 -0.248673
0.286960 -0.196647 0.454273
0.286960 -0.349769 -0.304908
0.286960 0.487214 0.082778
0.286960 -0.414438 -0.224868
0.286960 -0.045655 0.474783
0.286960 0.006188 -0.453781
0.286960 0.494096 0.061975
0.286960 -0.147581 0.465199
0.286960 0.473306 0.018167
0.286960 0.456241 -0.042654
0.286960 -0.335301 -0.356255
0.286960 0.491952 -0.041009
0.286960 -0.109481 0.452550
0.286960 0.285944 0.393942
0.286960 0.464498 -0.145527
0.286960 -0.446241 -0.169362
0.286960 0.337350 0.309879
0.286960 0.324141 -0.357654
0.286960 -0.303668 -0.332191
0.286960 -0.012426 0.456362
0.286960 -0.193378 0.418613
0.286960 0.459344 0.066111
0.286960 -0.460896 -0.017039
0.286960 0.136643 -0.456626
0.286960 -0.260640 0.396388
0.286960 -0.444364 0.017254
0.286960 -0.168954 -0.437395
0.286960 0.220639 -0.445306
0.286960 -0.472383 -0.002236
0.286960 0.434581 0.148585
0.286960 -0.371581 -0.297579
0.286960 -0.112754 -0.447699
0.286960 -0.307474 0.329211
0.286960 0.445997 0.053518
0.286960 -0.237659 -0.385975
0.286960 -0.226101 -0.401761
0.286960 -0.362722 -0.342051
0.286960 -0.483104 0.067972
0.286960 0.185577 0.403483
0.286960 -0.450887 0.185694
0.286960 -0.027055 0.488329
0.286960 0.456694 -0.195968
0.286960 0.068194 0.438451
0.286960 -0.115297 0.444214
0.286960 0.186165 -0.422038
0.286960 -0.469560 0.110422
0.286960 -0.050281 -0.470133
0.286960 -0.424754 -0.192305
0.286960 0.458740 0.140653
0.286960 0.257352 -0.414856
0.286960 0.254003 -0.389090
0.286960 0.448998 0.213752
0.286960 -0.243089 0.415810
0.286960 -0.461889 0.086216
0.286960 0.461959 0.068610
0.286960 -0.472998 0.083882
0.286960 0.356504 0.289536
0.286960 0.023406 0.472885
0.286960 0.228071 0.381812
0.286960 0.473004 -0.003391
0.286960 -0.489710 -0.006308
0.286960 -0.477656 -0.074895
0.286960 -0.194608 -0.442571
0.286960 0.481521 -0.043212
0.286960 0.430227 -0.144052
0.286960 0.196134 0.427684
0.286960 -0.440862 0.199335
0.286960 0.442560 -0.179052
0.286960 0.437340 0.187152
0.286960 -0.116241 -0.482737
0.286960 0.388556 -0.291167
0.286960 -0.387222 0.236246
0.286960 0.276027 -0.385747
0.286960 -0.284199 -0.376403
0.286960 -0.128802 -0.454762
0.286960 0.432268 -0.132854
0.286960 -0.442943 -0.081859
0.286960 0.094947 0.465797
0.286960 -0.425376 0.245241
0.286960 0.070279 -0.483898
0.286960 -0.222721 0.400512
0.286960 -0.354370 -0.300385
0.286960 0.173146 -0.420012
0.286960 0.253997 -0.383636
0.286960 -0.029008 0.473619
0.286960 -0.281730 0.365105
0.286960 0.263876 -0.370704
0.286960 -0.053261 -0.444901
0.286960 0.429983 -0.120102
0.286960 -0.433346 -0.170440
0.286960 -0.367577 -0.331517
0.286960 0.238194 0.379942
0.286960 -0.474440 0.092182
0.286960 0.483123 0.036509
0.286960 -0.474952 -0.026044
0.286960 0.266138 -0.374789
0.286960 -0.424586 0.135107
0.286960 -0.399281 0.229563
0.286960 -0.082738 0.441526
0.286960 -0.266246 -0.359841
0.286960 -0.027840 0.447417
0.286960 0.287398 -0.387222
0.286960 0.180245 0.421753
0.286960 0.221987 -0.441568
0.286960 -0.381290 -0.300776
0.286960 0.060611 -0.470963
0.286960 0.473983 -0.126119
0.286960 -0.370474 -0.275451
0.286960 0.400253 0.229588
0.286960 -0.211475 -0.448246
0.286960 -0.434062 -0.166859
0.286960 -0.298591 -0.374889
0.286960 -0.478046 -0.090986
0.286960 0.472750 0.054942
0.286960 -0.087159 0.435837
0.286960 0.412408 0.261365
0.286960 -0.455569 -0.023183
0.286960 -0.134680 -0.427462
0.286960 0.252077 0.421737
0.286960 0.485583 -0.099007
0.286960 -0.162534 -0.425465
0.286960 0.484743 0.000557
0.286960 0.201443 0.414030
0.286960 -0.392568 0.258786
0.286960 -0.435598 0.208748
0.286960 0.104396 -0.488963
0.286960 -0.162455 -0.465306
0.286960 0.283086 -0.372687
0.286960 -0.449161 0.211789
0.286960 0.017926 -0.481740
0.286960 -0.372091 0.289588
0.286960 0.381481 0.293365
0.286960 0.445904 -0.037396
0.286960 0.413187 -0.229098
0.286960 0.038193 -0.487483
0.286960 0.306453 0.342220
0.286960 -0.361934 0.320022
0.286960 0.286754 0.364358
0.286960 0.478186 0.091237
0.286960 0.160966 0.466673
0.286960 -0.285006 -0.405026
0.286960 0.469812 -0.031782
0.286960 -0.208770 0.420693
0.286960 0.050850 0.446795
0.286960 0.477534 0.014636
0.286960 -0.452005 -0.209961
0.286960 -0.447681 -0.047086
0.286960 0.359844 -0.335447
0.286960 -0.231616 0.386248
0.286960 -0.122062 -0.442664
0.286960 0.423000 -0.177414
0.286960 -0.459679 -0.075595
0.286960 -0.097960 0.443876
0.286960 0.089150 -0.484931
0.286960 -0.134244 0.449668
0.286960 0.053075 -0.446376
0.286960 0.021111 -0.488259
0.286960 -0.299720 0.374635
0.286960 -0.311773 -0.320691
0.286960 -0.331284 0.342554
0.286960 0.113731 -0.446175
0.286960 0.317310 -0.332129
0.286960 -0.170436 -0.427078
0.286960 0.422937 0.170914
0.286960 -0.370949 -0.262839
0.286960 -0.494315 -0.055915
0.286960 0.076573 0.485475
0.286960 -0.047101 0.489001
0.286960 0.477945 -0.076878
0.286960 0.427740 -0.207880
0.286960 0.458742 0.012769
0.286960 0.404815 0.271254
0.286960 0.481137 -0.027441
0.286960 0.004815 -0.449224
0.286960 -0.361968 0.275748
0.286960 -0.396277 -0.282298
0.286960 -0.455475 -0.029095
0.286960 0.155668 0.432003
0.286960 0.366178 0.300635
0.286960 0.059500 0.459520
0.286960 0.025087 0.455047
0.286960 -0.493603 -0.000393
0.286960 0.036030 0.466857
0.286960 -0.194425 0.398446
0.286960 0.455275 -0.190498
0.286960 0.043516 0.448038
0.286960 0.463338 0.148585
0.286960 0.475070 -0.074432
0.286960 0.440207 -0.113565
0.286960 -0.176145 -0.426861
0.286960 -0.407846 -0.198106
0.286960 0.186662 -0.426420
0.286960 -0.371614 -0.252809
0.286960 0.086453 0.472309
0.286960 0.129350 -0.458561
0.286960 0.194479 -0.430079
0.286960 -0.444621 0.163772
0.286960 0.300204 -0.399516
0.286960 0.367799 0.265451
0.286960 0.458858 0.101675
0.286960 -0.055738 -0.452340
0.286960 0.450308 -0.057289
0.286960 -0.368145 0.331000
0.286960 -0.169326 0.449363
0.286960 -0.335757 0.289971
0.286960 -0.445711 -0.035248
0.286960 -0.330536 0.325487
0.286960 -0.454234 -0.094479
0.286960 -0.449981 0.026294
0.286960 -0.031915 -0.465087
0.286960 -0.345637 0.321746
0.286960 -0.333827 0.353483
0.286960 -0.023648 0.477683
0.286960 -0.321410 -0.356101
0.286960 -0.280778 -0.375794
0.286960 0.466100 0.136299
0.286960 -0.255912 0.372324
0.286960 -0.018570 0.475605
0.286960 0.035315 0.494311
0.286960 -0.158985 -0.437020
0.286960 -0.367179 -0.268899
0.286960 0.211717 -0.446355
0.286960 -0.158849 -0.457339
0.286960 -0.011214 -0.498718
0.286960 -0.307485 -0.376345
0.286960 -0.350375 0.336362
0.286960 0.187645 -0.449645
0.286960 0.426116 0.240289
0.286960 0.094097 0.446136
0.286960 -0.464803 0.121191
0.286960 -0.208632 0.427731
0.286960 0.235587 -0.436397
0.286960 0.222834 0.413419
0.286960 0.308414 -0.324593
0.286960 -0.116480 0.463612
0.286960 0.063333 -0.474982
0.286960 0.412348 0.271782
0.286960 -0.459787 0.169765
0.286960 -0.394768 0.204153
0.286960 -0.386419 -0.230950
0.286960 -0.046638 0.465397
0.286960 -0.424497 0.183841
0.286960 -0.431138 -0.202010
0.286960 0.477824 -0.110120
0.286960 0.235297 -0.403721
0.286960 0.434553 0.236065
0.286960 0.142202 -0.440141
0.286960 0.372345 -0.314971
0.286960 0.145553 0.471946
0.286960 -0.155828 0.455212
0.286960 0.458625 0.180778
0.286960 0.456782 -0.201235
0.286960 0.150095 -0.436762
0.286960 -0.349088 0.321933
0.286960 -0.261861 0.377241
0.286960 0.256115 0.397964
0.286960 -0.443550 0.046400
0.286960 -0.105093 -0.468479
0.286960 0.359287 -0.320612
0.286960 0.198564 0.405224
0.286960 -0.465679 -0.123305
0.286960 0.449283 0.134236
0.286960 -0.450128 0.081528
0.286960 0.280042 -0.363287
0.286960 0.318872 -0.319384
0.286960 -0.365985 0.322007
0.286960 -0.428011 0.145884
0.286960 0.260376 0.417287
0.286960 -0.404411 -0.290702
0.286960 -0.408626 0.255108
0.286960 0.414177 -0.168651
0.286960 -0.007047 -0.463454
0.286960 -0.271285 0.384655
0.286960 -0.061090 -0.462012
0.286960 -0.438109 -0.175541
0.286960 0.469555 -0.004145
0.286960 -0.445274 0.138838
0.286960 0.263117 0.383049
0.286960 -0.110429 -0.445059
0.286960 -0.151420 0.420168
0.286960 0.401911 0.285921
0.286960 0.221533 0.404871
0.286960 0.048098 -0.451233
0.286960 0.497410 -0.000601
0.286960 0.448081 -0.059832
0.286960 -0.123217 -0.430060
0.286960 -0.215682 -0.434025
0.286960 -0.194055 0.438209
0.286960 0.376074 -0.260700
0.286960 -0.322703 0.304646
0.286960 -0.273913 0.381257
0.286960 0.231064 -0.405312
0.286960 -0.447085 0.027580
0.286960 -0.266354 0.362125
0.286960 -0.433774 -0.103731
0.286960 -0.246061 -0.378310
0.286960 -0.034061 -0.462279
0.286960 0.334069 0.299570
0.286960 -0.489180 0.053130
0.286960 0.390494 -0.271674
0.286960 -0.478797 -0.129010
0.286960 -0.326256 0.371074
0.286960 -0.443441 0.037922
0.286960 0.406177 -0.187189
0.286960 -0.388898 -0.304230
0.286960 -0.150178 -0.449512
0.286960 -0.351549 0.279567
0.286960 -0.113692 -0.437982
0.286960 -0.035819 -0.475394
0.286960 0.458042 -0.134989
0.286960 -0.473747 -0.039049
0.286960 0.433532 -0.176155
0.286960 -0.099094 0.457518
0.286960 0.429191 0.226144
0.286960 -0.375501 0.302509
0.286960 -0.216431 -0.400876
0.286960 0.411671 -0.260577
0.286960 -0.440829 -0.119049
0.286960 -0.491898 -0.069789
0.286960 0.297495 0.362511
0.286960 -0.266082 -0.421674
0.286960 -0.455923 0.016231
0.286960 -0.432659 0.201398
0.286960 -0.398710 -0.214903
0.286960 -0.339709 -0.341314
0.286960 0.428139 -0.201330
0.286960 0.378696 0.305477
0.286960 -0.420572 -0.252466
0.286960 -0.282444 0.357371
0.286960 -0.275726 -0.383493
0.286960 -0.084512 0.451910
0.286960 0.444826 -0.224701
0.286960 -0.431609 -0.111625
0.286960 -0.275151 0.374149
0.286960 0.465385 0.015897
0.286960 -0.444402 -0.021643
0.286960 -0.218817 -0.422932
0.286960 -0.406039 -0.232623
0.286960 -0.405906 0.235075
0.286960 0.035645 0.478796
0.286960 -0.277382 0.349461
0.286960 -0.474052 -0.034990
0.286960 0.312814 0.355018
0.286960 0.299510 0.379955
0.286960 0.135623 0.477014
0.286960 -0.088223 0.439824
0.286960 -0.050188 0.487843
0.286960 0.226815 0.388611
0.286960 0.317066 0.348247
0.286960 0.095492 -0.460756
0.286960 -0.404197 0.205252
0.286960 -0.099999 -0.474261
0.286960 0.017965 0.452896
0.286960 -0.029660 -0.454693
0.286960 0.037871 -0.477535
0.286960 -0.370277 0.257169
0.286960 -0.461035 0.008339
0.286960 -0.275033 0.356256
0.286960 -0.210542 -0.444887
0.286960 -0.487409 0.010227
0.286960 -0.456377 -0.121018
0.286960 0.365239 -0.288041
0.286960 0.441539 0.062356
0.286960 -0.263247 0.373180
0.286960 0.187864 0.431552
0.286960 0.407653 0.236359
0.286960 0.285361 0.356174
0.286960 0.281043 0.366142
0.286960 0.418348 0.267636
0.286960 -0.243064 0.376855
0.286960 -0.437349 0.099614
0.286960 0.380271 0.255354
0.286960 -0.447947 0.167811
0.286960 0.458685 -0.054102
0.286960 0.264900 0.407313
0.286960 -0.289087 -0.350680
0.286960 0.319885 0.323363
0.286960 -0.461193 0.152178
0.286960 -0.456052 0.093049
0.286960 0.416694 -0.251397
0.286960 -0.105970 -0.454444
0.286960 0.190734 -0.412519
0.286960 -0.222476 0.420301
0.286960 -0.464815 0.138361
0.286960 -0.444358 0.172771
0.286960 -0.167910 -0.421812
0.286960 0.462837 0.023388
0.286960 -0.466464 -0.128911
0.286960 -0.320910 -0.376296
0.286960 0.430659 0.215304
0.286960 -0.474761 0.046468
0.286960 0.433677 0.157949
0.286960 0.172312 0.448615
0.286960 0.436416 0.224637
0.286960 0.098272 0.467255
0.286960 0.008499 -0.495503
0.286960 0.367339 -0.315199
0.286960 0.380381 0.319199
0.286960 -0.309662 -0.357655
0.286960 -0.212643 0.395435
0.286960 0.449926 0.038298
0.286960 -0.398354 -0.200200
0.286960 0.357289 0.342024
0.286960 -0.166336 -0.426418
0.286960 0.225141 0.392874
0.286960 -0.397502 -0.260946
0.286960 0.243926 -0.386524
0.286960 0.165445 -0.460918
0.286960 0.041574 0.478351
0.286960 -0.331071 0.361871
0.286960 0.334502 0.306724
0.286960 -0.132798 0.436632
0.286960 -0.184943 0.447529
0.286960 -0.379089 0.263870
0.286960 0.096812 0.480263
0.286960 -0.480062 -0.065626
0.286960 -0.457852 0.179391
0.286960 0.280658 0.347653
0.286960 0.453216 -0.045533
0.286960 -0.447464 0.031691
0.286960 -0.489865 -0.084043
0.286960 0.003721 -0.481005
0.286960 0.392732 0.211410
0.286960 0.419243 0.264423
0.286960 0.300646 0.363969
0.286960 -0.353527 -0.306737
0.286960 -0.464055 -0.082398
0.286960 0.373876 -0.247401
0.286960 -0.361186 0.289766
0.286960 0.330462 -0.324883
0.286960 0.019665 0.465273
0.286960 -0.263061 -0.365696
0.286960 -0.398720 -0.298567
0.286960 -0.433169 -0.108199
0.286960 0.477209 0.031496
0.286960 -0.124595 -0.470638
0.286960 -0.451526 -0.135682
0.286960 0.448630 -0.099574
0.286960 -0.039174 -0.471827
0.286960 0.382540 0.233793
0.286960 -0.456540 -0.046441
0.286960 0.258949 0.375962
0.286960 -0.017065 -0.485729
0.286960 -0.488254 0.019777
0.286960 -0.212093 0.399089
0.286960 -0.223779 0.389113
0.286960 -0.414677 -0.268090
0.286960 -0.374815 0.298376
0.286960 0.167425 -0.425271
0.286960 0.175360 -0.429290
0.286960 -0.472963 -0.118819
0.286960 -0.395787 -0.228762
0.286960 -0.154251 0.437404
0.286960 0.450164 0.023485
0.286960 0.387098 0.267678
0.286960 -0.379565 0.237183
0.286960 0.491246 0.033515
0.286960 0.151980 0.451697
0.286960 -0.159832 0.445914
0.286960 0.462136 0.174688
0.286960 -0.117104 0.428487
0.286960 0.491901 -0.037328
0.286960 0.381496 -0.247334
0.286960 0.165536 -0.437234
0.286960 0.497784 0.023996
0.286960 -0.310638 -0.326191
0.286960 -0.177234 -0.419389
0.286960 -0.488059 0.090031
0.286960 0.094719 -0.466914
0.286960 -0.225789 -0.412941
0.286960 -0.388416 0.282429
0.286960 0.391921 0.304214
0.286960 -0.051031 -0.452205
0.286960 -0.050515 0.461836
0.286960 -0.449065 0.070175
0.286960 0.337317 -0.300499
0.286960 0.381208 -0.291238
0.286960 0.325730 -0.345262
0.286960 0.370243 0.324115
0.286960 0.379400 -0.259454
0.286960 -0.253799 -0.373760
0.286960 0.392290 -0.236975
0.286960 -0.397333 0.260798
0.286960 -0.164621 0.447906
0.286960 -0.459123 0.052396
0.286960 0.396975 -0.213355
0.286960 0.371230 -0.260007
0.286960 0.467146 0.061584
0.286960 0.434516 -0.103338
0.286960 0.096432 0.462828
0.286960 0.138350 0.451281
0.286960 -0.027103 -0.452310
0.286960 -0.066066 -0.475822
0.286960 -0.009060 -0.478676
0.286960 -0.374851 -0.292914
0.286960 0.277855 -0.408496
0.286960 0.350693 0.275907
0.286960 0.057132 0.486180
0.286960 0.274384 0.376960
0.286960 -0.285560 -0.349907
0.286960 0.457871 -0.085519
0.286960 -0.394039 -0.242585
0.286960 -0.475292 0.004600
0.286960 -0.416484 -0.241947
0.286960 0.041047 0.450801
0.286960 -0.090115 -0.442500
0.286960 0.367702 -0.278814
0.286960 0.070003 0.446447
0.286960 0.469965 0.162704
0.286960 -0.373068 -0.329122
0.286960 0.295452 -0.384653
0.286960 0.485412 0.092137
0.286960 -0.456808 -0.083455
0.286960 0.323017 -0.325054
0.286960 0.162181 -0.424813
0.286960 0.246065 0.410427
0.286960 -0.217404 0.403803
0.286960 -0.446997 0.207343
0.286960 -0.089392 0.476081
0.286960 0.450141 -0.171002
0.286960 -0.484601 -0.101254
0.286960 0.438573 -0.163636
0.286960 0.334105 0.363103
0.286960 0.096325 0.459062
0.286960 -0.414788 0.252362
0.286960 0.324728 -0.376364
0.286960 -0.466205 0.144373
0.286960 0.466254 0.109975
0.286960 -0.103988 0.447798
0.286960 -0.435234 0.151251
0.286960 -0.485081 0.057306
0.286960 -0.269961 -0.402466
0.286960 -0.344232 0.282048
0.286960 -0.417680 -0.204774
0.286960 -0.394881 0.240446
0.286960 0.113414 0.466741
0.286960 0.044627 -0.469022
0.286960 0.487676 -0.042563
0.286960 -0.480862 0.124461
0.286960 -0.344956 0.310858
0.286960 0.078765 0.470563
0.286960 0.420705 -0.188980
0.286960 0.255961 0.408720
0.286960 0.462241 -0.033067
0.286960 -0.388349 0.243921
0.286960 -0.061014 0.461509
0.286960 0.241255 -0.432816
0.286960 -0.443977 0.213363
0.286960 -0.173733 -0.449950
0.286960 0.352192 0.332352
0.286960 -0.419820 0.241755
0.286960 0.424090 -0.241715
0.286960 0.432554 0.186661
0.286960 -0.468820 0.118118
0.286960 -0.283197 -0.410294
0.286960 0.088481 -0.488037
0.286960 0.051212 0.451310
0.286960 -0.165192 0.443098
0.286960 -0.413780 -0.221694
0.286960 0.040178 0.461543
0.286960 -0.015912 -0.475319
0.286960 0.113187 -0.462702
0.286960 -0.478398 0.070698
0.286960 0.116387 -0.475698
0.286960 0.425470 -0.153395
0.286960 -0.483046 -0.009295
0.286960 0.453556 -0.164632
0.286960 0.089407 0.463657
0.286960 0.436954 -0.240586
0.286960 0.486403 0.071429
0.286960 -0.098106 -0.447180
0.286960 -0.142298 0.455777
0.286960 0.406513 0.273927
0.286960 -0.203343 -0.424261
0.286960 0.127419 -0.445284
0.286960 -0.243768 0.393609
0.286960 -0.149110 -0.455266
0.286960 0.354905 -0.331981
0.286960 0.268020 0.394277
0.286960 0.194562 -0.459445
0.286960 0.305030 0.352488
0.286960 0.096730 -0.471029
0.286960 0.203666 -0.431690
0.286960 0.404036 0.194083
0.286960 -0.209495 0.396713
0.286960 -0.418579 0.196359
0.286960 0.380125 0.259534
0.286960 0.156125 -0.463133
0.286960 0.315803 0.312648
0.286960 -0.307573 0.370185
0.286960 -0.411343 -0.261848
0.286960 -0.004369 -0.468365
0.286960 -0.004260 -0.451237
0.286960 -0.345673 0.293183
0.286960 0.354337 -0.308300
0.286960 -0.450368 0.205091
0.286960 0.441698 -0.165535
0.286960 -0.446398 0.073598
0.286960 0.153039 0.437423
0.286960 0.337990 0.306585
0.286960 -0.407051 0.282795
0.286960 -0.334646 0.350233
0.286960 0.455847 -0.112123
0.286960 -0.419660 0.193297
0.286960 0.348424 0.308436
0.286960 0.033006 -0.460652
0.286960 0.272623 0.410594
0.286960 -0.406151 -0.243226
0.286960 -0.298973 0.355191
0.286960 -0.230738 0.389436
0.286960 -0.088929 -0.459506
0.286960 -0.325268 -0.355428
0.286960 -0.008629 0.486414
0.286960 0.163264 -0.444489
0.286960 -0.187824 0.423824
0.286960 0.322550 0.333778
0.286960 -0.413944 -0.188237
0.286960 0.364832 0.318095
0.286960 -0.457153 0.122366
0.286960 -0.356121 0.319995
0.286960 0.471911 -0.139813
0.286960 0.428138 -0.166793
0.286960 -0.403090 -0.255902
0.286960 -0.129115 0.473774
0.286960 0.165218 0.419994
0.286960 0.332574 0.310825
0.286960 -0.454849 0.029794
0.286960 -0.407697 0.212524
0.286960 0.263311 0.416326
0.286960 -0.228704 -0.404271
0.286960 -0.465585 0.037212
0.286960 0.254048 0.395492
0.286960 -0.387882 -0.256190
0.286960 0.454206 -0.169484
0.286960 -0.126393 0.427077
0.286960 -0.146548 -0.449527
0.286960 -0.176659 0.457035
0.286960 0.452099 0.146308
0.286960 0.428187 0.181967
0.286960 0.326356 0.320729
0.286960 -0.458765 -0.109425
0.286960 0.362421 0.320645
0.286960 -0.482838 0.021825
0.286960 -0.189213 -0.407762
0.286960 0.392502 -0.240456
0.286960 0.445291 0.109235
0.286960 -0.048462 -0.477653
0.286960 -0.400364 -0.218330
0.286960 0.282829 -0.384570
0.286960 -0.455507 -0.149867
0.286960 -0.410725 -0.196421
0.286960 -0.089513 -0.453081
0.286960 0.452731 0.205522
0.286960 0.422414 0.178719
0.286960 0.315206 -0.318737
0.286960 0.489243 -0.066055
0.286960 -0.325871 -0.359004
0.286960 0.342356 -0.363604
0.286960 -0.465823 0.114779
0.286960 -0.407869 -0.256623
0.286960 0.480796 0.066994
0.286960 -0.427251 -0.250438
0.286960 -0.099785 -0.443795
0.286960 -0.484526 0.087762
0.286960 -0.440176 -0.067972
0.286960 -0.075937 0.445696
0.286960 0.399705 0.278334
0.286960 0.215397 0.430562
0.286960 -0.192994 0.441406
0.286960 -0.085935 -0.457718
0.286960 0.026551 -0.461299
0.286960 0.239393 -0.421686
0.286960 0.445198 -0.027110
0.286960 -0.455507 0.053501
0.286960 0.408642 0.228109
0.286960 0.430645 -0.198837
0.286960 -0.335039 -0.341314
0.286960 -0.150926 0.451374
0.286960 -0.402186 0.219102
0.286960 -0.037433 0.454986
0.286960 -0.308773 0.339513
0.286960 -0.460524 0.026188
0.286960 -0.413099 0.231145
0.286960 -0.445029 -0.123949
0.286960 0.494779 -0.057416
0.286960 -0.493125 -0.010805
0.286960 -0.418285 0.225265
0.286960 0.019053 0.494713
0.286960 0.070267 -0.468781
0.286960 0.446115 0.089508
0.286960 0.473118 0.043922
0.286960 -0.433057 -0.179105
0.286960 -0.420794 -0.208902
0.286960 -0.238155 0.392191
0.286960 0.331528 0.367683
0.286960 0.324752 -0.372667
0.286960 0.335966 -0.346551
0.286960 -0.207904 -0.453625
0.286960 -0.418888 0.147589
0.286960 0.172821 0.464967
0.286960 -0.468441 -0.061416
0.286960 -0.409402 0.241872
0.286960 -0.172736 0.451844
0.286960 0.442306 0.096939
0.286960 0.337230 -0.364745
0.286960 0.168371 -0.466832
0.286960 -0.378890 0.278730
0.286960 -0.139557 -0.470862
0.286960 0.362728 0.293820
0.286960 -0.458081 0.154728
0.286960 -0.485949 0.078312
0.286960 -0.439848 0.168574
0.286960 -0.471691 -0.066708
0.286960 0.487728 0.060594
0.286960 -0.014333 0.495471
0.286960 -0.151721 0.470317
0.286960 0.208968 -0.402943
0.286960 -0.445752 0.049121
0.286960 0.316804 -0.364384
0.286960 -0.361665 -0.278110
0.286960 -0.460559 -0.082357
0.286960 -0.017066 -0.499006
0.286960 0.171371 0.456293
0.286960 -0.397687 0.249551
0.286960 -0.465974 -0.025221
0.286960 -0.454724 -0.145757
