0.113465 0.123383 0.425750
-0.042877 -0.258110 -0.364715
-0.273681 0.224187 0.382788
-0.158597 -0.286090 0.338682
-0.165862 0.431764 0.109250
0.229026 0.193831 0.398999
-0.091846 -0.104015 -0.435014
0.252657 -0.444914 -0.001918
-0.261075 0.047444 0.440587
-0.271565 -0.360925 0.258064
-0.273234 0.138532 0.421323
0.051251 -0.136790 0.421557
0.117517 -0.207251 0.391639
0.039345 0.102423 0.431246
0.171957 -0.441479 -0.057282
0.245690 -0.397622 -0.201465
-0.232491 -0.265449 -0.359329
0.093297 0.335662 0.290901
0.009388 -0.438828 0.069956
0.090856 -0.033432 0.441815
0.014333 0.022211 -0.446930
0.283080 0.286522 0.339205
0.231819 0.421307 0.143356
-0.000529 0.436434 0.088553
0.184205 0.399975 0.194505
0.077987 -0.349402 0.273116
-0.063749 -0.433823 -0.100005
0.196060 0.435648 0.092069
-0.110013 -0.004258 -0.447462
0.220054 0.012662 -0.447230
0.049561 -0.354840 -0.270459
-0.286681 0.016076 -0.447123
0.028780 -0.015994 0.442740
0.182695 0.327214 -0.304837
-0.236066 0.365311 -0.257472
-0.049938 -0.427870 -0.123479
-0.107718 0.342001 0.283711
0.043921 -0.175174 -0.411264
-0.026874 0.210453 -0.394884
-0.163815 0.038206 -0.445814
-0.052205 0.285572 0.340042
0.118518 -0.084491 -0.439378
0.154298 -0.262873 -0.361327
0.124844 0.021597 -0.446949
0.240119 0.351671 0.271511
0.154614 0.383317 0.225151
0.251469 0.096630 -0.436894
-0.205706 -0.412098 0.165369
-0.285134 0.091665 -0.438004
0.253137 0.438379 -0.083616
-0.035201 0.245597 0.369561
-0.166778 -0.175720 0.406674
0.061611 -0.426132 -0.129461
0.011205 0.328792 -0.303047
-0.082647 -0.223291 -0.387065
-0.081355 0.328660 0.298843
0.017702 -0.402026 -0.192821
0.156013 0.039275 -0.445713
-0.164670 -0.320240 -0.311054
0.123412 0.440731 0.064409
-0.017563 0.367340 -0.254486
0.238247 0.286232 -0.343813
-0.172193 0.162784 0.412592
0.090572 -0.085639 0.434768
-0.043522 0.400536 0.193404
-0.158839 -0.145252 0.418535
-0.105468 0.411921 0.168146
-0.081537 0.010489 -0.447298
-0.269755 0.153342 0.415991
-0.084000 -0.245253 0.369098
0.023182 0.417870 -0.157257
-0.074255 -0.407343 -0.180710
-0.197886 0.269841 0.352363
-0.111363 0.403374 0.187833
0.041792 -0.056013 0.439635
-0.207408 0.445696 0.005829
0.048779 0.147798 0.417987
-0.043867 -0.351069 -0.275320
-0.204697 0.206751 0.392416
-0.257211 0.325053 -0.307266
0.197277 -0.197705 0.396503
-0.030256 -0.402232 0.188064
0.209948 -0.328695 0.297642
-0.249918 -0.434823 0.091175
-0.233488 -0.318235 0.308705
0.237998 -0.125803 0.424749
-0.134931 -0.437590 0.077773
-0.266911 -0.435665 0.087409
-0.028171 -0.411465 -0.171185
0.132483 0.176077 0.406964
0.033376 -0.352684 -0.273238
-0.061873 0.308311 -0.324007
0.007135 0.351200 0.272119
0.106799 0.321812 0.306154
-0.058557 0.289662 -0.340789
0.038549 0.445738 0.004481
-0.286291 -0.441126 0.055444
-0.119237 -0.385873 -0.223449
-0.139718 0.287769 -0.342458
-0.069819 -0.329635 0.296575
0.091369 0.097092 0.432437
-0.185701 0.269509 -0.356974
0.044919 0.433687 -0.105195
0.052679 0.354174 0.268285
0.143993 0.437865 0.082152
-0.105467 0.183693 0.403668
0.202988 0.301718 0.325807
0.264311 -0.408993 -0.176896
0.228253 0.043646 -0.445299
0.059291 -0.305562 0.321378
-0.001251 -0.142770 -0.423782
0.063579 0.438494 -0.082887
0.142851 0.246983 0.368619
0.201583 -0.307452 0.319488
-0.182895 -0.059703 -0.443404
-0.268247 -0.010749 -0.447258
0.093899 0.422286 -0.144991
0.090610 0.266476 -0.359327
0.286473 0.106797 -0.434621
0.024938 0.224886 0.382375
-0.002920 -0.428855 0.115735
-0.251741 0.136026 -0.426431
0.207069 0.091609 0.433663
0.264365 0.285270 -0.344662
0.232598 0.375101 -0.243067
-0.167763 0.257961 -0.365512
-0.288350 0.185050 -0.407434
0.048681 0.234992 -0.380752
-0.101112 -0.286539 -0.342639
0.273687 -0.413057 0.163151
0.153514 -0.405156 0.181410
-0.113498 -0.396747 0.198829
0.172969 0.154940 0.415416
-0.086218 -0.176973 0.406132
-0.246266 -0.275300 -0.351687
-0.199533 0.444657 0.030140
0.046303 -0.405134 0.181462
0.285967 -0.147510 -0.422075
-0.051588 0.415511 0.159454
-0.139537 0.354823 -0.271802
0.202990 -0.387488 0.216365
0.199533 0.249626 -0.371177
-0.114745 -0.152590 0.415893
0.173387 -0.444393 0.014690
0.193431 -0.434418 0.092987
-0.170878 -0.297731 -0.332772
-0.110340 0.333298 -0.297936
-0.248690 0.339617 0.286416
-0.062536 0.210691 0.390408
0.075285 0.412216 0.167463
0.196684 -0.438744 0.070486
0.230573 0.405444 0.183113
-0.149999 0.251714 -0.369758
-0.001106 -0.430694 -0.113758
-0.000508 0.440380 0.066628
0.153883 -0.425831 0.126145
-0.131724 -0.444270 -0.022944
-0.100010 0.017870 0.442713
0.103804 -0.129479 -0.428035
-0.193034 -0.119499 0.426581
0.124529 -0.422575 0.136987
-0.009080 -0.167937 0.410042
-0.204212 -0.369431 0.245549
-0.004234 -0.441814 -0.053729
-0.121051 0.078911 0.436171
-0.254424 0.426166 -0.132871
0.199099 -0.410381 -0.173688
0.263221 0.258268 0.360950
-0.119948 -0.444550 -0.014042
0.008154 0.359778 0.261061
0.271155 -0.419988 -0.148528
-0.019881 0.053908 0.439976
0.194951 -0.235099 0.375729
0.125552 0.144985 -0.423353
-0.218612 0.195151 -0.402680
0.145905 -0.381251 0.226912
0.269261 0.372736 -0.246547
-0.120710 0.294537 0.332139
0.085811 0.209933 -0.395148
0.116090 0.283916 0.341446
-0.082216 0.444534 0.031451
0.092755 -0.442769 -0.043628
-0.075058 -0.435649 -0.091836
-0.132657 0.315726 0.312239
-0.180367 -0.206884 0.391826
-0.250633 -0.008178 0.442985
0.043295 0.225738 -0.386224
0.104754 0.279626 0.344773
-0.057891 0.432152 -0.112061
0.191625 0.129343 0.424019
0.136484 -0.433344 -0.102146
0.130877 0.244272 0.370462
0.230059 -0.332526 0.293296
0.262514 0.278486 0.345658
-0.265060 0.293233 -0.337641
0.066326 -0.443681 0.029632
-0.042882 -0.424608 -0.134707
0.060436 0.019857 -0.447004
-0.014706 0.433362 -0.106651
-0.107214 0.253117 0.364450
0.067921 -0.312572 0.314369
0.159084 -0.200682 0.394986
0.081405 -0.402045 0.188430
-0.066893 0.007835 0.443028
-0.062954 0.343492 0.282020
-0.092402 0.096182 0.432641
0.202129 0.376687 -0.240715
-0.064871 -0.143821 -0.423404
0.046701 0.011310 -0.447272
-0.218489 -0.154657 0.415149
-0.028917 0.115114 -0.432506
0.079645 -0.195794 -0.401830
0.282475 0.277406 0.346496
-0.181300 0.046263 0.440699
0.076490 -0.428052 0.118500
-0.133204 0.405216 0.183639
0.073909 0.341729 -0.288373
-0.094289 -0.167600 0.410188
0.104593 0.341322 -0.288834
0.235410 0.248115 0.367850
-0.081231 -0.318205 -0.313089
0.105447 0.044854 0.440832
-0.004446 0.312263 0.315702
0.113730 -0.377626 0.233041
0.001809 0.047627 0.440570
-0.217953 -0.217072 0.386390
-0.140028 -0.429404 -0.118198
-0.175588 -0.281831 -0.346621
-0.228817 -0.381116 -0.231494
0.065419 0.445550 -0.014825
0.010001 -0.414734 -0.163121
-0.019921 -0.443948 0.026805
0.223882 0.069975 0.437586
0.222964 0.052258 -0.444485
-0.199589 -0.295737 -0.334530
-0.110783 0.276080 -0.351877
0.280795 -0.177700 -0.410171
-0.272775 -0.444851 -0.004441
0.231158 -0.436989 0.081487
-0.047543 -0.436426 -0.088359
0.089261 0.306569 -0.325750
0.069742 0.144181 0.419289
-0.228357 0.043685 -0.445296
0.154141 -0.045972 -0.444983
0.123495 0.335669 -0.295246
-0.090117 0.018662 -0.447041
-0.144484 -0.164695 -0.415799
0.254092 -0.366631 0.249668
-0.146586 -0.048648 -0.444730
-0.072167 -0.154194 -0.419669
0.025855 0.430663 -0.117393
-0.036971 -0.444680 -0.009895
0.140166 -0.076300 0.436422
-0.108483 0.207975 -0.396146
0.016631 0.359945 -0.265198
-0.108983 -0.426429 0.124087
0.269778 0.441281 -0.065288
-0.175538 -0.427103 0.121765
-0.269821 -0.397268 0.197805
-0.198685 -0.309226 0.317714
-0.277386 0.445147 0.023291
-0.012626 0.443122 0.046383
0.222440 -0.404256 -0.187844
0.148735 0.348885 0.275103
0.064809 0.307325 -0.324993
0.027619 -0.329259 0.297001
-0.102070 -0.397914 0.196539
0.073603 -0.247187 0.367784
-0.053833 0.014364 -0.447176
0.153328 -0.391648 -0.213190
0.006985 -0.397001 -0.202684
-0.102405 -0.167079 -0.414767
-0.236207 -0.329022 -0.301624
0.258432 0.444139 0.035623
-0.128700 -0.444217 0.020263
-0.185140 0.358148 0.263162
-0.150025 0.156308 -0.419277
-0.120309 0.427493 0.123951
-0.237586 0.436454 0.088465
-0.155264 -0.421786 -0.143534
0.153674 -0.414031 -0.165074
0.136578 0.070230 -0.441899
0.249859 0.398612 -0.201533
0.123970 -0.219349 0.385043
-0.081107 -0.231020 0.378142
0.151479 0.195629 0.398083
0.004408 0.372382 -0.247068
0.087342 0.275155 -0.352595
-0.206833 -0.432874 0.099894
0.026335 -0.305078 -0.326216
-0.261647 -0.259224 -0.363958
0.176855 -0.138599 -0.425283
0.186879 -0.043082 0.440902
-0.001254 -0.153298 -0.419991
-0.059940 -0.427489 -0.124789
0.258195 0.369170 -0.251794
-0.264930 0.245802 -0.373775
-0.158056 -0.388539 0.214589
-0.232821 -0.228292 0.379755
0.099121 -0.393859 -0.208851
0.259131 -0.062442 -0.442970
0.038758 -0.284756 0.339858
-0.008680 0.415085 -0.164994
0.059611 -0.264922 -0.359738
0.189269 -0.375193 -0.241423
-0.162830 -0.367216 0.248807
0.057352 0.422036 -0.145686
-0.025662 -0.132681 0.422751
-0.049162 -0.421535 0.139876
-0.072029 -0.193790 -0.402851
-0.030000 -0.270802 -0.355176
0.129484 -0.413703 0.161632
0.106319 -0.440678 0.058272
0.286486 -0.444784 0.002219
0.065074 0.222711 0.383661
-0.270008 -0.119108 -0.431048
0.237170 -0.285651 0.339069
-0.262527 0.354459 0.267917
-0.247162 0.428176 -0.125953
0.097910 0.439557 -0.076174
-0.101149 -0.312987 -0.318307
0.101452 0.288663 -0.341670
0.142662 -0.243170 -0.374868
0.230779 0.440718 -0.068846
0.054567 0.445607 0.008658
0.176770 0.166658 0.411039
-0.193356 0.440258 0.067394
-0.017723 -0.424129 0.132002
-0.140683 0.086963 0.434701
-0.264559 -0.202921 -0.398199
0.257291 -0.349228 -0.277694
-0.287738 -0.102062 0.431097
-0.159934 0.390146 -0.217957
-0.067485 0.195863 -0.402318
0.223758 -0.170035 0.409135
0.056967 0.371531 -0.248319
0.121145 -0.334575 -0.295325
-0.176180 0.137107 0.421763
0.064364 0.261092 0.359031
-0.023467 -0.390521 0.211047
-0.054793 -0.414646 0.159012
0.041348 0.116179 -0.432196
0.088083 -0.108952 0.429557
-0.076214 -0.420029 -0.148414
-0.158662 -0.437491 0.078394
0.093473 -0.358116 -0.266235
0.141141 0.309867 -0.322451
0.239657 -0.410731 -0.172881
0.166560 0.394159 0.205920
-0.038508 -0.398986 -0.198788
0.244248 0.058570 0.439393
-0.070833 -0.301130 -0.329775
-0.002196 0.190086 -0.405255
-0.182964 0.405623 0.182700
0.252756 0.067081 -0.442398
0.234666 -0.338876 0.286094
-0.159421 -0.310515 -0.320779
-0.129135 0.384094 0.223837
0.147328 -0.289621 0.335568
0.006760 0.156379 -0.419251
-0.253947 -0.120512 -0.430640
0.072161 0.093749 -0.437538
0.165583 0.122167 0.426104
0.186937 0.442811 -0.054023
0.187941 0.416165 -0.161991
-0.148144 0.189184 -0.405645
0.061170 0.297092 0.329885
-0.022831 0.424394 -0.138971
0.097204 0.303146 0.324548
-0.102743 0.337782 -0.292850
-0.067423 0.442044 -0.060472
-0.219986 -0.432397 -0.106382
0.285889 0.023339 0.442541
-0.031400 0.253938 -0.368246
0.285705 -0.052219 0.440039
-0.051846 0.234720 0.376559
0.184397 -0.085285 0.434847
0.259423 -0.359731 0.259800
-0.210685 -0.401353 0.189789
-0.117110 -0.277943 0.345284
-0.260979 -0.331915 -0.298342
-0.233736 0.386658 0.219501
-0.151696 0.438627 -0.082045
-0.290244 -0.098588 -0.436227
0.092018 0.415139 0.160489
-0.221207 0.430659 -0.117405
0.135043 -0.438828 -0.074309
-0.260657 0.401056 -0.196736
0.258413 0.290907 -0.339692
0.146029 0.432055 0.108142
0.252331 -0.441984 -0.051936
-0.253727 0.332478 0.294512
0.025195 0.287007 -0.343130
0.099627 0.350318 -0.277609
0.123648 -0.411704 -0.170633
-0.271262 0.283129 -0.346410
-0.084061 -0.068062 -0.442081
0.006607 0.443204 0.045512
0.246714 0.439917 -0.073905
0.118217 0.444726 -0.033764
-0.047545 0.216566 -0.391649
0.011842 -0.150213 0.416749
0.016846 -0.073923 -0.441152
0.087615 -0.408690 -0.177597
0.110089 0.132932 0.422976
-0.183518 -0.048938 -0.444702
0.150641 -0.313200 0.313741
0.061319 0.360801 0.259741
-0.095485 -0.443161 0.035126
-0.116289 0.346363 -0.282708
0.209605 0.249121 -0.371520
0.277782 -0.064679 0.438263
0.159564 -0.334173 -0.295781
0.244920 -0.227454 -0.384604
0.221798 -0.433182 -0.102872
-0.174323 -0.184668 -0.407156
0.059302 0.063773 0.438569
0.184661 -0.285908 -0.343195
-0.263737 0.436697 -0.091729
-0.007080 0.088179 -0.438783
0.054387 -0.383280 0.223481
0.119808 -0.183228 -0.407779
0.020549 0.374150 0.240112
0.274012 -0.360058 0.259340
-0.137607 -0.418965 -0.151368
-0.107039 0.151413 0.416686
0.226614 -0.014862 0.442775
0.018988 -0.101324 -0.435616
0.172346 -0.280301 0.343455
0.021310 0.028394 0.442382
-0.037914 0.051727 -0.444535
0.135409 0.299252 -0.332335
0.086228 -0.074327 -0.441088
0.247707 -0.402738 -0.191351
-0.112326 -0.285419 0.339273
0.243855 0.042473 -0.445410
-0.261645 0.308498 -0.323820
0.056073 -0.359812 0.259696
0.276772 0.222932 -0.387884
-0.000653 -0.322430 0.304511
0.221106 0.348746 0.275283
-0.130741 -0.441957 -0.052219
0.199261 0.286600 -0.343489
0.223596 0.091238 -0.438099
-0.060570 -0.293872 0.331821
-0.082843 0.445747 0.004188
0.002229 0.377920 -0.238630
0.010193 0.408228 -0.181032
-0.147191 -0.376835 0.234379
0.165797 -0.084041 -0.439479
-0.129378 -0.318115 -0.313178
-0.094546 -0.206719 0.391911
-0.267484 -0.336754 0.288500
0.232713 0.392114 -0.214286
0.093713 -0.398151 -0.200426
-0.243240 -0.444724 0.004158
0.039310 0.042690 -0.445390
0.018799 0.302810 0.324844
-0.084643 -0.431541 -0.110210
0.198401 0.268451 0.353442
-0.084502 -0.293421 -0.336572
0.205608 0.196846 0.397463
0.025349 0.444264 0.034305
0.096041 -0.286919 0.337951
-0.240025 -0.432443 -0.106178
-0.169120 0.416878 -0.160013
-0.032045 -0.174608 0.407156
0.283180 0.314163 -0.318155
-0.188369 -0.439307 -0.071283
-0.165634 0.145006 -0.423346
0.211262 0.069006 0.437740
-0.009943 0.277563 -0.350727
0.032338 -0.238615 0.373610
-0.061215 -0.444629 -0.011533
0.167473 0.443901 0.038144
0.283097 -0.173110 0.407804
-0.270928 0.091899 0.433598
-0.263997 -0.006327 0.443043
-0.044993 -0.441924 0.048220
0.070803 -0.412063 -0.169802
-0.272510 0.269564 -0.356932
-0.104656 -0.432932 -0.103988
-0.112407 -0.362735 0.255401
0.237624 0.294455 0.332210
-0.173308 -0.346359 0.277039
-0.194151 0.241553 0.372309
0.163844 -0.049842 -0.444617
0.271222 0.244583 -0.374603
0.268438 0.158824 -0.418371
-0.277168 0.400362 0.193746
-0.270016 0.359413 0.261531
0.174624 -0.401665 -0.193530
-0.229340 0.426950 0.125819
-0.151167 -0.363546 -0.258561
0.065926 0.336019 0.290496
-0.132679 -0.392356 0.207447
0.134146 -0.333874 0.291767
-0.073188 -0.441989 -0.051884
-0.278475 0.198335 -0.401058
0.083021 0.291536 -0.339137
0.242584 -0.046367 -0.444945
-0.263930 0.394698 -0.209215
-0.254825 0.384548 0.223070
0.046015 0.360556 0.260057
0.024695 -0.356008 -0.268953
-0.028570 0.328061 -0.303876
-0.287378 -0.444605 0.007945
0.273681 -0.444043 0.025796
0.038600 -0.005358 0.443074
0.254130 -0.188081 0.401325
0.185148 0.387102 -0.223104
-0.119393 0.183248 -0.408214
0.239323 -0.086174 -0.439002
0.112293 -0.386470 0.218086
0.073265 -0.317027 -0.314267
0.089357 -0.432972 0.099455
0.085292 0.427070 -0.129760
0.052133 -0.431373 0.106610
-0.223849 0.397543 0.199277
0.159439 -0.398215 0.195947
0.155676 0.436092 0.090083
-0.144741 0.151625 0.416609
-0.103777 0.238608 -0.378613
-0.289857 0.232575 0.377828
-0.060835 -0.176823 -0.410550
0.123059 0.390545 0.212929
0.135900 -0.443407 -0.036885
-0.142221 -0.311806 0.315134
0.215931 -0.334514 0.291041
-0.101311 -0.233661 -0.380933
-0.163975 0.405045 -0.188388
0.105162 0.431663 0.109599
0.131373 -0.426168 -0.129339
0.253416 0.142634 -0.424200
-0.213886 0.340315 0.285623
-0.279432 -0.004417 -0.447457
-0.181531 0.089345 -0.438523
0.221243 -0.157935 -0.418322
0.274617 0.258821 0.360574
-0.290182 -0.424290 0.131449
-0.176382 0.335873 0.290662
0.025693 0.012075 0.442895
-0.069598 -0.118111 -0.431337
-0.024814 0.444968 0.026851
0.255464 0.385715 -0.225449
0.242045 -0.236392 0.374965
0.109110 -0.120517 -0.430639
0.284558 -0.366776 0.249455
-0.179022 -0.134423 0.422245
0.103276 -0.162748 0.412236
-0.116218 -0.343159 -0.285518
0.058349 -0.316805 0.310135
0.275083 -0.277107 0.345933
-0.198439 -0.355541 0.265201
0.211310 0.445773 -0.007729
0.154675 -0.444448 -0.017277
-0.270477 -0.139467 -0.424971
0.002979 0.232688 -0.382114
-0.192472 -0.437073 0.081035
-0.201817 -0.181838 0.404027
-0.081253 0.428039 0.122070
0.193427 -0.383872 0.222480
-0.194119 -0.054992 -0.444130
-0.082113 0.141749 0.420165
-0.094274 0.444890 0.027685
-0.263220 0.364106 -0.259245
-0.033674 -0.089873 -0.438175
0.218151 0.406521 0.180624
-0.185841 -0.439878 0.063325
0.124873 -0.263163 0.356749
0.132458 0.190339 0.400779
0.250229 -0.414827 -0.162863
-0.129670 0.180351 0.405114
0.124494 0.078818 -0.440539
0.142856 0.110799 -0.433727
0.112785 0.035510 0.441715
-0.005614 -0.310052 0.316888
0.011349 -0.141382 -0.424282
0.110861 0.344670 0.280538
-0.246818 0.442197 0.055152
0.227004 -0.441762 0.049935
0.091810 0.181378 0.404669
0.077292 -0.356098 0.264484
0.181779 0.445625 0.008077
-0.190710 0.329437 -0.302316
-0.089628 -0.259198 -0.363975
0.184280 -0.270054 -0.355757
-0.245703 0.410041 0.172490
-0.076198 0.408248 0.176634
-0.277417 -0.367011 0.249110
-0.204559 0.419653 0.147952
-0.179561 0.099059 0.431998
0.136879 0.335164 0.291466
-0.188243 -0.107374 -0.434263
0.213991 0.184545 0.403299
0.100207 -0.378871 0.230937
-0.199676 -0.414138 -0.164776
-0.072988 -0.363363 0.254478
-0.143169 0.001824 -0.447571
0.003040 -0.409266 0.171913
-0.200835 0.182635 0.404125
-0.033938 -0.052429 -0.444372
-0.250254 0.398817 0.196778
0.249970 0.268579 -0.357696
-0.187049 -0.074933 0.436639
0.105143 0.246811 0.368736
-0.194786 -0.086865 -0.438848
0.195123 -0.120775 0.426210
0.037647 0.432304 0.107028
-0.046023 -0.358166 -0.266171
0.252159 0.262283 0.358221
-0.096900 -0.294945 0.330875
-0.139796 -0.066639 0.437952
-0.038263 0.068861 0.437763
-0.009381 -0.027957 0.442332
-0.027645 0.341651 -0.288461
-0.093380 0.369832 0.246466
0.169824 -0.332987 -0.297126
0.088158 0.418307 -0.156043
-0.051473 -0.293456 -0.336541
-0.083975 -0.444531 -0.014629
-0.063831 0.445525 0.011255
-0.152710 0.046016 -0.445075
0.108008 -0.433736 -0.100391
-0.152380 -0.082041 -0.439867
-0.050220 0.162326 -0.417110
-0.238498 0.009679 -0.447324
-0.104090 -0.350449 0.271766
0.252945 0.281032 -0.348036
-0.011860 0.445645 -0.011796
0.217137 -0.285226 -0.343797
-0.267416 -0.345508 0.278135
0.170852 -0.062803 0.438560
0.272862 0.128413 0.424289
-0.190001 -0.190219 0.400318
-0.276072 -0.246982 -0.372277
-0.134870 0.337961 -0.292647
-0.043813 0.445141 -0.027831
0.220104 0.261972 -0.362786
-0.148652 0.358597 0.262583
-0.240065 0.042523 -0.445405
0.059381 0.261737 -0.362946
0.114517 0.026257 -0.446803
-0.049519 -0.316183 0.310757
0.104200 -0.314800 0.312141
-0.260100 -0.440377 0.060172
0.221283 0.148085 0.417884
0.160639 0.329977 0.297349
0.051061 -0.167489 0.410236
0.018616 0.252406 0.364934
0.111584 0.444745 0.029211
0.117004 -0.317848 -0.313446
-0.168376 0.445085 0.025277
0.152105 -0.284446 -0.344485
-0.236148 -0.444150 0.022404
0.276665 -0.331564 -0.298741
-0.063446 -0.384719 0.221048
-0.028100 0.410593 -0.175568
-0.174322 0.327377 -0.304652
0.264797 0.433916 -0.104171
-0.044797 0.100125 -0.436113
0.181108 0.259257 0.360278
0.013144 -0.203249 0.393679
-0.196223 -0.431221 0.107288
0.070118 -0.286359 -0.342798
-0.066478 0.397423 -0.203868
0.186785 -0.249589 0.366152
0.088226 -0.226314 -0.385278
-0.039321 -0.336843 0.288399
-0.153698 0.416735 0.156055
0.130646 0.117831 0.427363
0.131878 0.352113 0.270942
-0.133141 0.361276 -0.263410
0.113657 0.185939 -0.407049
-0.014586 0.342006 -0.288058
-0.214272 0.251627 0.365463
0.101211 0.410943 0.170404
-0.097095 0.433640 -0.105404
-0.140133 -0.416367 0.154232
-0.098329 -0.154473 0.415215
0.190996 -0.236494 -0.379257
0.123442 0.327701 -0.304285
-0.273793 -0.009290 0.442950
-0.054802 0.400344 -0.198135
-0.045218 -0.188548 0.401123
-0.249142 -0.444363 -0.019985
-0.063625 -0.436745 -0.086929
-0.252180 -0.444254 0.019105
0.053697 0.383116 0.225490
0.134327 -0.349728 0.272696
0.258151 0.091381 0.433714
-0.220008 -0.226351 0.380902
-0.060495 -0.418459 0.148421
-0.056476 0.105409 -0.434932
-0.244227 -0.321057 -0.310237
0.142703 -0.438558 0.071660
-0.146055 0.396588 0.201151
-0.172225 -0.402619 -0.191627
0.039843 -0.057997 -0.443675
-0.011535 0.400890 0.192709
-0.231470 0.220516 -0.389313
-0.193794 -0.434249 0.093744
-0.259628 0.445823 -0.006123
-0.233148 0.237708 -0.379145
0.212034 -0.245321 -0.373406
-0.050256 -0.339551 0.285328
0.018886 -0.208034 -0.395594
-0.133283 0.136685 0.421886
-0.145077 0.138029 0.421495
-0.286275 -0.128128 -0.428427
-0.290287 0.258939 0.360494
0.244044 -0.097448 0.432129
0.107817 -0.077684 -0.440557
-0.257101 0.378005 0.234133
-0.223329 0.439685 -0.075369
-0.080285 -0.120247 0.426363
0.135650 0.397124 0.200099
-0.242679 0.016212 0.442765
-0.205165 0.400829 -0.197182
-0.127395 -0.435565 0.087858
-0.273822 0.140746 -0.424879
0.060026 -0.414801 0.158581
0.125361 -0.150455 0.416662
-0.078034 0.338538 0.287639
0.118679 -0.396865 0.198597
-0.010696 -0.402683 0.187125
0.245071 0.121980 -0.430511
-0.224129 -0.339815 0.285029
-0.046388 -0.430607 -0.114058
-0.047685 -0.406741 -0.182102
-0.108060 0.317147 0.310818
0.194524 -0.173484 0.407642
0.284173 0.445158 -0.027308
-0.234526 -0.129271 -0.428095
-0.090539 0.433669 0.100924
-0.259417 -0.438020 -0.079413
0.249748 0.430091 -0.119361
0.030665 0.400492 0.193490
-0.196515 0.281266 0.343502
-0.028393 0.437045 0.085817
0.097147 -0.291808 -0.337994
-0.121835 0.336763 0.289652
-0.189073 0.116942 0.427621
0.207706 0.240407 -0.377442
-0.201129 -0.392847 -0.210837
-0.230440 0.324736 0.303229
-0.214722 0.442947 -0.052592
0.088137 0.092995 -0.437707
0.155750 0.336583 -0.294210
0.078949 -0.051852 0.440073
0.168314 -0.406412 -0.182861
0.268843 0.364834 -0.258175
0.130241 -0.102767 -0.435293
0.273877 0.249291 0.367051
0.236757 -0.029903 0.442148
0.118635 0.375742 0.237770
0.201904 -0.240589 -0.376622
0.267720 0.253642 -0.368447
-0.069449 0.300781 0.326634
-0.122242 -0.425846 0.126094
0.040221 -0.068569 -0.442000
0.012495 0.380385 0.230109
-0.136854 0.145640 0.418764
0.008465 -0.167096 -0.414759
-0.189272 0.292181 -0.338568
0.104794 0.223231 0.383354
-0.023715 0.335236 -0.295738
-0.257146 0.445199 -0.026003
-0.272326 0.215592 0.387871
-0.209734 -0.443907 -0.031594
-0.149980 0.049243 0.440417
0.094740 0.132975 -0.427317
0.117329 0.061180 -0.443333
-0.194518 -0.128363 -0.428359
0.221252 0.259712 0.359969
0.084290 -0.157757 -0.418386
-0.115684 0.432303 0.107035
-0.290204 0.442684 0.051018
0.284714 -0.288889 0.336214
-0.200430 -0.344760 -0.283454
0.072075 0.232459 -0.382250
0.157691 0.129588 0.423947
0.156656 -0.391502 0.209123
-0.060478 -0.440284 -0.065116
0.066943 -0.372136 0.241568
-0.021105 0.419203 -0.153554
-0.094617 -0.222185 -0.387720
-0.061672 0.428337 0.121046
0.004689 0.425257 0.131647
-0.127590 -0.358202 0.261770
0.053090 0.306042 -0.326276
-0.036000 0.306573 -0.325746
0.232805 -0.279606 -0.348348
0.070379 -0.414650 0.159001
-0.176501 -0.412909 -0.167847
-0.039788 -0.061079 0.438833
-0.026891 0.132558 0.423084
-0.220363 0.141257 -0.424695
-0.102653 0.384993 -0.226670
0.281267 0.443773 0.039492
0.271200 0.445249 0.020041
0.226520 -0.318414 -0.312879
0.274810 -0.444645 -0.011015
0.273491 0.040692 0.441225
0.031672 0.302746 -0.329254
0.092504 0.284015 -0.345723
-0.074691 0.203263 0.394193
-0.057381 -0.224042 -0.386622
-0.220446 0.176207 -0.411260
0.184972 -0.444660 0.006186
-0.021491 -0.441992 -0.051853
-0.042509 -0.241044 -0.376312
-0.139473 0.065701 -0.442617
0.161206 0.378335 0.233575
0.012008 -0.161786 0.412582
0.097129 -0.097491 -0.436472
-0.268100 -0.252702 -0.368390
0.019471 0.235983 -0.380166
0.046165 0.441324 0.060664
0.282905 -0.422954 0.135936
-0.001415 -0.420347 -0.147531
-0.036216 0.445211 0.021250
-0.036842 0.419088 -0.153874
0.229846 0.303116 0.324575
0.078992 -0.237323 0.374414
-0.026648 0.376636 0.236448
0.039091 0.293140 -0.337723
0.282471 0.205808 0.392897
0.265365 -0.314716 0.312224
0.157876 0.254216 0.363704
-0.110336 0.352596 -0.274673
-0.165070 0.377007 0.235820
-0.075251 0.435076 -0.098983
-0.274112 -0.422077 0.138372
0.167903 -0.370694 -0.248043
0.281993 0.233859 0.377068
-0.018315 0.187737 -0.406271
-0.023115 -0.009590 0.442941
0.212243 0.332349 -0.299013
-0.209259 -0.127354 0.424299
-0.045902 0.186543 0.402434
-0.012822 -0.346609 0.276716
-0.169941 -0.274182 -0.352555
-0.233621 -0.272008 0.349888
-0.243129 -0.372866 0.240494
0.025352 -0.385903 -0.223400
-0.026761 0.111616 0.429169
-0.027361 0.438768 -0.081159
0.034971 0.019288 -0.447022
-0.102961 -0.342711 0.281742
-0.064818 0.088303 -0.438755
0.186464 -0.159522 0.413397
0.088894 0.250124 -0.370838
0.236127 0.328552 0.298965
-0.253122 -0.375517 0.236593
0.005718 0.034417 -0.446172
0.028624 -0.444152 0.022338
0.118733 -0.183366 0.403366
0.286169 -0.062776 -0.442918
-0.081590 -0.162587 -0.416647
-0.235970 0.324505 -0.307814
0.281735 0.445470 -0.017358
0.219667 0.277333 0.346552
0.012069 -0.443422 -0.036720
-0.057488 -0.406246 0.178891
-0.113715 0.061102 -0.443345
0.211225 0.265977 -0.359714
-0.174768 0.433512 0.101624
0.127359 -0.273258 -0.353272
0.151531 -0.215357 -0.391758
0.118564 0.043938 0.440918
-0.201216 0.393857 -0.210865
-0.116003 -0.122454 0.425722
-0.144166 -0.389307 0.213290
0.172883 0.357550 0.263932
-0.224958 -0.361887 -0.261003
0.244239 0.169521 0.409800
-0.046979 -0.365630 -0.255494
0.008936 -0.303585 -0.327611
0.277300 -0.389450 -0.217401
0.010548 -0.312868 0.314073
-0.129999 0.444935 -0.031559
0.092818 -0.407474 0.176054
-0.195414 0.163540 0.412320
0.138204 -0.057899 -0.443690
-0.235038 -0.309453 0.317487
-0.233534 0.438539 -0.082601
0.030845 -0.424509 0.130696
-0.075689 -0.322956 0.303984
0.050347 -0.433910 0.095262
0.044105 0.411985 -0.172351
0.258963 -0.278354 -0.349319
0.175336 -0.135294 0.421992
-0.214673 0.305258 0.322686
-0.018021 0.176700 -0.411047
0.233194 -0.151092 -0.420786
-0.198422 0.131726 -0.427680
0.077453 -0.439258 -0.071592
0.056267 0.357286 -0.268626
0.064991 0.397371 0.199615
0.227388 -0.420976 -0.145783
-0.143241 -0.236932 0.374645
0.270713 0.445605 0.008715
0.008437 -0.371759 -0.246477
0.011136 -0.400354 0.191749
0.069600 0.416600 -0.160785
0.118792 0.271771 -0.355220
-0.158974 -0.294751 -0.335399
0.085040 0.189982 0.400946
0.160353 -0.444184 -0.025692
-0.290017 0.386882 0.219123
-0.169124 0.443122 -0.050740
-0.066027 -0.100912 -0.435708
0.194374 -0.300740 0.325766
-0.005232 0.286899 -0.343225
0.223774 -0.366029 -0.254908
-0.117814 0.244762 0.370129
-0.289809 -0.244823 0.369391
0.158561 0.344125 -0.285593
-0.160942 -0.413885 -0.165478
0.175999 -0.002080 -0.447530
0.031713 -0.399266 0.193885
-0.270477 -0.216431 -0.391122
-0.148016 0.442498 -0.057339
-0.072809 0.288608 -0.341718
0.231477 0.240123 0.373281
-0.279996 -0.142982 -0.423706
0.141793 -0.102316 -0.435394
-0.073347 -0.107163 -0.434310
-0.288421 -0.263333 -0.360970
-0.259352 0.434083 0.099071
0.001441 0.441881 -0.061503
-0.117940 0.125127 0.425244
-0.175030 0.263530 0.357259
-0.250598 0.091654 -0.438006
0.054699 0.397686 0.198998
0.124173 0.230378 0.379127
0.146513 -0.307842 -0.323451
-0.057429 0.384000 -0.228350
-0.051088 -0.444129 -0.027441
0.208363 0.325203 -0.307115
-0.106896 -0.087903 -0.438616
0.004913 0.348145 -0.280410
-0.285858 -0.025724 -0.446787
0.197906 0.027419 -0.446766
-0.076141 -0.413564 -0.166333
-0.098160 -0.137785 -0.425576
-0.097617 -0.437660 -0.081685
-0.120376 0.410217 -0.176437
-0.004912 0.157468 -0.418859
0.159287 -0.170208 0.409060
-0.214232 -0.327436 0.299069
-0.132670 0.390368 -0.217581
0.202249 -0.315604 0.311336
-0.215975 0.117120 -0.431923
-0.105160 0.095141 0.432873
-0.043093 0.136822 -0.426199
0.066396 -0.308002 -0.323292
0.028423 0.131325 0.423443
-0.151718 0.445646 0.007426
0.284170 0.442837 0.049398
-0.106304 -0.243672 -0.374526
0.160742 0.177957 -0.410503
0.084239 -0.374917 -0.241830
0.187085 0.190329 0.400784
-0.270042 -0.178245 -0.409935
0.039683 -0.131563 -0.427429
0.228077 0.320345 -0.311974
0.052852 0.060100 -0.443504
-0.045853 -0.444485 -0.016095
0.041289 -0.440451 -0.064062
-0.187118 0.427605 -0.127917
0.247840 0.432653 0.105468
-0.103200 0.167277 0.410772
0.094453 0.012489 -0.447235
0.072474 -0.135912 0.421812
0.179074 -0.387331 -0.220984
0.128021 0.383948 -0.228438
0.072100 0.080181 -0.440323
-0.168810 -0.255350 -0.366590
0.007445 0.445104 0.024657
0.145776 0.231943 -0.382555
-0.063562 -0.410905 -0.172479
-0.250158 0.407395 -0.182959
-0.061953 -0.039236 0.441266
0.124344 -0.420740 -0.146438
0.074312 -0.021695 -0.446914
0.218828 0.400572 -0.197685
0.212550 0.215043 -0.392544
-0.217320 -0.436784 0.082401
-0.176806 0.367055 0.250553
-0.170911 -0.442630 0.040748
0.030540 -0.336666 0.288600
0.111629 0.299632 0.327646
0.126860 0.127550 -0.428893
-0.106544 -0.110713 0.429133
-0.233317 0.394907 -0.208805
-0.154557 0.441240 -0.065551
-0.063690 0.040288 -0.445617
-0.154889 0.229038 0.379919
-0.228856 -0.288359 0.336682
0.230941 -0.095663 -0.436881
-0.111287 0.368063 0.249069
0.002737 -0.331029 0.294993
0.284326 -0.430535 0.109954
0.286386 -0.044217 -0.445148
0.159090 -0.425245 -0.132515
0.092060 0.190626 -0.404986
-0.059007 -0.048685 -0.444726
-0.201600 -0.001073 0.443208
0.211595 -0.410096 0.169994
0.112205 0.332523 0.294461
-0.119308 0.380837 0.229345
-0.209728 0.386044 -0.224893
-0.000379 0.146505 -0.422806
-0.232308 0.008322 0.443013
0.124670 0.188456 -0.405960
-0.020685 0.353758 -0.273174
-0.232626 0.246498 -0.373303
0.044804 -0.444347 0.016128
-0.112737 0.445231 -0.024988
-0.040724 0.026018 0.442457
0.049820 0.303982 0.323811
-0.244611 0.329875 0.297465
-0.127258 0.445276 0.019175
-0.221205 -0.055785 0.439672
0.113570 0.440870 -0.067887
0.231373 0.031606 -0.446437
-0.139945 -0.090335 -0.438072
-0.045619 0.111521 -0.433550
0.130874 -0.195660 -0.401898
-0.255730 0.284856 0.340674
-0.235622 0.188264 -0.406043
0.253899 0.389918 0.213989
0.012611 0.285276 -0.344656
0.221857 0.444601 0.030740
0.038684 0.254766 0.363330
-0.155035 0.445051 0.025978
0.267634 -0.102471 -0.435359
0.088866 -0.126822 0.424453
0.086918 -0.202606 0.394006
-0.099423 -0.380705 -0.232188
-0.278974 0.445599 -0.013255
-0.023549 0.444001 -0.041436
-0.118011 -0.194557 -0.402460
-0.033367 -0.381739 0.226087
-0.018923 -0.204628 0.392976
-0.166775 -0.291629 0.333798
-0.179276 0.425100 -0.136540
-0.003249 -0.396591 0.199136
-0.012471 0.326598 -0.305536
0.149175 -0.400560 0.191346
-0.010914 -0.390558 0.210976
-0.185424 -0.409005 0.172517
0.153924 0.101878 -0.435721
0.261303 -0.393605 -0.209348
-0.111990 -0.251461 -0.369233
-0.087321 -0.374578 0.237975
-0.049892 0.437020 -0.090284
0.089931 -0.225950 0.381140
-0.156357 0.443086 0.046763
-0.033052 0.394715 0.204827
-0.059489 -0.332611 0.293200
0.077459 -0.409684 0.170947
-0.150067 0.080910 -0.440208
-0.082607 0.001213 0.443236
0.035655 -0.193243 -0.403130
0.150795 -0.338455 0.286571
0.088709 -0.328215 0.298186
0.055554 -0.324236 0.302699
0.052055 -0.343315 0.280963
0.003052 0.006552 0.443069
0.072553 -0.289376 0.335785
0.217115 0.435464 0.092892
0.115589 -0.444633 0.007035
0.009399 0.120154 0.426688
0.001176 0.365596 0.252700
-0.079896 -0.316092 0.310848
0.076266 0.425678 -0.134552
-0.012388 -0.428841 -0.120135
0.154083 -0.427930 -0.123272
0.063189 0.394882 -0.208854
0.184796 -0.443617 -0.034657
-0.244016 -0.370245 -0.248703
-0.205808 0.394300 0.205642
0.133688 0.282056 -0.347242
0.221965 0.135454 -0.426597
-0.174320 -0.339205 0.285720
-0.269787 -0.043980 -0.445171
0.072442 0.265749 0.355537
0.221228 -0.386276 0.218414
-0.130690 -0.386594 -0.222231
0.141352 0.040799 0.441215
-0.017183 -0.001974 0.443180
-0.076939 0.199616 -0.400405
0.187977 0.092435 0.433478
-0.231316 -0.008400 -0.447332
0.188215 -0.262452 0.357300
-0.269265 -0.338835 -0.290493
0.274150 0.435019 0.094883
-0.272608 -0.144842 0.418682
0.164470 0.314558 0.313407
-0.038836 -0.433255 -0.102546
-0.152599 -0.405542 -0.184872
0.138874 0.344995 -0.284472
-0.289849 0.049104 0.440430
0.259197 0.210520 0.390496
-0.278956 0.444318 0.033728
-0.103541 -0.068246 0.437698
0.043129 0.310353 -0.321966
0.199723 -0.108518 0.429654
0.021437 -0.087136 0.434434
-0.242780 0.404047 -0.190694
-0.205071 -0.148035 0.417533
-0.171828 0.351086 0.272266
0.164193 0.061984 0.438852
-0.248051 -0.065825 -0.442435
0.082851 0.336127 -0.294728
-0.266505 0.410380 0.171707
-0.173286 -0.329246 0.297016
0.182927 -0.327868 0.298579
-0.109904 0.079615 0.436060
0.234824 0.141320 0.420319
0.198228 0.357947 0.263421
-0.289169 -0.443281 -0.038211
0.090981 -0.107593 -0.434214
-0.170808 0.061707 -0.443249
-0.114450 -0.094084 -0.437234
0.150138 -0.255330 0.362250
-0.120942 0.348678 0.275370
-0.001860 -0.443490 -0.036003
0.027347 0.419975 0.147056
-0.122861 -0.364297 0.253103
-0.093848 0.002891 -0.447537
0.204293 -0.251129 -0.369459
0.084090 -0.398220 -0.200290
-0.109158 0.418230 0.151903
0.046802 0.435396 0.093197
0.041698 0.441401 -0.064531
-0.220480 -0.444636 -0.011312
-0.024029 -0.437563 0.077943
0.212256 -0.204309 0.393138
0.216888 0.424665 -0.138037
-0.278595 0.293698 -0.337231
0.039471 -0.369686 0.245173
-0.242273 0.445352 -0.021130
-0.256966 -0.352604 -0.273342
-0.176569 -0.432892 0.099816
-0.198716 0.433747 -0.104926
-0.045224 -0.071980 0.437107
-0.210300 -0.318843 0.308097
0.007328 0.445741 0.004386
0.020418 -0.418198 -0.153500
-0.131758 0.349723 0.274023
0.226022 -0.307002 0.319938
0.242974 -0.374419 0.238210
-0.107882 0.028261 0.442386
-0.049089 -0.202793 0.393911
-0.026489 -0.413168 0.162896
0.252720 -0.146346 -0.422494
-0.029136 -0.312927 0.314013
0.272264 0.299188 0.328038
-0.204299 -0.029825 0.442155
0.263474 0.441647 0.058624
-0.145064 -0.397769 -0.201177
-0.044913 -0.426853 0.122626
0.154694 0.169159 0.409957
-0.192269 -0.224150 0.382204
-0.197956 0.121737 0.426228
0.133550 0.441671 0.058477
-0.025777 -0.437945 -0.079886
0.127802 0.444565 -0.035471
-0.244197 0.005525 0.443101
-0.202478 0.014391 -0.447176
0.046300 -0.374641 0.237883
-0.218454 -0.420433 0.142938
0.059480 0.445320 0.017788
0.015947 0.145310 0.418883
-0.077865 0.174451 0.407667
0.012752 0.385684 0.221148
0.035436 0.435830 0.091254
-0.259917 -0.120271 0.426356
0.075651 0.341998 0.283714
-0.255595 0.271499 -0.355431
-0.163176 -0.027480 -0.446731
-0.138558 0.102104 0.431317
0.061244 -0.033048 0.441851
0.084012 -0.337850 -0.291611
0.020175 -0.427878 -0.123451
-0.101266 -0.148967 -0.421551
0.015322 0.089343 -0.438523
-0.250822 0.366514 0.251349
0.256326 -0.405670 -0.184577
0.220359 -0.414548 0.159284
-0.044803 0.257651 -0.365723
-0.056913 0.394123 -0.210344
0.014884 0.312399 -0.319919
-0.182095 0.071270 0.437381
0.093730 0.378955 0.232527
0.023269 -0.313450 -0.317844
0.230504 0.257792 -0.365627
0.048120 0.202205 -0.399086
-0.133924 -0.187497 -0.405931
-0.037196 0.413903 -0.167919
-0.109407 0.442121 0.055633
0.285215 -0.441553 0.052143
-0.063279 0.368167 -0.253270
-0.071449 -0.196697 0.397017
0.222839 -0.340915 0.283780
0.114997 -0.214613 -0.392198
0.164217 0.372149 -0.247411
-0.248339 -0.443342 -0.037567
0.087696 -0.383471 -0.227511
0.156662 0.053152 -0.444401
0.046469 0.436151 -0.094173
0.284524 -0.405149 0.181426
-0.072485 0.175366 -0.411624
-0.128229 -0.058853 0.439186
-0.215655 0.380731 -0.233877
0.184918 -0.320638 0.306302
0.066540 0.005082 0.443115
-0.254455 -0.026416 -0.446766
-0.003459 -0.394386 -0.207817
-0.144076 -0.060449 -0.443286
0.180061 -0.444469 -0.016609
-0.142418 0.135873 -0.426475
0.190237 -0.034294 -0.446086
0.105805 0.177684 -0.410621
0.170047 0.199707 0.396005
-0.060864 -0.438587 -0.075832
-0.185618 0.402247 -0.194400
-0.192166 0.316382 0.311583
-0.148842 -0.326889 -0.304043
0.226221 0.223365 -0.387628
0.244774 0.404749 0.184718
-0.147170 0.242425 -0.376070
0.119763 -0.193182 -0.403161
0.132662 0.443663 -0.045019
0.121750 -0.310116 -0.321178
0.205504 -0.120533 0.426280
0.172152 0.369666 0.246711
0.071544 0.406398 -0.185262
0.274408 -0.132748 0.422732
-0.228106 0.340425 -0.289852
0.251481 -0.422477 0.137259
-0.279362 0.340582 -0.289674
0.281605 0.366955 0.250699
0.038711 -0.434722 0.091627
-0.044224 0.368605 0.248271
0.094514 0.401693 -0.195485
0.062107 -0.425864 0.126031
0.194968 0.149953 -0.421565
-0.044393 0.445769 0.003511
-0.214461 0.037720 -0.445860
-0.107270 -0.022384 0.442539
-0.242156 0.084116 -0.439691
0.085728 -0.294376 -0.335730
-0.043523 -0.389217 0.213442
0.269570 -0.302626 -0.328457
-0.095648 -0.032686 0.441885
-0.171073 -0.430463 0.110200
-0.199587 -0.254297 -0.367306
0.041396 -0.314925 0.312015
0.144645 -0.231190 0.378041
0.216957 -0.229004 0.379334
-0.144768 -0.443499 0.031550
-0.037601 0.444467 0.032157
0.204809 -0.443055 -0.040608
-0.171916 0.071870 -0.441640
-0.230923 -0.430563 -0.114210
-0.062740 0.418059 -0.156732
0.106297 0.101941 -0.435707
0.260705 -0.372145 -0.245908
-0.198260 0.369190 0.247412
0.082624 0.445025 0.026256
-0.054101 0.205171 -0.397575
0.154220 0.445199 -0.025993
-0.178311 0.140219 -0.425069
0.057192 -0.299745 -0.330997
0.104950 0.308779 -0.323539
-0.013443 0.410785 -0.175125
-0.239905 0.337199 -0.293511
-0.256573 0.115845 -0.432293
-0.179554 0.178537 -0.410252
0.029831 0.433516 0.101607
-0.272766 0.443858 -0.042946
-0.099523 -0.403924 0.184256
-0.114840 -0.303833 0.323039
-0.213014 -0.336700 0.288561
-0.059535 0.070579 0.437491
-0.122681 0.404854 0.184477
-0.193427 0.157971 -0.418678
-0.167450 -0.147265 -0.422163
-0.205556 0.441746 0.058003
-0.063677 -0.362799 -0.259660
0.251954 0.433517 -0.105956
0.037610 0.445226 0.020764
-0.126353 0.369152 0.247467
0.166847 -0.442565 -0.045793
-0.289211 -0.437293 -0.084000
-0.244810 -0.192957 0.398922
-0.232519 -0.407182 -0.181082
0.019719 -0.396532 -0.203604
0.052906 0.444536 -0.035782
0.143739 0.165148 -0.416046
0.180931 -0.073101 -0.441282
0.020518 -0.133324 -0.426918
-0.118033 -0.443361 0.033015
0.119886 0.012985 -0.447220
0.004029 0.421895 0.141725
0.097256 0.438533 0.078286
-0.081565 0.278029 0.346012
-0.288188 -0.303978 0.322911
-0.061322 -0.103317 0.430817
0.065532 0.103752 0.430948
0.168653 -0.165449 -0.415472
-0.281899 0.424775 -0.137661
0.103072 0.256428 0.362201
0.071159 0.112022 0.429051
-0.238546 0.377743 -0.238930
-0.125759 0.101773 0.431391
0.286921 0.407529 0.178296
0.232920 0.400228 -0.198361
-0.206067 0.278474 0.345668
0.204588 -0.424722 -0.134316
-0.269328 0.080308 0.435950
-0.238526 -0.125693 0.424781
-0.082320 -0.307921 0.319020
-0.145375 -0.321549 0.305392
0.001197 0.388379 0.216592
0.061694 -0.289739 0.335464
0.109776 -0.311612 -0.319682
0.178228 0.436603 -0.092152
-0.163218 0.236302 0.375623
0.045239 0.230498 0.379056
-0.096613 -0.371984 0.241792
-0.157402 -0.206523 0.392010
-0.286458 -0.375895 -0.240322
-0.158243 -0.439422 -0.070556
0.131320 0.257473 0.361491
0.078389 0.221945 0.384114
-0.072667 0.269039 0.352986
0.039182 -0.103662 -0.435093
-0.231640 -0.184624 0.402821
-0.028294 0.416951 -0.159809
-0.187412 -0.392383 -0.211747
-0.215534 0.411597 -0.173248
-0.149227 -0.009978 0.442929
0.111817 -0.218457 0.385571
0.032315 -0.443443 -0.036503
0.059707 0.313677 -0.318641
0.168520 -0.220190 0.384546
0.197575 -0.203934 -0.397683
-0.054701 -0.439431 0.066148
-0.104268 -0.390728 -0.214995
-0.160150 0.436156 0.089796
0.255802 -0.231291 -0.382334
-0.228255 0.375539 0.238069
-0.190086 -0.429422 -0.118137
-0.018775 0.413609 0.164244
-0.111866 -0.194195 0.398292
0.193724 0.160420 -0.417796
0.256368 0.403642 0.187278
-0.040456 -0.296040 -0.334263
-0.002701 -0.437273 -0.084125
0.018857 0.400424 0.193622
0.069544 -0.258064 -0.364745
-0.080660 -0.192577 0.399116
-0.283255 -0.357371 0.262842
0.220105 0.244997 0.369969
0.124812 0.395563 0.203164
-0.257266 0.415098 0.160602
-0.220657 -0.418197 -0.153501
0.188896 0.358868 -0.266587
0.122563 0.391460 -0.215570
-0.150105 0.333621 0.293216
0.193542 -0.338292 -0.291109
-0.053733 -0.179801 0.404909
0.273848 -0.250715 0.365387
-0.246589 -0.263489 0.356496
0.161741 0.441497 0.059575
0.039589 0.019929 0.442648
0.022208 -0.412720 0.163930
-0.168052 -0.351520 -0.274739
0.023184 0.410214 -0.176443
-0.249745 0.441757 -0.062288
-0.275922 -0.333823 -0.296178
-0.050467 -0.335220 -0.294593
0.127074 -0.025695 -0.446788
0.025932 0.057581 -0.443903
-0.193251 -0.077518 -0.440583
0.185370 -0.012434 0.442851
0.064749 -0.380348 0.228439
-0.024018 0.445424 0.014485
0.167805 0.314672 -0.317647
-0.167939 -0.021285 0.442573
0.148612 0.209781 -0.395226
0.066371 -0.439540 -0.069816
-0.015958 -0.124567 0.425108
-0.206692 0.261234 0.358934
-0.109164 0.444662 0.030095
-0.178233 0.445306 -0.022577
-0.210382 -0.218794 -0.389725
0.264078 -0.422034 0.138492
0.138147 0.244965 -0.374344
-0.196046 0.192857 -0.403849
0.159329 -0.232139 -0.381833
0.211571 -0.297843 0.328320
0.063350 -0.236440 -0.379289
0.267384 -0.216131 -0.391300
0.115955 -0.438387 -0.077094
-0.175864 -0.008189 -0.447338
-0.005600 0.327014 0.300710
-0.057463 -0.121703 -0.430294
-0.275336 0.254539 0.363484
-0.003432 -0.426905 -0.126800
0.123781 0.439288 -0.077872
0.176905 -0.093139 -0.437445
0.245396 -0.187704 -0.405842
0.252387 -0.036514 0.441523
-0.231229 -0.419484 0.145574
0.256475 0.269691 0.352480
0.274813 -0.438288 0.073366
0.094489 -0.320921 0.306020
0.196724 -0.142934 0.419369
0.210043 -0.397865 0.196634
0.144612 -0.240085 0.372611
0.212514 0.445116 0.024268
0.183443 0.108135 0.429969
0.163444 -0.253643 -0.367750
0.044934 0.243699 -0.375205
0.196684 0.428512 0.120445
-0.039400 0.031425 -0.446455
-0.017247 0.173773 0.407960
-0.120140 0.322713 -0.309606
0.137409 -0.407781 -0.179698
0.270821 -0.101515 0.431220
-0.108347 -0.395935 -0.204775
0.280525 0.417483 -0.158331
0.161862 0.338095 0.288142
-0.055407 0.335175 0.291453
0.098471 0.073675 -0.441354
0.085399 -0.440556 0.059043
0.270229 0.216071 -0.391941
0.043938 -0.444851 0.000115
0.025541 -0.433021 -0.103590
-0.249142 -0.436457 -0.088218
-0.140225 0.046600 -0.445020
-0.118092 -0.436507 -0.087995
-0.182250 0.387069 0.218807
-0.070678 -0.224547 -0.386323
-0.287912 -0.395071 -0.206472
0.239151 0.445382 -0.020168
0.134561 -0.436129 -0.089686
-0.290185 0.281346 -0.347793
0.247530 0.288321 -0.341972
0.020807 -0.065937 0.438064
-0.214164 0.048039 0.440531
0.203675 -0.214648 0.387824
0.245022 0.363184 0.256249
0.212262 -0.045103 -0.445065
-0.150979 0.104377 0.430809
0.011994 0.408366 0.176360
0.165654 -0.362938 -0.259456
0.078327 -0.064092 0.438356
-0.039839 0.330536 -0.301069
0.261267 -0.297569 0.328562
0.192735 0.445686 0.006152
-0.210843 -0.421553 -0.144182
0.134734 -0.043426 -0.445223
-0.171497 0.358244 -0.267391
0.205182 0.309156 0.318810
-0.188036 -0.137596 0.421291
-0.219777 0.097690 -0.436657
-0.207203 -0.221547 0.383743
-0.289654 0.444929 0.027269
-0.247146 0.331210 -0.300304
0.183329 0.137098 0.421766
-0.213054 0.019468 0.442663
-0.256176 -0.279591 0.344006
-0.122487 0.168844 0.410093
0.209998 -0.097757 -0.436413
-0.231024 0.151083 0.416804
0.063584 0.031087 -0.446487
-0.007112 0.445736 0.004538
0.031561 0.371830 0.243527
0.031595 -0.026805 0.442400
-0.107944 0.401002 -0.196843
-0.248972 -0.204111 0.393239
-0.162396 -0.217731 0.386000
0.261534 -0.036313 -0.445896
-0.231493 -0.444727 -0.008418
0.284719 0.392312 -0.213898
-0.163365 0.272711 -0.354491
-0.210351 -0.131696 -0.427391
0.276022 0.225364 0.382092
0.213313 0.378147 0.233894
0.207431 0.058827 0.439352
-0.032680 0.101103 0.431541
0.150851 -0.443978 -0.030845
0.124046 0.441850 -0.061701
0.219681 -0.444532 0.010247
0.018784 -0.440491 -0.063805
-0.269814 0.128227 0.424343
0.052106 -0.367047 -0.253410
0.199363 0.105166 -0.434986
-0.148464 0.444289 0.034037
-0.131251 0.426245 -0.132599
0.047160 0.416657 0.156274
-0.152185 -0.419957 0.144260
-0.091797 -0.067660 0.437791
0.004960 -0.286912 -0.342311
-0.102609 0.405211 0.183651
-0.240938 -0.138014 -0.425494
0.186708 0.065791 0.438249
0.219003 -0.193395 -0.403053
0.178101 0.405763 0.182376
-0.253099 -0.078366 0.436095
-0.245800 0.383218 -0.229672
-0.068670 0.277407 0.346495
-0.183287 0.167119 0.410840
0.156822 0.328372 -0.303523
-0.265832 0.370109 -0.250412
-0.074224 -0.444497 0.011354
-0.083996 0.219451 -0.389943
-0.277271 -0.312708 -0.318586
0.252146 0.443488 -0.046863
0.060854 -0.419327 -0.150362
-0.227429 0.228989 0.379949
-0.026750 -0.372615 -0.245217
0.196363 0.350581 0.272917
-0.151922 -0.329398 0.296843
0.206560 0.188450 -0.405962
0.055661 -0.432000 -0.108158
-0.186330 -0.415304 -0.161539
0.262508 -0.323216 0.303724
0.067528 -0.181462 -0.408543
-0.030213 -0.200967 -0.399194
-0.124558 -0.403083 -0.190554
0.171336 0.250566 -0.370537
0.211741 -0.186525 -0.406352
-0.030262 -0.162763 0.412231
0.246309 -0.356228 -0.268669
-0.022251 -0.381058 0.227238
-0.107053 -0.388486 0.214678
0.044381 0.444721 0.029467
0.164653 0.197410 -0.401529
-0.080902 -0.121800 -0.430266
0.049366 -0.402052 -0.192771
-0.067138 -0.085215 -0.439216
0.086005 0.151857 0.416526
0.159174 0.365815 0.252377
-0.275919 0.102494 -0.435583
0.156815 -0.381624 -0.230635
0.243289 0.024428 -0.446860
0.017669 0.424394 -0.138969
-0.168661 -0.426935 -0.126697
0.137853 -0.090466 -0.438043
0.174864 -0.443253 -0.038511
0.050260 -0.045080 0.440713
-0.240516 -0.111731 0.428838
0.026701 0.079962 -0.440358
0.260488 0.129484 0.423978
-0.103349 0.105733 0.430506
-0.288962 0.323870 -0.308449
-0.028438 0.411901 0.168193
0.225673 0.366889 0.250796
-0.264665 0.109645 -0.433985
-0.122056 0.363998 -0.259405
-0.006159 0.248801 0.367384
0.284412 -0.302750 -0.328347
-0.033372 -0.417836 -0.154504
0.148243 0.120477 -0.430948
-0.037062 -0.133363 0.422553
-0.264606 -0.392899 0.206382
0.018969 -0.063865 -0.442745
0.140598 -0.403101 0.186159
-0.154823 -0.176512 0.406331
0.173462 0.265233 -0.360292
0.285062 -0.041294 0.441071
-0.075466 -0.393646 -0.209268
-0.249450 0.231676 0.378360
-0.178064 0.444672 -0.034339
0.012232 -0.369476 0.245483
0.203320 0.131316 -0.427799
0.014752 0.109814 0.429593
-0.209935 -0.342890 -0.285864
-0.053465 -0.097393 0.432141
0.089921 0.441557 -0.063549
0.058031 0.086159 0.434881
-0.005673 0.102654 -0.435547
-0.012164 0.075443 -0.441074
-0.224515 0.402723 -0.193465
-0.022560 0.009772 -0.447321
0.194935 0.422687 0.139524
-0.241758 -0.417868 0.150063
0.245038 0.169982 -0.413954
-0.078449 0.314128 -0.318191
0.215895 0.292547 -0.338246
-0.196128 -0.271480 0.350297
-0.110789 -0.438750 0.070450
-0.025799 0.100879 -0.435944
0.012063 0.440732 0.064403
-0.047081 0.336260 -0.294576
0.261858 0.428186 -0.125918
-0.265340 -0.441665 0.050953
0.116197 0.378343 -0.237915
0.026555 -0.186480 -0.406371
-0.288646 -0.443169 0.035040
0.030933 0.393396 0.207417
0.285822 0.375200 0.238567
-0.135737 0.374013 -0.244667
0.276856 0.143015 0.419709
-0.238841 -0.237100 0.374545
0.078313 -0.308868 -0.322425
0.276637 -0.435276 -0.093504
0.087446 -0.434461 -0.097148
0.217999 -0.278220 0.345069
-0.098847 0.393735 0.206751
0.116804 0.429438 0.117255
0.282964 0.425362 -0.135638
-0.106638 -0.094130 0.432870
0.260516 -0.410328 0.169458
-0.157039 -0.056643 0.439536
-0.092674 0.423109 0.138350
-0.070283 -0.398370 0.195642
0.106720 0.405925 0.182001
-0.048290 -0.434282 -0.097949
0.062366 -0.364975 0.252106
-0.107215 -0.357296 0.262939
0.269885 0.342303 0.283368
-0.141827 -0.396816 0.198694
-0.265569 -0.250923 0.365245
0.164326 -0.402672 0.187150
-0.259033 -0.405367 0.180923
0.246328 0.076249 -0.440946
-0.159837 0.046706 0.440657
0.102401 -0.425508 0.127255
-0.129382 0.413024 0.165597
0.259018 0.187356 0.402083
0.139141 -0.440607 -0.063078
0.157267 -0.065075 -0.442554
-0.047539 0.188410 -0.405980
0.035219 -0.441487 0.052838
0.282763 0.125165 0.425232
-0.107292 0.366880 -0.255163
0.274968 0.353481 -0.273531
-0.214602 0.445296 -0.022904
0.107688 -0.307337 0.319603
-0.041634 -0.262825 0.357011
-0.066396 0.439400 0.072816
-0.180389 0.100292 -0.436075
0.206559 0.020918 -0.446971
-0.087305 -0.372021 -0.246091
0.054616 -0.439508 -0.070017
0.116464 -0.444788 -0.006463
0.220676 0.037132 -0.445915
0.073582 -0.421619 -0.143998
0.078288 -0.196671 0.397030
-0.056486 0.262485 -0.362423
0.191949 0.054116 -0.444310
0.285222 0.444340 -0.037848
-0.048549 -0.011364 0.442885
-0.146949 0.391078 -0.216320
-0.159435 -0.164382 0.411581
-0.098911 0.040527 0.441241
-0.206564 0.277404 -0.350851
-0.276722 0.318756 -0.313563
-0.161057 0.220967 0.384693
0.059978 0.205128 0.393243
0.045229 0.262982 -0.362037
0.215442 -0.259151 -0.364007
0.252177 0.353338 -0.273715
-0.000924 -0.266976 0.353791
-0.187127 0.250685 0.366103
0.231322 0.152135 0.416426
-0.064455 0.205005 -0.397659
-0.189683 0.215521 -0.392267
0.118142 0.244302 -0.374795
0.079173 0.269670 -0.356849
0.178511 -0.048052 -0.444786
-0.183042 -0.125150 0.424939
-0.285878 -0.247142 -0.372168
-0.202791 0.321126 0.306839
