-0.290288 -0.415002 0.214654
-0.290288 0.248880 0.367632
-0.290288 -0.415087 0.169675
-0.290288 -0.433682 0.104415
-0.290288 0.217022 0.430413
-0.290288 0.406164 -0.290796
-0.290288 0.484460 0.094109
-0.290288 -0.030962 0.463927
-0.290288 0.124547 -0.483805
-0.290288 0.370496 -0.271852
-0.290288 -0.127522 0.466322
-0.290288 0.376419 0.246477
-0.290288 0.150805 0.423325
-0.290288 0.472994 0.076824
-0.290288 -0.127154 0.476218
-0.290288 -0.452172 0.140544
-0.290288 0.041510 0.441570
-0.290288 0.359947 -0.287108
-0.290288 -0.440934 0.226954
-0.290288 -0.030720 -0.459976
-0.290288 -0.175604 -0.425169
-0.290288 -0.312319 0.385124
-0.290288 0.426693 -0.179629
-0.290288 -0.453818 0.035507
-0.290288 0.083042 0.435910
-0.290288 -0.374439 0.267846
-0.290288 0.497973 0.010596
-0.290288 0.450022 -0.051645
-0.290288 0.227303 -0.443862
-0.290288 -0.419925 0.180208
-0.290288 0.168334 0.420152
-0.290288 -0.190806 0.401294
-0.290288 -0.471781 0.088761
-0.290288 -0.324458 0.374634
-0.290288 0.472982 -0.105168
-0.290288 -0.494815 -0.042929
-0.290288 -0.334823 0.339139
-0.290288 0.466011 -0.173261
-0.290288 0.388036 0.240523
-0.290288 0.126333 0.454473
-0.290288 -0.439673 -0.087003
-0.290288 -0.113752 0.452310
-0.290288 0.446605 -0.006817
-0.290288 -0.348329 0.274994
-0.290288 0.244462 0.414786
-0.290288 -0.074179 -0.475881
-0.290288 0.064560 -0.482424
-0.290288 0.390393 0.252790
-0.290288 0.187417 0.438061
-0.290288 -0.197920 0.443845
-0.290288 -0.036655 0.466517
-0.290288 -0.304364 0.323910
-0.290288 -0.408781 0.216373
-0.290288 0.236759 -0.383906
-0.290288 -0.325096 0.324558
-0.290288 -0.459219 -0.090087
-0.290288 0.289642 -0.397865
-0.290288 0.204630 0.451874
-0.290288 -0.452934 0.173839
-0.290288 0.122506 0.476505
-0.290288 -0.321925 -0.341557
-0.290288 -0.464879 0.012935
-0.290288 0.344303 -0.358303
-0.290288 0.440816 0.199153
-0.290288 0.058426 0.468051
-0.290288 -0.209191 -0.449403
-0.290288 0.329547 0.320379
-0.290288 0.430032 -0.252673
-0.290288 -0.466312 0.161089
-0.290288 -0.422317 0.138019
-0.290288 -0.409077 0.173240
-0.290288 0.090466 -0.483215
-0.290288 -0.374377 0.280804
-0.290288 0.382252 0.253089
-0.290288 -0.158855 -0.452693
-0.290288 0.197122 0.398954
-0.290288 -0.421149 0.172745
-0.290288 0.231223 -0.416508
-0.290288 0.032508 -0.461990
-0.290288 0.256725 -0.407554
-0.290288 0.220335 0.410612
-0.290288 0.075175 0.442410
-0.290288 0.451126 -0.159776
-0.290288 0.323482 -0.310188
-0.290288 -0.469542 0.023830
-0.290288 -0.408989 0.219513
-0.290288 0.219107 0.398276
-0.290288 0.477920 0.110031
-0.290288 0.271019 -0.405368
-0.290288 0.254156 -0.423979
-0.290288 0.358887 -0.322477
-0.290288 0.088218 0.448152
-0.290288 0.012065 -0.482965
-0.290288 0.396593 -0.214805
-0.290288 -0.486184 -0.106984
-0.290288 -0.476123 0.007109
-0.290288 0.183524 0.459748
-0.290288 0.191149 -0.435535
-0.290288 0.164340 0.445315
-0.290288 -0.411273 0.178080
-0.290288 0.168157 -0.463855
-0.290288 0.197195 -0.454356
-0.290288 0.449810 -0.214503
-0.290288 0.487403 -0.055288
-0.290288 -0.200105 0.423606
-0.290288 0.215320 -0.441523
-0.290288 0.475631 -0.019679
-0.290288 -0.243171 0.421543
-0.290288 -0.452204 -0.055151
-0.290288 0.252522 0.372285
-0.290288 -0.461898 0.149385
-0.290288 -0.392519 -0.212284
-0.290288 0.308033 0.355306
-0.290288 -0.461263 -0.086343
-0.290288 0.255992 0.363699
-0.290288 -0.055742 -0.445203
-0.290288 0.389945 0.295553
-0.290288 -0.476090 0.023691
-0.290288 0.229983 -0.391982
-0.290288 0.428712 -0.191772
-0.290288 -0.444300 -0.034655
-0.290288 0.163062 0.455826
-0.290288 0.371312 0.264208
-0.290288 -0.445748 0.007429
-0.290288 0.303195 -0.395774
-0.290288 -0.384933 -0.301803
-0.290288 0.018075 -0.477105
-0.290288 -0.084798 -0.474121
-0.290288 -0.137627 0.452053
-0.290288 0.447988 -0.150962
-0.290288 -0.109564 -0.486159
-0.290288 -0.485341 0.026203
-0.290288 -0.449547 0.126992
-0.290288 0.413645 0.243533
-0.290288 -0.166589 -0.445187
-0.290288 0.226814 0.418110
-0.290288 -0.366010 0.303663
-0.290288 0.431143 -0.207155
-0.290288 -0.342171 -0.297644
-0.290288 0.151054 0.426874
-0.290288 -0.375961 -0.270952
-0.290288 0.169586 0.450701
-0.290288 0.333023 0.320061
-0.290288 0.460823 0.010100
-0.290288 -0.467202 -0.084649
-0.290288 0.200854 -0.438240
-0.290288 0.198722 -0.447854
-0.290288 -0.443383 0.187518
-0.290288 0.000467 0.459632
-0.290288 -0.445982 0.184962
-0.290288 0.423560 0.184209
-0.290288 0.354461 -0.333929
-0.290288 -0.387414 -0.309556
-0.290288 0.127506 -0.439827
-0.290288 -0.335942 -0.325731
-0.290288 0.473256 0.091028
-0.290288 -0.426085 0.199802
-0.290288 -0.206003 0.423782
-0.290288 0.414906 -0.276296
-0.290288 0.374914 0.299155
-0.290288 -0.084532 -0.440828
-0.290288 0.270647 0.356285
-0.290288 -0.428993 0.244504
-0.290288 0.364598 -0.305465
-0.290288 -0.322976 -0.376891
-0.290288 0.346454 -0.327987
-0.290288 0.156137 0.432853
-0.290288 0.451006 -0.032469
-0.290288 -0.040003 -0.493688
-0.290288 -0.320285 -0.373532
-0.290288 0.471835 -0.119359
-0.290288 -0.373197 0.319140
-0.290288 -0.455127 0.011300
-0.290288 -0.466488 0.066221
-0.290288 -0.128311 -0.445183
-0.290288 -0.456059 0.195563
-0.290288 0.234441 -0.414728
-0.290288 0.485162 0.102440
-0.290288 0.037589 0.450874
-0.290288 0.439946 -0.079521
-0.290288 0.432806 0.140698
-0.290288 0.398195 0.268785
-0.290288 -0.455262 0.086553
-0.290288 -0.253643 -0.379913
-0.290288 0.251565 -0.375934
-0.290288 0.476336 -0.079133
-0.290288 -0.173173 -0.440075
-0.290288 0.487927 0.097121
-0.290288 0.489998 -0.067133
-0.290288 -0.083996 -0.481099
-0.290288 -0.448664 -0.182546
-0.290288 0.439727 0.219508
-0.290288 0.315754 -0.373753
-0.290288 0.437416 -0.131752
-0.290288 -0.386859 0.238695
-0.290288 0.455350 -0.060845
-0.290288 -0.152530 0.427156
-0.290288 -0.323108 -0.333903
-0.290288 -0.173354 0.463618
-0.290288 0.299612 0.379022
-0.290288 -0.358469 -0.291040
-0.290288 -0.260468 0.401022
-0.290288 -0.220906 0.384508
-0.290288 0.494157 -0.067545
-0.290288 0.350947 -0.284130
-0.290288 -0.454242 -0.203023
-0.290288 0.473279 0.123741
-0.290288 0.033504 -0.497570
-0.290288 0.458275 0.157796
-0.290288 0.103383 -0.441919
-0.290288 0.273194 -0.375306
-0.290288 0.471730 -0.046471
-0.290288 0.489092 -0.097737
-0.290288 -0.430327 -0.116011
-0.290288 0.328852 0.307532
-0.290288 -0.332176 -0.309556
-0.290288 0.489145 -0.088454
-0.290288 -0.376664 0.300519
-0.290288 -0.304589 -0.329286
-0.290288 0.399555 -0.253502
-0.290288 0.143887 0.461844
-0.290288 -0.375081 0.242405
-0.290288 -0.322564 0.350341
-0.290288 -0.408694 0.222603
-0.290288 0.064300 0.452841
-0.290288 -0.226832 -0.414226
-0.290288 -0.236250 0.379278
-0.290288 -0.109665 -0.442460
-0.290288 -0.261807 0.378462
-0.290288 -0.423775 -0.253863
-0.290288 -0.266887 0.364132
-0.290288 0.462053 -0.186564
-0.290288 -0.386833 0.246400
-0.290288 -0.456156 0.191626
-0.290288 -0.327713 0.339586
-0.290288 -0.348387 0.296434
-0.290288 -0.033242 0.491304
-0.290288 -0.266807 0.372767
-0.290288 -0.432588 -0.131147
-0.290288 -0.435117 -0.188069
-0.290288 -0.426248 0.127791
-0.290288 -0.477509 0.082826
-0.290288 -0.357272 0.341983
-0.290288 -0.471494 0.049091
-0.290288 0.433828 -0.157723
-0.290288 -0.399706 0.255103
-0.290288 -0.108699 0.465335
-0.290288 -0.491468 0.042307
-0.290288 -0.434330 -0.170433
-0.290288 -0.329457 0.344689
-0.290288 -0.438630 0.136987
-0.290288 0.259548 -0.400715
-0.290288 -0.435610 0.163871
-0.290288 0.409240 -0.241599
-0.290288 -0.084827 0.438439
-0.290288 0.359256 -0.270791
-0.290288 -0.464246 -0.121869
-0.290288 0.419452 0.150226
-0.290288 -0.041612 -0.458967
-0.290288 -0.445060 -0.060452
-0.290288 -0.049918 0.461070
-0.290288 -0.213372 0.388624
-0.290288 0.143654 0.426501
-0.290288 -0.459061 0.102619
-0.290288 -0.433142 -0.114307
-0.290288 -0.244583 -0.382797
-0.290288 -0.127403 -0.478912
-0.290288 0.468217 0.118041
-0.290288 0.260842 -0.387989
-0.290288 0.421306 -0.156475
-0.290288 0.356073 0.286471
-0.290288 0.481141 -0.123237
-0.290288 0.477480 0.015796
-0.290288 0.144507 -0.455297
-0.290288 -0.225955 -0.444713
-0.290288 0.158008 -0.455638
-0.290288 0.374266 -0.330179
-0.290288 -0.211040 0.401914
-0.290288 -0.260357 0.388796
-0.290288 -0.482865 -0.059250
-0.290288 0.463440 0.080838
-0.290288 0.237964 0.375528
-0.290288 0.440363 -0.104590
-0.290288 0.083654 0.477928
-0.290288 -0.340920 -0.328635
-0.290288 -0.216938 -0.437337
-0.290288 0.255487 0.389810
-0.290288 -0.265730 0.355228
-0.290288 -0.233246 0.391758
-0.290288 0.393425 -0.212363
-0.290288 0.179169 0.456716
-0.290288 -0.125070 -0.460623
-0.290288 0.119708 -0.443340
-0.290288 -0.257686 -0.413104
-0.290288 0.490812 -0.046011
-0.290288 0.430238 -0.166572
-0.290288 0.352411 0.281082
-0.290288 0.421084 0.206359
-0.290288 0.413096 0.202010
-0.290288 -0.316000 0.363830
-0.290288 -0.322851 -0.312088
-0.290288 -0.259546 0.412728
-0.290288 0.182763 0.406804
-0.290288 -0.453843 0.080775
-0.290288 0.441906 0.079159
-0.290288 -0.247055 -0.378214
-0.290288 0.419323 -0.243616
-0.290288 -0.107199 -0.475745
-0.290288 -0.476002 -0.099257
-0.290288 -0.468266 0.164021
-0.290288 -0.199822 -0.417120
-0.290288 0.374120 -0.292607
-0.290288 0.245454 -0.375067
-0.290288 0.400136 0.274478
-0.290288 0.409960 0.231196
-0.290288 0.160419 -0.445656
-0.290288 0.109883 -0.466079
-0.290288 -0.418407 0.192674
-0.290288 -0.314701 0.327357
-0.290288 0.347562 -0.315369
-0.290288 -0.454429 0.058257
-0.290288 0.059676 -0.451729
-0.290288 0.367832 0.296396
-0.290288 -0.348986 0.315423
-0.290288 -0.111345 -0.475844
-0.290288 0.397285 -0.245123
-0.290288 -0.374455 -0.276135
-0.290288 -0.019116 0.462909
-0.290288 -0.232901 -0.414230
-0.290288 -0.248773 -0.398533
-0.290288 -0.069977 -0.461217
-0.290288 0.454812 0.156388
-0.290288 0.275636 0.374508
-0.290288 -0.418937 0.168862
-0.290288 0.301994 -0.381572
-0.290288 -0.439754 -0.221835
-0.290288 -0.013913 0.463283
-0.290288 -0.432292 0.171956
-0.290288 0.382254 -0.263867
-0.290288 -0.194190 -0.437017
-0.290288 0.450589 -0.077710
-0.290288 0.422288 -0.237601
-0.290288 0.043611 0.471524
-0.290288 0.427303 0.251050
-0.290288 -0.449771 0.208921
-0.290288 0.131981 -0.464255
-0.290288 0.093517 0.484524
-0.290288 0.450506 0.096064
-0.290288 -0.416503 0.229714
-0.290288 0.459811 0.089296
-0.290288 -0.366934 0.277756
-0.290288 0.119758 0.471319
-0.290288 -0.021005 0.488434
-0.290288 0.415565 -0.195713
-0.290288 0.099203 -0.483109
-0.290288 -0.273173 -0.405054
-0.290288 0.161658 -0.425858
-0.290288 -0.465152 -0.166864
-0.290288 -0.257226 -0.384357
-0.290288 0.438415 -0.218601
-0.290288 0.128460 -0.478056
-0.290288 -0.393750 0.228308
-0.290288 0.362530 -0.302386
-0.290288 -0.253028 -0.424787
-0.290288 0.240324 0.379084
-0.290288 0.369326 -0.266482
-0.290288 0.476620 -0.041231
-0.290288 -0.297412 0.347110
-0.290288 0.269703 -0.401083
-0.290288 -0.338240 0.355298
-0.290288 -0.135403 -0.460609
-0.290288 -0.476709 -0.012424
-0.290288 -0.484206 0.047461
-0.290288 -0.367227 -0.255040
-0.290288 0.388567 0.282276
-0.290288 -0.310839 0.332764
-0.290288 -0.085817 -0.486801
-0.290288 0.481407 -0.126860
-0.290288 0.374151 0.312346
-0.290288 -0.452377 0.061588
-0.290288 -0.176801 -0.440579
-0.290288 -0.240757 0.390714
-0.290288 0.465638 -0.060661
-0.290288 0.470258 0.010665
-0.290288 -0.452878 -0.052051
-0.290288 0.476272 0.144166
-0.290288 0.454001 -0.040304
-0.290288 0.390383 0.288059
-0.290288 -0.296666 -0.352724
-0.290288 -0.394085 -0.258627
-0.290288 0.439113 0.196496
-0.290288 -0.156593 0.439492
-0.290288 -0.062403 -0.474550
-0.290288 -0.384592 -0.312528
-0.290288 -0.434424 0.182052
-0.290288 0.402826 -0.207767
-0.290288 0.000493 0.478278
-0.290288 -0.416702 -0.175138
-0.290288 0.393057 -0.288240
-0.290288 0.418556 -0.225568
-0.290288 0.383308 -0.276368
-0.290288 0.362493 0.267715
-0.290288 0.273462 -0.386618
-0.290288 -0.256931 0.398594
-0.290288 -0.336070 0.352336
-0.290288 -0.186260 0.459277
-0.290288 0.268735 0.402988
-0.290288 0.265092 0.386713
-0.290288 0.245104 0.370322
-0.290288 -0.103680 0.448133
-0.290288 -0.397737 0.235466
-0.290288 -0.092034 0.474843
-0.290288 0.332831 0.349033
-0.290288 0.364789 -0.258967
-0.290288 0.493388 0.064465
-0.290288 0.286064 0.376066
-0.290288 0.277420 0.359937
-0.290288 0.003359 -0.469222
-0.290288 -0.350853 -0.322882
-0.290288 0.198174 0.408141
-0.290288 0.127233 -0.453850
-0.290288 0.139225 0.458565
-0.290288 -0.107935 -0.434837
-0.290288 -0.247182 -0.373751
-0.290288 0.355198 -0.344995
-0.290288 -0.348704 -0.356785
-0.290288 0.008013 0.460153
-0.290288 0.496737 -0.028914
-0.290288 -0.453253 -0.188562
-0.290288 -0.409781 -0.275009
-0.290288 -0.024457 -0.486506
-0.290288 0.438741 -0.145940
-0.290288 -0.112333 0.448914
-0.290288 -0.159327 0.465119
-0.290288 -0.459684 -0.082926
-0.290288 0.072186 0.447144
-0.290288 0.166650 -0.415431
-0.290288 0.356969 -0.295150
-0.290288 -0.454590 0.075134
-0.290288 0.383509 -0.258721
-0.290288 0.177681 0.441721
-0.290288 0.448209 0.162342
-0.290288 -0.421366 0.260053
-0.290288 -0.202109 0.399394
-0.290288 0.250033 0.414387
-0.290288 -0.287134 -0.404036
-0.290288 -0.208250 0.442487
-0.290288 -0.339940 -0.309251
-0.290288 0.306146 -0.334117
-0.290288 -0.468526 0.123146
-0.290288 0.437351 -0.120153
-0.290288 -0.128674 -0.436568
-0.290288 -0.409454 0.275230
-0.290288 0.491288 -0.086072
-0.290288 0.233113 0.399498
-0.290288 -0.390676 -0.223009
-0.290288 -0.469009 -0.162668
-0.290288 -0.401762 0.209562
-0.290288 -0.184794 0.438001
-0.290288 0.426276 0.201012
-0.290288 0.414414 -0.227056
-0.290288 0.422405 0.228688
-0.290288 -0.442977 -0.119768
-0.290288 0.362460 0.309730
-0.290288 0.359161 0.319916
-0.290288 -0.058060 0.439877
-0.290288 0.379813 0.280597
-0.290288 -0.450125 0.178602
-0.290288 0.455858 -0.113847
-0.290288 -0.108221 0.444488
-0.290288 -0.461241 -0.128450
-0.290288 -0.429250 -0.225679
-0.290288 -0.020685 -0.458993
-0.290288 0.234761 -0.408684
-0.290288 -0.460478 0.082799
-0.290288 -0.014587 -0.456286
-0.290288 -0.483164 0.073274
-0.290288 -0.481053 0.093872
-0.290288 -0.404657 0.286483
-0.290288 0.394163 -0.244939
-0.290288 0.370633 0.269377
-0.290288 0.205628 0.406735
-0.290288 -0.440463 0.184847
-0.290288 -0.352272 -0.296796
-0.290288 0.463613 -0.080805
-0.290288 0.419885 0.244109
-0.290288 -0.428571 -0.203843
-0.290288 -0.407615 0.240565
-0.290288 0.429549 -0.126671
-0.290288 0.430485 -0.157317
-0.290288 0.142440 0.448045
-0.290288 -0.223991 0.432015
-0.290288 -0.435495 0.136079
-0.290288 0.120621 0.460286
-0.290288 -0.257798 0.402839
-0.290288 -0.448075 -0.171700
-0.290288 0.452066 0.111555
-0.290288 -0.464251 -0.059395
-0.290288 -0.188525 -0.457291
-0.290288 0.125433 0.438454
-0.290288 -0.450468 -0.130617
-0.290288 0.239323 -0.415268
-0.290288 -0.218013 -0.434256
-0.290288 0.488944 -0.075195
-0.290288 -0.474270 0.135231
-0.290288 0.077766 -0.493788
-0.290288 0.147933 -0.432266
-0.290288 0.059788 0.439212
-0.290288 0.275833 -0.382923
-0.290288 -0.462948 -0.056507
-0.290288 -0.096691 0.466219
-0.290288 0.155718 -0.469730
-0.290288 -0.466021 -0.133341
-0.290288 0.475280 -0.107748
-0.290288 -0.455337 0.018459
-0.290288 0.450177 -0.145769
-0.290288 -0.402917 0.271212
-0.290288 -0.141745 -0.474139
-0.290288 0.428328 -0.141843
-0.290288 0.130681 -0.433017
-0.290288 0.225695 -0.438999
-0.290288 0.151065 0.433818
-0.290288 -0.366155 -0.287379
-0.290288 -0.393604 -0.285796
-0.290288 -0.305392 0.370851
-0.290288 0.201415 0.429653
-0.290288 -0.422930 0.146311
-0.290288 0.387815 0.300446
-0.290288 0.438258 0.147632
-0.290288 0.406424 0.219843
-0.290288 0.446171 0.099188
-0.290288 -0.468717 0.041604
-0.290288 0.306773 -0.372000
-0.290288 -0.335752 0.328688
-0.290288 0.480413 0.074979
-0.290288 -0.446330 -0.219068
-0.290288 0.332289 -0.342635
-0.290288 0.433158 0.147327
-0.290288 0.403938 0.212509
-0.290288 0.112862 0.471592
-0.290288 0.465945 -0.040513
-0.290288 -0.386038 -0.246152
-0.290288 -0.445745 -0.207833
-0.290288 -0.094215 0.463350
-0.290288 0.101756 0.450622
-0.290288 0.487129 -0.028387
-0.290288 0.037319 -0.473579
-0.290288 0.040492 -0.446381
-0.290288 0.081958 0.455372
-0.290288 -0.422396 -0.223041
-0.290288 0.484518 -0.097221
-0.290288 0.088248 -0.448258
-0.290288 0.276338 0.369965
-0.290288 -0.124800 0.459765
-0.290288 0.009774 -0.449558
-0.290288 0.448063 0.109678
-0.290288 0.240799 -0.398419
-0.290288 -0.355165 -0.283790
-0.290288 -0.471484 -0.038133
-0.290288 0.398141 0.215984
-0.290288 -0.480104 0.074427
-0.290288 -0.186072 -0.429159
-0.290288 -0.446224 0.059000
-0.290288 -0.434389 0.238733
-0.290288 -0.446260 -0.215322
-0.290288 0.268002 -0.395417
-0.290288 -0.311531 0.379244
-0.290288 0.210626 0.403383
-0.290288 -0.283109 0.402727
-0.290288 0.186399 -0.437652
-0.290288 -0.440023 -0.149745
-0.290288 0.429361 0.171786
-0.290288 -0.430685 0.115227
-0.290288 0.486690 -0.077926
-0.290288 -0.162358 0.440860
-0.290288 0.494204 0.045134
-0.290288 -0.097822 0.462125
-0.290288 -0.380580 0.250399
-0.290288 0.299327 -0.340364
-0.290288 0.445498 -0.028131
-0.290288 0.187082 0.419296
-0.290288 -0.094286 0.435673
-0.290288 0.346477 -0.352046
-0.290288 0.327482 0.340740
-0.290288 -0.045428 -0.486066
-0.290288 -0.277532 0.357729
-0.290288 -0.148937 0.439379
-0.290288 -0.442829 0.042251
-0.290288 -0.050169 0.475670
-0.290288 0.338952 -0.366146
-0.290288 0.273009 -0.399932
-0.290288 -0.339726 0.361067
-0.290288 0.453693 -0.192744
-0.290288 -0.109700 -0.466552
-0.290288 0.353827 -0.274070
-0.290288 -0.428548 -0.229966
-0.290288 -0.396478 -0.203869
-0.290288 0.429740 0.210631
-0.290288 -0.425305 -0.154754
-0.290288 -0.332687 0.343871
-0.290288 -0.351887 0.306822
-0.290288 0.386375 -0.241320
-0.290288 0.386371 -0.265770
-0.290288 0.066421 -0.485711
-0.290288 0.114219 0.444975
-0.290288 0.071084 0.443313
-0.290288 -0.266738 -0.397245
-0.290288 -0.235354 0.431808
-0.290288 0.478281 0.137835
-0.290288 0.303200 -0.352144
-0.290288 0.317096 0.357844
-0.290288 0.181267 0.450523
-0.290288 -0.112299 -0.472530
-0.290288 0.044061 -0.473191
-0.290288 0.136294 0.476232
-0.290288 0.419972 -0.164271
-0.290288 0.466933 0.103250
-0.290288 0.055886 -0.455601
-0.290288 0.454329 -0.140886
-0.290288 0.210207 0.425189
-0.290288 -0.431997 -0.238561
-0.290288 0.238861 -0.435190
-0.290288 0.280617 -0.392665
-0.290288 0.266162 0.401080
-0.290288 -0.457506 -0.110767
-0.290288 -0.451040 0.099833
-0.290288 -0.412218 -0.272043
-0.290288 -0.058047 -0.459421
-0.290288 0.232522 0.404132
-0.290288 0.138599 -0.458804
-0.290288 0.124680 -0.451144
-0.290288 -0.268662 0.398470
-0.290288 -0.452748 0.002395
-0.290288 0.093242 -0.471916
-0.290288 -0.321433 0.310249
-0.290288 0.329858 0.337069
-0.290288 0.440902 -0.185673
-0.290288 -0.423464 -0.199040
-0.290288 -0.061249 0.477615
-0.290288 -0.213743 -0.393768
-0.290288 -0.455062 -0.172884
-0.290288 0.422074 -0.252091
-0.290288 -0.091970 0.451857
-0.290288 -0.480245 -0.101440
-0.290288 -0.331019 -0.299574
-0.290288 0.470934 0.152372
-0.290288 -0.452268 -0.041421
-0.290288 -0.166042 -0.415726
-0.290288 -0.247491 0.389601
-0.290288 -0.419199 0.152109
-0.290288 0.406624 -0.273208
-0.290288 0.170321 -0.444237
-0.290288 -0.448213 0.010263
-0.290288 0.458917 0.153552
-0.290288 0.380699 0.260508
-0.290288 -0.389811 -0.278511
-0.290288 -0.023992 0.480788
-0.290288 0.086423 -0.442396
-0.290288 -0.039758 0.442445
-0.290288 0.144660 0.436915
-0.290288 -0.419114 -0.235241
-0.290288 -0.449283 -0.101628
-0.290288 0.310468 -0.323318
-0.290288 0.244297 -0.431858
-0.290288 0.400659 -0.281870
-0.290288 0.102045 0.467703
-0.290288 -0.468744 -0.155197
-0.290288 -0.445252 0.149136
-0.290288 0.463178 -0.034744
-0.290288 -0.158065 -0.446158
-0.290288 0.002568 0.454511
-0.290288 -0.442202 -0.090046
-0.290288 0.229573 0.438868
-0.290288 -0.429666 -0.177580
-0.290288 0.342882 0.316609
-0.290288 0.455938 0.005689
-0.290288 0.096600 -0.437625
-0.290288 -0.100396 -0.478904
-0.290288 0.020078 0.448566
-0.290288 0.254716 -0.388367
-0.290288 -0.472322 -0.124330
-0.290288 -0.389036 -0.303121
-0.290288 0.090966 0.438422
-0.290288 0.285557 -0.392436
-0.290288 0.093459 0.479205
-0.290288 -0.470507 0.120599
-0.290288 0.472558 -0.088960
-0.290288 0.058123 0.477872
-0.290288 -0.032742 0.480757
-0.290288 0.398529 -0.285566
-0.290288 -0.267121 -0.361538
-0.290288 -0.427110 -0.137900
-0.290288 -0.429348 0.203123
-0.290288 -0.148444 -0.445247
-0.290288 0.443612 0.183531
-0.290288 -0.366425 -0.327489
-0.290288 -0.334394 -0.355007
-0.290288 0.422992 -0.234439
-0.290288 0.298586 0.364919
-0.290288 -0.300279 -0.384750
-0.290288 0.432849 0.220367
-0.290288 0.176280 0.435747
-0.290288 -0.408466 0.237461
-0.290288 -0.386343 -0.224023
-0.290288 0.452470 -0.209835
-0.290288 -0.280019 0.346418
-0.290288 0.085075 0.475209
-0.290288 0.224491 -0.410933
-0.290288 -0.279794 -0.402626
-0.290288 0.488034 0.093416
-0.290288 0.348663 -0.318609
-0.290288 -0.167910 0.414826
-0.290288 -0.127647 0.446469
-0.290288 -0.474720 0.079728
-0.290288 -0.208573 0.425487
-0.290288 -0.334809 0.316650
-0.290288 0.218424 0.433209
-0.290288 -0.264631 0.388416
-0.290288 -0.021159 -0.470144
-0.290288 0.149350 0.442123
-0.290288 0.345783 0.311009
-0.290288 -0.155969 0.462501
-0.290288 0.271210 -0.393954
-0.290288 0.463991 0.034580
-0.290288 0.267663 -0.414709
-0.290288 0.288850 -0.391858
-0.290288 -0.203914 -0.427318
-0.290288 0.463330 -0.074737
-0.290288 -0.433861 -0.161030
-0.290288 0.042850 0.445432
-0.290288 0.116072 0.469704
-0.290288 0.440320 -0.072116
-0.290288 0.033076 0.484473
-0.290288 -0.235856 -0.384477
-0.290288 -0.313096 -0.369451
-0.290288 0.202393 -0.407498
-0.290288 0.062937 -0.452826
-0.290288 -0.323863 0.364321
-0.290288 0.190639 -0.455304
-0.290288 0.441472 0.063925
-0.290288 0.451980 0.060075
-0.290288 -0.425068 0.157875
-0.290288 0.427690 0.153849
-0.290288 0.382834 0.256967
-0.290288 0.410920 -0.208309
-0.290288 0.452845 0.078716
-0.290288 -0.427058 -0.216310
-0.290288 0.238805 -0.412189
-0.290288 0.244152 -0.379510
-0.290288 -0.259749 -0.386389
-0.290288 0.097484 -0.462156
-0.290288 -0.154821 0.448459
-0.290288 -0.437677 0.080050
-0.290288 0.411389 -0.180968
-0.290288 0.176415 -0.459221
-0.290288 -0.147763 -0.459275
-0.290288 -0.448211 -0.030595
-0.290288 0.203338 -0.398620
-0.290288 0.152316 0.451187
-0.290288 0.454699 0.107518
-0.290288 0.486200 -0.110942
-0.290288 -0.008188 -0.447942
-0.290288 -0.176234 0.431376
-0.290288 0.324553 -0.338949
-0.290288 0.445090 0.154353
-0.290288 -0.352927 0.347597
-0.290288 0.462629 -0.118061
-0.290288 -0.458292 0.152838
-0.290288 0.464057 0.005999
-0.290288 -0.284593 -0.398379
-0.290288 0.249630 0.402373
-0.290288 -0.089859 -0.460295
-0.290288 0.467518 -0.030862
-0.290288 -0.079817 -0.467935
-0.290288 0.232367 0.432259
-0.290288 -0.438930 -0.179501
-0.290288 0.491842 -0.082716
-0.290288 0.005687 -0.458613
-0.290288 -0.281016 -0.367051
-0.290288 -0.142122 0.429931
-0.290288 0.357569 -0.284326
-0.290288 0.078332 -0.482457
-0.290288 -0.388885 0.242977
-0.290288 0.464639 -0.057241
-0.290288 -0.319511 0.358144
-0.290288 -0.269861 -0.375413
-0.290288 0.487430 -0.106784
-0.290288 -0.019170 -0.481725
-0.290288 0.005087 -0.480180
-0.290288 0.204148 -0.435611
-0.290288 0.404819 0.255114
-0.290288 0.095383 0.467082
-0.290288 -0.448131 0.189678
-0.290288 0.250170 -0.398952
-0.290288 0.442582 0.151039
-0.290288 0.420778 0.186193
-0.290288 0.280759 0.385759
-0.290288 -0.307511 0.376938
-0.290288 -0.042856 -0.449178
-0.290288 0.437264 0.189857
-0.290288 0.398866 0.250542
-0.290288 -0.461776 -0.134683
-0.290288 0.280429 0.358939
-0.290288 -0.490775 0.046276
-0.290288 -0.341836 -0.304186
-0.290288 -0.222935 0.403285
-0.290288 -0.353667 0.289800
-0.290288 -0.325946 -0.361925
-0.290288 -0.460790 0.030959
-0.290288 -0.462269 -0.065706
-0.290288 -0.449102 0.134936
-0.290288 0.011388 0.488595
-0.290288 0.466944 -0.033923
-0.290288 0.164996 0.418143
-0.290288 0.456568 -0.156841
-0.290288 0.027203 0.493995
-0.290288 0.452313 -0.168081
-0.290288 0.326364 0.368037
-0.290288 -0.233471 -0.437830
-0.290288 -0.387991 0.249896
-0.290288 0.197437 -0.430706
-0.290288 -0.084590 0.442094
-0.290288 -0.359067 0.320478
-0.290288 0.168199 -0.437824
-0.290288 0.047384 -0.482401
-0.290288 0.152171 -0.453232
-0.290288 -0.020383 0.475813
-0.290288 0.458870 0.113389
-0.290288 -0.089175 -0.464852
-0.290288 0.317325 -0.345429
-0.290288 -0.044198 0.441157
-0.290288 -0.346214 -0.283520
-0.290288 0.318627 0.319941
-0.290288 0.433917 0.233516
-0.290288 0.378131 -0.271011
-0.290288 0.451950 0.134096
-0.290288 -0.492192 0.004530
-0.290288 -0.396460 -0.298343
-0.290288 0.297841 -0.376451
-0.290288 -0.346610 0.281431
-0.290288 -0.193597 -0.425762
-0.290288 -0.354246 0.310396
-0.290288 0.399436 -0.242345
-0.290288 0.123045 -0.471317
-0.290288 -0.475193 -0.072898
-0.290288 0.400104 -0.215146
-0.290288 0.410717 -0.211986
-0.290288 0.140600 0.453480
-0.290288 0.274150 -0.396367
-0.290288 -0.060223 -0.443448
-0.290288 0.459754 0.001009
-0.290288 0.403699 -0.280406
-0.290288 -0.439173 -0.139531
-0.290288 -0.453378 0.096101
-0.290288 0.309776 0.335148
-0.290288 0.315169 0.362710
-0.290288 -0.403092 -0.242084
-0.290288 0.265719 -0.359918
-0.290288 -0.323362 -0.308869
-0.290288 0.133781 0.436039
-0.290288 0.387606 0.309415
-0.290288 -0.410020 -0.204367
-0.290288 -0.387244 -0.276249
-0.290288 -0.317080 0.334874
-0.290288 -0.426387 -0.180400
-0.290288 0.360230 0.341016
-0.290288 0.386657 0.305600
-0.290288 0.198350 0.443429
-0.290288 0.347667 -0.301596
-0.290288 -0.454328 0.166809
-0.290288 0.013196 -0.447259
-0.290288 -0.380923 0.317963
-0.290288 -0.410243 0.279203
-0.290288 -0.066099 0.460177
-0.290288 0.492517 -0.000078
-0.290288 0.402420 -0.236036
-0.290288 0.090039 -0.461801
-0.290288 0.340777 0.342413
-0.290288 0.381750 0.283680
-0.290288 -0.394737 -0.210088
-0.290288 0.320301 -0.325729
-0.290288 -0.352622 -0.315308
-0.290288 -0.454821 0.090162
-0.290288 -0.080139 -0.472269
-0.290288 -0.255758 0.369810
-0.290288 0.408832 0.180185
-0.290288 -0.155715 -0.463279
-0.290288 -0.254495 -0.402514
-0.290288 -0.158637 -0.468172
-0.290288 -0.275140 0.373532
-0.290288 -0.418247 0.189426
-0.290288 0.491899 0.017749
-0.290288 -0.446532 -0.163864
-0.290288 -0.075222 -0.480532
-0.290288 0.457149 0.087239
-0.290288 0.152034 0.417506
-0.290288 -0.276578 -0.412446
-0.290288 -0.194603 0.451368
-0.290288 -0.429790 0.120936
-0.290288 -0.319399 -0.377362
-0.290288 0.457965 0.177757
-0.290288 0.243670 0.395788
-0.290288 -0.174908 0.415324
-0.290288 -0.379326 -0.271143
-0.290288 -0.428559 0.158757
-0.290288 0.398076 0.198509
-0.290288 0.409591 -0.186633
-0.290288 0.445678 -0.034315
-0.290288 -0.439958 0.092788
-0.290288 -0.284142 -0.369323
-0.290288 -0.212034 -0.398079
-0.290288 0.478230 0.070576
-0.290288 -0.457586 0.029063
-0.290288 -0.158805 -0.464870
-0.290288 0.379313 0.320209
-0.290288 -0.320273 0.374766
-0.290288 0.078598 -0.475699
-0.290288 0.472722 -0.076648
-0.290288 -0.089816 -0.488645
-0.290288 -0.006447 0.466516
-0.290288 -0.479009 -0.128588
-0.290288 0.448143 -0.084729
-0.290288 -0.054367 0.487253
-0.290288 0.466722 -0.037061
-0.290288 -0.359444 0.315810
-0.290288 -0.214064 -0.432775
-0.290288 -0.442328 -0.128982
-0.290288 -0.161460 0.455846
-0.290288 0.061942 0.448870
-0.290288 0.157523 0.439303
-0.290288 0.426280 -0.133236
-0.290288 -0.194147 0.407059
-0.290288 0.224784 0.394946
-0.290288 0.213203 -0.430005
-0.290288 -0.454176 -0.023301
-0.290288 0.396101 -0.293269
-0.290288 0.342951 -0.309898
-0.290288 -0.428382 0.139885
-0.290288 -0.008587 0.449122
-0.290288 -0.429459 0.235798
-0.290288 0.363694 0.274229
-0.290288 0.464770 -0.093150
-0.290288 -0.273506 0.405648
-0.290288 0.473405 -0.101007
-0.290288 -0.221043 0.417423
-0.290288 -0.411633 0.170759
-0.290288 0.332072 0.339760
-0.290288 -0.396401 -0.244543
-0.290288 0.233070 0.408056
-0.290288 -0.196472 0.418021
-0.290288 -0.293839 -0.367437
-0.290288 0.261607 -0.371345
-0.290288 0.040968 -0.472434
-0.290288 -0.254201 -0.385802
-0.290288 -0.442766 0.070088
-0.290288 0.061128 0.491527
-0.290288 0.287587 -0.365315
-0.290288 0.267707 -0.382378
-0.290288 0.321371 -0.354715
-0.290288 0.134354 -0.456364
-0.290288 -0.339565 -0.292243
-0.290288 -0.056122 0.465938
-0.290288 0.181638 0.442923
-0.290288 0.440693 0.107762
-0.290288 0.278092 -0.350927
-0.290288 0.189067 0.404821
-0.290288 0.357177 -0.273349
-0.290288 -0.434853 0.230991
-0.290288 -0.228903 -0.432204
-0.290288 -0.105415 0.451895
-0.290288 0.119581 0.429031
-0.290288 -0.181292 -0.419080
-0.290288 0.408768 0.240192
-0.290288 -0.144398 -0.477904
-0.290288 0.462889 0.077655
-0.290288 0.437547 0.173083
-0.290288 -0.360373 -0.334046
-0.290288 -0.379530 -0.308078
-0.290288 0.111515 0.474989
-0.290288 0.436482 0.225845
-0.290288 -0.459659 -0.031352
-0.290288 0.393947 -0.216207
-0.290288 0.105110 0.454034
-0.290288 -0.436806 -0.115271
-0.290288 -0.286210 0.371270
-0.290288 0.079367 -0.488420
-0.290288 0.475426 0.065731
-0.290288 0.207201 -0.399949
-0.290288 -0.368602 -0.336020
-0.290288 0.447827 0.205001
-0.290288 -0.167890 0.466337
-0.290288 -0.377392 -0.251772
-0.290288 -0.290770 0.335837
-0.290288 0.474383 0.069918
-0.290288 0.153667 -0.429147
-0.290288 -0.417754 -0.189004
-0.290288 0.453708 -0.079092
-0.290288 0.435399 -0.204785
-0.290288 -0.463433 -0.148962
-0.290288 -0.264630 0.407256
-0.290288 -0.437923 -0.170717
-0.290288 -0.302175 -0.395263
-0.290288 -0.444194 0.023351
-0.290288 0.346472 -0.321385
-0.290288 -0.145269 -0.432785
-0.290288 -0.442272 -0.103321
-0.290288 0.433909 0.229994
-0.290288 0.374348 -0.319911
-0.290288 0.365392 0.317496
-0.290288 -0.337129 -0.357074
-0.290288 -0.465588 -0.153039
-0.290288 0.052416 -0.463793
-0.290288 0.210348 -0.453406
-0.290288 0.497156 0.027471
-0.290288 -0.037696 -0.498104
-0.290288 -0.194202 0.398351
-0.290288 -0.316071 0.324029
-0.290288 -0.276552 -0.379958
-0.290288 0.129690 -0.448182
-0.290288 -0.445989 0.003957
-0.290288 0.059579 -0.477859
-0.290288 0.059306 -0.493785
-0.290288 0.184108 -0.419091
-0.290288 -0.319305 -0.343403
-0.290288 0.225760 0.426862
-0.290288 -0.139863 0.427601
-0.290288 -0.422341 -0.250398
-0.290288 -0.097261 -0.441360
-0.290288 -0.234046 0.421556
-0.290288 0.095171 -0.456787
-0.290288 0.271982 -0.371181
-0.290288 0.104201 0.447442
-0.290288 -0.369477 0.249284
-0.290288 -0.130591 -0.463976
-0.290288 0.109546 -0.437954
-0.290288 -0.465251 -0.156922
-0.290288 0.452304 0.185737
-0.290288 0.345106 0.282976
-0.290288 -0.152529 -0.462320
-0.290288 -0.304634 0.362601
-0.290288 -0.019417 -0.464864
-0.290288 -0.489489 -0.009111
-0.290288 0.382905 -0.245754
-0.290288 -0.396432 0.269669
-0.290288 0.218886 -0.396357
-0.290288 -0.039513 -0.477424
-0.290288 0.486388 0.071704
-0.290288 -0.161424 0.412881
-0.290288 -0.481406 -0.078071
-0.290288 -0.397612 -0.252087
-0.290288 0.152227 -0.473388
-0.290288 0.305044 0.384888
-0.290288 0.467777 0.058812
-0.290288 -0.437118 -0.217452
-0.290288 0.479183 -0.048569
-0.290288 -0.444012 -0.185363
-0.290288 0.437138 0.217670
-0.290288 -0.422230 0.182366
-0.290288 -0.461645 -0.096956
-0.290288 0.151082 -0.476428
-0.290288 -0.192989 0.417885
-0.290288 -0.460590 0.106209
-0.290288 0.473964 0.004673
-0.290288 -0.460553 0.023791
-0.290288 0.292903 -0.399100
-0.290288 0.206794 0.423770
-0.290288 0.466718 0.008174
-0.290288 -0.312486 -0.345600
-0.290288 -0.288454 0.374559
-0.290288 -0.484059 0.014344
-0.290288 -0.256945 0.380899
-0.290288 0.232292 -0.429846
-0.290288 -0.475244 0.128927
-0.290288 0.240049 0.400338
-0.290288 -0.362120 0.281748
-0.290288 0.010332 0.494291
-0.290288 0.176216 0.457912
-0.290288 -0.278560 -0.399129
-0.290288 -0.385192 -0.258646
-0.290288 -0.457863 0.012587
-0.290288 -0.084887 -0.449047
-0.290288 0.402222 -0.203511
-0.290288 -0.440740 0.109496
-0.290288 -0.376732 -0.240651
-0.290288 -0.316808 0.374550
-0.290288 -0.401427 0.287892
-0.290288 0.190436 -0.431614
-0.290288 0.174323 -0.456284
-0.290288 -0.435929 0.203043
-0.290288 0.360836 0.332155
-0.290288 0.469921 0.139464
-0.290288 0.090443 0.434499
-0.290288 0.184876 0.449129
-0.290288 0.207404 0.445230
-0.290288 0.107507 0.459510
-0.290288 0.386736 -0.245577
-0.290288 0.492237 0.004912
-0.290288 0.051017 0.472032
-0.290288 -0.332848 0.354322
-0.290288 0.155977 0.422616
-0.290288 0.132550 0.465736
-0.290288 -0.481983 0.087300
-0.290288 0.292600 -0.390556
-0.290288 -0.460545 -0.068996
-0.290288 0.488315 -0.012310
-0.290288 -0.234607 -0.387497
-0.290288 0.284221 0.358214
-0.290288 -0.477317 0.020256
-0.290288 0.315204 -0.318034
-0.290288 0.457882 0.149314
-0.290288 0.174065 -0.444434
-0.290288 -0.409452 0.253675
-0.290288 -0.261272 0.385739
-0.290288 0.465398 -0.017416
-0.290288 -0.184652 0.412091
-0.290288 -0.103514 -0.479715
-0.290288 -0.424014 -0.151447
-0.290288 0.032540 -0.458658
-0.290288 -0.340262 0.326565
-0.290288 0.238427 0.418788
-0.290288 0.368970 0.260995
-0.290288 -0.261297 -0.419005
-0.290288 0.484364 -0.108518
-0.290288 0.110509 -0.487773
-0.290288 -0.465297 0.140538
-0.290288 -0.456994 0.025375
-0.290288 -0.220407 0.428876
-0.290288 -0.273064 -0.378017
-0.290288 -0.292620 -0.370899
-0.290288 -0.454282 0.126705
-0.290288 -0.003158 0.471642
-0.290288 -0.490164 -0.086118
-0.290288 -0.249971 0.393861
-0.290288 -0.442070 0.137703
-0.290288 -0.329630 0.356033
-0.290288 0.434463 -0.103350
-0.290288 0.196892 -0.442545
-0.290288 -0.042439 -0.475211
-0.290288 0.348444 0.354097
-0.290288 -0.203214 -0.406921
-0.290288 -0.454930 -0.179587
-0.290288 0.448277 0.037880
-0.290288 -0.473150 -0.012489
-0.290288 -0.393681 -0.247309
-0.290288 -0.495032 -0.047055
-0.290288 -0.385372 0.276439
-0.290288 -0.461686 0.164504
-0.290288 -0.448016 0.114556
-0.290288 -0.402644 -0.253864
-0.290288 0.032893 0.476384
-0.290288 -0.012030 0.451696
-0.290288 0.115584 -0.483282
-0.290288 -0.302761 0.389952
-0.290288 -0.436443 -0.185131
-0.290288 -0.079014 -0.461759
-0.290288 -0.396121 -0.262213
-0.290288 0.110494 0.442247
-0.290288 -0.336862 -0.295177
-0.290288 -0.254558 -0.373958
-0.290288 0.445475 0.065651
-0.290288 -0.476002 -0.004278
-0.290288 0.469541 -0.129601
-0.290288 -0.123123 0.471514
-0.290288 -0.153728 0.421323
-0.290288 -0.399748 -0.219407
-0.290288 -0.432912 -0.209415
-0.290288 -0.185644 -0.425529
-0.290288 0.308429 -0.374825
-0.290288 -0.439035 0.162356
-0.290288 -0.452823 -0.074859
-0.290288 0.306092 -0.377843
-0.290288 0.274729 0.355992
-0.290288 0.003972 0.480826
-0.290288 -0.432863 0.107483
-0.290288 -0.481393 -0.012293
-0.290288 0.437883 0.183257
-0.290288 -0.411675 -0.190992
-0.290288 -0.067028 0.473854
-0.290288 -0.400759 -0.223440
-0.290288 -0.361976 0.289126
-0.290288 -0.445209 0.117387
-0.290288 0.409433 0.191084
-0.290288 0.074213 -0.453196
-0.290288 -0.113969 -0.446797
-0.290288 -0.021460 -0.461986
-0.290288 -0.329188 0.370971
-0.290288 0.277343 -0.374072
-0.290288 -0.287624 -0.387807
-0.290288 0.444503 -0.148541
-0.290288 -0.106840 -0.471090
-0.290288 -0.284900 0.394269
-0.290288 -0.379392 0.231207
-0.290288 0.490924 -0.060206
-0.290288 0.422783 0.172623
-0.290288 0.202672 0.403389
-0.290288 0.364064 -0.286621
-0.290288 0.202562 -0.442575
-0.290288 0.470587 0.014056
-0.290288 0.378515 -0.281142
-0.290288 0.021350 0.477887
-0.290288 0.120480 -0.464074
-0.290288 0.472917 -0.084818
-0.290288 -0.042639 0.487004
-0.290288 0.315762 0.344645
-0.290288 -0.286311 0.346347
-0.290288 -0.384081 0.232026
-0.290288 -0.408037 -0.259391
-0.290288 0.429480 0.197946
-0.290288 0.295222 0.366340
-0.290288 0.102673 0.441424
-0.290288 0.476196 0.086614
-0.290288 -0.042972 -0.483527
-0.290288 -0.456219 0.098677
-0.290288 -0.437226 -0.106032
-0.290288 0.206375 -0.455635
-0.290288 -0.117038 -0.477217
-0.290288 -0.042976 0.471890
-0.290288 0.350722 -0.325658
-0.290288 0.075475 -0.446133
-0.290288 0.200132 -0.457844
-0.290288 -0.293587 -0.351563
-0.290288 -0.416433 0.218022
-0.290288 0.496477 0.031013
-0.290288 0.073520 0.479887
-0.290288 -0.198476 0.414997
-0.290288 0.080847 0.458951
-0.290288 0.429496 0.139632
-0.290288 -0.203700 -0.423714
-0.290288 -0.222064 -0.410668
-0.290288 -0.203930 0.407315
-0.290288 0.075918 -0.465090
-0.290288 0.385708 -0.248698
-0.290288 0.237437 0.426215
-0.290288 -0.008034 0.484656
-0.290288 -0.423079 -0.262849
-0.290288 -0.457951 0.079294
-0.290288 0.161966 0.417502
-0.290288 0.085402 0.457304
-0.290288 -0.291714 0.359406
-0.290288 0.117655 -0.450810
-0.290288 0.243462 0.383054
-0.290288 0.003821 0.484480
-0.290288 0.380000 0.276112
-0.290288 0.316552 0.327266
-0.290288 0.452014 -0.183706
-0.290288 -0.393437 0.206223
-0.290288 0.046622 0.493044
-0.290288 0.324181 0.361370
-0.290288 0.311183 -0.361705
-0.290288 -0.196880 -0.430351
-0.290288 -0.423779 0.250122
-0.290288 0.472840 0.144254
-0.290288 -0.467077 0.106313
-0.290288 -0.417608 0.253329
-0.290288 0.435659 -0.201714
-0.290288 0.444872 0.161521
-0.290288 0.318274 -0.331820
-0.290288 -0.228291 0.413533
-0.290288 -0.402440 -0.257352
-0.290288 0.462173 -0.054743
-0.290288 -0.233519 0.407540
-0.290288 -0.387899 -0.291713
-0.290288 -0.406394 -0.254418
-0.290288 -0.087687 0.445202
-0.290288 -0.199583 -0.456954
-0.290288 -0.371754 -0.325543
-0.290288 0.398417 -0.260223
-0.290288 0.487662 0.029735
-0.290288 -0.190990 0.430200
-0.290288 0.438036 0.118093
-0.290288 0.308248 0.372572
-0.290288 -0.446812 -0.005747
-0.290288 -0.190304 -0.426182
-0.290288 -0.245175 0.372401
-0.290288 -0.455507 -0.134742
-0.290288 0.420194 -0.222365
-0.290288 0.470781 -0.138524
-0.290288 0.442879 0.207238
-0.290288 0.486035 0.036992
-0.290288 0.481743 -0.046333
-0.290288 -0.180538 -0.466059
-0.290288 -0.395854 0.292193
-0.290288 -0.146594 -0.427677
-0.290288 0.362202 -0.277475
-0.290288 0.380712 0.248858
-0.290288 0.399748 -0.291755
-0.290288 -0.134106 0.450044
-0.290288 -0.313165 -0.387496
-0.290288 -0.192848 -0.429711
-0.290288 0.175067 0.422973
-0.290288 0.360987 0.261242
-0.290288 0.263241 0.398031
-0.290288 0.472167 -0.001685
-0.290288 -0.387137 0.227850
-0.290288 -0.063738 0.454195
-0.290288 0.399852 0.283669
-0.290288 -0.249918 -0.380561
-0.290288 -0.424231 -0.168946
-0.290288 -0.443999 -0.043551
-0.290288 -0.285701 0.401228
-0.290288 -0.443625 -0.093129
-0.290288 -0.364026 -0.273795
-0.290288 -0.009885 0.493786
-0.290288 0.208501 0.410858
-0.290288 -0.346865 -0.310875
-0.290288 -0.432011 0.118310
-0.290288 -0.007024 -0.461753
-0.290288 -0.337465 -0.320015
-0.290288 -0.233853 -0.402808
-0.290288 0.087776 -0.492634
-0.290288 -0.470813 0.072671
-0.290288 0.070385 0.461826
-0.290288 0.148498 0.435967
-0.290288 0.250064 0.407528
-0.290288 0.295788 -0.353362
-0.290288 -0.452129 0.048317
-0.290288 0.275428 -0.379411
-0.290288 -0.460707 0.095281
-0.290288 0.220921 -0.399148
-0.290288 0.164995 -0.464005
-0.290288 -0.448543 -0.091707
-0.290288 0.420671 0.145744
-0.290288 -0.016578 0.494339
-0.290288 -0.457604 -0.071679
-0.290288 -0.350698 0.292760
-0.290288 -0.467669 0.150702
-0.290288 -0.388315 0.303052
-0.290288 -0.146301 -0.455885
-0.290288 0.172418 0.420489
-0.290288 0.378200 -0.304105
-0.290288 -0.058135 0.460085
-0.290288 -0.442853 0.045330
-0.290288 0.238888 0.404163
-0.290288 0.327940 0.360182
-0.290288 0.404629 -0.276093
-0.290288 0.096438 -0.485386
-0.290288 0.349902 -0.334385
-0.290288 0.158363 -0.434860
-0.290288 0.184141 -0.422852
-0.290288 0.284797 -0.385404
-0.290288 -0.193166 0.427662
-0.290288 0.358803 -0.280879
-0.290288 -0.064899 -0.492781
-0.290288 -0.468625 0.077445
-0.290288 0.404761 0.267308
-0.290288 0.193753 0.438137
-0.290288 -0.297027 0.341985
-0.290288 -0.472790 0.102652
-0.290288 0.057496 -0.475093
-0.290288 -0.494100 -0.051975
-0.290288 0.400922 0.193620
-0.290288 -0.308692 -0.351433
-0.290288 -0.430408 0.231785
-0.290288 -0.070330 -0.454785
-0.290288 0.135289 0.422439
-0.290288 0.463661 0.170538
-0.290288 -0.459711 -0.019091
-0.290288 0.029464 -0.447529
-0.290288 -0.485422 0.005973
-0.290288 0.445994 0.112331
-0.290288 0.372922 0.293825
-0.290288 -0.253659 -0.412620
-0.290288 -0.149957 -0.424057
-0.290288 -0.219545 0.435848
-0.290288 -0.378267 -0.245030
-0.290288 0.485336 0.001916
-0.290288 0.197959 0.425316
-0.290288 -0.366009 -0.314932
-0.290288 -0.464340 0.090130
-0.290288 -0.323668 -0.325603
-0.290288 -0.429128 -0.160092
-0.290288 0.270055 -0.388718
-0.290288 0.408056 -0.193491
-0.290288 -0.349351 0.329185
-0.290288 -0.130926 -0.476910
-0.290288 -0.073250 -0.448787
-0.290288 0.310861 -0.337576
-0.290288 0.362462 0.284697
-0.290288 -0.450011 -0.044838
-0.290288 0.480031 -0.133178
-0.290288 -0.195148 0.430491
-0.290288 0.330477 0.310243
-0.290288 0.236411 -0.380376
-0.290288 0.187832 0.401951
-0.290288 0.279012 -0.380448
-0.290288 0.306361 0.388089
-0.290288 0.305098 0.331134
-0.290288 0.020179 0.461819
-0.290288 -0.385755 0.261057
-0.290288 0.082879 -0.454362
-0.290288 -0.177430 0.406147
-0.290288 0.025245 -0.451404
-0.290288 -0.288008 -0.392493
-0.290288 -0.258266 -0.393471
-0.290288 -0.123732 0.444839
-0.290288 0.195031 0.405088
-0.290288 0.417480 0.217068
-0.290288 -0.457193 -0.085467
-0.290288 0.463252 0.061623
-0.290288 -0.260555 -0.410229
-0.290288 0.401973 0.219332
-0.290288 -0.048318 0.491844
-0.290288 0.200157 -0.401274
-0.290288 -0.448102 -0.137517
-0.290288 -0.371269 0.267562
-0.290288 -0.412329 -0.253019
-0.290288 -0.125123 0.456528
-0.290288 0.009354 0.491013
-0.290288 -0.086474 -0.458944
-0.290288 -0.238658 -0.425711
-0.290288 0.248596 0.418390
-0.290288 -0.096322 0.453617
-0.290288 0.426215 0.192111
-0.290288 0.275435 -0.368903
-0.290288 -0.461196 0.126596
-0.290288 -0.095969 -0.471546
-0.290288 -0.474597 -0.102407
-0.290288 -0.450641 0.092842
-0.290288 -0.333183 -0.296946
-0.290288 -0.454203 0.027102
-0.290288 -0.476023 0.141793
-0.290288 -0.283439 0.387255
-0.290288 -0.417846 -0.168961
-0.290288 -0.450827 0.145057
-0.290288 -0.456430 -0.148661
-0.290288 0.355258 0.320910
-0.290288 0.417970 -0.157298
-0.290288 0.055219 0.465062
-0.290288 -0.071752 0.490111
-0.290288 -0.106611 0.483123
-0.290288 -0.477397 -0.090904
-0.290288 0.265380 -0.380010
-0.290288 -0.489222 0.007050
-0.290288 -0.456540 0.150235
-0.290288 -0.363663 -0.332863
-0.290288 -0.267018 0.416802
-0.290288 0.107269 -0.447296
-0.290288 0.261449 -0.396033
-0.290288 0.279294 -0.371242
-0.290288 -0.085577 0.461425
-0.290288 -0.066328 0.484482
-0.290288 0.441228 -0.175561
-0.290288 0.412173 -0.232542
-0.290288 -0.168419 0.459856
-0.290288 0.426320 0.177910
-0.290288 0.475688 0.060413
-0.290288 0.016369 0.461208
-0.290288 -0.335683 0.319762
-0.290288 0.426689 -0.167602
-0.290288 0.312852 0.330620
-0.290288 -0.352936 0.329801
-0.290288 0.473498 -0.007172
-0.290288 -0.030069 0.447912
-0.290288 -0.320793 -0.319875
-0.290288 -0.333744 0.304361
-0.290288 0.472639 0.097772
-0.290288 0.452361 0.120978
-0.290288 -0.424749 0.240012
-0.290288 0.464441 -0.025154
-0.290288 0.385093 0.231030
-0.290288 -0.241861 -0.417565
-0.290288 -0.309486 0.382238
-0.290288 -0.488257 -0.090196
-0.290288 0.483584 0.015573
-0.290288 -0.447656 0.153462
-0.290288 0.075482 -0.488877
-0.290288 0.144893 -0.434881
-0.290288 -0.279820 -0.359315
-0.290288 0.044468 0.489707
-0.290288 0.375475 0.258707
-0.290288 0.168308 -0.447025
-0.290288 0.337975 -0.318452
-0.290288 0.302533 0.349008
-0.290288 0.319451 -0.357616
-0.290288 -0.422646 -0.184565
-0.290288 -0.423379 0.217480
-0.290288 -0.462819 -0.175759
-0.290288 0.270176 -0.420232
-0.290288 0.239928 -0.385035
-0.290288 -0.428213 -0.124295
-0.290288 0.107712 -0.455912
-0.290288 0.434515 0.175748
-0.290288 0.257809 -0.395901
-0.290288 0.440306 -0.133124
-0.290288 0.256563 -0.392208
-0.290288 0.436156 0.139369
-0.290288 0.107662 -0.479065
-0.290288 0.195012 0.419986
-0.290288 0.444703 0.127872
-0.290288 0.476006 -0.091291
-0.290288 -0.389137 -0.271580
-0.290288 0.241779 -0.409724
-0.290288 -0.437141 -0.174480
-0.290288 -0.314929 0.367131
-0.290288 -0.440406 0.140475
-0.290288 -0.441411 0.155103
-0.290288 0.214227 0.394982
-0.290288 0.372635 0.273297
-0.290288 -0.102376 0.468430
-0.290288 -0.069547 0.450778
-0.290288 0.350711 -0.278635
-0.290288 -0.434729 0.226978
-0.290288 0.010779 0.453496
-0.290288 0.488897 0.002779
-0.290288 0.402968 -0.225749
-0.290288 0.284717 0.367760
-0.290288 0.363821 0.277266
-0.290288 -0.442536 -0.179470
-0.290288 0.331222 0.357276
-0.290288 0.462980 -0.042066
-0.290288 -0.103673 -0.453846
-0.290288 -0.479556 0.022697
-0.290288 -0.347335 0.325491
-0.290288 -0.374587 -0.318678
-0.290288 -0.373173 -0.298605
-0.290288 -0.405831 0.189843
-0.290288 -0.015198 -0.482446
-0.290288 -0.152380 0.439082
-0.290288 -0.354499 0.299209
-0.290288 0.008564 -0.499931
-0.290288 -0.094976 -0.487638
-0.290288 -0.217127 0.389434
-0.290288 -0.445690 0.000369
-0.290288 0.317630 0.380167
-0.290288 0.140825 0.430627
-0.290288 -0.443448 0.200577
-0.290288 0.279558 0.367866
-0.290288 -0.393632 -0.219727
-0.290288 0.345839 -0.297948
-0.290288 -0.457416 -0.023553
-0.290288 -0.035811 -0.490312
-0.290288 0.339150 -0.314586
-0.290288 0.446119 -0.010149
-0.290288 -0.458362 0.173475
-0.290288 -0.137451 -0.452416
-0.290288 0.368853 0.313520
-0.290288 -0.439541 0.201561
-0.290288 -0.357074 -0.268635
-0.290288 0.463999 -0.114088
-0.290288 -0.073802 -0.487009
-0.290288 -0.373168 0.311485
-0.290288 0.457469 -0.178264
-0.290288 0.472866 0.085529
-0.290288 -0.023844 0.457576
-0.290288 -0.437946 -0.226081
-0.290288 0.030588 0.460552
-0.290288 0.273737 0.377410
-0.290288 0.447376 0.092170
-0.290288 -0.027269 -0.467110
-0.290288 0.066178 -0.443263
-0.290288 0.046889 0.450867
-0.290288 -0.398276 -0.247633
-0.290288 0.321950 0.367936
-0.290288 -0.318673 -0.339991
-0.290288 -0.403135 -0.281556
-0.290288 -0.026237 0.473244
-0.290288 0.247903 0.372356
-0.290288 0.416136 -0.189320
-0.290288 -0.272716 0.413858
-0.290288 -0.218930 -0.403041
-0.290288 0.450413 0.007009
-0.290288 0.189936 0.453736
-0.290288 -0.081537 -0.475038
-0.290288 0.291690 0.341959
-0.290288 0.177253 0.426407
-0.290288 -0.199557 0.404949
-0.290288 -0.005832 0.481835
-0.290288 0.441565 0.209960
-0.290288 -0.442457 0.099318
-0.290288 0.260596 0.409270
-0.290288 0.276196 0.364976
-0.290288 -0.112780 0.466735
-0.290288 -0.214871 -0.404068
-0.290288 -0.451873 -0.169723
-0.290288 -0.439116 -0.214039
-0.290288 -0.411694 0.265583
-0.290288 0.328719 -0.342494
-0.290288 0.027949 0.480970
-0.290288 0.475743 -0.111458
-0.290288 0.147070 -0.437560
-0.290288 -0.450742 0.073458
-0.290288 -0.384017 -0.253341
-0.290288 -0.164433 -0.440452
-0.290288 0.462915 0.133921
-0.290288 0.455039 0.192362
-0.290288 -0.412772 -0.267076
-0.290288 -0.368495 -0.330756
-0.290288 0.349451 -0.291982
-0.290288 -0.335536 -0.368243
-0.290288 -0.035903 0.441831
-0.290288 -0.425472 -0.219752
-0.290288 0.446937 0.021983
-0.290288 0.381693 -0.253593
-0.290288 0.313886 -0.384862
-0.290288 -0.490898 -0.079221
-0.290288 -0.451220 -0.211706
-0.290288 -0.133645 -0.451805
-0.290288 -0.455695 0.131565
-0.290288 0.321327 -0.334964
-0.290288 0.307263 -0.380854
-0.290288 0.367714 0.319814
-0.290288 -0.470040 -0.131898
-0.290288 -0.223034 0.396545
-0.290288 0.002412 -0.477929
-0.290288 0.365356 -0.311558
-0.290288 0.075213 -0.441144
-0.290288 0.243534 0.374090
-0.290288 0.129244 -0.445199
-0.290288 0.412649 -0.205021
-0.290288 -0.463428 -0.017699
-0.290288 0.076944 0.481789
-0.290288 -0.133867 0.462040
-0.290288 0.318894 -0.341907
-0.290288 0.460624 -0.092326
-0.290288 0.447978 0.140850
-0.290288 0.176765 -0.411591
-0.290288 0.373761 0.286840
-0.290288 0.105311 -0.466393
-0.290288 -0.210933 -0.410723
-0.290288 -0.452469 0.187826
-0.290288 0.443511 0.091625
-0.290288 -0.442293 -0.099773
-0.290288 -0.270583 -0.388791
-0.290288 -0.036471 0.493754
-0.290288 -0.451719 0.192375
-0.290288 -0.194327 -0.419932
-0.290288 0.445155 -0.180687
-0.290288 0.208175 0.434612
-0.290288 -0.002624 -0.455814
-0.290288 -0.312299 0.315751
-0.290288 -0.451679 0.024360
-0.290288 -0.138892 0.471597
-0.290288 -0.456921 0.095600
-0.290288 -0.461787 -0.168217
-0.290288 0.487090 0.075684
-0.290288 -0.063619 0.446569
-0.290288 -0.088695 -0.491982
-0.290288 -0.061718 -0.495637
-0.290288 -0.294163 0.347868
-0.290288 -0.180705 0.405817
-0.290288 -0.006445 0.443975
-0.290288 0.296174 0.387902
-0.290288 0.299155 -0.351135
-0.290288 0.415339 0.270966
-0.290288 -0.197485 -0.450201
-0.290288 -0.066477 -0.486587
-0.290288 -0.460982 0.015203
-0.290288 -0.173699 -0.431525
-0.290288 -0.289288 0.340850
-0.290288 0.403128 -0.291667
-0.290288 -0.274433 -0.401586
-0.290288 -0.229912 0.385335
-0.290288 0.434977 -0.152481
-0.290288 0.328460 -0.346637
-0.290288 -0.415596 -0.201244
