-0.290288 0.475400 -0.114079
-0.290288 -0.392296 0.225581
-0.290288 0.467435 -0.134399
-0.290288 -0.422621 -0.264010
-0.290288 -0.255668 0.391901
-0.290288 0.353083 0.296529
-0.290288 0.014662 -0.462605
-0.290288 0.494269 0.008924
-0.290288 -0.415076 -0.217094
-0.290288 -0.286012 -0.356390
-0.290288 0.241452 0.425248
-0.290288 0.440851 0.108602
-0.290288 0.027638 -0.449320
-0.290288 -0.483189 0.019110
-0.290288 -0.411778 -0.261974
-0.290288 -0.369138 -0.305618
-0.290288 -0.428428 0.216519
-0.290288 0.364718 -0.290403
-0.290288 0.425246 0.236326
-0.290288 -0.430119 0.164609
-0.290288 0.476102 -0.108959
-0.290288 0.262520 -0.404571
-0.290288 -0.488940 0.070887
-0.290288 0.413104 0.236656
-0.290288 0.145676 -0.431677
-0.290288 -0.482126 -0.037774
-0.290288 0.331161 -0.329945
-0.290288 0.027253 0.469553
-0.290288 0.432771 -0.189063
-0.290288 -0.151357 -0.421294
-0.290288 -0.177883 0.428370
-0.290288 -0.259862 0.397745
-0.290288 -0.376703 -0.272233
-0.290288 -0.414629 0.221967
-0.290288 0.088172 -0.451089
-0.290288 0.045328 -0.464669
-0.290288 0.451345 -0.002639
-0.290288 0.426540 -0.227789
-0.290288 -0.427047 -0.191179
-0.290288 -0.418775 -0.189203
-0.290288 0.316922 0.332844
-0.290288 0.407604 0.189601
-0.290288 -0.045724 -0.484040
-0.290288 0.250827 -0.395107
-0.290288 0.101403 -0.473433
-0.290288 -0.335460 0.308833
-0.290288 -0.144071 0.450884
-0.290288 0.369834 0.257969
-0.290288 -0.381270 0.271407
-0.290288 -0.472330 0.064202
-0.290288 0.299852 0.389896
-0.290288 -0.311668 0.316708
-0.290288 -0.437146 0.133583
-0.290288 0.231023 -0.441665
-0.290288 0.448867 0.122319
-0.290288 0.458225 -0.006572
-0.290288 0.069567 -0.479774
-0.290288 0.472009 -0.003024
-0.290288 -0.488799 0.089556
-0.290288 0.453343 0.028445
-0.290288 0.093205 -0.490386
-0.290288 -0.282271 -0.407227
-0.290288 -0.079726 0.436327
-0.290288 0.250534 0.417365
-0.290288 0.306070 -0.326855
-0.290288 -0.492658 0.034650
-0.290288 -0.492295 -0.070022
-0.290288 -0.364695 -0.277115
-0.290288 -0.322997 0.357815
-0.290288 0.066983 0.449430
-0.290288 0.285400 -0.402238
-0.290288 -0.353591 -0.337115
-0.290288 -0.371043 -0.330869
-0.290288 0.358634 -0.337620
-0.290288 -0.191429 -0.418200
-0.290288 -0.363487 0.298051
-0.290288 -0.401874 0.211100
-0.290288 -0.460584 0.149612
-0.290288 -0.107086 -0.441423
-0.290288 0.480980 0.060060
-0.290288 -0.057273 -0.496694
-0.290288 0.478807 -0.051181
-0.290288 0.396029 -0.303628
-0.290288 0.352346 0.311523
-0.290288 0.285807 0.350407
-0.290288 0.186195 -0.445348
-0.290288 0.366912 -0.271477
-0.290288 -0.134812 -0.456614
-0.290288 0.445727 0.011927
-0.290288 0.085742 0.482628
-0.290288 0.384785 -0.301143
-0.290288 -0.449828 0.061019
-0.290288 0.157265 0.426248
-0.290288 -0.181551 -0.448405
-0.290288 0.461262 -0.054954
-0.290288 0.213818 -0.394276
-0.290288 0.405226 0.251943
-0.290288 -0.355822 -0.270776
-0.290288 -0.446419 -0.137876
-0.290288 0.092127 0.487052
-0.290288 0.351596 0.346490
-0.290288 -0.430666 -0.226692
-0.290288 -0.234046 -0.393053
-0.290288 0.451479 0.150388
-0.290288 0.017004 -0.497341
-0.290288 -0.304366 0.349559
-0.290288 -0.413407 -0.240868
-0.290288 -0.370592 0.287111
-0.290288 0.474583 0.053459
-0.290288 -0.458372 0.166740
-0.290288 -0.399779 0.284921
-0.290288 -0.439406 0.223490
-0.290288 0.213274 0.396222
-0.290288 0.430897 0.235557
-0.290288 0.462386 0.037338
-0.290288 -0.135102 0.436985
-0.290288 -0.375655 -0.298833
-0.290288 0.232769 0.417429
-0.290288 -0.439528 -0.115349
-0.290288 0.421011 0.185515
-0.290288 0.352388 -0.348172
-0.290288 -0.314293 0.366503
-0.290288 -0.023653 0.463190
-0.290288 -0.413869 -0.272887
-0.290288 -0.046841 -0.470519
-0.290288 -0.170458 -0.458941
-0.290288 0.129805 -0.472403
-0.290288 -0.365888 -0.293475
-0.290288 -0.382653 0.294080
-0.290288 0.354656 -0.292961
-0.290288 -0.097423 -0.447058
-0.290288 -0.495514 0.030626
-0.290288 -0.057216 0.442676
-0.290288 0.074607 -0.486706
-0.290288 0.342600 -0.362531
-0.290288 0.228936 -0.444258
-0.290288 -0.488689 -0.022479
-0.290288 -0.404244 -0.254088
-0.290288 0.478338 0.113700
-0.290288 -0.390225 0.211707
-0.290288 0.451631 -0.154188
-0.290288 0.486589 0.104809
-0.290288 -0.374627 -0.324086
-0.290288 -0.461867 -0.062088
-0.290288 0.206394 0.429353
-0.290288 -0.329669 -0.330870
-0.290288 -0.022012 -0.479901
-0.290288 0.393458 0.291582
-0.290288 -0.332793 -0.316350
-0.290288 0.478761 0.077448
-0.290288 -0.041715 -0.484958
-0.290288 0.421409 -0.218611
-0.290288 0.185843 -0.408408
-0.290288 -0.412794 -0.276225
-0.290288 -0.193115 -0.427621
-0.290288 -0.391275 -0.268369
-0.290288 -0.479072 0.027799
-0.290288 0.025050 -0.451181
-0.290288 0.478700 0.023900
-0.290288 -0.012047 0.495509
-0.290288 -0.441154 -0.098884
-0.290288 0.464887 -0.129000
-0.290288 0.439703 -0.195287
-0.290288 -0.136220 0.440300
-0.290288 -0.156100 -0.472600
-0.290288 -0.398503 0.198301
-0.290288 -0.372719 -0.245324
-0.290288 0.382327 -0.318289
-0.290288 -0.466364 0.146789
-0.290288 -0.395655 0.249146
-0.290288 -0.394867 0.228918
-0.290288 -0.492665 -0.029383
-0.290288 0.215764 0.445936
-0.290288 0.239917 0.428271
-0.290288 0.255262 0.403170
-0.290288 0.489757 0.072581
-0.290288 0.417645 0.238721
-0.290288 0.357518 0.275549
-0.290288 -0.397125 0.235942
-0.290288 -0.366352 -0.287159
-0.290288 0.343295 0.343625
-0.290288 -0.337879 0.315706
-0.290288 0.321428 0.353122
-0.290288 -0.140083 0.433791
-0.290288 -0.062713 0.439642
-0.290288 0.124813 -0.442413
-0.290288 0.471535 -0.007705
-0.290288 -0.436273 0.136817
-0.290288 0.374351 -0.295796
-0.290288 -0.375899 0.300616
-0.290288 0.340516 0.361448
-0.290288 0.476942 -0.133196
-0.290288 -0.290906 0.357629
-0.290288 0.474948 -0.034120
-0.290288 -0.297902 -0.364689
-0.290288 -0.449847 -0.206030
-0.290288 0.148234 0.466694
-0.290288 -0.379702 0.307429
-0.290288 -0.493965 0.041254
-0.290288 -0.447883 0.176457
-0.290288 0.189515 0.430143
-0.290288 0.466388 0.068350
-0.290288 -0.442582 0.105196
-0.290288 0.081996 0.489013
-0.290288 0.443434 -0.101181
-0.290288 -0.452094 -0.018852
-0.290288 0.393775 -0.240867
-0.290288 0.204144 -0.443603
-0.290288 -0.448382 0.003522
-0.290288 -0.426230 -0.197875
-0.290288 0.464094 -0.122749
-0.290288 -0.279234 0.353985
-0.290288 0.186346 -0.459233
-0.290288 0.457219 -0.134213
-0.290288 0.197693 0.433347
-0.290288 -0.457598 -0.067075
-0.290288 0.485519 -0.107387
-0.290288 -0.463635 -0.134724
-0.290288 -0.281976 0.382785
-0.290288 -0.236585 -0.417807
-0.290288 0.446389 -0.148785
-0.290288 -0.462034 0.110749
-0.290288 0.356029 0.286287
-0.290288 0.473158 0.005331
-0.290288 -0.007626 0.474262
-0.290288 0.282955 0.366154
-0.290288 -0.465680 0.154818
-0.290288 -0.485324 0.063119
-0.290288 0.381094 0.310024
-0.290288 -0.290325 -0.405436
-0.290288 -0.371402 0.243456
-0.290288 -0.179215 0.420695
-0.290288 -0.423295 -0.241571
-0.290288 -0.356261 0.289465
-0.290288 -0.294022 -0.386071
-0.290288 0.239575 0.421898
-0.290288 -0.437495 -0.189854
-0.290288 0.290190 -0.342966
-0.290288 0.486967 0.048425
-0.290288 0.465411 -0.118733
-0.290288 -0.202854 0.399016
-0.290288 -0.202544 0.409857
-0.290288 -0.362807 0.284701
-0.290288 -0.173162 -0.430369
-0.290288 -0.003110 0.479134
-0.290288 -0.024590 -0.461277
-0.290288 0.447963 0.094694
-0.290288 0.154787 -0.450850
-0.290288 0.467636 0.042327
-0.290288 0.126689 0.476850
-0.290288 -0.416817 0.267492
-0.290288 0.268442 -0.387925
-0.290288 -0.432335 0.223397
-0.290288 0.044784 -0.494838
-0.290288 0.492771 -0.075763
-0.290288 0.205208 0.393400
-0.290288 -0.217914 0.391720
-0.290288 -0.240495 -0.380229
-0.290288 0.014478 0.447324
-0.290288 -0.430209 0.232211
-0.290288 -0.428796 -0.220943
-0.290288 -0.457523 0.107888
-0.290288 0.265415 -0.396007
-0.290288 0.152075 0.472168
-0.290288 -0.425154 0.162233
-0.290288 -0.445434 -0.054899
-0.290288 -0.024790 0.470213
-0.290288 -0.073991 -0.463334
-0.290288 0.253586 0.379141
-0.290288 0.419834 0.264387
-0.290288 -0.483403 -0.118702
-0.290288 0.379465 0.260789
-0.290288 -0.211781 -0.444151
-0.290288 0.150406 -0.432795
-0.290288 -0.366726 -0.318436
-0.290288 0.034428 -0.471541
-0.290288 -0.465808 -0.083195
-0.290288 -0.404103 -0.189557
-0.290288 -0.324175 0.339371
-0.290288 0.491929 0.066840
-0.290288 0.410978 0.217045
-0.290288 -0.103459 -0.436669
-0.290288 -0.127574 0.466025
-0.290288 0.388077 0.270109
-0.290288 0.461749 0.119111
-0.290288 -0.472783 -0.113233
-0.290288 -0.466511 -0.114747
-0.290288 0.132441 0.431939
-0.290288 0.130353 0.428842
-0.290288 0.407415 0.235076
-0.290288 -0.486560 0.101808
-0.290288 0.214600 0.442254
-0.290288 0.373065 0.310326
-0.290288 -0.459989 0.049287
-0.290288 -0.120436 -0.456619
-0.290288 -0.473404 0.148749
-0.290288 0.122864 0.426658
-0.290288 -0.012011 -0.486192
-0.290288 -0.256401 0.418074
-0.290288 -0.103754 0.473712
-0.290288 0.146717 0.430749
-0.290288 0.146057 0.441307
-0.290288 0.141716 -0.445385
-0.290288 0.471063 0.058019
-0.290288 -0.007738 0.456831
-0.290288 0.472421 0.079529
-0.290288 0.465815 -0.100257
-0.290288 0.455264 0.098512
-0.290288 0.029361 -0.461255
-0.290288 -0.065051 -0.461980
-0.290288 -0.469909 0.066636
-0.290288 -0.171425 0.424602
-0.290288 -0.402856 -0.211607
-0.290288 -0.447312 0.039345
-0.290288 0.391756 0.253216
-0.290288 0.414741 0.218035
-0.290288 0.463976 -0.012953
-0.290288 0.489640 0.039022
-0.290288 -0.250635 -0.431064
-0.290288 0.055833 -0.470924
-0.290288 -0.253219 0.425581
-0.290288 0.423400 -0.261335
-0.290288 0.177295 -0.449487
-0.290288 -0.302770 0.360648
-0.290288 -0.491123 -0.016980
-0.290288 0.305823 0.370186
-0.290288 0.287560 -0.375549
-0.290288 0.354449 0.314291
-0.290288 -0.307021 -0.392484
-0.290288 0.294512 -0.339021
-0.290288 0.262713 0.407591
-0.290288 -0.432626 0.141378
-0.290288 -0.282712 0.371394
-0.290288 -0.484591 0.083833
-0.290288 -0.320492 -0.317565
-0.290288 0.097112 0.439378
-0.290288 0.334972 -0.357737
-0.290288 0.066272 0.439137
-0.290288 0.175211 0.419397
-0.290288 -0.451841 -0.056372
-0.290288 0.433016 0.160657
-0.290288 0.457745 -0.049389
-0.290288 0.433752 -0.145011
-0.290288 0.443272 0.178199
-0.290288 0.270503 -0.359687
-0.290288 0.105358 0.474349
-0.290288 0.271646 0.388358
-0.290288 -0.276067 -0.411134
-0.290288 0.287760 0.358749
-0.290288 0.130732 -0.431848
-0.290288 0.096421 0.442585
-0.290288 0.392184 -0.307122
-0.290288 0.359795 -0.301266
-0.290288 0.139590 0.423719
-0.290288 -0.341828 0.286643
-0.290288 -0.423880 -0.189423
-0.290288 0.396281 0.225655
-0.290288 -0.461446 -0.015497
-0.290288 -0.299783 -0.380243
-0.290288 -0.342949 0.347499
-0.290288 -0.326005 -0.331468
-0.290288 0.440578 -0.073816
-0.290288 0.370911 0.322694
-0.290288 -0.348760 0.346899
-0.290288 -0.000367 -0.455801
-0.290288 0.171860 0.445444
-0.290288 0.040634 0.459204
-0.290288 -0.441009 0.214107
-0.290288 0.491617 -0.022366
-0.290288 -0.327346 -0.349576
-0.290288 0.326233 -0.322001
-0.290288 0.439737 0.158999
-0.290288 -0.217554 -0.417908
-0.290288 0.161090 -0.468657
-0.290288 0.434010 0.100935
-0.290288 0.434185 -0.104114
-0.290288 -0.452146 0.066574
-0.290288 0.255586 0.412181
-0.290288 -0.134358 -0.468320
-0.290288 0.393468 -0.235977
-0.290288 -0.230689 0.406391
-0.290288 -0.197027 -0.401384
-0.290288 0.496551 -0.042760
-0.290288 0.158219 0.459136
-0.290288 -0.405801 0.211952
-0.290288 -0.448093 0.209528
-0.290288 0.207254 -0.447649
-0.290288 0.044699 0.459758
-0.290288 0.084329 -0.465751
-0.290288 -0.008367 0.487306
-0.290288 0.144883 0.428254
-0.290288 -0.202359 -0.451934
-0.290288 0.384405 0.314437
-0.290288 0.438500 -0.174270
-0.290288 -0.488590 -0.054990
-0.290288 0.122685 -0.439498
-0.290288 -0.480539 0.067262
-0.290288 0.136594 0.428384
-0.290288 0.354791 -0.319667
-0.290288 0.266204 0.378406
-0.290288 -0.388326 -0.265269
-0.290288 0.350621 0.315389
-0.290288 -0.304832 -0.338635
-0.290288 -0.355146 0.285959
-0.290288 0.447547 0.196035
-0.290288 0.467948 -0.027310
-0.290288 0.353733 -0.312418
-0.290288 -0.065248 0.487740
-0.290288 0.466042 -0.070480
-0.290288 -0.400117 -0.240308
-0.290288 0.386566 0.228125
-0.290288 -0.230161 -0.393950
-0.290288 -0.133067 -0.445968
-0.290288 0.072238 -0.469864
-0.290288 0.066745 0.463145
-0.290288 -0.059954 -0.447411
-0.290288 -0.122399 0.449268
-0.290288 0.300588 -0.392509
-0.290288 -0.297066 0.335532
-0.290288 -0.454918 -0.157419
-0.290288 0.096561 0.453579
-0.290288 -0.330683 0.362910
-0.290288 -0.413227 0.232570
-0.290288 -0.319338 0.336257
-0.290288 0.242320 -0.391599
-0.290288 -0.448139 -0.140698
-0.290288 -0.450823 -0.080013
-0.290288 0.039034 -0.498609
-0.290288 0.427326 -0.245877
-0.290288 0.477247 -0.123873
-0.290288 -0.445195 0.012178
-0.290288 -0.098523 0.478907
-0.290288 0.320685 -0.332175
-0.290288 0.370116 0.266890
-0.290288 -0.117282 -0.457854
-0.290288 0.168034 0.423575
-0.290288 0.387628 0.240647
-0.290288 -0.404417 0.270165
-0.290288 0.079634 -0.475276
-0.290288 -0.233604 -0.424742
-0.290288 0.392998 -0.223816
-0.290288 0.441532 -0.154947
-0.290288 0.324159 -0.325764
-0.290288 -0.097582 -0.486892
-0.290288 0.112117 -0.440159
-0.290288 -0.416334 0.255723
-0.290288 -0.435495 0.228467
-0.290288 0.481257 -0.037125
-0.290288 0.387032 0.223060
-0.290288 0.293472 0.334932
-0.290288 0.398878 0.215052
-0.290288 0.336514 -0.328648
-0.290288 0.408183 0.221049
-0.290288 -0.209647 0.419361
-0.290288 -0.028874 -0.496416
-0.290288 0.060308 0.444091
-0.290288 0.488678 -0.018611
-0.290288 -0.294471 -0.393587
-0.290288 0.479871 -0.040127
-0.290288 -0.143397 0.447016
-0.290288 0.355231 -0.309254
-0.290288 -0.380550 -0.246415
-0.290288 -0.383592 -0.302583
-0.290288 -0.444918 0.043077
-0.290288 0.349084 0.312296
-0.290288 0.430069 -0.139214
-0.290288 0.480765 0.056931
-0.290288 -0.006785 -0.459113
-0.290288 0.218724 0.426793
-0.290288 0.039098 -0.467702
-0.290288 -0.385881 -0.277514
-0.290288 -0.236187 -0.385338
-0.290288 -0.472443 0.119658
-0.290288 -0.481420 -0.124512
-0.290288 -0.295854 0.365056
-0.290288 -0.309832 0.352511
-0.290288 -0.038999 -0.463617
-0.290288 -0.371268 0.268518
-0.290288 0.486310 -0.111125
-0.290288 -0.483258 0.070398
-0.290288 -0.378659 0.233485
-0.290288 -0.316518 0.342349
-0.290288 0.124824 0.453177
-0.290288 -0.435899 -0.185244
-0.290288 -0.059724 0.476054
-0.290288 -0.222010 0.426133
-0.290288 0.038512 -0.482102
-0.290288 -0.325964 0.371909
-0.290288 0.252338 0.366142
-0.290288 0.471018 -0.107979
-0.290288 -0.484491 0.067180
-0.290288 0.216427 -0.391981
-0.290288 -0.468777 0.025127
-0.290288 0.000112 -0.482540
-0.290288 0.154066 -0.426985
-0.290288 -0.183725 -0.438024
-0.290288 -0.487722 -0.079836
-0.290288 -0.431256 0.159622
-0.290288 0.259677 -0.371067
-0.290288 -0.123282 -0.483019
-0.290288 -0.458394 0.190002
-0.290288 -0.387388 0.265089
-0.290288 -0.472731 -0.139338
-0.290288 0.095768 0.446407
-0.290288 -0.071013 0.453468
-0.290288 -0.314273 -0.324987
-0.290288 0.164466 0.467699
-0.290288 -0.023448 -0.488894
-0.290288 -0.170552 -0.432636
-0.290288 0.453020 -0.136090
-0.290288 -0.141231 -0.444386
-0.290288 0.163225 -0.448555
-0.290288 0.072954 -0.474384
-0.290288 -0.159293 -0.443181
-0.290288 0.300237 -0.383668
-0.290288 0.288187 -0.346074
-0.290288 -0.179894 -0.451238
-0.290288 -0.406046 -0.237129
-0.290288 -0.375392 -0.251197
-0.290288 0.053204 -0.476338
-0.290288 -0.354284 0.267623
-0.290288 -0.323270 -0.365161
-0.290288 -0.111748 -0.481303
-0.290288 -0.351937 0.279559
-0.290288 0.419138 -0.169363
-0.290288 0.423472 -0.239305
-0.290288 -0.449476 -0.118611
-0.290288 -0.188789 -0.427947
-0.290288 -0.342550 0.294403
-0.290288 -0.169214 -0.451628
-0.290288 -0.446905 -0.108592
-0.290288 -0.458257 0.162522
-0.290288 0.470644 0.042706
-0.290288 0.077107 0.459657
-0.290288 0.335828 -0.361434
-0.290288 0.390968 -0.233407
-0.290288 -0.430619 0.178125
-0.290288 -0.117438 -0.433302
-0.290288 0.382756 0.226676
-0.290288 0.066339 -0.470648
-0.290288 0.273104 -0.385064
-0.290288 0.344072 0.332393
-0.290288 -0.427432 -0.177205
-0.290288 0.448786 0.071848
-0.290288 -0.089516 0.461497
-0.290288 -0.475082 0.105554
-0.290288 -0.333621 -0.345226
-0.290288 -0.171514 -0.418968
-0.290288 0.241966 -0.382226
-0.290288 -0.179829 0.405253
-0.290288 0.081096 -0.447201
-0.290288 0.237122 0.424288
-0.290288 0.471062 0.032804
-0.290288 0.181208 0.433993
-0.290288 -0.346411 -0.297701
-0.290288 -0.148209 0.430729
-0.290288 0.060625 0.447697
-0.290288 -0.393737 -0.241762
-0.290288 0.242549 -0.399890
-0.290288 -0.036222 0.489507
-0.290288 0.391065 0.267415
-0.290288 -0.472751 0.094239
-0.290288 0.445711 -0.193018
-0.290288 -0.048368 0.476680
-0.290288 -0.185819 0.439336
-0.290288 0.371077 -0.276271
-0.290288 -0.145362 -0.471946
-0.290288 -0.062746 0.490284
-0.290288 0.302854 0.358684
-0.290288 -0.369920 -0.249801
-0.290288 0.430990 0.116533
-0.290288 0.206168 0.412734
-0.290288 -0.464910 0.091536
-0.290288 -0.158331 0.455667
-0.290288 0.252174 -0.431493
-0.290288 -0.032106 0.468418
-0.290288 -0.173540 -0.416585
-0.290288 -0.307780 -0.336138
-0.290288 -0.274742 0.407812
-0.290288 -0.471696 -0.095169
-0.290288 -0.465591 -0.125499
-0.290288 0.166733 -0.458428
-0.290288 -0.449229 -0.172695
-0.290288 -0.489428 -0.087830
-0.290288 0.370479 -0.282821
-0.290288 0.485780 -0.078716
-0.290288 0.126209 -0.461500
-0.290288 0.462266 -0.165195
-0.290288 -0.101586 -0.467158
-0.290288 0.176806 0.414064
-0.290288 0.302479 -0.389882
-0.290288 -0.040611 -0.446307
-0.290288 0.283594 -0.368262
-0.290288 -0.465758 0.098667
-0.290288 0.092260 0.477990
-0.290288 0.032501 0.445117
-0.290288 0.400442 -0.288841
-0.290288 -0.479718 0.052720
-0.290288 -0.454313 -0.148727
-0.290288 -0.453421 -0.059887
-0.290288 0.322967 -0.335246
-0.290288 0.371869 -0.266506
-0.290288 -0.138044 -0.455977
-0.290288 -0.464195 -0.091763
-0.290288 -0.464043 0.133502
-0.290288 0.297153 0.394633
-0.290288 -0.098357 0.444283
-0.290288 0.404076 -0.193282
-0.290288 -0.250892 0.397354
-0.290288 0.046088 -0.447064
-0.290288 0.435507 0.178052
-0.290288 0.451697 0.040403
-0.290288 0.212059 -0.451384
-0.290288 0.359927 -0.341401
-0.290288 0.445123 -0.114509
-0.290288 -0.467533 -0.071699
-0.290288 -0.442412 0.166240
-0.290288 0.148273 0.450780
-0.290288 -0.202696 -0.447698
-0.290288 -0.047788 0.461261
-0.290288 0.296621 0.380723
-0.290288 -0.443188 -0.108679
-0.290288 0.026229 -0.490342
-0.290288 -0.441874 -0.139509
-0.290288 -0.053639 -0.471533
-0.290288 0.280373 0.383349
-0.290288 0.203945 -0.402150
-0.290288 0.250466 -0.406831
-0.290288 0.413817 0.274968
-0.290288 0.298257 -0.388960
-0.290288 -0.133155 0.473005
-0.290288 0.438378 -0.150170
-0.290288 -0.413009 0.184008
-0.290288 -0.268859 -0.380756
-0.290288 0.189436 -0.406278
-0.290288 -0.158204 0.414814
-0.290288 0.016151 -0.453959
-0.290288 0.483795 -0.009485
-0.290288 0.044689 -0.485005
-0.290288 0.133022 -0.451964
-0.290288 0.396592 0.282893
-0.290288 -0.221650 -0.408410
-0.290288 0.437119 0.116077
-0.290288 0.429681 0.161415
-0.290288 -0.121668 -0.477748
-0.290288 -0.463839 -0.128501
-0.290288 0.253806 0.382304
-0.290288 -0.056561 -0.444989
-0.290288 0.454469 -0.157997
-0.290288 -0.203040 0.452439
-0.290288 0.327344 -0.371974
-0.290288 -0.456724 0.181785
-0.290288 0.430251 -0.207727
-0.290288 -0.429584 0.174724
-0.290288 -0.195834 -0.429691
-0.290288 -0.308443 -0.330597
-0.290288 -0.496030 0.011350
-0.290288 0.164189 -0.467584
-0.290288 -0.311436 -0.336915
-0.290288 -0.386938 -0.313265
-0.290288 -0.418304 -0.173065
-0.290288 -0.237962 -0.421221
-0.290288 0.478747 -0.136205
-0.290288 0.391893 -0.298010
-0.290288 0.439056 0.083584
-0.290288 0.344068 0.298813
-0.290288 0.055559 -0.481898
-0.290288 0.488304 0.075948
-0.290288 0.255338 0.392766
-0.290288 0.190627 0.458051
-0.290288 -0.193970 -0.416307
-0.290288 -0.436140 -0.225914
-0.290288 0.227242 -0.410858
-0.290288 0.295438 -0.372758
-0.290288 0.441208 0.183643
-0.290288 -0.364675 -0.261664
-0.290288 -0.156536 -0.425460
-0.290288 -0.212277 -0.402506
-0.290288 -0.481500 0.081433
-0.290288 0.433802 0.184855
-0.290288 0.038650 -0.451044
-0.290288 -0.271349 -0.397646
-0.290288 -0.251099 0.372069
-0.290288 0.458558 0.128105
-0.290288 -0.078102 0.445354
-0.290288 0.408525 -0.202334
-0.290288 0.274541 0.404355
-0.290288 -0.045090 -0.453328
-0.290288 0.449712 0.189883
-0.290288 -0.158820 -0.429883
-0.290288 -0.452123 0.131119
-0.290288 0.406131 0.278315
-0.290288 0.286467 0.387946
-0.290288 -0.465209 -0.049571
-0.290288 -0.380418 0.257935
-0.290288 0.223731 0.436215
-0.290288 -0.341037 0.338091
-0.290288 0.412365 0.212819
-0.290288 -0.154359 0.465691
-0.290288 -0.332171 0.310363
-0.290288 -0.088250 0.464611
-0.290288 0.461954 -0.110392
-0.290288 0.290751 -0.384414
-0.290288 0.347666 0.277670
-0.290288 0.202541 -0.457355
-0.290288 -0.215362 0.397680
-0.290288 -0.333628 0.313565
-0.290288 -0.341548 0.330652
-0.290288 -0.281063 0.367662
-0.290288 -0.273613 0.368408
-0.290288 -0.266416 0.412657
-0.290288 -0.334273 -0.296997
-0.290288 0.464613 -0.067471
-0.290288 -0.440214 0.133399
-0.290288 -0.483198 -0.014486
-0.290288 0.439980 0.180331
-0.290288 -0.202719 0.422125
-0.290288 0.460736 0.083516
-0.290288 0.169653 -0.423070
-0.290288 0.055640 -0.486236
-0.290288 0.022549 0.447924
-0.290288 0.211144 -0.414571
-0.290288 0.461995 0.126828
-0.290288 -0.474268 0.016535
-0.290288 -0.086948 0.438860
-0.290288 0.320898 0.370487
-0.290288 -0.284486 0.387498
-0.290288 -0.394155 0.246278
-0.290288 0.239521 -0.430168
-0.290288 -0.353495 0.336612
-0.290288 -0.381273 -0.300395
-0.290288 0.281086 -0.351030
-0.290288 -0.179353 0.449091
-0.290288 -0.477205 0.059014
-0.290288 -0.419383 0.210352
-0.290288 -0.469349 0.038520
-0.290288 0.496032 -0.015921
-0.290288 0.375069 0.325272
-0.290288 0.085367 0.464666
-0.290288 0.430208 0.170346
-0.290288 0.485000 -0.062950
-0.290288 -0.314667 -0.316868
-0.290288 0.387455 -0.280254
-0.290288 0.002331 0.484670
-0.290288 -0.465703 -0.175577
-0.290288 0.075649 0.465495
-0.290288 -0.443666 -0.151818
-0.290288 -0.101813 0.480599
-0.290288 0.378614 0.240025
-0.290288 -0.264913 -0.366367
-0.290288 -0.000328 0.458137
-0.290288 0.060041 0.479127
-0.290288 -0.066340 0.456348
-0.290288 -0.473141 -0.068441
-0.290288 0.443120 0.084377
-0.290288 0.303654 0.324648
-0.290288 -0.092599 -0.491013
-0.290288 0.277870 -0.357934
-0.290288 0.449476 -0.168773
-0.290288 -0.467683 -0.006495
-0.290288 0.274167 0.362849
-0.290288 0.361000 -0.275202
-0.290288 -0.212039 0.415218
-0.290288 0.451608 0.204859
-0.290288 -0.044221 0.467895
-0.290288 -0.357401 0.269189
-0.290288 0.207991 0.416216
-0.290288 -0.092828 -0.470313
-0.290288 -0.436577 0.191155
-0.290288 0.434814 -0.199242
-0.290288 0.426455 -0.164921
-0.290288 0.306997 0.338398
-0.290288 0.474398 0.031488
-0.290288 -0.218622 -0.413955
-0.290288 0.063326 0.454120
-0.290288 -0.358236 0.273217
-0.290288 0.210279 -0.409946
-0.290288 0.314041 -0.375828
-0.290288 -0.191801 0.449468
-0.290288 -0.470660 -0.134092
-0.290288 0.110201 0.475636
-0.290288 0.446104 -0.223004
-0.290288 0.233315 -0.408571
-0.290288 -0.453938 -0.074482
-0.290288 0.160958 -0.428021
-0.290288 0.413573 -0.174759
-0.290288 -0.439694 0.168580
-0.290288 0.319772 -0.336219
-0.290288 0.384281 -0.273564
-0.290288 0.470531 0.089400
-0.290288 0.458240 0.005443
-0.290288 -0.409090 -0.235579
-0.290288 -0.041850 0.493368
-0.290288 -0.439453 0.152397
-0.290288 0.064892 -0.458057
-0.290288 0.390054 0.255820
-0.290288 -0.264517 -0.423761
-0.290288 0.450807 -0.174402
-0.290288 -0.490016 -0.026227
-0.290288 0.337700 -0.301140
-0.290288 -0.186088 -0.409022
-0.290288 0.413018 0.171743
-0.290288 -0.428329 -0.140314
-0.290288 -0.375060 0.284063
-0.290288 -0.334716 -0.351240
-0.290288 -0.475083 0.140825
-0.290288 0.404450 -0.259597
-0.290288 0.209134 0.434148
-0.290288 0.195975 0.401960
-0.290288 0.332271 0.367645
-0.290288 -0.476746 -0.066106
-0.290288 0.461217 0.046170
-0.290288 0.290735 -0.398499
-0.290288 -0.064148 0.451719
-0.290288 0.211371 -0.399070
-0.290288 0.465254 -0.164268
-0.290288 0.037936 -0.472355
-0.290288 -0.312527 -0.388745
-0.290288 -0.183694 0.412293
-0.290288 -0.450374 0.082058
-0.290288 -0.450597 0.136345
-0.290288 0.022143 0.467342
-0.290288 0.335825 0.317591
-0.290288 0.487696 0.004376
-0.290288 -0.335069 -0.355171
-0.290288 -0.298626 0.394746
-0.290288 -0.230704 0.413718
-0.290288 0.343073 -0.313343
-0.290288 0.304352 0.352028
-0.290288 0.458901 0.103280
-0.290288 0.044701 0.465224
-0.290288 -0.043129 -0.477909
-0.290288 -0.074355 -0.481775
-0.290288 0.406201 -0.220238
-0.290288 0.121900 -0.476463
-0.290288 -0.367219 0.288784
-0.290288 -0.409959 0.258507
-0.290288 0.430214 -0.220531
-0.290288 -0.472917 -0.003086
-0.290288 0.356229 0.298956
-0.290288 -0.467706 0.029169
-0.290288 -0.487901 0.059985
-0.290288 -0.381672 0.246471
-0.290288 -0.417077 0.181953
-0.290288 -0.468507 0.018744
-0.290288 -0.239912 0.389896
-0.290288 -0.001319 0.494506
-0.290288 0.459515 0.022963
-0.290288 0.284802 -0.410832
-0.290288 -0.367317 0.331337
-0.290288 -0.426247 -0.222808
-0.290288 -0.164332 -0.449620
-0.290288 -0.428519 -0.246914
-0.290288 0.495914 -0.036071
-0.290288 0.381441 -0.322493
-0.290288 0.079883 -0.465605
-0.290288 0.216194 -0.445672
-0.290288 0.009757 0.458081
-0.290288 -0.368604 -0.297368
-0.290288 0.406837 0.196737
-0.290288 -0.393218 -0.220778
-0.290288 -0.495378 0.001942
-0.290288 -0.217538 -0.411025
-0.290288 -0.274557 0.375770
-0.290288 -0.493193 -0.010419
-0.290288 0.204126 0.439485
-0.290288 -0.183598 -0.451072
-0.290288 0.048793 0.471797
-0.290288 0.182662 0.444034
-0.290288 -0.455121 0.169771
-0.290288 -0.000435 0.474116
-0.290288 0.223021 -0.419028
-0.290288 -0.378779 -0.318827
-0.290288 0.369183 -0.304815
-0.290288 0.000265 -0.460506
-0.290288 0.421789 0.177344
-0.290288 0.087295 -0.478838
-0.290288 0.159938 0.419250
-0.290288 0.448119 0.090238
-0.290288 -0.453021 -0.102904
-0.290288 -0.370111 0.253204
-0.290288 0.181306 0.456798
-0.290288 -0.315590 -0.342915
-0.290288 -0.445847 -0.179290
-0.290288 0.080008 -0.493225
-0.290288 0.339414 0.288061
-0.290288 0.372850 0.306568
-0.290288 -0.079143 0.440888
-0.290288 0.464913 0.153724
-0.290288 -0.108413 0.453422
-0.290288 -0.469609 -0.002767
-0.290288 -0.469534 -0.161107
-0.290288 0.286760 -0.393447
-0.290288 0.440394 -0.080050
-0.290288 0.464809 -0.076515
-0.290288 -0.467148 -0.107637
-0.290288 0.418210 -0.257205
-0.290288 0.104455 0.450972
-0.290288 0.116583 -0.482160
-0.290288 -0.231736 -0.385275
-0.290288 -0.109236 -0.449513
-0.290288 -0.194231 -0.458012
-0.290288 -0.239306 -0.415919
-0.290288 -0.166305 -0.446646
-0.290288 -0.095455 -0.440108
-0.290288 0.433954 0.135830
-0.290288 -0.209846 -0.426236
-0.290288 0.349863 -0.304800
-0.290288 0.072867 -0.465282
-0.290288 0.285508 -0.350610
-0.290288 0.182589 0.451110
-0.290288 0.487799 0.053165
-0.290288 0.477040 0.051132
-0.290288 -0.355989 -0.345271
-0.290288 -0.118407 0.479305
-0.290288 0.487594 0.086463
-0.290288 -0.402278 -0.276333
-0.290288 0.230203 -0.416565
-0.290288 -0.183466 -0.418400
-0.290288 -0.463411 0.105458
-0.290288 -0.304499 -0.327063
-0.290288 -0.252975 -0.416925
-0.290288 -0.177277 0.409787
-0.290288 0.386841 -0.224005
-0.290288 -0.088368 0.454997
-0.290288 -0.459186 0.044405
-0.290288 -0.015784 -0.464776
-0.290288 -0.258158 -0.419662
-0.290288 -0.492760 -0.062676
-0.290288 0.482796 -0.050583
-0.290288 -0.152318 -0.470204
-0.290288 0.382768 0.280426
-0.290288 -0.040801 0.467128
-0.290288 -0.452091 -0.130460
-0.290288 -0.467524 0.137457
-0.290288 0.427559 0.142186
-0.290288 0.446214 0.213785
-0.290288 0.267242 0.355758
-0.290288 -0.440344 -0.164619
-0.290288 -0.193488 -0.432103
-0.290288 0.058412 -0.445024
-0.290288 0.465100 0.174293
-0.290288 0.471229 0.159837
-0.290288 -0.075792 0.484603
-0.290288 0.127017 -0.450462
-0.290288 -0.469407 0.154112
-0.290288 0.398956 -0.250496
-0.290288 0.398168 0.296919
-0.290288 -0.310160 -0.363754
-0.290288 0.151581 0.460743
-0.290288 0.003883 -0.468289
-0.290288 0.360372 0.280076
-0.290288 0.470211 0.039274
-0.290288 -0.110467 -0.452820
-0.290288 0.444850 -0.214281
-0.290288 -0.008729 -0.492234
-0.290288 -0.111813 0.448187
-0.290288 0.366696 0.267171
-0.290288 -0.214651 -0.420532
-0.290288 0.430698 -0.239768
-0.290288 -0.250794 -0.385220
-0.290288 -0.385265 -0.247287
-0.290288 0.152693 -0.439152
-0.290288 -0.151698 -0.433824
-0.290288 0.361268 0.274149
-0.290288 -0.055742 0.488652
-0.290288 0.138156 -0.455415
-0.290288 0.430525 -0.118771
-0.290288 -0.164157 -0.444408
-0.290288 -0.272647 -0.381963
-0.290288 -0.257515 -0.387520
-0.290288 0.448684 0.030684
-0.290288 0.069343 0.441929
-0.290288 0.133907 -0.445143
-0.290288 -0.453167 0.196032
-0.290288 -0.119354 -0.444126
-0.290288 0.038132 -0.445863
-0.290288 -0.453629 -0.181065
-0.290288 0.066043 -0.447203
-0.290288 -0.357276 -0.306879
-0.290288 0.066453 0.459832
-0.290288 -0.374628 -0.291099
-0.290288 -0.228686 -0.388227
-0.290288 -0.381490 0.275880
-0.290288 -0.402993 0.204350
-0.290288 -0.183059 0.452384
-0.290288 0.201522 -0.449618
-0.290288 0.143397 0.448547
-0.290288 -0.373214 -0.295437
-0.290288 -0.222143 -0.420653
-0.290288 0.196404 -0.447234
-0.290288 0.150194 -0.455475
-0.290288 -0.249867 0.387869
-0.290288 -0.449376 0.202802
-0.290288 0.377307 -0.267420
-0.290288 -0.473872 0.129402
-0.290288 -0.176593 0.406466
-0.290288 -0.347584 -0.324897
-0.290288 0.395675 -0.249792
-0.290288 -0.115470 0.473241
-0.290288 -0.109527 0.429716
-0.290288 0.462613 0.150178
-0.290288 0.425235 -0.194146
-0.290288 0.184180 -0.450319
-0.290288 -0.206414 -0.450326
-0.290288 0.371996 0.313947
-0.290288 -0.297995 -0.392183
-0.290288 -0.333620 -0.366547
-0.290288 -0.433960 -0.244864
-0.290288 0.475946 -0.046858
-0.290288 -0.469548 -0.138221
-0.290288 0.321189 0.366804
-0.290288 -0.448499 -0.056768
-0.290288 0.023913 -0.482073
-0.290288 -0.478197 -0.051152
-0.290288 -0.442333 -0.155263
-0.290288 0.186718 -0.455007
-0.290288 -0.285068 -0.360056
-0.290288 -0.414154 0.167897
-0.290288 0.368189 0.276127
-0.290288 -0.447998 0.035890
-0.290288 -0.442474 -0.085806
-0.290288 0.053413 0.453427
-0.290288 -0.415881 -0.254516
-0.290288 0.104730 0.433325
-0.290288 -0.021646 -0.453274
-0.290288 -0.312332 -0.320301
-0.290288 -0.113022 -0.476813
-0.290288 -0.431636 -0.150483
-0.290288 0.408556 0.239533
-0.290288 0.445347 -0.137899
-0.290288 0.306728 0.359867
-0.290288 0.407847 0.242653
-0.290288 -0.380003 -0.295143
-0.290288 -0.360435 0.293189
-0.290288 -0.449591 0.171097
-0.290288 0.100719 -0.440718
-0.290288 -0.006051 -0.451422
-0.290288 0.034484 -0.446959
-0.290288 -0.454933 -0.085058
-0.290288 -0.154401 0.456208
-0.290288 0.007472 -0.455409
-0.290288 0.482866 -0.023455
-0.290288 0.403557 -0.244131
-0.290288 -0.095189 0.478899
-0.290288 0.443741 0.149719
-0.290288 -0.459995 0.125194
-0.290288 0.367151 -0.285083
-0.290288 -0.187002 -0.453618
-0.290288 0.144391 0.468411
-0.290288 0.155733 -0.465006
-0.290288 -0.445728 -0.197012
-0.290288 0.070239 -0.483775
-0.290288 -0.479210 -0.133576
-0.290288 -0.197312 -0.455821
-0.290288 -0.463305 -0.111443
-0.290288 0.436280 0.159969
-0.290288 0.128706 0.438094
-0.290288 0.320240 -0.380957
-0.290288 0.372143 0.284654
-0.290288 0.177866 0.434873
-0.290288 0.404067 -0.277203
-0.290288 -0.200727 -0.455041
-0.290288 -0.363692 0.277540
-0.290288 0.324826 -0.365402
-0.290288 0.419249 -0.211744
-0.290288 -0.237191 0.417634
-0.290288 -0.174312 -0.421893
-0.290288 -0.384645 0.307138
-0.290288 0.247438 0.382545
-0.290288 -0.453632 -0.064872
-0.290288 -0.334542 -0.337389
-0.290288 0.387018 0.234028
-0.290288 0.057392 -0.448537
-0.290288 0.014733 0.466095
-0.290288 -0.008757 0.477625
-0.290288 0.393639 0.247321
-0.290288 0.475092 -0.060159
-0.290288 0.155745 -0.447444
-0.290288 0.428488 0.215119
-0.290288 -0.366899 -0.273854
-0.290288 -0.178621 -0.463385
-0.290288 0.359732 0.289488
-0.290288 -0.271303 0.377723
-0.290288 -0.030232 0.455562
-0.290288 -0.031260 -0.491323
-0.290288 -0.459983 0.040157
-0.290288 -0.253335 0.364796
-0.290288 -0.393179 0.236528
-0.290288 -0.471333 -0.009200
-0.290288 -0.297418 0.348715
-0.290288 0.290040 0.396898
-0.290288 -0.397782 -0.212607
-0.290288 -0.413093 -0.180373
-0.290288 0.040807 0.445824
-0.290288 0.170446 0.448973
-0.290288 -0.496306 -0.013488
-0.290288 -0.272011 0.393881
-0.290288 -0.216899 0.432439
-0.290288 -0.123650 -0.452663
-0.290288 -0.418299 -0.210538
-0.290288 -0.259164 0.406083
-0.290288 0.470970 0.083085
-0.290288 -0.363448 0.330195
-0.290288 0.439460 0.143720
-0.290288 -0.388276 -0.309535
-0.290288 -0.436926 -0.122808
-0.290288 -0.003347 -0.481720
-0.290288 0.104581 0.480590
-0.290288 0.166579 0.452403
-0.290288 0.163569 -0.472339
-0.290288 -0.229009 -0.433663
-0.290288 0.059051 0.465344
-0.290288 0.434820 -0.225669
-0.290288 -0.424587 -0.139681
-0.290288 0.375991 0.260349
-0.290288 -0.461993 0.117476
-0.290288 -0.407196 -0.280924
-0.290288 -0.156357 0.417963
-0.290288 -0.275544 -0.378798
-0.290288 0.089097 -0.481760
-0.290288 -0.438294 -0.236275
-0.290288 0.478558 0.103988
-0.290288 0.316342 -0.339561
-0.290288 0.470204 0.053884
-0.290288 -0.481339 0.100137
-0.290288 0.204079 0.415470
-0.290288 -0.372870 0.291569
-0.290288 0.068399 0.470959
-0.290288 0.239276 -0.425910
-0.290288 0.463671 -0.086265
-0.290288 0.330459 -0.373650
-0.290288 0.132194 0.436064
-0.290288 -0.317258 -0.315026
-0.290288 -0.225528 0.381824
-0.290288 -0.289149 -0.401585
-0.290288 0.430852 0.204129
-0.290288 0.401995 0.209096
-0.290288 0.170511 -0.453093
-0.290288 -0.038443 0.453531
-0.290288 0.308667 -0.348421
-0.290288 -0.483422 -0.026813
-0.290288 -0.283631 -0.349833
-0.290288 0.426867 -0.222640
-0.290288 -0.005993 -0.462175
-0.290288 -0.420459 0.146212
-0.290288 -0.198181 0.404103
-0.290288 -0.374869 -0.259701
-0.290288 0.372731 -0.272213
-0.290288 -0.341563 -0.344667
-0.290288 -0.300663 0.335653
-0.290288 0.482067 -0.053576
-0.290288 -0.424924 0.150994
-0.290288 -0.459903 0.080453
-0.290288 0.257817 -0.396760
-0.290288 0.277737 -0.380869
-0.290288 -0.248312 -0.396281
-0.290288 -0.242659 -0.415633
-0.290288 0.143787 -0.427592
-0.290288 -0.195534 0.419012
-0.290288 -0.305900 -0.341825
-0.290288 0.410949 -0.244359
-0.290288 -0.438806 -0.196091
-0.290288 -0.457215 -0.198262
-0.290288 -0.346380 -0.348646
-0.290288 -0.215847 -0.449361
-0.290288 -0.397539 -0.260178
-0.290288 0.320198 0.332680
-0.290288 -0.468081 -0.149555
-0.290288 0.429159 -0.254939
-0.290288 -0.149770 -0.446696
-0.290288 -0.107266 0.473673
-0.290288 0.487273 -0.083964
-0.290288 -0.430815 0.246450
-0.290288 0.277577 0.365439
-0.290288 0.325882 -0.333595
-0.290288 -0.443077 -0.095544
-0.290288 -0.019986 -0.446990
-0.290288 0.112225 0.431333
-0.290288 -0.487530 0.019470
-0.290288 -0.073690 -0.445989
-0.290288 -0.487873 0.002528
-0.290288 -0.326314 -0.338528
-0.290288 -0.268151 0.401175
-0.290288 -0.050847 -0.464039
-0.290288 0.451772 0.078714
-0.290288 -0.316768 0.334350
-0.290288 0.407425 -0.215149
-0.290288 -0.175191 0.421778
-0.290288 -0.034443 -0.488747
-0.290288 -0.442700 0.135759
-0.290288 0.426326 -0.139228
-0.290288 0.449335 -0.137453
-0.290288 -0.094616 0.451375
-0.290288 0.471040 -0.125129
-0.290288 0.368298 0.249126
-0.290288 0.118938 0.456348
-0.290288 0.404845 0.273743
-0.290288 -0.118025 0.470427
-0.290288 0.079620 0.452115
-0.290288 -0.371015 -0.263563
-0.290288 0.281539 -0.406693
-0.290288 0.128266 0.441451
-0.290288 0.229953 0.438832
-0.290288 0.134183 -0.478759
-0.290288 -0.454431 -0.016073
-0.290288 -0.388464 -0.280843
-0.290288 0.202952 -0.408257
-0.290288 -0.317522 -0.370989
-0.290288 -0.428038 0.241887
-0.290288 -0.281204 0.348089
-0.290288 -0.451884 0.029565
-0.290288 0.313379 0.332674
-0.290288 -0.317946 -0.355636
-0.290288 0.197199 0.444614
-0.290288 -0.439862 -0.215813
-0.290288 0.480082 0.020779
-0.290288 0.245080 -0.381814
-0.290288 0.439883 -0.187456
-0.290288 0.008439 -0.491612
-0.290288 -0.481761 -0.050883
-0.290288 0.034782 0.493176
-0.290288 -0.207926 -0.416237
-0.290288 0.342305 0.294999
-0.290288 0.417733 -0.232223
-0.290288 0.437177 -0.159416
-0.290288 0.064819 -0.454157
-0.290288 -0.227539 -0.430704
-0.290288 -0.286990 -0.369009
-0.290288 -0.358672 0.305131
-0.290288 -0.331597 0.307132
-0.290288 -0.438307 0.155249
-0.290288 -0.024169 -0.468367
-0.290288 0.462362 0.092641
-0.290288 0.430854 -0.153816
-0.290288 -0.168168 -0.419717
-0.290288 0.426738 -0.197477
-0.290288 -0.365074 0.257773
-0.290288 0.243873 0.422518
-0.290288 0.420391 0.227645
-0.290288 0.094093 -0.461280
-0.290288 -0.115691 0.454915
-0.290288 -0.279440 0.397977
-0.290288 0.456530 0.077677
-0.290288 -0.360637 0.323581
-0.290288 -0.269692 0.369852
-0.290288 -0.017574 0.484490
-0.290288 -0.407227 0.255340
-0.290288 0.283460 0.393364
-0.290288 -0.193623 -0.454487
-0.290288 0.359963 -0.315068
-0.290288 -0.162167 -0.467356
-0.290288 -0.217987 0.395697
-0.290288 0.405781 -0.269947
-0.290288 0.367785 -0.288818
-0.290288 0.459490 0.089726
-0.290288 0.315939 0.323369
-0.290288 -0.105293 0.434520
-0.290288 0.339402 0.315441
-0.290288 -0.289281 -0.366348
-0.290288 -0.002777 -0.485475
-0.290288 0.348448 0.292329
-0.290288 -0.405350 0.235728
-0.290288 0.193428 0.436913
-0.290288 0.174405 0.440534
-0.290288 -0.480211 0.126263
-0.290288 0.155907 0.436988
-0.290288 -0.355914 0.279234
-0.290288 -0.414549 0.238258
-0.290288 0.383513 0.250380
-0.290288 -0.311343 0.323395
-0.290288 0.399695 0.196008
-0.290288 0.190948 -0.421027
-0.290288 0.439089 0.169876
-0.290288 -0.271452 0.402136
-0.290288 0.381758 -0.256232
-0.290288 0.426353 -0.249936
-0.290288 0.475507 0.034550
-0.290288 0.093577 0.470427
-0.290288 0.002005 0.461578
-0.290288 0.316053 -0.386781
-0.290288 -0.490726 0.006222
-0.290288 0.426917 0.202404
-0.290288 0.446457 -0.166110
-0.290288 -0.312823 0.356617
-0.290288 -0.191985 0.419142
-0.290288 0.265230 -0.375813
-0.290288 -0.358424 -0.295907
-0.290288 0.477492 0.092926
-0.290288 0.208306 0.399982
-0.290288 0.389009 -0.220023
-0.290288 0.223373 -0.422968
-0.290288 -0.312457 -0.343943
-0.290288 0.476802 -0.015602
-0.290288 -0.071965 -0.458750
-0.290288 -0.392622 0.259348
-0.290288 0.417191 -0.215190
-0.290288 0.059004 -0.463196
-0.290288 -0.225318 0.409919
-0.290288 0.485212 0.111774
-0.290288 -0.032705 -0.460364
-0.290288 -0.241779 0.422299
-0.290288 0.333948 -0.315785
-0.290288 -0.330114 -0.318450
-0.290288 0.465327 0.025182
-0.290288 -0.330530 0.325006
-0.290288 0.454578 -0.065384
-0.290288 -0.462083 0.056262
-0.290288 -0.260830 0.409075
-0.290288 -0.039581 0.463570
-0.290288 -0.445068 -0.028777
-0.290288 -0.473428 0.079905
-0.290288 -0.289300 0.391978
-0.290288 0.453771 -0.179101
-0.290288 -0.310458 -0.323644
-0.290288 0.076400 -0.452915
-0.290288 -0.344343 -0.357033
-0.290288 0.479736 -0.069101
-0.290288 0.074005 0.468294
-0.290288 -0.050965 0.441986
-0.290288 -0.293874 0.336417
-0.290288 -0.045264 0.487642
-0.290288 0.317989 -0.348211
-0.290288 0.400172 -0.217430
-0.290288 0.254014 0.370607
-0.290288 -0.476466 -0.103262
-0.290288 -0.389394 0.289365
-0.290288 0.470043 0.142815
-0.290288 -0.152376 0.467972
-0.290288 0.334504 0.350533
-0.290288 -0.447373 -0.098588
-0.290288 -0.456324 0.173328
-0.290288 0.488114 0.067380
-0.290288 0.397983 0.207913
-0.290288 0.155135 -0.469236
-0.290288 -0.058863 -0.494105
-0.290288 0.395989 -0.226090
-0.290288 -0.486619 -0.049450
-0.290288 -0.363201 0.290971
-0.290288 -0.136021 0.461932
-0.290288 -0.206337 -0.402173
-0.290288 -0.280325 -0.368730
-0.290288 -0.350130 -0.349765
-0.290288 -0.368629 -0.301539
-0.290288 0.239685 0.388118
-0.290288 0.081284 0.466334
-0.290288 -0.481947 0.097029
-0.290288 -0.400073 0.245099
-0.290288 0.472454 -0.031763
-0.290288 -0.415067 -0.269067
-0.290288 -0.302832 0.343681
-0.290288 0.474752 -0.128408
-0.290288 0.440668 0.148231
-0.290288 -0.082454 0.460153
-0.290288 -0.161285 0.447553
-0.290288 0.027833 0.454746
-0.290288 0.387382 -0.302793
-0.290288 0.348907 0.318543
-0.290288 0.113474 -0.474353
-0.290288 0.165272 -0.441671
-0.290288 0.166764 -0.436522
-0.290288 -0.125996 0.425210
-0.290288 0.332387 -0.333169
-0.290288 0.436398 0.198518
-0.290288 -0.154103 -0.452770
-0.290288 0.461635 0.040328
-0.290288 -0.002729 -0.472447
-0.290288 0.406244 0.200311
-0.290288 -0.328767 -0.314393
-0.290288 -0.102565 0.437604
-0.290288 0.444206 -0.156775
-0.290288 -0.416745 -0.166510
-0.290288 -0.363279 0.308642
-0.290288 -0.201988 -0.412410
-0.290288 -0.375668 0.308081
-0.290288 0.049425 0.452748
-0.290288 0.034472 0.457488
-0.290288 0.481427 -0.026714
-0.290288 -0.387102 -0.233542
-0.290288 -0.470898 0.126330
-0.290288 0.315401 0.361533
-0.290288 0.452457 0.063181
-0.290288 -0.020786 0.483609
-0.290288 -0.458290 0.077132
-0.290288 -0.104141 0.484597
-0.290288 0.430562 -0.214951
-0.290288 -0.131249 0.469632
-0.290288 0.358583 -0.346193
-0.290288 -0.042805 -0.463890
-0.290288 0.416508 -0.162697
-0.290288 0.301489 0.328177
-0.290288 -0.415492 -0.257998
-0.290288 0.490377 -0.058414
-0.290288 0.369519 -0.259445
-0.290288 0.100043 0.453864
-0.290288 -0.321444 0.325753
-0.290288 -0.095719 -0.477859
-0.290288 -0.180899 -0.409508
-0.290288 -0.446879 0.071752
-0.290288 -0.066270 0.466741
-0.290288 0.099408 0.466499
-0.290288 0.471930 0.116011
-0.290288 -0.043835 0.440925
-0.290288 -0.138587 0.468162
-0.290288 -0.494252 0.014103
-0.290288 0.452785 0.131858
-0.290288 0.446722 -0.217750
-0.290288 -0.270766 -0.370088
-0.290288 -0.448026 -0.066541
-0.290288 0.327067 0.358312
-0.290288 0.452014 0.045856
-0.290288 0.380925 0.306534
-0.290288 -0.143118 0.443353
-0.290288 -0.129828 -0.448701
-0.290288 0.335686 -0.296548
-0.290288 0.411205 0.273330
-0.290288 0.056820 0.441897
-0.290288 -0.125823 0.433172
-0.290288 0.417958 -0.243032
-0.290288 -0.047508 -0.463726
-0.290288 -0.427223 0.199051
-0.290288 0.437363 -0.100708
-0.290288 0.229947 0.416334
-0.290288 0.089814 0.481733
-0.290288 0.418031 0.210934
-0.290288 0.129163 0.432222
-0.290288 0.472846 0.141042
-0.290288 0.279780 -0.369763
-0.290288 -0.473362 -0.103144
-0.290288 -0.379638 -0.275005
-0.290288 0.485044 0.107530
-0.290288 0.311728 0.382486
-0.290288 -0.368881 0.282643
-0.290288 -0.062709 -0.450487
-0.290288 -0.028244 0.486844
-0.290288 0.264384 0.386275
-0.290288 0.321604 -0.322159
-0.290288 -0.386883 -0.301898
-0.290288 -0.430754 0.239573
-0.290288 -0.370420 0.304731
-0.290288 0.130017 0.467629
-0.290288 -0.419032 -0.263989
-0.290288 0.135632 0.463936
-0.290288 0.312828 0.337550
-0.290288 0.428254 0.165040
-0.290288 -0.073046 -0.468254
-0.290288 -0.454999 0.009332
-0.290288 0.290786 0.391780
-0.290288 -0.234391 -0.411327
-0.290288 0.416673 0.214746
-0.290288 -0.320859 -0.369572
-0.290288 -0.339894 -0.352103
-0.290288 -0.476133 0.126327
-0.290288 0.442813 -0.064273
-0.290288 -0.254739 -0.399040
-0.290288 0.020942 -0.464208
-0.290288 -0.433772 0.183282
-0.290288 0.078231 0.454924
-0.290288 -0.459630 0.171450
-0.290288 -0.343417 0.315355
-0.290288 -0.445408 0.140768
-0.290288 0.402344 -0.196357
-0.290288 -0.455392 -0.000531
-0.290288 0.448641 -0.021652
-0.290288 0.282593 0.401904
-0.290288 -0.073920 0.461338
-0.290288 -0.328807 0.333023
-0.290288 -0.091439 0.467754
-0.290288 -0.321217 -0.380411
-0.290288 0.325758 0.318764
-0.290288 0.384504 0.246384
-0.290288 -0.477253 -0.072901
-0.290288 0.094193 -0.450869
-0.290288 0.467613 -0.097182
-0.290288 -0.033540 0.441954
-0.290288 0.309242 0.323296
-0.290288 -0.412774 -0.247362
-0.290288 -0.389846 -0.284055
-0.290288 -0.343829 0.321044
-0.290288 0.422904 -0.155720
-0.290288 0.043850 0.478552
-0.290288 -0.336974 0.327365
-0.290288 -0.012696 -0.491647
-0.290288 -0.171315 0.440544
-0.290288 0.414553 0.227095
-0.290288 0.392273 -0.258138
-0.290288 -0.305432 0.322876
-0.290288 -0.281124 0.361600
-0.290288 0.308004 0.382580
-0.290288 -0.391940 -0.293527
-0.290288 0.256756 -0.429059
-0.290288 0.052824 0.473736
-0.290288 -0.483964 0.030747
-0.290288 -0.445584 -0.104957
-0.290288 0.443106 -0.119393
-0.290288 -0.312668 -0.328180
-0.290288 -0.443022 -0.101496
-0.290288 -0.164771 0.448406
-0.290288 -0.487851 -0.014144
-0.290288 0.446225 -0.052314
-0.290288 -0.430565 0.182988
-0.290288 -0.313063 0.334833
-0.290288 -0.328153 -0.366548
-0.290288 -0.437091 0.198945
-0.290288 -0.372230 -0.252049
-0.290288 0.483612 0.103904
-0.290288 -0.186884 -0.420828
-0.290288 0.432366 -0.202771
-0.290288 0.244795 0.416755
-0.290288 -0.129355 -0.437100
-0.290288 -0.248859 -0.388577
-0.290288 0.418608 -0.263514
-0.290288 -0.363597 -0.267260
-0.290288 -0.354972 -0.289719
-0.290288 0.482748 -0.030682
-0.290288 -0.275558 0.411737
-0.290288 -0.446104 0.100442
-0.290288 0.466147 0.133643
-0.290288 0.379541 -0.304710
-0.290288 -0.071570 -0.490226
-0.290288 -0.163051 0.428475
-0.290288 0.275230 0.370897
-0.290288 0.445435 0.221004
-0.290288 0.437294 -0.218304
-0.290288 -0.250179 0.393592
-0.290288 -0.363159 -0.273944
-0.290288 -0.487150 -0.004641
-0.290288 -0.450896 0.023337
-0.290288 -0.317337 0.354676
-0.290288 -0.286429 0.404029
-0.290288 0.179805 0.431123
-0.290288 -0.308452 0.335719
-0.290288 -0.096144 0.434574
-0.290288 -0.476925 -0.028075
-0.290288 0.429724 -0.228409
-0.290288 -0.126674 0.461556
-0.290288 0.382774 -0.246601
-0.290288 -0.032544 0.458852
-0.290288 -0.445677 -0.035132
-0.290288 -0.113962 0.444536
-0.290288 -0.238189 -0.402297
-0.290288 0.152320 -0.466113
-0.290288 -0.302311 0.346908
-0.290288 0.110117 -0.487913
-0.290288 0.451840 0.110632
-0.290288 -0.020809 0.461784
-0.290288 0.161702 -0.424430
-0.290288 -0.345544 0.333353
-0.290288 0.253446 -0.368937
-0.290288 -0.463796 -0.005952
-0.290288 0.468220 -0.115382
-0.290288 -0.463340 -0.096762
-0.290288 -0.457400 -0.096953
-0.290288 -0.008184 0.466348
-0.290288 0.444547 -0.095214
-0.290288 0.339600 0.346145
-0.290288 0.464679 -0.151674
-0.290288 -0.192837 -0.442210
-0.290288 0.395540 0.256930
-0.290288 -0.480333 -0.020361
-0.290288 0.418529 -0.187732
-0.290288 0.074866 -0.443093
-0.290288 -0.095671 0.472349
-0.290288 0.362143 0.331324
-0.290288 0.332462 -0.345450
-0.290288 -0.243691 0.396209
-0.290288 -0.425904 0.143622
-0.290288 0.481439 0.126731
-0.290288 0.257878 -0.375183
-0.290288 0.434617 -0.178882
-0.290288 0.061105 -0.453502
-0.290288 -0.461369 -0.085769
-0.290288 -0.446169 -0.025504
-0.290288 -0.307878 0.371755
-0.290288 0.378748 -0.286734
-0.290288 0.032850 0.460388
-0.290288 0.030020 0.490730
-0.290288 0.289058 -0.404936
-0.290288 0.417028 0.186652
-0.290288 0.417336 0.231354
-0.290288 -0.385643 -0.241036
-0.290288 -0.464216 -0.168110
-0.290288 -0.393043 -0.275956
-0.290288 0.111420 -0.433806
-0.290288 0.465315 -0.060558
-0.290288 -0.358713 0.341638
-0.290288 -0.336758 0.342281
-0.290288 0.030084 -0.446973
-0.290288 0.189711 0.444691
-0.290288 -0.407941 -0.250138
-0.290288 -0.459089 -0.171478
-0.290288 0.454974 0.110620
-0.290288 0.025589 -0.446841
-0.290288 0.432014 0.176993
-0.290288 0.297298 -0.348976
-0.290288 0.467745 0.114447
-0.290288 0.125911 -0.464623
-0.290288 0.376620 -0.258776
-0.290288 -0.330195 0.341238
-0.290288 -0.159036 0.444640
-0.290288 -0.440356 -0.152029
-0.290288 0.044815 0.484723
-0.290288 0.142018 -0.461032
-0.290288 -0.352582 -0.301728
-0.290288 0.434616 0.148587
-0.290288 0.218711 -0.436221
-0.290288 0.247969 0.386186
-0.290288 0.132380 0.423605
-0.290288 -0.226027 -0.401564
-0.290288 -0.475681 0.005235
-0.290288 0.067927 0.475799
-0.290288 0.026868 0.461595
-0.290288 -0.188707 -0.431437
-0.290288 -0.378923 -0.261184
-0.290288 0.217237 0.420164
-0.290288 0.341243 0.291971
-0.290288 -0.406065 0.250628
-0.290288 0.370055 -0.295628
-0.290288 -0.313893 0.331242
-0.290288 -0.449103 -0.040320
-0.290288 -0.410463 -0.197288
-0.290288 -0.058224 -0.472086
-0.290288 0.158623 -0.426104
-0.290288 0.461788 0.086973
-0.290288 -0.026585 -0.493417
-0.290288 0.045074 -0.470303
-0.290288 0.419636 0.234260
-0.290288 0.022447 -0.498162
-0.290288 -0.066606 0.448243
-0.290288 -0.368728 0.257008
-0.290288 -0.094260 -0.481031
-0.290288 -0.433353 0.207727
-0.290288 -0.365666 0.322549
-0.290288 0.071194 -0.461624
-0.290288 0.450908 -0.177711
-0.290288 -0.482697 -0.022544
-0.290288 0.394254 -0.218957
-0.290288 0.405718 0.229472
-0.290288 -0.440669 0.102511
-0.290288 -0.482426 -0.103682
-0.290288 -0.415409 -0.204731
-0.290288 0.394847 0.234769
-0.290288 0.253856 -0.373031
-0.290288 0.350336 -0.314968
-0.290288 -0.039052 -0.467832
-0.290288 -0.425298 -0.249094
-0.290288 0.339654 0.297580
-0.290288 -0.446060 0.065680
-0.290288 -0.256303 0.363823
-0.290288 0.102276 -0.451971
-0.290288 0.479109 -0.127795
-0.290288 0.036041 0.472213
-0.290288 -0.234686 0.430765
-0.290288 -0.198900 -0.427857
