-0.179136 -0.424899 -0.133704
-0.031133 0.439073 -0.079229
-0.083342 0.259379 -0.364549
-0.133092 0.044456 0.440869
0.003758 0.423928 -0.140431
0.201804 0.363290 0.256093
-0.236393 -0.091120 0.433543
-0.062537 -0.432593 -0.105507
-0.000096 0.021105 0.442611
-0.051100 0.443398 -0.047812
-0.155994 0.297537 0.329494
-0.206974 -0.067622 0.437797
-0.263461 -0.439665 -0.069024
-0.195695 0.399045 0.196330
0.239848 0.211479 -0.394361
0.001054 -0.444893 -0.003123
-0.099508 0.391286 -0.215911
0.145618 0.434464 0.097364
0.059136 -0.423207 -0.139531
-0.149374 -0.441185 0.055071
-0.225308 0.411024 -0.174573
0.162549 -0.185247 -0.406905
-0.179030 0.038595 0.441423
0.244307 0.173593 0.408038
0.053277 0.359089 -0.266302
-0.108130 -0.298788 -0.331840
0.110739 0.418822 0.150259
-0.168928 0.367341 -0.254485
0.037769 -0.094474 0.432793
-0.118891 0.312210 -0.320108
0.260412 -0.318467 0.308473
-0.030367 0.216361 0.387416
-0.027782 0.267862 0.353899
-0.192612 -0.048334 0.440406
-0.204650 0.356668 0.265069
0.152728 -0.243567 0.370245
-0.022943 0.146784 0.418352
-0.248973 0.160011 -0.417944
0.180909 0.445418 0.014668
-0.177307 0.169268 -0.414263
-0.288301 -0.260107 0.359004
0.138867 0.442756 0.050259
-0.200441 -0.437060 0.081116
0.147075 0.338795 -0.291701
-0.235898 0.438436 0.078897
0.032428 0.358411 0.262823
0.221339 -0.027682 0.442358
-0.119499 0.081011 0.435838
0.138552 -0.436907 -0.086205
0.053121 -0.441209 0.054919
0.039515 0.329493 -0.302252
-0.273030 0.192386 0.399735
-0.092160 -0.367537 -0.252689
0.223968 0.433955 -0.103999
0.006328 -0.412113 -0.169687
-0.119873 -0.021526 0.442566
0.192668 0.445172 0.022487
-0.046880 0.436831 -0.091131
0.078246 -0.278009 -0.349586
0.179311 0.239804 -0.377852
0.205224 -0.226242 0.380967
0.065991 0.439280 -0.077926
0.172786 -0.362101 0.256334
0.071525 0.023761 0.442528
-0.007894 -0.322796 0.304144
0.055427 0.445027 -0.030588
0.228878 0.142261 -0.424334
-0.193685 0.405410 0.183192
0.061172 0.401548 -0.195771
0.218046 0.046716 -0.445009
0.233386 0.345891 0.278964
-0.222397 0.408069 0.177046
0.095800 -0.424803 0.129682
0.247557 0.037600 -0.445871
-0.135577 -0.295554 -0.334691
0.258781 0.142193 -0.424358
0.072962 0.356671 0.265066
0.268914 0.282577 -0.346838
0.220598 -0.375787 -0.240505
0.059668 0.035154 0.441749
0.033753 -0.407522 -0.180296
0.212564 0.244876 -0.374405
0.228738 0.024269 0.442512
0.198001 0.389013 0.215519
-0.048617 -0.398024 0.196322
-0.270173 0.440784 -0.068427
-0.047021 -0.031431 0.442004
0.259284 -0.431949 -0.108388
-0.009037 0.438085 -0.085472
0.108094 0.265175 -0.360336
0.059100 -0.343784 0.280358
0.278061 -0.362562 0.255656
0.031814 0.260275 0.359586
0.135178 -0.237127 -0.378883
0.079767 -0.179822 0.404899
0.092251 0.213516 -0.393323
0.163441 0.367667 0.249652
0.081125 -0.381693 -0.230518
0.009640 0.305504 0.322461
-0.140113 -0.101179 0.431294
-0.034464 -0.387834 0.215781
-0.128173 -0.395287 -0.206048
-0.104539 -0.414607 -0.163474
-0.120242 -0.444099 0.024027
-0.018621 0.422356 -0.144796
-0.108752 0.284033 -0.345708
0.277382 -0.393702 0.204805
-0.216057 -0.417419 0.151310
0.206666 0.043014 -0.445359
0.041636 0.436859 -0.091003
0.069861 -0.101794 0.431157
-0.249553 -0.313918 0.313022
0.117262 -0.166532 -0.415004
0.242173 -0.178317 0.405551
-0.070511 0.289634 0.336461
0.156959 -0.436742 0.082592
0.275807 -0.295753 0.330163
-0.242636 0.399383 0.195666
0.282471 -0.325206 -0.305952
-0.226378 0.290511 -0.340041
0.224655 -0.326342 -0.304663
0.225740 -0.256959 0.361143
-0.045416 0.442400 -0.058225
-0.207301 -0.407322 0.176406
0.230490 0.298492 0.328652
0.021455 -0.058104 -0.443658
-0.210889 0.031326 0.442110
0.071075 0.351805 -0.275693
-0.021177 0.313960 0.314005
0.176476 0.252083 0.365153
-0.232355 0.397440 0.199479
-0.123768 -0.096423 -0.436711
0.061222 0.126424 -0.429220
0.076634 0.138121 0.421468
0.030046 -0.075951 0.436478
-0.068590 -0.403172 -0.190348
0.284068 -0.043701 0.440844
0.272257 -0.135958 -0.426153
-0.261688 0.318299 0.309666
0.031730 -0.188245 0.401254
-0.223311 -0.401019 0.190444
-0.252017 -0.421618 -0.144001
-0.003789 -0.200692 -0.399335
0.080528 0.255004 -0.367522
0.255941 0.176089 -0.411311
0.280901 -0.216561 0.386693
-0.144253 0.390352 -0.217609
0.239090 0.131826 -0.427651
-0.084784 -0.444615 -0.011959
-0.238973 -0.345366 0.278319
-0.208505 0.217682 -0.390989
-0.230781 -0.438856 -0.074129
-0.286146 -0.335003 0.290486
-0.021022 -0.144902 0.418661
-0.054834 -0.074470 0.436712
-0.290288 0.460381 -0.160365
-0.290288 0.465602 -0.090957
-0.290288 -0.380291 0.309505
-0.290288 -0.349454 -0.323621
-0.290288 0.089061 0.446880
-0.290288 -0.178274 0.462401
-0.290288 0.118654 -0.452185
-0.290288 -0.384342 -0.277214
-0.290288 0.459308 -0.038932
-0.290288 0.453587 0.130217
-0.290288 0.356834 0.285125
-0.290288 -0.496184 0.034745
-0.290288 0.317260 -0.332533
-0.290288 0.374646 0.278555
-0.290288 0.449417 0.182703
-0.290288 -0.459076 0.024581
-0.290288 -0.456592 -0.001548
-0.290288 0.162671 -0.438459
-0.290288 0.443172 0.122062
-0.290288 0.159185 0.459785
-0.290288 0.473105 -0.014456
-0.290288 0.067128 -0.478555
-0.290288 -0.098989 0.472465
-0.290288 0.050079 -0.457218
-0.290288 0.453038 -0.073765
-0.290288 -0.075150 0.477820
-0.290288 -0.206482 0.449406
-0.290288 -0.266744 0.382990
-0.290288 -0.343759 -0.360333
-0.290288 0.015497 0.446544
-0.290288 -0.430631 0.137080
-0.290288 0.090209 0.434130
-0.290288 -0.216801 -0.405179
-0.290288 0.405672 0.214196
-0.290288 -0.094755 0.473990
-0.290288 -0.418615 0.149165
-0.290288 0.098592 -0.448711
-0.290288 0.400877 0.257544
-0.290288 -0.356748 0.334821
-0.290288 -0.462259 0.149946
-0.290288 0.274102 -0.391651
-0.290288 0.437015 0.186488
-0.290288 -0.196537 0.448546
-0.290288 0.139405 -0.461435
-0.290288 -0.265976 -0.386868
-0.290288 -0.203881 -0.415793
-0.290288 0.446717 0.151664
-0.290288 0.271456 0.381268
-0.290288 0.407533 -0.273371
-0.290288 0.461053 0.117860
-0.290288 -0.463717 -0.149119
-0.290288 -0.147335 0.462229
-0.290288 0.341011 -0.310817
-0.290288 0.353969 0.344976
-0.290288 -0.356702 -0.298619
-0.290288 0.385917 0.221419
-0.290288 -0.037024 -0.465992
-0.290288 0.398894 -0.288735
-0.290288 0.145507 0.462230
-0.290288 -0.305268 0.345743
-0.290288 0.479547 -0.108118
-0.290288 -0.036792 -0.493068
-0.290288 -0.290091 0.370277
-0.290288 -0.341843 0.320636
-0.290288 -0.377747 0.306947
-0.290288 -0.462086 0.085718
-0.290288 0.087811 0.483329
-0.290288 -0.290688 -0.370741
-0.290288 -0.005901 0.469974
-0.290288 -0.352562 -0.298406
-0.290288 0.413870 -0.221444
-0.290288 0.359237 0.302181
-0.290288 0.456999 -0.138806
-0.290288 -0.085555 -0.480607
-0.290288 -0.390733 0.264177
-0.290288 -0.058409 -0.485711
-0.290288 0.029236 -0.474305
-0.290288 -0.460520 0.074371
-0.290288 -0.472744 -0.016111
-0.290288 0.455087 0.149828
-0.290288 -0.427988 -0.220413
-0.290288 0.300906 -0.347508
-0.290288 -0.444364 -0.024448
-0.290288 0.280382 -0.370675
-0.290288 -0.317352 0.325157
-0.290288 0.420177 0.244743
-0.290288 0.485207 0.040706
-0.290288 -0.360602 -0.340771
-0.290288 0.445797 0.113598
-0.290288 0.449241 0.144483
-0.290288 -0.457145 -0.058442
-0.290288 -0.473299 0.056183
-0.290288 -0.140715 0.438964
-0.290288 -0.442462 0.224541
-0.290288 -0.428139 -0.191333
-0.290288 -0.464415 -0.048822
-0.290288 0.441466 -0.212723
-0.290288 0.243874 -0.427923
-0.290288 -0.295661 0.386583
-0.290288 -0.321084 0.325264
-0.290288 -0.388815 -0.250320
-0.290288 0.445559 -0.030850
-0.290288 -0.432486 -0.247962
-0.290288 0.043705 -0.478396
-0.290288 0.215488 -0.402255
-0.290288 -0.450470 -0.151499
-0.290288 -0.346108 0.330829
-0.290288 0.301485 -0.385872
-0.290288 -0.490413 -0.048563
-0.290288 -0.390394 -0.223415
-0.290288 0.114185 0.457645
-0.290288 -0.301839 -0.337654
-0.290288 -0.431892 0.111557
-0.290288 0.207334 -0.416214
-0.290288 0.148393 0.436811
-0.290288 -0.339848 0.354727
-0.290288 0.448631 0.039830
-0.290288 -0.156607 0.430998
-0.290288 0.170266 -0.420855
-0.290288 0.263063 -0.419574
-0.290288 -0.109067 0.433856
-0.290288 0.433125 0.226907
-0.290288 -0.455041 0.045825
-0.290288 0.298999 0.391230
-0.290288 -0.484856 0.108247
-0.290288 -0.226614 0.402684
-0.290288 0.324272 -0.371294
-0.290288 -0.113285 -0.441503
-0.290288 0.046727 0.489446
-0.290288 -0.489857 -0.017408
-0.290288 -0.496676 0.023637
-0.290288 0.066036 -0.474874
-0.290288 0.303083 0.367204
-0.290288 -0.064258 -0.477425
-0.290288 0.193747 0.433036
-0.290288 -0.034130 -0.485504
-0.290288 0.474923 -0.093944
-0.290288 0.369002 -0.254493
-0.290288 0.032555 -0.448692
-0.290288 0.251648 0.403691
-0.290288 0.227654 0.382361
-0.290288 -0.274179 0.351771
-0.290288 -0.414995 -0.169585
-0.290288 -0.256873 0.366480
-0.290288 0.220994 0.442991
-0.290288 -0.120101 0.472564
-0.290288 0.192250 -0.448096
-0.290288 -0.283306 0.375899
-0.290288 -0.311821 -0.325715
-0.290288 -0.339372 -0.305638
-0.290288 -0.440157 0.064544
-0.290288 0.325777 -0.330761
-0.290288 0.132909 -0.481877
-0.290288 0.478198 -0.111335
-0.290288 -0.136459 0.428835
-0.290288 -0.431839 -0.146926
-0.290288 0.193812 0.400099
-0.290288 0.188555 -0.436262
-0.290288 0.396007 0.256226
-0.290288 -0.338946 -0.290897
-0.290288 0.473170 0.099907
-0.290288 0.333909 -0.339972
-0.290288 0.094166 0.471489
-0.290288 0.435192 0.095545
-0.290288 0.270653 0.352483
-0.290288 0.169271 -0.431532
-0.290288 0.216111 0.392307
-0.290288 -0.457275 0.184622
-0.290288 -0.060042 -0.482116
-0.290288 0.345198 0.302367
-0.290288 -0.452011 0.110582
-0.290288 0.428114 0.215044
-0.290288 -0.477745 0.118238
-0.290288 0.011771 0.446647
-0.290288 -0.374106 0.296219
-0.290288 -0.405399 -0.255603
-0.290288 0.120545 0.455436
-0.290288 -0.044169 -0.468520
-0.290288 0.449713 0.070976
-0.290288 0.359868 -0.293017
-0.290288 -0.454507 0.006958
-0.290288 0.235657 -0.380974
-0.290288 0.171549 0.420380
-0.290288 0.264959 -0.374438
-0.290288 -0.470802 -0.138415
-0.290288 0.095323 -0.463789
-0.290288 0.011061 0.491854
-0.290288 -0.439926 -0.148812
-0.290288 -0.379103 -0.305073
-0.290288 0.461414 0.110040
-0.290288 -0.175112 -0.411423
-0.290288 0.468821 -0.144706
-0.290288 0.164648 0.421224
-0.290288 -0.085596 -0.457781
-0.290288 -0.446940 -0.065190
-0.290288 0.262817 -0.395109
-0.290288 0.483704 -0.098400
-0.290288 -0.105990 -0.446268
-0.290288 -0.387281 -0.223276
-0.290288 0.259234 -0.396224
-0.290288 0.370029 -0.251157
-0.290288 -0.458881 -0.158107
-0.290288 0.003654 -0.465089
-0.290288 0.418566 -0.234374
-0.290288 0.104851 -0.473595
-0.290288 0.177792 -0.433283
-0.290288 -0.485062 0.010162
-0.290288 -0.461115 -0.065487
-0.290288 -0.430115 -0.117515
-0.290288 0.466450 0.011478
-0.290288 0.161698 0.417019
-0.290288 -0.314297 0.319551
-0.290288 0.463148 -0.184070
-0.290288 0.470503 0.058421
-0.290288 -0.102054 -0.448360
-0.290288 0.200491 -0.406854
-0.290288 -0.025312 -0.462137
-0.290288 -0.156793 -0.439527
-0.290288 0.356637 -0.323942
-0.290288 -0.024172 -0.498781
-0.290288 -0.398829 0.209534
-0.290288 0.168214 0.448869
-0.290288 -0.178045 -0.437970
-0.290288 -0.030213 -0.454796
-0.290288 -0.151691 0.440288
-0.290288 -0.292821 -0.373439
-0.290288 0.427497 0.151188
-0.290288 -0.465677 0.002979
-0.290288 -0.469393 0.055251
-0.290288 -0.457521 0.063799
-0.290288 -0.487808 0.027253
-0.290288 -0.042295 -0.483331
-0.290288 -0.116518 0.471573
-0.290288 0.000265 -0.466474
-0.290288 0.417922 -0.212883
-0.290288 0.467182 0.135354
-0.290288 -0.457182 0.119505
-0.290288 0.340042 -0.297830
-0.290288 0.315887 0.377199
-0.290288 -0.368479 0.324448
-0.290288 -0.392801 0.252310
-0.290288 -0.471130 0.156639
-0.290288 -0.447600 0.097505
-0.290288 0.483907 0.003298
-0.290288 0.193592 -0.407654
-0.290288 0.464900 0.158628
-0.290288 -0.138396 -0.472006
-0.290288 0.204586 0.420280
-0.290288 0.450705 0.162646
-0.290288 -0.391177 -0.276099
-0.290288 0.189638 0.442182
-0.290288 0.455045 0.100902
-0.290288 -0.439479 0.109220
-0.290288 -0.469465 -0.119797
-0.290288 -0.317561 0.321251
-0.290288 0.210953 0.391073
-0.290288 0.396510 0.252878
-0.290288 -0.427688 0.227788
-0.290288 0.466372 -0.040827
-0.290288 -0.458568 0.145932
-0.290288 0.224585 -0.405388
-0.290288 -0.275025 0.376359
-0.290288 -0.430092 0.163480
-0.290288 0.188497 -0.458845
-0.290288 -0.429464 -0.152635
-0.290288 -0.398863 -0.243108
-0.290288 -0.163509 0.425846
-0.290288 0.247801 0.411096
-0.290288 0.039745 0.482025
-0.290288 -0.318829 -0.324897
-0.290288 0.482275 0.114974
-0.290288 -0.332567 0.321189
-0.290288 0.428773 0.230850
-0.290288 0.215932 -0.426224
-0.290288 -0.013212 0.489633
-0.290288 -0.360689 -0.286256
-0.290288 -0.071176 -0.466071
-0.290288 0.352916 -0.345677
-0.290288 -0.490430 -0.024078
-0.290288 0.136795 -0.468465
-0.290288 -0.259544 0.390761
-0.290288 -0.243197 0.427338
-0.290288 -0.404493 0.269053
-0.290288 0.143612 0.432719
-0.290288 -0.010427 -0.457870
-0.290288 -0.146954 -0.466999
-0.290288 0.118559 0.446553
-0.290288 0.318715 -0.349652
-0.290288 0.482148 0.057544
-0.290288 0.039515 -0.493181
-0.290288 -0.173374 0.461037
-0.290288 -0.378705 0.269955
-0.290288 -0.451386 0.076127
-0.290288 0.141638 0.428531
-0.290288 -0.173742 -0.458811
-0.290288 0.295732 0.391927
-0.290288 0.374944 -0.298772
-0.290288 0.453353 -0.012413
-0.290288 0.083559 0.455668
-0.290288 -0.156573 0.414559
-0.290288 0.274039 -0.382227
-0.290288 -0.136738 -0.477110
-0.290288 0.447818 -0.170906
-0.290288 -0.456329 -0.079044
-0.290288 0.455741 -0.123954
-0.290288 -0.180199 0.418900
-0.290288 -0.440656 -0.166997
-0.290288 0.017887 0.481026
-0.290288 -0.422630 -0.204645
-0.290288 -0.083337 0.459390
-0.290288 -0.324175 -0.334038
-0.290288 -0.200252 -0.454481
-0.290288 -0.095738 0.438432
-0.290288 -0.077407 0.488623
-0.290288 -0.127551 0.449078
-0.290288 -0.080314 -0.481642
-0.290288 0.105994 -0.481584
-0.290288 0.073983 0.471524
-0.290288 0.447021 0.166491
-0.290288 -0.417666 -0.262350
-0.290288 0.296239 0.382215
-0.290288 0.452801 0.090483
-0.290288 -0.484854 -0.054414
-0.290288 0.096192 0.486343
-0.290288 0.393426 -0.249610
-0.290288 -0.454449 0.003623
-0.290288 -0.478834 -0.098498
-0.290288 0.477843 -0.065959
-0.290288 -0.248204 -0.379138
-0.290288 -0.409780 0.200694
-0.290288 0.433584 -0.211285
-0.290288 -0.039664 0.477147
-0.290288 0.409425 -0.267716
-0.290288 -0.429779 0.146740
-0.290288 0.449270 -0.106814
-0.290288 0.497050 0.019086
-0.290288 -0.004521 0.444791
-0.290288 -0.320282 -0.334180
-0.290288 0.435464 -0.226527
-0.290288 0.455389 -0.028585
-0.290288 -0.486228 -0.064231
-0.290288 -0.121832 -0.465110
-0.290288 0.131465 0.450504
-0.290288 0.477102 -0.075373
-0.290288 -0.011444 -0.490360
-0.290288 0.106505 -0.439500
-0.290288 -0.121046 -0.472538
-0.290288 0.475543 0.053563
-0.290288 -0.010248 -0.487233
-0.290288 0.072167 -0.493367
-0.290288 -0.447343 -0.218436
-0.290288 -0.080630 0.454361
-0.290288 0.336546 -0.315347
-0.290288 -0.015124 0.466672
-0.290288 0.204749 0.446653
-0.290288 0.447939 -0.202804
-0.290288 0.446925 0.016652
-0.290288 0.440896 0.182157
-0.290288 0.415328 0.265848
-0.290288 0.495035 -0.059590
-0.290288 0.101707 0.438805
-0.290288 -0.023655 0.474310
-0.290288 0.110294 0.453788
-0.290288 -0.379315 -0.234839
-0.290288 0.063182 -0.459162
-0.290288 0.207142 -0.397272
-0.290288 -0.475954 -0.118267
-0.290288 -0.033124 0.486390
-0.290288 0.041267 -0.496472
-0.290288 0.202673 0.414592
-0.290288 -0.275729 -0.351987
-0.290288 -0.041639 -0.446053
-0.290288 -0.039308 -0.459902
-0.290288 0.183473 0.449649
-0.290288 -0.355779 0.277480
-0.290288 -0.144482 0.444885
-0.290288 -0.114298 0.435812
-0.290288 0.314705 -0.381068
-0.290288 -0.400558 -0.216004
-0.290288 -0.454514 -0.097110
-0.290288 -0.071830 -0.475528
-0.290288 0.497033 -0.032218
-0.290288 0.472336 -0.078264
-0.290288 -0.490319 -0.011386
-0.290288 0.278372 0.349983
-0.290288 -0.155351 0.467919
-0.290288 0.118445 -0.431680
-0.290288 0.315000 -0.371706
-0.290288 -0.222502 -0.425225
-0.290288 -0.020011 0.494637
-0.290288 -0.436361 0.161603
-0.290288 0.334594 0.328504
-0.290288 0.254896 0.412131
-0.290288 -0.354323 -0.294284
-0.290288 -0.022828 -0.447418
-0.290288 -0.235844 -0.380761
-0.290288 0.280309 0.409279
-0.290288 0.434419 0.121409
-0.290288 0.432583 0.133843
-0.290288 -0.290656 0.335024
-0.290288 0.455087 -0.006335
-0.290288 0.361407 -0.323341
-0.290288 -0.445360 -0.184838
-0.290288 0.340414 0.293245
-0.290288 -0.319494 0.351429
-0.290288 -0.444977 0.127715
-0.290288 -0.407018 -0.186187
-0.290288 -0.132640 -0.476792
-0.290288 -0.120249 0.448511
-0.290288 -0.473894 -0.152125
-0.290288 0.051800 0.461535
-0.290288 0.241298 -0.425310
-0.290288 -0.377420 0.255905
-0.290288 -0.421687 -0.155881
-0.290288 -0.206720 -0.437871
-0.290288 0.190425 0.433201
-0.290288 0.291391 -0.377535
-0.290288 0.455119 -0.175994
-0.290288 -0.143578 -0.440187
-0.290288 -0.445721 0.155435
-0.290288 -0.098958 0.438003
-0.290288 -0.457972 -0.042065
-0.290288 -0.140067 -0.440160
-0.290288 0.402028 -0.248070
-0.290288 -0.490342 -0.078205
-0.290288 -0.480106 0.003586
-0.290288 -0.106048 0.446532
-0.290288 -0.355968 0.297550
-0.290288 -0.446065 -0.189363
-0.290288 0.401332 -0.290962
-0.290288 -0.280280 -0.357222
-0.290288 0.399212 0.237992
-0.290288 -0.026749 0.489427
-0.290288 -0.003126 -0.456633
-0.290288 0.234468 0.435407
-0.290288 -0.440216 -0.129187
-0.290288 -0.409013 0.274926
-0.290288 0.489016 0.015627
-0.290288 0.146590 -0.451089
-0.290288 -0.344392 0.301739
-0.290288 -0.403800 -0.212428
-0.290288 0.311799 0.385915
-0.290288 -0.451951 0.144262
-0.290288 0.146380 -0.474149
-0.290288 -0.179239 -0.449970
-0.290288 -0.382692 -0.264587
-0.290288 -0.453402 -0.084077
-0.290288 0.403000 -0.268991
-0.290288 0.453020 -0.058629
-0.290288 0.466814 0.044793
-0.290288 0.474764 0.137894
-0.290288 0.390252 -0.238086
-0.290288 0.277518 -0.357851
-0.290288 -0.385700 0.310479
-0.290288 -0.309819 0.344369
-0.290288 0.243269 -0.436345
-0.290288 -0.095809 0.470381
-0.290288 -0.159744 -0.437749
-0.290288 -0.128858 0.423967
-0.290288 0.402554 0.237451
-0.290288 0.049065 0.448581
-0.290288 -0.443112 0.141182
-0.290288 -0.404268 0.245801
-0.290288 -0.237808 0.426164
-0.290288 -0.076175 0.459247
-0.290288 -0.097442 -0.472426
-0.290288 -0.426228 -0.230542
-0.290288 0.389051 -0.220678
-0.290288 0.180345 0.453953
-0.290288 -0.342249 -0.287283
-0.290288 -0.404743 0.182635
-0.290288 -0.489180 -0.052532
-0.290288 0.307058 -0.343623
-0.290288 -0.235290 -0.397944
-0.290288 0.070252 -0.468190
-0.290288 0.294368 -0.352498
-0.290288 0.372027 -0.331823
-0.290288 -0.469024 0.075118
-0.290288 -0.282101 -0.363081
-0.290288 -0.404652 0.253222
-0.290288 -0.463650 -0.044728
-0.290288 -0.357136 0.316421
-0.290288 0.385135 -0.278094
-0.290288 -0.374033 -0.249801
-0.290288 -0.422046 0.202067
-0.290288 0.176672 0.446071
-0.290288 0.410542 0.214183
-0.290288 -0.059700 -0.478663
-0.290288 0.459672 0.151345
-0.290288 0.071268 -0.488509
-0.290288 0.131280 0.440530
-0.290288 0.104119 -0.478903
-0.290288 -0.343086 0.353565
-0.290288 0.160344 -0.467455
-0.290288 0.276104 0.408826
-0.290288 -0.372799 0.302883
-0.290288 -0.119528 0.443198
-0.290288 0.134561 -0.440339
-0.290288 0.457863 0.028040
-0.290288 0.266209 0.401667
-0.290288 -0.401785 -0.288893
-0.290288 0.466634 0.132168
-0.290288 0.031758 0.442798
-0.290288 -0.445954 0.082022
-0.290288 -0.446211 -0.134776
-0.290288 0.362007 0.304094
-0.290288 -0.119695 0.476332
-0.290288 0.320372 0.374391
-0.290288 0.090906 0.452810
-0.290288 0.475544 -0.058193
-0.290288 0.457503 -0.024903
-0.290288 -0.198131 -0.451900
-0.290288 0.283077 -0.402152
-0.290288 0.404126 0.284147
-0.290288 0.413552 -0.279961
-0.290288 -0.288754 -0.393139
-0.290288 -0.468354 0.092172
-0.290288 0.326301 -0.340180
-0.290288 0.436519 -0.119987
-0.290288 -0.298211 0.373564
-0.290288 -0.457189 -0.151377
-0.290288 0.172850 -0.436664
-0.290288 -0.346692 -0.281312
-0.290288 -0.463627 0.024620
-0.290288 -0.254471 0.396506
-0.290288 0.287020 0.378022
-0.290288 0.192793 -0.438149
-0.290288 -0.358673 0.322357
-0.290288 0.392382 0.235382
-0.290288 -0.351291 -0.312701
-0.290288 -0.194660 0.433079
-0.290288 -0.243126 -0.398601
-0.290288 0.423109 -0.182831
-0.290288 0.421334 0.216192
-0.290288 0.423022 0.227902
-0.290288 0.356469 -0.332428
-0.290288 0.320755 0.330260
-0.290288 0.467862 0.144983
-0.290288 -0.097821 -0.489723
-0.290288 -0.129877 0.452817
-0.290288 -0.464938 -0.103143
-0.290288 -0.324993 0.340136
-0.290288 -0.385113 0.250312
-0.290288 -0.317229 0.353991
-0.290288 0.096321 0.441635
-0.290288 0.321752 -0.357038
-0.290288 -0.053967 -0.453912
-0.290288 -0.398030 -0.263143
-0.290288 0.173212 0.440749
-0.290288 0.140911 -0.469451
-0.290288 0.407339 -0.247250
-0.290288 0.360818 0.298403
-0.290288 0.218990 -0.390622
-0.290288 -0.302497 0.353613
-0.290288 -0.489982 -0.034222
-0.290288 0.260760 -0.385706
-0.290288 0.492766 0.041877
-0.290288 -0.207110 0.441806
-0.290288 0.294281 0.358142
-0.290288 0.327419 0.333803
-0.290288 0.175404 -0.439099
-0.290288 0.476735 -0.047489
-0.290288 -0.197584 -0.432547
-0.290288 0.152879 0.416774
-0.290288 -0.421571 -0.258452
-0.290288 -0.098076 -0.450358
-0.290288 -0.397325 0.290658
-0.290288 -0.285298 0.350110
-0.290288 -0.084647 0.450656
-0.290288 0.242623 -0.382943
-0.290288 -0.407584 -0.191336
-0.290288 -0.387056 0.296978
-0.290288 0.142541 0.459078
-0.290288 -0.446356 0.141478
-0.290288 0.000583 -0.462883
-0.290288 -0.390500 0.231453
-0.290288 -0.186834 0.420120
-0.290288 0.427254 0.176644
-0.290288 0.443990 -0.220545
-0.290288 0.441263 -0.165803
-0.290288 0.439477 0.128397
-0.290288 0.482173 -0.086829
-0.290288 0.418608 -0.185035
-0.290288 0.226952 -0.409603
-0.290288 0.431040 -0.178642
-0.290288 -0.364120 0.257994
-0.290288 -0.043786 -0.457142
-0.290288 -0.048867 -0.458224
-0.290288 -0.424510 0.150815
-0.290288 0.021131 -0.483435
-0.290288 0.271012 0.389716
-0.290288 -0.191480 -0.428810
-0.290288 -0.442816 0.044402
-0.290288 -0.258608 -0.412120
-0.290288 -0.021440 -0.469877
-0.290288 0.207222 -0.455249
-0.290288 0.057744 -0.492854
-0.290288 0.232161 -0.441738
-0.290288 -0.281929 0.344474
-0.290288 -0.350091 -0.280532
-0.290288 0.311527 0.330850
-0.290288 -0.441949 0.204092
-0.290288 0.164916 0.437618
-0.290288 0.308430 0.348929
-0.290288 0.173093 0.429215
-0.290288 -0.445697 -0.046203
-0.290288 -0.186592 0.452297
-0.290288 -0.378157 0.293815
-0.290288 -0.459420 0.089429
-0.290288 0.311561 0.378333
-0.290288 -0.453276 -0.079865
-0.290288 -0.494880 0.004398
-0.290288 0.425533 -0.255215
-0.290288 -0.081764 -0.459359
-0.290288 -0.396522 0.258688
-0.290288 -0.317107 -0.334862
-0.290288 0.476617 -0.114930
-0.290288 0.434762 -0.168392
-0.290288 0.466411 -0.151551
-0.290288 -0.441844 -0.188197
-0.290288 -0.482558 -0.121900
-0.290288 0.402911 -0.215370
-0.290288 -0.376162 -0.256244
-0.290288 0.196661 0.442713
-0.290288 -0.074726 0.482254
-0.290288 0.017243 0.465317
-0.290288 0.025017 0.494599
-0.290288 -0.334841 -0.336073
-0.290288 0.122836 0.430802
-0.290288 -0.493062 0.033622
-0.290288 -0.478415 -0.055198
-0.290288 0.008515 -0.469007
-0.290288 -0.119192 0.458887
-0.290288 0.382901 -0.245640
-0.290288 -0.049192 -0.448600
-0.290288 -0.033409 -0.494115
-0.290288 -0.286358 -0.359227
-0.290288 0.389310 0.308633
-0.290288 -0.349829 -0.301018
-0.290288 -0.451754 -0.099805
-0.290288 -0.334322 -0.340724
-0.290288 0.481831 0.093170
-0.290288 0.019173 -0.490413
-0.290288 0.357055 -0.316560
-0.290288 -0.354745 0.288789
-0.290288 -0.252785 0.381652
-0.290288 0.081322 -0.487437
-0.290288 0.069740 0.457367
-0.290288 0.225242 0.399724
-0.290288 -0.087026 0.475863
-0.290288 0.062462 0.480147
-0.290288 -0.383649 -0.318894
-0.290288 0.085745 0.440945
-0.290288 0.226977 0.436308
-0.290288 -0.267126 -0.398130
-0.290288 0.113338 0.454134
-0.290288 0.483674 0.100596
-0.290288 0.018601 -0.467632
-0.290288 -0.259224 -0.364067
-0.290288 -0.333990 0.355276
-0.290288 0.096823 -0.455453
-0.290288 -0.303457 -0.355119
-0.290288 0.118227 0.464129
-0.290288 -0.026043 0.452261
-0.290288 -0.269929 -0.389188
-0.290288 0.058230 -0.446199
-0.290288 0.461134 0.156608
-0.290288 0.119826 -0.445455
-0.290288 0.427484 0.182416
-0.290288 -0.366216 -0.283591
-0.290288 -0.325458 -0.356922
-0.290288 -0.348545 -0.310665
-0.290288 -0.292006 0.364398
-0.290288 -0.428517 0.117200
-0.290288 0.484465 -0.083510
-0.290288 0.463060 0.099901
-0.290288 -0.459509 -0.121143
-0.290288 -0.492180 0.014989
-0.290288 0.230377 -0.389647
-0.290288 -0.120778 -0.448690
-0.290288 -0.337455 0.321232
-0.290288 0.023902 0.445025
-0.290288 -0.438522 0.093397
-0.290288 -0.378632 0.263306
-0.290288 0.255121 -0.424312
-0.290288 0.456177 -0.056053
-0.290288 0.297510 0.387470
-0.290288 0.051393 -0.494161
-0.290288 -0.041666 -0.471996
-0.290288 -0.327542 -0.319229
-0.290288 -0.473585 0.083479
-0.290288 0.129856 -0.455190
-0.290288 0.179936 0.450329
-0.290288 -0.413547 0.249144
-0.290288 -0.264232 -0.395301
-0.290288 0.476954 -0.102215
-0.290288 0.351678 0.315209
-0.290288 -0.449134 0.188492
-0.290288 -0.197853 -0.426682
-0.290288 -0.278636 -0.372260
-0.290288 -0.067043 -0.490218
-0.290288 -0.413088 0.274436
-0.290288 0.061090 0.445297
-0.290288 0.468147 0.096638
-0.290288 0.478259 0.094529
-0.290288 0.150384 -0.457877
-0.290288 0.096926 0.462788
-0.290288 -0.402661 0.255737
-0.290288 -0.420825 0.191102
-0.290288 0.440541 -0.072794
-0.290288 -0.353532 -0.288001
-0.290288 -0.130943 0.473632
-0.290288 -0.056900 0.458738
-0.290288 -0.415956 0.200575
-0.290288 0.326791 -0.373641
-0.290288 0.424657 -0.154960
-0.290288 0.449550 0.171615
-0.290288 0.272370 -0.376167
-0.290288 -0.343074 -0.355785
-0.290288 0.291218 0.370413
-0.290288 0.032475 -0.458928
-0.290288 -0.424368 0.166654
-0.290288 -0.119074 0.465898
-0.290288 0.213572 -0.399569
-0.290288 0.484567 -0.078069
-0.290288 -0.297371 0.356088
-0.290288 0.120569 -0.477166
-0.290288 0.201293 -0.426586
-0.290288 0.449521 -0.041047
-0.290288 0.460323 -0.083129
-0.290288 0.289286 0.373377
-0.290288 0.237276 0.406919
-0.290288 0.364487 -0.341925
-0.290288 0.259755 -0.375573
-0.290288 -0.169555 0.420167
-0.290288 -0.449869 -0.187795
-0.290288 0.083808 -0.464483
-0.290288 -0.036051 0.468553
-0.290288 -0.234763 -0.425015
-0.290288 0.451943 -0.109140
-0.290288 0.119510 0.480923
-0.290288 -0.314434 -0.378349
-0.290288 0.483420 -0.110921
-0.290288 0.469588 -0.060481
-0.290288 -0.231235 0.391320
-0.290288 -0.390988 0.259998
-0.290288 0.460753 0.078695
-0.290288 -0.302510 0.328856
-0.290288 0.426913 -0.259126
-0.290288 -0.243500 -0.387133
-0.290288 -0.358937 -0.301505
-0.290288 0.404574 0.186344
-0.290288 -0.478224 0.091879
-0.290288 -0.072675 0.449372
-0.290288 0.418235 -0.163336
-0.290288 -0.422864 -0.249343
-0.290288 0.477129 0.030452
-0.290288 -0.095212 -0.480241
-0.290288 0.174046 0.435657
-0.290288 -0.392131 0.273450
-0.290288 0.353575 -0.322942
-0.290288 -0.453780 0.061872
-0.290288 0.302575 0.354860
-0.290288 0.196307 0.406017
-0.290288 0.404213 0.195789
-0.290288 0.035051 0.442510
-0.290288 0.076759 -0.482190
-0.290288 -0.478368 0.096553
-0.290288 -0.483084 -0.081596
-0.290288 0.119117 0.473820
-0.290288 -0.464122 -0.093769
-0.290288 0.068945 -0.471776
-0.290288 -0.278854 0.364085
-0.290288 -0.034973 0.482703
-0.290288 0.264147 -0.414305
-0.290288 0.450522 -0.143001
-0.290288 0.463994 0.047377
-0.290288 0.006309 0.474895
-0.290288 -0.411687 -0.200548
-0.290288 0.267023 0.367559
-0.290288 0.031607 0.465982
-0.290288 0.453273 0.124217
-0.290288 -0.462910 0.111054
-0.290288 0.258438 0.365500
-0.290288 -0.351660 0.344565
-0.290288 0.484522 -0.057758
-0.290288 0.440473 0.115790
-0.290288 -0.124239 0.462794
-0.290288 -0.126302 -0.433611
-0.290288 0.441792 0.200419
-0.290288 -0.116018 0.441411
-0.290288 0.455697 -0.086354
-0.290288 -0.259378 -0.406109
-0.290288 -0.228395 -0.403512
-0.290288 0.006975 0.490196
-0.290288 0.473753 0.148949
-0.290288 0.114360 -0.449366
-0.290288 -0.432095 0.126931
-0.290288 0.416766 0.178322
-0.290288 -0.071006 0.475056
-0.290288 0.388852 -0.272650
-0.290288 0.032530 0.454638
-0.290288 0.209548 0.417694
-0.290288 0.124130 0.462122
-0.290288 0.478130 -0.094928
-0.290288 -0.344924 -0.292831
-0.290288 -0.438491 -0.190724
-0.290288 0.109651 -0.487995
-0.290288 -0.147514 -0.439906
-0.290288 0.216941 -0.431510
-0.290288 -0.446542 0.214360
-0.290288 -0.410440 0.209214
-0.290288 0.464218 0.172362
-0.290288 -0.081849 -0.478502
-0.290288 -0.178433 0.421722
-0.290288 0.334155 0.312693
-0.290288 -0.182422 0.411630
-0.290288 0.182620 -0.439358
-0.290288 0.414360 0.163660
-0.290288 -0.392951 -0.247474
-0.290288 -0.454646 -0.193709
-0.290288 0.462193 -0.005969
-0.290288 0.457610 0.180145
-0.290288 0.469491 -0.092814
-0.290288 -0.304233 0.359684
-0.290288 0.450861 -0.129932
-0.290288 -0.449435 0.134164
-0.290288 0.012285 0.459032
-0.290288 -0.255318 -0.371154
-0.290288 0.327430 0.320307
-0.290288 0.259821 -0.423676
-0.290288 -0.212042 -0.447840
-0.290288 0.267456 -0.417013
-0.290288 0.250237 -0.382464
-0.290288 -0.053357 -0.476053
-0.290288 -0.445106 0.112034
-0.290288 0.266980 -0.360010
-0.290288 -0.084913 -0.475192
-0.290288 0.316162 -0.328706
-0.290288 0.125726 0.445646
-0.290288 -0.020202 0.490685
-0.290288 -0.365234 -0.301496
-0.290288 0.470101 0.040526
-0.290288 -0.436383 -0.162220
-0.290288 -0.182572 -0.450289
-0.290288 -0.190570 -0.424428
-0.290288 0.116688 -0.467078
-0.290288 -0.017522 0.449392
-0.290288 -0.409578 0.249070
-0.290288 0.358169 0.264749
-0.290288 -0.407925 0.207013
-0.290288 -0.072202 0.444493
-0.290288 -0.422695 0.235509
-0.290288 -0.337625 0.301386
-0.290288 0.305813 0.343617
-0.290288 -0.203305 0.403526
-0.290288 0.462501 0.181842
-0.290288 -0.328189 0.352857
-0.290288 0.415010 0.222933
-0.290288 -0.120272 -0.441048
-0.290288 -0.481395 0.043256
-0.290288 -0.425624 -0.194010
-0.290288 0.369296 0.301060
-0.290288 -0.322540 0.311925
-0.290288 -0.032747 -0.475582
-0.290288 0.433975 -0.214828
-0.290288 0.341770 -0.342431
-0.290288 0.482258 0.123855
-0.290288 0.466310 0.093610
-0.290288 -0.488890 0.050114
-0.290288 -0.471888 0.058838
-0.290288 -0.167656 -0.448541
-0.290288 -0.108153 -0.441098
-0.290288 0.438256 0.094818
-0.290288 0.139983 -0.479823
-0.290288 -0.449364 0.059642
-0.290288 -0.140613 0.423677
-0.290288 0.107253 0.431291
-0.290288 -0.285569 -0.344278
-0.290288 0.440707 -0.169578
-0.290288 0.487399 0.006019
-0.290288 0.264983 -0.399000
-0.290288 -0.140017 -0.466083
-0.290288 0.357130 -0.311144
-0.290288 -0.393384 0.244118
-0.290288 0.431650 0.243718
-0.290288 0.374787 -0.283830
-0.290288 -0.031090 -0.497479
-0.290288 0.422225 -0.233725
-0.290288 0.431261 0.247463
-0.290288 -0.331431 -0.309701
-0.290288 0.178947 -0.418030
-0.290288 0.415239 -0.253408
-0.290288 0.187556 0.451124
-0.290288 0.379331 0.255547
-0.290288 -0.086191 0.482088
-0.290288 -0.194981 0.405267
-0.290288 -0.028185 -0.498598
-0.290288 -0.134084 -0.441642
-0.290288 0.486487 -0.092372
-0.290288 -0.103188 -0.457875
-0.290288 0.399666 -0.212258
-0.290288 -0.476117 -0.144552
-0.290288 -0.253653 0.374048
-0.290288 0.195877 0.446414
-0.290288 -0.369432 0.291973
-0.290288 0.470221 -0.034380
-0.290288 0.345430 -0.334948
-0.290288 -0.444685 0.168126
-0.290288 -0.387732 0.234285
-0.290288 -0.410659 0.191016
-0.290288 0.258014 -0.365526
-0.290288 0.285094 0.357221
-0.290288 0.084036 -0.474280
-0.290288 0.099107 0.481407
-0.290288 -0.361199 -0.290227
-0.290288 -0.468352 -0.123872
-0.290288 0.491095 0.082055
-0.290288 -0.085700 -0.440214
-0.290288 0.143480 0.419690
-0.290288 -0.246979 -0.426503
-0.290288 0.170446 -0.445417
-0.290288 -0.409557 -0.211143
-0.290288 0.135671 -0.471495
-0.290288 -0.366640 0.331456
-0.290288 -0.254108 0.411047
-0.290288 0.043245 -0.493313
-0.290288 -0.367364 0.328174
-0.290288 -0.086800 0.458234
-0.290288 -0.345562 0.306727
-0.290288 0.497474 -0.018727
-0.290288 -0.462702 0.166961
-0.290288 -0.258611 0.376508
-0.290288 0.488740 0.042394
-0.290288 -0.390899 0.279660
-0.290288 -0.142651 -0.449128
-0.290288 -0.437134 0.086601
-0.290288 -0.450054 -0.094825
-0.290288 0.383774 0.238559
-0.290288 -0.158061 0.454200
-0.290288 -0.449218 0.021312
-0.290288 -0.261773 -0.411936
-0.290288 0.439426 -0.082821
-0.290288 0.289211 0.384847
-0.290288 0.030918 0.475748
-0.290288 -0.127479 0.474440
-0.290288 0.146866 -0.459505
-0.290288 -0.456314 0.049906
-0.290288 0.002891 0.461504
-0.290288 -0.454875 0.159795
-0.290288 -0.355177 0.320180
-0.290288 0.090258 0.473065
-0.290288 0.224806 0.430423
-0.290288 0.059326 -0.480723
-0.290288 0.134153 0.476705
-0.290288 0.496455 0.038748
-0.290288 0.068151 0.468503
-0.290288 -0.303250 -0.370217
-0.290288 -0.097935 0.441144
-0.290288 -0.220691 -0.445144
-0.290288 -0.428123 -0.124922
-0.290288 0.431760 0.110380
-0.290288 0.491083 -0.070564
-0.290288 0.133314 0.466537
-0.290288 0.350974 -0.319499
-0.290288 0.298651 0.379583
-0.290288 -0.235271 0.376997
-0.290288 0.344099 -0.357922
-0.290288 0.476203 0.058555
-0.290288 0.223270 -0.419190
-0.290288 0.333018 -0.362564
-0.290288 -0.460212 0.013454
-0.290288 -0.244003 -0.420720
-0.290288 0.398074 -0.226067
-0.290288 0.472425 0.052123
-0.290288 -0.178054 0.435851
-0.290288 -0.147788 0.453262
-0.290288 -0.270139 -0.402297
-0.290288 0.414857 -0.186623
-0.290288 0.209135 -0.401790
-0.290288 0.302133 -0.373393
-0.290288 0.488933 -0.078035
-0.290288 0.340023 0.343692
-0.290288 0.230939 -0.411933
-0.290288 0.272929 -0.410368
-0.290288 0.470705 -0.084130
-0.290288 -0.112911 -0.473277
-0.290288 0.257564 -0.381075
-0.290288 0.466776 0.102320
-0.290288 0.481532 -0.040777
-0.290288 -0.311016 -0.378820
-0.290288 0.489904 0.031256
-0.290288 -0.348236 -0.317402
-0.290288 0.393058 -0.235223
-0.290288 -0.129812 -0.479192
-0.290288 -0.398748 0.227364
-0.290288 -0.464029 -0.036077
-0.290288 -0.489647 0.039030
-0.290288 0.455726 -0.106017
-0.290288 -0.334873 -0.300899
-0.290288 0.296810 0.366307
-0.290288 -0.108510 0.478500
-0.290288 0.462884 -0.136817
-0.290288 0.219633 0.416514
-0.290288 0.021203 0.495137
-0.290288 0.124150 -0.432024
-0.290288 -0.370480 -0.322630
-0.290288 -0.421841 -0.184718
-0.290288 -0.317843 0.338315
-0.290288 0.455181 -0.080059
-0.290288 0.359510 0.294403
-0.290288 0.420157 0.212942
-0.290288 0.240750 0.400226
-0.290288 -0.482082 0.007903
-0.290288 0.048889 0.441646
-0.290288 0.146000 0.423454
-0.290288 -0.387592 -0.256792
-0.290288 0.034501 -0.485532
-0.290288 0.309655 0.352003
-0.290288 0.462727 -0.075741
-0.290288 0.437950 -0.196964
-0.290288 0.265815 0.395556
-0.290288 -0.140091 0.450607
-0.290288 -0.409685 -0.248704
-0.290288 -0.001767 -0.499666
-0.290288 -0.470149 -0.094283
-0.290288 -0.323308 0.357155
-0.290288 0.341212 0.298744
-0.290288 0.215654 0.422748
-0.290288 -0.448597 0.152576
-0.290288 -0.454825 0.039431
-0.290288 0.378967 -0.313718
-0.290288 -0.345937 -0.313311
-0.290288 -0.313749 0.341029
-0.290288 -0.436283 0.234877
-0.290288 -0.283262 -0.378975
-0.290288 -0.335890 -0.304227
-0.290288 -0.191837 0.409457
-0.290288 -0.150943 -0.429925
-0.290288 -0.418286 -0.236398
-0.290288 -0.455286 0.112103
-0.290288 -0.431474 0.212515
-0.290288 -0.191206 0.426735
-0.290288 0.094177 -0.441919
-0.290288 -0.493207 -0.003954
-0.290288 0.460779 0.045305
-0.290288 -0.008077 0.478841
-0.290288 -0.446282 0.061337
-0.290288 0.293384 -0.392045
-0.290288 0.320523 -0.377522
-0.290288 -0.304802 -0.344132
-0.290288 -0.103007 -0.473087
-0.290288 0.464652 -0.067714
-0.290288 0.448353 -0.022591
-0.290288 -0.113836 0.439249
-0.290288 -0.321330 0.371545
-0.290288 0.461607 -0.122815
-0.290288 -0.436205 -0.194274
-0.290288 0.270946 -0.393518
-0.290288 -0.347447 0.312282
-0.290288 -0.038089 -0.475383
-0.290288 0.360140 0.283424
-0.290288 0.237036 -0.423609
-0.290288 -0.114412 -0.436640
-0.290288 -0.231545 0.433553
-0.290288 0.471667 0.097221
-0.290288 0.454442 -0.167483
-0.290288 -0.373374 0.239972
-0.290288 0.037543 -0.453894
-0.290288 0.367680 0.326688
-0.290288 -0.373174 -0.268112
-0.290288 0.436094 -0.139388
-0.290288 0.315953 0.371550
-0.290288 -0.409848 -0.279308
-0.290288 0.480759 -0.046414
-0.290288 -0.355742 -0.290900
-0.290288 -0.123652 -0.450687
-0.290288 -0.111968 -0.458673
-0.290288 0.420698 0.169190
-0.290288 -0.392871 -0.278844
-0.290288 -0.446479 -0.104043
-0.290288 -0.030666 -0.468323
-0.290288 -0.297263 0.383106
-0.290288 -0.293290 0.332585
-0.290288 0.165687 0.418116
-0.290288 0.061892 -0.490987
-0.290288 0.192777 0.452791
-0.290288 0.463876 -0.002935
-0.290288 0.443191 -0.147086
-0.290288 -0.260974 0.405075
-0.290288 0.474230 0.066895
-0.290288 -0.424103 0.135206
-0.290288 0.336788 0.343425
-0.290288 -0.437749 -0.208003
-0.290288 0.219302 -0.394162
-0.290288 0.303999 -0.345337
-0.290288 0.098868 0.456093
-0.290288 -0.451271 0.155525
-0.290288 0.178837 -0.411577
-0.290288 -0.301847 0.336241
-0.290288 -0.183688 -0.411253
-0.290288 -0.210068 0.414923
-0.290288 0.348746 0.338352
-0.290288 -0.380939 -0.283751
-0.290288 0.248312 -0.375611
-0.290288 0.161739 0.436642
-0.290288 0.356980 -0.303200
-0.290288 -0.026896 0.473584
-0.290288 0.108309 0.459912
-0.290288 -0.084792 0.435497
-0.290288 -0.448386 -0.082674
-0.290288 -0.460218 0.049253
-0.290288 -0.210984 0.447291
-0.290288 -0.310669 0.365452
-0.290288 -0.187909 -0.454675
-0.290288 -0.123283 0.474412
-0.290288 0.017774 -0.484446
-0.290288 0.207230 -0.420995
-0.290288 0.428263 0.173430
-0.290288 0.417151 0.268587
-0.290288 0.178031 0.436133
-0.290288 -0.314959 0.333902
-0.290288 -0.197668 0.417022
-0.290288 0.363788 -0.336649
-0.290288 0.486026 0.037600
-0.290288 -0.323911 -0.319818
-0.290288 -0.112607 -0.434233
-0.290288 -0.262086 -0.386768
-0.290288 -0.121469 0.479448
-0.290288 -0.465338 -0.021465
-0.290288 -0.426337 -0.179566
-0.290288 0.153694 0.426559
-0.290288 0.391215 -0.254894
-0.290288 -0.093355 0.452053
-0.290288 0.377210 -0.265915
-0.290288 -0.467940 -0.157875
-0.290288 -0.332917 0.294608
-0.290288 -0.440862 -0.184862
-0.290288 -0.262100 0.386491
-0.290288 -0.095316 -0.463667
-0.290288 0.328658 -0.367489
-0.290288 0.443967 -0.182806
-0.290288 0.480124 0.112691
-0.290288 -0.361658 -0.297341
-0.290288 0.006189 -0.485950
-0.290288 0.274940 -0.373620
-0.290288 -0.200847 0.396459
-0.290288 0.427544 -0.213073
-0.290288 0.031577 0.446289
-0.290288 0.233823 0.377290
-0.290288 0.302251 -0.364819
-0.290288 0.435367 -0.186327
-0.290288 0.144343 -0.445212
-0.290288 -0.004565 0.451820
-0.290288 0.490768 0.034568
-0.290288 0.451254 -0.171151
-0.290288 0.221178 -0.400824
-0.290288 0.430217 -0.173968
-0.290288 0.224162 0.442704
-0.290288 -0.204363 0.443833
-0.290288 -0.389177 -0.304956
-0.290288 0.447370 -0.141486
-0.290288 -0.322490 -0.358831
-0.290288 0.472252 -0.010882
-0.290288 0.448061 0.001218
-0.290288 0.391189 -0.281288
-0.290288 0.103466 -0.448039
-0.290288 -0.451629 0.057251
-0.290288 -0.406511 -0.280820
-0.290288 -0.009143 0.459645
-0.290288 -0.206127 0.435998
-0.290288 -0.407440 0.246919
-0.290288 0.338171 0.336878
-0.290288 0.462107 0.123979
-0.290288 0.459086 0.052283
-0.290288 0.055923 -0.461186
-0.290288 -0.225293 0.405614
-0.290288 0.437055 0.124725
-0.290288 0.472875 -0.062223
-0.290288 0.437455 0.114785
-0.290288 0.451425 -0.165701
-0.290288 -0.407668 0.192315
-0.290288 0.246544 -0.382567
-0.290288 0.454487 0.188391
-0.290288 0.352689 -0.286228
-0.290288 0.470431 0.092347
-0.290288 -0.359980 -0.311967
-0.290288 -0.309737 0.318113
-0.290288 0.487589 -0.106196
-0.290288 0.409551 0.235499
-0.290288 0.214821 -0.444068
-0.290288 -0.477054 -0.004837
-0.290288 0.218818 -0.436096
-0.290288 0.491834 -0.052257
-0.290288 0.076172 -0.473769
-0.290288 0.337458 0.330711
-0.290288 0.262984 -0.377283
-0.290288 0.468835 -0.154011
-0.290288 -0.410699 0.244904
-0.290288 -0.426116 0.236488
-0.290288 0.463143 0.115511
-0.290288 0.260566 -0.382205
-0.290288 0.454339 -0.115210
-0.290288 -0.307322 -0.327166
-0.290288 -0.042328 -0.494661
-0.290288 0.126560 0.454079
-0.290288 0.340707 0.315438
-0.290288 0.323646 0.322383
-0.290288 -0.416215 0.224203
-0.290288 0.083873 -0.449625
-0.290288 -0.185714 -0.450254
-0.290288 -0.491243 -0.067297
-0.290288 -0.205558 0.432392
-0.290288 -0.416771 -0.210832
-0.290288 -0.373594 0.273155
-0.290288 -0.067492 0.443343
-0.290288 -0.284176 0.372767
-0.290288 -0.295014 -0.403057
-0.290288 0.441071 0.119471
-0.290288 -0.193381 -0.403552
-0.290288 0.304852 0.330794
-0.290288 0.406679 0.230600
-0.290288 0.464444 0.145515
-0.290288 0.405039 0.281021
-0.290288 -0.242635 -0.407101
-0.290288 -0.304150 -0.351562
-0.290288 -0.379528 0.284310
-0.290288 0.136743 0.437151
-0.290288 -0.099590 0.476523
-0.290288 -0.491914 0.042400
-0.290288 0.080311 0.481779
-0.290288 0.334045 0.353370
-0.290288 -0.448578 -0.035604
-0.290288 0.399598 0.233073
-0.290288 -0.381508 -0.311472
-0.290288 -0.463363 -0.039372
-0.290288 -0.385400 0.285844
-0.290288 0.360823 -0.333136
-0.290288 -0.396070 0.238036
-0.290288 0.418460 -0.237957
-0.290288 0.484654 -0.012837
-0.290288 -0.170762 0.410272
-0.290288 -0.457712 -0.108622
-0.290288 0.227631 -0.397520
-0.290288 0.028247 -0.463860
-0.290288 -0.280433 0.352634
-0.290288 0.441283 -0.089392
-0.290288 0.404254 0.227061
-0.290288 0.298193 -0.387241
-0.290288 0.056939 -0.467466
-0.290288 -0.349936 0.307445
-0.290288 -0.001900 0.487857
-0.290288 0.375571 0.256267
-0.290288 -0.467361 0.081840
-0.290288 -0.146693 -0.427808
-0.290288 0.330980 0.344796
-0.290288 0.343217 0.326941
-0.290288 0.294590 -0.398417
-0.290288 -0.364284 -0.269579
-0.290288 0.464211 0.086759
-0.290288 -0.205083 -0.423022
-0.290288 -0.074677 0.486933
-0.290288 0.046242 -0.493697
-0.290288 -0.372194 -0.280089
-0.290288 0.425145 -0.238911
-0.290288 -0.464431 0.073513
-0.290288 -0.427219 -0.198632
-0.290288 0.239224 0.425159
-0.290288 0.429865 -0.192898
-0.290288 -0.093466 -0.483422
-0.290288 -0.439959 0.115230
-0.290288 0.208167 0.421392
-0.290288 0.152215 -0.460738
-0.290288 -0.060057 0.484056
-0.290288 -0.468221 -0.010040
-0.290288 0.192074 0.426898
-0.290288 -0.415053 0.173845
-0.290288 -0.122408 0.459704
-0.290288 -0.459474 0.128142
-0.290288 -0.440661 -0.156683
-0.290288 -0.373738 -0.274081
-0.290288 0.330419 0.330505
-0.290288 -0.367298 -0.259981
-0.290288 0.038257 -0.475918
-0.290288 -0.119534 0.454153
-0.290288 -0.428371 0.176420
-0.290288 -0.100692 -0.469893
-0.290288 -0.372646 0.316954
-0.290288 -0.371524 -0.316139
-0.290288 0.487890 -0.099221
-0.290288 0.234104 -0.412697
-0.290288 -0.397447 0.216471
-0.290288 -0.177468 -0.455831
-0.290288 0.288170 0.357711
-0.290288 -0.449394 0.203049
-0.290288 -0.375131 0.270335
-0.290288 0.494409 -0.065740
-0.290288 -0.480456 -0.003564
-0.290288 0.274095 0.357958
-0.290288 0.408958 0.273242
-0.290288 0.424555 -0.207681
-0.290288 -0.072131 -0.457929
-0.290288 0.361961 0.315583
-0.290288 0.137124 0.455490
-0.290288 -0.264727 -0.383090
-0.290288 -0.121989 -0.476506
-0.290288 -0.467633 0.013423
-0.290288 0.253421 -0.368859
-0.290288 0.194519 0.409314
-0.290288 0.422181 -0.166236
-0.290288 0.199683 -0.430383
-0.290288 0.468620 -0.089620
-0.290288 0.447417 0.210854
-0.290288 0.380468 -0.279051
-0.290288 0.364914 0.274877
-0.290288 -0.464511 -0.125362
-0.290288 -0.189535 -0.420583
-0.290288 -0.067257 0.474250
-0.290288 -0.309071 -0.347211
-0.290288 0.292847 -0.369106
-0.290288 -0.143651 0.419795
-0.290288 -0.474038 0.087289
-0.290288 0.078524 -0.465047
-0.290288 0.443061 -0.150703
-0.290288 -0.451328 -0.103058
-0.290288 0.100410 -0.440895
-0.290288 -0.447285 -0.213075
-0.290288 -0.040091 -0.492359
-0.290288 0.466941 -0.052056
-0.290288 0.310926 -0.391217
-0.290288 -0.305291 -0.385557
-0.290288 0.443316 0.175748
-0.290288 0.191623 0.436439
-0.290288 0.450604 0.014829
-0.290288 -0.180736 0.449096
-0.290288 -0.442613 0.130788
-0.290288 -0.324475 0.303330
-0.290288 -0.493174 -0.013710
-0.290288 0.337751 0.299302
-0.290288 0.387584 -0.239949
-0.290288 0.436062 -0.112593
-0.290288 -0.000588 -0.476223
-0.290288 -0.229721 0.385901
-0.290288 0.216848 0.442996
-0.290288 -0.418184 -0.213670
-0.290288 -0.009851 -0.476524
-0.290288 0.088200 -0.465041
-0.290288 0.354330 -0.283424
-0.290288 0.121356 0.442555
-0.290288 -0.408517 -0.239526
-0.290288 -0.399454 -0.277581
-0.290288 -0.360363 -0.278110
-0.290288 -0.200987 -0.414516
-0.290288 0.463975 0.035720
-0.290288 0.270925 0.356144
-0.290288 0.082275 0.475928
-0.290288 0.404586 -0.271691
-0.290288 -0.400863 0.265108
-0.290288 0.474177 0.127171
-0.290288 0.070416 0.483498
-0.290288 0.294468 -0.386353
-0.290288 -0.090864 0.446206
-0.290288 -0.005620 0.454704
-0.290288 -0.057877 -0.453831
-0.290288 0.001561 0.466535
-0.290288 0.233283 -0.394263
-0.290288 0.458099 -0.000579
-0.290288 0.289576 -0.400991
-0.290288 0.493245 0.021654
-0.290288 0.393534 -0.285345
-0.290288 -0.479320 -0.109376
-0.290288 0.397272 0.211156
-0.290288 -0.145546 -0.477583
-0.290288 0.347926 -0.320635
-0.290288 0.331374 0.334265
-0.290288 0.444902 -0.196705
-0.290288 -0.242096 0.385563
-0.290288 -0.257843 0.404981
-0.290288 0.277240 -0.369074
-0.290288 -0.260656 -0.415058
-0.290288 0.409938 -0.271227
-0.290288 0.263963 0.371918
-0.290288 0.459477 0.189509
-0.290288 -0.281210 0.383765
-0.290288 0.070910 0.453154
-0.290288 -0.236981 0.432590
-0.290288 0.392060 0.252361
-0.290288 -0.468683 -0.087107
-0.290288 -0.127345 -0.436582
-0.290288 -0.312919 -0.388652
-0.290288 -0.417227 0.176031
-0.290288 -0.419960 -0.164132
-0.290288 0.389440 -0.247433
-0.290288 -0.453896 -0.203241
-0.290288 -0.395604 0.206725
-0.290288 -0.474599 0.062090
-0.290288 0.170363 -0.417260
-0.290288 0.459418 -0.096182
-0.290288 -0.460960 0.184730
-0.290288 0.462966 0.082103
-0.290288 0.449408 -0.180148
-0.290288 0.487713 0.027860
-0.290288 0.454708 -0.061987
-0.290288 0.384033 0.303349
-0.290288 0.106206 -0.468200
-0.290288 -0.404248 0.221441
-0.290288 -0.335932 0.298333
-0.290288 0.041427 0.448266
-0.290288 -0.446068 0.105355
-0.290288 -0.382686 -0.253479
-0.290288 0.088846 -0.469239
-0.290288 -0.269773 -0.413977
-0.290288 0.457160 -0.043042
-0.290288 0.148891 -0.436862
-0.290288 -0.484406 0.055755
-0.290288 0.458152 -0.165083
-0.290288 -0.309172 -0.323084
-0.290288 0.308503 -0.385744
-0.290288 -0.027590 -0.447290
-0.290288 0.317324 -0.374989
-0.290288 -0.425719 -0.245686
-0.290288 0.390285 -0.309762
-0.290288 -0.215266 0.392118
-0.290288 -0.386686 -0.252517
-0.290288 -0.449413 -0.078822
-0.290288 -0.154421 0.464819
-0.290288 0.169689 -0.425103
-0.290288 -0.305952 -0.358997
-0.290288 -0.286243 0.390712
-0.290288 -0.229494 -0.399894
-0.290288 0.299108 0.364069
-0.290288 0.322622 0.366071
-0.290288 0.047987 0.474409
-0.290288 -0.390031 0.218278
-0.290288 0.152497 -0.454125
-0.290288 -0.069497 -0.454741
-0.290288 -0.258114 0.414411
-0.290288 0.446981 -0.064438
-0.290288 0.436563 0.181714
-0.290288 0.000675 0.479229
-0.290288 -0.090078 0.455140
-0.290288 -0.465843 0.149033
-0.290288 -0.473629 0.091009
-0.290288 -0.472481 -0.102843
-0.290288 0.353686 -0.330368
-0.290288 0.029055 0.483800
-0.290288 -0.456730 -0.010251
-0.290288 0.062683 -0.484900
-0.290288 -0.262381 -0.408513
-0.290288 -0.228862 -0.389263
-0.290288 0.090185 -0.477458
-0.290288 -0.270004 -0.357325
-0.290288 0.079049 -0.459750
-0.290288 -0.240662 0.410409
-0.290288 0.181400 0.422187
-0.290288 0.427151 -0.176525
-0.290288 0.272318 -0.354904
-0.290288 0.413657 -0.180149
-0.290288 -0.335513 0.318082
-0.290288 0.294880 -0.366515
-0.290288 -0.404589 0.190799
-0.290288 -0.437332 -0.151608
-0.290288 -0.437868 -0.213262
-0.290288 0.105922 -0.488832
-0.290288 0.005822 0.460003
-0.290288 0.008363 -0.447408
-0.290288 -0.005235 0.458439
-0.290288 -0.403269 0.187690
-0.290288 0.414359 -0.234777
-0.290288 -0.246359 -0.385507
-0.290288 -0.389746 0.226613
-0.290288 0.291180 0.336085
-0.290288 0.341044 -0.319848
-0.290288 -0.415623 -0.229034
-0.290288 -0.474052 -0.067830
-0.290288 -0.359464 0.296182
-0.290288 -0.051189 0.471417
-0.290288 0.377151 -0.302921
-0.290288 -0.338119 -0.355245
-0.290288 -0.144682 0.464440
-0.290288 -0.466347 -0.033741
-0.290288 -0.485957 0.064267
-0.290288 -0.412494 0.252575
-0.290288 0.480463 -0.032762
-0.290288 -0.102414 -0.479007
-0.290288 -0.381594 0.266477
-0.290288 -0.401819 0.202977
-0.290288 -0.137716 -0.460239
-0.290288 0.201801 0.433442
-0.290288 0.124537 0.450521
-0.290288 0.393754 0.225522
-0.290288 0.427061 0.233964
-0.290288 -0.333957 -0.317121
-0.290288 0.334220 0.305160
-0.290288 -0.191388 0.414148
-0.290288 0.399809 0.244162
-0.290288 0.390792 0.274870
-0.290288 0.071207 0.438317
-0.290288 -0.195240 -0.453200
-0.290288 -0.130171 0.437429
-0.290288 -0.082066 -0.466169
-0.290288 0.009946 -0.452163
-0.290288 0.403437 -0.218964
