0.006981 0.088720 0.487901
0.203234 0.439362 0.233504
0.231814 0.215822 0.446980
-0.269522 0.300755 -0.399413
-0.010382 -0.212705 -0.452272
0.106889 -0.055095 0.492888
-0.141386 0.377784 -0.327381
0.267808 -0.496869 0.021405
-0.169406 0.492276 -0.080589
0.205112 0.322014 -0.382430
0.126662 -0.408640 -0.286205
0.261294 0.408171 0.284113
0.004208 -0.433760 -0.245839
0.144320 0.305133 -0.396111
-0.209116 0.176204 0.463737
0.193694 -0.496164 -0.037893
-0.186607 -0.208266 -0.454264
-0.101030 -0.309970 -0.391462
0.156442 -0.173077 0.464674
0.091974 0.337339 -0.369200
-0.290008 0.304001 -0.396964
0.067355 -0.269615 -0.420671
-0.075193 0.498322 0.009412
0.045679 -0.253076 -0.430754
-0.050136 0.026699 -0.499625
-0.270312 0.000303 0.495838
-0.162439 0.351973 -0.354953
0.238006 -0.423142 -0.264237
-0.205073 0.497585 0.028646
-0.058157 -0.477544 -0.141664
-0.024191 -0.487431 -0.101484
-0.169592 -0.341522 -0.364205
0.243726 0.223659 -0.447328
0.106354 -0.078154 -0.493897
-0.090676 -0.071579 0.490516
0.021228 0.493604 0.067158
-0.038896 -0.351992 -0.353916
0.055743 -0.233284 -0.441819
0.081967 0.477260 -0.145902
-0.217624 0.458373 -0.198090
0.246907 -0.424599 0.257096
0.135935 0.115263 -0.486885
-0.212767 0.498342 0.008313
-0.057404 -0.452301 -0.209774
-0.260038 -0.492149 -0.074484
-0.065648 0.401609 -0.297492
0.058304 -0.339780 -0.365783
0.106099 -0.495308 0.044250
0.189414 -0.196119 -0.459715
0.127892 -0.222221 -0.447644
-0.087677 0.001211 -0.500183
0.144615 -0.496364 -0.035414
0.201006 0.335792 0.365970
-0.030181 -0.157734 0.469967
-0.116583 0.433288 0.244097
0.121495 -0.242114 -0.437170
-0.170810 -0.145606 -0.478194
0.261623 0.048932 -0.497823
-0.165212 -0.149102 0.472945
-0.126799 0.493475 -0.073624
0.238197 0.429025 0.251531
-0.243267 -0.352733 -0.353155
0.218408 -0.465084 -0.179393
-0.051267 0.491350 0.082737
-0.088756 0.256125 -0.429596
-0.173554 0.002999 -0.500151
0.045394 -0.350867 0.350678
0.034551 -0.496699 0.025186
0.029024 0.442613 0.227160
0.179928 0.334062 -0.372091
0.160350 -0.199018 -0.458414
0.182808 -0.488088 -0.098347
0.240886 0.316131 0.383013
-0.094148 0.296548 -0.402587
0.170876 -0.042069 -0.498412
-0.166257 0.037241 0.494615
-0.015714 -0.459656 -0.192411
0.285836 0.302031 0.394256
0.053778 0.498646 -0.008522
0.135492 -0.317060 0.381448
0.086748 0.262351 0.421371
0.077485 0.419741 0.266587
0.030373 -0.292579 0.400455
0.115760 -0.367124 0.333666
-0.053184 -0.058772 -0.496607
0.158836 -0.475591 -0.148740
0.201074 0.456112 -0.203129
0.039285 0.137470 -0.480932
-0.085875 -0.018793 0.495494
0.137184 -0.478100 -0.139650
0.164301 0.309170 0.388564
-0.020982 -0.312367 0.385475
-0.159873 0.088187 0.487993
0.285629 -0.033535 0.494634
0.112132 -0.266015 -0.422865
0.052685 -0.497295 -0.013890
0.211441 -0.242199 -0.437126
-0.113659 -0.261587 -0.425565
-0.052299 -0.429336 -0.253554
0.028553 0.056705 0.492588
-0.230707 0.376670 -0.328611
0.280402 0.230124 -0.444142
-0.053457 -0.385163 0.312833
0.058541 0.143199 0.474888
-0.253905 0.461814 -0.190159
-0.102120 0.422123 0.262980
-0.054400 0.401537 0.293045
0.244981 0.463750 -0.185001
0.046812 0.113181 0.482854
-0.010943 -0.484887 -0.113627
-0.170439 0.235412 -0.441474
-0.153724 0.418715 0.268142
0.202563 -0.482329 0.119702
-0.050250 -0.153667 -0.475735
-0.160224 -0.005843 0.495728
-0.194672 -0.064738 0.491505
-0.273798 0.090772 -0.492015
-0.162342 -0.496713 -0.031106
0.082614 0.449853 -0.217077
0.128292 -0.164806 -0.471983
-0.034418 0.252417 -0.431723
-0.005770 -0.496050 0.037385
0.070117 -0.131309 -0.482556
0.157357 0.113150 -0.487327
0.075400 -0.237758 -0.439464
-0.269379 -0.405067 -0.291361
-0.162350 0.005053 0.495924
-0.290184 -0.427983 0.251546
0.021869 0.478667 -0.141292
-0.025052 0.288046 0.404362
0.145921 0.468350 0.168552
-0.009307 -0.493540 -0.064869
-0.150567 0.490915 -0.088494
0.017212 0.218589 -0.449826
-0.150941 0.050037 0.493308
-0.226572 0.175568 0.463976
0.206977 -0.495553 -0.045434
-0.147381 -0.420148 0.264398
0.250510 0.497017 0.035654
0.238834 -0.174306 -0.468418
-0.267397 0.456521 -0.202216
-0.127762 0.490609 -0.090272
-0.153210 -0.495295 -0.048608
-0.183597 -0.247322 -0.434262
0.256062 0.470392 -0.167299
-0.173368 -0.182185 0.461135
-0.289861 0.392894 0.304501
-0.239627 -0.416015 -0.275033
0.000438 0.005855 0.495938
-0.172516 -0.402430 0.290499
0.125168 0.054439 -0.497377
0.161801 0.444275 -0.228148
-0.289015 -0.469651 -0.166164
-0.059007 0.064382 0.491758
-0.113338 0.128117 0.479304
-0.230395 -0.444542 0.221341
0.105983 0.466666 -0.177228
0.213891 0.341515 -0.365134
-0.223863 0.229942 0.439765
-0.000994 0.424502 -0.263290
0.213835 0.486382 -0.111315
0.168918 0.366108 0.336116
0.239787 0.496384 0.043471
-0.229141 -0.479485 0.130898
-0.181714 0.081200 -0.493625
0.239794 -0.496697 0.025233
-0.073264 -0.494868 0.048317
-0.180331 -0.064036 -0.496038
-0.254455 -0.069747 -0.495344
-0.030463 -0.170695 0.465496
-0.258878 -0.494310 0.053485
0.281532 0.364260 0.338014
0.029885 -0.425132 0.256223
-0.065374 0.389030 -0.313622
-0.137550 0.445870 0.220551
-0.262218 0.376648 0.324123
0.223032 0.208762 0.450148
-0.075927 0.429796 0.250186
0.056020 -0.439613 0.230703
-0.225805 -0.015579 0.495552
-0.180773 -0.495508 -0.045983
0.233348 -0.270886 0.415313
0.048386 -0.225828 0.441401
0.024685 0.414819 0.274044
0.251654 -0.472742 0.152997
-0.106457 0.496680 0.039815
0.232461 0.463701 0.180816
-0.101934 0.471278 -0.164937
-0.010531 0.446674 0.218919
0.008832 -0.099926 -0.490114
-0.289634 -0.255946 0.424758
-0.120106 -0.463071 -0.184222
-0.244550 0.461044 0.187188
0.201772 0.409956 -0.285557
-0.079061 -0.455534 0.197780
0.046236 -0.484049 -0.117626
0.147267 0.336473 -0.370022
-0.135600 -0.094964 0.486569
-0.276589 -0.497034 0.017725
-0.173866 -0.497308 -0.013205
-0.186620 0.480528 -0.135191
0.141661 -0.301178 -0.398473
-0.011115 0.254315 -0.430634
-0.013482 -0.210044 0.449178
-0.042908 0.051574 0.493142
0.029356 -0.316189 0.382195
0.030453 -0.028225 0.495065
0.207323 -0.369635 -0.335456
-0.232077 -0.380103 0.319178
0.275493 -0.344527 -0.361483
0.184283 -0.308113 -0.392942
-0.139214 0.225491 0.442109
0.017978 0.374078 0.327119
-0.277254 0.100348 -0.490009
0.060150 -0.469485 0.162630
-0.083214 0.353348 -0.353614
0.270786 0.094352 -0.491265
0.001654 -0.482021 0.120998
-0.123218 -0.406499 0.284681
0.002532 0.430291 -0.253794
0.180323 0.243121 -0.437054
-0.035718 -0.497427 -0.006598
0.263070 0.202477 0.452968
0.160409 0.319907 0.380002
0.204461 -0.140612 0.475428
0.264670 0.331289 -0.374471
0.286824 0.399485 -0.300510
0.176518 -0.301512 0.393716
0.103348 -0.390992 0.305522
-0.184957 0.410630 -0.284593
-0.209268 0.483279 -0.124372
-0.099082 0.310144 -0.392330
0.198457 -0.245933 0.430500
0.128410 0.224610 -0.446859
0.185886 -0.296684 0.397358
-0.189854 0.489391 0.092668
-0.243093 -0.497230 -0.017517
0.184392 0.496962 0.036337
0.127721 -0.323132 0.376238
-0.088574 0.381940 -0.322514
-0.125136 -0.353498 0.348117
0.132844 0.018302 0.495464
0.180944 0.400122 -0.299617
-0.016741 0.437813 0.236206
-0.213802 -0.325179 -0.379008
-0.080899 0.398595 -0.301626
0.135941 0.415053 0.273688
-0.262947 -0.245428 -0.435416
-0.081825 -0.051175 0.493205
-0.190197 -0.263557 -0.424364
-0.080012 -0.194177 0.456135
0.068797 0.286303 -0.410165
-0.089268 0.324452 -0.380338
-0.044730 0.495846 0.050110
0.167248 0.494487 -0.065677
0.253105 -0.468119 -0.170604
-0.266789 0.457506 0.195673
-0.139802 0.424490 -0.263311
-0.204435 0.129515 -0.483128
-0.115205 -0.285283 -0.409931
0.060032 0.475032 -0.153204
0.147097 -0.010701 0.495640
0.058812 0.497628 -0.031682
-0.000870 0.003087 -0.500149
-0.214065 -0.359479 -0.346225
-0.118435 -0.107536 0.483935
0.106605 0.197659 -0.459464
0.153637 -0.401541 0.291770
0.034339 -0.244391 -0.435971
-0.195320 -0.139980 -0.479911
0.098495 -0.493572 -0.064650
0.134879 0.497337 0.031707
-0.066933 0.022982 0.495254
-0.287584 -0.154016 0.471249
-0.229542 0.444526 -0.227671
-0.200388 0.343103 0.359348
-0.048865 0.175289 -0.468618
0.229196 0.439292 0.233627
0.017680 0.485281 0.112286
0.081540 0.242421 0.433195
-0.205554 -0.029780 0.494939
-0.011151 -0.177075 -0.467379
-0.177929 0.498474 -0.012816
0.007556 0.097272 -0.490653
-0.168983 0.435988 0.239387
0.101553 0.347722 0.355001
-0.049639 -0.081180 0.489127
0.277577 0.162027 0.469057
-0.109077 0.079140 0.489550
-0.077627 0.432778 -0.249715
0.253163 -0.477282 0.138118
-0.199915 0.241198 -0.438156
-0.205232 -0.396409 -0.302837
0.097158 -0.306442 0.389996
-0.127581 -0.116730 0.482009
0.017595 0.489875 0.090353
0.060530 0.350773 0.351867
0.285439 0.043109 -0.498295
-0.147034 -0.468558 0.165101
-0.026791 -0.484838 -0.113860
0.076214 -0.451112 0.207633
-0.210387 0.192135 -0.461767
-0.034168 0.041500 0.494231
-0.286443 0.439778 0.232779
0.249915 -0.183404 -0.465004
0.272083 0.225496 0.442106
-0.227268 0.311215 -0.391522
-0.270033 0.110209 -0.487943
0.231689 0.498019 0.023284
-0.283656 -0.222792 -0.447344
-0.248726 -0.004188 -0.500280
-0.228843 -0.112189 -0.487200
-0.017474 0.189009 0.458932
0.281271 0.319043 -0.384979
0.166232 0.498278 0.011856
-0.267075 0.409407 0.282241
0.117434 0.342828 0.359597
-0.164200 -0.413326 0.274920
0.251672 0.382648 0.317131
-0.116826 -0.050850 0.493232
-0.183200 -0.475829 0.142880
0.184560 -0.011619 -0.500071
-0.278946 -0.270328 0.415681
-0.279928 0.281397 0.409012
0.274455 -0.445724 0.219098
0.151844 -0.175357 -0.468024
-0.181198 0.125681 0.479883
-0.101769 0.113709 0.482728
-0.068682 0.293443 -0.404929
-0.175900 -0.268549 -0.421321
0.045721 0.157770 -0.474661
0.173679 -0.047087 0.493536
0.243713 0.029769 0.494950
-0.048274 -0.486799 -0.104499
-0.281181 -0.317810 -0.385211
0.164510 -0.303195 0.392446
-0.277141 0.441852 -0.232751
-0.168533 0.461163 -0.191871
0.130234 0.244433 -0.436301
-0.163256 -0.479279 0.131572
-0.241926 0.102253 0.485451
-0.218798 -0.079293 -0.493701
-0.285737 0.322382 -0.382114
-0.155280 0.418678 -0.272844
0.053209 -0.069621 -0.495366
-0.184004 -0.315023 0.383196
0.236230 -0.189940 0.457902
0.191307 0.314738 0.384124
0.142260 -0.484111 -0.117331
-0.273185 -0.140631 -0.479712
-0.140904 -0.309566 0.387640
0.234779 -0.469360 -0.167007
0.193198 -0.182989 0.460799
0.162337 -0.487314 -0.102042
0.229333 -0.451080 0.207705
-0.237529 0.473556 -0.158040
-0.155632 0.460765 -0.192758
0.091249 0.044316 0.493927
0.259510 -0.497616 0.003898
0.240319 0.194441 0.456574
-0.058102 0.344923 0.357699
0.019874 -0.492280 0.070262
0.081990 -0.486146 -0.107615
-0.139049 0.177256 -0.467940
-0.092440 -0.001908 0.495799
0.054362 0.491750 -0.083647
0.262486 -0.370326 -0.334650
0.072001 0.279238 0.410522
0.094696 0.478458 0.137713
-0.197999 0.484705 0.115035
-0.003782 0.078370 -0.494035
0.281943 -0.408727 -0.286072
-0.159323 0.491847 0.079302
0.165628 0.432123 0.246128
-0.158190 0.258579 -0.428189
-0.154832 0.468908 0.166933
0.076122 0.386709 -0.316532
0.067722 0.239124 0.434931
0.167480 0.379135 0.321225
0.178377 0.323686 -0.380995
0.286349 0.159929 -0.473917
0.086201 0.180718 -0.466527
0.193561 0.498397 -0.014539
-0.168850 0.295970 -0.403023
0.041186 0.379693 0.320574
-0.063569 -0.055465 -0.496965
0.122886 0.161925 0.469095
0.133607 -0.445339 0.219828
-0.229942 0.059905 -0.496706
-0.040607 0.452841 0.206403
-0.191496 -0.409274 0.280714
0.157558 -0.492081 -0.074950
0.154535 0.009786 -0.500029
0.143505 -0.083280 -0.493014
0.116473 0.489974 0.089884
-0.054298 -0.236236 -0.440265
-0.249040 -0.013380 0.495592
0.001862 0.024488 -0.499764
-0.106040 0.498396 0.005312
0.067745 -0.497127 0.015648
-0.105130 -0.399297 -0.299009
0.280768 -0.082422 -0.493162
0.077439 -0.307156 -0.393706
-0.009234 -0.356534 0.345161
-0.171963 0.339589 0.362531
-0.241410 -0.428794 -0.254499
-0.038211 0.441401 0.229620
-0.222630 -0.184753 0.460064
0.278868 0.049784 0.493336
-0.249215 0.129483 -0.483137
-0.065975 -0.315099 -0.387372
-0.200782 0.494667 0.059809
0.172706 0.119731 0.481297
-0.110358 -0.153445 -0.475802
0.285473 -0.454004 -0.205968
-0.134453 -0.107272 0.483991
-0.084309 -0.398391 0.296244
0.215793 0.498623 -0.007263
-0.039197 -0.301677 -0.398075
0.272851 0.337765 -0.368785
-0.156285 -0.006481 -0.500302
0.267678 -0.279292 0.409764
0.030658 0.210181 -0.453969
0.058820 -0.428657 0.250440
0.090491 -0.365260 0.335724
-0.238714 0.466651 0.173478
-0.100383 -0.250026 0.428153
0.283383 -0.410022 0.279643
-0.020140 0.198603 0.454707
-0.186815 0.237393 -0.440338
0.080048 -0.427579 -0.256618
0.272374 0.122902 -0.484953
-0.126982 -0.494097 -0.061016
-0.140140 -0.275835 0.412046
-0.178115 -0.472942 -0.156622
0.120930 0.401338 -0.297880
0.057820 0.013298 0.495689
-0.015737 -0.371926 -0.332786
0.216698 0.147642 -0.478124
0.138122 -0.198540 0.454316
0.053435 0.436725 -0.242488
0.276092 0.383203 -0.320930
-0.101553 -0.494809 0.048864
-0.006092 -0.111880 0.483025
-0.288108 0.496014 0.048040
-0.192297 0.176438 0.463649
0.240146 0.446217 -0.224460
-0.159097 0.318758 -0.385223
-0.265208 -0.494171 -0.060506
-0.166716 0.493947 -0.070676
0.063957 0.428119 0.253110
-0.092146 -0.224589 -0.446398
-0.143442 0.423109 0.261486
0.084763 -0.496435 0.031071
-0.015109 -0.481890 -0.125922
0.164972 0.337343 0.364565
-0.097484 0.447317 -0.222370
-0.236224 0.196068 0.455844
-0.202635 -0.408197 -0.286875
-0.063642 -0.333739 -0.371255
-0.031688 -0.144091 0.474468
-0.030318 -0.311887 -0.389933
-0.010982 0.336606 -0.369909
0.114814 -0.291404 0.401341
0.114272 -0.267708 0.417411
0.146845 0.498000 -0.023379
0.193276 -0.140781 -0.479666
0.106415 -0.486676 0.101411
-0.178546 0.430619 0.248750
0.155013 0.276055 0.412748
-0.104641 0.472358 0.156934
0.031358 -0.039054 -0.498738
0.164202 0.490966 -0.088200
-0.150627 -0.413593 0.274537
0.285962 -0.415171 -0.276311
-0.201146 -0.323230 0.376154
-0.271740 0.315192 -0.388284
-0.232677 0.108663 -0.488267
-0.147176 0.354812 0.347719
0.082473 -0.334222 0.366721
0.042672 -0.002631 -0.500252
0.279793 -0.495832 -0.041983
0.254052 -0.271418 -0.419572
-0.132173 -0.179749 0.462150
-0.196289 0.422872 0.261845
-0.034963 -0.252894 0.426508
-0.004662 0.489429 0.092482
-0.171940 -0.429959 0.248305
-0.220588 0.014433 -0.499945
0.105953 -0.450615 0.208742
-0.238134 0.487247 -0.107674
0.131310 -0.046321 0.493599
-0.162721 -0.444035 -0.226547
-0.220299 0.286611 0.405365
0.285059 0.474121 0.151822
-0.174587 -0.331913 -0.372908
0.078452 0.116517 0.482061
0.041790 0.458369 -0.198098
0.182211 0.050621 0.493245
-0.130438 -0.491199 0.076541
-0.055399 -0.321640 -0.382157
-0.040149 -0.180063 0.462019
0.213859 0.496457 0.042561
-0.039572 0.419689 -0.271185
0.206647 0.358526 -0.348573
-0.108877 0.441314 0.229796
-0.024692 0.264019 0.420354
-0.010233 -0.477086 -0.143323
-0.134399 0.025280 -0.499740
-0.095011 0.341923 -0.364737
-0.089808 0.370969 -0.334905
0.260481 -0.356963 0.344744
-0.053430 -0.049356 0.493353
-0.016093 -0.143935 0.474511
0.285732 0.019990 -0.499845
0.054240 -0.357446 0.344274
-0.217212 0.031136 0.494888
0.202120 -0.492858 0.066903
0.205434 -0.497561 0.000842
-0.128876 0.474396 0.151024
0.276721 0.200028 0.454067
0.153059 -0.326946 0.372965
0.075097 0.467762 0.170256
0.187802 -0.140141 0.475558
-0.166516 0.024926 0.495167
0.094816 -0.058309 0.492436
0.071143 -0.468134 0.166233
0.014752 -0.253736 0.426026
0.264352 0.414990 -0.278359
-0.184226 0.380822 -0.323915
0.233749 -0.494025 -0.061518
0.085729 0.310471 -0.392083
-0.066700 0.314154 0.384590
-0.115189 0.246990 -0.434835
-0.094589 -0.488708 -0.095386
-0.099192 0.169265 -0.470696
0.129924 0.383349 -0.320746
-0.289326 -0.012090 -0.500050
-0.046937 -0.296759 0.397301
0.159133 0.277684 -0.415855
-0.053169 -0.495555 0.041965
0.242673 0.487144 -0.108106
0.229674 0.306224 -0.395287
-0.068631 -0.442596 -0.229469
-0.185190 -0.317632 -0.385352
0.008809 0.451324 -0.213799
-0.226618 -0.254107 0.425813
-0.008118 0.067629 -0.495589
0.077331 0.235564 -0.441387
0.028473 -0.052253 -0.497312
-0.235183 -0.154442 0.471102
0.192683 -0.250113 -0.432560
0.053772 0.353582 -0.353386
-0.019939 0.472690 -0.160881
0.090878 0.407855 -0.288561
-0.172801 0.464526 0.178837
0.187289 -0.277061 0.411236
0.246263 -0.256048 0.424700
-0.288416 0.166384 -0.471690
-0.047657 0.423115 -0.265566
0.208400 -0.454508 -0.204761
0.068840 0.160330 -0.473778
-0.061276 0.035290 -0.498929
-0.214380 -0.454959 0.199060
-0.076745 0.490802 -0.089151
-0.178894 -0.077611 -0.493990
-0.117827 -0.045452 -0.498047
0.070794 0.019951 -0.499845
0.158373 0.368937 0.333109
0.269810 0.470370 -0.167358
0.189037 -0.494441 0.052266
0.053918 0.310203 -0.392285
0.093944 0.434250 -0.247189
0.274793 -0.270443 0.415605
-0.072590 0.034246 0.494749
-0.070473 0.155104 -0.475581
0.085545 0.488168 0.098503
0.051099 -0.161641 0.468619
0.257592 0.435884 -0.244086
-0.019095 -0.497494 0.007463
0.213413 0.470486 0.162360
-0.058932 -0.461405 -0.188218
0.194778 0.475083 -0.153036
0.094499 0.125746 0.479868
0.042491 -0.493442 -0.065548
0.054080 0.497590 0.028578
-0.062640 -0.018668 0.495497
-0.289153 0.498545 -0.011227
0.116934 0.486110 0.108329
-0.176536 0.415122 -0.278170
0.054145 0.095235 0.486779
0.217212 -0.495027 -0.051922
0.072064 0.248528 0.429798
-0.112863 0.498316 -0.016346
-0.289500 -0.287037 0.404636
0.256054 -0.197798 0.454625
-0.122690 0.173907 0.464599
0.248452 -0.496396 -0.035026
-0.043928 -0.190034 0.457862
-0.027443 -0.212944 0.447749
0.201530 0.478755 0.136636
0.128994 -0.454763 -0.204149
-0.072547 -0.075460 -0.494361
0.064874 -0.297830 -0.401142
0.177392 0.262578 -0.425828
-0.213028 -0.348527 -0.357475
0.007813 0.240267 0.434329
-0.086341 -0.157409 -0.474593
0.080240 -0.454537 -0.204690
0.188311 -0.458297 -0.195672
-0.061863 -0.322235 0.377008
0.205091 0.015459 -0.499926
0.208137 0.036639 -0.498819
0.269457 -0.416701 0.270052
-0.198058 0.468726 0.167462
0.076561 -0.494639 -0.056711
-0.026851 -0.228435 -0.444373
0.120434 0.462007 -0.189644
-0.226228 -0.456863 0.194818
0.096466 -0.144599 0.474327
0.149869 -0.046135 0.493614
0.214885 -0.387734 0.309608
-0.262326 -0.048738 -0.497692
0.130447 0.458959 -0.196785
0.258170 -0.233972 0.437359
0.042507 -0.031962 -0.499159
-0.278930 -0.293605 0.399681
0.165795 -0.430757 -0.251076
0.116479 0.175343 0.464060
0.271730 0.175402 -0.468579
0.125428 -0.332743 0.367990
-0.199618 -0.017226 0.495523
-0.281394 -0.029157 0.494989
0.275409 -0.185179 0.459886
0.193847 -0.109897 0.483441
-0.031142 -0.027828 -0.499344
0.144646 0.402811 -0.295773
0.093371 0.495053 0.057139
-0.248076 -0.197918 0.454575
-0.120880 0.486258 -0.111837
0.191653 0.175169 0.464125
-0.065116 0.327049 -0.378109
0.246916 -0.188101 0.458668
0.243651 0.377181 0.323502
0.034049 -0.412259 -0.280723
0.093869 -0.495084 -0.051214
0.206968 -0.275358 -0.416872
0.153884 -0.491603 0.074195
0.187366 0.268039 -0.422222
-0.145062 0.019876 -0.499847
-0.030441 0.453013 -0.210034
-0.141663 -0.428563 -0.254902
0.055008 0.287829 0.404514
0.116245 -0.497325 -0.012242
-0.225741 -0.350199 0.351328
-0.184627 -0.220564 0.443994
0.235037 0.190853 -0.462301
-0.048274 -0.470712 -0.163087
0.091350 -0.225426 -0.445957
-0.276194 -0.283874 -0.410916
0.273314 0.250170 -0.433011
-0.068463 -0.496973 0.019074
-0.183666 0.368221 0.333944
0.064570 -0.330347 -0.374327
-0.081577 -0.471786 0.156131
-0.222155 -0.149434 0.472830
0.015328 0.246668 0.430932
-0.056676 0.333343 0.368188
0.030351 0.383560 0.316068
0.125905 -0.086590 -0.492445
0.174732 0.198833 -0.458974
-0.029949 -0.419244 -0.270142
-0.066134 0.372224 0.329279
0.143051 0.395516 0.301026
0.286312 0.409062 -0.286834
-0.215516 -0.027161 0.495151
-0.269507 -0.489111 0.088668
-0.173347 -0.378508 0.321097
-0.031197 -0.458115 0.192029
-0.278274 -0.325829 0.373923
-0.145270 -0.423717 -0.263353
0.044046 0.271101 0.416037
0.173600 0.377426 -0.327777
-0.050519 -0.302823 -0.397161
-0.153552 0.182301 -0.465867
0.207757 -0.201557 0.453058
0.032103 -0.495222 -0.049518
-0.209300 -0.285324 0.405781
-0.170644 -0.356066 0.345616
-0.169184 0.260893 -0.426862
0.104605 -0.431070 0.246482
-0.191851 -0.484290 0.111451
0.166305 0.300733 0.395291
-0.279042 0.236171 0.436486
0.032937 0.490367 -0.091677
0.036403 0.482105 0.124502
0.034268 0.358331 0.344104
-0.173824 0.482066 0.124642
-0.073131 0.472841 0.155534
0.228165 -0.328547 -0.375957
0.047924 -0.334662 -0.370419
-0.273770 0.362843 0.339469
-0.121299 -0.186083 0.459509
0.286582 -0.036337 -0.498963
-0.050381 -0.004698 0.495748
0.195488 0.164088 0.468283
-0.227170 -0.175133 -0.468108
-0.166292 0.497515 -0.034189
-0.009607 -0.440066 0.229843
-0.229447 0.345063 0.357573
0.222229 -0.263128 0.420435
0.129820 0.484637 0.115331
0.014394 0.296738 -0.402444
-0.136567 -0.494189 0.054599
0.252766 0.197739 0.455094
-0.070522 0.261382 0.421962
-0.043565 0.394977 -0.306164
-0.289525 0.483669 0.118836
0.255238 -0.038882 -0.498757
0.123903 0.489048 -0.099340
-0.031576 -0.383119 -0.319741
-0.193170 -0.449973 -0.214498
-0.075807 -0.490340 -0.086985
-0.276606 -0.373943 0.326138
0.094099 -0.240734 -0.437897
-0.196735 -0.471145 -0.161832
0.093998 0.054055 -0.497408
0.166622 0.477727 0.140362
0.280955 0.483002 -0.125536
0.240881 -0.364810 -0.340750
-0.284735 -0.450262 0.209528
0.119615 -0.405070 0.286725
0.059044 0.330268 0.370973
0.186014 -0.122659 0.480384
0.240974 0.028053 -0.499515
0.170321 0.224601 0.442577
-0.271807 0.447105 -0.222773
-0.141217 0.080292 0.489352
0.197052 -0.040690 -0.498561
-0.017686 -0.493545 0.060559
0.041643 0.494351 -0.066935
0.145868 -0.014209 -0.499955
-0.194053 -0.494677 -0.056241
0.217708 -0.478430 0.134354
0.159549 0.183109 0.461146
0.174855 0.497652 0.027819
-0.112999 -0.330564 -0.374130
-0.183715 0.340358 0.361834
0.240571 -0.071692 -0.495009
0.068370 -0.485790 -0.109314
0.029224 0.475537 -0.151548
0.216536 -0.394115 -0.305877
0.259996 0.373612 -0.331987
0.159443 0.489987 0.089820
-0.008928 0.408877 0.283045
0.054439 -0.426234 -0.258963
0.098052 -0.072891 0.490326
0.268919 -0.455314 -0.202828
-0.243367 0.391930 -0.309985
0.168504 0.422120 0.262984
0.066934 0.096107 0.486629
-0.155256 -0.477356 0.137874
-0.070898 0.408433 -0.287735
0.166712 -0.352288 -0.353612
0.014156 -0.352609 0.348982
0.269342 -0.395516 0.299848
0.113004 -0.431180 -0.250338
-0.135880 -0.496291 0.034280
-0.248273 0.419918 0.266320
0.045858 -0.426613 0.253793
0.167876 0.101200 -0.489831
0.187275 0.358756 0.343667
0.182081 -0.351641 0.349924
-0.180278 -0.022855 -0.499567
0.085670 0.063160 -0.496235
-0.255419 -0.497394 -0.008431
-0.054086 -0.482968 0.117013
-0.275641 0.492298 0.076180
0.223740 -0.359784 0.341770
-0.174645 0.478666 -0.141293
0.070202 0.449111 -0.218730
-0.074484 0.378145 0.322379
0.257866 0.158360 -0.474458
0.096732 0.497995 -0.023486
-0.108965 0.495749 -0.054002
-0.202002 -0.233159 0.437789
-0.279252 -0.497445 -0.005582
-0.076294 -0.290473 -0.406301
-0.051630 -0.436039 0.237490
-0.157034 -0.408167 -0.286920
-0.192053 -0.496952 -0.028163
0.023542 -0.490629 0.079855
0.062185 0.483937 0.117866
0.277217 -0.190199 -0.462372
0.214795 -0.487903 -0.099228
0.043705 0.284830 0.406611
0.062839 -0.216640 -0.450506
0.186742 -0.403858 0.288456
0.226537 0.464201 -0.183799
-0.212410 -0.390399 0.306266
-0.144458 -0.179300 0.462337
-0.206214 0.139551 0.476001
0.183972 -0.104416 0.484589
-0.187695 0.293368 0.400640
0.102765 -0.382935 0.315627
0.053567 -0.448500 -0.217486
0.212263 -0.448840 -0.216796
0.285067 0.470776 0.161518
-0.208186 0.232940 -0.442754
-0.115269 -0.479076 0.132239
-0.109183 -0.392752 -0.307685
0.067447 0.124921 0.480064
-0.045447 -0.491247 0.076261
0.076591 -0.290607 -0.406207
-0.267933 -0.460226 -0.191044
-0.051823 -0.293999 -0.403835
-0.041607 -0.460151 0.187490
-0.025710 0.498141 -0.020240
-0.234220 -0.336861 -0.368426
0.269268 0.277590 -0.415917
-0.141760 -0.481672 0.122466
0.270896 -0.203464 -0.456419
-0.288059 0.489320 -0.097763
0.207863 0.384082 -0.319827
0.276614 -0.039382 0.494161
-0.265441 0.498446 -0.013439
-0.201827 -0.125667 -0.483997
-0.059580 -0.413530 -0.278797
0.043776 0.452965 -0.210142
0.263999 0.455552 0.200361
-0.167933 -0.470088 -0.164896
-0.155651 -0.272409 0.414307
0.202485 -0.360349 0.341146
-0.047422 0.217757 0.446112
0.268859 0.435700 -0.244434
0.078256 -0.426618 0.253786
0.145881 0.296656 0.398340
0.035888 0.328641 0.372447
0.034681 -0.335044 -0.370072
-0.288481 0.465728 0.175952
-0.159000 -0.479206 -0.135644
-0.025679 -0.377357 -0.326457
-0.102428 0.378065 -0.327071
0.252612 -0.284348 -0.410585
-0.230800 0.439429 0.233387
0.252377 -0.280003 0.409294
0.026380 0.260738 0.422354
-0.255210 0.307787 0.389666
0.216833 0.166448 0.467398
-0.103757 -0.457945 0.192406
0.053771 -0.149202 0.472910
-0.131421 0.450863 -0.214825
-0.259686 -0.005668 0.495731
0.285336 -0.442293 -0.230083
-0.062514 0.479449 0.134124
0.189165 0.225896 -0.446226
0.073882 -0.494563 0.051137
0.226587 -0.110333 0.483349
0.069436 0.472361 0.156925
0.235525 -0.317623 -0.385360
-0.185888 0.426149 0.256546
-0.073093 0.482596 -0.127247
0.257367 -0.082563 -0.493138
-0.212971 0.311248 -0.391497
-0.257833 0.482017 0.124820
0.175398 -0.195464 -0.460009
-0.227340 -0.319680 0.379200
0.011285 -0.327454 0.372529
-0.253093 0.232515 -0.442964
-0.059131 0.233074 0.438116
-0.031437 -0.447481 0.215724
0.037773 0.390188 0.308087
0.284425 -0.327724 0.372298
0.029416 -0.056886 0.492641
-0.191390 0.444949 0.222419
-0.189244 0.088826 -0.492423
0.117943 -0.458626 0.190888
0.170672 0.460533 -0.193277
-0.288199 -0.477653 -0.141272
-0.137460 0.140744 0.475637
-0.175422 -0.046982 0.493545
0.257418 0.175667 0.463938
0.150759 0.270516 -0.420587
0.136890 -0.312129 -0.389740
-0.242624 0.484340 0.116403
-0.289396 0.344041 0.358499
0.176444 0.149101 -0.477652
0.022900 -0.265292 0.419006
0.155879 0.218319 -0.449959
0.046709 -0.458192 0.191856
-0.248551 0.373245 0.328089
0.155166 -0.298156 0.396248
0.090130 0.086576 -0.492848
-0.084488 0.165149 0.467885
0.058229 0.495869 0.049829
0.252567 0.419593 0.266811
0.139470 0.067244 0.491449
-0.133510 0.330032 -0.375549
-0.224638 0.325546 -0.379399
0.252294 -0.455302 0.198297
-0.069455 -0.028395 0.495051
0.049223 -0.401163 -0.296536
-0.192084 -0.034022 0.494595
0.100575 0.226905 0.441364
0.125990 0.454807 0.202147
0.025331 -0.280033 0.409274
-0.212306 0.461074 0.187117
-0.081796 -0.382364 -0.320621
0.157305 -0.479766 -0.133616
-0.256183 -0.490621 0.079899
-0.110831 -0.004990 -0.500295
-0.186611 -0.490705 -0.084463
-0.212166 0.447416 -0.222184
0.210149 -0.053578 0.493011
-0.279129 0.271506 0.415790
-0.228377 0.205969 -0.455999
0.176135 0.475968 0.146468
0.134684 -0.412795 0.275679
0.286655 0.493807 0.065752
0.211611 -0.488457 0.092468
-0.012238 -0.497370 -0.009778
0.002652 -0.211412 -0.452852
-0.135579 -0.151632 -0.476355
-0.275523 0.451615 -0.213149
0.182439 -0.469418 0.162809
0.005498 0.490013 0.089695
0.080598 -0.253936 0.425911
0.237955 0.467061 -0.176175
-0.248087 0.493278 0.069406
-0.025899 0.491881 0.079065
0.109296 -0.466489 -0.175331
0.214521 -0.329723 0.370582
0.208973 -0.428341 0.250959
0.106919 0.494629 0.060072
-0.238177 -0.166914 0.466800
0.183904 0.430747 0.248527
-0.123564 0.386911 0.312162
-0.214287 -0.117634 -0.485905
-0.270763 0.492570 -0.078881
0.072617 -0.023841 0.495403
0.108589 0.462511 -0.188302
-0.155400 0.480548 -0.135127
0.025114 0.174333 -0.468948
0.224489 0.353620 0.348943
-0.007734 -0.465716 -0.177571
-0.160981 0.219337 0.445349
-0.236723 -0.493370 0.062178
0.223482 -0.408409 -0.286554
-0.184453 -0.189611 0.458039
0.249244 -0.224246 -0.446578
-0.085691 0.444714 0.222897
-0.001328 0.199622 -0.458646
-0.110342 0.168370 0.466677
0.270274 -0.231260 0.438724
0.247409 0.496445 -0.047563
0.160982 -0.471942 0.155618
0.038172 -0.197433 -0.459126
-0.033950 -0.111623 0.483079
0.027302 -0.496208 0.035923
-0.214891 0.003229 -0.500147
0.011090 0.496631 0.040419
-0.065971 0.166334 -0.471707
-0.161422 -0.032216 0.494741
-0.080292 0.490908 0.085427
-0.237826 -0.433997 0.241369
0.221155 0.218785 -0.449730
-0.231455 0.288689 -0.408516
-0.150636 0.401037 -0.298310
0.125042 -0.157651 0.469995
0.111962 -0.442163 0.225859
-0.130005 -0.381681 0.317199
-0.021756 0.232492 0.438423
-0.108969 -0.490011 -0.089168
0.180913 0.454106 0.203828
0.073921 0.412682 -0.281659
0.014302 -0.489488 -0.091665
0.157474 0.488156 -0.103851
-0.100779 0.228952 -0.444719
0.104549 0.354484 0.348056
-0.031603 0.467074 0.172251
0.091737 0.262534 -0.425857
-0.031165 -0.467241 -0.173149
0.011287 0.405231 0.288148
-0.075791 -0.444108 0.222166
0.138155 0.054127 -0.497403
0.285350 0.036637 0.494642
0.042047 -0.146604 0.473774
0.044864 0.232922 0.438196
-0.124673 -0.430021 -0.252360
0.249932 -0.488905 -0.094446
0.229740 -0.306840 -0.393958
0.111631 -0.406033 -0.290080
0.266706 0.479857 -0.137391
0.102601 0.337201 -0.369334
0.004276 -0.470306 0.160443
0.178140 -0.132851 -0.482086
0.206606 -0.019952 0.495474
0.081930 0.332649 -0.373304
0.107562 -0.157995 -0.474414
0.003562 -0.167707 0.466527
-0.043808 -0.211215 0.448601
0.091120 0.293625 -0.404792
-0.287163 -0.279504 -0.413973
-0.230801 0.484136 0.117145
-0.067781 -0.245898 0.430520
0.285129 0.356442 0.346044
-0.142552 -0.478631 0.133698
0.172281 -0.437559 0.234604
0.202080 0.365168 -0.341310
-0.147839 0.464810 -0.182175
-0.260301 0.489214 0.093509
-0.069106 0.300643 0.395363
0.167009 0.454136 -0.207531
-0.020869 0.297923 -0.401550
0.097141 0.498115 0.020909
-0.182072 -0.420754 0.263404
-0.045577 -0.450209 -0.214019
-0.205193 -0.467442 0.168076
0.186572 0.063362 0.491868
0.095876 -0.040672 -0.498563
-0.206954 -0.496349 -0.035607
-0.147183 -0.366858 0.333960
0.201390 0.498442 0.002802
0.161917 0.309820 -0.392574
0.057637 0.452371 -0.211465
-0.226608 -0.486248 -0.107129
-0.196306 -0.374387 0.325647
-0.178697 0.461316 -0.191487
0.172345 0.445002 0.222313
-0.260062 0.497137 0.034176
0.144207 0.357731 -0.349347
-0.286319 0.408270 0.283963
-0.161700 -0.381916 0.316905
-0.131095 -0.290118 -0.406550
-0.076298 -0.150559 0.472442
0.244239 -0.497390 -0.008635
0.134147 0.464040 -0.184228
-0.241141 -0.395167 -0.304484
-0.099230 -0.489955 0.083768
0.092040 0.303796 -0.397119
-0.198776 0.151195 -0.476929
-0.190611 0.491600 0.081009
0.125011 -0.497104 -0.024493
0.081650 0.222452 0.443709
-0.192795 -0.180102 -0.466243
-0.235102 0.182941 0.461209
0.086942 0.480778 0.129309
-0.141784 0.484416 -0.119588
0.206084 0.372467 0.328996
-0.235827 -0.022688 -0.499575
-0.202122 0.253850 -0.430901
0.139086 0.199639 -0.458638
-0.094788 -0.481969 0.121219
0.070922 -0.345309 0.356089
0.153888 0.484049 0.117458
0.036051 -0.358379 0.343321
0.014944 0.020110 0.495383
-0.059659 -0.227548 -0.444840
0.165026 -0.446450 -0.221647
-0.212854 -0.471469 -0.160894
0.200295 0.121424 -0.485361
-0.034710 -0.220471 0.444041
-0.135210 0.332005 0.369400
0.101225 0.460262 0.189065
-0.157905 0.488708 -0.101315
-0.273865 -0.056196 -0.496886
0.032131 -0.109397 0.483545
0.185291 -0.168456 0.466268
-0.262279 0.000865 -0.500189
-0.267770 -0.273517 -0.418160
0.142338 0.485866 0.109493
0.052175 -0.495289 0.044423
-0.134717 0.242612 0.433094
-0.146864 0.429413 -0.255234
0.077224 0.486708 -0.109943
-0.174151 0.369467 -0.336564
-0.286932 0.037190 -0.498775
-0.240578 0.473048 0.154933
-0.157829 -0.131355 -0.482542
0.252115 -0.430674 0.247131
0.022648 0.456971 0.196958
0.221677 0.274361 -0.418049
-0.210243 -0.448593 -0.217298
-0.127911 0.489379 0.092723
-0.127349 -0.243572 0.431854
0.114908 -0.003257 0.495774
0.050183 -0.464906 0.174835
-0.244951 -0.484471 -0.115610
-0.187235 -0.485416 -0.111101
-0.028324 -0.452861 0.203737
-0.222644 -0.010850 -0.500106
-0.245572 0.097446 -0.490617
0.286881 -0.282649 0.407547
-0.076312 -0.115385 0.482291
0.076001 -0.045689 0.493650
-0.206839 0.470285 -0.167585
-0.101861 0.409525 -0.286173
0.107290 -0.458487 0.191198
0.275228 0.465526 -0.180268
-0.130466 0.441790 0.228830
-0.099530 -0.151021 -0.476542
0.193661 -0.378960 -0.324588
0.083177 0.359071 0.343344
0.104094 0.216255 0.446785
0.178643 -0.230091 0.439300
-0.086328 0.189336 -0.462934
-0.044080 -0.310641 -0.390927
0.258531 0.020738 -0.499831
0.280651 0.498585 -0.010348
-0.274118 -0.307734 0.389021
0.279424 0.498247 0.013587
0.174222 -0.497558 0.006024
0.285296 -0.357383 0.344334
-0.149939 0.003909 0.495903
0.016356 -0.024231 -0.499506
0.092153 0.372071 0.329457
-0.253198 0.431353 -0.252052
0.255698 0.023877 0.495214
-0.118958 -0.418086 -0.271896
0.123585 -0.343417 -0.362489
0.201022 -0.263834 0.419969
0.160860 0.140189 0.475806
-0.084151 0.478577 0.137282
0.259721 0.335969 0.365810
-0.195779 0.284835 -0.411134
0.267939 -0.304199 0.391689
-0.103629 -0.202186 0.452796
-0.218636 0.430143 0.249581
-0.230979 0.216711 -0.450751
0.134923 0.173383 -0.469275
-0.141791 -0.493820 -0.062932
-0.220234 -0.149517 -0.477001
0.260300 -0.159151 0.469478
-0.229971 -0.393472 -0.306730
-0.054836 0.242530 0.433138
0.239706 0.403187 0.290857
0.140783 0.285135 -0.410936
0.098971 -0.488730 -0.095282
-0.287112 -0.497532 0.006608
0.117890 -0.496489 -0.033873
-0.224755 0.354598 0.347939
0.052124 0.045775 -0.498079
-0.129615 -0.488262 -0.097516
0.238990 -0.429973 0.248282
-0.251734 -0.427195 -0.257289
0.213018 -0.125279 -0.484089
0.130671 -0.493565 0.060378
-0.204279 -0.457836 -0.196779
0.176602 -0.058177 0.492455
-0.265397 -0.445818 -0.222930
0.135829 0.427980 -0.257585
-0.038861 0.489080 0.094150
0.176240 -0.479898 -0.133137
-0.145606 -0.046060 -0.497981
-0.222317 -0.236204 -0.440282
0.206765 0.497365 -0.037547
0.177589 0.350095 -0.356780
0.189315 0.011823 -0.499992
-0.011850 0.060348 0.492194
-0.147517 0.158427 0.470241
-0.002345 0.125094 -0.484348
0.222253 -0.466161 0.171489
-0.035360 -0.477787 0.136463
-0.267803 -0.174665 -0.468283
0.008694 -0.125738 -0.483980
-0.098234 0.092255 -0.491705
-0.031624 -0.389566 0.307310
0.118717 0.494053 -0.069697
0.089867 -0.345793 -0.360284
-0.085738 0.085861 0.488393
-0.030401 0.436972 -0.242020
0.098769 -0.182793 0.460881
0.159096 -0.136090 -0.481098
0.270160 0.042708 0.494101
0.047116 0.498383 0.006076
0.193862 -0.497125 -0.023372
-0.020623 0.167101 0.467153
0.116283 -0.479228 -0.135564
0.271034 -0.323736 0.375719
-0.078911 0.133154 0.477953
0.183038 -0.441667 0.226801
0.143137 0.344999 -0.361742
0.088817 -0.384377 -0.318275
0.226253 -0.456444 -0.200116
0.129480 0.480316 -0.135885
-0.114111 0.494728 -0.063454
-0.013111 0.365521 0.336719
0.118519 0.495504 0.054022
-0.106727 -0.084238 -0.492850
-0.120951 0.423335 -0.265205
-0.034220 -0.369940 -0.335099
-0.194154 0.495225 -0.058846
-0.261048 0.203349 -0.457092
-0.251699 0.266555 -0.423202
0.188501 0.385323 -0.318270
0.182785 0.297511 -0.401861
-0.035382 -0.313733 0.384303
0.146657 0.498177 0.017487
0.108356 -0.042784 0.493885
-0.063083 -0.108219 -0.488143
0.261415 -0.378286 -0.325373
0.194434 0.163676 -0.472624
-0.286363 0.475257 -0.152466
0.171567 -0.409461 -0.284961
0.067143 -0.453904 0.201413
-0.025056 -0.493335 -0.066282
0.052994 0.476257 0.145631
-0.139319 -0.107893 -0.488220
-0.216287 0.485810 -0.113721
0.201136 -0.489041 -0.093797
-0.121009 -0.076722 0.489772
-0.191685 0.126634 0.479657
0.252529 -0.057045 -0.496794
-0.109658 0.393820 -0.307614
0.098084 0.492084 0.077662
0.041456 0.129535 0.478967
0.079918 0.457712 0.195180
-0.245612 0.303583 -0.397280
-0.277148 0.042190 0.494157
-0.056793 0.005564 0.495933
-0.243154 -0.198044 -0.458851
-0.113748 -0.298975 -0.400229
-0.200334 0.459162 0.191702
0.111445 0.324680 0.376034
-0.158945 0.100106 -0.490060
-0.121598 0.153468 -0.476145
0.253103 0.448929 0.214343
0.037419 0.047361 -0.497951
-0.137679 -0.412628 0.275917
-0.252480 0.494733 -0.063399
-0.055342 0.458579 -0.197631
-0.223480 -0.330567 -0.374127
-0.251588 -0.476270 0.141435
-0.232885 -0.136166 0.476655
-0.193833 0.116492 0.482067
-0.023699 0.113509 0.482776
-0.089890 -0.040370 0.494081
0.217010 -0.093052 0.486970
0.257408 -0.495680 0.040804
0.254752 0.399819 -0.300051
0.140286 0.192258 0.457554
-0.148970 0.168461 0.466642
0.045365 -0.061191 -0.496346
-0.047762 0.186085 0.460029
0.209502 0.136534 -0.481190
0.220005 0.427796 0.253673
0.070096 0.245877 -0.435473
-0.056121 0.277203 -0.416173
-0.207636 0.035700 -0.498896
-0.212401 -0.240285 -0.438134
0.055163 -0.497309 0.011584
0.032822 0.493708 0.066440
0.024820 -0.345400 0.356001
-0.069559 0.001381 -0.500180
-0.072235 0.030946 -0.499281
-0.199755 0.498032 -0.022673
-0.278735 -0.227447 0.440603
0.089601 -0.470986 -0.162294
-0.258714 -0.169203 -0.470333
0.179040 -0.413627 -0.278650
0.065718 0.295192 -0.403610
0.062779 -0.031896 -0.499162
-0.059240 0.406238 -0.290873
-0.158340 0.063410 0.491863
-0.020113 -0.450073 0.209948
-0.220621 0.252266 0.427519
-0.286134 0.496196 -0.049866
-0.094461 -0.072930 -0.494796
0.260951 -0.289913 -0.406693
-0.261979 -0.481092 -0.128811
-0.148739 0.486502 -0.110811
-0.135530 0.056568 -0.497189
-0.081031 0.420949 0.264757
0.127722 -0.286828 0.404788
0.027304 0.459007 -0.196678
0.062835 -0.495438 -0.046849
-0.054321 0.185830 -0.464396
-0.002884 0.366121 -0.340258
-0.116845 -0.494901 -0.053476
-0.047384 0.266854 -0.423005
-0.239932 0.494702 -0.063688
-0.024924 -0.229146 0.439766
-0.101470 -0.387318 0.310131
0.073516 -0.496124 0.036695
0.046682 -0.452707 0.204078
-0.082934 0.315958 0.383151
-0.251917 0.477633 -0.144681
-0.087552 0.188044 0.459294
0.199852 -0.455955 0.196840
0.282853 -0.093007 -0.491340
0.006333 0.351454 -0.355458
-0.162388 0.213209 -0.452477
-0.000156 -0.488377 0.092933
-0.193640 0.241378 0.433744
0.118241 0.496956 0.036410
0.219104 0.040244 -0.498527
0.028805 0.330031 -0.375551
0.229254 -0.408096 0.282397
0.021021 0.205398 0.451657
0.081856 -0.204944 -0.455755
0.054942 0.125940 0.479822
-0.090428 -0.433371 -0.246518
0.242878 0.057719 0.492478
-0.280834 -0.019190 -0.499732
0.065454 0.496887 0.037264
0.193585 -0.302354 0.393081
-0.097581 0.280166 0.409873
0.284097 0.444648 -0.227439
-0.257656 -0.364037 -0.341544
-0.019962 -0.384220 0.314015
0.109123 0.385248 0.314101
-0.165376 -0.029446 -0.499272
0.275899 -0.212569 -0.452333
0.118330 0.282898 -0.412413
0.028089 0.140042 0.475851
-0.139091 -0.224148 0.442228
0.122083 0.146655 0.473833
0.024227 0.132414 -0.482327
-0.196275 0.274089 -0.418228
0.072718 -0.046906 -0.497890
-0.104491 0.101062 0.485734
0.066568 0.034720 0.494728
0.133437 0.454130 -0.207545
0.150932 0.494895 0.058231
0.284916 0.497330 0.031793
-0.019479 0.189175 -0.463001
0.007263 0.496495 -0.047100
-0.052756 0.264089 0.420311
0.249200 0.313229 -0.389968
0.272540 0.356382 0.346106
0.125520 -0.454075 0.201030
-0.245963 -0.032573 -0.499132
-0.168020 -0.387547 -0.314580
-0.183093 0.496633 0.040400
-0.254847 0.196391 0.455699
0.241825 -0.437901 -0.238617
-0.288406 -0.142343 -0.479190
-0.080118 0.484650 -0.118603
-0.258058 0.266082 0.419096
0.006098 0.470508 0.162298
0.227421 -0.141873 0.475080
0.234840 0.495752 -0.053972
-0.157448 0.066107 -0.495809
-0.238697 -0.328635 -0.375877
-0.015185 -0.234506 -0.441176
0.084671 -0.457115 0.194255
-0.167791 0.393716 0.303411
0.206832 0.363375 0.338923
0.014023 0.008751 -0.500047
0.168093 -0.238119 0.434981
0.285958 -0.477504 0.137391
0.046094 -0.419622 -0.269569
0.239671 0.250775 0.428428
0.056301 0.193329 -0.461269
-0.058576 -0.439718 -0.235310
0.027080 -0.020704 -0.499664
-0.279716 0.482833 -0.126248
0.018878 -0.451712 0.206297
-0.105048 -0.487389 -0.101683
-0.241456 0.432739 0.245053
-0.243004 -0.136488 0.476566
-0.180237 0.324762 0.375960
-0.231903 -0.210576 0.448916
-0.288398 -0.384370 -0.318283
-0.249505 -0.369239 0.331331
0.143622 -0.366006 0.334901
0.076543 -0.397141 0.297811
-0.109388 0.438012 -0.240044
-0.010417 0.316965 -0.386762
0.030793 -0.129476 -0.483091
0.248274 0.483410 -0.123822
0.266732 -0.031274 0.494818
0.181645 -0.042805 -0.498333
0.140915 0.480632 -0.134849
0.270004 -0.496054 0.037339
-0.268761 -0.393323 0.302599
-0.277899 0.128659 -0.483364
0.051445 -0.051245 -0.497421
-0.071293 0.476118 -0.149643
-0.051583 -0.255696 -0.429156
0.021066 0.470203 -0.167803
-0.090453 -0.485160 0.107790
0.029000 -0.457593 -0.197360
-0.016150 -0.494692 -0.056060
0.237658 0.123805 0.480329
-0.090436 -0.110343 0.483347
0.286335 -0.497484 0.007680
-0.228638 -0.495773 -0.042713
0.110087 0.484443 -0.119474
-0.254778 -0.479624 0.130440
0.262954 -0.496200 -0.037447
0.101777 -0.298198 0.396216
-0.053727 -0.434474 -0.244594
-0.251290 -0.314856 0.383338
0.070814 0.192117 -0.461774
0.060707 0.116883 -0.486545
-0.151411 -0.358560 -0.347170
0.166170 0.290480 0.402659
0.168060 0.390939 0.307093
-0.192671 0.332390 -0.373526
0.093339 -0.253171 -0.430696
-0.192816 0.226686 -0.445836
-0.022840 -0.464526 -0.180732
0.226416 0.490459 0.087569
-0.035411 -0.373843 0.326248
0.001578 0.422393 0.262570
-0.189125 -0.381561 0.317350
-0.100772 -0.237630 0.435262
0.217515 0.075625 0.490155
0.099166 -0.400761 -0.297068
0.008817 0.273874 -0.418370
0.039446 0.140555 0.475694
0.155601 0.498390 -0.014696
0.199430 0.205639 -0.456137
0.058569 -0.316183 0.382200
-0.255268 -0.216455 -0.450589
0.046896 0.188181 0.459243
0.131842 0.433741 0.243306
-0.042666 0.295310 -0.403521
-0.000142 0.289664 0.403231
-0.139852 -0.206772 -0.454935
-0.110307 0.255053 0.425820
0.014204 0.474225 0.151520
0.061375 -0.408155 0.282314
0.213652 0.409011 -0.286908
0.231464 -0.339051 -0.366443
-0.168075 -0.189692 -0.462599
0.053756 -0.481331 0.123902
0.145715 -0.145036 -0.478368
-0.123580 0.349007 0.353682
0.284238 -0.234864 -0.440988
0.153037 0.491945 -0.082513
-0.174416 0.348962 0.353727
0.156717 -0.497410 -0.007544
-0.178584 0.092704 -0.491611
-0.105871 -0.239630 -0.438478
0.228345 0.287538 -0.409349
-0.208643 0.412511 -0.281903
-0.146701 -0.225487 -0.445925
-0.077384 -0.151947 -0.476259
-0.015164 -0.489415 0.086905
-0.080090 0.361879 -0.344941
0.122814 0.304694 0.392133
0.166419 0.238660 -0.439612
-0.046801 -0.331876 -0.372942
-0.135865 -0.405506 0.286100
0.000338 -0.089331 -0.491973
0.157290 -0.311876 0.385896
-0.218929 0.237433 -0.440315
0.178327 -0.189556 0.458062
-0.154390 -0.368996 -0.336200
-0.093962 -0.464203 0.176709
-0.067508 -0.497473 -0.004038
-0.038185 0.446699 -0.223545
-0.057345 0.471041 0.160752
-0.189471 0.498433 -0.013718
0.090017 -0.485475 0.106465
0.033662 -0.203260 0.452348
-0.255872 -0.452737 0.204012
0.188217 -0.234459 0.437080
-0.254290 -0.130505 -0.482802
0.116486 -0.258594 0.423240
0.145773 -0.319941 -0.383511
-0.268282 -0.484252 -0.116658
-0.024773 -0.216520 -0.450560
-0.163890 -0.494288 0.053686
-0.222838 0.496182 0.045964
0.127367 -0.484912 -0.113506
0.035282 0.221939 0.443979
-0.148668 -0.483756 0.113698
0.038257 0.307861 -0.394052
-0.162110 -0.223973 -0.446722
0.267937 -0.184478 -0.464601
0.074458 0.489662 0.091374
0.286916 -0.385941 -0.316452
0.278647 -0.169452 -0.470239
0.179450 -0.496487 -0.033906
-0.194785 -0.421880 -0.266149
-0.058749 -0.456700 -0.199503
-0.071101 -0.497483 0.007710
0.166090 -0.437364 -0.239555
0.128506 0.202329 -0.457517
-0.113592 -0.056171 -0.496888
0.060562 0.461126 -0.191955
0.165681 0.074241 -0.494632
0.139331 0.325380 0.375401
0.212344 0.208105 -0.454992
-0.242260 -0.473366 0.150953
0.118494 0.306343 -0.395197
0.223139 0.371631 0.329970
0.138491 0.008320 0.495912
0.258676 0.430622 -0.253252
-0.189399 -0.345927 -0.360145
-0.275761 0.101445 0.485643
0.092967 -0.497492 -0.002999
-0.048736 0.041230 -0.498447
-0.260799 0.497662 -0.030923
-0.025954 0.171018 -0.470091
0.222319 -0.226756 -0.445256
-0.277470 -0.405620 0.285937
0.081438 0.472301 -0.162156
0.121066 0.498009 0.023411
-0.060407 0.463332 -0.186113
0.035104 0.497863 -0.026425
-0.031546 0.450484 0.211188
0.202892 0.403806 -0.294351
0.128844 0.426243 0.256381
-0.248126 -0.421242 -0.267116
-0.026201 0.175109 0.464148
0.265973 0.498234 0.014305
0.174894 -0.365226 -0.340323
-0.079769 -0.075132 0.490002
-0.266145 0.491398 0.082407
0.205954 -0.382963 0.315592
-0.181520 -0.080493 0.489226
-0.253883 -0.192086 -0.461525
0.203481 0.076405 0.490021
0.065221 -0.497511 -0.001936
-0.088455 -0.264830 0.419311
-0.147997 -0.016837 -0.499837
-0.155893 -0.454652 -0.204414
0.280319 -0.497316 -0.012775
-0.228968 -0.101853 0.485126
-0.101550 -0.356907 -0.348867
-0.034472 -0.448243 -0.218008
0.112129 -0.160587 0.468983
-0.205725 -0.486230 0.103286
-0.257825 -0.227000 -0.445128
0.193702 0.247105 -0.434769
-0.079900 0.097845 0.486330
0.221056 0.229902 -0.444252
0.074851 0.478487 0.137607
0.240176 -0.243309 0.432005
0.260067 -0.174151 -0.468476
-0.124163 -0.167166 -0.471097
0.105579 -0.237822 -0.439430
0.200329 -0.224087 0.442259
-0.277902 0.496794 0.038403
-0.041652 0.411719 0.278739
-0.055336 -0.339794 -0.365770
-0.061799 0.083107 0.488867
0.253379 0.489201 -0.098453
0.043065 0.264350 -0.424658
0.277953 0.430908 -0.252782
0.271974 -0.392523 -0.307988
0.088644 0.424005 0.260128
-0.064657 -0.354181 0.347451
0.192752 0.336009 -0.370421
0.191459 0.480900 0.128866
-0.271767 0.261407 -0.426568
0.047520 -0.030331 0.494894
-0.128401 -0.497068 -0.026530
-0.085443 -0.064003 -0.496042
0.025201 0.349649 -0.357215
-0.185199 -0.283271 -0.411338
0.169536 0.495594 0.053224
-0.266395 0.432131 -0.250776
0.119234 -0.398420 0.296207
-0.163745 0.009426 -0.500035
0.273842 -0.228369 -0.444408
-0.055563 0.467200 -0.175805
0.165696 -0.236068 -0.440354
-0.117463 -0.491107 0.077078
-0.100120 -0.134682 -0.481527
-0.020809 -0.487743 0.096614
0.220433 0.000885 0.495849
0.080881 -0.195950 0.455396
0.156945 0.411906 0.278456
0.210546 0.486465 0.106631
0.147581 -0.206554 -0.455032
-0.040185 -0.164346 0.467686
-0.141118 -0.390685 -0.310425
-0.221846 0.137176 -0.481013
-0.107222 0.443379 -0.229850
0.241046 0.426839 -0.259457
-0.214765 -0.301535 -0.398188
-0.029710 -0.049873 -0.497569
-0.114328 -0.014504 0.495572
-0.274064 -0.497266 -0.015537
-0.168513 -0.451538 0.206685
0.040280 -0.480877 0.125813
-0.245413 0.267269 0.418373
0.084047 0.128263 -0.483473
0.182615 0.488851 -0.100488
-0.062083 0.291703 0.401804
0.222532 -0.048534 0.493419
0.136440 0.334129 -0.372034
-0.051481 0.484125 0.117182
-0.026882 0.379290 0.321044
0.264508 -0.491009 0.077643
-0.289460 -0.439480 -0.235792
0.198014 0.472010 0.157942
-0.289859 -0.322536 -0.381401
0.001677 0.465192 0.177239
-0.111598 -0.041221 0.494012
-0.146174 -0.148320 -0.477366
0.172225 -0.184839 -0.464466
0.236985 -0.459162 -0.193597
0.263261 -0.242958 0.432206
-0.198534 -0.321444 -0.382312
-0.083025 -0.436392 0.236820
0.132928 -0.185001 0.459961
-0.108080 0.468767 0.167343
0.016900 -0.469397 0.162866
-0.061156 -0.037838 0.494286
-0.021385 -0.372596 0.327624
-0.081015 -0.087815 0.488067
0.242534 0.003522 0.495896
0.101309 0.412439 -0.282006
-0.242644 -0.495780 -0.042622
0.059996 0.375706 0.325221
0.039034 -0.141828 -0.479347
-0.120703 0.483462 -0.123602
0.077911 -0.415033 -0.276521
0.141328 -0.253185 -0.430687
0.062421 0.126941 -0.483838
-0.050446 -0.429587 0.248914
0.269238 0.019430 -0.499855
-0.225676 0.438438 -0.239234
0.018964 -0.175493 -0.467972
0.047285 -0.261751 -0.425465
0.268493 0.445577 -0.225676
-0.028166 -0.489863 -0.089876
0.048235 0.151327 0.472408
-0.289923 -0.481789 -0.126286
-0.062106 0.136927 -0.481082
-0.281885 0.339121 -0.367465
-0.126737 0.383635 -0.320388
0.101256 0.277243 0.411917
0.267240 -0.193881 0.456258
0.207477 0.476283 -0.149104
-0.067176 -0.190003 0.457875
-0.285715 -0.472493 0.153814
-0.133546 0.365553 -0.340885
-0.287195 -0.288788 -0.407480
0.005068 0.477620 0.140749
0.260909 -0.247089 -0.434404
-0.184794 0.292382 -0.405730
-0.173743 -0.124501 0.479876
0.082528 0.332769 0.368708
0.277704 -0.490108 0.082878
-0.206001 -0.463185 -0.183949
0.222627 -0.346089 -0.359979
0.275005 -0.364161 -0.341417
0.251884 -0.099562 0.485606
0.147744 0.495674 -0.054694
0.186373 -0.437547 -0.239235
-0.161579 0.191712 0.457799
-0.179057 0.393866 -0.307558
0.117993 -0.465856 0.172302
-0.169139 -0.485350 -0.111416
-0.288736 -0.269786 -0.420567
-0.174223 -0.289838 -0.406745
0.198397 0.132054 -0.482427
-0.030879 -0.072787 0.490341
0.059556 0.444728 0.222869
-0.053383 -0.463379 0.178903
0.280464 -0.144815 0.474268
0.114790 -0.230552 -0.443258
0.255498 -0.238518 -0.439064
-0.068211 -0.439483 0.230950
0.104506 -0.213398 0.447526
0.265601 0.260393 -0.427149
0.091979 -0.377036 -0.326830
0.015749 0.498599 -0.010033
0.188085 0.407267 0.285449
0.151222 -0.495443 -0.046785
0.068384 -0.055142 0.492884
-0.223922 -0.200454 0.453518
-0.207767 -0.444982 0.220506
0.055956 0.372982 -0.332684
-0.019987 -0.026524 0.495203
-0.167635 -0.489913 0.084009
0.116819 -0.033976 -0.499069
-0.070361 -0.280214 0.409155
-0.139497 -0.065025 0.491464
-0.265278 0.099963 -0.490090
0.168085 -0.497430 -0.006419
-0.033091 -0.190040 -0.462443
-0.126400 -0.347058 -0.358985
0.062940 -0.267393 0.417619
0.241842 0.270735 0.416260
0.280757 0.495369 0.054957
