-0.290288 0.455920 -0.081972
-0.290288 0.446464 -0.143327
-0.290288 0.474712 -0.084358
-0.290288 0.175008 0.459196
-0.290288 0.025351 0.473992
-0.290288 -0.278289 0.368313
-0.290288 0.025357 -0.462412
-0.290288 0.447705 0.106423
-0.290288 -0.445778 -0.108079
-0.290288 -0.456874 -0.029257
-0.290288 -0.253481 -0.429671
-0.290288 0.271985 -0.375651
-0.290288 -0.152114 -0.445583
-0.290288 0.010606 -0.457899
-0.290288 -0.453023 -0.154716
-0.290288 -0.081624 0.442271
-0.290288 -0.100147 0.444028
-0.290288 0.452471 0.178058
-0.290288 -0.147480 -0.476200
-0.290288 0.487026 -0.105083
-0.290288 0.119086 0.480798
-0.290288 -0.110697 -0.482586
-0.290288 -0.385954 -0.244523
-0.290288 0.262380 0.365207
-0.290288 0.373838 0.317289
-0.290288 0.263304 -0.408512
-0.290288 0.312532 -0.341531
-0.290288 0.276187 0.381349
-0.290288 -0.417954 0.240326
-0.290288 0.114292 0.470512
-0.290288 -0.123879 -0.481438
-0.290288 -0.220897 0.396921
-0.290288 0.363410 0.314324
-0.290288 0.364340 -0.269232
-0.290288 0.178043 -0.449114
-0.290288 -0.053378 0.448668
-0.290288 0.181335 -0.426704
-0.290288 0.077335 -0.485771
-0.290288 0.422709 0.247020
-0.290288 0.397999 0.221805
-0.290288 0.463666 0.044434
-0.290288 -0.396023 0.276046
-0.290288 0.254019 0.366800
-0.290288 -0.417276 0.259604
-0.290288 0.450356 -0.144508
-0.290288 0.464569 -0.167290
-0.290288 0.390320 -0.295636
-0.290288 0.465795 -0.031795
-0.290288 -0.196632 0.411427
-0.290288 0.342803 0.330592
-0.290288 -0.193447 0.405800
-0.290288 -0.289033 -0.383884
-0.290288 -0.452514 0.027541
-0.290288 0.005531 -0.450846
-0.290288 -0.375789 -0.289989
-0.290288 0.435016 0.194326
-0.290288 0.174743 0.435414
-0.290288 0.491948 0.042121
-0.290288 0.041599 0.476170
-0.290288 -0.344490 -0.285596
-0.290288 0.268335 0.402644
-0.290288 -0.303410 0.380822
-0.290288 -0.431621 -0.127972
-0.290288 -0.492066 -0.038705
-0.290288 -0.041529 -0.461830
-0.290288 -0.293228 -0.396894
-0.290288 0.009399 -0.494227
-0.290288 0.020064 -0.476492
-0.290288 0.176348 0.450534
-0.290288 0.420785 0.176638
-0.290288 0.464285 0.104289
-0.290288 0.474128 -0.074653
-0.290288 0.406737 0.245633
-0.290288 -0.390973 -0.276147
-0.290288 0.466275 0.019522
-0.290288 0.379147 0.277544
-0.290288 0.026141 0.494609
-0.290288 -0.410806 -0.189205
-0.290288 0.487769 0.062935
-0.290288 0.105152 0.479951
-0.290288 -0.081903 -0.463756
-0.290288 -0.430054 -0.132556
-0.290288 -0.242816 -0.405133
-0.290288 -0.370252 -0.324815
-0.290288 0.373983 -0.290867
-0.290288 -0.439476 0.079085
-0.290288 -0.392463 0.229327
-0.290288 0.087495 -0.456461
-0.290288 0.447626 -0.047198
-0.290288 -0.370408 0.309200
-0.290288 -0.067723 -0.479025
-0.290288 0.396658 -0.283229
-0.290288 0.435903 0.170221
-0.290288 0.471458 -0.077247
-0.290288 -0.310152 -0.383442
-0.290288 0.095299 0.444785
-0.290288 -0.240889 -0.390087
-0.290288 -0.471550 -0.020139
-0.290288 -0.012420 0.479896
-0.290288 -0.403502 -0.214899
-0.290288 -0.355253 0.332083
-0.290288 0.473501 0.122911
-0.290288 0.266077 -0.383745
-0.290288 0.487199 0.067097
-0.290288 0.416819 0.254765
-0.290288 0.450244 -0.031122
-0.290288 0.210045 -0.428323
-0.290288 0.357083 0.296437
-0.290288 -0.056156 -0.481563
-0.290288 -0.063465 0.457825
-0.290288 -0.334688 -0.340879
-0.290288 -0.255121 0.382687
-0.290288 0.386499 -0.271329
-0.290288 -0.454078 -0.205490
-0.290288 0.283585 0.402853
-0.290288 -0.478430 -0.115620
-0.290288 -0.471502 -0.071100
-0.290288 -0.471675 -0.131897
-0.290288 -0.457016 0.068645
-0.290288 0.416507 0.239166
-0.290288 0.263215 -0.390168
-0.290288 0.389800 0.288267
-0.290288 -0.430269 0.113477
-0.290288 0.092875 0.435579
-0.290288 -0.351958 -0.279939
-0.290288 0.347690 -0.340965
-0.290288 0.483310 0.062173
-0.290288 0.473773 0.065941
-0.290288 0.206806 -0.443399
-0.290288 0.406451 0.225466
-0.290288 0.439609 -0.174888
-0.290288 0.334488 0.346617
-0.290288 0.217183 0.412688
-0.290288 0.402347 0.245918
-0.290288 0.449632 0.170397
-0.290288 0.450574 0.003283
-0.290288 0.122714 -0.463328
-0.290288 -0.032380 0.493342
-0.290288 -0.219243 0.419102
-0.290288 0.078299 -0.447943
-0.290288 -0.108846 -0.475142
-0.290288 -0.220908 -0.415877
-0.290288 0.453011 0.098688
-0.290288 0.105377 -0.473109
-0.290288 -0.321203 -0.372909
-0.290288 0.269838 0.371426
-0.290288 -0.486201 0.053918
-0.290288 -0.468454 -0.085794
-0.290288 0.012548 -0.471043
-0.290288 0.493638 -0.041028
-0.290288 -0.077779 -0.484656
-0.290288 0.422928 -0.247979
-0.290288 -0.193904 0.451397
-0.290288 0.072119 0.452053
-0.290288 -0.422193 -0.161132
-0.290288 0.449947 -0.094118
-0.290288 0.496727 0.032761
-0.290288 -0.228702 0.397991
-0.290288 0.030166 0.449805
-0.290288 0.472091 0.151428
-0.290288 0.321001 0.331481
-0.290288 0.386654 -0.290587
-0.290288 -0.182449 0.439868
-0.290288 0.163461 -0.448574
-0.290288 0.104170 0.458250
-0.290288 -0.206509 0.418007
-0.290288 0.229634 -0.389590
-0.290288 -0.130430 0.444059
-0.290288 0.486624 -0.044045
-0.290288 -0.321354 0.320896
-0.290288 0.453298 -0.138695
-0.290288 -0.245127 0.373031
-0.290288 0.361357 -0.344955
-0.290288 0.447911 0.066328
-0.290288 -0.324029 -0.379202
-0.290288 -0.481238 0.057002
-0.290288 0.152964 0.439040
-0.290288 -0.069263 -0.464633
-0.290288 -0.144153 0.456192
-0.290288 -0.106334 -0.459114
-0.290288 -0.477699 0.135252
-0.290288 -0.419484 -0.185255
-0.290288 -0.390396 0.277411
-0.290288 -0.201416 0.422278
-0.290288 -0.049744 0.463157
-0.290288 -0.494768 -0.007004
-0.290288 0.112728 0.440340
-0.290288 0.420428 -0.227878
-0.290288 0.311867 0.384432
-0.290288 0.410940 -0.192463
-0.290288 -0.465588 -0.041445
-0.290288 0.277808 0.371480
-0.290288 -0.170885 -0.445798
-0.290288 0.405327 0.258487
-0.290288 -0.463178 0.108270
-0.290288 -0.285557 -0.385925
-0.290288 0.324098 0.318417
-0.290288 0.454661 -0.196612
-0.290288 0.075016 -0.452291
-0.290288 -0.465635 0.123720
-0.290288 0.262454 -0.415707
-0.290288 0.428859 0.172160
-0.290288 -0.388278 -0.304256
-0.290288 -0.341023 0.323095
-0.290288 -0.238365 -0.426488
-0.290288 0.386208 0.275352
-0.290288 0.431843 -0.210844
-0.290288 -0.450498 -0.072595
-0.290288 0.222440 -0.405523
-0.290288 0.474849 -0.003136
-0.290288 0.069939 -0.443769
-0.290288 0.272242 0.379482
-0.290288 -0.472953 0.086114
-0.290288 0.130386 -0.469779
-0.290288 0.488215 0.071081
-0.290288 0.126040 -0.473753
-0.290288 0.451696 0.037079
-0.290288 0.363824 -0.299049
-0.290288 -0.064315 0.465979
-0.290288 0.026066 -0.469754
-0.290288 -0.464297 0.036026
-0.290288 0.012261 0.490202
-0.290288 0.369680 0.312354
-0.290288 0.379412 -0.276698
-0.290288 0.445093 -0.206889
-0.290288 -0.275697 0.362631
-0.290288 0.361593 -0.320474
-0.290288 0.308154 0.330587
-0.290288 0.120005 -0.438182
-0.290288 0.483480 -0.123109
-0.290288 -0.376478 -0.301216
-0.290288 0.343662 -0.336553
-0.290288 -0.456193 0.168398
-0.290288 0.302375 -0.357092
-0.290288 0.335983 0.336718
-0.290288 -0.304139 -0.327896
-0.290288 -0.455127 -0.022201
-0.290288 0.025210 -0.447532
-0.290288 -0.090020 0.440471
-0.290288 0.448025 0.084263
-0.290288 0.443349 -0.218952
-0.290288 -0.388809 -0.236037
-0.290288 -0.450189 0.077236
-0.290288 0.126932 0.468676
-0.290288 -0.147418 -0.454217
-0.290288 -0.352469 -0.351490
-0.290288 -0.011271 0.473412
-0.290288 0.407395 -0.191119
-0.290288 -0.272614 -0.384261
-0.290288 -0.170009 -0.468317
-0.290288 0.196189 0.447480
-0.290288 -0.320078 -0.379027
-0.290288 0.408960 -0.226047
-0.290288 0.124574 0.431855
-0.290288 0.435949 -0.203407
-0.290288 0.478981 -0.070077
-0.290288 -0.375193 0.306446
-0.290288 -0.070172 0.485203
-0.290288 0.451109 -0.147609
-0.290288 -0.109166 -0.445253
-0.290288 0.427019 -0.236372
-0.290288 0.455198 -0.105843
-0.290288 -0.382904 0.260171
-0.290288 -0.230600 0.379187
-0.290288 -0.176892 0.437122
-0.290288 -0.431791 0.243665
-0.290288 -0.136463 0.435813
-0.290288 -0.470478 0.137782
-0.290288 0.412052 0.206022
-0.290288 -0.171444 0.462321
-0.290288 0.471441 -0.006812
-0.290288 -0.162507 -0.419989
-0.290288 0.442495 -0.127352
-0.290288 -0.033715 -0.453446
-0.290288 -0.346970 0.295922
-0.290288 0.430748 0.137397
-0.290288 0.232330 -0.395488
-0.290288 0.180432 -0.434780
-0.290288 0.411634 0.186592
-0.290288 -0.047687 -0.470823
-0.290288 0.405423 -0.255837
-0.290288 0.367217 -0.271191
-0.290288 0.289362 0.393443
-0.290288 -0.101957 -0.459612
-0.290288 -0.437992 -0.173304
-0.290288 -0.256608 -0.382999
-0.290288 -0.116149 0.444357
-0.290288 -0.179605 -0.420491
-0.290288 0.422967 0.207946
-0.290288 0.122857 -0.471177
-0.290288 -0.236639 -0.420314
-0.290288 0.454573 0.088239
-0.290288 0.366660 0.274175
-0.290288 0.346977 -0.350493
-0.290288 0.446776 -0.043225
-0.290288 -0.223413 0.422718
-0.290288 0.289862 -0.345679
-0.290288 0.370629 0.257295
-0.290288 -0.229020 0.434526
-0.290288 -0.183432 -0.460133
-0.290288 0.146540 -0.439478
-0.290288 0.384050 -0.283673
-0.290288 -0.429874 0.220915
-0.290288 -0.158440 0.439872
-0.290288 -0.094343 -0.451264
-0.290288 -0.436139 0.154422
-0.290288 -0.024688 -0.470345
-0.290288 0.406339 -0.251323
-0.290288 0.401244 -0.217646
-0.290288 0.471422 -0.153752
-0.290288 0.354503 -0.342053
-0.290288 0.150780 0.460149
-0.290288 0.400809 -0.257480
-0.290288 0.433381 0.217077
-0.290288 0.236558 -0.381741
-0.290288 -0.217209 0.409113
-0.290288 0.244610 0.431915
-0.290288 0.309175 0.326855
-0.290288 0.257104 -0.416177
-0.290288 -0.436990 0.174695
-0.290288 -0.090386 -0.472486
-0.290288 0.300160 -0.347603
-0.290288 -0.029189 0.464947
-0.290288 0.376619 0.314950
-0.290288 -0.170612 0.416669
-0.290288 -0.442305 0.046855
-0.290288 -0.448341 0.110440
-0.290288 -0.437068 0.143002
-0.290288 -0.249089 0.371474
-0.290288 -0.131540 -0.447722
-0.290288 -0.481360 -0.027034
-0.290288 -0.219801 -0.412690
-0.290288 -0.192707 0.445568
-0.290288 -0.127754 -0.475266
-0.290288 -0.410984 0.222061
-0.290288 -0.423653 0.179210
-0.290288 -0.476180 0.018708
-0.290288 0.304710 0.350370
-0.290288 -0.420388 -0.195611
-0.290288 0.360888 0.270988
-0.290288 -0.392174 0.255303
-0.290288 -0.488413 0.084882
-0.290288 0.178337 -0.438523
-0.290288 0.376177 -0.306089
-0.290288 0.209606 -0.439287
-0.290288 0.162286 -0.424242
-0.290288 -0.472836 -0.113646
-0.290288 -0.020101 -0.465946
-0.290288 -0.154257 0.441255
-0.290288 0.430989 -0.184954
-0.290288 0.302010 0.361404
-0.290288 -0.328067 0.343033
-0.290288 -0.368125 -0.251934
-0.290288 0.313673 -0.376848
-0.290288 -0.252905 0.379265
-0.290288 -0.442061 0.208092
-0.290288 0.137137 -0.453667
-0.290288 0.127785 -0.467362
-0.290288 -0.458847 -0.119553
-0.290288 0.219184 0.407825
-0.290288 -0.204862 0.449975
-0.290288 -0.402599 -0.289438
-0.290288 0.109436 -0.458526
-0.290288 -0.224027 -0.387261
-0.290288 -0.450492 0.198745
-0.290288 0.332958 -0.355602
-0.290288 0.449675 0.033975
-0.290288 0.436784 -0.134104
-0.290288 0.459860 0.146922
-0.290288 -0.415381 0.158841
-0.290288 -0.268378 -0.390279
-0.290288 -0.008971 0.477630
-0.290288 0.192810 0.447785
-0.290288 0.125743 0.447136
-0.290288 0.407541 0.228654
-0.290288 -0.100596 0.465750
-0.290288 0.284624 0.345568
-0.290288 -0.496525 0.004069
-0.290288 -0.430035 0.183999
-0.290288 -0.455034 -0.093005
-0.290288 0.465403 0.050754
-0.290288 -0.417650 0.223919
-0.290288 0.408062 0.201594
-0.290288 -0.463581 0.023358
-0.290288 -0.440952 -0.122872
-0.290288 0.039181 -0.497612
-0.290288 0.414413 0.228998
-0.290288 0.451317 0.134491
-0.290288 -0.059533 -0.492932
-0.290288 -0.340840 0.313621
-0.290288 -0.190990 -0.453214
-0.290288 -0.431346 -0.158535
-0.290288 -0.377144 0.317068
-0.290288 -0.118225 0.431640
-0.290288 0.255563 -0.397015
-0.290288 0.185926 0.413116
-0.290288 0.432315 0.126970
-0.290288 -0.175355 0.459255
-0.290288 -0.199112 0.406968
-0.290288 -0.381827 -0.290451
-0.290288 0.406581 0.181228
-0.290288 -0.067124 0.471414
-0.290288 -0.023008 0.481672
-0.290288 0.174662 -0.452836
-0.290288 -0.439125 -0.199172
-0.290288 -0.396103 -0.270923
-0.290288 0.406555 0.205984
-0.290288 -0.105325 -0.444317
-0.290288 0.276990 0.403269
-0.290288 -0.459321 0.098871
-0.290288 0.194425 0.407658
-0.290288 0.429079 0.250064
-0.290288 0.211284 -0.399725
-0.290288 -0.376680 -0.293393
-0.290288 0.370141 -0.283714
-0.290288 -0.451817 -0.151227
-0.290288 0.196280 0.403052
-0.290288 -0.078743 0.436682
-0.290288 0.115291 0.438332
-0.290288 0.400876 -0.197442
-0.290288 0.133186 0.473489
-0.290288 0.276667 -0.351537
-0.290288 0.475960 0.094444
-0.290288 0.453570 -0.028618
-0.290288 0.476765 0.143244
-0.290288 -0.391051 0.292843
-0.290288 -0.301153 -0.381523
-0.290288 0.497516 0.010178
-0.290288 0.476092 0.018590
-0.290288 0.474919 0.130098
-0.290288 0.459089 0.006207
-0.290288 -0.024385 0.463191
-0.290288 -0.490674 0.046590
-0.290288 0.017276 -0.460899
-0.290288 0.286689 -0.377896
-0.290288 -0.231828 -0.433279
-0.290288 -0.447643 -0.211561
-0.290288 0.448745 0.187823
-0.290288 -0.174108 0.424586
-0.290288 -0.401585 0.201902
-0.290288 -0.040725 0.482506
-0.290288 -0.212174 0.409690
-0.290288 0.466555 0.138959
-0.290288 0.029378 -0.452560
-0.290288 0.379303 0.246736
-0.290288 0.083456 -0.475440
-0.290288 0.391959 -0.291426
-0.290288 -0.278000 -0.383262
-0.290288 0.441486 -0.204609
-0.290288 -0.355153 -0.273264
-0.290288 -0.451303 -0.094684
-0.290288 -0.418676 -0.177327
-0.290288 -0.443616 -0.046682
-0.290288 -0.429675 0.207574
-0.290288 0.421977 -0.171597
-0.290288 0.419535 0.200538
-0.290288 -0.263783 -0.410726
-0.290288 -0.407440 0.249153
-0.290288 0.181334 -0.431372
-0.290288 -0.386419 0.237522
-0.290288 0.434075 -0.158749
-0.290288 -0.229445 -0.422113
-0.290288 0.444095 0.104139
-0.290288 0.037982 -0.453399
-0.290288 -0.104866 0.468014
-0.290288 0.243551 -0.431758
-0.290288 0.173273 -0.441918
-0.290288 0.187047 0.458456
-0.290288 -0.199177 0.400735
-0.290288 0.441365 0.223193
-0.290288 0.439181 0.155097
-0.290288 0.394815 -0.235647
-0.290288 -0.003963 -0.492807
-0.290288 0.018553 -0.498962
-0.290288 0.477609 0.113437
-0.290288 -0.411293 -0.266292
-0.290288 -0.208228 -0.410967
-0.290288 0.183188 -0.412179
-0.290288 -0.438284 -0.167273
-0.290288 -0.367800 0.332282
-0.290288 -0.161621 0.441511
-0.290288 -0.149194 0.471438
-0.290288 -0.249036 0.367049
-0.290288 0.120194 0.466210
-0.290288 0.456438 0.133575
-0.290288 -0.425656 -0.158818
-0.290288 0.471067 -0.066527
-0.290288 0.170919 -0.453446
-0.290288 -0.469236 -0.111619
-0.290288 0.041675 0.479481
-0.290288 0.015480 0.457699
-0.290288 -0.134657 -0.472654
-0.290288 -0.207660 0.438654
-0.290288 -0.346207 -0.338303
-0.290288 -0.243626 0.404672
-0.290288 -0.004391 -0.453955
-0.290288 0.332005 0.349140
-0.290288 -0.485850 -0.073742
-0.290288 -0.445778 0.189315
-0.290288 -0.026308 -0.480062
-0.290288 0.182537 -0.449851
-0.290288 -0.261112 -0.374580
-0.290288 0.465356 0.012616
-0.290288 -0.068848 0.459689
-0.290288 0.476413 -0.079269
-0.290288 -0.260355 -0.383441
-0.290288 -0.016374 -0.458169
-0.290288 0.458927 0.152663
-0.290288 -0.410583 -0.178850
-0.290288 -0.139043 0.426140
-0.290288 0.475346 -0.011205
-0.290288 -0.191750 -0.407528
-0.290288 0.445564 0.205982
-0.290288 0.365938 0.297209
-0.290288 0.187212 -0.434522
-0.290288 0.432765 -0.240782
-0.290288 0.477690 -0.120505
-0.290288 0.418156 0.227963
-0.290288 0.232168 0.414090
-0.290288 -0.087848 -0.463884
-0.290288 0.316614 0.375693
-0.290288 0.056547 0.472790
-0.290288 0.456375 -0.048612
-0.290288 -0.462504 -0.136225
-0.290288 -0.448706 0.025426
-0.290288 0.467711 -0.079653
-0.290288 0.244154 -0.409476
-0.290288 -0.385252 -0.250052
-0.290288 -0.245975 -0.403946
-0.290288 -0.482921 0.011928
-0.290288 -0.255023 0.410190
-0.290288 -0.384116 0.304439
-0.290288 -0.435224 -0.151982
-0.290288 0.471500 0.131394
-0.290288 -0.036457 0.462603
-0.290288 0.474819 -0.043844
-0.290288 0.404626 0.221930
-0.290288 -0.442809 -0.131871
-0.290288 -0.410157 0.277410
-0.290288 0.424563 0.204152
-0.290288 0.442512 0.212306
-0.290288 0.423699 0.253832
-0.290288 0.188193 0.447012
-0.290288 -0.354015 -0.311491
-0.290288 0.490634 -0.034635
-0.290288 -0.455086 -0.140727
-0.290288 -0.417645 0.236747
-0.290288 0.046598 -0.449721
-0.290288 0.325937 -0.344251
-0.290288 0.075645 -0.489911
-0.290288 -0.134395 -0.432038
-0.290288 0.356270 0.329744
-0.290288 0.321919 0.373981
-0.290288 0.470334 -0.117960
-0.290288 -0.254404 0.366931
-0.290288 -0.450725 0.103605
-0.290288 0.419703 0.239161
-0.290288 -0.388926 0.281417
-0.290288 0.332150 -0.324943
-0.290288 0.092417 -0.472091
-0.290288 -0.469135 -0.007104
-0.290288 0.453276 -0.023991
-0.290288 -0.068799 -0.461395
-0.290288 -0.097222 -0.483395
-0.290288 -0.415796 0.226677
-0.290288 -0.445197 -0.170656
-0.290288 0.476075 -0.131277
-0.290288 -0.441686 0.155386
-0.290288 -0.441450 -0.061977
-0.290288 0.331054 0.345778
-0.290288 -0.127834 0.454310
-0.290288 -0.393952 -0.253336
-0.290288 -0.454006 0.054557
-0.290288 0.457015 -0.025761
-0.290288 0.036723 -0.457590
-0.290288 0.013323 -0.474363
-0.290288 0.178738 -0.428919
-0.290288 0.003307 -0.482768
-0.290288 -0.102984 0.456806
-0.290288 -0.024673 0.486235
-0.290288 0.447924 0.101904
-0.290288 0.492051 -0.007077
-0.290288 0.413060 0.250569
-0.290288 -0.285823 -0.365349
-0.290288 0.460005 -0.127659
-0.290288 0.175600 0.423054
-0.290288 0.123243 -0.483838
-0.290288 0.418345 -0.189375
-0.290288 -0.473276 0.021785
-0.290288 0.054991 0.455775
-0.290288 0.364126 -0.281013
-0.290288 -0.478884 0.096546
-0.290288 0.145788 -0.471238
-0.290288 0.423874 0.165929
-0.290288 0.410023 -0.260911
-0.290288 0.082062 -0.459985
-0.290288 0.083348 -0.492908
-0.290288 0.352170 0.273640
-0.290288 -0.184676 -0.446575
-0.290288 0.417843 -0.254073
-0.290288 0.101120 0.447767
-0.290288 0.351625 0.349064
-0.290288 0.413171 -0.261792
-0.290288 -0.464725 0.154768
-0.290288 0.407261 -0.263473
-0.290288 -0.163044 0.418870
-0.290288 0.336568 0.325256
-0.290288 -0.416186 -0.203907
-0.290288 -0.253805 0.386493
-0.290288 0.059705 -0.479279
-0.290288 0.099985 0.432936
-0.290288 -0.262786 -0.418648
-0.290288 -0.414004 -0.217271
-0.290288 -0.251466 -0.385053
-0.290288 -0.214705 -0.393120
-0.290288 0.058210 0.462914
-0.290288 0.465399 0.120954
-0.290288 0.081003 -0.486916
-0.290288 0.062329 0.483540
-0.290288 -0.300781 -0.337114
-0.290288 -0.193629 -0.450985
-0.290288 -0.128057 -0.460459
-0.290288 0.374951 -0.302902
-0.290288 0.068289 -0.447509
-0.290288 -0.069064 0.447481
-0.290288 -0.353397 -0.284586
-0.290288 0.310063 -0.329286
-0.290288 0.431856 0.121901
-0.290288 0.363030 0.295358
-0.290288 0.488677 -0.061623
-0.290288 -0.230146 0.393331
-0.290288 0.045266 -0.480808
-0.290288 0.306115 -0.346532
-0.290288 0.212852 0.389568
-0.290288 -0.124698 -0.477950
-0.290288 -0.378656 0.255739
-0.290288 0.070159 0.476733
-0.290288 -0.315271 -0.331040
-0.290288 0.366163 -0.290762
-0.290288 -0.465864 -0.135392
-0.290288 0.219007 -0.439372
-0.290288 0.443441 0.067423
-0.290288 -0.224685 -0.415484
-0.290288 -0.226990 0.391708
-0.290288 -0.233790 -0.403663
-0.290288 -0.118234 0.465553
-0.290288 0.253515 0.392279
-0.290288 0.295199 0.366062
-0.290288 -0.065940 -0.455775
-0.290288 -0.426495 0.171335
-0.290288 0.458840 0.087439
-0.290288 0.414601 0.266662
-0.290288 -0.453289 -0.008436
-0.290288 -0.043820 0.463690
-0.290288 -0.448825 -0.177608
-0.290288 0.251013 -0.381126
-0.290288 -0.223039 0.437074
-0.290288 -0.226171 0.381873
-0.290288 -0.460972 -0.065307
-0.290288 0.382640 0.290378
-0.290288 -0.387730 0.217037
-0.290288 0.373934 -0.283701
-0.290288 -0.266015 -0.396679
-0.290288 0.047310 0.462635
-0.290288 0.265227 0.418005
-0.290288 -0.427997 0.181254
-0.290288 0.060837 0.475096
-0.290288 0.388991 0.220228
-0.290288 -0.399599 -0.290876
-0.290288 0.246335 -0.401554
-0.290288 -0.291610 0.340454
-0.290288 -0.048395 -0.491875
-0.290288 0.081593 -0.449574
-0.290288 0.130925 0.428109
-0.290288 -0.380974 0.252360
-0.290288 -0.183809 -0.443032
-0.290288 -0.048084 0.451199
-0.290288 -0.028202 -0.493120
-0.290288 -0.441718 -0.168855
-0.290288 0.478929 0.121220
-0.290288 0.229180 -0.401640
-0.290288 0.451625 -0.000633
-0.290288 -0.181667 0.450563
-0.290288 -0.073899 0.469544
-0.290288 0.015833 -0.457210
-0.290288 0.171361 -0.445192
-0.290288 -0.297666 -0.400458
-0.290288 0.289338 0.355111
-0.290288 0.129218 0.424193
-0.290288 -0.482747 0.005853
-0.290288 -0.397081 0.212566
-0.290288 0.444607 -0.094153
-0.290288 -0.348414 0.319385
-0.290288 0.370145 0.260815
-0.290288 -0.477278 -0.125346
-0.290288 0.457170 -0.165706
-0.290288 0.036108 -0.470269
-0.290288 0.467202 -0.094846
-0.290288 0.458342 0.114467
-0.290288 -0.195720 0.444373
-0.290288 0.464108 -0.024404
-0.290288 -0.419805 0.185134
-0.290288 -0.096828 -0.490477
-0.290288 -0.460143 0.072807
-0.290288 0.411659 0.202748
-0.290288 -0.018128 -0.471906
-0.290288 0.391082 -0.282210
-0.290288 -0.480942 -0.126162
-0.290288 -0.131753 0.467290
-0.290288 -0.473259 -0.121038
-0.290288 0.302372 0.336230
-0.290288 -0.175550 0.410184
-0.290288 0.233799 0.382607
-0.290288 0.196563 -0.452739
-0.290288 -0.094033 -0.466990
-0.290288 0.341133 -0.289185
-0.290288 0.427313 0.198427
-0.290288 -0.398350 -0.258352
-0.290288 -0.104437 0.474198
-0.290288 -0.122165 0.437541
-0.290288 0.386171 0.271474
-0.290288 -0.133202 0.470313
-0.290288 0.288657 0.385974
-0.290288 -0.035498 -0.485808
-0.290288 0.455330 0.115376
-0.290288 0.446457 0.051867
-0.290288 0.453472 -0.087677
-0.290288 -0.008834 -0.447644
-0.290288 -0.359449 0.332826
-0.290288 -0.259369 -0.420316
-0.290288 -0.093076 0.445937
-0.290288 -0.321942 0.334117
-0.290288 -0.401735 -0.230539
-0.290288 0.452745 0.080929
-0.290288 -0.199273 -0.422038
-0.290288 0.374074 -0.269836
-0.290288 -0.334049 -0.351301
-0.290288 0.220771 0.404362
-0.290288 0.414778 -0.219719
-0.290288 0.340478 0.324407
-0.290288 -0.057164 0.490406
-0.290288 0.281640 -0.390750
-0.290288 0.465602 -0.162510
-0.290288 -0.170736 -0.414600
-0.290288 0.416430 0.250519
-0.290288 0.434678 -0.237361
-0.290288 -0.262225 -0.363393
-0.290288 0.035517 0.469701
-0.290288 -0.497009 -0.013643
-0.290288 -0.281230 0.402099
-0.290288 0.474541 0.043871
-0.290288 -0.016852 0.479501
-0.290288 0.414903 0.185786
-0.290288 -0.199907 -0.429845
-0.290288 0.367986 0.334182
-0.290288 0.247806 -0.381669
-0.290288 -0.188925 -0.438835
-0.290288 0.495145 -0.005265
-0.290288 -0.118319 -0.450369
-0.290288 -0.366425 -0.264128
-0.290288 0.216280 -0.401620
-0.290288 -0.292514 0.391114
-0.290288 -0.229027 0.409283
-0.290288 -0.073085 -0.462596
-0.290288 -0.340559 0.341951
-0.290288 -0.445357 0.132337
-0.290288 -0.432118 -0.189950
-0.290288 -0.473841 -0.047041
-0.290288 -0.422940 -0.226374
-0.290288 0.176458 -0.420533
-0.290288 -0.312105 0.315308
-0.290288 0.348939 0.299771
-0.290288 0.420166 -0.215256
-0.290288 -0.416993 -0.209756
-0.290288 -0.478057 -0.029675
-0.290288 -0.051158 -0.446540
-0.290288 0.288012 -0.384635
-0.290288 0.208325 0.449220
-0.290288 0.098897 0.484611
-0.290288 0.116783 -0.463383
-0.290288 0.235008 0.416849
-0.290288 0.015583 0.475970
-0.290288 0.334550 -0.346147
-0.290288 -0.373299 -0.268945
-0.290288 0.309961 -0.367227
-0.290288 0.490164 0.018752
-0.290288 -0.197039 0.403825
-0.290288 0.394307 0.215774
-0.290288 0.094677 0.481685
-0.290288 -0.438669 -0.097670
-0.290288 -0.364929 0.290040
-0.290288 -0.041539 0.443751
-0.290288 -0.451421 -0.209958
-0.290288 -0.439570 0.177452
-0.290288 0.249049 0.368252
-0.290288 -0.397867 -0.210248
-0.290288 -0.424443 0.159027
-0.290288 0.222188 -0.389036
-0.290288 -0.353336 0.300989
-0.290288 -0.314046 -0.343238
-0.290288 -0.070555 -0.477478
-0.290288 -0.262909 0.413514
-0.290288 0.281952 0.376762
-0.290288 0.129450 -0.440273
-0.290288 -0.364905 -0.312230
-0.290288 -0.426797 -0.257660
-0.290288 0.071303 -0.490763
-0.290288 0.123293 -0.478562
-0.290288 -0.209058 -0.422627
-0.290288 0.375039 0.285757
-0.290288 -0.461823 -0.114186
-0.290288 -0.005713 -0.489723
-0.290288 -0.337977 -0.350680
-0.290288 0.336465 0.300616
-0.290288 0.408316 -0.222416
-0.290288 -0.412813 0.179865
-0.290288 0.325078 0.339035
-0.290288 -0.200720 0.403880
-0.290288 0.441547 0.198601
-0.290288 -0.425461 0.187585
-0.290288 -0.300918 -0.384887
-0.290288 -0.182783 0.446428
-0.290288 0.260055 0.408136
-0.290288 -0.121305 0.448775
-0.290288 0.416993 0.202371
-0.290288 0.329142 -0.363887
-0.290288 0.216972 0.395778
-0.290288 0.264373 0.402431
-0.290288 0.364618 -0.273890
-0.290288 0.313909 0.314477
-0.290288 -0.437616 0.086896
-0.290288 0.445955 -0.025367
-0.290288 -0.129285 -0.478438
-0.290288 -0.418402 -0.166657
-0.290288 -0.484258 -0.056808
-0.290288 0.415357 0.262680
-0.290288 -0.382405 -0.281947
-0.290288 0.093927 0.447561
-0.290288 0.376190 -0.299716
-0.290288 0.476182 0.035182
-0.290288 -0.163062 -0.468701
-0.290288 0.269565 0.377444
-0.290288 0.435713 0.199161
-0.290288 0.209291 -0.435622
-0.290288 0.432082 -0.188599
-0.290288 -0.070509 0.469456
-0.290288 0.185838 -0.445999
-0.290288 0.249173 -0.405181
-0.290288 0.116807 0.453243
-0.290288 0.451682 0.185947
-0.290288 -0.238751 0.381206
-0.290288 0.126905 -0.437236
-0.290288 0.271485 -0.400779
-0.290288 -0.180672 0.420785
-0.290288 -0.379410 0.298830
-0.290288 -0.314871 -0.316524
-0.290288 0.447043 -0.139534
-0.290288 -0.356059 -0.343132
-0.290288 0.408906 0.223468
-0.290288 -0.323579 -0.360075
-0.290288 0.395890 0.270476
-0.290288 0.444217 0.100237
-0.290288 0.357099 0.271019
-0.290288 -0.124387 -0.439645
-0.290288 0.473765 0.058625
-0.290288 -0.163098 -0.448485
-0.290288 0.407185 0.249398
-0.290288 -0.345999 -0.296315
-0.290288 0.175805 -0.427595
-0.290288 -0.083850 0.481988
-0.290288 -0.331297 -0.312796
-0.290288 0.199780 -0.443930
-0.290288 -0.483877 -0.001919
-0.290288 0.051057 0.460341
-0.290288 0.349438 -0.325727
-0.290288 -0.396577 -0.247856
-0.290288 -0.067787 -0.443219
-0.290288 0.434925 -0.217769
-0.290288 0.463393 0.140366
-0.290288 -0.063578 -0.453263
-0.290288 -0.242439 -0.435210
-0.290288 0.196261 -0.412605
-0.290288 0.302251 -0.397587
-0.290288 -0.432221 -0.179517
-0.290288 -0.239651 0.433002
-0.290288 -0.392003 0.303001
-0.290288 0.386141 0.258691
-0.290288 0.446949 0.176655
-0.290288 -0.399975 0.291092
-0.290288 -0.029163 0.493520
-0.290288 -0.377040 -0.276950
-0.290288 0.036737 -0.477950
-0.290288 -0.265386 0.379916
-0.290288 0.378421 -0.246356
-0.290288 0.248215 -0.397864
-0.290288 0.196044 -0.416910
-0.290288 0.431802 0.188237
-0.290288 -0.096721 0.452083
-0.290288 -0.332689 0.330401
-0.290288 0.457645 0.180161
-0.290288 -0.444629 0.091661
-0.290288 -0.466166 -0.126844
-0.290288 -0.350363 0.298955
-0.290288 -0.382920 -0.310042
-0.290288 0.451778 0.127410
-0.290288 0.476510 -0.123482
-0.290288 -0.250450 0.376852
-0.290288 0.009568 -0.469661
-0.290288 0.332083 -0.309888
-0.290288 0.491124 -0.076940
-0.290288 0.426668 -0.182966
-0.290288 -0.468695 -0.042392
-0.290288 0.447717 0.124865
-0.290288 0.297273 -0.382602
-0.290288 -0.187971 -0.407241
-0.290288 0.002913 0.494403
-0.290288 0.451577 0.119838
-0.290288 0.260974 -0.386195
-0.290288 -0.406402 -0.210352
-0.290288 -0.412270 0.214387
-0.290288 0.442656 -0.059200
-0.290288 -0.419714 -0.267011
-0.290288 0.424005 -0.185831
-0.290288 -0.304951 0.349864
-0.290288 -0.428507 -0.235917
-0.290288 0.307486 -0.363829
-0.290288 0.467618 -0.110262
-0.290288 0.461952 -0.000780
-0.290288 0.093242 -0.451496
-0.290288 0.171898 -0.462046
-0.290288 -0.428916 0.117796
-0.290288 0.469652 0.117579
-0.290288 0.456086 0.017121
-0.290288 0.238963 0.385639
-0.290288 -0.396711 0.259002
-0.290288 0.495489 0.036333
-0.290288 0.118223 -0.468754
-0.290288 0.459737 0.155872
-0.290288 -0.162841 -0.456982
-0.290288 0.483762 -0.048711
-0.290288 0.087568 -0.444294
-0.290288 -0.382949 0.297519
-0.290288 0.378609 0.299688
-0.290288 0.462562 -0.011961
-0.290288 -0.009715 -0.480157
-0.290288 -0.208001 0.427089
-0.290288 -0.387066 0.271102
-0.290288 0.451063 -0.090793
-0.290288 -0.483831 0.021293
-0.290288 -0.011575 -0.474772
-0.290288 -0.462091 -0.142216
-0.290288 -0.359644 0.304482
-0.290288 0.447414 -0.086396
-0.290288 -0.350276 0.333029
-0.290288 -0.093240 -0.487028
-0.290288 -0.340499 0.349918
-0.290288 -0.014313 0.449414
-0.290288 0.427786 0.145154
-0.290288 -0.374359 -0.307325
-0.290288 0.357878 0.343110
-0.290288 -0.032082 -0.496337
-0.290288 0.194704 0.434997
-0.290288 0.018617 0.444779
-0.290288 -0.200862 0.444328
-0.290288 0.122671 -0.467636
-0.290288 -0.151513 -0.454411
-0.290288 -0.196601 -0.438125
-0.290288 -0.399316 0.236492
-0.290288 0.197597 -0.408258
-0.290288 -0.452752 -0.060378
-0.290288 -0.383627 -0.313735
-0.290288 -0.027632 0.454145
-0.290288 -0.104419 -0.466326
-0.290288 0.485493 -0.005977
-0.290288 -0.141957 -0.441335
-0.290288 -0.285483 0.349448
-0.290288 -0.011371 -0.493027
-0.290288 -0.162716 -0.434369
-0.290288 -0.352690 0.325412
-0.290288 -0.471382 0.055875
-0.290288 0.454119 0.044476
-0.290288 0.337710 -0.348415
-0.290288 -0.444777 -0.070545
-0.290288 0.147753 -0.426703
-0.290288 0.310160 -0.322494
-0.290288 -0.405225 -0.245352
-0.290288 0.153394 0.462902
-0.290288 -0.220504 -0.437009
-0.290288 -0.365289 -0.319274
-0.290288 -0.407637 -0.259199
-0.290288 0.383352 -0.246494
-0.290288 0.156503 0.463592
-0.290288 -0.078628 0.467962
-0.290288 0.086932 0.435041
-0.290288 0.362051 0.287212
-0.290288 0.432040 -0.181767
-0.290288 -0.217401 -0.439461
-0.290288 -0.169465 0.439127
-0.290288 -0.237236 -0.410034
-0.290288 -0.454102 -0.106142
-0.290288 0.477673 -0.073108
-0.290288 0.099357 -0.437090
-0.290288 -0.143421 -0.473687
-0.290288 -0.445088 -0.099207
-0.290288 -0.462648 -0.070112
-0.290288 -0.396404 0.245089
-0.290288 -0.085431 -0.485581
-0.290288 0.450157 0.087265
-0.290288 -0.107677 0.439457
-0.290288 0.462249 0.051601
-0.290288 -0.066158 -0.467349
-0.290288 -0.045141 -0.478024
-0.290288 0.155742 -0.433632
-0.290288 0.013205 0.451932
-0.290288 -0.311022 -0.377930
-0.290288 0.420885 -0.241408
-0.290288 0.209772 -0.402997
-0.290288 0.435639 0.160239
-0.290288 0.210802 -0.396430
-0.290288 -0.492032 -0.071072
-0.290288 -0.203688 0.447169
-0.290288 0.461117 -0.004052
-0.290288 0.024773 0.459720
-0.290288 -0.469065 -0.125897
-0.290288 -0.139567 0.458340
-0.290288 0.072612 0.438359
-0.290288 -0.374986 0.302206
-0.290288 -0.378404 -0.280953
-0.290288 -0.473268 0.141581
-0.290288 0.118310 -0.440825
-0.290288 -0.223943 -0.395586
-0.290288 0.364866 0.279268
-0.290288 -0.348766 0.292854
-0.290288 0.099589 0.451040
-0.290288 0.122043 0.436816
-0.290288 0.421558 0.159103
-0.290288 -0.453870 -0.102040
-0.290288 0.254507 -0.404873
-0.290288 0.253853 0.383484
-0.290288 -0.099545 -0.440820
-0.290288 -0.285019 0.402085
-0.290288 0.210200 0.407028
-0.290288 -0.453622 -0.014996
-0.290288 -0.477980 -0.084433
-0.290288 0.225233 0.424164
-0.290288 0.367957 0.305601
-0.290288 0.472514 -0.114913
-0.290288 -0.020980 -0.460136
-0.290288 0.160862 0.456849
-0.290288 0.479871 0.062569
-0.290288 0.437876 -0.114053
-0.290288 0.168018 0.463105
-0.290288 -0.435291 -0.110447
-0.290288 -0.431548 -0.175737
-0.290288 0.347576 -0.329193
-0.290288 -0.411040 -0.269399
-0.290288 -0.030496 0.471704
-0.290288 -0.321724 0.340363
-0.290288 0.238334 0.417485
-0.290288 0.449071 -0.061051
-0.290288 -0.241697 0.394305
-0.290288 -0.436493 0.138899
-0.290288 0.290214 -0.349114
-0.290288 -0.076897 0.449600
-0.290288 -0.406410 0.211577
-0.290288 -0.375532 0.275404
-0.290288 0.132556 -0.454148
-0.290288 0.482696 -0.023319
-0.290288 0.448747 0.097635
-0.290288 0.394499 0.286500
-0.290288 0.112465 -0.469989
-0.290288 0.347804 0.292703
-0.290288 0.360404 0.280775
-0.290288 0.067084 0.472876
-0.290288 0.214091 0.410255
-0.290288 -0.379771 0.313660
-0.290288 0.344182 0.319313
-0.290288 0.266471 0.413693
-0.290288 -0.108418 0.434364
-0.290288 -0.015566 0.455334
-0.290288 -0.249293 0.389671
-0.290288 -0.277305 0.383684
-0.290288 -0.116255 -0.443820
-0.290288 -0.423548 -0.172493
-0.290288 -0.091015 0.448473
-0.290288 0.250782 0.428206
-0.290288 0.460402 0.181667
-0.290288 -0.038438 -0.486920
-0.290288 0.260132 -0.370046
-0.290288 0.237945 0.397719
-0.290288 -0.132616 0.433987
-0.290288 -0.257649 0.401631
-0.290288 -0.294589 0.373228
-0.290288 0.483189 -0.109708
-0.290288 -0.216202 0.437934
-0.290288 -0.460764 0.041667
-0.290288 0.415201 -0.203603
-0.290288 0.469411 -0.097270
-0.290288 -0.469217 0.023954
-0.290288 0.440939 0.063895
-0.290288 0.161807 -0.421214
-0.290288 0.443489 0.182810
-0.290288 0.069683 0.484674
-0.290288 -0.491426 -0.004248
-0.290288 0.430431 0.114097
-0.290288 -0.419196 -0.227535
-0.290288 0.251859 0.395451
-0.290288 0.282644 -0.407982
-0.290288 -0.380226 -0.308613
-0.290288 0.349674 0.314076
-0.290288 0.442618 -0.208750
-0.290288 0.032389 0.465601
-0.290288 -0.266210 -0.362645
-0.290288 -0.400938 -0.286332
-0.290288 0.477974 0.012328
-0.290288 -0.448843 0.161691
-0.290288 -0.420077 0.199260
-0.290288 0.438498 -0.137960
-0.290288 -0.122426 -0.436105
-0.290288 -0.479021 0.003143
-0.290288 0.373170 0.288568
-0.290288 -0.389410 -0.230505
-0.290288 0.105887 -0.457412
-0.290288 -0.220879 0.439448
-0.290288 0.314967 -0.367112
-0.290288 0.262556 0.375433
-0.290288 -0.323691 -0.318481
-0.290288 -0.489921 0.010102
-0.290288 -0.490514 0.017753
-0.290288 0.441303 -0.144805
-0.290288 -0.436556 0.184470
-0.290288 0.466978 -0.117162
-0.290288 0.193177 -0.431413
-0.290288 -0.457323 -0.039369
-0.290288 -0.088692 -0.484419
-0.290288 0.378665 -0.282085
-0.290288 -0.278097 -0.366362
-0.290288 -0.444414 -0.039661
-0.290288 -0.307398 -0.326355
-0.290288 -0.156215 0.447926
-0.290288 0.382105 -0.298101
-0.290288 0.442728 0.152660
-0.290288 -0.289286 -0.374784
-0.290288 0.431272 0.196761
-0.290288 -0.244841 -0.427792
-0.290288 -0.474257 0.089806
-0.290288 0.174557 -0.423353
-0.290288 0.417193 0.219212
-0.290288 -0.020104 0.460333
-0.290288 0.049809 -0.456814
-0.290288 -0.185990 0.457427
-0.290288 -0.366382 0.273493
-0.290288 -0.326549 -0.362306
-0.290288 0.153780 0.453982
-0.290288 -0.342033 -0.354062
-0.290288 -0.288328 -0.362023
-0.290288 0.412987 -0.258516
-0.290288 -0.383618 0.276867
-0.290288 0.300050 0.371072
-0.290288 0.278289 0.388844
-0.290288 0.323256 -0.374663
-0.290288 -0.287191 -0.407327
-0.290288 0.333963 0.339704
-0.290288 -0.429122 0.149550
-0.290288 0.307272 -0.369681
-0.290288 0.239239 -0.393167
-0.290288 0.039993 0.494186
-0.290288 0.343713 0.322971
-0.290288 -0.418366 -0.224096
-0.290288 -0.451697 0.097109
-0.290288 -0.134245 -0.454925
-0.290288 -0.172481 -0.423452
-0.290288 0.454385 -0.146368
-0.290288 -0.402216 0.283843
-0.290288 0.158694 0.469203
-0.290288 -0.214867 -0.412429
-0.290288 -0.476258 0.030852
-0.290288 -0.383641 -0.258762
-0.290288 -0.423559 0.238765
-0.290288 0.080024 0.474591
-0.290288 0.474735 -0.007007
-0.290288 0.456414 0.009149
-0.290288 0.038671 -0.482790
-0.290288 0.269252 -0.368210
-0.290288 -0.095015 -0.444968
-0.290288 -0.467381 0.028778
-0.290288 -0.406630 -0.191538
-0.290288 0.146089 -0.456484
-0.290288 0.216630 -0.433095
-0.290288 -0.443473 0.074235
-0.290288 0.420918 0.146254
-0.290288 0.463787 -0.077836
-0.290288 -0.467919 -0.070186
-0.290288 0.391626 -0.278742
-0.290288 0.240047 -0.422084
-0.290288 -0.032964 0.469531
-0.290288 -0.467511 -0.035288
-0.290288 0.417598 0.188588
-0.290288 -0.165199 0.456662
-0.290288 -0.005608 -0.447521
-0.290288 -0.468436 0.155784
-0.290288 -0.405870 0.284530
-0.290288 0.487996 0.042162
-0.290288 -0.307155 -0.372723
-0.290288 -0.252909 -0.426500
-0.290288 0.361368 0.290781
-0.290288 -0.234998 -0.380303
-0.290288 0.090591 0.448057
-0.290288 -0.054478 0.478539
-0.290288 0.445359 0.023810
-0.290288 0.024462 -0.482242
-0.290288 -0.363531 0.324279
-0.290288 -0.343732 0.311967
-0.290288 -0.089320 0.484270
-0.290288 -0.295833 -0.371504
-0.290288 0.439475 -0.122952
-0.290288 0.377721 0.254100
-0.290288 -0.481745 0.102226
-0.290288 0.489805 -0.038776
-0.290288 0.400774 0.235186
-0.290288 -0.386152 -0.254215
-0.290288 0.439975 0.175902
-0.290288 -0.398426 0.279058
-0.290288 0.388420 0.305646
-0.290288 -0.284565 -0.410398
-0.290288 -0.390885 -0.233247
-0.290288 0.398324 -0.214486
-0.290288 -0.432705 0.157861
-0.290288 0.003115 -0.463759
-0.290288 -0.038294 -0.456528
-0.290288 -0.389123 -0.300848
-0.290288 0.389876 0.284175
-0.290288 -0.198869 0.414118
-0.290288 -0.244167 0.383599
-0.290288 -0.291872 -0.357564
-0.290288 -0.258140 0.382055
-0.290288 -0.458952 0.021882
-0.290288 0.031058 -0.476278
-0.290288 0.485519 -0.064372
-0.290288 -0.109851 0.430909
-0.290288 0.431171 -0.250528
-0.290288 0.159444 -0.445910
-0.290288 -0.338419 0.325073
-0.290288 0.014902 0.444572
-0.290288 0.414194 -0.253086
-0.290288 -0.189437 0.443113
-0.290288 -0.095598 0.469780
-0.290288 -0.223056 -0.406435
-0.290288 -0.299756 0.331013
-0.290288 0.352706 0.330184
-0.290288 -0.149598 0.467593
-0.290288 -0.426235 -0.152612
-0.290288 -0.355104 0.311190
-0.290288 -0.271367 0.363627
-0.290288 -0.339168 0.338213
-0.290288 -0.173346 -0.448569
-0.290288 -0.000185 0.472953
-0.290288 -0.107102 -0.481602
-0.290288 0.073327 -0.487283
-0.290288 -0.074898 0.452322
-0.290288 -0.253979 0.376198
-0.290288 -0.210761 0.429113
-0.290288 -0.387522 0.244300
-0.290288 -0.409495 0.181216
-0.290288 0.278124 0.411064
-0.290288 -0.438974 0.114977
-0.290288 0.056547 0.449722
-0.290288 0.437259 0.207833
-0.290288 -0.146148 0.446789
-0.290288 0.463469 -0.053384
-0.290288 0.339391 -0.292189
-0.290288 -0.015893 0.475440
-0.290288 -0.463133 0.179137
-0.290288 -0.457453 -0.056817
-0.290288 0.081171 -0.469723
-0.290288 0.470290 -0.027625
-0.290288 0.389040 0.308783
-0.290288 -0.112391 -0.464827
-0.290288 -0.446372 -0.031889
-0.290288 -0.273065 -0.411064
-0.290288 -0.206829 -0.407684
-0.290288 0.142617 -0.439227
-0.290288 -0.460753 -0.030232
-0.290288 0.456768 0.127605
-0.290288 -0.104306 -0.484636
-0.290288 0.466139 0.173353
-0.290288 0.281651 0.385203
-0.290288 0.302875 -0.332509
-0.290288 -0.432686 0.122915
-0.290288 0.384888 0.303209
-0.290288 0.442295 0.227451
-0.290288 0.459276 -0.058101
-0.290288 0.417892 0.223326
-0.290288 0.406537 -0.245580
-0.290288 0.254871 -0.418229
-0.290288 0.001850 0.443329
-0.290288 -0.202925 -0.442951
-0.290288 0.320192 -0.354455
-0.290288 0.401166 0.241879
-0.290288 -0.473889 -0.117405
-0.290288 0.407687 -0.206300
-0.290288 0.409180 -0.254547
-0.290288 0.110057 -0.449063
-0.290288 0.462573 0.174031
-0.290288 0.482077 -0.083711
-0.290288 0.458304 0.189779
-0.290288 0.017089 0.461894
-0.290288 -0.462555 -0.089203
-0.290288 -0.459309 0.008396
-0.290288 0.316481 -0.354599
-0.290288 0.150051 0.418985
-0.290288 0.241833 -0.436270
-0.290288 0.407543 0.264611
-0.290288 -0.340641 0.299415
-0.290288 -0.286267 0.394703
-0.290288 -0.113050 0.476883
-0.290288 -0.179482 0.426982
-0.290288 -0.235060 -0.426567
-0.290288 0.228513 0.408409
-0.290288 -0.449135 0.206901
-0.290288 -0.020145 0.454123
-0.290288 0.011049 -0.479134
-0.290288 0.471193 0.041264
-0.290288 -0.397416 -0.241893
-0.290288 0.121078 -0.481205
-0.290288 -0.304635 -0.382548
-0.290288 -0.326301 -0.343138
-0.290288 -0.047823 0.444320
-0.290288 0.425748 -0.245657
-0.290288 0.163902 0.459944
-0.290288 -0.463893 -0.100544
-0.290288 -0.411962 -0.228327
-0.290288 -0.097234 0.476971
-0.290288 0.469629 -0.013879
-0.290288 0.091070 -0.489958
-0.290288 -0.418012 -0.231309
-0.290288 0.437695 -0.169757
-0.290288 0.485352 0.084464
-0.290288 0.022041 -0.452446
-0.290288 0.134210 -0.463067
-0.290288 -0.359934 -0.338232
-0.290288 0.393911 -0.254927
-0.290288 -0.373995 0.290447
-0.290288 0.271769 0.373903
-0.290288 -0.343757 0.326906
-0.290288 -0.027611 -0.466342
-0.290288 -0.017667 -0.461027
-0.290288 0.087196 -0.450892
-0.290288 0.409795 0.247150
-0.290288 -0.051875 0.460705
-0.290288 -0.442529 0.204766
-0.290288 -0.463054 -0.014910
-0.290288 0.379588 0.274296
-0.290288 0.207344 -0.449269
-0.290288 -0.050596 0.466712
-0.290288 -0.308357 0.350926
-0.290288 -0.434394 0.109707
-0.290288 0.180072 0.427847
-0.290288 -0.420311 -0.216909
-0.290288 0.114564 0.476290
-0.290288 0.106474 -0.480787
-0.290288 -0.380983 -0.253977
-0.290288 0.389713 0.272488
-0.290288 -0.461311 -0.022495
-0.290288 0.235218 0.422203
-0.290288 0.310868 0.320183
-0.290288 0.040540 -0.449770
-0.290288 -0.003406 -0.475843
-0.290288 -0.090140 0.466955
-0.290288 -0.441825 -0.157530
-0.290288 0.438058 0.087364
-0.290288 -0.020264 -0.454787
-0.290288 0.358395 0.313711
-0.290288 0.132109 -0.427607
-0.290288 -0.211378 -0.401030
-0.290288 0.465318 0.129892
-0.290288 -0.109547 0.464526
-0.290288 -0.168896 0.431303
-0.290288 0.347283 -0.334866
-0.290288 0.075946 0.452804
-0.290288 0.163667 0.463813
-0.290288 0.488355 -0.051962
-0.290288 0.045081 0.475830
-0.290288 -0.391068 0.219552
-0.290288 -0.250571 -0.398516
-0.290288 0.072253 0.482384
-0.290288 0.384275 -0.255614
-0.290288 0.100330 0.469442
-0.290288 0.080895 -0.478979
-0.290288 -0.347288 0.310516
-0.290288 -0.070515 -0.450529
-0.290288 -0.158481 -0.432641
-0.290288 -0.470090 -0.119574
-0.290288 -0.412700 -0.259166
-0.290288 -0.168756 0.447901
-0.290288 -0.431202 -0.168466
-0.290288 -0.306284 0.327524
-0.290288 0.144741 0.421668
-0.290288 0.461855 -0.159973
-0.290288 -0.470019 0.069106
-0.290288 0.450746 -0.169341
-0.290288 0.472178 0.101600
-0.290288 -0.450793 -0.171042
-0.290288 0.372820 0.328432
-0.290288 -0.414720 0.168065
-0.290288 -0.329380 -0.308131
-0.290288 -0.459920 -0.183951
-0.290288 0.388850 0.232509
-0.290288 -0.101077 -0.474320
-0.290288 -0.416502 -0.252090
-0.290288 0.458991 -0.179196
-0.290288 0.113319 0.448873
-0.290288 -0.298859 0.357138
-0.290288 -0.411912 -0.196990
-0.290288 -0.181213 0.417315
-0.290288 -0.466036 0.137033
-0.290288 0.420273 -0.168960
-0.290288 -0.319339 0.379491
-0.290288 -0.461666 -0.003622
-0.290288 -0.191073 -0.461624
-0.290288 0.434633 -0.115827
-0.290288 -0.193896 -0.439680
-0.290288 -0.461617 -0.055209
-0.290288 0.110291 0.469540
-0.290288 -0.427692 0.250976
-0.290288 -0.427465 -0.173618
-0.290288 -0.491414 -0.055280
-0.290288 0.290765 -0.341228
-0.290288 -0.470405 0.122929
-0.290288 0.047801 -0.468336
-0.290288 -0.260972 -0.402035
-0.290288 -0.420185 0.205235
-0.290288 0.278650 -0.393361
-0.290288 0.350586 0.337688
-0.290288 0.042970 -0.453738
-0.290288 0.003388 -0.470830
-0.290288 -0.162674 -0.452949
-0.290288 0.393951 -0.274746
-0.290288 0.145716 -0.460053
-0.290288 0.457377 -0.113169
-0.290288 0.399856 -0.232721
-0.290288 0.467354 -0.138635
-0.290288 -0.343315 -0.327048
-0.290288 0.418656 0.174295
-0.290288 0.204128 -0.447363
-0.290288 0.299231 -0.367487
-0.290288 0.391873 0.249252
-0.290288 -0.428343 -0.192290
-0.290288 0.442909 0.142172
-0.290288 0.189555 0.418733
-0.290288 0.025231 0.444222
-0.290288 -0.441315 0.117440
-0.290288 -0.419185 0.152169
-0.290288 0.244133 -0.383676
-0.290288 -0.195744 0.428233
-0.290288 -0.330824 -0.358769
-0.290288 -0.494769 -0.040411
-0.290288 0.286426 0.368926
-0.290288 -0.117651 0.450063
-0.290288 -0.471217 -0.029304
-0.290288 0.018599 -0.465875
-0.290288 -0.375900 0.243359
-0.290288 -0.260456 -0.412719
-0.290288 0.013129 -0.486750
-0.290288 -0.000565 0.490755
-0.290288 0.456905 0.167576
-0.290288 -0.474125 -0.017864
-0.290288 0.382933 -0.287310
-0.290288 0.352325 -0.317258
-0.290288 -0.144013 -0.466190
-0.290288 -0.121949 0.480212
-0.290288 -0.338279 0.361155
-0.290288 0.021057 -0.456446
-0.290288 -0.162392 0.465458
-0.290288 -0.178640 -0.445293
-0.290288 -0.118941 -0.438605
-0.290288 -0.328858 -0.341074
-0.290288 0.078213 0.479166
-0.290288 0.191071 -0.426928
-0.290288 -0.315066 0.357258
-0.290288 0.488022 -0.047761
-0.290288 0.475094 -0.054108
-0.290288 0.421351 -0.261552
-0.290288 -0.104530 0.432905
-0.290288 -0.217861 0.440799
-0.290288 -0.285605 -0.359778
-0.290288 -0.200547 -0.439963
-0.290288 0.206146 0.398751
-0.290288 -0.023433 0.460012
-0.290288 0.388593 0.269030
-0.290288 -0.454066 0.016342
-0.290288 0.444479 0.119119
-0.290288 0.138015 0.450098
-0.290288 -0.449281 0.142598
-0.290288 0.454541 -0.109547
-0.290288 -0.289108 0.379628
-0.290288 -0.402936 -0.272273
-0.290288 0.357907 0.320198
-0.290288 0.298544 -0.356210
-0.290288 -0.438423 -0.106387
-0.290288 -0.352203 -0.331224
-0.290288 -0.477814 0.056817
-0.290288 -0.212750 0.393884
-0.290288 0.454112 -0.053989
-0.290288 -0.071656 0.464467
-0.290288 -0.407140 -0.251171
-0.290288 0.411690 -0.205619
-0.290288 -0.273287 0.397529
-0.290288 -0.241403 -0.383072
-0.290288 -0.328442 -0.354677
-0.290288 0.201130 0.406083
-0.290288 -0.250312 -0.375280
-0.290288 0.008481 0.483749
-0.290288 -0.474722 -0.050595
-0.290288 -0.448352 -0.000656
-0.290288 0.445724 0.056102
-0.290288 0.142288 0.474910
-0.290288 0.223323 0.385976
-0.290288 -0.467206 0.146610
-0.290288 -0.261871 0.358035
-0.290288 0.375927 0.276241
-0.290288 0.467712 -0.052754
-0.290288 -0.337272 -0.356741
-0.290288 0.402329 -0.212584
-0.290288 0.418810 -0.235275
-0.290288 -0.250242 0.381231
-0.290288 0.331482 -0.358676
-0.290288 0.407415 -0.200079
-0.290288 -0.089439 -0.487709
-0.290288 -0.281555 0.343131
-0.290288 -0.442570 0.041573
-0.290288 0.333667 0.311381
-0.290288 -0.474253 -0.023011
-0.290288 0.215733 0.416252
-0.290288 0.422129 0.172647
-0.290288 -0.359420 0.323443
-0.290288 -0.194403 0.419603
-0.290288 -0.330694 0.346380
-0.290288 0.232324 -0.442657
-0.290288 -0.250825 0.408163
-0.290288 -0.476805 -0.041380
-0.290288 -0.072682 0.472400
-0.290288 0.244414 -0.419378
-0.290288 0.353831 0.278507
-0.290288 0.283919 -0.401606
-0.290288 -0.380539 0.289609
-0.290288 -0.012800 0.490890
-0.290288 -0.193318 0.454953
-0.290288 0.080286 0.446938
-0.290288 -0.426018 -0.223171
-0.290288 -0.474225 -0.006731
-0.290288 0.131966 0.460280
-0.290288 -0.269270 0.366724
-0.290288 0.398833 0.238302
-0.290288 -0.001705 -0.495986
-0.290288 0.417443 -0.158832
-0.290288 -0.496113 -0.031049
-0.290288 -0.017158 -0.485147
-0.290288 0.064671 -0.485154
-0.290288 0.470965 -0.162658
-0.290288 0.298406 -0.338600
-0.290288 0.231815 0.429056
-0.290288 0.449168 -0.034280
-0.290288 -0.182600 -0.418207
-0.290288 0.388626 -0.307462
-0.290288 -0.064386 0.461762
-0.290288 -0.266133 -0.372140
-0.290288 -0.032730 -0.471085
-0.290288 -0.467747 -0.020450
-0.290288 -0.047369 -0.466653
-0.290288 -0.289080 0.402581
-0.290288 -0.289299 -0.365436
-0.290288 -0.329814 -0.371105
-0.290288 -0.456688 0.195112
-0.290288 -0.365323 0.315855
-0.290288 -0.435196 0.229510
-0.290288 -0.055853 -0.445981
-0.290288 0.069790 0.488245
-0.290288 0.126580 -0.450916
-0.290288 -0.375647 0.294547
-0.290288 -0.421970 -0.260222
-0.290288 -0.005696 0.477660
-0.290288 -0.093238 0.441834
-0.290288 0.184847 -0.439131
-0.290288 -0.469342 -0.108617
-0.290288 0.478351 -0.062891
-0.290288 -0.407545 -0.217086
-0.290288 0.491082 0.009537
-0.290288 0.448863 0.011234
-0.290288 -0.350231 0.338172
-0.290288 -0.296031 0.341612
-0.290288 0.083271 0.477892
-0.290288 -0.208468 -0.431747
-0.290288 -0.331840 -0.304619
-0.290288 0.264269 -0.404974
-0.290288 0.243406 -0.422716
-0.290288 0.362017 0.326069
-0.290288 0.420811 0.181441
-0.290288 0.403102 -0.232748
-0.290288 -0.113343 0.480849
-0.290288 -0.422027 -0.200100
-0.290288 0.035771 -0.461252
-0.290288 0.450874 0.149907
-0.290288 0.359837 0.294711
-0.290288 0.162180 0.419907
-0.290288 0.313939 -0.346009
-0.290288 -0.407568 -0.255937
-0.290288 0.058565 0.469817
-0.290288 0.454585 -0.185385
-0.290288 -0.463490 -0.049579
-0.290288 -0.201364 -0.418097
-0.290288 0.431385 0.240274
-0.290288 -0.215356 -0.415714
-0.290288 -0.435627 0.123613
-0.290288 0.142625 -0.442406
-0.290288 -0.307611 -0.332644
-0.290288 -0.423308 -0.147688
-0.290288 -0.385703 -0.293568
-0.290288 0.410296 0.243256
-0.290288 0.269959 0.355697
-0.290288 0.040285 0.471900
-0.290288 0.249569 0.404483
-0.290288 -0.488304 0.091178
-0.290288 0.323838 -0.326559
-0.290288 0.161822 0.468529
-0.290288 0.228587 -0.410698
-0.290288 -0.367092 -0.302237
-0.290288 -0.187189 -0.424666
-0.290288 0.337430 0.333928
-0.290288 -0.159196 -0.455210
-0.290288 -0.481139 -0.009690
-0.290288 -0.106584 -0.454452
-0.290288 0.359769 -0.300832
-0.290288 0.468991 0.110581
-0.290288 -0.118912 -0.435311
-0.290288 0.098771 -0.490263
-0.290288 -0.389216 0.238852
-0.290288 0.099616 -0.485891
-0.290288 0.317190 -0.332881
-0.290288 0.444735 0.192076
-0.290288 0.416593 -0.226145
-0.290288 -0.360589 0.326267
-0.290288 0.465936 0.143027
-0.290288 -0.479527 -0.128995
-0.290288 -0.004795 -0.486283
-0.290288 0.469630 0.122097
-0.290288 -0.464330 0.148047
-0.290288 -0.434717 -0.173330
-0.290288 0.423706 0.178151
-0.290288 -0.458493 -0.136851
-0.290288 0.053511 -0.458648
-0.290288 0.076158 0.436674
-0.290288 0.404678 -0.227507
-0.290288 -0.112039 -0.448397
