0.286960 0.439973 0.163368
0.286960 -0.352203 0.301692
0.286960 -0.446040 -0.048740
0.286960 0.342859 -0.336405
0.286960 -0.480006 0.111337
0.286960 -0.361765 -0.301202
0.286960 -0.455650 0.075523
0.286960 -0.406031 0.189311
0.286960 0.270451 0.366637
0.286960 0.425341 0.134305
0.286960 0.159416 -0.473958
0.286960 0.161974 -0.438232
0.286960 -0.390851 0.273667
0.286960 -0.403604 0.195994
0.286960 0.280211 -0.355473
0.286960 -0.454807 0.118221
0.286960 0.405063 -0.280142
0.286960 -0.484744 0.072210
0.286960 -0.306495 -0.382830
0.286960 0.270214 -0.397178
0.286960 -0.452164 0.032784
0.286960 0.188967 -0.413781
0.286960 -0.466466 0.099264
0.286960 -0.372487 -0.288530
0.286960 -0.374191 0.310566
0.286960 -0.030681 0.466195
0.286960 -0.425152 -0.189297
0.286960 -0.014127 0.453811
0.286960 -0.233482 0.383834
0.286960 0.136822 -0.449628
0.286960 -0.092865 -0.475712
0.286960 -0.216097 0.415696
0.286960 0.450039 0.210992
0.286960 0.138545 0.423028
0.286960 0.472017 -0.120164
0.286960 0.397019 0.298936
0.286960 -0.470311 0.035440
0.286960 -0.446497 -0.077330
0.286960 -0.380407 -0.294514
0.286960 -0.052543 -0.493819
0.286960 0.009738 0.487085
0.286960 -0.449796 -0.037550
0.286960 0.228601 -0.406575
0.286960 0.308884 -0.332070
0.286960 -0.279476 -0.352742
0.286960 0.057004 0.467487
0.286960 0.278960 -0.396223
0.286960 0.197825 0.398642
0.286960 -0.299704 -0.388400
0.286960 -0.173825 0.424400
0.286960 0.001474 -0.468649
0.286960 -0.019828 -0.465441
0.286960 0.395930 0.254021
0.286960 0.181621 0.439684
0.286960 -0.346136 -0.337522
0.286960 -0.475840 0.127766
0.286960 0.453951 -0.187348
0.286960 0.444253 -0.216529
0.286960 0.098992 0.469455
0.286960 0.279865 0.374518
0.286960 0.435641 0.232151
0.286960 0.336356 0.324434
0.286960 -0.343217 -0.309657
0.286960 -0.291568 -0.405505
0.286960 -0.371751 0.297730
0.286960 0.257830 0.423577
0.286960 -0.460009 -0.128912
0.286960 0.291370 0.374824
0.286960 0.423200 -0.217895
0.286960 -0.320219 -0.338221
0.286960 0.469100 -0.139457
0.286960 0.007698 0.476454
0.286960 0.133426 -0.438765
0.286960 0.055311 0.471618
0.286960 0.383615 -0.229136
0.286960 0.148537 0.417877
0.286960 -0.463279 0.108987
0.286960 -0.206133 0.403566
0.286960 0.212785 0.426134
0.286960 0.389400 0.238057
0.286960 -0.030901 0.453386
0.286960 0.484176 -0.064163
0.286960 -0.023399 0.447401
0.286960 -0.055036 0.454186
0.286960 0.212888 -0.427799
0.286960 -0.459299 -0.077109
0.286960 -0.080904 0.485785
0.286960 0.294240 0.399949
0.286960 0.175561 -0.428644
0.286960 -0.195758 -0.448595
0.286960 -0.194083 0.454073
0.286960 0.417806 -0.236316
0.286960 -0.370213 -0.293222
0.286960 -0.468162 -0.098073
0.286960 0.106201 -0.447330
0.286960 -0.042038 0.493575
0.286960 0.259012 -0.423268
0.286960 -0.144720 -0.433875
0.286960 0.444767 -0.181435
0.286960 0.315697 0.360815
0.286960 0.080230 0.438882
0.286960 -0.319768 0.307503
0.286960 0.429027 0.238625
0.286960 -0.381885 0.292042
0.286960 -0.412977 -0.254611
0.286960 0.115598 0.458364
0.286960 -0.212706 0.436084
0.286960 0.496582 0.033324
0.286960 -0.458555 0.095654
0.286960 -0.223708 0.395561
0.286960 -0.445373 0.152169
0.286960 0.379934 0.230974
0.286960 -0.354194 0.277058
0.286960 -0.485041 0.081317
0.286960 0.251319 0.384814
0.286960 0.315085 -0.322504
0.286960 -0.277921 -0.371820
0.286960 -0.319929 0.311068
0.286960 0.049781 -0.469443
0.286960 0.432420 0.132041
0.286960 0.239419 0.393245
0.286960 -0.363233 -0.317502
0.286960 0.490179 -0.005847
0.286960 -0.182564 -0.434795
0.286960 0.457156 -0.020667
0.286960 -0.189628 0.448776
0.286960 -0.203573 0.435750
0.286960 0.306491 0.321827
0.286960 0.122988 -0.440480
0.286960 0.404664 -0.244292
0.286960 0.058191 0.447354
0.286960 -0.247624 -0.421937
0.286960 -0.202612 -0.410683
0.286960 0.333989 0.348792
0.286960 -0.419203 0.229680
0.286960 0.323302 0.327670
0.286960 -0.141264 0.445254
0.286960 -0.078553 0.444990
0.286960 0.217463 0.393967
0.286960 -0.084943 0.464924
0.286960 -0.163566 -0.428766
0.286960 0.220441 0.385561
0.286960 0.261754 0.367659
0.286960 -0.387000 0.250838
0.286960 -0.456096 0.176333
0.286960 -0.024421 0.481830
0.286960 -0.164047 0.431865
0.286960 -0.464150 -0.162962
0.286960 0.206066 0.420030
0.286960 0.440368 -0.175360
0.286960 -0.275004 -0.369307
0.286960 0.480193 0.122974
0.286960 -0.439891 0.065129
0.286960 -0.430369 -0.219067
0.286960 -0.484361 0.028301
0.286960 -0.458301 -0.042722
0.286960 -0.448643 -0.087517
0.286960 0.250595 0.374141
0.286960 0.036051 -0.449910
0.286960 -0.310696 -0.390601
0.286960 -0.240693 0.379942
0.286960 -0.359530 -0.319954
0.286960 0.107939 0.441475
0.286960 0.418410 0.268346
0.286960 -0.484011 -0.117509
0.286960 0.009244 -0.485350
0.286960 -0.429330 -0.137332
0.286960 0.477828 0.105405
0.286960 -0.486772 0.100651
0.286960 0.493617 0.036022
0.286960 -0.493645 -0.061417
0.286960 -0.135690 0.476483
0.286960 -0.186628 0.417089
0.286960 0.343717 0.291068
0.286960 0.081373 -0.485314
0.286960 0.289183 -0.353271
0.286960 0.317310 0.322992
0.286960 0.424666 -0.227708
0.286960 -0.427537 -0.169520
0.286960 0.091477 0.443165
0.286960 0.462529 0.006269
0.286960 0.137496 -0.439965
0.008363 0.498458 0.001905
-0.162411 0.001698 0.495864
-0.178920 0.129382 -0.483164
-0.019844 0.473264 0.154306
0.286473 0.259703 -0.427545
0.231362 0.128530 -0.483399
0.165971 -0.478926 -0.136659
0.260499 0.427908 -0.257702
-0.227765 -0.454311 -0.205233
-0.061579 -0.059523 0.492260
0.017035 -0.140223 -0.479837
-0.209030 0.291628 -0.406299
0.275680 0.494675 -0.063944
-0.153040 0.379124 0.321238
0.061808 0.001364 0.495858
0.164002 0.494595 -0.064684
-0.116237 0.227855 -0.445260
-0.163325 0.310487 -0.392071
0.000253 0.185061 -0.464716
0.248773 -0.019390 0.495484
-0.151171 0.482820 -0.126304
-0.200102 0.404500 0.289117
0.180804 -0.361787 0.339558
-0.129293 0.454903 0.201918
0.255235 0.425881 0.257013
0.204285 0.498578 -0.010487
-0.210098 -0.203884 0.452088
-0.103026 -0.461473 0.183984
-0.116480 -0.420822 0.263292
-0.203397 0.423122 -0.265554
0.202761 0.340629 -0.365996
0.117922 0.278837 -0.415094
0.099424 -0.219482 0.444528
-0.267802 0.327260 0.373698
-0.011357 -0.297633 0.396642
-0.255689 -0.470425 0.160127
-0.285901 -0.482684 0.118210
0.185313 0.241368 -0.438059
-0.124659 -0.494867 0.048331
0.275988 -0.089647 0.487683
0.064399 0.489861 0.090422
0.256404 0.397270 0.298701
-0.254042 -0.496148 -0.038089
-0.237027 -0.161176 0.468779
0.051340 0.119182 0.481428
-0.023432 0.477981 -0.143540
-0.020814 -0.282309 0.407772
0.170544 0.367924 0.334250
0.139695 0.402412 0.291885
-0.160925 -0.315491 -0.387059
-0.115381 0.441158 -0.234068
-0.086240 -0.050091 0.493293
-0.100162 0.002426 -0.500161
-0.226692 -0.358316 0.343391
-0.161423 0.487703 0.100721
-0.147462 0.148135 0.473382
-0.023232 -0.495642 -0.044330
0.038669 -0.301300 -0.398375
0.171672 0.113224 -0.487312
-0.223993 -0.195406 -0.460035
-0.184366 0.165121 0.467895
-0.119249 -0.438913 0.232033
0.199357 0.309288 0.388470
0.057190 -0.496949 -0.028198
0.156303 -0.174645 0.464133
0.046454 -0.496854 -0.029377
0.149823 -0.205030 0.451610
-0.166490 -0.441017 -0.232674
0.218637 -0.384945 0.313106
-0.050533 -0.409168 0.280864
-0.229102 -0.274014 -0.417812
-0.001632 0.055139 0.492757
0.200922 -0.423486 -0.263717
0.104538 0.479748 0.133040
0.005342 -0.449287 -0.215890
-0.074813 0.404381 0.289275
-0.141435 -0.239513 -0.438540
0.157332 -0.411992 0.276827
-0.259102 -0.154672 -0.475428
0.093114 0.466043 0.175198
-0.173190 0.114714 -0.487000
-0.105102 -0.114741 -0.486593
0.285390 0.434844 0.241383
-0.250144 -0.319753 -0.383661
0.010057 -0.036355 0.494406
0.131274 -0.385069 0.312951
-0.150866 0.349353 0.353326
-0.088151 -0.495196 0.045280
0.118292 0.186232 0.459974
0.065553 0.493327 -0.074488
-0.098886 -0.157232 0.470140
0.205543 0.113008 0.482895
0.067481 -0.487873 0.095859
-0.276118 0.497984 0.023718
-0.082125 0.172803 0.465013
-0.040469 0.190846 -0.462304
-0.237156 0.044064 0.493954
0.173049 0.395534 -0.305465
0.013677 -0.393048 -0.307292
0.176661 -0.490479 -0.086023
-0.044199 -0.073730 0.490204
0.270289 0.007085 -0.500077
0.280950 0.418749 -0.272727
0.020995 -0.429918 0.248372
-0.256889 -0.484445 0.110797
0.038217 0.279152 -0.414886
-0.248721 0.231375 -0.443526
-0.215223 -0.386549 -0.315743
-0.022262 -0.485760 -0.109459
0.023077 -0.493185 0.063889
-0.210558 0.459127 -0.196411
0.180496 -0.168078 0.466399
-0.144656 -0.456411 -0.200195
-0.113019 0.431189 -0.252321
-0.289912 0.447774 0.216686
0.143468 0.457339 0.196074
0.111984 -0.456590 -0.199766
-0.131603 -0.027117 -0.499376
-0.142468 0.486166 0.108062
-0.264703 0.443295 -0.230010
-0.042506 0.425595 0.257511
-0.203033 -0.434183 -0.245102
-0.119540 -0.346061 0.355357
-0.194825 0.452346 -0.211520
0.184484 -0.491659 0.073869
0.142624 -0.118886 -0.485608
0.231615 -0.472973 -0.156532
0.075384 0.472073 0.157760
-0.117556 0.362321 -0.344454
-0.231538 0.461693 -0.190483
0.040439 0.072466 0.490699
0.150881 0.403379 -0.294961
0.045873 0.301752 0.394479
-0.182379 -0.097044 -0.490645
0.161078 0.387917 0.310990
-0.245666 0.264944 -0.424266
-0.034489 -0.269773 0.416048
-0.143664 -0.495192 0.045321
0.234468 0.496252 0.045097
-0.140741 0.257554 0.424296
0.124888 0.407910 -0.288482
0.128569 0.399296 0.296015
-0.126500 0.013755 0.495668
-0.200284 0.379331 -0.325673
-0.005838 0.498552 -0.011075
-0.024866 0.283574 0.407490
-0.122515 0.373329 -0.332301
-0.005810 -0.469446 -0.166759
-0.018235 0.446487 -0.223947
-0.188181 -0.486530 -0.105785
-0.199459 0.340437 -0.366183
0.088908 0.441332 0.229761
-0.109438 -0.184118 0.460329
0.252009 0.214575 0.447540
0.279803 -0.358170 -0.347570
-0.263492 0.193766 -0.461087
0.019143 -0.494943 0.047620
0.192942 -0.334661 0.366345
0.202162 0.123273 0.480455
-0.177037 -0.444189 -0.226235
0.011294 -0.419409 -0.269892
0.050044 0.416789 0.271059
-0.147825 -0.497545 -0.000013
0.160221 -0.453277 -0.207713
0.201072 -0.086542 0.488333
0.154649 0.274596 0.413768
0.093249 -0.002449 0.495789
0.106711 -0.314449 0.383688
-0.255409 -0.057747 -0.496718
-0.146135 -0.263926 0.419908
0.286211 -0.288113 0.403824
-0.068195 0.291725 0.401789
0.058557 0.445055 -0.226667
0.275354 -0.494231 0.054212
-0.276072 0.479834 0.132727
0.272775 -0.406995 -0.288695
-0.106103 0.372720 0.328700
-0.201890 -0.341569 0.359730
0.084589 -0.497604 0.005010
0.142259 0.431010 -0.252615
0.020685 0.133923 0.477718
0.159183 0.460938 -0.192375
-0.014775 -0.062829 0.491782
0.272500 -0.430759 0.246991
-0.152133 0.016435 0.495548
-0.135654 0.402860 -0.295702
-0.010288 0.444661 0.223005
-0.162481 0.277135 0.411993
-0.221979 -0.332623 0.368094
-0.091775 0.285708 0.405997
0.111711 0.255102 -0.430183
0.191851 -0.495628 0.041283
0.010899 -0.495693 -0.043696
-0.072711 -0.279559 0.409587
-0.007053 -0.437697 -0.238975
-0.216301 -0.097699 -0.490532
-0.122512 -0.378716 -0.324872
-0.040265 0.220388 -0.448940
-0.068610 -0.480471 -0.131060
-0.271659 -0.156669 -0.474818
-0.224559 -0.494186 0.054629
-0.029833 0.426504 0.255927
0.049561 0.495504 -0.056273
-0.136472 0.428647 0.252190
0.210112 -0.241419 -0.437536
-0.290117 -0.455653 0.197515
0.117386 -0.474364 0.147681
-0.132504 -0.471512 0.157027
0.132797 0.288852 0.403799
-0.285503 0.140493 0.475713
-0.231650 -0.252847 0.426535
-0.263288 -0.478895 0.132831
0.212616 0.473971 0.152257
0.030162 -0.084159 0.488696
-0.244312 0.463222 -0.186408
-0.129153 0.318305 0.381280
-0.146913 0.482711 0.122305
0.172202 0.233011 -0.442720
-0.042840 0.007915 0.495930
0.272548 -0.239786 -0.438396
-0.016097 -0.000475 0.495824
0.074480 -0.493829 -0.062873
0.063726 0.399395 -0.300623
0.141298 -0.494982 -0.052482
-0.265145 0.366378 -0.339975
-0.041778 0.396754 -0.303935
0.059779 -0.319656 -0.383738
0.139119 0.019567 0.495407
0.014360 0.392286 -0.309539
0.066015 0.388523 0.310284
-0.030012 0.334067 -0.372087
-0.220930 0.339758 0.362378
0.003356 0.126352 0.479724
0.135960 -0.187813 -0.463350
-0.204532 0.238825 -0.439517
0.142001 0.490943 -0.088334
0.254236 -0.100485 -0.489981
-0.260012 0.222950 0.443447
0.107953 0.490578 0.087002
0.049944 -0.091562 -0.491589
0.198066 0.492936 -0.076760
-0.152520 0.009513 -0.500033
-0.162008 0.137171 -0.481014
-0.225489 0.476410 0.145131
0.196695 -0.096880 0.486168
0.260713 0.416495 0.271504
0.100504 -0.413095 0.275249
-0.239113 -0.023097 -0.499557
-0.104254 -0.258805 0.423119
0.112100 0.378531 0.321929
0.204041 -0.332635 -0.372254
0.160023 -0.470810 -0.162805
-0.093791 0.025389 -0.499731
0.170903 -0.313270 0.384700
0.195744 0.211695 0.448832
-0.177078 0.491511 0.081620
-0.192218 0.062422 -0.496342
-0.051145 -0.477890 -0.140413
-0.210011 -0.494980 -0.052496
0.153732 -0.421368 -0.266925
0.099048 0.159671 -0.474006
-0.213630 -0.184533 0.460156
-0.270681 -0.485033 0.108323
-0.138710 0.492343 -0.080200
-0.101432 0.335158 -0.371151
-0.058551 0.498448 0.002418
0.002454 -0.012359 0.495610
0.281622 0.484582 0.115529
-0.252895 -0.458685 0.190757
0.011004 0.459931 -0.194619
-0.128290 -0.258980 0.423018
0.284500 0.222265 -0.448015
-0.170156 0.201003 -0.458070
0.210720 -0.380299 0.318932
-0.004098 0.326298 -0.378753
0.047318 0.497267 0.032575
0.076646 0.201467 -0.457876
0.257228 0.227609 0.440993
-0.112969 -0.233787 -0.441554
-0.142861 -0.493748 0.058684
-0.203528 0.100439 -0.489990
-0.159275 -0.127690 -0.483516
0.261844 0.386238 0.312947
0.024113 -0.314354 -0.387966
0.113411 0.053295 -0.497470
0.154691 0.498203 0.016046
-0.168362 -0.182259 -0.465434
0.174189 -0.398528 0.296072
-0.214733 -0.466483 0.170633
0.078533 -0.423489 0.258918
-0.159474 -0.146416 -0.477947
0.119226 -0.359410 0.342183
0.072127 -0.299245 0.395426
-0.266428 -0.354331 -0.351514
-0.237690 -0.267865 -0.421738
0.110182 0.265260 0.419597
0.168225 0.313464 -0.389766
-0.286476 -0.496295 0.034201
-0.216004 0.484832 0.114427
0.285819 -0.075702 -0.494319
-0.139202 0.118880 -0.486063
-0.175032 -0.197765 0.454639
0.229125 0.113980 -0.487153
0.039684 -0.197043 0.454940
0.130099 0.429515 -0.255068
-0.090085 -0.497383 -0.009012
-0.276512 0.132799 0.478061
-0.097957 -0.490984 0.077792
-0.207386 0.316703 0.382557
0.195365 -0.135534 0.476830
-0.128851 -0.324315 0.375222
0.028660 0.186867 -0.463963
-0.143538 -0.496398 0.031893
0.154235 -0.340212 0.361051
0.230735 -0.446381 0.217849
-0.079793 0.119331 0.481392
-0.102648 0.476742 0.143930
0.229721 0.207182 -0.455447
0.234301 -0.417361 0.268970
0.115293 -0.340053 -0.365536
0.025891 0.150130 -0.477297
0.264316 0.453900 -0.208057
-0.155064 0.095607 -0.491002
-0.202943 -0.023098 0.495417
0.129293 -0.335236 -0.369899
-0.102127 -0.032221 -0.499147
0.036641 -0.485255 -0.111871
0.066852 -0.425610 -0.260052
0.212866 -0.419699 -0.269452
0.172212 0.498226 -0.018338
0.259020 -0.319955 0.378964
0.074538 -0.225378 0.441622
0.072923 0.020150 -0.499842
-0.041037 -0.464125 -0.181694
-0.171897 0.286967 -0.409727
0.147078 -0.414955 -0.276639
0.212929 0.279104 -0.414918
-0.152388 0.195015 -0.460566
-0.259498 -0.495382 -0.047536
-0.165949 -0.120753 0.480910
0.063134 -0.148220 0.473249
0.053651 -0.296308 -0.402221
-0.255024 0.348073 0.354641
-0.083055 -0.490864 0.078489
0.281744 0.484695 -0.118414
-0.053216 -0.463532 0.178497
0.272870 0.126097 0.479784
0.062238 0.120594 0.481092
0.226938 -0.402247 0.290761
0.275769 0.478654 -0.141334
0.087768 0.222164 -0.448065
-0.159332 -0.445570 0.219389
0.104578 0.000510 0.495842
0.243712 0.475744 -0.150870
0.172977 0.490220 -0.092532
0.056248 0.483771 -0.122301
-0.024315 -0.492402 0.069553
0.116974 -0.468132 0.166237
0.168928 -0.015223 0.495559
0.184830 0.178889 -0.467289
-0.051532 -0.492689 -0.070748
0.027535 -0.491435 0.075169
0.012444 0.021847 0.495305
-0.093491 -0.451583 0.206585
0.275500 -0.485744 0.105333
-0.205644 -0.382799 -0.320114
-0.040584 0.451789 -0.212761
0.130314 0.491526 -0.084949
0.131247 0.122306 -0.485118
-0.009804 0.163285 0.468585
0.240743 -0.284479 0.406339
0.091632 0.312750 0.385709
-0.174469 0.451669 0.208783
0.190181 0.429540 -0.255026
-0.064382 -0.437913 0.233932
0.283409 -0.364929 0.336090
-0.235164 0.356345 -0.350696
0.095910 0.477858 0.139888
0.282589 -0.444832 0.220792
-0.274981 -0.446847 -0.220841
0.272125 0.415361 0.273222
-0.121842 -0.416466 -0.274350
-0.214207 0.156276 -0.475177
0.078151 0.209386 0.449868
0.275654 -0.306034 0.390304
-0.104734 0.276128 0.412697
0.049897 -0.496228 0.035693
-0.180488 -0.089212 0.487774
-0.272586 -0.496547 0.028583
0.062117 0.278001 -0.415646
-0.094169 -0.352255 -0.353646
0.038350 0.027529 0.495050
-0.260322 0.149327 0.473018
0.114624 0.488501 0.096915
-0.173359 -0.063913 0.491625
0.105604 -0.423154 -0.264219
-0.042469 0.158639 -0.474362
0.064671 -0.477107 0.138692
0.251662 0.498228 0.014648
0.026932 -0.446721 0.217203
-0.015553 0.065559 0.491631
0.111975 0.446933 0.218394
-0.045678 -0.342337 -0.363467
0.051710 -0.011839 -0.500061
0.087250 -0.415135 -0.276365
0.087019 -0.373639 0.326473
-0.250965 0.324592 -0.380218
-0.047317 0.065579 -0.495885
-0.058695 0.385663 -0.317845
-0.234650 -0.488112 0.094471
0.099915 -0.378066 0.321586
0.268813 0.304649 -0.396476
0.052560 0.463048 -0.186872
-0.116322 -0.398436 -0.300150
0.084111 -0.342684 -0.363153
0.047326 -0.342826 0.358506
0.028975 0.012613 -0.499978
-0.142637 -0.068976 -0.495477
-0.230449 -0.354207 -0.351641
-0.147253 -0.145293 -0.478290
-0.031842 0.497611 -0.032049
0.010097 0.461274 0.186636
0.078472 0.088283 -0.492537
-0.182212 0.281086 0.409230
-0.047296 0.233907 0.437677
0.233206 -0.494998 0.047113
-0.215586 0.228219 -0.445081
0.189836 -0.494932 -0.053099
0.056786 0.153727 0.471675
-0.074451 0.302412 0.393952
-0.164892 -0.395103 0.300367
0.079518 0.145061 -0.478836
0.125235 0.489897 0.090250
-0.054080 -0.019801 -0.499704
-0.097282 -0.100256 0.485460
0.050645 0.426618 0.255728
-0.122493 -0.490948 0.077998
-0.249628 -0.420143 -0.268780
-0.276557 0.259042 -0.427924
-0.147005 0.268946 -0.421623
-0.276961 0.042034 0.494173
0.069842 0.457327 -0.200421
-0.090321 0.498131 0.020031
-0.074471 -0.432019 0.244925
-0.202778 -0.287970 -0.408052
-0.187635 -0.033393 0.494646
-0.162359 -0.481596 0.122788
-0.000718 -0.058832 -0.496601
-0.016662 0.344133 0.358415
-0.158483 -0.220349 0.444101
-0.079007 0.081527 0.489139
-0.185258 -0.496361 0.032727
-0.105611 0.186776 0.459770
0.236088 0.497456 0.030231
-0.176843 0.494956 -0.061343
0.045680 -0.362458 0.338817
-0.085810 -0.026845 0.495176
-0.225653 -0.105010 -0.488905
-0.074506 0.490227 0.088675
0.251025 -0.375791 0.324097
0.190153 -0.221250 0.443656
-0.238781 -0.067314 0.491133
-0.128096 -0.300532 0.394455
-0.038667 -0.042264 -0.498391
0.102064 -0.197310 -0.459180
-0.101760 -0.497482 -0.003561
0.109190 -0.125432 -0.484052
0.184777 -0.407390 -0.288097
-0.093960 -0.332329 -0.372531
-0.163658 0.430486 0.248982
-0.235154 0.016258 0.495556
-0.226475 0.494092 0.063786
0.078700 -0.475061 0.145398
0.277080 0.482212 -0.128863
0.072141 -0.436700 -0.240712
-0.004271 -0.397156 0.297792
0.170868 -0.229569 0.439557
0.211659 -0.071010 -0.495127
0.187643 -0.469167 0.163478
-0.162480 0.385810 -0.317660
-0.288257 -0.465477 -0.178263
0.137528 0.454402 -0.206939
0.209031 -0.394554 0.301056
0.051386 -0.480688 -0.130277
-0.253195 0.488888 -0.100272
0.185203 -0.274173 0.413143
-0.100156 0.484722 -0.118301
0.050631 -0.438022 -0.238407
-0.162255 -0.336912 -0.368381
-0.011571 -0.014211 0.495577
-0.058568 -0.496301 0.034052
0.271253 -0.483283 0.115689
-0.069338 -0.472228 0.154681
-0.221898 0.498211 0.015621
0.094495 0.380538 -0.324271
0.087293 -0.003407 -0.500266
-0.009701 0.395531 0.301006
-0.090349 0.458717 0.192769
-0.167095 -0.050485 0.493261
-0.129674 -0.167501 -0.470971
-0.267564 -0.434089 0.241194
0.169972 0.493111 -0.075738
-0.125442 0.486278 -0.111753
-0.278984 -0.367127 -0.338370
0.222300 0.491555 0.081321
0.249268 0.119165 -0.485985
0.141471 -0.467526 0.167851
-0.270687 -0.343708 0.357648
-0.217495 0.121003 -0.485477
-0.182658 0.495718 0.051689
-0.067877 -0.162784 -0.472741
-0.120196 0.018689 -0.499868
0.033567 -0.365274 -0.340273
0.170452 -0.106499 -0.488552
0.130227 -0.224316 -0.446541
0.143391 0.373739 0.327513
0.055896 -0.196895 -0.459367
0.119784 -0.488621 0.091517
0.237761 -0.021177 -0.499643
0.022999 -0.292501 0.400514
0.229183 0.426791 0.255426
-0.024748 -0.117664 -0.485898
0.251035 -0.187882 -0.463323
-0.096040 0.148531 -0.477848
-0.034093 -0.162911 -0.472694
0.014798 -0.445138 0.220209
0.033247 -0.429636 0.248835
-0.009840 0.106392 -0.488743
0.147216 -0.170024 0.465727
0.126515 0.485314 -0.115810
-0.219574 0.476452 -0.148548
0.161815 0.486451 -0.111023
0.223997 0.393950 0.303102
-0.154494 -0.091821 -0.491544
0.103411 -0.238144 -0.439261
-0.286369 0.462842 0.182876
-0.262590 0.014066 0.495654
-0.011952 0.026412 0.495100
0.155760 -0.390816 0.305743
0.015640 0.425452 0.257760
-0.023523 -0.258865 0.423084
0.119774 -0.320516 0.378482
0.171159 0.367306 -0.338950
-0.074397 -0.358369 -0.347366
0.148239 0.418903 -0.272474
-0.208898 -0.497304 -0.013437
-0.128281 0.463580 -0.185454
-0.088139 0.245725 0.431455
0.013874 -0.244891 0.431097
0.176777 0.494469 0.061174
-0.148778 -0.456790 0.194981
-0.057716 -0.093423 -0.491268
-0.210407 -0.222113 -0.447701
0.128147 -0.305742 -0.394833
0.248500 -0.496424 0.031316
0.053288 -0.327977 -0.376473
-0.170254 0.489644 0.091457
-0.122865 -0.403300 0.289254
-0.191098 0.047899 0.493540
0.286594 -0.497571 0.001406
-0.080041 0.000024 0.495833
-0.061347 -0.465598 -0.177913
-0.106486 0.359241 -0.347855
-0.235103 0.481182 -0.133047
0.080936 -0.495377 0.043610
-0.187396 0.059015 0.492338
0.190909 -0.368640 -0.336615
-0.230205 0.363762 0.338525
-0.016482 -0.420451 -0.268313
0.129237 -0.237001 -0.439862
-0.141154 -0.298829 -0.400345
0.042945 -0.371911 0.328381
0.083225 0.491061 -0.087647
-0.087281 -0.240668 -0.437932
0.084407 -0.450751 0.208437
0.167820 0.304513 -0.396578
0.193782 0.096932 0.486487
-0.015543 -0.446465 0.217689
-0.270317 -0.116798 -0.486104
-0.118619 -0.222206 -0.447653
-0.194331 -0.323369 -0.380646
-0.253721 0.496207 0.045656
0.151150 -0.464483 -0.180834
0.285022 0.151343 -0.476878
0.003090 -0.334253 -0.370789
0.070246 -0.497050 0.017351
-0.290174 -0.310133 -0.391332
0.037140 -0.106049 0.484247
0.253718 0.119433 0.481368
0.253756 -0.497052 0.017320
0.103023 0.102687 0.485348
0.090390 -0.493213 0.063635
-0.227527 0.262790 0.421103
-0.123148 0.104528 -0.489133
0.241813 -0.431771 -0.249307
-0.214095 -0.412317 -0.280635
-0.215034 0.474602 0.150428
-0.157603 -0.448844 -0.216789
0.098082 -0.393562 0.302300
0.242285 -0.423094 -0.264309
-0.164865 -0.079516 -0.493662
-0.126014 -0.273295 -0.418315
-0.029190 0.471075 0.160654
0.264038 -0.485228 0.107506
-0.099794 -0.497238 -0.017105
-0.023805 -0.074693 0.490065
0.173141 0.446526 0.219220
-0.094011 0.100417 -0.489995
-0.261999 -0.436913 -0.240341
0.000843 0.047490 -0.497940
-0.178996 -0.009714 -0.500157
0.033123 -0.486654 0.101503
-0.032494 0.096696 -0.490774
-0.202594 -0.466297 -0.175886
0.000715 0.272799 -0.419080
0.052431 -0.487186 -0.102651
-0.018997 0.495516 0.053937
-0.233532 -0.224397 0.442106
0.008807 -0.486580 -0.105546
0.121881 -0.038395 -0.498809
0.186888 0.406638 -0.290301
0.276428 0.364071 0.338208
0.244813 -0.067802 0.491062
0.213592 0.294063 -0.404462
-0.083202 0.031118 0.494889
-0.152241 -0.378930 -0.324623
-0.054743 0.196622 -0.459896
0.015689 -0.469919 0.161476
0.032550 0.109719 0.483676
-0.220344 0.031687 -0.499221
-0.266651 0.489158 -0.098701
0.057855 -0.494763 0.049290
0.008325 0.298356 -0.401223
-0.196520 -0.396992 0.297998
0.096475 -0.409843 -0.284381
0.210080 0.119636 -0.485855
0.267142 0.498469 -0.012934
-0.022718 0.351160 -0.355744
-0.211559 -0.279609 -0.413899
-0.093797 -0.328529 0.371607
0.036504 0.464022 -0.184275
-0.156883 -0.305836 0.390454
0.057148 0.101012 0.485746
0.268922 -0.359706 -0.345993
0.284219 -0.490611 0.079955
-0.167136 -0.497301 -0.013566
0.181462 -0.057181 -0.496779
0.200189 -0.497517 0.006940
0.049866 -0.286167 -0.409313
-0.277317 -0.197677 0.454675
0.258282 0.323437 -0.381208
0.043850 0.378516 0.321946
0.284980 0.234159 0.437545
-0.124120 0.286684 0.405314
-0.103850 -0.336670 0.364500
0.225373 0.387649 0.311303
-0.205129 0.080341 -0.493750
-0.192159 -0.257354 0.423951
0.072836 -0.449308 -0.215848
0.231705 -0.061178 0.492020
-0.112820 -0.353242 -0.352632
-0.210015 -0.496409 -0.034869
-0.144050 -0.487482 -0.101240
-0.221293 -0.150268 -0.476771
-0.106012 0.312055 -0.390888
-0.184745 -0.406238 0.285054
-0.255939 -0.445701 0.219140
0.074929 0.240224 -0.438715
-0.027242 -0.363205 -0.342398
-0.029092 -0.330766 0.369687
0.192416 -0.235335 0.436577
-0.212235 0.244826 0.431929
-0.244515 -0.076764 0.489766
-0.241215 -0.056431 0.492707
-0.124125 -0.402762 -0.294417
-0.012335 -0.029746 -0.499258
-0.201718 0.302676 -0.397964
0.023804 -0.489608 0.085782
-0.274596 0.361839 -0.344986
-0.188916 0.328778 0.372323
-0.057312 -0.394909 -0.304825
0.008702 0.136627 0.476893
-0.127051 -0.091097 -0.491669
-0.017251 0.216102 0.446854
0.163171 0.399891 -0.299948
-0.220018 0.349383 0.353295
-0.085542 0.219833 0.445088
-0.105646 -0.288125 -0.407943
-0.093370 0.370336 0.331480
0.183221 -0.263380 -0.424472
-0.289987 -0.409148 0.280894
0.234151 -0.076894 -0.494114
0.230787 -0.344976 -0.361077
0.178473 -0.497012 0.018218
-0.170373 -0.442753 0.224739
0.002029 0.317495 0.381925
0.014852 -0.441363 -0.231971
0.005469 0.444014 0.224317
-0.147476 -0.330723 -0.373986
-0.114085 -0.474069 0.148648
-0.004204 0.073144 0.490582
-0.160790 -0.067111 -0.495706
0.096819 0.470381 0.162664
0.274636 0.098296 0.486252
-0.010666 -0.479186 -0.135718
-0.273272 -0.378820 -0.324751
-0.093191 0.329936 -0.375632
-0.099291 -0.281345 -0.412685
-0.156290 0.397179 0.298822
0.117456 -0.068720 -0.495521
0.213032 -0.132561 0.477651
0.142942 -0.105899 0.484278
-0.092776 0.300096 -0.399910
0.134962 -0.343649 -0.362278
0.159722 0.461687 0.185646
0.101659 0.322539 0.377903
0.154036 -0.447775 0.215070
0.208073 0.361605 0.340742
0.215107 -0.172238 0.464964
0.009097 0.496082 0.047197
-0.205589 -0.492552 -0.071695
0.044089 -0.316491 0.381936
0.059752 0.218849 0.445606
0.166297 -0.418116 -0.271850
-0.283336 0.497241 0.032895
-0.023106 0.283781 -0.411830
-0.096813 -0.133980 -0.481741
-0.085785 0.340213 -0.366402
-0.111531 -0.268800 0.416690
0.088712 -0.121996 0.480567
-0.054638 -0.420843 0.263257
0.266405 -0.368832 -0.336391
0.179795 -0.123688 -0.484467
0.042454 -0.383787 -0.318962
0.052239 -0.349027 -0.356961
0.128820 0.129620 0.478947
0.103856 0.498505 -0.000741
0.115334 0.492223 0.076699
-0.257708 -0.490305 -0.087225
-0.051400 0.047219 0.493613
-0.142775 -0.059814 0.492218
-0.017738 -0.327496 -0.376909
-0.045468 -0.023733 0.495405
-0.120778 0.288623 -0.408566
0.232884 0.086290 0.488319
-0.096710 0.414663 0.274279
0.142081 0.443308 -0.229985
0.148965 0.010937 0.495794
-0.052802 0.438962 -0.238238
0.003591 -0.159555 0.469339
0.083865 -0.250959 0.427618
0.092712 0.471051 -0.165543
0.203284 -0.346475 -0.359583
0.106147 -0.294366 -0.403579
-0.271375 -0.204587 -0.455915
0.259016 -0.133020 0.477524
0.111160 0.225101 0.442314
-0.214869 -0.359062 0.342568
0.260524 0.144499 -0.478991
-0.082544 -0.231106 -0.442966
-0.266259 -0.141720 0.475122
-0.254516 -0.490135 0.082723
0.232549 -0.038526 -0.498795
-0.052259 -0.185416 0.459787
-0.158261 -0.475624 -0.148620
-0.008341 -0.461374 0.184246
-0.282906 0.462182 -0.189180
0.271060 -0.343948 -0.362008
0.257179 0.311194 0.386949
0.284751 0.489713 0.091131
-0.070853 -0.159061 0.469509
0.286398 0.451658 -0.213053
-0.034203 -0.201436 0.453109
0.125915 0.255259 0.425694
-0.039830 -0.138203 0.476093
0.063753 -0.497335 -0.011691
0.163332 -0.435191 0.239101
0.079872 0.433340 -0.248793
-0.134395 -0.368968 0.331631
0.096867 -0.395624 -0.303877
0.177012 0.204962 0.451853
-0.059189 -0.366989 0.333815
0.228854 -0.484379 0.111075
0.161688 -0.214291 0.447086
-0.220058 0.317079 0.382257
0.203342 -0.465266 0.173876
-0.275093 0.349117 -0.357733
0.015493 -0.471682 -0.160276
-0.056603 -0.477544 0.137260
0.002724 -0.457927 0.192446
-0.066446 0.060078 0.492223
-0.119101 -0.431164 0.246328
0.134438 -0.087318 0.488171
0.260842 -0.021351 0.495448
0.164099 -0.231199 -0.442917
-0.063325 0.023967 -0.499773
-0.189532 0.462409 0.183913
-0.122129 -0.452131 -0.210119
0.141185 -0.166935 -0.471184
0.139957 0.061254 -0.496511
-0.213501 0.403361 0.290628
-0.268942 -0.372919 -0.331628
-0.244476 -0.183464 -0.464982
0.212300 0.350796 0.351843
-0.266790 -0.032785 0.494695
0.161138 0.346040 0.356688
-0.018197 -0.476447 -0.145639
0.222519 0.427299 -0.258702
-0.250279 -0.265204 -0.423360
0.056255 0.477006 0.142972
0.218011 0.400554 0.294348
0.169364 -0.085549 -0.492624
-0.289672 0.346405 -0.360373
0.129933 -0.177272 -0.467305
-0.288821 0.097461 -0.490614
0.196587 0.161578 -0.473348
-0.152422 0.170044 0.466048
0.224638 -0.027149 0.495152
0.146073 0.315752 0.383315
-0.159810 0.490684 0.086495
-0.140366 0.171712 0.465423
-0.018366 0.415036 0.273714
-0.194955 0.470238 0.163079
0.066747 0.035895 -0.498880
0.168225 -0.453699 0.201868
0.231994 -0.223989 -0.446714
-0.262344 -0.475154 -0.150212
-0.201889 -0.182147 0.461151
-0.105298 -0.321936 -0.381921
0.196793 0.498262 0.012771
0.243401 0.486922 0.104452
0.060907 0.480508 -0.135258
0.280631 0.469729 -0.169066
0.198847 -0.395146 0.300313
0.061575 0.268785 -0.421730
-0.046704 0.398321 0.297308
0.148610 0.470288 -0.167575
-0.026873 -0.431222 -0.250265
-0.285772 -0.485789 -0.109320
0.057324 0.029513 0.494961
-0.070266 -0.451378 0.207040
0.089103 0.200315 -0.458357
0.168417 -0.310049 -0.391399
-0.250783 -0.252462 -0.431128
-0.175380 0.384555 -0.319235
0.266239 0.171797 -0.469823
0.049979 0.474204 -0.155916
0.023918 -0.486402 -0.106396
-0.059348 -0.289293 -0.407126
0.145108 -0.388496 -0.313326
0.225749 0.490222 -0.092522
-0.054462 -0.489792 0.084714
-0.183518 0.020904 -0.499828
0.068912 0.165083 -0.472139
-0.050262 -0.432438 -0.248145
0.011463 0.245366 0.431644
-0.029178 -0.475372 -0.149534
-0.199456 0.493805 0.065765
0.129289 0.478831 -0.140754
0.278600 0.474946 0.149431
0.114584 0.395957 -0.304934
-0.252634 -0.425673 -0.259941
-0.187659 -0.444455 -0.225696
0.110163 0.473388 -0.158592
0.112445 0.497697 -0.030145
-0.140377 -0.012256 -0.500043
-0.020816 -0.490054 0.083194
0.179710 0.473399 -0.158556
0.027935 0.178086 0.463031
-0.076259 0.286704 -0.409900
-0.201353 0.486668 -0.110112
0.205015 0.497380 -0.037204
0.242733 -0.399973 -0.298114
-0.205809 0.432861 0.244840
-0.209147 -0.034251 0.494576
0.231489 -0.462355 -0.185940
-0.253371 -0.466681 0.170104
-0.218004 0.252972 0.427089
0.145543 -0.497331 -0.011945
0.281998 -0.378216 -0.325455
0.178972 -0.079875 0.489316
0.158765 -0.189659 0.458019
0.202235 -0.223055 -0.447205
-0.243700 0.496818 -0.044112
0.107528 0.246962 -0.434851
0.204240 -0.440763 0.228519
0.115729 -0.047517 -0.497824
0.023675 -0.244625 -0.435848
-0.205273 0.495723 0.051620
0.130942 -0.097869 0.485960
-0.231033 0.487171 0.103261
0.194123 0.065423 0.491646
-0.099623 0.476275 -0.149129
-0.042736 -0.156114 -0.474988
-0.140717 -0.093595 -0.491239
0.065376 -0.137273 -0.480737
0.250309 -0.435636 0.238256
0.133826 -0.132546 0.477655
0.209897 -0.479550 -0.134398
0.189512 -0.253911 0.425925
0.140582 0.497458 -0.035462
0.142403 -0.455991 0.196761
0.099645 -0.491498 -0.078980
-0.223457 -0.488563 -0.096080
0.244295 0.460693 0.188031
0.075571 -0.489761 0.084893
-0.016747 -0.441376 0.227354
-0.220490 -0.445397 -0.223784
0.190740 -0.223789 -0.446819
-0.259407 0.050473 0.493261
0.262877 0.226604 -0.445876
-0.230659 0.466679 0.173396
-0.222087 -0.307957 -0.393067
-0.105257 -0.479277 0.131579
-0.138941 -0.496341 -0.035708
0.074231 -0.486974 -0.103666
-0.262105 0.223043 -0.447631
-0.249680 -0.468546 -0.169366
0.221647 0.105121 -0.489009
-0.024115 -0.373875 -0.330514
-0.081472 0.205471 0.451625
-0.130812 0.494670 0.059785
0.181041 0.308392 0.389184
-0.233651 0.266979 -0.422922
0.070732 -0.446113 0.218359
0.242536 0.171966 0.465327
-0.007437 -0.134641 -0.481540
0.159192 0.419258 -0.271891
-0.186130 -0.370082 -0.334934
0.103694 0.236336 0.436399
0.013317 0.375344 -0.330076
-0.217305 0.468857 -0.171390
0.039924 -0.468112 0.166292
0.031221 -0.432794 -0.247523
0.084229 -0.496203 -0.037409
-0.042042 0.009224 -0.500039
0.154695 -0.330823 0.369638
0.103175 -0.405756 0.285743
-0.218863 0.374531 0.326590
-0.192917 -0.491033 -0.082199
0.109213 0.477014 0.142945
0.105760 -0.361403 0.339982
0.166704 -0.368363 0.332298
-0.212102 -0.496349 0.032999
-0.268461 -0.303401 0.392291
-0.217877 -0.020014 -0.499695
-0.078115 -0.491733 -0.077355
0.047875 -0.489337 -0.092385
-0.070554 -0.346878 -0.359169
-0.197343 0.293035 -0.405237
0.264073 0.494384 -0.066632
-0.209334 0.359930 0.342461
-0.101754 -0.483975 0.112776
0.006299 -0.223010 0.442789
0.153942 -0.497122 0.015755
-0.033672 0.495001 0.057498
0.285851 0.376171 -0.329163
0.160285 -0.487355 0.098553
0.204209 0.087033 0.488191
-0.070476 -0.052029 0.493136
-0.170740 -0.099145 -0.490283
0.052490 -0.497396 -0.008286
0.020795 0.498515 -0.001279
-0.140568 0.455304 -0.204928
0.053174 -0.154826 0.470970
0.260541 0.491960 0.078520
0.233328 0.296236 0.398634
0.118919 0.206465 -0.455792
0.063141 0.239138 -0.439337
0.283352 0.461094 0.187069
-0.105992 0.290099 -0.407453
-0.139770 0.164348 -0.472392
0.204045 0.359690 -0.347359
0.149079 0.165845 -0.471876
0.275330 0.296758 -0.402429
-0.237884 0.443349 0.225668
0.038373 0.423215 -0.265401
-0.163683 -0.109130 -0.487926
-0.053951 0.231677 -0.443377
-0.146828 0.141432 -0.479838
-0.112031 0.391773 0.305987
-0.197692 -0.488169 -0.097959
-0.214134 -0.264734 -0.423647
0.041968 0.045811 -0.498076
0.104308 0.099241 -0.490241
0.157244 -0.360383 -0.345297
0.004555 -0.337736 0.363462
0.027489 -0.492473 -0.072241
0.205635 0.368199 -0.337964
-0.236355 0.484960 0.113816
0.235874 0.490174 -0.092800
0.004305 -0.155836 -0.475073
0.117800 0.288223 -0.408868
-0.249167 0.072051 -0.494949
0.056761 0.130231 0.478802
-0.132998 -0.495497 -0.046117
-0.245487 -0.402338 0.290631
0.174871 -0.276003 0.411935
0.233693 0.328489 -0.376873
-0.099576 -0.456090 -0.200966
-0.172753 0.271067 0.416057
-0.138809 0.460890 -0.192482
0.186591 -0.430948 0.246682
0.042969 -0.492032 -0.075292
0.089939 0.368943 -0.337143
-0.216694 0.492019 0.078111
-0.001566 0.498512 -0.001120
-0.066815 -0.001960 -0.500240
-0.002127 -0.134360 0.477154
-0.225859 -0.428183 -0.255564
0.202956 -0.022338 0.495431
0.111207 -0.059991 0.492192
0.245274 -0.142174 0.474997
0.154246 -0.382017 -0.321025
-0.267599 0.356177 -0.350859
0.100819 0.284688 0.406711
0.284642 0.203355 -0.457089
-0.046969 0.333849 0.367730
0.270046 -0.257869 0.423655
-0.058252 0.117546 -0.486406
-0.228617 0.294654 0.399740
0.044842 -0.208833 -0.454010
0.212227 -0.290016 0.402389
-0.001380 -0.399687 -0.298493
0.014117 0.495283 -0.058313
-0.156028 0.345464 -0.361289
0.181131 -0.421444 -0.266809
0.210845 0.258920 -0.427993
0.056781 0.409018 0.282830
0.109720 0.199251 -0.458800
-0.136264 -0.347888 -0.358131
-0.095319 -0.403486 0.288989
-0.245394 0.448101 -0.220882
0.267413 0.090182 0.487649
0.005499 0.096861 -0.490740
-0.159560 -0.343336 0.358010
-0.050607 0.346892 -0.359899
-0.189274 -0.443543 0.223238
0.001671 0.495141 0.056529
-0.119316 0.385367 0.313962
0.096952 0.467586 -0.174777
0.024272 -0.075405 0.489962
-0.006223 0.474233 0.151498
0.020168 -0.038677 0.494218
0.231159 -0.497164 -0.021173
0.140359 0.325896 0.374933
0.149237 0.362110 0.340223
-0.275220 0.248241 -0.434118
-0.147659 0.498408 0.004685
0.023474 -0.497375 -0.009459
0.053553 -0.489477 0.086546
0.283232 0.105893 0.484586
0.253655 0.323406 0.377188
0.144595 0.080675 -0.493701
0.251371 -0.108592 0.483714
-0.055951 -0.402365 -0.294943
-0.238375 0.199519 0.454296
0.003088 0.351964 -0.354961
0.229411 -0.280417 0.409021
0.196107 -0.495928 -0.040795
-0.175915 0.029466 0.494963
-0.130321 -0.493638 0.059701
-0.052954 -0.435449 0.238612
0.130972 -0.279182 0.409836
-0.038289 0.298566 0.397005
0.046120 0.145761 -0.478643
-0.180578 -0.320838 0.378206
-0.008256 0.153552 0.471729
0.223842 -0.364897 0.336125
-0.013449 -0.168875 -0.470456
0.117131 -0.497584 0.002148
-0.036131 0.488455 0.097133
0.077300 0.297402 0.397819
-0.083706 0.414881 -0.278515
0.255397 0.045897 -0.498069
0.284067 0.071415 0.490880
-0.045145 -0.316352 -0.386373
-0.029438 0.437647 -0.240737
-0.182908 -0.254984 -0.429591
0.060203 -0.134783 0.477037
-0.233787 -0.351808 0.349762
0.173953 -0.067577 0.491095
-0.029827 0.475014 -0.153262
-0.191826 0.473552 0.153473
-0.139071 -0.497371 -0.009699
0.087277 0.468922 0.166893
-0.167426 -0.468270 0.165870
-0.219778 -0.472865 -0.156846
-0.204853 0.412809 0.277089
-0.042224 -0.150256 0.472547
-0.261812 -0.479945 -0.132968
-0.155153 0.080138 0.489378
-0.287608 -0.345820 0.355592
0.020597 -0.448687 -0.217108
-0.038202 0.276302 -0.416768
-0.274357 -0.360787 0.340663
-0.109409 0.033389 0.494787
0.135022 -0.030249 -0.499236
-0.145238 -0.221003 0.443778
0.045772 -0.060759 0.492081
-0.134332 -0.489078 -0.093622
-0.278440 0.468874 0.167032
0.019621 -0.113928 -0.486786
0.270378 0.187403 -0.463740
-0.213258 -0.497502 -0.002452
0.160084 -0.482064 0.120820
0.272395 -0.483500 -0.120087
0.190957 0.336775 0.365080
0.246887 -0.205657 0.451340
0.077933 -0.215428 0.446526
0.286178 0.498053 -0.022210
0.274681 0.497594 -0.032428
-0.187269 0.346089 -0.360681
-0.208682 -0.444451 -0.225705
0.078707 0.491679 0.080465
-0.000143 -0.182123 -0.465485
-0.255529 0.470036 0.163666
-0.234179 -0.188496 -0.463093
0.245688 0.008394 0.495908
-0.116493 -0.335801 -0.369387
-0.247411 0.120327 -0.485664
-0.184498 -0.328273 0.371826
-0.138397 0.183683 0.460931
-0.269379 -0.328473 0.371655
-0.259637 0.495784 -0.053677
-0.091789 0.430975 0.248129
0.065275 0.109047 0.483836
-0.098579 -0.490343 -0.086965
0.137564 0.058224 0.492424
-0.041482 -0.115710 0.482223
-0.075204 0.216589 0.446636
0.119568 0.165903 -0.471856
-0.247323 -0.204197 0.451957
-0.094753 -0.162951 -0.472679
-0.053093 0.025353 0.495148
-0.036840 0.498344 -0.015721
0.038263 0.091470 -0.491869
-0.289609 -0.452952 -0.208452
0.027738 0.070489 0.491039
-0.007843 0.323677 0.376943
-0.133371 -0.454482 -0.204823
-0.149422 -0.204927 0.451653
0.175188 0.179940 0.462335
0.285377 -0.154640 -0.475438
0.033012 0.384790 0.314634
0.270727 -0.230777 -0.443140
0.152458 0.489209 0.093532
0.284139 0.366967 -0.339324
-0.119237 -0.050469 0.493262
0.188186 0.131207 -0.482661
-0.223772 0.106834 0.484362
-0.204383 -0.391684 0.304655
0.140351 -0.420248 -0.268621
0.108625 -0.168235 -0.470696
-0.203017 -0.310887 -0.390730
0.099128 -0.352406 0.349180
0.011945 0.486342 -0.111482
0.001128 -0.149230 0.472900
-0.128823 0.198557 -0.459090
0.150823 0.160329 0.469661
-0.271585 0.475323 -0.152249
-0.125164 -0.174005 0.464354
-0.143339 0.383410 0.316243
-0.086662 -0.494486 -0.058326
-0.200422 0.000981 0.495851
0.051387 -0.412623 0.275924
0.069497 0.487317 0.102568
0.208317 -0.012945 0.495600
-0.207526 -0.360107 -0.345581
0.029269 0.450022 -0.216699
0.281821 0.208104 0.450443
-0.080194 -0.219793 -0.448923
0.089356 -0.062103 0.491887
0.285593 0.466162 -0.178573
0.246820 0.141244 0.475484
-0.164439 -0.057165 -0.496781
-0.054484 0.105853 -0.488856
-0.231603 -0.055707 -0.496939
-0.190307 0.497566 -0.033051
-0.110339 0.406392 0.286610
0.107023 0.167905 -0.471165
-0.075770 -0.073216 0.490279
-0.108597 0.496584 0.041004
-0.169643 -0.237438 0.435371
0.022899 -0.463598 -0.182956
-0.113010 -0.411915 -0.281243
0.113982 -0.305073 -0.395367
-0.215906 0.159135 0.470025
-0.028552 0.463047 0.182384
-0.148181 -0.390528 -0.310632
-0.073456 0.102808 -0.489494
0.023875 -0.455497 -0.202389
0.147276 0.468624 0.167759
0.056651 0.345463 -0.361290
-0.169873 -0.391566 -0.309257
0.076693 0.103556 -0.489337
0.103156 -0.108954 -0.487968
-0.108841 -0.290927 0.401701
-0.129580 -0.119710 0.481198
-0.272564 0.088221 -0.492550
0.089033 -0.147387 0.473536
0.143404 -0.497143 -0.022364
-0.152443 0.211325 -0.453405
-0.141478 -0.396819 -0.302294
-0.107481 0.402286 -0.296524
-0.096953 -0.494215 0.054364
-0.024949 -0.417033 -0.273491
-0.161729 -0.496754 0.023969
0.256395 0.495202 -0.059061
0.188856 0.497299 -0.039014
0.129769 -0.407433 -0.288032
-0.201489 0.282141 0.408492
-0.055612 0.448255 0.215711
-0.036359 -0.440700 -0.233317
0.078643 0.487720 -0.105686
-0.214123 0.493734 0.066258
0.216617 0.343135 0.359319
0.081538 0.164417 0.468160
0.062457 -0.468180 -0.170427
0.086029 0.463068 0.182333
-0.044526 -0.044752 0.493726
-0.128410 -0.335617 0.365524
-0.167660 0.257054 -0.429064
0.228530 0.494921 -0.061662
-0.263942 -0.384866 -0.317705
-0.091771 0.473758 -0.157379
0.187835 0.476024 0.146307
0.240344 -0.494143 0.055024
0.140306 0.282281 0.408394
-0.127835 0.237013 0.436042
-0.249962 -0.191484 0.457258
0.069550 -0.079261 0.489404
-0.132325 -0.415289 -0.276132
-0.060076 0.461414 -0.191225
0.006038 0.150533 0.472650
-0.038238 0.028691 -0.499463
0.034930 -0.497302 -0.013508
-0.160632 0.473709 -0.157540
0.271952 0.148099 -0.477997
-0.199110 0.454989 0.201711
0.029327 -0.050126 -0.497542
0.237573 -0.415894 -0.275215
-0.121190 -0.427747 -0.256325
-0.009015 -0.465482 -0.178249
-0.091782 0.310883 -0.391773
-0.193688 0.473206 -0.159189
0.060018 0.328377 -0.376970
-0.121528 0.498058 -0.022081
0.247697 0.471918 -0.163232
0.029214 -0.494104 -0.060970
0.115929 0.454505 0.202873
-0.220441 -0.281332 0.408416
-0.217797 0.422872 0.261846
0.195892 -0.194890 -0.460266
-0.245250 0.393616 -0.307871
-0.093449 -0.044706 -0.498127
-0.235013 0.346630 -0.360154
-0.190873 0.145010 0.474335
0.196639 0.222096 0.443896
0.176667 -0.233646 -0.441629
-0.146252 -0.290699 0.401873
0.223316 0.497161 0.033872
-0.262308 0.437123 0.237408
0.094274 0.497288 -0.039249
0.180459 0.432356 -0.250407
0.224523 -0.141222 0.475260
0.013833 -0.464404 0.176172
0.208046 0.255767 0.425384
0.183224 -0.286047 -0.409397
0.070429 -0.006885 0.495709
0.267154 -0.396496 0.298620
0.124752 0.045577 -0.498095
-0.288431 -0.265780 -0.423009
0.043017 0.435871 0.239592
-0.083789 0.135537 0.477226
-0.051547 0.495401 0.054732
-0.176979 0.378973 0.321414
-0.261636 -0.421592 -0.266586
-0.212264 -0.374147 -0.330197
-0.147215 0.395393 -0.305643
-0.272224 0.440859 0.230721
0.137879 0.453414 0.205241
0.280672 0.447239 0.217774
0.137670 0.464176 0.179675
0.150711 -0.349271 0.352232
-0.214347 -0.007298 0.495701
0.152817 -0.022499 0.495428
-0.238088 0.363784 -0.342839
-0.215228 0.041855 0.494193
-0.209541 0.374404 -0.331113
-0.259146 0.473471 0.153707
0.182400 0.124499 0.480164
-0.064784 0.498179 -0.019382
0.247351 -0.462951 0.180043
0.124051 0.498446 0.002548
0.157503 -0.497377 -0.009373
0.137026 -0.382556 -0.320397
-0.211414 -0.323877 -0.380187
0.177585 0.033909 0.494764
0.120118 -0.208307 0.450034
0.081684 -0.442544 0.225137
0.265482 0.118345 0.481626
0.200261 0.236039 -0.441115
-0.087361 -0.035123 -0.499017
-0.069894 0.496824 0.038041
0.040216 0.490334 -0.091873
0.205144 0.487595 -0.106209
0.255255 0.134256 0.477616
0.118422 0.023361 -0.499784
0.249939 0.155901 0.471012
-0.138915 -0.467424 0.168124
0.035991 0.494111 0.063652
-0.198589 0.284186 -0.411562
0.044539 0.325365 -0.379554
0.098986 -0.116868 0.481980
0.135520 -0.072155 -0.494930
-0.118179 0.194298 -0.460865
-0.289855 -0.496504 -0.033686
0.013436 0.252687 -0.431568
0.032214 0.455822 0.199714
-0.100256 -0.015391 0.495556
-0.273744 0.341280 0.360999
0.174115 0.387056 0.311994
-0.052223 -0.085004 0.488574
0.090929 0.286495 -0.410038
0.186878 -0.496675 -0.031587
0.171887 -0.491700 0.073632
-0.016372 0.484297 0.116562
0.047329 0.397236 -0.303330
-0.173361 -0.492390 0.069621
0.078012 -0.148677 0.473091
0.185932 0.450834 0.210478
0.172673 0.187657 -0.463634
0.170135 -0.450555 -0.213317
0.053837 -0.445472 0.219575
-0.133609 -0.231281 0.438714
-0.277489 0.298809 0.396826
0.216583 -0.109546 -0.487827
-0.151413 0.120110 -0.485724
0.161865 -0.390358 -0.310857
0.193163 -0.040129 0.494100
0.143615 -0.252547 0.426707
0.134421 -0.373115 -0.331400
0.130205 -0.324582 0.374994
0.229627 0.493020 0.071192
0.185165 0.212618 0.448418
-0.255271 -0.354948 0.346705
-0.170100 -0.255931 -0.429013
0.177350 -0.368480 -0.336801
0.197446 0.233513 0.437885
0.260438 -0.237743 0.435197
-0.089621 0.476330 0.145418
-0.006650 -0.295486 -0.402795
-0.126417 0.426544 0.255857
0.065878 -0.442621 -0.229418
-0.113322 0.483304 -0.124264
-0.140737 -0.084840 0.488597
0.213573 -0.456147 0.196412
-0.125329 0.490429 0.087709
0.076570 -0.348868 0.352624
0.277698 0.398803 0.296668
-0.271748 -0.456354 -0.200331
0.150978 0.343219 0.359243
-0.072754 -0.364665 0.336381
0.045017 -0.321128 -0.382565
-0.263005 0.289643 0.403245
0.060679 0.300938 0.395128
0.017799 -0.494860 -0.053987
0.196241 0.412742 -0.281573
0.078707 0.042477 -0.498346
-0.035070 0.362038 -0.344766
-0.054148 -0.330796 0.369661
-0.131464 -0.056776 0.492657
-0.013711 -0.120772 -0.485160
-0.004545 -0.309998 -0.391440
-0.258614 0.066107 -0.495809
-0.130353 0.165978 0.467574
-0.100597 -0.492816 0.067146
-0.197949 0.389870 0.308509
-0.205751 0.229114 0.440202
0.258762 -0.473489 -0.155038
0.045214 0.224724 -0.446803
0.220112 -0.442937 0.224389
-0.023643 0.372004 0.329535
-0.111189 -0.003401 0.495772
-0.025747 0.197850 -0.459384
-0.036835 0.282111 0.408513
-0.168415 -0.310317 0.387073
-0.249371 -0.215613 0.446434
0.210467 -0.050507 0.493259
0.219715 -0.096711 0.486203
-0.031370 -0.449226 -0.216014
-0.241674 -0.254175 0.425773
-0.268786 -0.384466 0.313708
-0.190905 -0.497224 -0.017842
-0.126520 -0.409678 0.280136
0.174370 0.282175 0.408468
-0.092261 0.498524 -0.001794
0.064180 0.371717 0.329870
0.133767 -0.467609 -0.172084
0.202377 -0.085674 -0.492602
-0.136132 0.343746 -0.362962
-0.144212 0.401802 0.292694
0.175736 0.331216 0.370114
-0.135783 0.496931 -0.043064
-0.060984 -0.337517 0.363675
0.040506 -0.281514 0.408297
0.157698 -0.246499 -0.434763
-0.140537 -0.073028 0.490306
-0.040646 -0.480004 0.129195
0.039903 0.498131 0.020037
-0.227228 -0.414470 -0.277373
-0.257684 -0.069278 -0.495425
0.085872 -0.488325 0.093236
-0.272663 0.020196 0.495379
0.241685 -0.223928 0.442337
-0.235399 0.344521 0.358064
-0.220176 -0.481794 0.121954
0.213635 -0.465664 0.172814
-0.016126 0.224379 -0.446973
0.237396 -0.027032 0.495161
0.135470 -0.301324 0.393858
-0.247238 -0.286550 0.404972
0.214331 -0.263935 0.419902
0.120731 -0.481939 0.121343
0.150810 -0.368705 -0.336540
0.075657 0.335849 -0.370558
0.277176 0.441580 0.229257
-0.138835 -0.150205 0.472564
-0.065236 0.482117 0.124458
0.173095 0.129037 -0.483260
-0.207841 -0.110784 0.483255
0.211064 -0.115473 0.482273
-0.272518 0.332378 -0.373537
-0.141233 0.283173 -0.412231
0.085533 0.354447 -0.352544
-0.091260 0.483308 0.120143
-0.256103 0.010612 -0.500014
0.054475 0.376076 -0.329267
0.024692 0.028137 -0.499508
0.224216 -0.491820 -0.076755
0.214188 0.032352 -0.499167
-0.005047 0.497472 -0.035153
0.093253 0.348093 -0.358730
0.130868 0.142158 0.475205
-0.149312 -0.317541 0.381035
0.092691 -0.267492 -0.421965
-0.150606 -0.193645 0.456357
-0.180823 -0.160091 -0.473752
0.089752 0.415266 0.273366
-0.127205 0.411188 0.279543
0.082162 -0.471611 0.156704
-0.131356 0.496944 0.036554
0.198657 -0.373691 -0.330728
-0.076966 -0.404412 0.287665
-0.248327 0.486116 0.108297
0.273081 -0.464456 0.176034
0.223189 -0.095088 -0.490982
0.264488 0.290216 0.402844
0.234980 0.334176 0.367433
0.089714 -0.047606 -0.497814
-0.276401 -0.353350 0.348261
0.271320 0.469571 0.165012
0.098929 -0.360748 -0.344923
-0.203338 -0.257783 -0.427884
0.225407 -0.421011 0.262982
-0.108772 -0.211215 0.448601
0.234561 -0.175985 0.463671
0.120677 -0.157699 0.469979
-0.102629 -0.483729 -0.119154
0.286701 -0.259917 0.422481
0.124695 -0.167248 0.466685
0.034180 -0.496920 0.020248
0.140266 0.103439 0.485169
0.215795 0.498397 -0.014524
-0.151494 -0.159265 0.469439
-0.046190 -0.062556 0.491821
0.050675 0.165008 0.467938
-0.154632 -0.490909 -0.083053
0.283803 -0.461648 -0.187634
0.148388 -0.189831 -0.462537
0.080140 -0.323131 0.376239
0.258674 0.347545 -0.359263
0.219435 -0.272146 0.414482
-0.100166 0.440011 -0.236247
-0.202197 -0.494242 0.054106
0.113522 0.441597 0.229223
-0.106450 0.230321 0.439566
0.285518 0.497487 -0.034809
-0.083886 -0.371632 0.328689
0.183588 0.421321 -0.268508
-0.286155 0.116290 0.482115
-0.263282 0.234608 0.437309
-0.290117 -0.493573 0.060298
0.200857 0.378260 -0.326856
0.121113 0.011636 -0.499995
-0.034686 -0.407114 -0.288516
0.175503 0.483520 0.119377
0.046677 0.449850 -0.217083
-0.042255 -0.376403 0.323421
-0.217337 0.183010 -0.465571
0.254595 0.067907 -0.495549
-0.058516 -0.411442 -0.281960
0.185121 0.073007 0.490606
0.023048 0.259034 -0.427928
