-0.290288 -0.020407 -0.468854
-0.290288 -0.139137 -0.441781
-0.290288 -0.431692 0.174279
-0.290288 0.449250 -0.026796
-0.290288 0.237078 -0.396348
-0.290288 -0.472507 -0.024794
-0.290288 -0.095093 -0.442857
-0.290288 -0.481361 0.062898
-0.290288 0.247847 -0.396018
-0.290288 -0.434894 0.093206
-0.290288 -0.380519 -0.310346
-0.290288 -0.067278 -0.452826
-0.290288 -0.471901 0.048659
-0.290288 0.161968 0.434352
-0.290288 0.465588 0.075134
-0.290288 0.451808 0.127983
-0.290288 -0.187690 0.443002
-0.290288 -0.442163 -0.121416
-0.290288 0.064773 -0.467050
-0.290288 0.247923 0.369460
-0.290288 0.459092 -0.007637
-0.290288 0.465776 -0.039415
-0.290288 0.489581 -0.095420
-0.290288 0.425702 -0.216119
-0.290288 0.149421 -0.432942
-0.290288 -0.446805 -0.058623
-0.290288 0.398761 -0.211369
-0.290288 0.272448 -0.389574
-0.290288 0.124762 0.465941
-0.290288 0.045692 0.440935
-0.290288 -0.365779 -0.310216
-0.290288 0.113871 -0.445192
-0.290288 -0.468820 0.026937
-0.290288 0.113758 0.455748
-0.290288 0.143241 0.426782
-0.290288 -0.029027 -0.466603
-0.290288 0.441181 -0.140930
-0.290288 0.215867 0.404286
-0.290288 0.425938 -0.137869
-0.290288 0.430701 -0.130954
-0.290288 0.138756 -0.431872
-0.290288 -0.103119 0.435173
-0.290288 -0.322817 0.349505
-0.290288 0.119188 0.446519
-0.290288 -0.441025 -0.075637
-0.290288 -0.231503 -0.384664
-0.290288 0.391618 0.211980
-0.290288 0.216596 -0.449901
-0.290288 -0.100306 -0.489071
-0.290288 -0.251558 -0.407074
-0.290288 -0.348793 -0.316239
-0.290288 0.201528 0.407681
-0.290288 -0.429186 -0.233971
-0.290288 -0.008745 -0.477653
-0.290288 0.307967 -0.324842
-0.290288 -0.478765 -0.086417
-0.290288 0.277325 -0.351627
-0.290288 0.179100 0.435904
-0.290288 0.180878 0.461958
-0.290288 -0.241804 -0.416005
-0.290288 -0.423857 0.237662
-0.290288 0.137436 -0.480618
-0.290288 -0.065413 0.452433
-0.290288 0.345857 0.321184
-0.290288 -0.017040 -0.458121
-0.290288 -0.373068 -0.279745
-0.290288 0.380007 -0.240752
-0.290288 0.489560 0.016440
-0.290288 0.359942 -0.309934
-0.290288 -0.038907 0.471136
-0.290288 -0.166112 0.444260
-0.290288 0.222602 0.386886
-0.290288 -0.068254 -0.471809
-0.290288 0.014381 0.444827
-0.290288 -0.049652 0.454165
-0.290288 0.350210 -0.303321
-0.290288 -0.471796 0.045288
-0.290288 -0.341152 -0.348497
-0.290288 0.087329 -0.466534
-0.290288 -0.186873 -0.427084
-0.290288 0.310782 0.342136
-0.290288 0.437554 0.200571
-0.290288 0.302926 0.346069
-0.290288 0.246852 -0.424413
-0.290288 0.371895 -0.282254
-0.290288 -0.395230 0.291783
-0.290288 -0.067044 0.442931
-0.290288 0.158333 0.440519
-0.290288 0.395642 -0.222140
-0.290288 0.421692 0.181252
-0.290288 -0.009129 0.472083
-0.290288 -0.456913 -0.039538
-0.290288 -0.462338 -0.082146
-0.290288 -0.433315 0.153674
-0.290288 0.445064 -0.032946
-0.290288 0.138842 -0.425917
-0.290288 0.003238 -0.482377
-0.290288 0.481965 -0.031472
-0.290288 0.312490 0.335205
-0.290288 0.436584 0.171923
-0.290288 -0.009015 0.464097
-0.290288 0.234957 -0.420174
-0.290288 -0.167548 -0.415882
-0.290288 0.238447 0.418357
-0.290288 0.146546 0.465710
-0.290288 -0.084115 0.470078
-0.290288 0.291821 -0.356316
-0.290288 0.478426 -0.026010
-0.290288 0.036489 -0.469186
-0.290288 -0.362550 -0.285006
-0.290288 0.432402 -0.113527
-0.290288 -0.279823 0.398933
-0.290288 -0.322801 0.326533
-0.290288 -0.096312 0.439687
-0.290288 0.112434 0.448769
-0.290288 -0.453259 0.142854
-0.290288 -0.480513 -0.005188
-0.290288 0.481054 -0.117936
-0.290288 0.458881 -0.060604
-0.290288 -0.314993 -0.352247
-0.290288 0.233968 -0.393754
-0.290288 0.375273 -0.291718
-0.290288 -0.447281 -0.077101
-0.290288 0.202804 0.446806
-0.290288 0.165430 0.418712
-0.290288 -0.113539 0.450802
-0.290288 0.344363 0.290662
-0.290288 0.228146 -0.414946
-0.290288 -0.399234 0.294779
-0.290288 -0.241149 0.372846
-0.290288 0.282479 -0.411925
-0.290288 -0.101486 0.447157
-0.290288 -0.173850 -0.428708
-0.290288 -0.477806 0.106800
-0.290288 -0.141655 0.447913
-0.290288 -0.301818 -0.374381
-0.290288 0.484571 0.008413
-0.290288 -0.242341 0.418918
-0.290288 -0.291427 0.351498
-0.290288 -0.192304 -0.459510
-0.290288 0.192326 0.416498
-0.290288 -0.320220 0.372518
-0.290288 0.350875 -0.355895
-0.290288 -0.121935 -0.475148
-0.290288 0.139393 -0.450071
-0.290288 -0.258243 0.389682
-0.290288 0.284954 -0.386171
-0.290288 0.310501 -0.345888
-0.290288 -0.208416 0.404200
-0.290288 -0.341370 0.310574
-0.290288 -0.334004 -0.350049
-0.290288 -0.456403 -0.073306
-0.290288 0.342803 -0.340569
-0.290288 0.309841 0.332708
-0.290288 0.427639 -0.190334
-0.290288 -0.376906 0.257130
-0.290288 0.443375 -0.052434
-0.290288 0.450268 -0.020253
-0.290288 0.383596 -0.302018
-0.290288 0.439080 -0.217682
-0.290288 -0.417420 0.244692
-0.290288 0.317784 0.313710
-0.290288 -0.143836 0.419566
-0.290288 0.275522 -0.393507
-0.290288 -0.491574 0.062847
-0.290288 -0.052120 -0.445083
-0.290288 0.153119 -0.466326
-0.290288 -0.152342 0.437783
-0.290288 -0.490021 -0.070113
-0.290288 -0.255049 0.396192
-0.290288 -0.428504 0.243334
-0.290288 0.406761 -0.237459
-0.290288 0.429765 0.129159
-0.290288 -0.421951 -0.229496
-0.290288 0.115815 -0.441210
-0.290288 -0.225735 0.413422
-0.290288 0.484695 -0.068649
-0.290288 0.492649 -0.028258
-0.290288 -0.140775 0.421835
-0.290288 -0.122349 -0.432226
-0.290288 0.049449 -0.446644
-0.290288 0.142139 -0.468342
-0.290288 0.402317 -0.250346
-0.290288 -0.473742 -0.058936
-0.290288 -0.451575 0.110911
-0.290288 -0.380486 0.267009
-0.290288 -0.217682 0.397867
-0.290288 -0.050362 -0.461922
-0.290288 0.228617 -0.419426
-0.290288 -0.409305 -0.210598
-0.290288 -0.396958 -0.286243
-0.290288 -0.437426 0.228543
-0.290288 0.171889 -0.432228
-0.290288 -0.169462 0.455608
-0.290288 -0.151110 0.433982
-0.290288 0.265358 -0.372550
-0.290288 0.298923 -0.383475
-0.290288 -0.235811 -0.420696
-0.290288 -0.428557 0.209154
-0.290288 -0.058229 0.444231
-0.290288 0.452340 0.188339
-0.290288 -0.452860 -0.136518
-0.290288 0.287032 0.351027
-0.290288 0.251434 -0.395782
-0.290288 -0.194147 -0.452273
-0.290288 -0.018334 -0.448316
-0.290288 0.391212 0.215513
-0.290288 -0.463105 -0.009760
-0.290288 -0.405953 -0.223773
-0.290288 0.380213 -0.267539
-0.290288 0.424003 -0.196327
-0.290288 -0.456004 -0.008987
-0.290288 -0.224326 -0.395856
-0.290288 0.449875 0.098552
-0.290288 0.355667 -0.292447
-0.290288 -0.406957 0.270671
-0.290288 0.099628 0.450626
-0.290288 0.406067 -0.283376
-0.290288 -0.356307 0.323174
-0.290288 -0.405124 -0.251681
-0.290288 -0.153733 0.425685
-0.290288 -0.177465 -0.463899
-0.290288 -0.446479 0.022426
-0.290288 -0.478901 0.059393
-0.290288 -0.433694 0.241146
-0.290288 0.470917 -0.121206
-0.290288 -0.025956 0.476083
-0.290288 -0.293304 0.384432
-0.290288 0.321158 -0.348131
-0.290288 -0.245771 0.398316
-0.290288 0.479822 0.051790
-0.290288 0.230087 0.386231
-0.290288 0.028545 -0.489518
-0.290288 0.407420 -0.224168
-0.290288 0.368988 -0.259882
-0.290288 0.418932 0.164556
-0.290288 -0.251362 -0.379131
-0.290288 -0.132832 -0.451354
-0.290288 -0.423714 0.243072
-0.290288 -0.459850 -0.110578
-0.290288 0.084591 0.453819
-0.290288 0.378539 0.263197
-0.290288 -0.161834 0.419648
-0.290288 -0.029100 -0.473394
-0.290288 -0.112612 0.438351
-0.290288 -0.348297 0.313446
-0.290288 0.092587 -0.452285
-0.290288 0.395774 -0.286524
-0.290288 0.074909 -0.453280
-0.290288 -0.060267 0.462839
-0.290288 0.180666 -0.454571
-0.290288 -0.440840 0.122631
-0.290288 -0.393223 -0.249660
-0.290288 0.204434 -0.401903
-0.290288 -0.392664 -0.245298
-0.290288 -0.469422 -0.096146
-0.290288 0.495746 0.010776
-0.290288 0.372861 0.280462
-0.290288 -0.370437 -0.275447
-0.290288 -0.343064 -0.314682
-0.290288 0.320460 -0.354215
-0.290288 -0.086534 0.487504
-0.290288 -0.486272 0.002549
-0.290288 0.311882 0.386378
-0.290288 0.312124 0.351884
-0.290288 -0.125446 0.439795
-0.290288 0.420486 0.158841
-0.290288 0.359727 0.301460
-0.290288 -0.458881 -0.138900
-0.290288 -0.461797 0.031546
-0.290288 -0.330388 0.347904
-0.290288 -0.359522 -0.328713
-0.290288 0.452612 -0.110670
-0.290288 0.461110 0.012982
-0.290288 -0.438542 -0.150392
-0.290288 0.465383 -0.173932
-0.290288 0.412068 0.216757
-0.290288 -0.481439 0.003178
-0.290288 0.190663 -0.451274
-0.290288 -0.143598 0.434434
-0.290288 0.452380 0.203544
-0.290288 -0.466415 -0.133071
-0.290288 0.059923 -0.488715
-0.290288 -0.442022 -0.175103
-0.290288 0.465673 0.120009
-0.290288 -0.335095 0.364686
-0.290288 -0.430027 0.220851
-0.290288 -0.029348 0.486409
-0.290288 0.232680 -0.442567
-0.290288 -0.195602 -0.415964
-0.290288 -0.463669 -0.075185
-0.290288 0.364630 -0.290094
-0.290288 -0.372926 0.241364
-0.290288 0.473983 -0.097424
-0.290288 0.419535 -0.232928
-0.290288 0.083416 -0.492405
-0.290288 -0.203436 -0.421787
-0.290288 -0.184633 -0.416364
-0.290288 -0.375036 -0.268080
-0.290288 0.483893 0.115228
-0.290288 -0.202424 0.437272
-0.290288 -0.476969 -0.034599
-0.290288 0.491548 0.041110
-0.290288 -0.415733 0.203740
-0.290288 -0.141297 -0.437708
-0.290288 0.245341 0.425776
-0.290288 0.347552 -0.306253
-0.290288 0.497206 -0.003728
-0.290288 0.402546 -0.272616
-0.290288 0.144540 0.457925
-0.290288 -0.303723 -0.348948
-0.290288 -0.453604 -0.012676
-0.290288 -0.155609 -0.445705
-0.290288 0.258627 -0.371224
-0.290288 0.255373 0.420931
-0.290288 0.472981 0.046340
-0.290288 -0.358660 0.267989
-0.290288 -0.428360 -0.139432
-0.290288 0.090835 0.471849
-0.290288 0.016606 0.452024
-0.290288 -0.238344 -0.399752
-0.290288 -0.465035 0.032153
-0.290288 -0.242683 0.380709
-0.290288 0.472926 0.034830
-0.290288 0.083162 -0.448371
-0.290288 0.405906 0.194733
-0.290288 -0.304689 0.346088
-0.290288 0.378035 -0.252358
-0.290288 0.496541 -0.015749
-0.290288 -0.092451 0.438225
-0.290288 -0.461330 0.152140
-0.290288 -0.483795 -0.092831
-0.290288 -0.141452 0.443477
-0.290288 -0.399811 -0.280705
-0.290288 0.302213 -0.385076
-0.290288 -0.268932 -0.404902
-0.290288 0.465277 0.147229
-0.290288 0.468136 -0.018871
-0.290288 0.467355 -0.084635
-0.290288 0.472484 -0.078208
-0.290288 0.483587 -0.093471
-0.290288 -0.020321 -0.477617
-0.290288 0.365286 -0.295745
-0.290288 0.078956 -0.454172
-0.290288 0.424280 0.234614
-0.290288 -0.455132 0.007724
-0.290288 0.225352 0.420369
-0.290288 -0.320161 -0.324133
-0.290288 0.455915 -0.149074
-0.290288 0.352593 0.346951
-0.290288 -0.354331 -0.314602
-0.290288 0.448794 0.110706
-0.290288 -0.177339 0.445225
-0.290288 -0.466576 0.074569
-0.290288 -0.052743 -0.455021
-0.290288 -0.277063 -0.402049
-0.290288 0.471698 -0.141664
-0.290288 -0.064547 0.479215
-0.290288 -0.342081 0.352327
-0.290288 0.292476 -0.375271
-0.290288 0.433152 -0.226055
-0.290288 -0.440803 0.066818
-0.290288 0.103639 0.454609
-0.290288 0.111255 -0.442923
-0.290288 0.234869 -0.390310
-0.290288 0.203008 0.418614
-0.290288 -0.468876 -0.002577
-0.290288 0.446085 -0.014116
-0.290288 -0.439603 -0.127808
-0.290288 0.061604 0.473410
-0.290288 -0.476536 -0.040873
-0.290288 -0.371854 -0.283164
-0.290288 0.447995 0.207101
-0.290288 0.450957 -0.212495
-0.290288 0.450011 -0.013584
-0.290288 -0.451167 -0.108946
-0.290288 0.015229 -0.487192
-0.290288 -0.077732 0.462913
-0.290288 0.439283 0.203949
-0.290288 0.021306 0.462556
-0.290288 -0.377225 -0.306545
-0.290288 0.118922 0.435989
-0.290288 0.382503 0.308632
-0.290288 0.061416 0.448648
-0.290288 0.443740 0.199237
-0.290288 0.447377 -0.143023
-0.290288 -0.421264 0.232770
-0.290288 0.009226 0.458448
-0.290288 0.468194 -0.164435
-0.290288 0.420148 0.241604
-0.290288 0.086734 0.456855
-0.290288 0.187279 -0.435057
-0.290288 0.139353 0.435844
-0.290288 -0.467744 -0.092817
-0.290288 -0.442304 0.061401
-0.290288 -0.436134 0.207322
-0.290288 -0.363117 -0.312475
-0.290288 -0.445098 -0.013847
-0.290288 -0.349163 -0.303069
-0.290288 -0.401453 0.217228
-0.290288 -0.358468 -0.290755
-0.290288 -0.052588 0.458102
-0.290288 0.099118 -0.470926
-0.290288 -0.465498 -0.140166
-0.290288 0.458224 -0.066801
-0.290288 -0.387094 0.252768
-0.290288 -0.445990 -0.154063
-0.290288 0.190764 -0.430757
-0.290288 -0.459117 0.018394
-0.290288 0.400412 0.259295
-0.290288 -0.454532 0.112249
-0.290288 -0.062222 0.482631
-0.290288 0.056762 -0.454883
-0.290288 0.265973 0.358381
-0.290288 0.397047 -0.214962
-0.290288 0.453019 -0.046954
-0.290288 0.242982 0.420441
-0.290288 0.463094 0.081173
-0.290288 -0.319646 -0.356794
-0.290288 0.437678 -0.152436
-0.290288 0.451452 -0.124389
-0.290288 0.346121 -0.328933
-0.290288 0.255231 -0.418569
-0.290288 0.460236 -0.188347
-0.290288 -0.474070 -0.075279
-0.290288 -0.376164 -0.300167
-0.290288 -0.363684 -0.293878
-0.290288 -0.425381 0.225497
-0.290288 -0.419007 0.187248
-0.290288 -0.374886 -0.313372
-0.290288 0.465598 0.064004
-0.290288 -0.051648 -0.471253
-0.290288 -0.467734 -0.152235
-0.290288 -0.402982 -0.224766
-0.290288 0.375170 0.292728
-0.290288 -0.167110 -0.433320
-0.290288 -0.419520 0.229517
-0.290288 0.343958 0.306648
-0.290288 -0.016378 0.447602
-0.290288 0.013124 -0.484445
-0.290288 -0.477745 0.110153
-0.290288 -0.205642 0.448269
-0.290288 -0.206183 0.442802
-0.290288 -0.449043 0.127167
-0.290288 0.013739 0.492691
-0.290288 0.369448 -0.315981
-0.290288 0.228293 -0.405427
-0.290288 -0.489927 0.023431
-0.290288 -0.421623 0.198399
-0.290288 -0.416185 0.264566
-0.290288 0.492738 0.013722
-0.290288 0.398756 -0.256742
-0.290288 0.310957 0.376106
-0.290288 0.419387 0.201451
-0.290288 0.442059 -0.221303
-0.290288 0.111271 0.452652
-0.290288 -0.005237 -0.489452
-0.290288 -0.144721 -0.424128
-0.290288 -0.433606 -0.120733
-0.290288 0.494668 -0.055573
-0.290288 -0.334385 -0.362315
-0.290288 0.118441 -0.431841
-0.290288 0.444566 -0.186104
-0.290288 0.483968 -0.053933
-0.290288 0.383266 -0.318177
-0.290288 -0.386121 -0.234809
-0.290288 0.040520 -0.449995
-0.290288 0.068600 -0.455874
-0.290288 -0.359830 -0.301552
-0.290288 0.439499 -0.091727
-0.290288 -0.129016 -0.445076
-0.290288 0.321219 0.317307
-0.290288 0.252623 -0.385348
-0.290288 0.264683 0.402454
-0.290288 -0.132335 -0.466096
-0.290288 0.318040 0.347688
-0.290288 -0.464362 -0.166432
-0.290288 -0.016393 -0.469761
-0.290288 -0.449082 0.190977
-0.290288 -0.362346 -0.275909
-0.290288 -0.109997 -0.446172
-0.290288 0.008942 0.481672
-0.290288 -0.269351 0.358772
-0.290288 0.010604 -0.466763
-0.290288 -0.438868 0.125918
-0.290288 0.061010 0.470144
-0.290288 -0.236192 0.379805
-0.290288 -0.173173 -0.465544
-0.290288 0.488430 0.040853
-0.290288 -0.461374 -0.186995
-0.290288 0.391615 -0.278910
-0.290288 0.446966 0.215037
-0.290288 -0.011276 0.457706
-0.290288 -0.381871 -0.276797
-0.290288 -0.021965 -0.485214
-0.290288 0.420927 0.188652
-0.290288 0.316095 -0.375385
-0.290288 0.496517 0.014596
-0.290288 0.368463 0.250380
-0.290288 -0.231893 -0.417513
-0.290288 -0.036756 -0.447083
-0.290288 -0.115354 0.476979
-0.290288 0.069968 0.460925
-0.290288 -0.390869 -0.290229
-0.290288 -0.273015 -0.382337
-0.290288 -0.298188 0.357620
-0.290288 0.444363 -0.103014
-0.290288 0.366606 -0.303842
-0.290288 -0.443896 0.194811
-0.290288 -0.279434 0.362481
-0.290288 -0.314126 -0.373364
-0.290288 -0.137677 0.476012
-0.290288 0.039531 0.482139
-0.290288 -0.027623 0.457136
-0.290288 -0.315700 0.358320
-0.290288 -0.465351 -0.046423
-0.290288 -0.486157 0.030111
-0.290288 -0.385458 -0.287516
-0.290288 -0.193853 0.417363
-0.290288 0.170710 -0.461849
-0.290288 -0.415127 0.193707
-0.290288 -0.339467 0.293607
-0.290288 0.247153 0.388063
-0.290288 0.259451 0.395490
-0.290288 -0.247737 0.422540
-0.290288 0.093499 0.433963
-0.290288 -0.017341 0.443113
-0.290288 0.407181 0.204815
-0.290288 -0.203444 -0.402153
-0.290288 -0.345593 0.310163
-0.290288 0.367625 0.273789
-0.290288 0.392738 0.304394
-0.290288 -0.460396 -0.073358
-0.290288 0.347552 0.306147
-0.290288 -0.156957 -0.438489
-0.290288 0.264670 0.411342
-0.290288 0.278821 0.373659
-0.290288 -0.209967 -0.452294
-0.290288 0.452047 0.143290
-0.290288 0.409438 0.260268
-0.290288 -0.486861 0.070114
-0.290288 0.113610 0.464047
-0.290288 0.448925 0.119283
-0.290288 0.422165 -0.184174
-0.290288 -0.113392 -0.445115
-0.290288 -0.023804 0.489586
-0.290288 0.203615 0.439408
-0.290288 0.410550 -0.272012
-0.290288 0.283137 0.399818
-0.290288 0.428201 -0.256119
-0.290288 0.397744 0.283666
-0.290288 0.184673 0.450682
-0.290288 -0.451798 0.184778
-0.290288 0.309237 -0.391623
-0.290288 -0.401741 -0.202447
-0.290288 0.195083 -0.459808
-0.290288 -0.411359 -0.215297
-0.290288 0.470565 0.056354
-0.290288 -0.287716 -0.372878
-0.290288 0.263215 -0.401007
-0.290288 0.139548 0.439507
-0.290288 0.240282 -0.393138
-0.290288 0.391565 -0.285239
-0.290288 -0.466367 0.101484
-0.290288 0.476089 0.132908
-0.290288 -0.055057 0.473623
-0.290288 0.446247 0.201296
-0.290288 -0.465496 -0.003126
-0.290288 -0.243884 0.390025
-0.290288 -0.473231 -0.002754
-0.290288 0.303845 -0.334800
-0.290288 0.264756 -0.397749
-0.290288 -0.311978 -0.325530
-0.290288 -0.317135 -0.348161
-0.290288 -0.097902 -0.437119
-0.290288 0.105266 -0.485567
-0.290288 0.165953 0.444741
-0.290288 0.470940 0.049025
-0.290288 0.145557 -0.437590
-0.290288 0.210176 0.445862
-0.290288 -0.439169 -0.072344
-0.290288 0.043453 -0.464690
-0.290288 0.146889 0.443727
-0.290288 -0.182171 0.456864
-0.290288 -0.343101 0.295255
-0.290288 -0.245852 0.378417
-0.290288 0.167655 -0.419304
-0.290288 0.043715 0.473481
-0.290288 0.280779 -0.385823
-0.290288 -0.161172 0.424578
-0.290288 0.301064 -0.365264
-0.290288 0.150130 -0.469841
-0.290288 -0.430387 0.246430
-0.290288 -0.436058 -0.117305
-0.290288 -0.211221 -0.448751
-0.290288 -0.227351 -0.398041
-0.290288 -0.463826 0.005089
-0.290288 0.221362 0.403271
-0.290288 0.448425 -0.090425
-0.290288 0.181731 -0.420447
-0.290288 0.416832 0.238822
-0.290288 -0.057586 0.488886
-0.290288 -0.410318 0.187938
-0.290288 0.262396 -0.425083
-0.290288 -0.325869 -0.330420
-0.290288 -0.400357 -0.287064
-0.290288 -0.344544 0.298161
-0.290288 0.424544 0.198191
-0.290288 0.469509 -0.107125
-0.290288 -0.384540 -0.294263
-0.290288 0.312442 -0.339564
-0.290288 -0.434094 0.227986
-0.290288 -0.332680 0.340911
-0.290288 0.470030 -0.037320
-0.290288 0.331239 0.347015
-0.290288 0.318227 0.369939
-0.290288 0.080770 0.473769
-0.290288 -0.162672 -0.438531
-0.290288 0.163396 -0.449873
-0.290288 -0.417962 0.233446
-0.290288 0.251865 -0.424157
-0.290288 -0.476099 -0.061421
-0.290288 0.088539 0.460153
-0.290288 -0.348956 0.300064
-0.290288 0.424900 0.134073
-0.290288 0.457187 -0.102708
-0.290288 -0.369595 -0.315586
-0.290288 -0.447656 -0.053854
-0.290288 -0.450368 -0.088613
-0.290288 -0.465205 -0.089556
-0.290288 0.446995 -0.028960
-0.290288 -0.396467 -0.289433
-0.290288 -0.206360 0.407505
-0.290288 -0.389110 -0.218627
-0.290288 0.150784 0.421897
-0.290288 -0.204304 0.403117
-0.290288 -0.146675 -0.451927
-0.290288 0.490517 -0.088809
-0.290288 -0.319410 0.318379
-0.290288 -0.080418 0.466612
-0.290288 -0.200012 -0.434230
-0.290288 -0.108999 -0.475480
-0.290288 -0.458728 0.136027
-0.290288 -0.090472 -0.479643
-0.290288 -0.284478 0.359319
-0.290288 0.217213 -0.425897
-0.290288 -0.466141 -0.011297
-0.290288 0.456574 -0.063177
-0.290288 -0.201772 -0.414050
-0.290288 -0.410930 -0.197598
-0.290288 -0.194008 0.406693
-0.290288 -0.447610 0.131007
-0.290288 -0.440359 -0.117278
-0.290288 0.231583 -0.413369
-0.290288 -0.100431 0.471965
-0.290288 0.096706 0.445114
-0.290288 -0.240417 -0.387727
-0.290288 -0.304730 0.322376
-0.290288 -0.233318 -0.387286
-0.290288 -0.445286 0.197618
-0.290288 0.363374 0.302895
-0.290288 -0.060046 -0.468160
-0.290288 0.337325 0.350983
-0.290288 0.213923 0.397123
-0.290288 0.448946 0.031867
-0.290288 -0.371184 -0.265733
-0.290288 0.381814 -0.243488
-0.290288 0.463563 0.168071
-0.290288 -0.448001 -0.104852
-0.290288 -0.298716 0.341939
-0.290288 0.120981 -0.476716
-0.290288 0.427876 0.222031
-0.290288 0.455920 0.092548
-0.290288 -0.305584 -0.340577
-0.290288 0.448091 -0.147192
-0.290288 -0.125664 -0.469072
-0.290288 -0.325080 -0.306656
-0.290288 -0.432722 0.169833
-0.290288 -0.028634 -0.486986
-0.290288 -0.407481 -0.267482
-0.290288 0.484012 0.054939
-0.290288 0.466186 0.113080
-0.290288 -0.461925 0.138782
-0.290288 0.215450 -0.393437
-0.290288 0.376298 -0.317195
-0.290288 -0.450631 -0.195344
-0.290288 0.333834 -0.340885
-0.290288 -0.315774 -0.377801
-0.290288 0.467784 0.001457
-0.290288 -0.125497 0.429727
-0.290288 -0.125190 0.454890
-0.290288 0.476585 -0.010291
-0.290288 -0.278561 0.386857
-0.290288 0.189555 0.444009
-0.290288 -0.021279 -0.488482
-0.290288 -0.473870 -0.010543
-0.290288 0.463896 -0.144939
-0.290288 0.249289 0.422297
-0.290288 0.048107 0.493144
-0.290288 0.408820 0.233384
-0.290288 -0.119119 0.472281
-0.290288 -0.418146 0.200787
-0.290288 -0.262943 0.404417
-0.290288 -0.330789 0.337427
-0.290288 -0.480749 -0.116795
-0.290288 -0.467045 -0.159053
-0.290288 0.204736 0.397741
-0.290288 -0.089081 -0.484194
-0.290288 0.186028 0.425735
-0.290288 0.462787 0.113740
-0.290288 0.410850 -0.240203
-0.290288 -0.441623 0.139696
-0.290288 0.364469 0.323723
-0.290288 0.242173 -0.396028
-0.290288 -0.246808 -0.428155
-0.290288 0.324826 0.341785
-0.290288 0.456277 0.011641
-0.290288 -0.425716 0.182806
-0.290288 -0.287411 -0.396985
-0.290288 -0.454569 -0.186617
-0.290288 -0.378946 -0.320590
-0.290288 -0.018573 -0.492712
-0.290288 -0.192509 0.414063
-0.290288 0.204697 -0.398017
-0.290288 0.068764 -0.488262
-0.290288 0.363008 -0.265859
-0.290288 0.414441 -0.273030
-0.290288 0.465742 0.154918
-0.290288 -0.469772 0.137279
-0.290288 -0.149074 -0.443492
-0.290288 -0.388635 0.276434
-0.290288 0.402448 0.247070
-0.290288 -0.239056 -0.384270
-0.290288 -0.005663 0.453310
-0.290288 0.405000 -0.275563
-0.290288 0.164868 0.438954
-0.290288 -0.166047 0.456801
-0.290288 -0.220891 -0.416525
-0.290288 0.070905 0.465780
-0.290288 -0.442167 0.073300
-0.290288 0.257449 0.365040
-0.290288 -0.365537 -0.297593
-0.290288 -0.272037 -0.405004
-0.290288 -0.464484 0.085183
-0.290288 0.165209 -0.471800
-0.290288 -0.447255 0.162647
-0.290288 0.428516 -0.147884
-0.290288 -0.168666 0.451888
-0.290288 -0.139958 -0.477512
-0.290288 -0.002656 -0.480342
-0.290288 -0.452686 -0.095917
-0.290288 -0.405998 0.275000
-0.290288 0.183430 -0.460483
-0.290288 -0.284877 0.369334
-0.290288 0.344064 0.303217
-0.290288 -0.120042 -0.438683
-0.290288 0.040903 0.456198
-0.290288 0.483443 -0.085043
-0.290288 0.453961 -0.168679
-0.290288 -0.194231 0.455176
-0.290288 0.448845 0.038648
-0.290288 0.401630 0.199991
-0.290288 -0.353396 0.321338
-0.290288 -0.085554 0.480263
-0.290288 -0.391984 -0.276337
-0.290288 0.168960 0.450896
-0.290288 -0.455751 0.003536
-0.290288 0.282277 -0.408200
-0.290288 0.452703 -0.131180
-0.290288 -0.108754 -0.487990
-0.290288 -0.067570 -0.449441
-0.290288 0.281706 -0.391949
-0.290288 -0.189430 0.454825
-0.290288 0.447607 0.178756
-0.290288 0.172311 0.448600
-0.290288 0.094254 0.437997
-0.290288 -0.385106 0.228028
-0.290288 -0.001725 -0.476917
-0.290288 -0.356650 -0.327036
-0.290288 -0.298907 -0.363971
-0.290288 0.085612 -0.481512
-0.290288 0.386971 -0.314100
-0.290288 -0.327667 -0.318207
-0.290288 0.374269 0.248433
-0.290288 0.341508 0.359765
-0.290288 -0.454767 -0.099225
-0.290288 -0.473156 0.002912
-0.290288 0.170763 -0.425263
-0.290288 0.150534 0.442101
-0.290288 0.381826 -0.288764
-0.290288 0.478059 0.046584
-0.290288 0.393622 -0.307509
-0.290288 -0.040015 0.442371
-0.290288 -0.132978 0.428978
-0.290288 0.011840 0.456611
-0.290288 -0.440510 0.191133
-0.290288 0.089647 -0.438704
-0.290288 0.439297 0.081452
-0.290288 0.231780 0.418208
-0.290288 0.445874 0.029174
-0.290288 -0.214051 0.409381
-0.290288 -0.404100 0.253110
-0.290288 0.170831 0.442751
-0.290288 0.091780 -0.460830
-0.290288 -0.442192 -0.072315
-0.290288 0.450577 -0.098881
-0.290288 -0.135405 -0.449183
-0.290288 0.238830 -0.408860
-0.290288 0.337826 0.332488
-0.290288 0.434162 -0.214124
-0.290288 -0.440067 0.218834
-0.290288 0.411514 0.169999
-0.290288 -0.480317 -0.092367
-0.290288 -0.065097 -0.493467
-0.290288 0.043633 -0.478697
-0.290288 0.121196 -0.452933
-0.290288 0.049731 -0.455975
-0.290288 0.232686 0.428990
-0.290288 -0.473528 -0.088281
-0.290288 0.447404 0.047783
-0.290288 0.462607 0.121864
-0.290288 -0.431031 -0.144931
-0.290288 -0.444050 -0.047053
-0.290288 -0.261483 0.414604
-0.290288 -0.311792 0.345702
-0.290288 -0.284488 0.375865
-0.290288 0.413738 -0.231448
-0.290288 0.112672 0.460361
-0.290288 -0.431035 -0.215123
-0.290288 0.364513 -0.301486
-0.290288 0.395650 0.224009
-0.290288 0.073388 0.478972
-0.290288 0.464104 0.021315
-0.290288 0.090885 -0.482669
-0.290288 0.099990 -0.465351
-0.290288 0.465784 0.055128
-0.290288 0.483750 0.111185
-0.290288 0.416469 -0.176740
-0.290288 0.235470 0.417023
-0.290288 0.497805 0.007546
-0.290288 -0.476752 -0.072174
-0.290288 0.316042 -0.358437
-0.290288 0.002901 -0.489830
-0.290288 -0.359006 0.300112
-0.290288 -0.248410 0.426689
-0.290288 0.261435 -0.363814
-0.290288 -0.444598 0.034434
-0.290288 -0.453028 0.010843
-0.290288 -0.451361 0.118347
-0.290288 0.460032 0.036138
-0.290288 0.377099 0.301904
-0.290288 -0.397678 -0.269693
-0.290288 0.172298 -0.427951
-0.290288 -0.359382 -0.285455
-0.290288 0.428139 0.154831
-0.290288 -0.296153 0.335828
-0.290288 -0.446300 0.115360
-0.290288 -0.370763 0.317446
-0.290288 -0.451470 -0.035809
-0.290288 0.443327 0.071377
-0.290288 0.491593 -0.081545
-0.290288 -0.048173 0.457411
-0.290288 -0.240611 0.400935
-0.290288 0.003426 0.464680
-0.290288 0.377789 0.314921
-0.290288 0.443594 -0.163925
-0.290288 0.244206 -0.398761
-0.290288 0.336031 -0.368318
-0.290288 0.082257 0.456176
-0.290288 0.457283 -0.038596
-0.290288 0.243242 0.417195
-0.290288 0.435508 0.210436
-0.290288 0.333208 0.308207
-0.290288 -0.431994 -0.229014
-0.290288 0.382828 -0.233227
-0.290288 0.479025 -0.089925
-0.290288 0.329572 0.343543
-0.290288 -0.014632 0.458499
-0.290288 0.169283 -0.451498
-0.290288 0.460060 -0.078424
-0.290288 0.075399 0.444026
-0.290288 0.277496 -0.396742
-0.290288 -0.343763 -0.341431
-0.290288 0.053015 -0.447943
-0.290288 -0.103979 -0.472472
-0.290288 -0.074161 0.455319
-0.290288 0.407089 -0.240948
-0.290288 -0.457638 0.047844
-0.290288 0.445613 0.132060
-0.290288 0.439318 -0.133260
-0.290288 0.483066 -0.121461
-0.290288 -0.299677 -0.370628
-0.290288 -0.448309 0.158974
-0.290288 0.459291 -0.176665
-0.290288 0.422336 0.252846
-0.290288 -0.025313 0.470915
-0.290288 0.114486 0.476857
-0.290288 0.419412 -0.190180
-0.290288 -0.373998 0.306830
-0.290288 0.271753 -0.361489
-0.290288 0.040434 -0.488821
-0.290288 0.447568 0.174821
-0.290288 0.455716 -0.117388
-0.290288 -0.217659 -0.438730
-0.290288 0.276578 0.401616
-0.290288 0.026381 -0.485704
-0.290288 -0.410301 0.172791
-0.290288 0.084776 -0.485363
-0.290288 -0.109380 0.463084
-0.290288 -0.388632 0.300461
-0.290288 -0.263458 -0.381234
-0.290288 -0.078556 -0.485394
-0.290288 -0.375625 -0.320250
-0.290288 -0.372671 0.311540
-0.290288 -0.419289 -0.266098
-0.290288 -0.313184 -0.342372
-0.290288 -0.085098 0.442578
-0.290288 -0.192707 -0.442884
-0.290288 -0.129699 -0.479122
-0.290288 0.363861 0.317383
-0.290288 -0.134445 0.472840
-0.290288 -0.052670 -0.480211
-0.290288 -0.467500 0.124376
-0.290288 -0.198012 0.452619
-0.290288 -0.461902 -0.060686
-0.290288 0.487531 -0.026855
-0.290288 0.253811 -0.421441
-0.290288 -0.225330 0.384537
-0.290288 0.248952 0.380861
-0.290288 -0.486356 -0.034838
-0.290288 -0.434102 0.096477
-0.290288 -0.394296 -0.267032
-0.290288 0.455326 0.187251
-0.290288 -0.197837 0.422956
-0.290288 0.100204 0.465593
-0.290288 0.287735 0.382367
-0.290288 -0.469079 -0.034644
-0.290288 0.422607 -0.210509
-0.290288 0.172529 -0.443926
-0.290288 -0.066411 -0.475306
-0.290288 -0.352569 -0.284318
-0.290288 0.428512 0.181114
-0.290288 -0.393646 0.214688
-0.290288 0.315315 -0.317765
-0.290288 -0.413068 -0.169583
-0.290288 0.333915 -0.337142
-0.290288 -0.074570 0.468007
-0.290288 -0.453091 0.190290
-0.290288 0.177900 0.420537
-0.290288 0.017383 -0.483684
-0.290288 0.367308 0.269192
-0.290288 0.336717 -0.294655
-0.290288 0.225445 0.423782
-0.290288 -0.403118 -0.280656
-0.290288 0.446838 0.072785
-0.290288 0.379652 0.243718
-0.290288 0.381340 -0.279064
-0.290288 -0.434317 -0.185610
-0.290288 -0.467488 -0.014699
-0.290288 -0.459881 -0.034305
-0.290288 -0.443733 -0.143350
-0.290288 0.114552 0.433344
-0.290288 -0.302467 0.355586
-0.290288 -0.230374 0.411950
-0.290288 -0.294083 0.354937
-0.290288 -0.091876 -0.448474
-0.290288 -0.438595 0.214480
-0.290288 0.373666 0.277236
-0.290288 -0.204191 -0.439937
-0.290288 -0.397805 -0.277891
-0.290288 0.246289 0.418635
-0.290288 -0.240772 0.383643
-0.290288 -0.397085 0.245272
-0.290288 -0.087727 0.477091
-0.290288 0.432478 0.116111
-0.290288 0.381636 0.235537
-0.290288 0.167531 0.410861
-0.290288 0.455293 0.107076
-0.290288 0.377570 -0.286399
-0.290288 -0.457551 -0.020361
-0.290288 -0.446706 0.112034
-0.290288 0.317353 -0.321683
-0.290288 0.428884 0.197559
-0.290288 0.426718 -0.131083
-0.290288 0.002777 -0.471504
-0.290288 0.231072 0.411671
-0.290288 0.004276 -0.448043
-0.290288 -0.417368 0.155533
-0.290288 -0.307564 0.348187
-0.290288 0.331479 0.358594
-0.290288 -0.147981 -0.432702
-0.290288 0.207257 -0.428397
-0.290288 -0.167440 0.420237
-0.290288 -0.254333 0.363442
-0.290288 -0.240234 -0.407078
-0.290288 0.106619 0.447112
-0.290288 0.252445 -0.400767
-0.290288 0.428302 -0.202068
-0.290288 -0.211687 0.404536
-0.290288 -0.335210 -0.335498
-0.290288 -0.443898 0.129680
-0.290288 0.367307 0.296459
-0.290288 0.168235 -0.431531
-0.290288 -0.272054 0.400711
-0.290288 -0.455558 -0.199737
-0.290288 -0.264204 -0.400685
-0.290288 0.154886 0.425620
-0.290288 0.219659 0.421005
-0.290288 -0.031977 0.494038
-0.290288 -0.301011 0.363865
-0.290288 0.152535 -0.462366
-0.290288 0.169250 0.446431
-0.290288 0.236167 -0.405270
-0.290288 0.120692 -0.471681
-0.290288 -0.225943 0.430596
-0.290288 0.180684 -0.411424
-0.290288 -0.239831 -0.403136
-0.290288 -0.131014 -0.448060
-0.290288 -0.287534 0.357612
-0.290288 -0.449666 -0.068938
-0.290288 0.489340 0.047700
-0.290288 -0.496252 0.008486
-0.290288 -0.473278 0.028659
-0.290288 0.153403 0.419404
-0.290288 0.373333 -0.312217
-0.290288 -0.492923 -0.009798
-0.290288 -0.291684 0.357255
-0.290288 -0.280726 -0.395222
-0.290288 -0.052557 0.489243
-0.290288 -0.457703 -0.142128
-0.290288 -0.237791 0.435117
-0.290288 0.328003 -0.353005
-0.290288 -0.084814 -0.484055
-0.290288 -0.411690 -0.245379
-0.290288 0.460804 0.104287
-0.290288 -0.375031 0.319300
-0.290288 -0.214840 0.428467
-0.290288 -0.148174 0.436698
-0.290288 -0.452299 -0.198670
-0.290288 -0.459919 0.169002
-0.290288 0.242428 0.374489
-0.290288 -0.486374 0.101278
-0.290288 -0.043554 0.461340
-0.290288 -0.344135 0.314083
-0.290288 -0.459099 -0.180619
-0.290288 0.077118 0.447331
-0.290288 -0.105653 -0.455680
-0.290288 0.463370 -0.106690
-0.290288 -0.408373 -0.220488
-0.290288 0.380158 -0.237199
-0.290288 0.466651 0.029306
-0.290288 0.275651 -0.366073
-0.290288 -0.469299 0.093950
-0.290288 0.301119 0.369256
-0.290288 -0.104432 -0.487777
-0.290288 0.469292 -0.066373
-0.290288 0.147016 0.460186
-0.290288 0.289174 0.396119
-0.290288 0.166789 0.428192
-0.290288 0.434234 0.224941
-0.290288 0.141430 -0.434961
-0.290288 -0.424665 -0.151422
-0.290288 -0.458293 0.151347
-0.290288 -0.303827 -0.327630
-0.290288 -0.194591 -0.431934
-0.290288 0.433976 0.198331
-0.290288 0.288007 -0.384203
-0.290288 0.418863 -0.260344
-0.290288 0.031690 -0.454011
-0.290288 0.455436 0.178414
-0.290288 -0.204377 -0.429515
-0.290288 -0.312609 -0.328951
-0.290288 -0.166869 -0.463044
-0.290288 0.045503 -0.467519
-0.290288 -0.433895 -0.201822
-0.290288 -0.444840 -0.006056
-0.290288 0.199007 -0.424421
-0.290288 0.261738 -0.407109
-0.290288 -0.143682 -0.478146
-0.290288 0.221962 0.424526
-0.290288 0.065628 -0.477794
-0.290288 0.444190 -0.192671
-0.290288 -0.373395 -0.327157
-0.290288 0.430360 -0.213682
-0.290288 -0.203422 -0.418021
-0.290288 0.367057 0.319975
-0.290288 -0.455972 0.044727
-0.290288 -0.413856 0.222725
-0.290288 -0.441270 -0.223016
-0.290288 -0.128884 0.456082
-0.290288 -0.052159 0.446657
-0.290288 0.404151 0.273415
-0.290288 0.381496 0.299698
-0.290288 0.188199 0.452185
-0.290288 -0.195223 -0.458227
-0.290288 0.157367 0.414974
-0.290288 0.195446 -0.436076
-0.290288 0.378588 -0.244053
-0.290288 -0.442701 -0.159713
-0.290288 -0.454563 -0.029151
-0.290288 0.411250 0.278388
-0.290288 0.465345 0.046876
-0.290288 0.012028 -0.499087
-0.290288 0.335029 0.329671
-0.290288 -0.280610 0.381970
-0.290288 0.210378 -0.417343
-0.290288 0.263561 -0.420490
-0.290288 -0.045170 0.482228
-0.290288 0.457337 0.143740
-0.290288 -0.025223 0.492816
-0.290288 0.492748 0.035988
-0.290288 -0.379460 -0.274836
-0.290288 -0.309334 0.354535
-0.290288 -0.024235 0.458843
-0.290288 -0.338623 -0.336916
-0.290288 -0.468082 -0.038380
-0.290288 0.425278 0.216637
-0.290288 -0.086862 -0.486755
-0.290288 0.212950 -0.446959
-0.290288 0.423842 -0.262446
-0.290288 -0.416536 0.182300
-0.290288 -0.380982 -0.232312
-0.290288 0.361322 0.313289
-0.290288 -0.474581 0.015144
-0.290288 0.432498 -0.209448
-0.290288 -0.142609 -0.440844
-0.290288 -0.425313 0.128059
-0.290288 -0.000498 0.491294
-0.290288 0.443184 0.154355
-0.290288 -0.352587 0.346771
-0.290288 0.422455 -0.259547
-0.290288 0.293114 -0.399543
-0.290288 0.454502 0.171442
-0.290288 0.231309 0.383327
-0.290288 -0.448455 -0.080104
-0.290288 -0.107925 0.441627
-0.290288 0.240884 0.381814
-0.290288 0.497534 0.000734
-0.290288 -0.276751 0.360615
-0.290288 -0.387643 0.291994
-0.290288 0.333958 -0.322327
-0.290288 -0.170999 0.440829
-0.290288 -0.419126 -0.258331
-0.290288 -0.483556 -0.025727
-0.290288 0.385675 -0.231513
-0.290288 0.448709 0.084617
-0.290288 -0.326932 -0.312427
-0.290288 -0.375951 -0.283029
-0.290288 0.248646 -0.374405
-0.290288 0.464521 0.175886
-0.290288 -0.244776 -0.406113
-0.290288 -0.345580 -0.359945
-0.290288 -0.464962 -0.078544
-0.290288 -0.071203 0.442861
-0.290288 0.304341 0.349382
-0.290288 -0.044870 0.455983
-0.290288 -0.435878 0.089091
-0.290288 0.400738 -0.269513
-0.290288 0.490247 0.001751
-0.290288 -0.438608 0.090756
-0.290288 0.477206 0.019307
-0.290288 -0.269399 -0.394539
-0.290288 0.123925 0.432110
-0.290288 0.145213 0.468569
-0.290288 -0.110305 0.466514
-0.290288 0.448418 0.142938
-0.290288 -0.443691 0.177061
-0.290288 0.469213 0.034163
-0.290288 -0.360897 -0.262737
-0.290288 -0.428681 0.240259
-0.290288 0.266570 0.393893
-0.290288 -0.290459 0.340645
-0.290288 0.392984 -0.297282
-0.290288 -0.477229 -0.004358
-0.290288 -0.108050 0.454602
-0.290288 -0.055387 0.466230
-0.290288 0.174175 0.421151
-0.290288 0.486741 0.035067
-0.290288 -0.181417 0.416623
-0.290288 -0.058813 -0.487625
-0.290288 -0.344398 -0.311486
-0.290288 0.433653 -0.203246
-0.290288 0.468855 -0.150216
-0.290288 0.434574 -0.122621
-0.290288 0.429202 -0.223277
-0.290288 -0.404628 -0.220083
-0.290288 -0.340654 -0.324298
-0.290288 -0.452795 0.200776
-0.290288 -0.425603 0.163573
-0.290288 0.437948 -0.129062
-0.290288 0.425323 -0.241328
-0.290288 -0.041182 0.449177
-0.290288 -0.316293 0.381691
-0.290288 0.452524 0.072420
-0.290288 0.312679 0.317185
-0.290288 -0.405753 0.209182
-0.290288 0.207531 0.413756
-0.290288 0.017647 0.455367
-0.290288 0.169651 0.424732
-0.290288 -0.181759 0.442106
-0.290288 -0.089276 -0.439082
-0.290288 -0.250373 -0.412435
-0.290288 -0.332353 0.361521
-0.290288 -0.353230 0.327124
-0.290288 0.002695 0.451712
-0.290288 0.447365 0.104128
-0.290288 -0.134303 -0.440040
-0.290288 0.063664 0.458953
-0.290288 -0.496060 -0.032387
-0.290288 0.436895 0.131413
-0.290288 0.062123 -0.456457
-0.290288 -0.016233 -0.451372
-0.290288 0.307927 -0.365062
-0.290288 -0.345999 0.281190
-0.290288 0.242672 0.423971
-0.290288 0.164448 0.430480
-0.290288 -0.330682 0.315798
-0.290288 0.394552 0.265100
-0.290288 -0.042392 -0.490604
-0.290288 -0.435404 -0.198385
-0.290288 0.395261 -0.243098
-0.290288 0.160549 -0.471497
-0.290288 -0.472094 -0.085255
-0.290288 0.396335 -0.236872
-0.290288 -0.417273 -0.202602
-0.290288 -0.394103 -0.291765
-0.290288 0.449945 -0.068553
-0.290288 0.106544 -0.449892
-0.290288 0.352764 0.324466
-0.290288 -0.125981 0.436000
-0.290288 -0.064183 -0.452767
-0.290288 0.463082 0.031514
-0.290288 0.481278 0.121511
-0.290288 0.483343 0.086547
-0.290288 -0.431703 -0.117772
-0.290288 -0.089805 -0.458907
-0.290288 0.167368 0.461310
-0.290288 -0.029132 0.477616
-0.290288 0.447893 -0.061031
-0.290288 0.300759 0.374018
-0.290288 -0.351960 0.324284
-0.290288 0.234092 -0.433377
-0.290288 -0.426661 -0.198379
-0.290288 0.266218 -0.394442
-0.290288 0.421581 -0.172863
-0.290288 0.198097 0.440130
-0.290288 -0.200382 -0.423147
-0.290288 0.269249 -0.358766
-0.290288 0.480237 0.084414
-0.290288 0.296324 -0.367874
-0.290288 -0.489712 -0.023036
-0.290288 0.016209 -0.447160
-0.290288 0.095638 -0.448836
-0.290288 -0.083549 -0.459811
-0.290288 0.392080 0.298946
-0.290288 0.133214 0.475640
-0.290288 -0.436657 -0.157887
-0.290288 -0.435972 -0.237370
-0.290288 0.420287 -0.159373
-0.290288 0.226907 0.428120
-0.290288 0.313121 0.338875
-0.290288 -0.448510 -0.043358
-0.290288 0.285419 -0.366473
-0.290288 0.108849 0.459294
-0.290288 0.169888 -0.469113
-0.290288 -0.477713 0.046127
-0.290288 -0.331394 -0.360151
-0.290288 -0.480852 0.039714
-0.290288 -0.409665 0.266490
-0.290288 -0.235601 -0.435433
-0.290288 -0.154838 -0.427126
-0.290288 -0.451317 0.101738
-0.290288 0.229060 0.389548
-0.290288 -0.035597 0.494211
-0.290288 0.296153 -0.376513
-0.290288 -0.224512 0.387722
-0.290288 -0.266526 -0.379289
-0.290288 0.469837 0.027815
-0.290288 0.469899 -0.101649
-0.290288 -0.301044 -0.355342
-0.290288 -0.137524 0.442154
-0.290288 0.468325 -0.145431
-0.290288 -0.368679 -0.311130
-0.290288 -0.425220 -0.217325
-0.290288 -0.465011 0.060622
-0.290288 -0.279104 0.350357
-0.290288 -0.414553 -0.242432
-0.290288 0.116375 -0.435479
-0.290288 -0.109480 0.435233
-0.290288 -0.466092 -0.117285
-0.290288 -0.459757 0.067939
-0.290288 0.251905 -0.373448
-0.290288 0.366074 0.254970
-0.290288 0.406743 -0.198656
-0.290288 0.454427 -0.004082
-0.290288 -0.458090 -0.186351
-0.290288 0.474341 -0.074517
-0.290288 -0.174657 -0.434012
-0.290288 0.036183 -0.485978
-0.290288 0.461949 0.099762
-0.290288 0.476580 -0.088010
-0.290288 0.460983 0.056158
-0.290288 -0.426136 0.160315
-0.290288 0.111679 -0.434123
-0.290288 -0.466372 0.169777
-0.290288 0.389867 -0.303022
-0.290288 0.097536 -0.490062
-0.290288 0.024465 -0.447801
-0.290288 0.074559 -0.469776
-0.290288 0.448554 0.042546
-0.290288 0.467608 0.068408
-0.290288 0.460643 -0.042638
-0.290288 0.409408 0.178517
-0.290288 -0.245765 0.387461
-0.290288 -0.226828 0.405584
-0.290288 0.005352 0.493518
-0.290288 -0.295859 0.332365
-0.290288 -0.441854 0.049818
-0.290288 0.316254 0.374599
-0.290288 0.452548 0.184456
-0.290288 0.077553 0.458630
-0.290288 -0.158492 0.417101
-0.290288 -0.460605 -0.012966
-0.290288 0.429617 0.249267
-0.290288 -0.437821 0.105986
-0.290288 -0.409051 -0.249819
-0.290288 0.483473 -0.039798
-0.290288 -0.165065 0.411948
-0.290288 0.273051 -0.386159
-0.290288 -0.442772 0.070073
-0.290288 0.063629 0.476365
-0.290288 0.116697 0.443106
-0.290288 -0.241043 0.406630
-0.290288 0.270089 0.413269
-0.290288 0.411434 0.181868
-0.290288 -0.447917 -0.016726
-0.290288 0.442995 0.137183
-0.290288 -0.083529 -0.475244
-0.290288 -0.454622 0.100069
-0.290288 -0.455064 -0.046298
-0.290288 -0.363424 -0.335436
-0.290288 0.157409 0.451018
-0.290288 -0.338620 0.347762
-0.290288 0.095999 0.451717
-0.290288 -0.443569 -0.117563
-0.290288 0.360223 -0.345449
-0.290288 0.105047 0.474822
-0.290288 -0.403246 0.230882
-0.290288 -0.432237 0.224284
-0.290288 0.237222 0.380226
-0.290288 -0.490872 -0.077797
-0.290288 0.037704 0.454629
-0.290288 -0.122837 -0.435686
-0.290288 0.002143 -0.499270
-0.290288 0.294010 0.337734
-0.290288 0.043097 0.478045
-0.290288 -0.113450 -0.464230
-0.290288 0.364490 -0.286183
-0.290288 0.462234 -0.001879
-0.290288 0.100751 -0.449601
-0.290288 0.342541 -0.309012
-0.290288 -0.124677 -0.455863
-0.290288 0.165481 -0.416161
-0.290288 0.256259 0.401137
-0.290288 0.067569 -0.463792
-0.290288 -0.403721 -0.212999
-0.290288 -0.395139 0.239132
-0.290288 0.329730 0.361544
-0.290288 0.491989 -0.043953
-0.290288 -0.454551 -0.148398
-0.290288 0.073653 -0.458587
-0.290288 -0.235546 -0.427298
-0.290288 -0.454088 0.147140
-0.290288 0.259001 0.360589
-0.290288 0.450401 -0.037559
-0.290288 -0.488093 0.046216
-0.290288 -0.240707 0.421835
-0.290288 -0.427342 -0.177092
-0.290288 0.065369 -0.457793
-0.290288 0.418240 -0.249376
-0.290288 0.433714 -0.108061
-0.290288 -0.426806 -0.238879
-0.290288 0.423727 -0.190049
-0.290288 -0.050084 0.449035
-0.290288 0.478095 0.006974
-0.290288 -0.176448 -0.438689
-0.290288 0.122130 0.426975
-0.290288 -0.317456 -0.370473
-0.290288 -0.357194 -0.279597
-0.290288 -0.330183 -0.334438
-0.290288 0.326908 -0.337853
-0.290288 0.448778 -0.083463
-0.290288 0.441746 0.058577
-0.290288 0.384836 -0.228253
-0.290288 0.391051 0.274894
-0.290288 -0.356181 -0.346611
-0.290288 -0.431100 0.214448
-0.290288 0.462248 0.138467
-0.290288 -0.096519 -0.452186
-0.290288 0.457695 -0.081363
-0.290288 -0.146638 0.426417
-0.290288 -0.184335 0.418498
-0.290288 -0.467359 0.098026
-0.290288 -0.113610 -0.478958
-0.290288 -0.198615 0.436228
-0.290288 0.403265 -0.256726
-0.290288 0.469914 -0.168426
-0.290288 0.131535 0.478446
-0.290288 0.285684 -0.395572
-0.290288 0.407133 -0.272240
-0.290288 0.448358 0.035376
-0.290288 -0.435351 0.119231
-0.290288 -0.316318 0.362092
-0.290288 -0.012977 0.461871
-0.290288 -0.085860 -0.451465
-0.290288 0.343060 -0.350126
-0.290288 0.245180 -0.376355
-0.290288 -0.311934 -0.320869
-0.290288 0.131312 -0.447767
-0.290288 0.321774 0.347925
-0.290288 0.454607 0.113704
-0.290288 0.379491 0.272360
-0.290288 0.462527 -0.009344
-0.290288 0.206856 0.419714
-0.290288 -0.382698 0.262957
-0.290288 0.454302 -0.056681
-0.290288 -0.223046 0.431791
-0.290288 -0.151626 0.460391
-0.290288 -0.367311 0.308407
-0.290288 0.460904 0.064317
-0.290288 -0.231960 0.426857
-0.290288 0.222375 0.438494
-0.290288 0.350539 0.288642
-0.290288 -0.127699 -0.453496
-0.290288 -0.411529 0.260104
-0.290288 -0.057445 -0.449573
-0.290288 -0.425239 0.222381
-0.290288 -0.405021 -0.216017
-0.290288 -0.496513 -0.004543
-0.290288 -0.221531 0.415208
-0.290288 0.132277 -0.460519
-0.290288 -0.034014 -0.469381
-0.290288 0.453008 0.043247
-0.290288 -0.423100 -0.192858
-0.290288 -0.319563 0.333543
-0.290288 -0.150912 0.471887
-0.290288 -0.310584 0.378087
-0.290288 0.249116 0.417073
-0.290288 -0.102371 -0.468676
-0.290288 0.467212 0.169073
-0.290288 0.374561 0.305555
-0.290288 -0.021403 0.486117
-0.290288 -0.374150 -0.276439
-0.290288 -0.163387 0.428896
-0.290288 0.249052 0.425285
-0.290288 0.000751 -0.448974
-0.290288 0.399300 -0.262260
-0.290288 0.479644 0.031887
-0.290288 -0.166593 0.417185
-0.290288 -0.130054 0.463828
-0.290288 -0.244433 -0.402850
-0.290288 -0.405701 0.215591
-0.290288 -0.371993 0.282836
-0.290288 0.437613 0.160600
-0.290288 -0.275298 -0.360828
-0.290288 0.239468 0.421729
-0.290288 0.254880 -0.409139
-0.290288 -0.451768 0.054482
-0.290288 0.141110 -0.446240
-0.290288 0.428975 0.158830
-0.290288 0.464054 -0.053439
-0.290288 0.195410 0.425964
-0.290288 -0.462442 0.134599
-0.290288 -0.325911 0.335646
-0.290288 -0.448501 -0.094039
-0.290288 -0.372367 -0.310065
-0.290288 -0.422954 0.257685
-0.290288 -0.163656 0.441609
-0.290288 0.087408 0.448715
-0.290288 0.026834 -0.463790
-0.290288 -0.338862 -0.301498
-0.290288 0.272239 0.369106
-0.290288 -0.194149 0.427840
-0.290288 -0.183269 -0.439727
-0.290288 0.326000 0.373495
-0.290288 0.288108 0.391206
-0.290288 -0.438031 -0.087896
-0.290288 -0.029360 0.442441
-0.290288 -0.423436 0.145751
-0.290288 0.478840 -0.122869
-0.290288 0.327114 -0.342535
-0.290288 -0.052808 0.463995
-0.290288 -0.061000 0.441052
-0.290288 0.119401 -0.464519
-0.290288 -0.435334 0.210450
-0.290288 -0.000094 0.475414
-0.290288 -0.323044 -0.366326
-0.290288 -0.449395 0.165868
-0.290288 0.083598 0.469617
-0.290288 -0.450492 -0.062322
-0.290288 -0.160480 -0.436338
-0.290288 -0.012837 0.454646
-0.290288 0.250664 0.395442
-0.290288 -0.455315 -0.062458
-0.290288 -0.467028 0.064540
-0.290288 -0.276886 0.356572
-0.290288 0.429783 -0.139557
-0.290288 0.460205 0.046743
-0.290288 -0.256767 0.365890
-0.290288 -0.317623 -0.380380
-0.290288 -0.337482 0.303468
-0.290288 0.215773 -0.399826
-0.290288 -0.073620 -0.454213
-0.290288 0.145555 0.422208
-0.290288 0.302143 0.357078
-0.290288 0.475188 -0.115523
-0.290288 0.205561 -0.425214
-0.290288 -0.473164 0.033269
-0.290288 -0.389667 -0.230429
-0.290288 0.457106 -0.015726
-0.290288 0.298447 -0.354871
-0.290288 0.427263 -0.226369
-0.290288 0.482187 -0.077785
-0.290288 0.423562 -0.157931
-0.290288 0.252576 -0.376875
-0.290288 0.447310 -0.007514
-0.290288 -0.485936 0.035204
-0.290288 0.057058 0.462322
-0.290288 0.393665 -0.215128
-0.290288 0.175794 -0.444362
-0.290288 -0.321062 -0.311238
-0.290288 0.042814 0.443376
-0.290288 0.319964 0.378801
-0.290288 0.449995 -0.167879
-0.290288 0.431122 0.111472
-0.290288 -0.049789 0.479330
-0.290288 0.457798 0.052780
-0.290288 -0.465418 -0.053569
-0.290288 0.486641 -0.013538
-0.290288 -0.136327 -0.426390
-0.290288 0.396825 0.239035
-0.290288 0.471625 -0.025559
-0.290288 -0.068055 -0.487211
-0.290288 0.332276 0.312750
-0.290288 -0.394381 -0.240001
-0.290288 -0.326038 0.311179
-0.290288 0.371644 -0.308628
-0.290288 0.458432 -0.172854
-0.290288 -0.435286 0.214702
-0.290288 0.465183 0.139395
-0.290288 0.470336 0.097722
-0.290288 -0.421228 0.176229
-0.290288 -0.428469 0.223931
-0.290288 0.025502 -0.481744
-0.290288 -0.401970 0.268687
-0.290288 -0.427472 -0.173952
-0.290288 -0.253167 0.376135
-0.290288 -0.372673 -0.251571
-0.290288 0.170292 0.428341
-0.290288 0.461639 -0.117684
-0.290288 -0.491115 -0.059495
-0.290288 -0.403603 -0.189654
-0.290288 -0.093811 -0.474147
-0.290288 0.305974 0.374201
-0.290288 0.430378 -0.228880
-0.290288 -0.270316 -0.418391
-0.290288 0.311807 0.369348
-0.290288 -0.460363 0.148166
-0.290288 0.458903 0.130323
-0.290288 0.336041 -0.319109
-0.290288 0.434602 0.153697
-0.290288 -0.426373 -0.128865
-0.290288 0.467904 0.102037
-0.290288 -0.279508 -0.406872
-0.290288 0.387454 0.231368
-0.290288 -0.449601 -0.210543
-0.290288 -0.156786 0.431978
-0.290288 0.372002 -0.294822
-0.290288 0.027609 0.490278
-0.290288 0.406232 -0.187063
-0.290288 -0.416082 0.189269
-0.290288 -0.108696 0.447486
-0.290288 0.010328 0.485146
-0.290288 0.451837 -0.128082
-0.290288 0.115253 0.429170
-0.290288 -0.437815 -0.120524
-0.290288 -0.467768 -0.056921
-0.290288 -0.476123 0.082151
-0.290288 -0.210628 0.424615
-0.290288 0.440229 0.091211
-0.290288 0.102245 -0.440345
-0.290288 0.407559 0.241096
-0.290288 -0.281084 0.344292
-0.290288 -0.470702 -0.015980
-0.290288 0.429779 0.177920
-0.290288 0.404583 -0.221898
-0.290288 0.387344 0.255613
-0.290288 0.470357 -0.022184
-0.290288 -0.041462 0.485593
-0.290288 -0.479050 -0.021235
-0.290288 -0.455409 -0.123974
-0.290288 -0.482996 -0.070152
-0.290288 0.491572 -0.014679
-0.290288 -0.140475 0.454782
-0.290288 -0.267738 -0.389299
-0.290288 0.418198 -0.202604
-0.290288 0.469063 0.008032
-0.290288 -0.160939 -0.417975
-0.290288 0.412102 -0.211517
-0.290288 -0.356156 0.265985
-0.290288 -0.480984 -0.083647
-0.290288 0.378791 -0.299058
-0.290288 -0.092789 0.469005
-0.290288 0.474474 -0.153927
-0.290288 -0.154836 -0.454201
-0.290288 -0.190585 -0.451784
-0.290288 -0.455129 0.103123
-0.290288 -0.493469 0.031837
-0.290288 -0.461618 0.104495
-0.290288 -0.463788 -0.063359
-0.290288 0.404412 -0.247114
-0.290288 -0.483762 -0.042847
-0.290288 0.203029 -0.439202
-0.290288 0.461300 -0.045834
-0.290288 -0.156413 -0.430082
-0.290288 0.466541 0.143922
-0.290288 -0.000922 0.469024
-0.290288 -0.237896 0.403151
-0.290288 0.460606 0.183829
-0.290288 0.135892 -0.443640
-0.290288 -0.202876 -0.455863
-0.290288 -0.304270 -0.383693
-0.290288 0.164981 0.453644
-0.290288 -0.008021 0.456565
-0.290288 0.349235 0.302324
-0.290288 0.413100 0.178036
-0.290288 0.356840 0.288568
-0.290288 0.459897 -0.134123
-0.290288 -0.304047 -0.393261
-0.290288 0.117651 0.439761
-0.290288 0.469466 0.119329
-0.290288 0.492355 0.073097
-0.290288 -0.470205 0.125897
-0.290288 -0.293490 0.387788
-0.290288 -0.406179 -0.195153
-0.290288 -0.414853 -0.273749
-0.290288 0.295759 0.396134
-0.290288 0.397152 0.297949
-0.290288 -0.218394 0.419965
-0.290288 -0.417088 -0.208533
-0.290288 -0.291413 0.336971
-0.290288 -0.373125 -0.318234
-0.290288 0.432372 -0.137355
-0.290288 -0.247213 -0.399224
