-0.290288 0.462166 -0.023496
-0.290288 0.105259 -0.471040
-0.290288 0.357506 0.308309
-0.290288 -0.327743 0.305654
-0.290288 0.444064 0.080253
-0.290288 0.459160 0.140232
-0.290288 0.380117 0.274998
-0.290288 -0.408873 0.240665
-0.290288 -0.271224 -0.369827
-0.290288 0.013051 0.485895
-0.290288 -0.442660 -0.086589
-0.290288 0.490434 -0.049389
-0.290288 0.022334 0.480226
-0.290288 0.204440 -0.433166
-0.290288 0.467716 -0.106909
-0.290288 0.036021 -0.464307
-0.290288 0.258817 0.416273
-0.290288 -0.247309 -0.399959
-0.290288 0.489496 -0.068518
-0.290288 -0.147957 0.452937
-0.290288 0.180341 0.451089
-0.290288 0.178935 -0.454979
-0.290288 -0.413689 0.190940
-0.290288 -0.309667 0.336579
-0.290288 -0.182503 0.425998
-0.290288 -0.438548 0.078649
-0.290288 0.108772 -0.484393
-0.290288 -0.447701 -0.057798
-0.290288 0.480663 -0.045807
-0.290288 -0.488586 -0.043409
-0.290288 0.186914 0.458352
-0.290288 0.079556 -0.492698
-0.290288 0.131092 -0.460169
-0.290288 -0.482670 0.073667
-0.290288 0.427826 0.185026
-0.290288 -0.033721 0.459853
-0.290288 -0.446874 0.135071
-0.290288 -0.479441 0.039746
-0.290288 0.323409 -0.330416
-0.290288 0.442734 0.172853
-0.290288 0.258495 0.396643
-0.290288 -0.476657 0.051875
-0.290288 -0.220224 0.415323
-0.290288 0.444939 -0.037405
-0.290288 0.049068 -0.450912
-0.290288 0.398701 0.236474
-0.290288 0.003087 0.465960
-0.290288 0.447578 0.215758
-0.290288 -0.064282 0.487436
-0.290288 0.309038 0.330636
-0.290288 0.464073 -0.068520
-0.290288 -0.120768 0.473697
-0.290288 0.441885 -0.073998
-0.290288 0.453264 -0.163849
-0.290288 -0.180249 0.406388
-0.290288 0.253141 0.379891
-0.290288 0.491753 -0.079471
-0.290288 -0.444450 -0.156508
-0.290288 0.261340 -0.417158
-0.290288 0.158476 0.455618
-0.290288 0.292322 0.344169
-0.290288 0.343135 -0.324376
-0.290288 -0.264772 0.391485
-0.290288 0.307825 0.389217
-0.290288 0.394405 0.281939
-0.290288 0.466255 0.033700
-0.290288 -0.336342 0.323229
-0.290288 0.443960 0.223427
-0.290288 -0.435099 -0.231232
-0.290288 0.475280 0.041094
-0.290288 0.447266 0.135943
-0.290288 -0.269234 0.398813
-0.290288 0.320304 -0.361437
-0.290288 -0.455346 0.027861
-0.290288 -0.288413 -0.391387
-0.290288 -0.188944 -0.432451
-0.290288 -0.355502 0.343850
-0.290288 0.391527 0.259039
-0.290288 -0.264570 0.378599
-0.290288 0.309520 -0.374947
-0.290288 -0.468852 -0.104808
-0.290288 0.162280 -0.449735
-0.290288 -0.340300 0.355679
-0.290288 0.461707 -0.080139
-0.290288 0.466029 -0.138685
-0.290288 -0.179241 0.424763
-0.290288 -0.349569 -0.335053
-0.290288 0.169068 -0.437483
-0.290288 -0.043283 -0.488810
-0.290288 -0.056465 -0.445155
-0.290288 0.229384 0.409923
-0.290288 -0.465702 0.077291
-0.290288 -0.047715 0.444451
-0.290288 0.331653 -0.352514
-0.290288 0.305137 -0.354468
-0.290288 -0.426903 0.207368
-0.290288 0.409001 0.271625
-0.290288 -0.302871 0.350534
-0.290288 -0.465160 -0.145199
-0.290288 -0.100766 -0.461884
-0.290288 -0.497266 -0.009398
-0.290288 0.057939 0.451408
-0.290288 -0.323211 -0.337401
-0.290288 0.285013 -0.354573
-0.290288 -0.459569 -0.027008
-0.290288 0.451151 -0.150345
-0.290288 0.393338 0.277255
-0.290288 0.459948 -0.055272
-0.290288 0.048432 0.482926
-0.290288 0.200130 -0.428307
-0.290288 -0.398367 -0.212326
-0.290288 -0.030415 0.444966
-0.290288 0.487154 -0.003321
-0.290288 0.337099 0.340928
-0.290288 -0.417002 -0.258989
-0.290288 0.015827 0.476426
-0.290288 0.385494 0.301033
-0.290288 -0.451057 0.176558
-0.290288 -0.063534 -0.485807
-0.290288 -0.058635 -0.471304
-0.290288 0.388387 0.250809
-0.290288 -0.068560 -0.450975
-0.290288 -0.443064 -0.131536
-0.290288 -0.150731 -0.447087
-0.290288 -0.465848 0.062318
-0.290288 -0.311365 -0.369041
-0.290288 0.438813 0.124842
-0.290288 0.028558 0.475564
-0.290288 -0.435616 0.143192
-0.290288 0.446105 0.012506
-0.290288 -0.314024 -0.354525
-0.290288 0.286111 0.386324
-0.290288 0.442356 -0.174513
-0.290288 0.051535 -0.475672
-0.290288 0.434087 0.216878
-0.290288 0.040842 0.444735
-0.290288 -0.426068 -0.170717
-0.290288 0.098765 -0.437745
-0.290288 0.402560 0.195458
-0.290288 -0.495074 0.040314
-0.290288 -0.463732 0.110278
-0.290288 0.401729 0.267521
-0.290288 0.177005 -0.448780
-0.290288 -0.145242 -0.475205
-0.290288 -0.445989 0.180120
-0.290288 0.468806 0.014266
-0.290288 -0.071558 0.489054
-0.290288 -0.415162 -0.246512
-0.290288 0.344773 0.281287
-0.290288 0.066040 0.443911
-0.290288 -0.452481 -0.024113
-0.290288 0.203434 0.394964
-0.290288 -0.224791 0.408848
-0.290288 0.241470 0.424136
-0.290288 0.365992 0.258200
-0.290288 0.179614 0.440622
-0.290288 0.408467 0.193016
-0.290288 0.209274 0.431816
-0.290288 -0.343597 0.288720
-0.290288 0.109099 0.453698
-0.290288 0.050299 -0.454781
-0.290288 -0.330761 0.324449
-0.290288 -0.490457 0.008463
-0.290288 -0.115609 0.482234
-0.290288 -0.297645 -0.391391
-0.290288 0.436107 0.091576
-0.290288 -0.401671 -0.198449
-0.290288 -0.483658 0.023430
-0.290288 0.446612 -0.201520
-0.290288 0.242185 -0.429667
-0.290288 -0.364593 -0.311167
-0.290288 0.295475 -0.381806
-0.290288 0.400026 0.256109
-0.290288 -0.291970 -0.345841
-0.290288 -0.321763 0.312416
-0.290288 -0.248683 0.426931
-0.290288 0.114841 0.466871
-0.290288 0.072233 0.483268
-0.290288 0.446439 0.102048
-0.290288 -0.418492 0.173882
-0.290288 0.208220 0.412624
-0.290288 0.190309 -0.417820
-0.290288 0.108728 0.470256
-0.290288 0.344213 -0.309112
-0.290288 0.182250 -0.438248
-0.290288 -0.186721 -0.458415
-0.290288 -0.144249 0.457705
-0.290288 0.139984 -0.465332
-0.290288 -0.473681 0.008551
-0.290288 0.260764 -0.423996
-0.290288 0.425891 0.132593
-0.290288 -0.144784 0.453084
-0.290288 0.468010 -0.151362
-0.290288 -0.482776 -0.073306
-0.290288 -0.342170 -0.318179
-0.290288 0.473709 0.108991
-0.290288 0.225435 -0.423162
-0.290288 -0.489983 -0.005292
-0.290288 -0.243799 -0.408851
-0.290288 0.450120 0.045794
-0.290288 0.152222 0.442254
-0.290288 0.398024 0.284832
-0.290288 0.457041 -0.175675
-0.290288 -0.004361 0.464197
-0.290288 0.080416 0.439210
-0.290288 0.069565 0.467043
-0.290288 -0.111265 -0.486449
-0.290288 -0.418944 -0.221120
-0.290288 -0.139859 -0.477956
-0.290288 -0.464890 -0.003829
-0.290288 0.402204 -0.239892
-0.290288 0.456212 -0.087268
-0.290288 -0.275158 -0.362128
-0.290288 0.071724 0.438914
-0.290288 -0.418625 0.211301
-0.290288 0.143594 -0.446545
-0.290288 -0.075470 0.459395
-0.290288 0.178650 -0.467251
-0.290288 0.301674 -0.352841
-0.290288 0.123572 0.442213
-0.290288 -0.081462 -0.486166
-0.290288 -0.487118 -0.019432
-0.290288 -0.074963 0.489578
-0.290288 -0.297728 0.362274
-0.290288 0.158658 -0.418602
-0.290288 -0.406546 -0.194599
-0.290288 -0.487063 0.082340
-0.290288 0.480401 -0.135441
-0.290288 0.492363 -0.064109
-0.290288 0.181400 -0.425529
-0.290288 0.290057 0.350667
-0.290288 0.229036 -0.403291
-0.290288 0.309553 -0.341152
-0.290288 0.213004 0.424958
-0.290288 -0.447070 -0.104065
-0.290288 0.133887 -0.465786
-0.290288 0.337253 0.332441
-0.290288 0.207936 0.420656
-0.290288 -0.123874 -0.464432
-0.290288 0.432592 -0.211027
-0.290288 -0.393766 0.218075
-0.290288 -0.143565 0.445175
-0.290288 -0.457711 0.121183
-0.290288 0.390265 -0.289148
-0.290288 -0.372776 0.289809
-0.290288 0.086146 -0.471739
-0.290288 -0.320551 -0.366323
-0.290288 -0.021085 -0.467248
-0.290288 -0.039194 -0.495526
-0.290288 -0.413973 0.213591
-0.290288 -0.467457 0.034313
-0.290288 0.406223 -0.283853
-0.290288 0.355576 -0.278444
-0.290288 0.352674 -0.275747
-0.290288 -0.271082 -0.406806
-0.290288 -0.483708 -0.052834
-0.290288 0.434795 0.225780
-0.290288 0.073416 -0.451940
-0.290288 -0.475393 0.037216
-0.290288 -0.373975 0.295274
-0.290288 0.424975 0.251806
-0.290288 -0.321200 0.337267
-0.290288 0.375128 0.308175
-0.290288 -0.368557 0.298062
-0.290288 0.184758 -0.428599
-0.290288 -0.168856 -0.415917
-0.290288 0.124908 -0.464640
-0.290288 -0.333114 0.301294
-0.290288 -0.450377 0.062286
-0.290288 0.491050 -0.082471
-0.290288 0.424762 0.243198
-0.290288 0.184501 -0.454328
-0.290288 0.267089 0.394913
-0.290288 -0.439437 0.069504
-0.290288 -0.417564 0.219323
-0.290288 0.426168 -0.170697
-0.290288 0.061933 0.476196
-0.290288 -0.220026 -0.408576
-0.290288 -0.002413 0.467410
-0.290288 -0.421730 -0.144362
-0.290288 -0.293377 0.335912
-0.290288 0.454052 -0.050843
-0.290288 0.469470 -0.118303
-0.290288 0.283728 0.363586
-0.290288 -0.403807 -0.270172
-0.290288 -0.026463 -0.460817
-0.290288 0.234811 0.396354
-0.290288 -0.149805 0.435795
-0.290288 -0.336004 -0.350146
-0.290288 -0.320751 -0.330334
-0.290288 0.192034 0.411881
-0.290288 -0.472303 -0.091462
-0.290288 0.416965 0.163362
-0.290288 0.431616 -0.236082
-0.290288 -0.068088 0.474524
-0.290288 -0.167058 0.411775
-0.290288 -0.261307 -0.392697
-0.290288 0.420752 0.214748
-0.290288 -0.438723 0.146589
-0.290288 0.438168 0.102719
-0.290288 -0.481210 0.004821
-0.290288 0.374558 0.291721
-0.290288 0.445982 -0.009854
-0.290288 -0.462665 -0.056589
-0.290288 0.441346 -0.069991
-0.290288 -0.125930 -0.436365
-0.290288 -0.050558 0.440965
-0.290288 0.374628 -0.292064
-0.290288 0.423003 -0.176827
-0.290288 -0.149741 -0.469806
-0.290288 0.461413 -0.050163
-0.290288 0.040323 -0.474979
-0.290288 -0.325320 -0.322540
-0.290288 0.411866 0.222361
-0.290288 -0.270245 0.351929
-0.290288 -0.248551 0.421363
-0.290288 -0.436972 0.153513
-0.290288 0.471810 -0.133321
-0.290288 -0.202200 0.403530
-0.290288 -0.041101 -0.453283
-0.290288 0.009539 -0.485915
-0.290288 0.495796 -0.033918
-0.290288 0.211779 0.421054
-0.290288 0.253594 -0.414970
-0.290288 -0.257011 -0.386473
-0.290288 -0.128976 -0.471648
-0.290288 0.224234 -0.416467
-0.290288 0.468403 -0.094020
-0.290288 -0.446076 0.110200
-0.290288 -0.092991 0.435945
-0.290288 0.471092 -0.137042
-0.290288 -0.011688 0.461890
-0.290288 -0.466434 -0.072526
-0.290288 -0.076207 -0.444278
-0.290288 -0.462504 -0.095040
-0.290288 0.075535 0.440876
-0.290288 0.432779 0.149590
-0.290288 -0.169153 0.457353
-0.290288 0.116646 -0.469460
-0.290288 0.407935 -0.203247
-0.290288 -0.464148 -0.173191
-0.290288 -0.480329 0.123949
-0.290288 0.468448 -0.062959
-0.290288 0.060967 0.447734
-0.290288 0.126374 -0.429496
-0.290288 -0.037380 -0.479719
-0.290288 -0.426751 -0.191909
-0.290288 -0.092310 -0.438952
-0.290288 -0.344526 0.280204
-0.290288 -0.235222 0.403264
-0.290288 0.284313 -0.396660
-0.290288 0.190304 -0.407729
-0.290288 -0.197238 0.433553
-0.290288 0.344342 -0.332097
-0.290288 0.417578 0.210131
-0.290288 -0.028581 0.481607
-0.290288 0.331482 0.361287
-0.290288 -0.473639 -0.115074
-0.290288 -0.106683 0.447222
-0.290288 0.347682 -0.300073
-0.290288 -0.281599 -0.383057
-0.290288 0.332848 -0.307850
-0.290288 0.291700 0.392484
-0.290288 -0.478809 0.088573
-0.290288 -0.452561 -0.112424
-0.290288 -0.435374 -0.234899
-0.290288 -0.320908 -0.377801
-0.290288 0.280406 0.390895
-0.290288 0.338477 -0.330816
-0.290288 0.451684 -0.193404
-0.290288 -0.364094 -0.320799
-0.290288 -0.304723 0.356571
-0.290288 -0.213255 -0.405039
-0.290288 -0.008448 0.451496
-0.290288 0.470830 -0.012606
-0.290288 -0.385053 0.232885
-0.290288 -0.375152 0.266664
-0.290288 -0.112412 -0.473628
-0.290288 0.292250 -0.383031
-0.290288 0.393004 -0.298814
-0.290288 0.415094 0.239335
-0.290288 0.435245 0.168764
-0.290288 0.287053 0.357994
-0.290288 0.381941 -0.236562
-0.290288 0.076859 0.446488
-0.290288 0.106156 -0.443763
-0.290288 -0.438414 0.232855
-0.290288 0.460903 -0.036161
-0.290288 -0.191038 -0.428808
-0.290288 -0.488330 0.070510
-0.290288 -0.491133 0.038402
-0.290288 0.482454 -0.056344
-0.290288 0.395970 0.225262
-0.290288 0.316551 -0.378371
-0.290288 -0.495868 0.020686
-0.290288 -0.031435 0.476190
-0.290288 0.037742 -0.468182
-0.290288 0.459001 0.002224
-0.290288 0.449439 -0.136093
-0.290288 -0.230410 -0.393527
-0.290288 -0.056507 -0.487359
-0.290288 -0.243408 0.376506
-0.290288 0.378290 -0.277240
-0.290288 0.153711 -0.456412
-0.290288 -0.238074 0.376111
-0.290288 0.460573 -0.179702
-0.290288 -0.368855 -0.328902
-0.290288 0.197082 -0.407778
-0.290288 0.386431 0.245632
-0.290288 -0.417551 0.246333
-0.290288 -0.266732 0.382267
-0.290288 0.338795 0.344425
-0.290288 -0.351079 -0.307852
-0.290288 -0.429711 -0.194262
-0.290288 0.228391 0.390269
-0.290288 0.300236 -0.345523
-0.290288 -0.419548 -0.232621
-0.290288 0.347684 -0.316322
-0.290288 0.467164 0.001277
-0.290288 -0.009244 0.474633
-0.290288 -0.236763 -0.418237
-0.290288 0.440258 -0.154839
-0.290288 -0.440306 0.066614
-0.290288 -0.367234 -0.313768
-0.290288 0.254172 -0.411209
-0.290288 -0.004638 -0.485709
-0.290288 0.446544 -0.111076
-0.290288 -0.253971 0.387999
-0.290288 0.289885 -0.389140
-0.290288 0.158507 0.465699
-0.290288 -0.203796 -0.407590
-0.290288 -0.004521 0.454541
-0.290288 -0.275840 0.358692
-0.290288 -0.458378 -0.150135
-0.290288 -0.354755 -0.308202
-0.290288 -0.336867 -0.298865
-0.290288 -0.005313 -0.453738
-0.290288 -0.125508 -0.429882
-0.290288 0.346123 -0.349550
-0.290288 0.277320 0.346858
-0.290288 0.368105 -0.263076
-0.290288 0.494772 0.021373
-0.290288 -0.386316 0.257476
-0.290288 0.308048 -0.371757
-0.290288 -0.130676 0.474932
-0.290288 0.422648 0.224582
-0.290288 -0.359250 -0.345466
-0.290288 -0.180697 0.416043
-0.290288 0.491671 0.074667
-0.290288 -0.448076 0.078687
-0.290288 0.465986 0.149169
-0.290288 -0.463422 -0.138975
-0.290288 -0.472936 0.150849
-0.290288 0.482583 -0.010120
-0.290288 0.489984 0.013645
-0.290288 0.025617 -0.470870
-0.290288 0.142191 0.457211
-0.290288 -0.077247 -0.491058
-0.290288 0.462838 0.165109
-0.290288 0.292666 -0.369642
-0.290288 0.426173 -0.244797
-0.290288 0.112900 0.434970
-0.290288 0.381318 -0.268638
-0.290288 0.218624 0.407812
-0.290288 0.457702 0.085176
-0.290288 0.079716 0.462787
-0.290288 -0.442794 -0.071786
-0.290288 0.307349 0.347286
-0.290288 0.082339 -0.486352
-0.290288 -0.198172 0.404135
-0.290288 -0.325459 -0.347552
-0.290288 0.139785 0.471308
-0.290288 0.047581 -0.496748
-0.290288 -0.441071 0.161768
-0.290288 0.192829 0.423640
-0.290288 0.345685 -0.341860
-0.290288 -0.252684 -0.429500
-0.290288 -0.008126 -0.493816
-0.290288 -0.333732 0.338685
-0.290288 -0.401013 -0.282335
-0.290288 0.186660 0.430806
-0.290288 0.438602 -0.175138
-0.290288 -0.380539 -0.266686
-0.290288 0.097665 0.471520
-0.290288 0.328120 -0.354012
-0.290288 0.461237 -0.130367
-0.290288 0.391644 -0.291938
-0.290288 -0.193495 0.446083
-0.290288 0.360775 -0.338037
-0.290288 -0.348745 -0.327114
-0.290288 0.034148 -0.489833
-0.290288 0.459010 -0.069137
-0.290288 -0.267494 -0.369896
-0.290288 -0.481975 -0.049426
-0.290288 -0.457111 0.093871
-0.290288 -0.330219 -0.309717
-0.290288 -0.158242 -0.472760
-0.290288 -0.463754 0.040062
-0.290288 0.443685 -0.220655
-0.290288 -0.064437 0.443381
-0.290288 -0.481217 -0.042665
-0.290288 0.056991 -0.470658
-0.290288 -0.162761 -0.466123
-0.290288 -0.094701 0.450562
-0.290288 0.262251 -0.379170
-0.290288 -0.051202 -0.473686
-0.290288 0.353563 0.344166
-0.290288 0.250535 0.399610
-0.290288 0.378407 -0.291807
-0.290288 -0.221819 0.443212
-0.290288 0.397386 0.253288
-0.290288 0.432725 -0.180002
-0.290288 -0.435612 -0.225969
-0.290288 0.375028 -0.253364
-0.290288 -0.459410 0.028189
-0.290288 0.123769 -0.445612
-0.290288 -0.107898 0.463472
-0.290288 0.051582 -0.495157
-0.290288 -0.378863 0.285836
-0.290288 -0.373094 0.248483
-0.290288 -0.464748 0.050633
-0.290288 -0.335938 0.345421
-0.290288 -0.113401 -0.446791
-0.290288 0.104237 0.460650
-0.290288 -0.156316 -0.456679
-0.290288 -0.494687 -0.048082
-0.290288 -0.113594 0.463426
-0.290288 0.420948 0.148884
-0.290288 0.122600 0.476057
-0.290288 -0.457552 0.181939
-0.290288 -0.445520 -0.117585
-0.290288 0.458342 -0.039612
-0.290288 0.464123 -0.005259
-0.290288 0.449183 0.037356
-0.290288 0.160224 0.413624
-0.290288 0.440065 -0.226511
-0.290288 -0.091328 -0.446396
-0.290288 0.471706 -0.046631
-0.290288 0.455028 -0.037820
-0.290288 0.483022 0.064962
-0.290288 -0.117527 0.448663
-0.290288 -0.109233 -0.434495
-0.290288 -0.255837 -0.407590
-0.290288 -0.296136 0.331299
-0.290288 -0.477374 -0.023626
-0.290288 0.091090 -0.466428
-0.290288 0.002228 -0.483508
-0.290288 -0.446436 0.095867
-0.290288 0.451481 -0.196563
-0.290288 -0.274447 -0.352511
-0.290288 -0.096904 -0.461968
-0.290288 -0.365224 0.291277
-0.290288 0.481953 0.091374
-0.290288 0.056585 0.458555
-0.290288 -0.101665 0.464354
-0.290288 0.107493 -0.488276
-0.290288 -0.054946 -0.463122
-0.290288 -0.190879 -0.452464
-0.290288 0.043743 -0.469186
-0.290288 0.158037 0.439395
-0.290288 0.391233 0.273493
-0.290288 -0.429094 0.138183
-0.290288 0.170497 -0.414307
-0.290288 -0.452669 -0.047206
-0.290288 -0.456896 0.134233
-0.290288 0.479014 -0.021454
-0.290288 -0.321783 0.348199
-0.290288 0.177628 -0.426649
-0.290288 -0.477534 0.011342
-0.290288 -0.101925 0.457710
-0.290288 0.449493 0.207716
-0.290288 0.033162 -0.498950
-0.290288 0.490714 -0.057290
-0.290288 0.424183 -0.201943
-0.290288 -0.378898 0.240861
-0.290288 0.109065 -0.454574
-0.290288 0.131009 -0.446312
-0.290288 0.413992 -0.206056
-0.290288 -0.283685 -0.385984
-0.290288 0.015046 -0.460855
-0.290288 -0.474523 -0.069474
-0.290288 -0.153110 0.459209
-0.290288 0.119635 -0.467366
-0.290288 -0.468462 0.057704
-0.290288 -0.159032 0.452937
-0.290288 -0.424607 -0.135090
-0.290288 -0.433801 -0.110811
-0.290288 -0.098907 -0.450203
-0.290288 -0.017247 0.472498
-0.290288 0.423704 0.174485
-0.290288 0.170152 -0.458517
-0.290288 -0.120586 -0.456656
-0.290288 0.152182 -0.450837
-0.290288 -0.208314 0.392988
-0.290288 -0.476753 -0.112341
-0.290288 -0.313867 -0.326676
-0.290288 0.242892 -0.419057
-0.290288 0.142285 0.444513
-0.290288 0.243589 0.426598
-0.290288 -0.399468 -0.226701
-0.290288 -0.434150 0.217959
-0.290288 0.396523 -0.214641
-0.290288 0.292998 -0.390140
-0.290288 -0.008073 -0.451972
-0.290288 -0.399043 -0.219178
-0.290288 -0.257264 -0.427952
-0.290288 0.181745 -0.456451
-0.290288 -0.395316 0.214976
-0.290288 -0.451737 -0.101924
-0.290288 -0.258929 -0.370640
-0.290288 0.336792 0.312066
-0.290288 -0.078458 0.439152
-0.290288 -0.446863 -0.107117
-0.290288 -0.421389 -0.245475
-0.290288 -0.206418 0.395492
-0.290288 -0.475891 0.003206
-0.290288 -0.309293 0.318034
-0.290288 0.306336 -0.336236
-0.290288 -0.153848 -0.448651
-0.290288 -0.325743 0.333829
-0.290288 0.322768 0.377014
-0.290288 0.419505 0.175535
-0.290288 -0.335457 -0.307634
-0.290288 -0.120789 0.447556
-0.290288 0.458573 0.116911
-0.290288 -0.488912 0.029059
-0.290288 -0.404816 -0.216262
-0.290288 -0.400060 -0.245401
-0.290288 -0.235769 -0.399685
-0.290288 -0.440182 0.227989
-0.290288 -0.492987 0.064885
-0.290288 -0.172945 -0.431149
-0.290288 -0.449670 0.096002
-0.290288 0.402365 0.192034
-0.290288 -0.381497 -0.279594
-0.290288 -0.409938 0.217867
-0.290288 0.253654 -0.394758
-0.290288 -0.395301 0.223164
-0.290288 -0.285939 0.348205
-0.290288 -0.034762 -0.469285
-0.290288 0.354961 -0.320125
-0.290288 -0.130680 -0.456118
-0.290288 0.151118 0.463162
-0.290288 0.138761 -0.440986
-0.290288 0.446687 -0.117055
-0.290288 0.415997 0.168982
-0.290288 -0.183900 0.404535
-0.290288 -0.485119 0.067678
-0.290288 0.394914 -0.236352
-0.290288 0.359603 0.319397
-0.290288 0.482296 -0.102402
-0.290288 -0.477882 -0.054979
-0.290288 -0.300247 -0.362329
-0.290288 0.479033 -0.050269
-0.290288 0.335434 -0.359358
-0.290288 -0.392649 0.221005
-0.290288 -0.068612 -0.492450
-0.290288 0.251627 0.423830
-0.290288 0.407722 -0.252974
-0.290288 0.423603 -0.227225
-0.290288 -0.349669 -0.286855
-0.290288 -0.253867 -0.426034
-0.290288 0.271586 -0.387619
-0.290288 0.405223 -0.275772
-0.290288 0.234456 0.410859
-0.290288 0.222374 0.429043
-0.290288 0.487517 0.101378
-0.290288 -0.485937 0.041366
-0.290288 0.051343 0.481118
-0.290288 0.311940 0.386339
-0.290288 -0.235630 0.427759
-0.290288 0.104676 0.471188
-0.290288 -0.314536 -0.367253
-0.290288 0.110060 0.460640
-0.290288 0.362558 0.302399
-0.290288 0.146845 0.464500
-0.290288 -0.426374 -0.129224
-0.290288 0.431910 -0.219020
-0.290288 -0.350584 0.286868
-0.290288 0.475472 0.083965
-0.290288 0.183984 0.441353
-0.290288 0.450753 0.061379
-0.290288 -0.473927 -0.095275
-0.290288 0.299507 0.377836
-0.290288 -0.109333 0.438147
-0.290288 0.097258 0.460028
-0.290288 -0.405454 -0.187998
-0.290288 0.473319 0.081241
-0.290288 -0.468941 0.021098
-0.290288 -0.225458 -0.387108
-0.290288 -0.312125 0.345398
-0.290288 -0.223776 0.433751
-0.290288 0.366183 0.302926
-0.290288 -0.144401 -0.478555
-0.290288 -0.320820 -0.345451
-0.290288 0.471271 -0.128294
-0.290288 0.433786 -0.230282
-0.290288 0.278522 -0.384962
-0.290288 0.430263 0.161118
-0.290288 -0.176818 0.462394
-0.290288 0.446676 -0.084788
-0.290288 -0.393696 -0.285005
-0.290288 0.440038 0.068791
-0.290288 0.171390 -0.431954
-0.290288 0.484917 -0.064046
-0.290288 0.088775 0.482798
-0.290288 0.006858 0.478738
-0.290288 0.451653 -0.083488
-0.290288 0.449022 0.075072
-0.290288 0.485518 0.063090
-0.290288 0.302708 0.330614
-0.290288 -0.211116 0.438475
-0.290288 0.416247 -0.240498
-0.290288 -0.188175 0.437273
-0.290288 -0.422589 0.201525
-0.290288 -0.348934 -0.341136
-0.290288 -0.355960 0.302153
-0.290288 0.453404 0.063684
-0.290288 0.148628 -0.432724
-0.290288 0.289862 -0.373391
-0.290288 0.038401 -0.477502
-0.290288 0.459124 -0.164409
-0.290288 -0.304395 0.374785
-0.290288 -0.405058 0.256179
-0.290288 -0.247552 0.368459
-0.290288 0.470198 0.155102
-0.290288 0.453195 0.104587
-0.290288 -0.175485 -0.446389
-0.290288 0.432716 -0.245468
-0.290288 -0.437300 0.132830
-0.290288 0.156845 -0.455428
-0.290288 -0.264720 0.410121
-0.290288 0.102977 0.483407
-0.290288 -0.306917 -0.385081
-0.290288 -0.436062 0.138947
-0.290288 -0.232613 0.415765
-0.290288 0.457595 0.107765
-0.290288 -0.266063 0.358892
-0.290288 0.012179 -0.459381
-0.290288 -0.242327 -0.405465
-0.290288 0.183481 -0.432034
-0.290288 -0.418774 -0.174678
-0.290288 0.427944 0.189532
-0.290288 -0.421734 -0.202485
-0.290288 -0.234918 -0.436784
-0.290288 0.441474 0.203716
-0.290288 -0.253100 0.381234
-0.290288 0.463286 0.135491
-0.290288 0.024276 0.494354
-0.290288 -0.381694 0.314381
-0.290288 -0.375465 -0.317199
-0.290288 -0.340165 -0.331514
-0.290288 -0.301410 0.389764
-0.290288 0.422342 -0.258100
-0.290288 0.308295 -0.393678
-0.290288 -0.107995 -0.438604
-0.290288 -0.482439 -0.061942
-0.290288 -0.328100 -0.371389
-0.290288 -0.309017 -0.376950
-0.290288 -0.436068 -0.183698
-0.290288 0.133281 0.434568
-0.290288 0.098264 0.439239
-0.290288 -0.464167 0.141217
-0.290288 0.421773 -0.187678
-0.290288 0.373364 0.244797
-0.290288 -0.460598 -0.118431
-0.290288 0.078381 -0.469143
-0.290288 -0.299333 -0.372814
-0.290288 -0.189578 0.400854
-0.290288 -0.148084 0.471460
-0.290288 0.433777 0.132630
-0.290288 0.428430 0.122237
-0.290288 0.270652 -0.405153
-0.290288 0.466512 0.092923
-0.290288 -0.425052 0.242152
-0.290288 -0.376325 -0.250890
-0.290288 0.408112 0.229453
-0.290288 0.354519 -0.313829
-0.290288 0.184215 0.413314
-0.290288 -0.236339 0.431721
-0.290288 -0.416865 0.197212
-0.290288 0.280427 0.356279
-0.290288 -0.431075 -0.241295
-0.290288 -0.085064 -0.469914
-0.290288 0.348948 -0.329048
-0.290288 -0.465944 -0.007767
-0.290288 0.363465 0.283982
-0.290288 0.196094 0.421849
-0.290288 -0.039428 0.476426
-0.290288 0.394693 0.241684
-0.290288 -0.253526 -0.422246
-0.290288 -0.003148 -0.466331
-0.290288 -0.429651 -0.127660
-0.290288 -0.451572 0.006558
-0.290288 0.266893 0.408549
-0.290288 0.467660 -0.135242
-0.290288 -0.462221 -0.102323
-0.290288 -0.014656 -0.474495
-0.290288 0.352497 -0.326682
-0.290288 0.045268 -0.449149
-0.290288 0.091106 -0.452333
-0.290288 -0.186618 0.454452
-0.290288 -0.091844 0.443635
-0.290288 -0.083352 -0.478558
-0.290288 0.232676 -0.434277
-0.290288 0.313084 -0.369519
-0.290288 0.017672 -0.453387
-0.290288 -0.383638 -0.275529
-0.290288 -0.409118 0.172679
-0.290288 0.474325 0.133064
-0.290288 -0.397813 0.226010
-0.290288 0.184358 0.426938
-0.290288 0.466936 0.052056
-0.290288 -0.405830 -0.261285
-0.290288 -0.243507 0.399450
-0.290288 0.273319 0.406360
-0.290288 -0.019844 -0.447858
-0.290288 -0.061594 0.470517
-0.290288 -0.109919 -0.447215
-0.290288 -0.465646 -0.086021
-0.290288 0.044524 0.446462
-0.290288 0.260907 -0.386565
-0.290288 0.163219 -0.434619
-0.290288 -0.132714 0.452856
-0.290288 0.400578 -0.230978
-0.290288 -0.154103 -0.474190
-0.290288 0.444024 -0.125810
-0.290288 -0.207120 -0.441315
-0.290288 -0.282877 -0.402311
-0.290288 0.294183 -0.395012
-0.290288 0.414890 0.216013
-0.290288 -0.389916 0.243855
-0.290288 -0.441537 0.118304
-0.290288 0.007567 0.445761
-0.290288 0.382090 0.312090
-0.290288 -0.104733 0.479651
-0.290288 -0.439407 0.091903
-0.290288 0.390997 -0.263528
-0.290288 -0.243447 -0.375420
-0.290288 0.101958 -0.473842
-0.290288 0.174279 0.412806
-0.290288 -0.443636 -0.048662
-0.290288 -0.059275 0.440449
-0.290288 0.297101 -0.344511
-0.290288 -0.413630 -0.193169
-0.290288 -0.312870 -0.385288
-0.290288 -0.021808 0.490940
-0.290288 -0.442109 0.048097
-0.290288 0.363004 0.290247
-0.290288 -0.046803 0.440991
-0.290288 0.171363 0.424183
-0.290288 0.443083 0.193529
-0.290288 0.448414 0.174443
-0.290288 0.479457 -0.012142
-0.290288 -0.432799 0.170293
-0.290288 -0.468938 -0.167386
-0.290288 0.463172 0.086638
-0.290288 -0.368204 0.317514
-0.290288 -0.339791 0.318045
-0.290288 0.046548 -0.462970
-0.290288 0.432946 -0.109910
-0.290288 0.453220 -0.129593
-0.290288 0.454846 -0.181382
-0.290288 0.146851 0.436344
-0.290288 0.329317 -0.305270
-0.290288 -0.042744 -0.497694
-0.290288 -0.211917 -0.452555
-0.290288 -0.432374 0.206393
-0.290288 0.465401 -0.116804
-0.290288 -0.280367 0.381382
-0.290288 -0.032689 0.472831
-0.290288 0.369503 -0.333575
-0.290288 0.201121 -0.420172
-0.290288 0.061612 -0.472515
-0.290288 0.356106 -0.295678
-0.290288 -0.467172 0.120129
-0.290288 0.017130 -0.448647
-0.290288 0.066942 0.491230
-0.290288 0.103328 -0.446078
-0.290288 -0.345327 0.324160
-0.290288 -0.472946 -0.129098
-0.290288 0.061715 -0.490620
-0.290288 0.029701 -0.466437
-0.290288 -0.447462 -0.012364
-0.290288 0.389732 -0.304498
-0.290288 -0.479579 -0.091693
-0.290288 -0.417566 -0.203048
-0.290288 -0.258105 -0.364867
-0.290288 0.014452 0.482589
-0.290288 0.045964 0.480925
-0.290288 0.329664 0.328784
-0.290288 0.459848 0.076595
-0.290288 0.196786 -0.439281
-0.290288 0.274497 -0.382813
-0.290288 0.446002 0.183544
-0.290288 0.450266 0.024491
-0.290288 0.188346 -0.449767
-0.290288 -0.059773 -0.496331
-0.290288 0.272998 0.368483
-0.290288 0.482666 0.048849
-0.290288 0.395949 0.266951
-0.290288 0.393829 0.222356
-0.290288 -0.408081 0.220664
-0.290288 -0.070335 -0.479182
-0.290288 0.197761 -0.418900
-0.290288 -0.047574 0.457836
-0.290288 -0.088412 0.452406
-0.290288 -0.440285 -0.149792
-0.290288 0.451736 0.093582
-0.290288 0.091089 0.470287
-0.290288 -0.421218 0.145077
-0.290288 -0.327269 0.336984
-0.290288 -0.429421 0.115744
-0.290288 0.164008 -0.437980
-0.290288 -0.471205 -0.004554
-0.290288 0.009783 0.462277
-0.290288 -0.396619 0.289162
-0.290288 -0.238427 0.397710
-0.290288 -0.382782 -0.308208
-0.290288 0.245572 0.422554
-0.290288 0.130829 0.423893
-0.290288 0.087410 0.479227
-0.290288 -0.128061 -0.432355
-0.290288 0.225669 -0.413115
-0.290288 -0.461663 -0.008614
-0.290288 0.445381 0.212320
-0.290288 0.408301 0.199103
-0.290288 0.479879 0.064198
-0.290288 0.264079 0.418624
-0.290288 0.158204 -0.425228
-0.290288 -0.108297 0.459580
-0.290288 0.124000 0.472909
-0.290288 0.148607 0.455000
-0.290288 -0.319129 -0.381466
-0.290288 -0.010778 -0.447674
-0.290288 0.093928 0.458704
-0.290288 0.270532 0.388008
-0.290288 0.376684 -0.297367
-0.290288 0.135723 -0.473601
-0.290288 -0.072530 -0.452275
-0.290288 -0.377376 -0.265016
-0.290288 0.477433 0.134569
-0.290288 0.473327 -0.056518
-0.290288 -0.438063 -0.228013
-0.290288 0.465789 0.027554
-0.290288 0.347854 0.337897
-0.290288 -0.157994 -0.438897
-0.290288 0.416449 -0.247778
-0.290288 -0.305005 0.378472
-0.290288 0.455429 -0.024943
-0.290288 -0.011163 0.456689
-0.290288 0.380362 0.279153
-0.290288 -0.451280 -0.094483
-0.290288 -0.378796 0.265138
-0.290288 0.410710 0.237096
-0.290288 -0.490303 -0.086260
-0.290288 -0.474373 -0.145636
-0.290288 0.382512 0.264325
-0.290288 0.368739 0.249481
-0.290288 0.126799 -0.449054
-0.290288 0.481845 0.028450
-0.290288 0.299216 0.358191
-0.290288 0.494357 0.059679
-0.290288 -0.448152 0.187822
-0.290288 -0.285949 -0.360099
-0.290288 -0.062698 -0.449211
-0.290288 0.413838 0.274354
-0.290288 0.456087 0.076173
-0.290288 -0.208862 -0.453957
-0.290288 -0.199959 0.401338
-0.290288 -0.090464 -0.491059
-0.290288 -0.219855 -0.434767
-0.290288 0.178254 -0.438596
-0.290288 0.350683 0.350764
-0.290288 0.386001 0.273875
-0.290288 0.469569 -0.081243
-0.290288 0.051828 0.467351
-0.290288 -0.324420 -0.371844
-0.290288 -0.125095 -0.472185
-0.290288 -0.397025 -0.299121
-0.290288 0.314363 -0.357136
-0.290288 0.439383 0.231392
-0.290288 0.468981 0.110756
-0.290288 -0.172435 0.446100
-0.290288 0.297816 0.348131
-0.290288 -0.047111 -0.445194
-0.290288 -0.448968 -0.001417
-0.290288 0.470190 0.063514
-0.290288 -0.385619 0.312168
-0.290288 0.347722 -0.344539
-0.290288 -0.437177 -0.162904
-0.290288 -0.407655 -0.251398
-0.290288 0.376449 0.280001
-0.290288 -0.099053 0.445239
-0.290288 -0.040473 0.479500
-0.290288 -0.259601 0.370233
-0.290288 -0.287260 -0.394428
-0.290288 -0.058406 0.448158
-0.290288 -0.339423 0.331779
-0.290288 -0.367546 0.269929
-0.290288 0.433377 0.171778
-0.290288 0.239432 -0.427986
-0.290288 -0.105646 -0.435620
-0.290288 -0.471386 -0.007828
-0.290288 -0.361000 0.296103
-0.290288 -0.475880 0.065248
-0.290288 0.273981 0.361400
-0.290288 0.412210 0.206987
-0.290288 0.247249 -0.415558
-0.290288 -0.204836 0.430062
-0.290288 0.410366 0.212767
-0.290288 -0.338934 0.335224
-0.290288 -0.181864 0.410437
-0.290288 0.214176 0.442135
-0.290288 -0.114051 -0.439704
-0.290288 -0.062860 -0.463223
-0.290288 0.385176 0.238897
-0.290288 -0.051447 -0.497241
-0.290288 0.469551 0.121339
-0.290288 -0.218478 0.427773
-0.290288 -0.433152 -0.237971
-0.290288 0.050560 -0.463620
-0.290288 -0.330981 -0.329388
-0.290288 -0.137724 -0.462808
-0.290288 -0.361283 0.281869
-0.290288 -0.327264 0.327615
-0.290288 -0.063132 -0.495977
-0.290288 -0.488567 0.004488
-0.290288 0.117995 -0.442224
-0.290288 -0.466270 0.149088
-0.290288 0.326838 -0.338923
-0.290288 -0.487689 0.054019
-0.290288 -0.336393 0.299321
-0.290288 -0.426252 0.162166
-0.290288 -0.372869 -0.330954
-0.290288 -0.131419 -0.475358
-0.290288 -0.337892 0.351793
-0.290288 -0.472895 -0.010479
-0.290288 0.476954 0.079873
-0.290288 -0.454112 -0.009257
-0.290288 0.343679 -0.291606
-0.290288 0.462418 -0.122030
-0.290288 0.426741 -0.145268
-0.290288 -0.299170 0.349248
-0.290288 -0.242536 -0.430166
-0.290288 0.157966 -0.444959
-0.290288 0.290892 0.336784
-0.290288 -0.190296 0.451941
-0.290288 0.358003 0.291279
-0.290288 0.429723 0.148281
-0.290288 0.374360 0.258806
-0.290288 -0.063919 0.484294
-0.290288 -0.478802 0.094797
-0.290288 -0.444586 -0.075516
-0.290288 0.422922 0.142399
-0.290288 -0.453102 -0.184388
-0.290288 -0.452642 -0.208800
-0.290288 0.424537 0.235861
-0.290288 0.418411 0.259678
-0.290288 -0.431960 0.144799
-0.290288 0.236672 0.414626
-0.290288 -0.467370 -0.139456
-0.290288 -0.353585 0.268267
-0.290288 -0.181907 -0.431878
-0.290288 0.152405 -0.463124
-0.290288 0.274759 -0.358529
-0.290288 0.353679 -0.342272
-0.290288 -0.085221 -0.454636
-0.290288 -0.236105 -0.426905
-0.290288 -0.174680 0.438135
-0.290288 -0.239148 -0.390525
-0.290288 0.179364 -0.459056
-0.290288 0.227847 0.394417
-0.290288 -0.393375 -0.297089
-0.290288 0.071577 0.475287
-0.290288 -0.472764 0.064674
-0.290288 -0.412438 0.226576
-0.290288 -0.490615 -0.081889
-0.290288 -0.458976 0.174585
-0.290288 0.301983 -0.379582
-0.290288 -0.253936 0.397767
-0.290288 0.345778 0.342429
-0.290288 -0.427515 0.143907
-0.290288 -0.459449 0.117904
-0.290288 0.465122 0.015048
-0.290288 -0.072696 0.447761
-0.290288 0.447563 -0.215634
-0.290288 0.490334 0.078369
-0.290288 0.455324 -0.074389
-0.290288 0.163357 0.464190
-0.290288 0.469739 0.027225
-0.290288 0.350576 -0.285942
-0.290288 0.414973 -0.269540
-0.290288 -0.331179 0.336499
-0.290288 -0.027011 -0.480540
-0.290288 -0.489978 -0.068739
-0.290288 -0.147292 0.431944
-0.290288 -0.459660 -0.065816
-0.290288 -0.375992 0.280221
-0.290288 0.101853 0.444313
-0.290288 -0.109350 -0.443265
-0.290288 -0.439879 0.177455
-0.290288 0.097525 0.450742
-0.290288 -0.474594 -0.041229
-0.290288 0.043979 0.441665
-0.290288 0.335731 -0.348000
-0.290288 -0.092701 0.486565
-0.290288 0.462038 0.100088
-0.290288 0.164085 0.454082
-0.290288 -0.432613 0.102669
-0.290288 -0.492554 0.061863
-0.290288 -0.158984 0.432310
-0.290288 0.477459 0.089986
-0.290288 -0.123506 0.430856
-0.290288 -0.283501 0.390498
-0.290288 0.431708 -0.175330
-0.290288 0.441322 -0.065388
-0.290288 -0.338338 -0.352658
-0.290288 -0.291740 0.379088
-0.290288 -0.245557 0.412869
-0.290288 -0.330715 0.344638
-0.290288 -0.358541 -0.293528
-0.290288 -0.046836 -0.488412
-0.290288 -0.016020 -0.459694
-0.290288 -0.151735 0.465493
-0.290288 -0.214182 -0.431661
-0.290288 -0.388792 -0.256384
-0.290288 -0.424773 0.249884
-0.290288 -0.435848 0.167791
-0.290288 0.025873 0.491517
-0.290288 0.332237 -0.311794
-0.290288 0.012329 0.489384
-0.290288 0.204924 -0.447886
-0.290288 0.391382 -0.309673
-0.290288 -0.274843 -0.415057
-0.290288 -0.417453 0.182169
-0.290288 -0.267882 -0.381558
-0.290288 0.439649 0.178438
-0.290288 0.171679 0.414799
-0.290288 0.381979 -0.254457
-0.290288 -0.488244 -0.051233
-0.290288 0.400299 -0.298898
-0.290288 -0.391332 -0.241157
-0.290288 -0.437817 0.179913
-0.290288 0.432609 0.145303
-0.290288 0.121492 0.466437
-0.290288 0.426209 -0.184602
-0.290288 -0.272729 0.400066
-0.290288 0.480337 -0.090701
-0.290288 -0.281714 -0.370583
-0.290288 -0.123351 -0.477434
-0.290288 0.105303 -0.467814
-0.290288 -0.190330 0.407131
-0.290288 -0.428438 0.196572
-0.290288 -0.369823 0.304361
-0.290288 -0.314430 0.353231
-0.290288 0.203792 -0.409293
-0.290288 0.331215 0.315244
-0.290288 0.124995 -0.441888
-0.290288 -0.141250 -0.429281
-0.290288 -0.167396 -0.450954
-0.290288 0.338362 -0.320937
-0.290288 -0.379310 -0.282140
-0.290288 0.486589 -0.012764
-0.290288 0.325994 -0.362064
-0.290288 -0.301211 -0.391019
-0.290288 0.108441 -0.466818
-0.290288 -0.044558 -0.469627
-0.290288 0.424043 0.151552
-0.290288 -0.431221 0.237870
-0.290288 -0.470854 0.017996
-0.290288 -0.270577 -0.355787
-0.290288 -0.331172 -0.349784
-0.290288 0.156318 0.425835
-0.290288 -0.267396 -0.378362
-0.290288 0.061839 0.464403
-0.290288 -0.407036 -0.267808
-0.290288 0.481615 0.079633
-0.290288 -0.336251 0.310753
-0.290288 -0.388433 0.295593
-0.290288 0.175262 0.426820
-0.290288 -0.468030 0.116333
-0.290288 0.438883 -0.130846
-0.290288 0.083754 0.450915
-0.290288 -0.329099 0.333383
-0.290288 0.454354 0.165706
-0.290288 0.231969 0.388941
-0.290288 0.322818 0.317862
-0.290288 0.394407 -0.273638
-0.290288 0.342111 -0.328545
-0.290288 -0.361659 0.311746
-0.290288 -0.453842 -0.000273
-0.290288 -0.202338 -0.415139
-0.290288 -0.194815 0.443135
-0.290288 0.100067 -0.471048
-0.290288 0.497696 -0.028115
-0.290288 -0.420540 0.213727
-0.290288 -0.453407 0.091272
-0.290288 -0.397892 0.292518
-0.290288 0.193137 0.457129
-0.290288 -0.252119 -0.411737
-0.290288 -0.445194 -0.214743
-0.290288 -0.379453 0.319121
-0.290288 0.466124 0.098349
-0.290288 -0.167581 0.415723
-0.290288 0.018121 -0.491239
-0.290288 0.413545 -0.183350
-0.290288 0.206921 0.415929
-0.290288 -0.482165 0.060659
-0.290288 -0.455510 -0.077042
-0.290288 0.311858 -0.355155
-0.290288 -0.445608 0.089063
-0.290288 -0.023807 0.475282
-0.290288 -0.439239 -0.130438
-0.290288 -0.483699 -0.016813
-0.290288 0.434172 0.241237
-0.290288 -0.220941 -0.392047
-0.290288 0.277124 -0.351546
-0.290288 -0.314682 0.338709
-0.290288 0.206197 -0.402812
-0.290288 0.476045 0.051559
-0.290288 0.431947 0.222596
-0.290288 0.393072 0.231591
-0.290288 0.419766 0.205286
-0.290288 -0.284160 0.369380
-0.290288 0.089095 -0.464023
-0.290288 -0.387517 -0.228532
-0.290288 0.045403 -0.460037
-0.290288 -0.048860 0.469961
-0.290288 -0.032921 0.456660
-0.290288 -0.088411 0.447922
-0.290288 -0.456455 0.151431
-0.290288 -0.411368 -0.226156
-0.290288 0.376695 -0.287572
-0.290288 -0.361482 -0.306446
-0.290288 0.401353 -0.255224
-0.290288 -0.273839 0.376548
-0.290288 0.461455 0.042812
-0.290288 0.437557 -0.224339
-0.290288 -0.360578 -0.279785
-0.290288 -0.161084 -0.448246
-0.290288 -0.408541 -0.285137
-0.290288 -0.404293 0.193962
-0.290288 0.322385 -0.341530
-0.290288 -0.418590 -0.227111
-0.290288 -0.011609 0.470635
-0.290288 -0.349384 -0.300115
-0.290288 0.471044 -0.114282
-0.290288 -0.208357 0.432230
-0.290288 0.368284 -0.282826
-0.290288 0.172421 -0.441525
-0.290288 -0.314305 0.377389
-0.290288 0.286007 -0.374220
-0.290288 0.381357 0.269239
-0.290288 -0.287394 -0.353271
-0.290288 -0.442832 0.092527
-0.290288 -0.438839 0.209676
-0.290288 0.331508 -0.373404
-0.290288 -0.235196 0.422382
-0.290288 0.450880 -0.139807
-0.290288 0.386802 -0.225925
-0.290288 0.142482 0.421460
-0.290288 0.207987 0.438663
-0.290288 0.454051 -0.006634
-0.290288 -0.445771 -0.054594
-0.290288 -0.323466 -0.331905
-0.290288 0.465459 0.078063
-0.290288 0.258775 -0.369504
-0.290288 -0.100179 -0.480199
-0.290288 -0.378811 0.312313
-0.290288 0.473691 -0.002233
-0.290288 0.245065 -0.399214
-0.290288 0.429842 0.118510
-0.290288 0.446098 0.218751
-0.290288 -0.163123 0.434275
-0.290288 -0.032500 -0.490001
-0.290288 -0.237280 0.410988
-0.290288 0.472325 -0.101641
-0.290288 0.313516 -0.384391
-0.290288 0.250670 -0.375673
-0.290288 0.316301 0.334234
-0.290288 -0.414970 -0.200729
-0.290288 -0.062928 0.459734
-0.290288 -0.451088 -0.169417
-0.290288 0.110900 -0.448605
-0.290288 0.075219 -0.469227
-0.290288 -0.397375 0.280537
-0.290288 -0.092856 0.468208
-0.290288 -0.122444 0.438458
-0.290288 -0.134532 -0.457231
-0.290288 -0.473343 0.128908
-0.290288 -0.383825 0.268832
-0.290288 0.363096 -0.298180
-0.290288 0.344838 0.285102
-0.290288 -0.245013 -0.379038
-0.290288 0.427522 0.196831
-0.290288 -0.240657 -0.437065
-0.290288 -0.108629 -0.458751
-0.290288 -0.459481 0.059221
-0.290288 0.329852 0.338109
-0.290288 0.251761 -0.404996
-0.290288 0.329280 -0.364756
-0.290288 -0.385438 0.221682
-0.290288 -0.228605 -0.442036
-0.290288 -0.080475 -0.442665
-0.290288 0.469050 0.137657
-0.290288 -0.205092 0.441111
-0.290288 -0.433065 0.181919
-0.290288 0.462175 -0.033337
-0.290288 -0.428384 -0.150931
-0.290288 0.166623 -0.445001
-0.290288 0.452033 -0.027177
-0.290288 0.098200 0.482572
-0.290288 0.480578 0.043456
-0.290288 -0.446973 0.072466
-0.290288 0.296072 0.357740
-0.290288 -0.439334 0.111339
-0.290288 -0.367170 -0.322508
-0.290288 -0.446188 0.092545
-0.290288 -0.470572 0.071647
-0.290288 0.380190 0.302713
-0.290288 -0.083335 -0.460775
-0.290288 0.368790 -0.275896
-0.290288 0.311014 0.379209
-0.290288 0.265978 -0.375551
-0.290288 0.497148 -0.004772
-0.290288 -0.078877 -0.471353
-0.290288 -0.205880 0.398887
-0.290288 -0.022639 -0.499242
-0.290288 0.481922 -0.098431
-0.290288 0.016937 -0.483355
-0.290288 0.297448 0.351238
-0.290288 -0.253191 -0.400306
-0.290288 -0.491784 0.047976
-0.290288 -0.092761 -0.487569
-0.290288 0.146896 0.445068
-0.290288 -0.083072 -0.472734
-0.290288 0.429479 0.180797
-0.290288 0.489981 -0.090009
-0.290288 0.372754 -0.278001
-0.290288 0.058975 0.467247
-0.290288 0.354921 -0.334954
-0.290288 -0.208536 0.440483
-0.290288 -0.184051 -0.447809
-0.290288 -0.457689 -0.180568
-0.290288 0.405204 -0.190227
-0.290288 0.457434 -0.050539
-0.290288 0.375791 -0.242077
-0.290288 0.384282 0.233170
-0.290288 0.429054 0.169798
-0.290288 0.007544 -0.498240
-0.290288 0.124091 -0.478302
-0.290288 0.473966 -0.074472
-0.290288 0.446678 -0.100097
-0.290288 0.429222 -0.126196
-0.290288 -0.212102 0.429537
-0.290288 -0.203118 -0.398118
-0.290288 0.003339 -0.456940
-0.290288 -0.095631 -0.450204
-0.290288 -0.141810 -0.454572
-0.290288 0.445264 0.052251
-0.290288 -0.048933 0.474089
-0.290288 0.449083 -0.204677
-0.290288 0.175652 -0.468187
-0.290288 -0.168095 -0.456276
-0.290288 -0.112261 0.442518
-0.290288 -0.134155 0.442817
-0.290288 0.249885 -0.371079
-0.290288 -0.057565 -0.491238
-0.290288 0.109891 -0.439575
-0.290288 -0.182064 -0.455258
-0.290288 0.133929 0.430650
-0.290288 -0.320207 0.315778
-0.290288 0.148550 -0.466487
-0.290288 0.411559 0.247474
-0.290288 -0.269651 -0.397002
-0.290288 0.443839 0.048623
-0.290288 -0.392323 0.225436
-0.290288 0.269830 -0.384903
-0.290288 0.147595 0.432543
-0.290288 -0.344112 0.341524
-0.290288 -0.172016 -0.457555
-0.290288 0.484203 0.044755
-0.290288 -0.197459 -0.433900
-0.290288 -0.078347 -0.477771
-0.290288 -0.033620 0.446879
-0.290288 0.307173 -0.330759
-0.290288 -0.134263 0.477039
-0.290288 0.051073 -0.448589
-0.290288 0.281592 -0.386027
-0.290288 0.156983 -0.429272
-0.290288 0.235429 0.436005
-0.290288 0.450708 0.121186
-0.290288 -0.380058 -0.240908
-0.290288 -0.215782 0.402096
-0.290288 0.187879 -0.426741
-0.290288 0.454370 0.148916
-0.290288 0.489657 -0.029329
-0.290288 -0.480263 -0.022427
-0.290288 0.389458 0.302292
-0.290288 0.394388 -0.286493
-0.290288 0.288254 0.391425
-0.290288 0.079107 0.459788
-0.290288 -0.286481 0.387106
-0.290288 -0.042809 -0.479591
-0.290288 0.271713 -0.373344
-0.290288 0.489437 -0.071830
-0.290288 0.169652 0.448665
-0.290288 -0.101560 -0.485269
-0.290288 0.065466 -0.478580
-0.290288 -0.452907 -0.085087
-0.290288 0.462669 0.171374
-0.290288 0.427804 0.205355
-0.290288 0.095428 -0.460083
-0.290288 -0.433766 -0.245414
-0.290288 -0.131462 -0.479459
-0.290288 -0.356053 0.316326
-0.290288 0.442871 -0.143498
-0.290288 -0.485793 0.010296
-0.290288 0.487851 0.031516
-0.290288 -0.013790 -0.494309
-0.290288 0.204417 -0.418648
-0.290288 -0.425631 -0.164092
-0.290288 -0.459832 -0.049156
-0.290288 0.376693 -0.322583
-0.290288 0.125560 0.465095
-0.290288 -0.465201 -0.089086
-0.290288 -0.073145 -0.459691
-0.290288 -0.177112 0.434422
-0.290288 0.374627 -0.268816
-0.290288 0.122777 -0.451435
-0.290288 0.446490 0.043148
-0.290288 -0.396474 -0.254014
-0.290288 0.030605 0.451392
-0.290288 0.387088 -0.312507
-0.290288 -0.317088 -0.316500
-0.290288 0.345174 0.307312
-0.290288 -0.478634 0.014935
-0.290288 -0.279215 0.385258
-0.290288 0.373556 0.320654
-0.290288 -0.452514 0.009934
-0.290288 0.469372 -0.018961
-0.290288 0.220678 -0.393779
-0.290288 0.297569 -0.397445
-0.290288 0.370681 0.283727
-0.290288 0.449421 -0.114487
-0.290288 -0.296125 -0.378197
-0.290288 -0.334710 -0.354389
-0.290288 -0.402526 0.254552
-0.290288 0.402110 0.236736
-0.290288 0.276149 0.366453
-0.290288 -0.392201 -0.231362
-0.290288 -0.480593 0.023895
-0.290288 0.457413 -0.136707
-0.290288 -0.301998 -0.348669
-0.290288 -0.378895 -0.269484
-0.290288 -0.156624 0.460887
-0.290288 0.398267 0.232780
-0.290288 0.017964 0.490894
-0.290288 -0.466474 0.080776
-0.290288 -0.184336 0.431350
-0.290288 -0.163184 0.458672
-0.290288 -0.296279 -0.340133
-0.290288 -0.465772 -0.169336
-0.290288 -0.478000 -0.124130
-0.290288 0.145347 0.461708
-0.290288 0.348084 0.321850
-0.290288 -0.424071 0.173074
-0.290288 -0.484337 -0.028941
-0.290288 0.370899 -0.260692
-0.290288 0.319137 -0.332513
-0.290288 0.429142 0.144049
-0.290288 0.256513 0.363758
-0.290288 0.474632 -0.130728
-0.290288 0.226170 0.412730
-0.290288 -0.087545 -0.465686
-0.290288 0.283673 0.397148
-0.290288 -0.112587 -0.434734
-0.290288 0.001069 0.459034
-0.290288 0.450982 0.082026
-0.290288 -0.438521 -0.194220
-0.290288 0.184222 0.444711
-0.290288 0.343818 0.349470
-0.290288 0.306543 0.327811
-0.290288 -0.243982 -0.397522
-0.290288 -0.278068 0.405230
-0.290288 0.011199 -0.454080
-0.290288 -0.462026 -0.186569
-0.290288 -0.372095 0.319292
-0.290288 -0.201710 0.439263
-0.290288 -0.453814 -0.148196
-0.290288 0.204348 0.441862
-0.290288 0.287157 -0.386204
-0.290288 0.374245 0.267830
-0.290288 -0.203357 0.451555
-0.290288 -0.457280 0.126836
-0.290288 0.409769 -0.206283
-0.290288 -0.023448 -0.446865
-0.290288 -0.415789 -0.214369
-0.290288 -0.429814 -0.116817
-0.290288 -0.353680 0.295033
-0.290288 0.124219 -0.433353
-0.290288 0.452420 -0.211211
-0.290288 0.145275 -0.427324
-0.290288 0.027904 -0.463350
-0.290288 -0.485388 -0.063745
-0.290288 -0.410985 0.193313
-0.290288 0.387395 0.277233
-0.290288 -0.044862 -0.473411
-0.290288 -0.407147 0.211497
-0.290288 0.443386 -0.087641
-0.290288 -0.445445 0.100126
-0.290288 -0.408412 0.236384
-0.290288 0.473238 0.054997
-0.290288 -0.128707 -0.463715
-0.290288 -0.273651 -0.381814
-0.290288 -0.404504 -0.203409
-0.290288 -0.187742 0.431311
-0.290288 0.455414 -0.195124
-0.290288 0.406315 0.182425
-0.290288 -0.458106 0.101570
-0.290288 -0.163843 0.421847
-0.290288 -0.292196 0.388575
-0.290288 0.200679 0.453132
-0.290288 -0.387641 -0.247160
-0.290288 0.354681 0.321459
-0.290288 0.443734 -0.098735
-0.290288 -0.059305 -0.447334
-0.290288 0.291648 0.380789
-0.290288 -0.319156 -0.312465
-0.290288 0.472819 -0.037615
-0.290288 0.413745 -0.273766
-0.290288 -0.416474 0.261981
-0.290288 -0.332048 -0.315256
-0.290288 0.409938 -0.236004
-0.290288 -0.068127 0.468241
-0.290288 -0.444143 -0.063509
-0.290288 0.456681 0.030109
-0.290288 0.247382 -0.376986
-0.290288 0.485772 -0.088275
-0.290288 -0.439187 -0.210091
-0.290288 0.248885 -0.425899
-0.290288 -0.312849 0.363540
-0.290288 -0.451270 0.155014
-0.290288 -0.007693 0.478164
-0.290288 0.488038 0.047557
-0.290288 -0.135225 -0.481139
-0.290288 -0.444565 0.074786
-0.290288 -0.158995 -0.418814
-0.290288 0.070560 0.471852
-0.290288 -0.252088 -0.418912
-0.290288 0.441226 0.118465
-0.290288 0.052340 -0.487285
-0.290288 -0.459402 -0.184426
-0.290288 0.482129 -0.119796
-0.290288 -0.424163 0.132356
-0.290288 0.152174 -0.435445
-0.290288 -0.120049 -0.449042
-0.290288 -0.459653 0.067867
-0.290288 0.478730 -0.117905
-0.290288 0.308269 0.362459
-0.290288 0.305644 -0.379918
-0.290288 0.374220 -0.283512
-0.290288 0.361952 0.312708
-0.290288 -0.196604 -0.442841
-0.290288 0.455372 -0.134290
-0.290288 0.299791 -0.370242
-0.290288 0.073193 0.479093
-0.290288 0.026607 0.450493
-0.290288 0.441584 -0.196826
-0.290288 0.193877 -0.441143
-0.290288 -0.429068 -0.213462
-0.290288 -0.382587 0.252884
-0.290288 0.016329 0.479814
-0.290288 -0.386200 -0.223531
-0.290288 -0.074665 0.451378
-0.290288 0.306102 -0.367949
-0.290288 -0.453960 -0.036161
-0.290288 0.331680 0.368901
-0.290288 0.084480 -0.452083
-0.290288 0.136323 -0.480920
-0.290288 0.436641 -0.108256
-0.290288 0.196541 0.431029
-0.290288 -0.139707 0.452216
-0.290288 0.492909 0.064317
-0.290288 0.128986 -0.464992
-0.290288 -0.470606 0.049175
-0.290288 -0.046894 -0.479856
-0.290288 -0.474364 -0.003635
-0.290288 0.472563 0.085544
-0.290288 0.459544 0.093109
-0.290288 -0.493815 -0.022386
-0.290288 0.335951 -0.323993
-0.290288 0.472573 -0.110938
-0.290288 -0.470455 0.040942
-0.290288 0.382770 -0.251392
-0.290288 -0.449642 0.130498
-0.290288 -0.352474 -0.328636
-0.290288 0.018590 0.487731
-0.290288 -0.272605 0.392477
-0.290288 -0.335371 -0.295684
-0.290288 0.393193 0.270305
-0.290288 -0.010914 -0.453841
-0.290288 -0.048870 -0.461506
-0.290288 0.461163 -0.076876
-0.290288 0.476560 -0.037130
-0.290288 -0.346947 0.319827
-0.290288 -0.463975 -0.117634
-0.290288 0.480675 0.010464
-0.290288 0.208903 -0.442995
-0.290288 -0.005467 0.488190
-0.290288 -0.324915 -0.326476
-0.290288 0.469143 -0.168002
-0.290288 -0.427759 -0.134720
-0.290288 0.159008 0.470035
-0.290288 -0.168417 -0.469825
-0.290288 -0.132106 0.428799
-0.290288 0.169706 -0.429445
-0.290288 -0.411271 -0.234779
-0.290288 0.241939 0.401721
-0.290288 0.147796 -0.474775
-0.290288 0.122295 0.451378
-0.290288 -0.460046 -0.190996
-0.290288 0.268310 -0.393743
-0.290288 0.297972 -0.379665
-0.290288 -0.452826 -0.124874
-0.290288 -0.148973 -0.421739
-0.290288 -0.395117 -0.233607
-0.290288 0.364158 -0.265608
-0.290288 -0.167543 -0.440838
-0.290288 -0.381889 -0.245797
-0.290288 0.038025 0.441509
-0.290288 0.186655 -0.442157
-0.290288 -0.474185 0.112851
-0.290288 -0.181330 0.436413
-0.290288 -0.116903 0.463963
-0.290288 0.444105 -0.192494
-0.290288 0.354081 0.317358
-0.290288 0.362350 -0.330588
-0.290288 0.190040 0.401051
-0.290288 -0.210680 -0.449222
-0.290288 -0.055518 -0.496607
-0.290288 -0.011878 0.452542
-0.290288 0.406460 -0.198094
-0.290288 -0.365536 -0.273564
-0.290288 -0.469391 0.003594
-0.290288 -0.447232 0.036838
-0.290288 0.458368 -0.196894
-0.290288 0.331138 0.319284
-0.290288 0.011995 -0.483203
-0.290288 0.475962 0.069403
-0.290288 0.385014 -0.291327
-0.290288 -0.166355 -0.461571
-0.290288 -0.457614 -0.009491
