-0.290288 -0.306032 0.388986
-0.290288 0.482655 -0.004015
-0.290288 -0.277989 0.356674
-0.290288 0.172594 0.422986
-0.290288 0.425255 0.224504
-0.290288 0.104155 0.439536
-0.290288 0.447668 -0.112077
-0.290288 0.084840 0.474087
-0.290288 -0.144904 -0.445000
-0.290288 -0.344325 -0.317520
-0.290288 -0.373433 0.299687
-0.290288 0.265754 -0.404983
-0.290288 0.074735 -0.468613
-0.290288 0.438635 0.133491
-0.290288 -0.484323 0.001888
-0.290288 0.062320 -0.454037
-0.290288 -0.401999 -0.201374
-0.290288 0.498178 -0.015888
-0.290288 -0.372779 -0.324298
-0.290288 0.432212 -0.223630
-0.290288 0.353909 -0.273795
-0.290288 -0.075566 0.461717
-0.290288 -0.434853 -0.140183
-0.290288 -0.138649 -0.436509
-0.290288 -0.352105 -0.318190
-0.290288 0.269552 0.373595
-0.290288 -0.460195 0.103890
-0.290288 0.244007 -0.415239
-0.290288 0.312224 -0.321589
-0.290288 0.033856 0.442594
-0.290288 0.415857 -0.185950
-0.290288 -0.391549 0.287863
-0.290288 -0.200567 0.439334
-0.290288 -0.357781 -0.328317
-0.290288 -0.100554 -0.467345
-0.290288 0.037767 -0.481529
-0.290288 -0.028279 0.454532
-0.290288 -0.386334 -0.269271
-0.290288 0.291844 0.373752
-0.290288 -0.497076 -0.004949
-0.290288 0.356518 -0.325486
-0.290288 0.441393 0.228002
-0.290288 0.203300 -0.423641
-0.290288 0.258328 0.406971
-0.290288 0.438593 -0.165944
-0.290288 -0.475137 -0.046804
-0.290288 0.422532 -0.208767
-0.290288 0.468476 0.156538
-0.290288 -0.452232 -0.101107
-0.290288 0.492536 0.072113
-0.290288 -0.057683 -0.467649
-0.290288 -0.083922 0.487935
-0.290288 0.316608 0.374856
-0.290288 -0.073574 -0.449596
-0.290288 -0.401685 -0.281230
-0.290288 0.038253 -0.493402
-0.290288 0.445195 -0.098798
-0.290288 -0.492413 -0.035744
-0.290288 0.339348 -0.319130
-0.290288 0.056114 -0.471857
-0.290288 -0.351731 -0.337406
-0.290288 -0.106608 0.460286
-0.290288 0.474978 0.035449
-0.290288 -0.109268 0.447303
-0.290288 0.353635 0.320037
-0.290288 -0.455499 -0.155317
-0.290288 -0.490700 0.077997
-0.290288 0.297537 0.341569
-0.290288 0.435424 -0.175768
-0.290288 -0.458741 0.054261
-0.290288 -0.280309 0.408740
-0.290288 -0.252550 -0.383650
-0.290288 0.094488 -0.463544
-0.290288 0.457276 -0.069004
-0.290288 -0.465187 0.105435
-0.290288 -0.273996 -0.393216
-0.290288 -0.437591 -0.219977
-0.290288 -0.376263 -0.322155
-0.290288 -0.437769 -0.092975
-0.290288 0.434079 -0.104707
-0.290288 0.028480 0.451354
-0.290288 0.229603 0.379725
-0.290288 0.048677 -0.462937
-0.290288 0.036516 0.444693
-0.290288 -0.408158 -0.196203
-0.290288 0.372193 -0.279002
-0.290288 0.268639 -0.383117
-0.290288 -0.338560 0.313580
-0.290288 0.239035 -0.401802
-0.290288 0.270170 0.397133
-0.290288 0.267037 0.376520
-0.290288 0.350066 -0.323655
-0.290288 -0.235314 0.408204
-0.290288 0.205144 0.403617
-0.290288 0.120399 -0.436983
-0.290288 -0.028328 -0.472644
-0.290288 0.238855 -0.380704
-0.290288 -0.422197 0.207945
-0.290288 0.441699 -0.064364
-0.290288 0.280346 -0.353346
-0.290288 0.373941 -0.276380
-0.290288 0.452517 -0.019173
-0.290288 0.034220 -0.492424
-0.290288 -0.336950 -0.330468
-0.290288 0.009621 0.452946
-0.290288 -0.484576 -0.112762
-0.290288 0.260066 0.382549
-0.290288 0.414199 0.245007
-0.290288 -0.116819 -0.485631
-0.290288 -0.265793 0.418584
-0.290288 -0.430617 0.153268
-0.290288 -0.016813 0.486002
-0.290288 0.371817 0.298396
-0.290288 -0.226824 0.388499
-0.290288 0.337262 -0.305128
-0.290288 -0.253474 0.408416
-0.290288 0.463420 -0.016195
-0.290288 -0.025614 -0.484888
-0.290288 -0.184229 -0.434182
-0.290288 -0.354200 -0.344100
-0.290288 -0.289019 0.366102
-0.290288 0.211917 -0.401807
-0.290288 -0.359108 0.313524
-0.290288 0.397454 0.234868
-0.290288 -0.364900 -0.335246
-0.290288 0.436504 -0.132486
-0.290288 -0.483602 0.103664
-0.290288 0.453166 0.047534
-0.290288 0.418952 0.203306
-0.290288 -0.444281 -0.091177
-0.290288 0.460212 0.176169
-0.290288 -0.356405 0.340199
-0.290288 0.222424 -0.415422
-0.290288 0.299987 -0.350922
-0.290288 -0.183041 -0.465004
-0.290288 0.298869 -0.358630
-0.290288 0.396488 -0.258330
-0.290288 -0.179802 -0.422165
-0.290288 0.083179 0.448709
-0.290288 -0.468070 0.149329
-0.290288 -0.274025 -0.370032
-0.290288 0.204556 -0.455400
-0.290288 -0.194879 -0.446226
-0.290288 0.159791 0.435283
-0.290288 0.484908 0.000968
-0.290288 0.145111 -0.464498
-0.290288 0.200298 -0.410660
-0.290288 -0.150263 0.472060
-0.290288 0.233980 0.391998
-0.290288 0.479335 0.091399
-0.290288 0.457673 -0.072618
-0.290288 -0.431013 0.213546
-0.290288 0.033444 0.463173
-0.290288 0.260206 0.410467
-0.290288 -0.095001 -0.474643
-0.290288 -0.204537 -0.442249
-0.290288 -0.305896 -0.383499
-0.290288 0.399473 0.203635
-0.290288 0.014818 -0.447663
-0.290288 0.210328 -0.427944
-0.290288 -0.367474 0.276843
-0.290288 0.158601 0.416318
-0.290288 0.187669 -0.427776
-0.290288 -0.472414 0.153737
-0.290288 -0.043066 -0.471533
-0.290288 0.344244 0.321687
-0.290288 -0.311095 0.338711
-0.290288 -0.332321 0.293792
-0.290288 0.386861 0.268825
-0.290288 0.333901 -0.300472
-0.290288 0.036671 -0.475683
-0.290288 -0.451755 -0.012941
-0.290288 -0.480853 0.000745
-0.290288 0.305854 -0.347423
-0.290288 0.386271 -0.316376
-0.290288 0.393820 0.241557
-0.290288 -0.217576 -0.436901
-0.290288 -0.316113 -0.373324
-0.290288 0.210492 0.400127
-0.290288 -0.422076 -0.222759
-0.290288 0.304303 -0.350505
-0.290288 0.362318 0.330680
-0.290288 0.438504 0.082119
-0.290288 0.188459 -0.409719
-0.290288 -0.117332 -0.452187
-0.290288 0.397412 -0.301223
-0.290288 -0.173707 0.450783
-0.290288 0.461639 -0.118079
-0.290288 -0.058763 0.491675
-0.290288 -0.198473 0.425562
-0.290288 0.453893 0.101559
-0.290288 -0.409575 0.268196
-0.290288 0.189455 0.425039
-0.290288 -0.450040 0.181793
-0.290288 0.346638 0.329025
-0.290288 0.063322 0.445147
-0.290288 0.450586 -0.181262
-0.290288 0.314498 0.314934
-0.290288 -0.460642 -0.088864
-0.290288 -0.038884 0.494176
-0.290288 -0.128585 -0.447233
-0.290288 0.463902 -0.083082
-0.290288 -0.482255 -0.045781
-0.290288 0.143628 0.438802
-0.290288 -0.096794 -0.487265
-0.290288 0.496118 -0.019200
-0.290288 -0.170611 -0.414546
-0.290288 -0.376508 0.299243
-0.290288 -0.444831 -0.173618
-0.290288 -0.488003 0.080649
-0.290288 -0.432863 0.172606
-0.290288 0.390010 0.255142
-0.290288 -0.401938 -0.229877
-0.290288 0.275843 -0.402688
-0.290288 0.276385 -0.370696
-0.290288 -0.456920 0.085139
-0.290288 0.200070 -0.433703
-0.290288 0.041446 -0.485643
-0.290288 -0.244580 -0.434772
-0.290288 -0.244994 -0.401933
-0.290288 -0.415742 -0.165571
-0.290288 0.369740 -0.325122
-0.290288 -0.123762 -0.459838
-0.290288 0.470582 0.148221
-0.290288 -0.089821 0.480223
-0.290288 -0.080041 -0.445239
-0.290288 -0.394218 0.285893
-0.290288 0.159966 0.456153
-0.290288 -0.437808 -0.142428
-0.290288 -0.458699 0.088134
-0.290288 -0.356859 0.298715
-0.290288 0.342480 0.311636
-0.290288 0.027431 0.465162
-0.290288 0.205196 0.407775
-0.290288 -0.297087 -0.384857
-0.290288 -0.465083 -0.057801
-0.290288 0.314110 0.361585
-0.290288 0.393468 0.207936
-0.290288 0.431608 -0.239837
-0.290288 0.282832 -0.369267
-0.290288 -0.474153 -0.124282
-0.290288 -0.441792 -0.212246
-0.290288 -0.440601 -0.205999
-0.290288 -0.442845 0.081880
-0.290288 0.429764 -0.142948
-0.290288 0.401693 -0.290770
-0.290288 0.279332 -0.387346
-0.290288 0.113237 0.451551
-0.290288 0.193798 0.405502
-0.290288 -0.445173 0.084640
-0.290288 0.266838 -0.399946
-0.290288 -0.408329 -0.215562
-0.290288 -0.053311 -0.468688
-0.290288 0.278317 0.407191
-0.290288 -0.474682 -0.095554
-0.290288 0.420253 -0.256478
-0.290288 0.152846 0.453739
-0.290288 0.307269 -0.366704
-0.290288 0.001112 -0.485330
-0.290288 0.450593 0.040280
-0.290288 -0.084407 -0.467617
-0.290288 0.115169 -0.469598
-0.290288 0.492519 0.060859
-0.290288 -0.155323 -0.434900
-0.290288 -0.287414 0.353705
-0.290288 0.473268 0.150962
-0.290288 0.404510 0.240273
-0.290288 0.023698 0.473032
-0.290288 0.272086 0.367742
-0.290288 -0.044428 -0.462506
-0.290288 -0.179521 0.452441
-0.290288 0.244759 -0.428784
-0.290288 0.047352 0.468050
-0.290288 0.458710 -0.007131
-0.290288 0.442471 0.059123
-0.290288 0.316589 0.312358
-0.290288 -0.434584 0.214366
-0.290288 0.324268 0.322434
-0.290288 0.472606 -0.018662
-0.290288 -0.162245 -0.449557
-0.290288 0.395319 -0.246266
-0.290288 0.258364 0.394892
-0.290288 -0.008074 -0.457237
-0.290288 0.279870 0.393855
-0.290288 -0.061276 -0.470086
-0.290288 -0.466305 -0.086132
-0.290288 -0.214861 0.413448
-0.290288 0.165264 -0.441895
-0.290288 -0.394421 -0.215831
-0.290288 -0.468808 -0.118156
-0.290288 -0.374461 0.268033
-0.290288 0.186565 0.443713
-0.290288 -0.467351 -0.151733
-0.290288 0.348128 -0.358121
-0.290288 0.084595 -0.476396
-0.290288 -0.159357 0.428553
-0.290288 0.353763 -0.319301
-0.290288 -0.436202 0.170606
-0.290288 0.444218 0.045349
-0.290288 0.159584 0.444460
-0.290288 -0.342331 -0.344926
-0.290288 -0.401109 0.219665
-0.290288 0.416846 -0.274272
-0.290288 -0.021307 -0.465912
-0.290288 0.164705 -0.462151
-0.290288 0.453899 0.078515
-0.290288 -0.439370 0.174922
-0.290288 -0.208757 0.423254
-0.290288 0.182396 -0.413008
-0.290288 0.458421 -0.194802
-0.290288 -0.322591 0.342230
-0.290288 0.456598 -0.104629
-0.290288 -0.065280 0.452626
-0.290288 -0.097401 0.474208
-0.290288 0.151582 0.442342
-0.290288 -0.296115 0.393243
-0.290288 -0.100024 -0.449485
-0.290288 -0.077197 0.451332
-0.290288 0.241401 0.388333
-0.290288 0.480138 -0.039197
-0.290288 0.300545 0.364789
-0.290288 0.448405 -0.073577
-0.290288 0.328881 0.315536
-0.290288 0.475274 -0.107828
-0.290288 0.137345 -0.455290
-0.290288 0.328914 0.311293
-0.290288 -0.214494 -0.437745
-0.290288 -0.309425 -0.345633
-0.290288 0.301789 -0.354423
-0.290288 -0.116399 0.444771
-0.290288 -0.108865 0.474984
-0.290288 0.019659 -0.455342
-0.290288 -0.070420 0.444979
-0.290288 -0.041514 -0.459469
-0.290288 -0.262063 -0.411504
-0.290288 0.424750 -0.197302
-0.290288 0.053547 -0.478051
-0.290288 -0.472838 -0.085816
-0.290288 -0.387481 0.216532
-0.290288 -0.236106 -0.420048
-0.290288 -0.188391 -0.410941
-0.290288 -0.201325 0.427933
-0.290288 -0.438049 0.231143
-0.290288 0.099580 -0.477911
-0.290288 -0.397732 -0.259714
-0.290288 -0.414065 0.221805
-0.290288 -0.472078 -0.055530
-0.290288 0.077084 0.441994
-0.290288 -0.007500 -0.498874
-0.290288 0.173947 0.408665
-0.290288 0.208146 0.407152
-0.290288 -0.279066 -0.409637
-0.290288 -0.348915 -0.293700
-0.290288 0.453254 -0.013094
-0.290288 0.022746 0.460184
-0.290288 -0.241147 -0.387246
-0.290288 -0.357056 -0.348510
-0.290288 -0.079592 0.467162
-0.290288 -0.391235 0.242042
-0.290288 0.493427 -0.052908
-0.290288 -0.030249 -0.499004
-0.290288 0.272600 0.371213
-0.290288 0.425388 0.151125
-0.290288 -0.494407 -0.051780
-0.290288 0.198835 -0.452546
-0.290288 0.451332 0.009022
-0.290288 0.360505 0.287634
-0.290288 0.240728 0.402703
-0.290288 -0.450290 -0.174882
-0.290288 -0.080068 -0.468709
-0.290288 -0.393519 -0.292981
-0.290288 0.377349 -0.260165
-0.290288 -0.456396 -0.136249
-0.290288 -0.483308 -0.016486
-0.290288 0.401501 0.192131
-0.290288 0.090029 -0.482271
-0.290288 -0.339767 0.293573
-0.290288 0.120874 0.468271
-0.290288 0.441107 -0.213125
-0.290288 -0.285438 0.378510
-0.290288 -0.128841 -0.480211
-0.290288 0.485435 -0.092560
-0.290288 0.011953 -0.449398
-0.290288 0.482220 0.043170
-0.290288 -0.128437 0.451157
-0.290288 -0.082615 0.451039
-0.290288 0.251012 0.400437
-0.290288 -0.296578 -0.378395
-0.290288 0.448081 -0.097132
-0.290288 -0.240397 0.375295
-0.290288 -0.477192 0.024961
-0.290288 -0.202129 0.443416
-0.290288 0.399963 -0.260107
-0.290288 -0.310398 -0.386915
-0.290288 -0.443802 -0.197521
-0.290288 -0.386846 0.270200
-0.290288 0.109041 -0.434407
-0.290288 -0.416391 -0.232220
-0.290288 0.406335 -0.206396
-0.290288 -0.332804 -0.348329
-0.290288 -0.473882 0.085688
-0.290288 0.299117 0.396255
-0.290288 -0.074683 0.483679
-0.290288 -0.172244 0.447722
-0.290288 -0.451492 0.055736
-0.290288 -0.479255 0.044680
-0.290288 0.015210 0.450672
-0.290288 0.227105 -0.443117
-0.290288 -0.099338 -0.436367
-0.290288 -0.211238 -0.399522
-0.290288 0.317852 0.348519
-0.290288 -0.081721 -0.454330
-0.290288 -0.357431 -0.302680
-0.290288 0.011096 0.477746
-0.290288 -0.448687 0.007937
-0.290288 -0.465577 0.152371
-0.290288 -0.128601 -0.453477
-0.290288 0.059400 -0.468604
-0.290288 0.308840 0.346346
-0.290288 0.378213 0.300810
-0.290288 0.147346 -0.471423
-0.290288 -0.243875 0.383585
-0.290288 0.070641 0.447250
-0.290288 0.273925 -0.374455
-0.290288 0.196052 -0.438982
-0.290288 -0.289914 0.348185
-0.290288 0.286162 0.367347
-0.290288 -0.206808 0.426864
-0.290288 0.143359 0.429731
-0.290288 -0.281535 0.381633
-0.290288 0.118922 0.438928
-0.290288 -0.376690 0.309450
-0.290288 0.365832 -0.338806
-0.290288 -0.193656 -0.414159
-0.290288 -0.457536 -0.157998
-0.290288 0.055107 0.487808
-0.290288 -0.489009 -0.023932
-0.290288 -0.326964 0.371661
-0.290288 0.368381 -0.330898
-0.290288 0.489424 -0.032654
-0.290288 -0.483450 0.016331
-0.290288 -0.432425 -0.186675
-0.290288 -0.445417 -0.151066
-0.290288 -0.397609 0.212524
-0.290288 0.410259 -0.230594
-0.290288 0.424089 0.234396
-0.290288 -0.449148 0.152007
-0.290288 -0.240444 -0.405934
-0.290288 -0.360652 -0.322183
-0.290288 0.391801 0.246122
-0.290288 -0.450154 -0.116874
-0.290288 -0.387711 0.279399
-0.290288 -0.129820 -0.466827
-0.290288 0.037902 0.464205
-0.290288 0.403842 0.188890
-0.290288 -0.342201 0.283280
-0.290288 0.351270 -0.302335
-0.290288 0.488795 -0.001033
-0.290288 -0.366577 0.308645
-0.290288 0.055708 -0.487895
-0.290288 -0.052349 0.466457
-0.290288 0.209511 -0.404400
-0.290288 -0.478651 0.020926
-0.290288 -0.465963 0.114317
-0.290288 -0.403876 -0.284164
-0.290288 0.475715 0.133453
-0.290288 -0.422568 0.226753
-0.290288 0.230005 0.424102
-0.290288 -0.440016 0.149941
-0.290288 -0.444150 -0.109834
-0.290288 -0.481009 -0.035678
-0.290288 0.129301 0.428511
-0.290288 -0.383496 0.264292
-0.290288 -0.476212 -0.120443
-0.290288 0.247727 -0.414241
-0.290288 0.079277 -0.457778
-0.290288 0.278299 -0.415268
-0.290288 -0.124610 -0.439838
-0.290288 -0.445654 -0.155872
-0.290288 -0.430089 0.125853
-0.290288 -0.296991 -0.371408
-0.290288 -0.038274 0.451224
-0.290288 0.093733 -0.473609
-0.290288 -0.249934 -0.370406
-0.290288 -0.467119 -0.173415
-0.290288 -0.336556 -0.355007
-0.290288 0.399860 -0.266318
-0.290288 0.312316 -0.348095
-0.290288 0.155971 0.429592
-0.290288 -0.237802 0.427837
-0.290288 -0.408916 -0.262384
-0.290288 0.456222 -0.123732
-0.290288 -0.465966 -0.127075
-0.290288 0.281862 0.388863
-0.290288 -0.438722 -0.166370
-0.290288 0.286622 0.356297
-0.290288 -0.141334 0.429852
-0.290288 -0.074227 0.450407
-0.290288 -0.098689 -0.446337
-0.290288 0.074882 0.446552
-0.290288 0.364400 -0.334082
-0.290288 -0.124987 0.435661
-0.290288 -0.456150 0.153994
-0.290288 0.291008 0.390889
-0.290288 -0.290852 0.374969
-0.290288 0.203504 0.394194
-0.290288 0.199290 0.452921
-0.290288 0.286553 -0.400343
-0.290288 0.006292 0.474181
-0.290288 -0.277931 0.383120
-0.290288 0.368075 0.298107
-0.290288 0.227647 -0.412240
-0.290288 -0.249723 0.394854
-0.290288 -0.067226 -0.478425
-0.290288 -0.403375 0.213080
-0.290288 -0.445046 0.018903
-0.290288 -0.476307 0.117953
-0.290288 0.469378 -0.113591
-0.290288 -0.239784 -0.421066
-0.290288 -0.083377 -0.446297
-0.290288 0.076040 0.482543
-0.290288 0.487894 -0.039457
-0.290288 -0.377253 -0.277008
-0.290288 -0.153501 0.457960
-0.290288 -0.090237 -0.483409
-0.290288 -0.065594 0.473689
-0.290288 0.047022 -0.478188
-0.290288 0.451413 -0.202724
-0.290288 0.395963 0.203063
-0.290288 0.383088 0.265200
-0.290288 0.386759 -0.308894
-0.290288 -0.447000 -0.159729
-0.290288 -0.354368 -0.276201
-0.290288 -0.438831 0.133379
-0.290288 0.241986 0.378027
-0.290288 0.449373 0.193855
-0.290288 0.430087 0.212153
-0.290288 -0.445029 -0.127199
-0.290288 0.352636 -0.325711
-0.290288 0.117358 0.448235
-0.290288 -0.456531 0.106220
-0.290288 0.466632 0.031945
-0.290288 -0.284754 -0.344476
-0.290288 -0.318000 -0.384438
-0.290288 -0.492969 -0.015986
-0.290288 0.001725 -0.470186
-0.290288 0.277867 -0.384501
-0.290288 0.393128 -0.258388
-0.290288 0.394498 0.283055
-0.290288 0.294621 -0.378217
-0.290288 0.171208 -0.427073
-0.290288 -0.045397 0.450020
-0.290288 0.436917 -0.218972
-0.290288 -0.331574 0.350913
-0.290288 -0.466343 -0.048799
-0.290288 0.480623 0.056278
-0.290288 -0.221316 0.404649
-0.290288 -0.324938 -0.328224
-0.290288 -0.437924 -0.110286
-0.290288 0.140023 0.428249
-0.290288 -0.022136 -0.476960
-0.290288 -0.269543 -0.382846
-0.290288 -0.295736 0.335526
-0.290288 -0.388594 -0.298418
-0.290288 0.464815 -0.079511
-0.290288 0.488384 -0.099230
-0.290288 -0.219160 -0.394281
-0.290288 0.127802 0.449547
-0.290288 0.328545 0.306859
-0.290288 -0.373623 0.273750
-0.290288 -0.243594 0.372781
-0.290288 0.290848 0.398060
-0.290288 0.365111 0.306400
-0.290288 -0.450687 0.130057
-0.290288 -0.494489 0.038952
-0.290288 0.334315 -0.333856
-0.290288 0.235240 -0.432890
-0.290288 0.139629 0.444904
-0.290288 -0.465352 -0.138376
-0.290288 0.370482 -0.317875
-0.290288 0.494920 -0.023590
-0.290288 -0.256134 0.391368
-0.290288 -0.395611 -0.283807
-0.290288 0.430677 0.147184
-0.290288 -0.453213 0.034133
-0.290288 -0.478101 -0.014438
-0.290288 -0.447526 -0.107964
-0.290288 0.429986 -0.165328
-0.290288 0.497951 0.016367
-0.290288 0.327756 0.333088
-0.290288 0.432059 0.229926
-0.290288 0.464533 -0.123487
-0.290288 0.477982 -0.049900
-0.290288 0.435732 -0.114507
-0.290288 -0.330025 0.338723
-0.290288 0.329391 0.358577
-0.290288 0.048047 0.455228
-0.290288 0.282198 0.374968
-0.290288 0.304043 0.371255
-0.290288 -0.038357 -0.447780
-0.290288 -0.183175 -0.407826
-0.290288 0.254378 0.388209
-0.290288 -0.022576 0.446463
-0.290288 0.195685 -0.418228
-0.290288 0.471314 -0.069333
-0.290288 0.302372 -0.379095
-0.290288 0.467374 -0.091970
-0.290288 0.308633 -0.359845
-0.290288 0.414427 0.260959
-0.290288 0.485919 0.015970
-0.290288 -0.432198 0.142816
-0.290288 -0.351201 0.290246
-0.290288 -0.457065 0.183616
-0.290288 -0.227704 -0.395772
-0.290288 0.382902 0.255348
-0.290288 -0.425253 0.228717
-0.290288 0.441124 -0.209487
-0.290288 0.282696 0.401600
-0.290288 -0.335848 0.291832
-0.290288 -0.421181 0.197064
-0.290288 0.474701 0.059294
-0.290288 0.344579 0.317426
-0.290288 0.406480 0.286201
-0.290288 0.132462 -0.478320
-0.290288 0.426365 0.199543
-0.290288 0.345995 0.337521
-0.290288 -0.434947 -0.209092
-0.290288 -0.207869 0.407547
-0.290288 0.305280 -0.359985
-0.290288 0.286396 -0.395621
-0.290288 0.109079 0.461730
-0.290288 0.379548 0.239933
-0.290288 -0.153256 -0.474630
-0.290288 -0.283358 0.395367
-0.290288 0.421533 0.240105
-0.290288 -0.076411 -0.468787
-0.290288 -0.119139 -0.431315
-0.290288 -0.121046 -0.438406
-0.290288 -0.329247 0.303716
-0.290288 0.286138 -0.369137
-0.290288 -0.319639 0.373240
-0.290288 0.340889 0.292300
-0.290288 0.450737 -0.038837
-0.290288 0.135443 -0.437485
-0.290288 -0.305373 0.332643
-0.290288 -0.054888 -0.465790
-0.290288 0.457917 -0.063672
-0.290288 -0.470912 0.150430
-0.290288 -0.151360 -0.457621
-0.290288 -0.458800 0.040975
-0.290288 0.465709 0.004858
-0.290288 -0.317890 0.321050
-0.290288 -0.160728 -0.440466
-0.290288 -0.386100 -0.315772
-0.290288 0.448171 0.050855
-0.290288 -0.098310 0.433218
-0.290288 -0.379042 0.232840
-0.290288 -0.244377 0.415903
-0.290288 0.220354 -0.412436
-0.290288 0.017309 0.485747
-0.290288 0.445777 0.128366
-0.290288 -0.054468 0.469153
-0.290288 -0.397817 -0.240087
-0.290288 -0.149549 -0.471790
-0.290288 -0.180236 -0.427168
-0.290288 0.399267 0.285506
-0.290288 -0.431367 0.162338
-0.290288 -0.489368 -0.029089
-0.290288 0.040596 -0.468457
-0.290288 0.077291 -0.477873
-0.290288 -0.059669 -0.463361
-0.290288 -0.443792 0.048727
-0.290288 -0.424052 -0.183312
-0.290288 -0.363275 -0.293648
-0.290288 -0.395508 0.236558
-0.290288 0.494705 0.013940
-0.290288 0.446742 0.016011
-0.290288 -0.457864 0.080169
-0.290288 -0.352656 -0.273330
-0.290288 0.495754 0.036435
-0.290288 0.272920 0.378195
-0.290288 -0.156989 -0.466505
-0.290288 -0.007673 0.476085
-0.290288 -0.446472 -0.199212
-0.290288 0.132752 0.426908
-0.290288 -0.340960 0.317168
-0.290288 -0.128038 -0.469972
-0.290288 -0.479930 0.057240
-0.290288 -0.176974 -0.453442
-0.290288 0.431429 -0.149648
-0.290288 -0.311167 -0.322576
-0.290288 0.462194 0.104910
-0.290288 0.492287 -0.008161
-0.290288 0.441806 0.114290
-0.290288 0.414993 0.195560
-0.290288 0.036418 -0.467407
-0.290288 0.377955 -0.277182
-0.290288 0.327465 0.360982
-0.290288 0.320871 0.350080
-0.290288 -0.308833 0.324897
-0.290288 0.337299 -0.312258
-0.290288 -0.411480 0.260730
-0.290288 -0.362462 -0.312476
-0.290288 0.317115 0.335644
-0.290288 0.351948 -0.343095
-0.290288 0.122943 0.448664
-0.290288 -0.028808 0.486693
-0.290288 -0.414535 -0.276276
-0.290288 -0.463905 -0.099113
-0.290288 0.224968 0.384548
-0.290288 0.004513 0.455016
-0.290288 0.488243 -0.063139
-0.290288 0.110578 0.442305
-0.290288 -0.022226 -0.455423
-0.290288 0.459174 0.128636
-0.290288 -0.431685 0.108346
-0.290288 0.201250 0.448316
-0.290288 0.219633 0.385487
-0.290288 0.221121 -0.391146
-0.290288 -0.411181 0.233312
-0.290288 -0.333453 -0.361198
-0.290288 0.271565 -0.392207
-0.290288 -0.318055 -0.322355
-0.290288 0.178866 -0.442472
-0.290288 0.369751 -0.299941
-0.290288 0.449568 0.126261
-0.290288 0.411738 0.266953
-0.290288 0.472549 0.095188
-0.290288 -0.089230 0.438309
-0.290288 -0.304415 0.350552
-0.290288 -0.491336 -0.044953
-0.290288 -0.336037 0.307843
-0.290288 -0.384366 -0.227244
-0.290288 0.448496 0.005687
-0.290288 -0.381624 -0.264010
-0.290288 -0.492259 0.057097
-0.290288 0.251787 0.371568
-0.290288 0.084022 0.487487
-0.290288 0.307232 -0.344628
-0.290288 0.264620 0.388424
-0.290288 -0.275468 0.406386
-0.290288 -0.327983 0.332174
-0.290288 0.384350 0.309210
-0.290288 -0.453405 -0.005881
-0.290288 0.030671 0.476003
-0.290288 -0.343445 0.347117
-0.290288 -0.400737 0.229764
-0.290288 -0.404968 -0.245790
-0.290288 -0.174110 -0.412163
-0.290288 0.386289 0.303500
-0.290288 0.229231 0.430135
-0.290288 -0.209044 0.402141
-0.290288 -0.171383 -0.449120
-0.290288 0.450159 -0.138773
-0.290288 0.096490 0.460474
-0.290288 0.337457 0.342083
-0.290288 0.300905 0.370094
-0.290288 0.033686 0.481938
-0.290288 -0.452665 0.172475
-0.290288 0.379564 -0.242344
-0.290288 0.028894 0.472790
-0.290288 -0.245028 -0.398023
-0.290288 0.468394 0.095821
-0.290288 -0.401971 -0.223707
-0.290288 -0.469503 0.099850
-0.290288 -0.381681 0.283707
-0.290288 0.043000 0.488061
-0.290288 0.473465 0.015125
-0.290288 0.352711 0.288010
-0.290288 -0.330305 -0.359475
-0.290288 0.258199 -0.381260
-0.290288 -0.155141 -0.444416
-0.290288 0.092478 0.481851
-0.290288 0.414833 0.186524
-0.290288 0.115910 0.477303
-0.290288 0.239340 0.425240
-0.290288 0.173474 0.455638
-0.290288 0.176893 -0.453402
-0.290288 0.134435 -0.452004
-0.290288 0.262746 -0.391455
-0.290288 -0.389347 0.248325
-0.290288 -0.031724 -0.489903
-0.290288 0.203117 -0.432813
-0.290288 -0.184547 0.415375
-0.290288 0.378700 0.310901
-0.290288 -0.010611 0.477469
-0.290288 0.401962 -0.207085
-0.290288 0.416447 0.270253
-0.290288 -0.442160 0.136005
-0.290288 -0.350765 0.349018
-0.290288 0.075085 -0.454970
-0.290288 0.085279 -0.456033
-0.290288 -0.385834 0.304235
-0.290288 -0.374650 -0.248089
-0.290288 -0.021842 -0.485828
-0.290288 -0.486998 -0.006596
-0.290288 -0.120548 -0.445050
-0.290288 -0.359764 0.279740
-0.290288 0.438815 -0.169908
-0.290288 -0.477353 0.093893
-0.290288 0.464483 0.161781
-0.290288 0.298552 -0.354772
-0.290288 0.486539 0.062969
-0.290288 0.431179 -0.243978
-0.290288 0.165288 0.448111
-0.290288 -0.258280 0.379872
-0.290288 0.489453 0.084485
-0.290288 -0.430198 0.129373
-0.290288 0.219339 0.425698
-0.290288 -0.181434 0.460481
-0.290288 0.436172 0.159165
-0.290288 0.434077 0.226491
-0.290288 -0.421827 -0.170221
-0.290288 0.265388 -0.378028
-0.290288 0.020058 -0.489593
-0.290288 0.355838 0.335768
-0.290288 0.482471 0.028500
-0.290288 -0.461331 0.157413
-0.290288 0.348165 0.323924
-0.290288 -0.074145 -0.456304
-0.290288 0.497423 -0.008523
-0.290288 -0.134426 0.446881
-0.290288 0.462438 -0.040519
-0.290288 -0.316213 -0.319680
-0.290288 -0.088327 0.483320
-0.290288 0.134508 -0.456522
-0.290288 -0.493126 -0.029276
-0.290288 0.433145 -0.235097
-0.290288 0.073424 -0.445200
-0.290288 -0.021548 0.489549
-0.290288 0.305080 0.330264
-0.290288 -0.446423 0.164834
-0.290288 -0.446474 -0.074483
-0.290288 -0.312954 0.347549
-0.290288 -0.181392 0.404504
-0.290288 -0.429033 0.167690
-0.290288 -0.456388 -0.088401
-0.290288 -0.079420 0.462600
-0.290288 -0.169176 0.444975
-0.290288 0.461712 0.184489
-0.290288 -0.003984 -0.451855
-0.290288 0.456164 0.065180
-0.290288 -0.412767 -0.243697
-0.290288 0.409678 0.177913
-0.290288 -0.313792 -0.317504
-0.290288 -0.430077 0.115418
-0.290288 0.366933 -0.318827
-0.290288 -0.225308 0.398270
-0.290288 -0.446343 -0.202516
-0.290288 -0.213481 0.417795
-0.290288 0.417818 -0.208184
-0.290288 0.054527 0.492822
-0.290288 0.106679 0.437017
-0.290288 0.308084 0.355696
-0.290288 -0.470098 -0.015737
-0.290288 0.410712 -0.213989
-0.290288 -0.162267 0.440022
-0.290288 -0.440065 0.089953
-0.290288 0.361776 -0.289372
-0.290288 0.091555 0.433736
-0.290288 -0.473506 0.114671
-0.290288 -0.321829 -0.382005
-0.290288 -0.479015 -0.111392
-0.290288 0.378210 -0.268345
-0.290288 0.357849 -0.273806
-0.290288 -0.146816 -0.477653
-0.290288 -0.153321 0.444746
-0.290288 -0.045829 0.458133
-0.290288 -0.133419 0.450132
-0.290288 0.258037 -0.390768
-0.290288 -0.448977 -0.180260
-0.290288 0.426983 -0.215080
-0.290288 -0.452285 0.081257
-0.290288 -0.149398 0.450114
-0.290288 0.453578 -0.055166
-0.290288 -0.045184 -0.452014
-0.290288 -0.364645 0.275467
-0.290288 -0.454813 0.063178
-0.290288 -0.435579 0.149178
-0.290288 -0.284859 0.400352
-0.290288 -0.314494 0.353485
-0.290288 -0.252039 0.405475
-0.290288 0.341536 0.348253
-0.290288 -0.231153 0.422198
-0.290288 0.347169 0.352620
-0.290288 -0.070380 0.462527
-0.290288 -0.345057 0.318354
-0.290288 0.445176 -0.167683
-0.290288 -0.266901 0.411119
-0.290288 0.409580 -0.195871
-0.290288 0.250410 -0.411695
-0.290288 0.060632 -0.495626
-0.290288 0.378592 0.253926
-0.290288 0.325364 -0.348048
-0.290288 -0.377090 -0.283766
-0.290288 0.318905 -0.345946
-0.290288 0.471783 0.002759
-0.290288 0.492479 0.047580
-0.290288 -0.447801 -0.084914
-0.290288 -0.296711 0.389635
-0.290288 0.299594 -0.339385
-0.290288 0.197875 0.406827
-0.290288 0.293983 0.381411
-0.290288 -0.419278 -0.265635
-0.290288 -0.148999 -0.429730
-0.290288 0.406336 0.257889
-0.290288 -0.259010 -0.367750
-0.290288 0.464619 0.156610
-0.290288 -0.208775 0.398098
-0.290288 -0.139057 0.458751
-0.290288 -0.067918 -0.458458
-0.290288 -0.462370 -0.141362
-0.290288 0.018556 -0.470797
-0.290288 -0.286110 -0.362956
-0.290288 -0.468010 0.092779
-0.290288 0.457515 0.037147
-0.290288 -0.303461 0.369698
-0.290288 0.438103 0.137442
-0.290288 -0.176903 -0.449768
-0.290288 -0.270488 -0.417711
-0.290288 0.413013 0.211936
-0.290288 0.471225 0.052822
-0.290288 -0.440372 -0.144487
-0.290288 -0.370092 0.250024
-0.290288 -0.346792 0.345888
-0.290288 0.359600 -0.282575
-0.290288 0.381385 -0.270185
-0.290288 0.366798 -0.308208
-0.290288 0.000703 0.490247
-0.290288 0.157698 0.423212
-0.290288 -0.379998 -0.279663
-0.290288 -0.344314 -0.341253
-0.290288 0.061087 0.455597
-0.290288 0.170105 0.431040
-0.290288 -0.064618 -0.442711
-0.290288 0.383342 -0.265453
-0.290288 0.008863 0.448149
-0.290288 -0.369432 0.300409
-0.290288 0.374917 0.299102
-0.290288 0.175960 -0.448849
-0.290288 -0.216915 0.431369
-0.290288 -0.402107 0.198086
-0.290288 -0.444970 -0.142196
-0.290288 0.095411 0.443649
-0.290288 0.439060 -0.186589
-0.290288 -0.415846 0.246137
-0.290288 0.416527 -0.266572
-0.290288 0.297879 -0.372210
-0.290288 -0.025372 0.456437
-0.290288 0.439024 -0.100977
-0.290288 -0.411032 -0.247176
-0.290288 -0.497029 -0.023827
-0.290288 -0.449036 -0.209715
-0.290288 -0.307370 0.371216
-0.290288 -0.406576 0.272329
-0.290288 0.349874 0.336867
-0.290288 -0.482751 -0.051869
-0.290288 -0.181216 0.408251
-0.290288 0.072156 0.456775
-0.290288 0.036029 -0.496518
-0.290288 -0.110556 -0.451397
-0.290288 -0.471008 -0.125979
-0.290288 0.127724 -0.468042
-0.290288 0.373610 0.255276
-0.290288 -0.148405 -0.467705
-0.290288 0.456101 0.061459
-0.290288 -0.213219 0.431902
-0.290288 -0.408955 0.209775
-0.290288 0.186206 0.425326
-0.290288 0.046364 0.477806
-0.290288 -0.472240 -0.108673
-0.290288 0.450637 0.082489
-0.290288 0.254568 -0.377317
-0.290288 0.357492 0.294074
-0.290288 -0.099521 0.466025
-0.290288 0.291114 -0.369915
-0.290288 0.256332 -0.394032
-0.290288 0.405972 -0.186314
-0.290288 -0.007417 -0.495374
-0.290288 -0.012315 -0.450423
-0.290288 0.325502 0.309887
-0.290288 -0.064709 -0.448154
-0.290288 -0.476882 0.072710
-0.290288 0.346824 0.296320
-0.290288 -0.282010 0.404323
-0.290288 -0.276585 -0.354566
-0.290288 0.444523 0.200589
-0.290288 -0.431444 -0.165360
-0.290288 0.165481 0.428888
-0.290288 0.053349 -0.481450
-0.290288 -0.458323 -0.133397
-0.290288 -0.417077 0.268519
-0.290288 -0.333799 0.366638
-0.290288 0.286300 -0.360252
-0.290288 0.438297 -0.122334
-0.290288 -0.038962 -0.456977
-0.290288 -0.041841 -0.495612
-0.290288 -0.230405 0.431015
-0.290288 -0.429062 -0.133113
-0.290288 -0.451312 -0.035331
-0.290288 -0.492579 0.036435
-0.290288 -0.116194 0.482071
-0.290288 -0.304571 -0.353676
-0.290288 0.020575 0.444053
-0.290288 -0.161945 0.416710
-0.290288 0.447304 -0.204452
-0.290288 -0.305171 -0.326866
-0.290288 0.395599 -0.261601
-0.290288 0.240324 0.421046
-0.290288 -0.431726 -0.181617
-0.290288 0.221776 0.420872
-0.290288 -0.139104 -0.429515
-0.290288 0.085616 0.440236
-0.290288 0.446181 -0.102638
-0.290288 -0.407526 -0.278366
-0.290288 0.204888 0.397968
-0.290288 0.094307 0.438873
-0.290288 -0.470644 0.085079
-0.290288 0.321648 -0.327769
-0.290288 -0.366855 -0.298671
-0.290288 -0.227507 0.422673
-0.290288 0.399133 -0.252159
-0.290288 -0.356268 0.314592
-0.290288 0.458561 0.152957
-0.290288 -0.158895 0.440346
-0.290288 -0.197745 0.398027
-0.290288 0.375804 -0.263195
-0.290288 0.477782 0.131157
-0.290288 0.438516 -0.086356
-0.290288 0.137926 0.431412
-0.290288 0.205351 0.412801
-0.290288 0.154510 -0.443250
-0.290288 0.426744 0.204493
-0.290288 -0.220549 0.388825
-0.290288 -0.445528 -0.015546
-0.290288 -0.296451 0.370014
-0.290288 -0.345567 0.338531
-0.290288 -0.159773 -0.458905
-0.290288 -0.405667 -0.241765
-0.290288 0.242266 -0.421783
-0.290288 -0.265130 0.386249
-0.290288 -0.020476 -0.462329
-0.290288 -0.448725 0.200617
-0.290288 -0.270568 0.397227
-0.290288 -0.431208 -0.242803
-0.290288 0.475388 -0.118976
-0.290288 0.344644 0.305524
-0.290288 -0.083218 -0.439945
-0.290288 -0.232249 0.434173
-0.290288 -0.295442 0.397392
-0.290288 0.473777 -0.054812
-0.290288 0.373413 -0.281991
-0.290288 0.059957 0.439478
-0.290288 -0.484397 -0.080412
-0.290288 -0.471356 0.069972
-0.290288 -0.483712 0.006453
-0.290288 -0.448315 0.083961
-0.290288 0.000872 -0.495278
-0.290288 0.145633 -0.428009
-0.290288 0.493827 0.018431
-0.290288 -0.341987 -0.321873
-0.290288 -0.184275 -0.430752
-0.290288 0.199208 0.442656
-0.290288 -0.361139 0.292052
-0.290288 0.463924 -0.170274
-0.290288 0.420351 0.184181
-0.290288 -0.453764 -0.134189
-0.290288 0.326296 0.373744
-0.290288 -0.184219 -0.446869
-0.290288 0.372650 -0.248524
-0.290288 -0.280343 -0.368492
-0.290288 0.395127 0.217692
-0.290288 -0.326498 0.338914
-0.290288 -0.350213 0.333244
-0.290288 -0.043637 -0.493129
-0.290288 0.420890 -0.241248
-0.290288 -0.194670 0.423325
-0.290288 0.446810 -0.077577
-0.290288 0.245775 -0.419453
-0.290288 -0.447614 -0.167794
-0.290288 0.493013 0.066063
-0.290288 -0.015187 0.490924
-0.290288 -0.112473 0.464038
-0.290288 -0.377323 -0.269111
-0.290288 -0.351656 -0.286214
-0.290288 -0.272301 -0.402655
-0.290288 -0.434200 -0.217692
-0.290288 0.029865 -0.447066
-0.290288 0.425252 0.220822
-0.290288 -0.272394 -0.396764
-0.290288 0.417454 -0.262875
-0.290288 0.465745 -0.167079
-0.290288 0.448386 0.198282
-0.290288 0.416149 0.167866
-0.290288 -0.288821 0.384053
-0.290288 -0.427683 -0.211081
-0.290288 -0.381486 0.286901
-0.290288 -0.321806 -0.322820
-0.290288 -0.496739 -0.010946
-0.290288 0.306810 -0.385764
-0.290288 -0.253986 -0.429843
-0.290288 -0.132894 0.423026
-0.290288 -0.338751 0.335173
-0.290288 -0.441843 -0.134546
-0.290288 0.402714 0.206337
-0.290288 -0.414350 -0.195312
-0.290288 -0.379673 0.260619
-0.290288 -0.469662 0.080851
-0.290288 0.438575 -0.173482
-0.290288 0.227137 -0.398060
-0.290288 0.006786 -0.457688
-0.290288 0.116888 -0.448122
-0.290288 -0.264737 -0.413528
-0.290288 0.471661 0.059239
-0.290288 -0.396943 -0.226339
-0.290288 0.227622 -0.422860
-0.290288 0.223078 -0.409120
-0.290288 -0.037003 0.467247
-0.290288 -0.489009 -0.003449
-0.290288 -0.101758 0.474084
-0.290288 0.418456 0.175604
-0.290288 0.330164 -0.314848
-0.290288 0.488726 -0.006846
-0.290288 -0.046639 0.441865
-0.290288 0.175036 -0.414992
-0.290288 0.287124 -0.380722
-0.290288 -0.372552 0.257058
-0.290288 0.346884 -0.299973
-0.290288 0.465979 0.173035
-0.290288 0.344919 -0.329202
-0.290288 -0.434913 0.091828
-0.290288 0.484429 -0.029713
-0.290288 0.139435 0.453715
-0.290288 -0.006065 -0.467478
-0.290288 0.398507 0.251649
-0.290288 0.305052 -0.372074
-0.290288 -0.004981 -0.483926
-0.290288 -0.433176 0.100851
-0.290288 0.464398 -0.055730
-0.290288 0.312990 0.323870
-0.290288 0.348349 0.287899
-0.290288 0.461628 -0.080088
-0.290288 0.385843 0.273806
-0.290288 -0.423618 -0.238741
-0.290288 0.301587 0.378383
-0.290288 -0.011359 -0.479412
-0.290288 0.468817 -0.084627
-0.290288 -0.239537 -0.430068
-0.290288 -0.002551 0.491685
-0.290288 0.267856 -0.407624
-0.290288 -0.448083 0.042379
-0.290288 0.477813 -0.069667
-0.290288 0.473267 -0.112131
-0.290288 0.492791 -0.032795
-0.290288 -0.142131 0.421165
-0.290288 -0.206494 0.404450
-0.290288 0.392105 -0.247421
-0.290288 -0.323619 -0.347653
-0.290288 0.454860 0.120086
-0.290288 0.489984 0.007935
-0.290288 -0.062427 -0.460218
-0.290288 -0.114494 -0.454950
-0.290288 0.401208 -0.282495
-0.290288 0.066993 -0.448261
-0.290288 -0.434191 -0.183870
-0.290288 0.393982 0.254775
-0.290288 0.398241 0.219997
-0.290288 0.109419 0.478847
-0.290288 0.418167 0.246680
-0.290288 0.147212 0.419496
-0.290288 0.368654 -0.314010
-0.290288 0.477700 0.054037
-0.290288 -0.439512 -0.095846
-0.290288 -0.425320 0.251991
-0.290288 -0.226624 -0.389978
-0.290288 0.412879 -0.265984
-0.290288 0.447334 0.172204
-0.290288 -0.047642 -0.497092
-0.290288 -0.297669 0.358134
-0.290288 0.113881 -0.453953
-0.290288 0.445941 0.087530
-0.290288 -0.451480 -0.156204
-0.290288 -0.424671 0.256730
-0.290288 0.058528 0.453875
-0.290288 0.460631 0.155495
-0.290288 0.342289 -0.335821
-0.290288 -0.131250 0.444179
-0.290288 0.433131 -0.220477
-0.290288 -0.291223 0.396069
-0.290288 -0.347444 0.342559
-0.290288 -0.077655 -0.486794
-0.290288 -0.158554 -0.433288
-0.290288 -0.490642 0.014042
-0.290288 0.396473 -0.281989
-0.290288 -0.448623 -0.206187
-0.290288 -0.457290 0.047194
-0.290288 -0.153034 -0.429918
-0.290288 -0.451786 0.016773
-0.290288 0.386396 -0.275344
-0.290288 0.014175 -0.492788
-0.290288 -0.286385 -0.377933
-0.290288 -0.390531 0.221211
-0.290288 0.464555 -0.128074
-0.290288 0.441765 -0.126875
-0.290288 -0.403716 0.240949
-0.290288 -0.371678 -0.287773
-0.290288 -0.325007 0.347832
-0.290288 -0.090824 0.463791
-0.290288 0.086817 -0.450785
-0.290288 0.435615 -0.231232
-0.290288 0.261928 -0.402143
-0.290288 0.255860 -0.429575
-0.290288 -0.429787 -0.139510
-0.290288 0.464006 0.026753
-0.290288 -0.062837 -0.486757
-0.290288 0.163466 0.459224
-0.290288 0.461320 0.019740
-0.290288 0.226780 0.390716
-0.290288 0.245702 0.369600
-0.290288 0.387235 0.258504
-0.290288 0.469322 -0.156992
-0.290288 -0.340790 0.325908
-0.290288 -0.316519 0.350790
-0.290288 0.483120 -0.104319
-0.290288 -0.397674 -0.246590
-0.290288 0.122432 -0.463417
-0.290288 0.469993 0.048889
-0.290288 -0.460400 0.160318
-0.290288 0.034548 0.490836
-0.290288 0.214389 0.418507
-0.290288 -0.070122 -0.451594
-0.290288 -0.407341 0.283304
-0.290288 -0.144441 -0.466359
-0.290288 0.169674 -0.451793
-0.290288 0.190677 0.438203
-0.290288 -0.448899 0.155316
-0.290288 -0.022059 0.477824
-0.290288 0.282450 0.378654
-0.290288 -0.101010 -0.457969
-0.290288 0.270018 -0.362323
-0.290288 0.210315 0.420178
-0.290288 -0.187138 -0.444547
-0.290288 0.372146 -0.263202
-0.290288 0.465792 -0.143436
-0.290288 0.197672 0.433194
-0.290288 -0.311513 0.321196
-0.290288 0.450909 -0.147881
-0.290288 0.109028 0.450460
-0.290288 0.412128 0.194415
-0.290288 0.331903 0.299478
-0.290288 0.399647 0.196178
-0.290288 0.452448 0.187525
-0.290288 0.139142 0.468366
-0.290288 0.369375 -0.310882
-0.290288 -0.349939 0.305720
-0.290288 0.202845 0.440761
-0.290288 0.453728 -0.126465
-0.290288 -0.188825 0.418330
-0.290288 0.321332 0.317315
-0.290288 -0.462418 0.015572
-0.290288 -0.192866 0.429385
-0.290288 -0.204793 0.441014
-0.290288 0.276094 0.394028
-0.290288 0.475573 0.084906
-0.290288 -0.245887 0.402996
-0.290288 -0.146682 0.473437
-0.290288 -0.394220 0.294154
-0.290288 0.459191 -0.086839
-0.290288 -0.122054 -0.477198
-0.290288 0.441827 0.162739
-0.290288 -0.456186 0.166190
-0.290288 -0.284216 -0.391912
-0.290288 0.343024 0.284456
-0.290288 -0.205597 -0.400121
-0.290288 -0.258511 0.364682
-0.290288 0.464531 0.086384
-0.290288 -0.085233 0.473627
-0.290288 0.470867 -0.040037
-0.290288 0.129102 0.460894
-0.290288 -0.353611 -0.293081
-0.290288 0.339771 -0.341457
-0.290288 0.410267 0.254502
-0.290288 -0.320447 0.314362
-0.290288 0.176621 0.457243
-0.290288 -0.172535 0.439184
-0.290288 -0.148896 -0.450069
-0.290288 0.446213 0.096211
-0.290288 -0.273365 0.368637
-0.290288 0.479370 0.111324
-0.290288 -0.151221 -0.452663
-0.290288 0.379999 -0.289932
-0.290288 0.146553 0.427359
-0.290288 -0.328959 0.364953
-0.290288 0.284809 0.346405
-0.290288 0.305576 -0.353914
-0.290288 0.465993 -0.152970
-0.290288 -0.473278 0.045772
-0.290288 -0.349429 -0.297211
-0.290288 0.105397 0.447065
-0.290288 0.386978 0.220649
-0.290288 -0.440246 -0.161529
-0.290288 -0.428539 -0.185945
-0.290288 0.469221 -0.020066
-0.290288 -0.268013 0.415959
-0.290288 -0.258576 -0.375726
-0.290288 -0.219600 0.418983
-0.290288 0.320661 -0.331805
-0.290288 0.496656 0.020484
-0.290288 -0.040955 0.474550
-0.290288 0.042943 0.476148
-0.290288 0.454819 0.035087
-0.290288 0.005893 -0.499052
-0.290288 0.116025 0.481368
-0.290288 -0.457624 0.001814
-0.290288 0.161005 -0.473119
-0.290288 0.082055 -0.440549
-0.290288 0.269253 0.400635
-0.290288 0.158722 0.431621
-0.290288 0.272304 0.375118
-0.290288 -0.399506 0.210045
-0.290288 0.079976 -0.472733
-0.290288 0.172860 -0.466866
-0.290288 0.467873 0.041714
-0.290288 0.439688 0.148550
-0.290288 -0.481573 -0.067771
-0.290288 0.051124 -0.467710
-0.290288 -0.336003 0.358757
-0.290288 0.448652 -0.126712
-0.290288 0.438825 -0.130042
-0.290288 -0.128964 0.428790
-0.290288 -0.166580 0.432922
-0.290288 -0.391208 0.235973
-0.290288 -0.027999 -0.462003
-0.290288 -0.050719 -0.473480
-0.290288 -0.078238 0.444608
-0.290288 -0.195518 -0.402632
-0.290288 0.471511 -0.141495
-0.290288 -0.455290 -0.109434
-0.290288 -0.478775 0.090893
-0.290288 0.359287 0.263628
-0.290288 -0.265503 -0.398699
-0.290288 -0.392495 0.251942
-0.290288 0.343015 0.327647
-0.290288 0.393685 -0.235995
-0.290288 0.313108 0.317990
-0.290288 -0.412911 -0.169104
-0.290288 -0.237275 -0.400877
-0.290288 -0.010933 0.447221
-0.290288 -0.325078 -0.374796
-0.290288 0.170705 0.465656
-0.290288 -0.347218 -0.357767
-0.290288 -0.058227 -0.460135
-0.290288 -0.403870 0.230923
-0.290288 0.176668 0.419427
-0.290288 0.093453 -0.483712
-0.290288 -0.403334 -0.220503
-0.290288 -0.483839 0.094037
-0.290288 0.428522 0.129614
-0.290288 0.235905 0.411938
-0.290288 -0.489979 -0.014665
-0.290288 -0.121695 0.449744
-0.290288 0.354353 0.332078
-0.290288 0.333246 -0.351721
-0.290288 0.232408 0.418173
-0.290288 0.355227 -0.292234
-0.290288 -0.445186 -0.023435
-0.290288 -0.448302 0.102479
-0.290288 -0.410632 0.264369
-0.290288 0.305366 0.376806
-0.290288 0.353071 0.307822
-0.290288 0.442624 0.146195
-0.290288 -0.356457 -0.285579
-0.290288 -0.420771 -0.156526
-0.290288 0.310457 0.380333
-0.290288 0.039433 0.477524
-0.290288 0.057790 -0.484737
-0.290288 0.144257 0.424497
-0.290288 -0.294078 -0.372910
-0.290288 0.455624 -0.156767
-0.290288 0.366354 -0.311803
-0.290288 0.194142 -0.414715
-0.290288 0.118266 -0.459481
-0.290288 0.373839 -0.301019
-0.290288 0.427518 0.213804
-0.290288 0.098747 0.438315
-0.290288 -0.308410 -0.380073
-0.290288 -0.236184 -0.416136
-0.290288 0.449432 0.104188
-0.290288 0.129739 -0.458332
-0.290288 -0.437798 -0.223520
-0.290288 0.092996 0.460766
-0.290288 -0.438876 -0.209997
-0.290288 0.281383 -0.401822
-0.290288 0.411791 0.232580
-0.290288 -0.397355 0.284559
-0.290288 0.342963 -0.354039
-0.290288 -0.272037 -0.354821
-0.290288 -0.281185 0.398814
-0.290288 0.461972 0.061734
-0.290288 -0.317652 -0.351695
-0.290288 -0.011773 -0.453585
-0.290288 0.451212 -0.028706
-0.290288 0.466703 0.159135
-0.290288 -0.446192 -0.008402
-0.290288 0.194619 -0.453378
-0.290288 -0.105348 0.481799
-0.290288 -0.314345 -0.363426
-0.290288 0.063021 0.486978
-0.290288 0.283646 -0.408965
-0.290288 0.029679 0.480458
-0.290288 -0.295935 0.374493
-0.290288 -0.401876 0.269737
-0.290288 -0.439605 -0.201997
-0.290288 0.115706 0.440974
-0.290288 0.206700 -0.432349
-0.290288 -0.309100 -0.383831
-0.290288 -0.011017 0.443183
-0.290288 0.347729 0.277795
-0.290288 0.355650 0.305607
-0.290288 0.400102 -0.204626
-0.290288 0.263096 0.404268
-0.290288 -0.246355 -0.420991
-0.290288 -0.469630 -0.111181
-0.290288 0.434833 -0.101569
-0.290288 -0.419399 0.263779
-0.290288 -0.206848 -0.425707
-0.290288 0.433232 -0.199641
-0.290288 0.097707 -0.444332
-0.290288 -0.246388 0.422993
-0.290288 0.041367 -0.492088
-0.290288 -0.302239 0.386644
-0.290288 0.484877 -0.078357
-0.290288 0.250181 0.378385
-0.290288 0.484685 0.089304
-0.290288 -0.414578 0.189460
-0.290288 0.253613 -0.369364
-0.290288 0.368128 -0.257196
-0.290288 0.112523 -0.472041
-0.290288 -0.434756 -0.111722
-0.290288 -0.167415 -0.444136
-0.290288 0.471058 -0.014942
-0.290288 -0.357128 0.318015
-0.290288 -0.480485 -0.130423
-0.290288 0.101937 -0.480099
-0.290288 0.212705 0.409478
-0.290288 -0.431082 -0.142560
-0.290288 -0.472369 -0.156849
-0.290288 0.278367 0.358915
-0.290288 -0.040083 -0.491712
-0.290288 0.452850 -0.173564
-0.290288 0.223072 -0.444836
-0.290288 0.441265 0.185618
-0.290288 0.056880 0.460079
-0.290288 0.456639 -0.089403
-0.290288 0.440747 -0.224076
-0.290288 0.432919 0.120669
-0.290288 0.116739 -0.436540
-0.290288 -0.288915 0.344504
-0.290288 0.434086 -0.210345
-0.290288 -0.189572 -0.418530
-0.290288 -0.331754 -0.305014
-0.290288 -0.385319 -0.285754
-0.290288 0.389376 -0.259712
-0.290288 0.254618 -0.387822
-0.290288 0.409718 -0.199691
-0.290288 -0.429633 -0.119393
-0.290288 0.399081 0.239433
-0.290288 -0.436744 -0.163674
-0.290288 0.459722 -0.135125
-0.290288 -0.434700 0.232255
-0.290288 0.078793 -0.453898
-0.290288 -0.132500 -0.459135
-0.290288 0.311537 0.367234
-0.290288 -0.338353 0.320841
-0.290288 0.310624 -0.374872
-0.290288 -0.356114 0.311281
-0.290288 -0.205793 0.451206
-0.290288 0.091010 0.452076
-0.290288 0.167786 -0.433658
-0.290288 -0.492661 0.005866
-0.290288 0.463246 0.127747
-0.290288 -0.059073 0.441005
-0.290288 -0.325196 0.334614
-0.290288 -0.050085 0.489503
-0.290288 0.394738 0.269721
-0.290288 -0.259263 -0.382187
-0.290288 -0.427609 -0.195012
-0.290288 -0.421743 -0.248334
-0.290288 0.450844 -0.062182
-0.290288 -0.028768 0.458575
-0.290288 -0.450713 -0.169959
-0.290288 0.004309 0.462115
-0.290288 -0.123310 -0.483522
-0.290288 -0.281232 -0.412074
-0.290288 0.018096 -0.461025
-0.290288 -0.408030 -0.212360
-0.290288 -0.070593 -0.491800
-0.290288 0.071631 0.450285
-0.290288 0.420372 0.223654
-0.290288 -0.359622 -0.317396
-0.290288 0.168022 0.424659
-0.290288 -0.386710 -0.262020
-0.290288 0.371610 0.288339
-0.290288 -0.105430 0.463498
-0.290288 0.397183 0.261441
-0.290288 -0.449215 0.022269
-0.290288 0.129971 0.445446
-0.290288 0.405156 0.280653
-0.290288 -0.249904 0.427685
-0.290288 -0.430344 -0.213392
-0.290288 0.232792 0.383198
-0.290288 0.054964 0.472926
-0.290288 0.119175 0.464888
-0.290288 -0.257338 -0.427737
-0.290288 -0.375928 -0.280882
-0.290288 -0.389370 -0.311308
-0.290288 0.437015 -0.241224
-0.290288 -0.014080 -0.447246
-0.290288 0.032155 -0.461243
-0.290288 0.409607 -0.207293
-0.290288 -0.078965 0.470682
-0.290288 0.302233 -0.358171
-0.290288 0.214887 -0.450100
-0.290288 -0.157274 0.467551
-0.290288 -0.326521 0.320115
-0.290288 0.301002 -0.394398
-0.290288 -0.039100 0.479223
-0.290288 -0.126459 -0.457445
-0.290288 -0.461400 0.069694
-0.290288 0.099802 -0.457615
-0.290288 0.003751 0.468249
-0.290288 0.428168 0.192852
-0.290288 -0.066246 0.486621
-0.290288 -0.348649 0.327701
-0.290288 -0.470878 -0.073055
-0.290288 0.168107 0.410485
-0.290288 -0.119224 -0.435571
-0.290288 0.260730 -0.422537
-0.290288 -0.410076 -0.200356
-0.290288 0.396982 0.275987
-0.290288 0.166475 -0.452536
-0.290288 -0.247462 -0.432801
-0.290288 -0.054591 -0.474820
-0.290288 -0.341869 0.332027
-0.290288 0.466995 -0.148229
-0.290288 0.343228 0.345062
-0.290288 0.462209 0.111867
-0.290288 0.044034 0.468375
-0.290288 0.307622 -0.350331
-0.290288 -0.084898 0.469661
-0.290288 0.072134 -0.494897
-0.290288 0.498190 0.012167
-0.290288 0.393724 -0.211595
-0.290288 0.004745 0.494103
-0.290288 0.152807 -0.423930
-0.290288 -0.321320 0.306591
-0.290288 -0.143712 0.454612
-0.290288 -0.390612 0.268669
-0.290288 0.481308 0.060124
-0.290288 0.463488 0.031130
-0.290288 -0.107428 -0.466263
-0.290288 0.474057 0.080625
-0.290288 0.406982 -0.225078
-0.290288 0.425508 -0.135938
-0.290288 0.460436 -0.014753
-0.290288 -0.400762 0.251888
-0.290288 -0.145808 -0.427776
-0.290288 0.358801 0.272910
-0.290288 0.141224 -0.467320
-0.290288 0.098410 0.451755
-0.290288 -0.478391 0.132711
-0.290288 -0.126618 0.442978
-0.290288 0.473562 0.062259
-0.290288 -0.359790 0.274176
-0.290288 -0.262844 -0.416232
-0.290288 0.366079 -0.286853
-0.290288 0.384319 -0.286726
-0.290288 -0.081223 -0.485805
-0.290288 0.025318 -0.452239
-0.290288 -0.475934 -0.025558
-0.290288 0.364226 0.256463
-0.290288 0.199662 0.401567
-0.290288 0.429098 0.122431
-0.290288 -0.410077 0.272047
-0.290288 -0.463987 -0.123022
-0.290288 0.110520 -0.446885
-0.290288 -0.495444 0.035369
-0.290288 0.237590 -0.396540
-0.290288 0.151896 -0.476544
-0.290288 0.329872 -0.362636
-0.290288 0.343202 -0.301059
-0.290288 -0.196247 0.413027
-0.290288 0.035311 -0.458016
-0.290288 0.230728 0.397897
-0.290288 -0.274116 -0.375525
-0.290288 -0.142773 0.461536
-0.290288 0.456496 -0.011645
-0.290288 0.289775 0.387350
-0.290288 0.315973 -0.348241
-0.290288 -0.385276 -0.276531
-0.290288 -0.178022 0.414210
-0.290288 0.383814 0.245916
-0.290288 -0.069358 0.474531
-0.290288 -0.005166 -0.470949
-0.290288 0.404343 0.289180
-0.290288 0.112260 -0.467804
-0.290288 0.012098 -0.461614
-0.290288 -0.197561 0.434161
-0.290288 0.429879 0.199392
-0.290288 0.448478 0.207911
-0.290288 0.218855 -0.408385
-0.290288 0.041477 0.494039
-0.290288 0.198265 0.429841
-0.290288 -0.173340 -0.440001
-0.290288 -0.460668 -0.105627
-0.290288 0.415084 0.224486
-0.290288 0.285967 0.399591
-0.290288 0.291768 -0.354147
-0.290288 -0.049010 0.485631
-0.290288 -0.006452 0.453578
-0.290288 0.078615 -0.445809
-0.290288 0.192826 0.411624
-0.290288 0.208755 -0.400775
-0.290288 0.487422 -0.017611
-0.290288 0.473382 0.011747
-0.290288 -0.493612 -0.002978
-0.290288 0.351479 -0.335583
-0.290288 0.358277 0.331992
-0.290288 0.044231 -0.479927
-0.290288 0.009092 -0.498063
-0.290288 -0.238234 0.382695
-0.290288 -0.051086 -0.485441
-0.290288 -0.457298 -0.196479
-0.290288 -0.443421 0.124566
-0.290288 0.064846 -0.484792
-0.290288 0.442214 -0.151910
-0.290288 0.038991 -0.489000
-0.290288 0.401980 -0.201075
-0.290288 0.337236 0.326383
-0.290288 0.216342 -0.401744
-0.290288 0.327588 -0.374737
-0.290288 0.199889 -0.441759
-0.290288 0.389257 -0.243702
-0.290288 0.346016 -0.293350
-0.290288 -0.397367 -0.251908
-0.290288 -0.335271 -0.306051
-0.290288 -0.303932 0.383783
-0.290288 -0.321646 -0.357051
-0.290288 -0.342332 0.303549
-0.290288 -0.442217 0.199923
-0.290288 0.482643 -0.110515
-0.290288 -0.233902 -0.413267
-0.290288 0.447447 -0.067561
-0.290288 0.042487 0.483943
-0.290288 0.186660 0.411972
-0.290288 -0.113851 -0.446864
