0.153874 0.498610 -0.006575
-0.072111 -0.071819 0.490481
-0.215100 0.143066 0.474928
0.081173 -0.493745 0.058707
0.011331 0.007033 0.495960
-0.224810 -0.424205 0.257744
0.110831 -0.461610 -0.187725
0.017207 0.314056 0.384668
-0.184378 0.351454 -0.355457
-0.034148 -0.453493 0.202328
-0.141711 0.283634 -0.411927
-0.061869 0.075900 -0.494392
0.225931 -0.436600 0.236425
-0.146608 0.488874 -0.100355
0.151026 -0.116493 -0.486177
-0.195075 -0.389718 -0.311706
0.286203 -0.302651 0.392856
-0.158276 -0.444183 -0.226248
0.223242 -0.469150 -0.167616
0.099789 -0.464402 -0.181029
-0.098685 0.235521 -0.441412
0.211039 -0.190589 -0.462196
-0.068697 -0.305056 -0.395380
0.205226 0.491541 0.081416
0.243610 -0.243163 -0.436618
0.169446 -0.079909 0.489311
-0.190282 0.100699 -0.489936
-0.243600 -0.494823 0.048730
0.147944 -0.496266 0.034832
0.235977 0.136446 0.476948
0.135841 0.383772 -0.320216
-0.212044 -0.317824 0.380793
0.146452 -0.126915 -0.483700
-0.161773 0.297077 -0.402188
0.016807 -0.310869 0.386657
-0.168628 -0.446872 -0.220791
-0.261832 0.320369 0.379634
-0.147147 0.318568 -0.385387
-0.241555 0.344421 0.358155
0.108294 -0.401315 -0.296334
-0.262513 -0.065644 -0.495865
0.064811 0.150207 0.472750
-0.164073 0.101617 -0.489743
-0.095454 0.138162 -0.480741
0.014853 -0.495200 0.045245
0.123537 -0.496883 0.021095
0.205711 0.409754 -0.285846
0.053813 -0.294752 0.398815
-0.173810 0.306725 0.390513
-0.241410 -0.111210 -0.487432
0.152088 0.164643 0.468075
0.218214 -0.048357 0.493434
0.074196 -0.124614 -0.484247
-0.108313 -0.440657 -0.233405
0.051325 0.144081 0.474619
0.286878 -0.156098 0.470531
-0.233131 0.485424 0.111602
-0.198024 -0.008796 -0.500198
0.077039 0.494259 0.062626
-0.119796 0.482616 -0.127162
-0.031834 -0.483184 0.116104
-0.189669 0.489312 -0.097806
-0.241393 -0.364543 0.336516
-0.283879 0.493020 -0.076269
0.211211 0.498309 0.010158
-0.144491 0.482029 -0.129631
0.157832 0.355294 -0.351719
0.157862 0.011147 0.495785
-0.099687 -0.233262 0.437737
-0.252019 -0.456232 -0.200626
0.143848 -0.211697 0.448364
-0.219593 -0.133293 -0.481951
0.256567 -0.168920 -0.470439
-0.169257 -0.415451 -0.275887
0.017420 0.287631 -0.409288
0.239162 -0.477198 -0.142917
-0.086190 0.204544 0.452041
0.122965 0.498461 0.001740
0.286346 0.107428 0.484221
0.138432 -0.288640 0.403427
-0.095879 -0.490359 -0.086854
0.235773 -0.396991 -0.302066
0.054909 -0.203584 0.452213
0.196362 0.302782 -0.397884
0.253629 0.498133 0.019946
-0.036088 -0.324016 0.375479
-0.105010 -0.358093 -0.347649
-0.154202 -0.022781 0.495423
-0.162358 -0.063710 0.491654
0.210626 0.126886 -0.483853
0.259991 -0.482118 0.120590
0.017686 -0.042546 0.493904
-0.290000 0.435719 -0.244399
0.232192 0.088250 -0.492544
-0.230798 0.323786 0.376844
0.207969 0.204309 0.452146
0.062078 -0.485633 0.105800
0.211890 0.043858 -0.498235
-0.278968 -0.422609 -0.265045
0.154245 0.427406 0.254354
0.129825 0.171117 0.465646
-0.166416 -0.195773 0.455469
-0.135098 -0.464183 -0.181554
0.193144 -0.459928 -0.191760
-0.080610 -0.022619 0.495426
0.101710 -0.154041 -0.475620
-0.131794 0.371296 0.330361
-0.033682 -0.458286 0.191646
0.168381 -0.274339 0.413033
-0.287394 -0.465156 -0.179194
0.099208 0.493829 -0.071572
-0.246724 -0.188596 -0.463056
0.286851 0.498578 -0.010497
-0.227246 0.256456 0.424965
-0.151127 0.381817 -0.322667
0.139703 0.294679 0.399723
-0.240587 0.460212 0.189185
-0.216177 -0.309303 -0.391994
-0.064893 0.281058 -0.413628
0.077835 0.367936 -0.338254
-0.052062 0.402409 -0.296349
-0.105426 -0.420452 -0.268312
0.042379 0.106277 0.484494
-0.123010 -0.327093 -0.377274
0.214263 0.330640 -0.375028
0.059489 0.100215 -0.490037
-0.034208 -0.480252 -0.131854
-0.051238 -0.291298 0.401422
-0.121955 0.368456 0.333670
0.157298 -0.177030 -0.467396
0.042159 0.015681 0.495582
0.080427 -0.261179 0.421721
-0.003058 -0.154143 -0.475589
-0.281632 0.346034 -0.360735
-0.228675 0.025393 0.495146
0.130734 0.473432 0.153820
-0.234563 -0.423714 -0.263358
0.284688 -0.396094 -0.303255
0.224589 0.334615 -0.371617
-0.036407 0.041870 0.494191
0.241027 -0.346726 -0.359326
-0.240106 -0.435668 -0.242513
-0.246344 0.241258 -0.438122
0.115224 -0.443729 0.222887
-0.167083 -0.260877 0.421921
0.268860 -0.480252 -0.131856
-0.016164 -0.480498 0.127409
-0.146760 0.467463 -0.175106
-0.214723 -0.444925 -0.224743
-0.065348 0.239132 0.434927
-0.070165 -0.010753 -0.500110
-0.108798 -0.472739 0.153005
0.098715 0.175595 0.463965
0.243690 -0.415196 -0.276273
0.113200 0.444482 -0.227756
-0.244901 0.062395 -0.496346
-0.103157 0.403497 -0.294792
-0.101258 0.342575 0.359827
-0.006351 0.007235 0.495960
-0.182021 0.178724 0.462791
-0.235280 0.490449 -0.091205
0.028489 -0.327401 0.372574
-0.241704 0.166350 0.467435
0.142583 0.151517 0.472350
0.212381 -0.493287 -0.066618
-0.008911 0.334845 -0.371420
-0.084345 0.496694 0.039644
-0.111357 0.488477 0.097027
0.023970 0.282424 0.408294
-0.023583 -0.238727 -0.438954
0.030713 0.240186 -0.438736
-0.051596 0.496497 -0.047080
-0.108718 0.481832 -0.130460
-0.097749 0.366380 0.335837
0.275510 -0.491658 -0.077876
-0.093253 -0.074080 0.490154
0.150907 0.367986 0.334187
-0.105746 -0.396417 -0.302827
-0.185839 0.125505 -0.484235
0.038400 0.433403 -0.248690
0.285964 0.496425 0.042956
0.080937 0.447674 0.216889
0.064895 -0.342821 -0.363029
0.083463 0.479713 0.133166
-0.112971 -0.136701 0.476508
-0.202705 -0.280447 0.409001
-0.068678 -0.204505 -0.455952
0.168081 0.022854 -0.499793
-0.273552 0.248908 -0.433735
-0.080282 -0.492377 0.069698
0.261394 -0.486718 0.101235
-0.086299 -0.299488 -0.399820
-0.252326 0.183242 0.461096
-0.125163 -0.137730 0.476224
0.093657 -0.409297 -0.285209
-0.054288 0.389760 -0.312707
-0.249772 -0.188717 0.458411
0.146561 -0.403831 -0.292999
-0.241726 -0.162257 -0.472939
-0.270902 -0.011203 0.495631
-0.214158 -0.476814 -0.144309
0.092071 0.151219 0.472441
0.062162 -0.235969 -0.440406
-0.246927 0.497370 0.031299
0.026689 -0.472098 0.155106
-0.125283 0.025069 0.495161
-0.239484 0.431274 -0.252181
0.026583 -0.448267 -0.217959
0.056559 -0.466375 0.170919
0.109312 0.248465 0.429836
-0.061707 0.498177 0.017484
0.104809 -0.176988 0.463301
0.265939 -0.425602 -0.260065
-0.024369 0.121344 -0.485383
-0.060507 0.089235 -0.492337
0.081799 0.088802 0.487887
-0.054053 0.438883 0.234340
0.096670 -0.343542 -0.362376
0.056998 -0.139411 -0.480084
0.095836 -0.296073 -0.402384
-0.209509 -0.054570 0.492930
-0.100059 -0.497520 -0.001435
-0.264553 0.294548 0.399814
-0.163866 -0.326806 0.373085
-0.105574 -0.480708 0.126525
0.127743 0.446845 0.218571
-0.243448 -0.484468 -0.115629
0.139715 -0.113691 -0.486843
-0.167312 0.083097 0.488869
0.037565 0.434243 0.242431
0.034136 -0.488708 -0.095386
-0.146826 0.445385 -0.226041
-0.130391 0.468870 -0.171354
-0.141523 -0.382830 0.315758
-0.011593 -0.401969 0.291158
-0.008330 -0.165071 -0.471883
0.002941 0.380170 0.320018
0.177354 0.087476 0.488115
0.062808 -0.467907 -0.171218
-0.274810 0.153193 0.471838
0.246086 -0.274175 -0.417700
-0.029566 0.404914 -0.292767
0.053182 0.397464 -0.303044
-0.064760 0.040426 -0.498513
-0.010777 0.434768 0.241516
0.188042 0.350978 -0.355921
-0.131517 0.310930 0.387160
-0.088741 -0.440004 -0.234730
-0.216319 -0.064944 -0.495940
0.183452 -0.496601 0.027366
0.256622 0.250088 0.428847
-0.212663 -0.228986 0.439844
0.143145 0.022667 -0.499796
0.186138 0.476325 0.145435
-0.205714 -0.161554 0.468649
0.268658 0.429999 0.249831
0.147028 0.402706 0.291495
-0.289732 0.331992 -0.373868
-0.021965 0.147575 -0.478142
0.025870 0.472806 0.155636
0.020623 -0.080597 0.489211
-0.200415 0.141564 0.475387
0.283169 -0.458629 -0.194875
0.123050 -0.068067 0.491024
-0.133545 0.129222 -0.483209
0.095551 0.496858 0.037615
-0.038988 -0.496643 0.026444
-0.117727 -0.124040 -0.484383
0.141830 -0.462898 -0.184635
-0.053105 0.479668 0.133328
0.168554 -0.487940 0.095472
0.253626 -0.253176 -0.430693
0.114355 -0.170343 0.465617
0.115024 0.131774 0.478374
-0.026596 -0.340528 -0.365106
0.031169 0.313852 -0.389433
-0.107672 -0.451946 -0.210495
-0.037894 -0.119061 0.481377
-0.028879 -0.082815 -0.493095
-0.098189 0.028614 0.495002
-0.227723 -0.126429 0.479343
0.194234 0.239320 0.434827
-0.033300 0.359723 0.342674
-0.018085 0.493414 -0.073981
-0.003243 0.228200 0.440683
-0.254875 0.172453 0.465144
0.099041 0.161860 0.469119
-0.221614 0.349683 -0.357182
-0.132767 -0.427553 -0.256663
0.079747 0.134387 0.477576
0.200004 0.498344 0.008225
0.127134 0.485257 0.112399
-0.060935 0.395379 0.301207
0.034880 -0.443690 0.222960
-0.143187 -0.289421 0.402838
-0.007572 0.319172 -0.384868
0.150179 0.277713 -0.415836
0.218912 -0.234931 -0.440952
0.240370 0.305563 -0.395786
-0.195436 -0.456593 0.195419
-0.256384 0.115963 0.482193
0.076767 -0.256723 -0.428531
-0.054551 0.323607 0.377006
-0.232220 0.246828 -0.434928
-0.148481 -0.350968 -0.354968
-0.003051 0.125544 0.479916
-0.111716 -0.496906 -0.028726
0.252497 0.465860 -0.179376
-0.116532 0.153110 0.471864
0.000117 0.087964 0.488031
0.010948 0.367503 -0.338732
-0.071588 0.480693 0.129617
0.111655 0.269111 -0.421515
-0.266291 -0.156694 0.470326
0.228249 -0.453421 0.202488
0.280928 -0.267376 -0.422036
0.158465 0.225840 -0.446253
-0.134603 -0.465724 0.172655
-0.020163 0.478848 0.136302
-0.159607 -0.491328 -0.080157
0.095310 0.315268 0.383701
0.167662 -0.298160 -0.400879
-0.091749 -0.447716 0.215202
0.217171 0.074209 0.490399
-0.275433 -0.292219 -0.405080
-0.244187 0.170690 -0.470204
-0.137890 -0.086719 -0.492422
0.240830 0.035522 0.494692
-0.196719 -0.061588 0.491961
-0.103207 0.324152 -0.380595
-0.080019 0.443911 -0.228840
-0.089488 0.193427 -0.461228
-0.071684 -0.181137 -0.465855
0.129460 0.062514 0.491960
-0.047527 -0.355187 -0.350634
-0.040606 -0.480704 0.126542
0.138197 -0.051058 -0.497441
0.097918 0.450461 -0.215720
0.273214 -0.403701 0.288682
0.260143 -0.341294 0.359998
0.046183 -0.456583 -0.199783
0.147935 0.115588 -0.486817
-0.166257 0.227579 0.441009
0.247080 -0.013011 -0.500009
-0.101273 -0.102519 0.484986
0.223136 0.495749 -0.054000
0.153238 -0.393874 0.301908
0.148761 0.315655 0.383393
0.215507 -0.452758 -0.208846
-0.077201 -0.209102 0.449643
-0.067998 -0.334654 -0.370426
0.174866 0.231607 -0.443411
0.219522 -0.421942 0.261455
0.197105 0.055640 0.492703
0.168760 0.437547 0.236669
-0.070374 0.455922 0.199473
-0.247237 -0.142016 -0.479289
-0.290185 -0.497196 -0.019425
0.096173 -0.095261 0.486507
0.208996 0.111609 0.483227
-0.203112 0.311027 0.387083
-0.259503 0.498435 0.003171
-0.213460 0.381611 -0.322926
0.104319 0.391580 0.306243
0.229749 -0.458321 0.191570
0.271884 0.455881 -0.203643
-0.288173 0.494784 -0.062936
-0.203396 0.435694 -0.244445
-0.103726 -0.331184 0.369328
-0.175841 0.242951 -0.437151
-0.152505 -0.240960 0.433352
0.281576 -0.116438 -0.486190
-0.178508 0.491278 0.083233
-0.263827 0.016436 -0.499909
-0.166448 -0.320811 -0.382818
-0.225882 0.138191 0.476416
0.088521 -0.352959 -0.352923
0.058446 -0.493110 -0.067842
0.275989 0.386344 -0.316990
0.062880 -0.325540 0.374172
-0.114104 -0.230010 -0.443543
0.021186 -0.394974 0.300529
0.241753 0.241504 -0.437981
-0.191292 -0.121315 0.480755
0.186004 0.172572 0.465100
0.182483 -0.489301 -0.092556
0.134736 -0.124634 -0.484242
0.251723 0.313618 0.385017
0.023548 0.176196 -0.468305
0.031913 -0.476199 0.141668
-0.252406 0.004667 0.495917
-0.100986 -0.228284 -0.444452
0.115483 -0.267770 0.417370
-0.227536 -0.271597 0.414844
0.224646 -0.427549 0.252257
0.218494 0.093273 -0.491491
0.080835 0.483568 -0.123154
-0.247856 -0.119306 0.481310
-0.089360 -0.194928 -0.460249
0.222154 -0.324373 0.375172
0.065242 0.252149 0.427590
0.029953 0.466231 0.174696
-0.193963 0.496775 0.038641
-0.181716 -0.390486 0.306157
-0.124888 -0.360462 -0.345216
0.127072 -0.037020 -0.498932
0.282437 -0.263054 0.420483
0.175770 -0.299277 0.395402
0.080051 -0.422034 -0.265916
0.105886 -0.349125 -0.356861
-0.277611 -0.218319 -0.449699
-0.098410 0.238287 0.435371
0.071507 0.292923 -0.405322
-0.128044 -0.257802 -0.427873
-0.007921 -0.497151 -0.021886
0.243240 -0.067152 0.491156
0.092523 -0.335856 -0.369337
0.157965 -0.494677 -0.056247
-0.038870 0.494467 0.061193
0.018144 0.143221 -0.479344
-0.114672 0.495080 0.056957
-0.270157 0.439121 0.233924
0.199139 0.404306 0.289374
-0.028082 0.480845 0.129064
0.085582 0.129808 -0.483047
0.267552 0.482450 -0.127859
-0.175844 0.164632 -0.472294
0.062432 -0.494672 -0.056303
-0.078703 0.406010 -0.291198
0.091715 0.119230 -0.485967
-0.065556 -0.401402 0.291968
-0.141289 -0.488573 -0.096029
-0.022903 -0.406334 -0.289681
-0.018548 -0.484121 -0.117282
0.184652 0.493179 0.070095
-0.155581 0.498316 0.009781
0.241778 0.497393 -0.036917
-0.131783 0.118149 0.481673
0.077077 0.498648 -0.008927
0.234260 -0.410493 -0.283397
-0.179100 0.096164 0.486619
-0.036815 -0.183910 0.460415
0.259436 -0.447396 0.215914
-0.257925 -0.164291 -0.472176
-0.198780 0.100596 0.485844
0.150309 0.497042 0.035351
0.270888 -0.161652 -0.473166
0.144441 0.260503 0.422497
0.283406 0.490876 0.085575
-0.117539 -0.416289 -0.274617
-0.286751 0.363696 -0.342935
-0.002275 -0.409419 -0.285025
-0.174322 0.424935 0.258662
0.049570 -0.418963 -0.270568
0.104365 0.378299 0.322199
0.125161 0.006107 0.495943
-0.286443 0.497896 -0.025695
0.160691 -0.007515 -0.500255
0.120327 -0.218466 -0.449622
-0.242708 -0.229588 -0.443766
0.158051 0.261140 0.422109
0.154383 0.146767 0.473799
0.181391 0.223233 -0.447538
0.195933 -0.421516 0.262155
0.199049 0.414549 -0.278989
-0.270568 0.253228 0.426933
0.204066 -0.480054 -0.132573
0.226473 -0.099108 -0.490290
0.283666 0.242736 0.433029
-0.181593 -0.152350 -0.476136
0.018790 -0.007127 -0.500273
0.017621 0.460757 -0.192778
0.189867 -0.163892 -0.472326
-0.151862 -0.471063 -0.162070
-0.132540 -0.496388 0.032120
-0.106614 -0.017993 0.495509
-0.129441 0.056068 0.492657
-0.205415 0.459585 -0.195389
-0.122409 0.377066 0.323636
0.285413 0.280235 0.409825
-0.066224 -0.278312 -0.414806
0.032331 0.007618 0.495943
0.260016 -0.022863 0.495421
-0.052843 -0.488725 0.090913
-0.243924 -0.407672 -0.287671
-0.061576 -0.473291 0.151198
-0.104681 -0.321287 -0.382438
-0.011747 0.035421 0.494696
-0.129067 -0.438534 0.232752
-0.175441 0.359942 0.342449
-0.287917 -0.269251 -0.420893
-0.257061 -0.425019 0.256408
-0.007075 0.487921 -0.104839
-0.144857 -0.208332 0.450022
0.072679 0.485560 -0.114775
-0.187484 -0.342970 0.358366
0.141498 0.467159 0.172006
0.133761 -0.488315 0.093293
-0.114446 -0.332476 -0.372399
-0.116969 -0.470794 -0.162850
-0.171666 -0.496142 0.036532
-0.219962 0.319813 0.380077
0.168065 0.355741 0.346764
0.010763 0.247963 0.430142
0.192441 -0.497513 0.007047
-0.114779 0.488719 -0.101252
-0.072726 0.236882 -0.440631
0.258357 -0.142886 0.474800
0.022202 -0.189535 0.458070
-0.123445 -0.494844 0.048539
0.161994 -0.152329 0.471831
-0.008877 -0.468930 0.164110
0.026466 0.220992 -0.448642
0.153240 -0.484669 -0.114668
-0.191819 0.477330 -0.145672
0.131918 0.428542 0.252373
0.053984 0.189535 -0.462851
-0.130490 -0.382156 0.316603
0.265210 -0.491662 0.073852
-0.262543 0.300574 -0.399550
-0.152930 -0.126445 0.479339
-0.145224 -0.042751 -0.498339
-0.266960 0.412290 -0.282220
-0.202824 0.027919 0.495033
0.166824 -0.124509 -0.484272
0.117605 -0.212714 0.447863
-0.066957 -0.215747 -0.450907
-0.141218 -0.350587 0.350951
-0.038984 -0.440795 -0.233123
-0.162903 -0.296628 0.397400
-0.005013 -0.414091 0.273825
-0.012338 0.416557 0.271410
0.177572 0.061822 -0.496429
0.219828 -0.251176 -0.431912
0.160658 -0.133454 -0.481902
-0.025976 -0.196661 -0.459472
-0.152699 0.098263 0.486258
0.228889 0.449714 -0.217385
-0.170355 -0.068689 -0.495526
-0.087955 -0.482666 -0.123112
0.061863 0.334863 -0.371404
0.077436 0.016229 -0.499912
0.187856 0.495790 0.050804
-0.175461 -0.345429 0.355972
0.087140 0.453029 -0.209997
0.132972 -0.482450 -0.123893
-0.013661 0.372243 -0.333500
-0.170602 0.309141 -0.393087
-0.001756 -0.440703 -0.233311
0.203900 -0.207466 -0.454623
0.257707 0.480016 -0.136870
0.099822 -0.336762 0.364410
-0.276947 -0.070779 -0.495167
-0.060682 -0.391044 -0.309949
0.251662 0.041113 -0.498457
0.187103 -0.372412 -0.332219
0.268380 0.400941 -0.298447
0.271726 -0.206507 0.450921
0.206370 -0.057309 -0.496765
0.264844 0.281821 -0.413124
0.265897 -0.436594 0.236437
-0.155885 0.496169 0.046118
0.269374 -0.440496 -0.233732
-0.225527 -0.493634 0.059735
0.096953 -0.451203 -0.212001
0.111292 -0.224838 -0.446266
-0.000157 -0.433817 0.241712
-0.108905 -0.418597 0.266941
-0.083152 -0.217980 -0.449878
-0.089750 -0.491020 0.077578
0.139460 0.485311 -0.115819
0.080597 0.462621 0.183405
-0.097520 0.323258 0.377322
0.265856 0.379582 -0.325397
0.166618 -0.433542 0.242233
0.001941 0.442025 -0.232422
0.282606 -0.373561 0.326559
0.196444 0.115122 -0.486914
-0.239674 0.278399 0.411109
0.094845 0.474986 0.149314
-0.249518 0.496318 0.044283
-0.182857 -0.497282 -0.014638
0.126013 -0.389201 -0.312391
-0.064962 -0.468456 0.165374
0.128020 0.344504 -0.362224
0.272932 -0.206219 -0.455183
-0.026897 -0.177560 0.463063
-0.162406 0.473850 0.152610
-0.044167 -0.475271 0.144708
-0.259433 -0.285205 0.405860
0.023300 0.209612 -0.454250
-0.076681 -0.107700 -0.488266
0.139816 -0.367009 0.333793
0.195128 -0.496857 0.021657
-0.152819 -0.364171 -0.341407
0.011405 -0.328922 0.371270
0.240790 0.404862 0.288637
0.258992 0.341831 0.360500
-0.237811 0.302577 0.393820
-0.053003 0.425225 -0.262104
0.182015 -0.181476 -0.465727
0.175609 0.490000 -0.093811
0.110066 0.158747 0.470144
0.239151 -0.422079 -0.265847
0.284366 -0.422105 0.261188
0.269048 -0.494291 0.053653
0.075324 0.497532 0.029298
0.048671 0.256506 0.424934
-0.170311 -0.112252 -0.487184
-0.178173 0.080320 0.489347
-0.199522 0.496248 -0.049386
0.138031 0.442574 -0.231379
0.241658 -0.453977 -0.206034
-0.229366 0.496748 0.038976
0.113646 -0.428278 0.251063
-0.236521 0.178296 0.462952
-0.176190 -0.365136 -0.340415
-0.190849 -0.236102 0.436138
-0.193307 0.290078 -0.407469
0.116168 -0.024033 0.495400
0.059655 -0.384210 -0.318470
0.255275 -0.497399 -0.008171
0.009880 -0.267786 -0.421786
-0.191094 0.024941 0.495166
-0.072126 0.397675 -0.302780
-0.123030 0.235344 -0.441513
-0.102628 0.124675 0.480122
0.026285 -0.087339 -0.492316
0.195711 0.034933 -0.498958
0.165124 -0.273992 -0.417828
0.123276 0.036583 0.494644
0.010081 0.052651 -0.497522
0.285141 0.119043 0.481461
0.125285 -0.453570 -0.207010
-0.224074 -0.088127 -0.492180
0.217646 -0.365488 0.335472
-0.262985 0.497504 0.029648
-0.158676 0.300150 0.395756
0.008631 -0.218552 0.444986
-0.196532 0.382837 0.316911
0.252003 -0.349851 0.351667
0.035917 0.400714 0.294136
-0.138601 0.497765 0.026417
0.121347 -0.491368 -0.079879
-0.281500 -0.006043 0.495724
-0.099052 -0.496638 0.026557
0.102122 0.239989 0.434476
0.246824 -0.480758 0.126316
0.187344 0.225533 0.442087
-0.202803 -0.123262 0.480217
-0.074240 0.426332 0.256226
-0.178649 0.318445 -0.385492
-0.239228 0.486744 -0.109792
-0.219071 -0.489632 -0.090974
-0.215508 -0.495601 -0.044842
-0.115277 0.248130 -0.434181
0.084206 0.355956 0.346544
0.019414 0.454856 -0.205927
-0.185899 0.116928 0.481963
-0.025531 0.379327 -0.325678
-0.267536 0.393267 0.304007
-0.259202 0.493705 -0.072292
0.237509 -0.480979 -0.129222
0.239272 0.486429 -0.111118
0.097634 -0.092745 -0.491385
-0.027565 0.470360 -0.167385
-0.153446 -0.496450 -0.034354
-0.171457 -0.490899 0.078286
0.010368 0.151392 0.472388
-0.126640 -0.086089 -0.492531
0.151802 -0.352793 -0.353093
-0.151399 -0.405524 0.286076
0.012050 0.376977 0.323739
-0.088846 -0.385392 0.312545
-0.046278 -0.002545 0.495787
-0.189900 0.417814 -0.274261
-0.126599 -0.031264 -0.499190
-0.183298 0.384044 -0.319876
-0.153144 0.425487 -0.261674
-0.088529 -0.495003 0.047065
-0.083152 -0.451269 0.207284
0.134382 -0.105722 0.484315
-0.087897 -0.464288 0.176482
0.219575 0.094774 0.486859
0.144379 0.094788 -0.491174
0.119126 0.064596 0.491735
-0.042016 -0.149042 -0.477146
-0.155743 -0.226102 -0.445601
0.076995 0.227343 -0.445512
0.272356 -0.475696 0.143315
0.082501 0.298872 -0.400834
-0.092183 0.002637 -0.500157
0.096950 -0.211112 -0.452987
-0.205867 0.203170 0.452657
-0.252502 0.463503 -0.185657
0.134485 -0.161397 -0.473262
0.175580 0.471060 0.160696
-0.054015 0.452697 -0.210739
-0.123349 -0.347438 -0.358594
-0.015932 0.422966 0.261702
-0.263262 0.433697 0.243383
0.015910 0.111026 0.483366
-0.212186 0.496372 -0.048234
-0.230938 0.414155 0.275049
0.191346 0.316585 -0.387088
-0.229010 0.462874 0.182798
-0.168564 0.253871 0.426541
-0.107238 0.453622 0.204819
-0.053767 -0.444613 0.221207
-0.264203 -0.479400 -0.134940
0.009922 0.495720 0.051661
-0.202271 -0.250947 0.427625
0.213686 -0.288729 0.403360
0.115180 0.452634 0.206825
-0.272007 0.353694 -0.353277
-0.193791 -0.222266 -0.447621
-0.099071 0.162683 -0.472966
0.222345 0.464173 0.179684
0.136125 -0.454807 -0.204043
0.086564 0.301173 0.394940
-0.265425 -0.486167 -0.107517
-0.135479 -0.418476 0.267140
-0.207631 0.038333 -0.498682
0.134659 -0.181934 -0.465556
-0.248401 0.154162 0.471543
0.088768 0.290934 0.402342
0.112504 0.396688 0.299472
-0.133553 -0.475735 -0.148219
-0.006386 0.469120 -0.170689
0.090394 -0.304930 -0.395481
-0.087291 0.454003 -0.207829
0.206702 -0.438328 -0.237874
-0.026233 -0.487835 0.096082
-0.120692 -0.237282 -0.439714
0.110271 -0.455986 -0.201216
-0.127572 -0.331846 0.368760
-0.083409 -0.147289 0.473570
0.120314 -0.478327 -0.138827
0.260829 -0.470669 0.159477
0.044054 0.042174 -0.498371
-0.279101 -0.466681 0.170103
0.006830 0.341464 -0.365183
-0.013051 0.414070 -0.279674
0.109903 -0.015673 -0.499890
0.112413 -0.156585 -0.474844
0.019510 -0.346976 0.354466
0.039833 0.362276 -0.344503
-0.285420 0.307565 0.389843
0.188971 0.158031 0.470362
-0.168956 -0.423308 -0.263986
0.249980 -0.052662 -0.497268
-0.232638 0.299623 -0.400268
-0.122145 -0.266484 -0.422580
0.206973 0.459848 -0.194803
0.163822 -0.389659 0.307194
-0.230968 -0.022063 -0.499603
-0.109159 -0.459125 0.189777
-0.070590 -0.353940 -0.351915
-0.243048 0.464263 0.179468
0.140744 0.241032 0.433926
0.139727 0.324367 0.376317
0.048575 -0.347068 0.354377
0.272328 0.357925 0.344521
0.280467 -0.470158 0.160839
-0.228789 0.373826 0.327411
0.096234 0.386050 0.313167
0.188112 -0.330821 -0.373897
-0.156565 -0.415541 0.271752
0.277671 0.427262 0.254605
-0.120726 0.349225 -0.357628
-0.134755 0.178957 -0.467261
0.245938 -0.470721 -0.163061
-0.197912 0.255772 0.425382
0.125286 -0.331823 0.368780
0.262302 0.349702 0.352967
0.178040 -0.494364 0.052985
0.027842 0.498178 0.017423
-0.202152 -0.460634 0.186218
0.177371 0.312294 0.386072
-0.059751 -0.429244 0.249477
0.224669 -0.355115 -0.350708
-0.171448 -0.485672 0.105636
-0.162200 0.116462 -0.486633
-0.181404 0.016549 -0.499907
-0.145928 0.471578 0.159194
-0.137947 0.356638 0.345843
-0.051900 0.151050 -0.476979
-0.205436 0.334081 -0.372075
-0.022246 0.054803 -0.497348
0.285285 -0.232845 0.437943
-0.271144 0.151939 -0.476673
-0.132548 -0.293859 0.399489
0.223566 0.103345 -0.489381
-0.231900 0.426920 -0.259323
0.062023 0.498619 -0.007050
0.033324 -0.350859 0.350686
0.259105 -0.236093 0.436143
0.284341 -0.072527 0.490379
-0.017828 0.243406 -0.436890
0.219083 0.377154 -0.328077
0.204643 -0.496472 0.030253
0.096320 0.405196 0.288195
-0.256086 -0.091087 -0.491671
-0.289374 -0.152603 -0.476059
0.072479 0.461921 -0.189874
0.096834 -0.466740 0.169946
0.207641 0.212982 -0.452589
-0.128328 0.194356 0.456612
-0.286729 -0.190250 0.457772
0.247376 -0.026266 0.495223
0.256148 -0.433165 0.242949
0.003501 -0.366371 -0.339147
0.254646 -0.333366 0.367456
0.181245 -0.324029 -0.380049
-0.006534 -0.229524 -0.443799
-0.287797 0.489155 0.093790
0.039992 -0.330085 -0.374564
0.263093 0.425197 0.258206
0.230896 0.444480 -0.227760
-0.109346 -0.063815 0.491639
0.110529 -0.196405 0.455206
-0.008384 0.114556 0.482527
0.002992 -0.311652 0.386066
0.037187 0.276154 0.412679
-0.189381 -0.455049 -0.203463
0.110185 -0.490693 -0.084547
0.154225 -0.297863 0.396468
0.172446 0.497069 0.035018
0.144631 -0.277144 0.411182
-0.148281 0.243377 0.432692
0.104275 -0.323724 0.375729
0.051830 -0.480532 0.127266
0.132531 0.495959 -0.052062
0.014952 -0.472876 0.152559
0.256856 -0.255311 0.425122
-0.277904 -0.445636 -0.223300
0.009604 0.358640 -0.348462
-0.100482 0.195574 -0.460333
-0.181546 -0.155510 0.470734
0.073677 -0.096690 0.486208
-0.206282 0.092517 0.487247
0.005302 -0.458884 -0.194264
0.150276 -0.411380 0.277702
0.148562 0.477520 0.141111
0.194646 0.108366 0.483998
-0.129702 -0.497580 0.001892
0.223574 0.359890 -0.347137
-0.140454 -0.183450 0.460607
-0.164845 0.016536 -0.499907
0.072112 -0.187792 0.458797
-0.150050 -0.492754 0.067510
-0.085954 0.449506 0.213171
-0.165984 -0.251290 -0.431843
-0.205260 0.038238 0.494570
-0.180623 -0.397030 0.297951
0.269767 -0.316151 0.382228
-0.179601 -0.303096 0.392520
-0.172673 -0.295021 -0.403120
-0.239720 0.236344 0.436395
-0.256280 0.492752 0.073048
-0.256077 -0.314394 0.383735
0.179789 -0.418822 0.266573
0.073221 -0.120450 0.480994
0.166491 0.095732 -0.490976
-0.259903 -0.375741 0.324152
-0.130643 -0.487480 0.098027
-0.244979 -0.341728 -0.364018
0.054161 0.466177 -0.178533
-0.060851 0.135653 0.477190
-0.093525 -0.484678 0.109818
0.202509 -0.457293 0.193859
0.273233 -0.335797 0.365349
0.161012 0.401166 -0.298126
0.120084 -0.437343 -0.239592
0.056466 -0.392266 -0.308329
0.181574 0.394939 0.301791
-0.278782 0.495543 0.053751
-0.011237 0.490468 0.087523
0.067337 -0.110547 0.483305
-0.113458 0.450871 -0.214807
0.261004 -0.099623 -0.490186
0.148154 0.494502 -0.065544
0.256485 0.462986 0.182529
0.108936 0.465419 -0.180551
0.171616 0.480921 -0.133902
0.075905 0.440763 -0.234819
0.084634 0.387888 -0.315055
-0.115075 0.071048 -0.495094
-0.018007 0.256289 0.425066
-0.289033 0.163644 -0.472635
0.014103 0.005703 -0.500102
-0.114329 0.029210 0.494975
0.049581 0.007676 0.495941
0.257211 -0.157582 0.470019
0.130985 -0.296675 0.397365
-0.099888 -0.083489 0.488793
-0.235709 0.293873 0.400287
-0.018740 -0.151629 -0.476356
-0.212286 -0.408882 -0.285837
-0.274097 -0.416370 0.270568
-0.268414 -0.422163 0.261092
0.149659 -0.382592 0.316057
-0.062486 -0.259359 -0.426924
-0.114400 0.137136 -0.481024
0.226841 -0.075892 0.489892
-0.034851 -0.495247 -0.049201
0.051473 0.459295 0.191382
0.249351 0.430190 -0.253959
0.044235 -0.197695 0.454668
0.131766 -0.483199 0.116042
-0.200074 0.487588 -0.106238
-0.124797 0.101808 0.485556
-0.206620 0.464169 -0.183884
0.066439 0.222513 -0.447892
-0.086226 -0.258976 -0.427157
-0.178164 0.234916 0.437146
-0.004764 0.437564 -0.240894
0.264390 0.467642 -0.174628
-0.021350 0.028595 0.495002
0.090937 0.270326 0.416509
-0.192879 0.397837 -0.302577
0.009951 -0.465654 -0.177752
-0.139944 -0.486204 0.103398
0.162793 -0.468210 -0.170340
-0.235867 -0.495011 -0.052121
0.111422 0.073606 0.490503
0.237171 0.130194 -0.482940
-0.187195 -0.052340 -0.497302
0.123219 0.173924 -0.469089
0.223570 0.151271 0.472425
-0.042675 -0.392147 0.304075
-0.098789 0.428309 -0.257045
-0.263545 -0.490433 0.080993
-0.099088 0.488842 0.095284
0.210192 -0.345734 -0.360344
0.029369 0.494205 0.063005
-0.153614 -0.443482 0.223355
-0.221797 0.494607 -0.064566
-0.183422 -0.482528 0.118865
-0.268606 -0.303022 0.392577
0.167361 -0.293777 0.399551
-0.286905 -0.224721 -0.446328
-0.256519 -0.134631 -0.481543
0.153796 0.421058 -0.268940
-0.109892 -0.062274 -0.496229
-0.113105 -0.478039 -0.139874
0.232939 0.156535 -0.475087
0.139765 -0.436593 0.236438
0.161347 0.482792 0.122013
-0.002139 0.449358 -0.218180
-0.020614 -0.251884 0.427087
-0.167130 0.153084 0.471872
0.176158 0.382953 0.316776
-0.215606 0.489914 -0.094314
0.124529 -0.477761 0.136549
-0.090529 -0.255738 0.424877
-0.287973 0.416523 -0.276166
-0.075192 -0.389178 -0.312422
0.060400 0.491820 -0.083241
0.069680 -0.244701 -0.435808
0.263253 -0.138409 -0.480390
0.003715 -0.474775 0.146334
-0.050450 -0.489044 -0.093784
0.229754 0.428598 0.252275
-0.174603 0.397105 -0.303495
-0.084085 -0.186868 0.459182
-0.014230 -0.307004 -0.393827
-0.197349 0.210838 -0.453646
0.040559 0.343953 -0.362760
0.213468 -0.164567 -0.472072
-0.199005 0.490014 0.089692
-0.125540 0.453663 0.204735
0.146780 -0.042195 -0.498399
0.037604 -0.497038 -0.027104
0.152051 -0.497013 -0.027407
0.267565 -0.110588 -0.487580
-0.065299 0.478395 0.137940
0.268493 -0.281928 -0.412277
0.110181 0.323941 -0.380776
-0.089042 -0.222998 0.442795
-0.156003 -0.251898 0.427079
-0.106738 0.477672 0.140562
0.122317 0.261422 -0.426559
-0.187350 0.466456 -0.177789
-0.253420 -0.477079 0.138784
-0.124312 0.007281 0.495958
0.204317 0.489165 0.093743
-0.236624 -0.054459 -0.497073
0.037390 -0.497355 0.010565
0.050102 -0.436676 -0.240755
-0.258043 0.401360 -0.297847
-0.039274 -0.497119 -0.023694
0.212546 -0.497317 -0.012714
0.088292 -0.463710 0.178022
-0.080588 0.012619 -0.499978
-0.156840 -0.388195 0.309030
-0.222850 0.196217 0.455778
0.277952 -0.427204 -0.257273
-0.181641 0.482443 0.123276
0.280685 0.053680 -0.497439
-0.066981 -0.343003 -0.362864
-0.120934 -0.154572 0.471058
0.067369 -0.377045 -0.326819
-0.116351 -0.482372 -0.124175
0.060358 0.483439 0.119668
0.156889 0.075512 0.490175
-0.195101 0.491168 -0.087029
0.161709 -0.191295 0.457336
0.013973 0.477915 -0.143756
0.112639 0.493655 0.066804
-0.088114 -0.425110 0.256258
-0.268291 0.013579 0.495676
-0.219291 -0.364991 -0.340564
0.267082 0.108826 0.483889
-0.085945 0.411206 0.279516
-0.288290 0.086884 0.488217
0.283653 0.437471 -0.241072
0.265529 0.380079 0.320125
-0.183555 0.453316 -0.209358
0.146494 0.389353 -0.313217
-0.052960 -0.490709 0.079389
-0.068044 0.471536 0.159318
0.037397 -0.047838 0.493476
-0.022916 -0.454388 0.200332
-0.225156 0.106963 -0.488623
-0.255723 0.332238 -0.373657
-0.129802 0.435160 -0.245460
0.249909 -0.385437 0.312490
0.050208 -0.248112 0.429250
-0.126699 0.206904 0.450982
-0.289353 0.129858 -0.483033
-0.286543 -0.469214 -0.167431
-0.136848 0.492946 -0.076700
-0.053783 -0.093195 -0.491308
0.084633 0.458568 -0.197654
0.030223 0.455904 -0.203593
-0.035097 0.080910 -0.493667
0.232594 0.316347 -0.387292
-0.091405 0.407793 -0.288650
-0.256248 -0.477553 -0.141631
-0.166056 -0.218402 0.445060
-0.206188 -0.215227 -0.451140
-0.040437 0.360552 -0.346406
-0.157566 -0.352005 0.349570
0.005909 -0.475221 -0.150017
-0.254748 -0.481459 -0.127483
0.096252 -0.367154 -0.338342
0.154072 0.047636 0.493568
-0.216888 -0.450180 -0.214077
-0.262843 -0.182322 0.461077
-0.247573 0.361891 0.340447
-0.179018 0.252249 -0.431819
0.170926 0.212115 0.448644
-0.260805 -0.453614 0.202059
0.169052 -0.406736 0.284342
-0.220620 0.497761 0.026472
-0.067704 0.205133 0.451777
-0.114370 0.492668 -0.078315
-0.053778 -0.453460 0.202400
0.094634 0.036920 -0.498797
-0.278410 0.481438 -0.132117
0.121249 -0.020936 -0.499653
-0.131289 -0.239921 -0.438325
-0.287273 0.295910 -0.403069
0.115359 -0.230918 0.438893
-0.208661 -0.032129 0.494748
0.007992 -0.483170 0.116164
0.150357 -0.302023 -0.397799
0.222817 0.269088 -0.421530
0.033440 0.121385 0.480904
0.177618 0.337982 0.363986
-0.213198 0.485621 -0.114518
0.199177 0.175589 0.463968
0.019599 0.392894 0.304502
0.082497 0.394848 -0.306326
0.271436 0.493665 0.066731
-0.225421 -0.463767 0.177869
-0.075803 -0.347109 -0.358932
0.261009 -0.200586 0.453463
-0.093987 0.442840 -0.230875
-0.010674 -0.200862 -0.457587
-0.143953 0.208084 -0.455003
-0.043785 0.105888 -0.488849
0.175389 -0.492602 -0.071349
0.077325 -0.291216 -0.405782
-0.186679 0.494932 -0.061564
-0.048201 -0.426844 -0.257900
0.141294 -0.416612 -0.274128
-0.210574 0.494385 -0.066622
0.105262 0.022232 -0.499804
0.259136 -0.475967 0.142428
0.213294 0.014886 0.495617
-0.044779 0.268394 0.417687
0.068001 0.024185 -0.499769
0.089476 -0.205058 0.451598
0.046757 0.310064 -0.392391
-0.095399 0.018082 -0.499879
0.175056 0.498615 -0.009674
0.041473 0.394580 0.302267
-0.244160 0.087493 -0.492702
-0.170157 -0.238166 -0.439249
0.224061 -0.169244 -0.470317
0.172787 -0.153916 0.471284
-0.072063 0.143536 0.474785
-0.063700 0.067205 0.491453
-0.179320 -0.462081 0.182364
-0.228742 -0.490253 0.082034
-0.087650 0.362398 -0.344369
0.043985 -0.283253 0.407149
-0.181490 -0.447501 -0.219515
0.144321 0.041835 0.494195
0.046054 -0.424282 -0.262367
-0.278062 0.122007 0.480756
0.256540 0.224464 0.442650
-0.279363 -0.248949 -0.433270
0.122869 -0.355387 0.346278
-0.055238 0.067033 -0.495675
0.261424 0.167905 0.466851
-0.089542 0.447634 -0.221770
-0.244642 0.396566 -0.304171
0.215303 0.427649 -0.258128
0.171698 -0.345784 0.355626
0.239088 0.498550 -0.003207
-0.234886 0.470789 -0.166242
-0.224448 0.471220 -0.165091
0.247454 -0.233037 0.437848
0.262781 0.298577 0.396997
0.004867 0.018006 0.495477
0.190450 -0.434949 0.239560
0.019703 0.474670 -0.154390
0.177888 -0.495805 0.039648
-0.211452 0.127050 0.479558
0.204451 0.012144 -0.499986
-0.131849 -0.198969 -0.458436
0.262241 0.101778 -0.489710
0.149347 -0.456957 0.194609
-0.187908 0.076818 -0.494259
0.177351 0.494405 0.061617
0.051200 -0.429647 -0.253011
0.142600 -0.329460 -0.375130
-0.072384 -0.445688 -0.223194
-0.277676 0.438388 -0.239330
0.013793 -0.493484 0.061122
0.138443 -0.493274 -0.066703
0.259706 0.489558 -0.096378
-0.122531 -0.440526 -0.233669
-0.195955 0.287221 0.404939
-0.029594 0.209754 0.449703
-0.050195 0.224137 -0.447092
-0.174504 0.002961 -0.500152
0.023086 0.328423 0.372644
-0.147350 -0.177874 -0.467079
-0.209201 -0.376603 0.323200
0.141447 -0.497195 -0.019470
0.013250 -0.497438 0.008719
0.159059 -0.451386 -0.211630
0.029614 -0.480408 0.127785
0.282190 0.262040 -0.426183
0.203336 0.435275 0.240632
0.059812 -0.171272 0.465297
0.176449 0.130660 0.478700
0.227334 0.412576 -0.281811
-0.111964 0.301093 -0.399158
-0.198224 0.027208 -0.499584
0.245019 -0.257186 0.424047
0.069967 0.498121 -0.020690
-0.156189 0.117184 0.481902
-0.217976 0.308507 0.389092
0.085612 -0.096593 -0.490723
-0.175431 -0.395908 -0.303501
0.137105 0.494120 -0.069080
-0.042771 0.439879 -0.236498
-0.024895 0.251996 -0.431964
0.078432 0.077464 0.489839
0.198465 0.451549 -0.213297
-0.097070 -0.165407 -0.471757
0.175919 -0.476120 0.141925
-0.149755 -0.329937 0.370398
0.216501 -0.473062 -0.156276
0.283756 0.473787 0.152792
0.237846 0.391446 0.306421
-0.062723 -0.470274 -0.164357
-0.052723 0.390272 0.307977
-0.043768 -0.454815 -0.204024
0.201979 -0.425916 0.254936
0.103884 -0.425083 -0.260971
-0.009242 -0.305117 0.390996
0.220942 0.276114 0.412707
0.210531 0.082036 0.489052
-0.245347 0.409489 0.282117
-0.138784 -0.496926 0.020136
0.074846 0.493167 -0.075415
0.003712 -0.471098 0.158333
0.166489 0.149802 0.472873
0.190880 -0.115695 -0.486366
-0.121192 0.414635 0.274322
0.062795 -0.497202 0.013965
0.218636 0.138610 0.476288
0.255044 -0.285338 -0.409893
0.173058 0.157419 -0.474782
0.216666 -0.495886 0.038903
-0.006753 0.427854 0.253572
-0.252308 -0.017068 0.495526
-0.232865 0.359557 0.342845
-0.239566 -0.433911 0.241532
0.187472 -0.043280 0.493845
-0.058894 0.301187 0.394929
0.106647 0.490669 -0.089926
0.166278 -0.431915 -0.249057
-0.102520 0.108169 -0.488371
0.089904 -0.486112 -0.107779
0.137229 -0.136960 -0.480832
-0.196227 0.319983 0.379942
-0.263927 -0.020742 -0.499662
-0.096566 0.484568 -0.118947
0.219935 -0.311514 0.386170
-0.088944 0.492815 0.072611
0.039467 0.487792 -0.105381
0.221605 0.347947 -0.358872
0.212072 0.396969 0.299099
-0.273840 0.331126 0.370196
0.027018 0.498404 0.004879
-0.253559 0.254376 0.426233
-0.270168 0.002482 -0.500160
0.172087 -0.465761 -0.177439
-0.003973 -0.496254 0.035117
0.200043 0.479368 -0.138993
-0.194236 0.481746 0.125804
0.001503 0.142508 -0.479541
0.229878 0.436953 -0.242055
-0.252223 -0.314367 -0.387956
0.250150 0.348216 0.354494
0.267997 -0.162006 0.468493
-0.232970 -0.238517 -0.439064
-0.040305 0.392056 -0.309827
0.136482 0.258962 -0.427970
0.285269 0.460154 0.189322
-0.274888 0.497511 0.029554
-0.272297 0.272855 -0.419043
-0.058607 -0.174176 0.464295
0.111701 0.417229 -0.275158
-0.046838 0.294559 -0.404088
-0.138977 0.211688 0.448835
-0.026493 -0.364579 0.336476
0.190679 -0.066434 -0.495779
-0.261966 -0.328560 -0.375945
0.019058 -0.467519 -0.172344
0.094451 -0.320538 0.378464
0.113637 -0.031900 -0.499162
-0.187652 0.111607 -0.487651
0.111266 0.284520 0.406828
-0.053740 0.185386 0.460291
0.026471 0.278099 -0.415581
0.220666 0.149688 -0.477449
-0.023756 0.473597 0.153342
0.258701 -0.495240 0.044880
0.169881 0.138024 -0.480779
0.081443 0.498295 0.010959
-0.153966 0.498046 -0.022352
0.155932 0.325156 0.375603
-0.251850 0.448765 -0.219501
0.259070 0.474989 0.149306
0.280509 -0.447070 0.216540
0.120385 0.437674 0.236448
0.010869 0.389433 0.309089
0.140564 0.495076 0.056980
0.088230 -0.122084 -0.484848
0.070000 -0.440821 0.228409
-0.196232 0.087067 -0.492777
0.233605 0.431963 -0.251051
-0.071294 0.246933 -0.434867
0.107921 -0.458656 0.190823
-0.098063 0.209560 0.449790
-0.027636 0.160414 -0.473749
0.073238 0.395524 0.301016
0.036161 0.326825 0.374091
0.191517 0.152656 -0.476425
-0.163429 0.249604 -0.433336
-0.157919 -0.497027 0.017867
-0.201166 -0.282065 -0.412182
0.279788 0.371091 0.330599
0.155930 -0.497472 -0.004105
0.060868 0.420820 0.264954
-0.003331 -0.382787 -0.320128
-0.019338 -0.466891 0.169545
0.206817 0.419874 -0.270882
0.021293 -0.489155 0.088415
-0.187271 0.426448 0.256024
-0.198927 0.493606 0.067139
-0.150024 -0.008202 -0.500225
-0.081719 0.458531 0.193214
-0.129793 0.302649 0.393763
0.043438 -0.061545 0.491967
0.129228 0.476425 -0.148639
-0.019270 -0.374084 -0.330270
0.178728 -0.302856 -0.397135
-0.124977 -0.228548 -0.444313
0.134633 0.473245 -0.159062
-0.269795 0.498625 -0.007363
0.213241 -0.244978 0.431048
0.028354 0.012869 -0.499973
-0.108498 0.403527 0.290407
0.081774 -0.006026 -0.500313
-0.040282 0.210956 0.449163
0.049689 0.457983 -0.198958
0.053928 0.239974 -0.438858
0.170135 0.105621 -0.488904
-0.092548 -0.281116 0.408559
-0.276365 0.491676 0.080482
-0.262896 0.476571 -0.148158
-0.019449 0.370646 0.331118
0.222717 -0.145159 0.474173
0.172038 0.126540 -0.483949
-0.182724 -0.290829 -0.406053
-0.005990 0.078265 0.489701
0.191924 0.426969 0.255116
-0.032699 0.324447 0.376245
0.155809 -0.073693 0.490210
-0.097824 -0.429166 -0.253851
-0.070387 -0.431188 0.246289
-0.287306 -0.102208 0.485051
0.086303 0.023634 -0.499779
0.001127 -0.481299 -0.128061
0.081737 -0.461577 -0.187804
-0.140209 -0.493331 -0.066314
0.054131 -0.431427 0.245896
0.286286 0.145032 -0.478844
-0.208510 0.349040 0.353647
0.124392 0.215500 0.447124
0.046137 0.443287 0.225792
-0.123073 0.089021 0.487849
-0.168914 -0.414319 0.273499
0.276118 0.010363 0.495820
-0.016454 -0.332227 0.368433
0.185319 -0.358779 -0.346944
0.100897 0.422473 -0.266619
0.181080 -0.126451 0.479337
-0.260634 0.311045 -0.391651
0.103472 -0.477783 -0.140800
0.122631 0.076443 0.490015
0.213628 0.429020 0.251539
-0.047676 -0.300317 0.394617
-0.023202 0.494831 -0.062494
-0.007975 -0.479044 -0.136230
0.273908 0.463566 -0.185491
0.052229 -0.144462 0.474365
0.144311 -0.155877 0.470607
0.124757 -0.070831 -0.495158
-0.118036 0.303454 0.393121
0.134981 0.433350 -0.248776
-0.019646 -0.396954 0.298045
-0.081647 0.492698 -0.078139
-0.170584 0.466308 0.174473
0.065325 0.312780 0.385685
-0.197873 -0.226035 0.441299
-0.051934 0.399081 0.296301
-0.186521 0.441942 -0.232580
0.072859 -0.365177 -0.340373
-0.277777 -0.340816 -0.364845
0.232340 -0.497001 0.018455
-0.105038 0.497589 -0.032553
0.013454 0.237592 0.435737
0.261089 0.498384 0.005985
-0.186564 0.168235 0.466727
-0.272867 0.458068 -0.198770
-0.149556 0.354307 0.348237
-0.289089 0.002170 0.495872
-0.231351 -0.463800 -0.182473
-0.246909 -0.479455 -0.134742
0.125696 0.409476 0.282137
-0.201454 -0.362563 -0.343058
0.026641 -0.151856 -0.476287
-0.263745 -0.449051 0.212227
-0.030498 0.353383 -0.353580
-0.270627 0.419130 -0.272102
0.192170 -0.410815 0.278510
0.136724 0.365360 -0.341099
0.172854 0.495970 -0.051958
-0.195294 -0.073353 0.490259
-0.006113 0.482954 0.121426
0.112241 -0.452873 0.203708
-0.007817 -0.212534 0.447951
-0.241731 -0.388040 -0.313930
0.157177 -0.094444 -0.491093
-0.058578 -0.305427 0.390762
-0.263151 -0.033831 0.494610
-0.243724 0.498143 0.019372
0.193033 -0.490603 -0.085169
-0.217808 0.461202 0.186809
0.190791 0.327310 -0.377885
-0.142916 -0.135756 0.476769
0.245552 -0.289711 0.402618
0.048079 -0.157482 0.470054
-0.242537 0.306565 -0.395030
-0.087555 0.442521 0.227348
-0.027880 0.431076 0.247953
0.220464 -0.435411 -0.242961
-0.066840 0.432011 0.246323
0.041336 -0.479084 0.132211
0.063940 0.355771 -0.351255
0.001140 0.453733 0.204594
-0.156077 0.491657 0.080614
0.230533 0.372093 -0.333664
0.036931 -0.406292 -0.289738
0.204880 0.165945 -0.471841
-0.121297 -0.457825 0.192674
0.105368 0.298348 -0.401229
-0.285533 0.145994 0.474035
0.234516 -0.004482 -0.500286
-0.177570 -0.477551 -0.141639
0.245748 0.375451 0.325518
0.060699 0.402235 0.292119
0.024978 -0.341462 -0.364259
0.200393 -0.302144 -0.397702
0.260660 -0.087883 0.488053
-0.098719 -0.465505 0.173239
0.028750 -0.182138 0.461154
0.029951 -0.496305 -0.036146
-0.022539 0.498488 0.000216
-0.080740 -0.296310 0.397640
0.027406 -0.495233 -0.049383
-0.253997 0.463296 0.181787
-0.029637 0.202154 -0.457590
0.143154 0.426122 0.256593
0.055078 -0.405376 -0.290951
0.105134 0.039472 0.494450
-0.094989 0.491286 0.083179
-0.015739 -0.424137 -0.262621
-0.235974 0.370629 -0.335281
0.231515 -0.450878 -0.212662
-0.175816 -0.493950 -0.062032
-0.114549 0.116011 -0.486728
0.104494 -0.473213 -0.155837
-0.208938 0.089826 -0.492214
-0.072653 0.070253 -0.495209
-0.218172 0.498605 -0.006250
-0.210860 0.481465 -0.132005
-0.277310 0.413399 -0.280634
0.241374 -0.211487 0.448467
-0.064810 0.438469 0.235062
0.035477 0.473279 -0.158947
0.201042 0.228420 0.440567
0.192453 -0.254264 -0.430030
0.223447 -0.493739 0.058767
0.286341 -0.463129 -0.184082
0.027391 0.349508 0.353167
0.251009 -0.463217 -0.183872
-0.190428 0.460463 0.188581
0.104623 -0.143898 -0.478715
0.106569 0.035717 -0.498894
-0.213857 -0.483517 -0.120027
-0.002046 0.359101 -0.348009
0.189295 -0.394490 -0.305380
-0.180149 -0.475690 0.143335
-0.243190 0.014862 0.495618
-0.196815 -0.010976 0.495635
0.212434 -0.022592 -0.499579
-0.140950 -0.414457 -0.277392
-0.272759 0.490380 -0.091605
0.178887 -0.163505 0.467976
0.091437 -0.429373 0.249265
-0.045901 0.421192 0.264390
0.237505 0.260477 0.422513
-0.105820 0.498618 -0.006975
0.008480 0.122022 0.480753
0.111676 0.497972 0.023869
0.105648 -0.115370 0.482294
0.116511 0.401547 -0.297580
-0.044574 0.473157 0.154617
0.274245 -0.465824 0.172389
0.146923 0.002608 0.495880
-0.253426 -0.252541 -0.431080
0.039152 0.495666 -0.054772
0.161075 -0.215869 -0.450852
0.125652 -0.466169 0.171468
-0.277758 0.479880 0.132561
-0.163223 -0.471440 -0.160978
0.169065 -0.497056 0.017223
-0.251043 -0.489713 0.085175
0.008656 0.389829 -0.312620
-0.029247 0.487170 0.103266
-0.208603 0.179577 -0.467002
-0.004162 -0.389853 -0.311527
-0.219813 -0.440899 0.228261
-0.262821 0.456924 0.197069
-0.091525 -0.175748 -0.467877
-0.021723 0.367453 -0.338788
0.024766 0.041229 0.494260
-0.285680 0.464121 -0.184012
-0.117815 -0.496277 0.034589
0.239689 0.338611 -0.367961
0.096670 0.060170 0.492214
-0.111888 0.144128 0.474604
0.219509 -0.497093 -0.025106
0.269714 -0.233980 0.437354
0.048342 -0.051977 0.493140
0.047149 0.332117 -0.373761
0.112671 0.498536 -0.002455
0.119342 0.402746 0.291443
0.203485 0.497612 -0.032024
-0.192867 0.355940 0.346560
-0.179407 -0.494185 0.054641
0.094388 0.212560 -0.452797
0.230769 -0.307425 0.389255
0.101532 0.435622 0.240026
-0.218076 -0.495763 0.040039
-0.267886 0.288237 -0.408857
-0.270196 -0.492575 0.068546
-0.019539 0.014133 -0.499950
0.179228 -0.076457 0.489810
0.030561 0.024444 0.495189
-0.027631 0.483841 0.118213
-0.069263 -0.494045 0.055931
-0.082757 -0.465954 -0.176880
0.021532 -0.306824 -0.393970
0.124088 -0.416508 0.270369
0.279183 0.492624 0.073927
0.062800 0.167953 -0.471149
-0.178648 -0.199525 0.453905
-0.203835 0.190215 -0.462567
0.200148 0.310967 -0.391709
-0.246148 -0.161173 0.468781
-0.151802 0.294612 -0.404048
-0.218415 0.449554 -0.217743
-0.267932 0.190607 0.458295
0.167092 0.083954 -0.493227
0.154669 0.064668 0.491727
-0.093974 0.282369 -0.412762
-0.178154 0.266210 -0.423430
-0.146927 -0.465600 -0.177906
0.192847 0.001476 -0.500178
-0.040348 -0.417311 0.269051
-0.056490 -0.486700 0.101309
0.230970 -0.487454 0.098136
-0.213785 0.456629 -0.201977
-0.285311 0.467810 -0.174179
-0.254159 0.252398 -0.431734
-0.007344 0.403354 -0.294997
0.095798 0.256141 0.425157
-0.277837 0.451292 -0.213869
-0.052016 -0.104207 -0.489096
0.051639 0.472951 -0.160023
-0.087495 0.222792 -0.447755
-0.076835 0.455978 -0.203427
0.270370 0.479004 -0.140185
0.099543 -0.197895 0.454585
0.243063 0.489446 0.092403
-0.290280 -0.484195 -0.116931
-0.166252 0.422512 -0.266554
-0.022184 0.481731 -0.130887
-0.245128 -0.310838 0.386680
0.161066 0.058181 -0.496956
-0.281464 -0.399653 0.294469
0.066949 0.279650 0.410234
-0.274777 -0.193817 0.456285
0.259737 0.321707 0.378567
0.003621 0.403286 -0.295093
-0.003019 0.386318 -0.317024
-0.260892 0.319944 -0.384206
-0.089059 0.283185 0.407762
0.070051 0.453191 -0.209638
0.207720 0.345455 -0.361298
-0.228623 0.498577 -0.004730
0.182090 -0.090810 -0.491718
-0.209862 -0.472237 0.154650
-0.188841 0.235713 0.436727
0.149424 -0.464787 0.175153
-0.221156 -0.146141 -0.478031
-0.219440 0.264357 0.420148
0.157462 -0.488893 0.089936
0.068615 -0.147065 -0.477749
0.196670 0.456072 0.199114
-0.013921 0.450004 0.212162
0.259354 -0.423163 0.259451
0.032841 -0.492871 -0.069495
0.192106 -0.428053 -0.255792
0.200852 -0.131666 0.477898
0.131440 -0.486864 -0.104191
-0.052176 0.236686 0.436214
0.176211 0.430609 -0.253272
0.148449 -0.472078 -0.159127
0.100365 0.246066 -0.435365
-0.288227 0.214257 -0.451961
-0.140031 -0.394687 -0.305120
-0.237409 0.041475 -0.498428
0.217441 0.053878 -0.497423
0.141951 -0.283777 -0.410984
0.091506 -0.160591 0.468981
-0.128458 -0.288004 -0.408028
0.086623 0.193774 0.456874
-0.267612 -0.126296 -0.483847
0.055046 0.479745 -0.137759
0.273913 0.252241 0.427534
0.008730 -0.385791 -0.316627
0.157926 0.015787 -0.499920
-0.046650 0.330270 -0.375345
-0.272024 0.316058 0.383071
-0.174939 0.063966 -0.496119
0.153981 -0.439584 0.230758
-0.131216 -0.398618 0.295949
-0.074992 0.339693 -0.366907
0.264140 0.493904 -0.071079
0.166411 0.425654 0.257409
-0.133719 -0.016560 0.495535
0.224024 -0.462359 -0.185930
0.263506 0.391782 0.305975
0.112928 0.384356 0.315140
0.069214 0.451381 0.209366
0.241879 0.342082 0.360272
-0.148852 -0.321934 0.377266
0.229904 -0.222648 0.442968
-0.050913 -0.407827 0.282782
0.028834 0.121855 -0.485242
0.086812 -0.085726 -0.492593
0.156817 -0.274968 0.412618
-0.050451 0.210483 -0.453821
0.169260 0.455664 -0.204127
-0.162001 0.366029 -0.340359
0.083096 -0.409385 0.280555
0.048157 0.238049 0.435497
0.027717 -0.031967 -0.499159
0.226634 -0.224747 -0.446314
0.241895 -0.282009 -0.412220
-0.213264 0.492472 -0.079453
-0.071944 0.439097 -0.237984
-0.250843 0.239413 0.434779
-0.176932 0.470054 -0.168201
0.065453 -0.081368 0.489100
-0.287695 0.415188 0.273485
-0.087707 0.494826 -0.062539
-0.266228 -0.077508 -0.494008
0.212935 -0.428243 0.251119
0.284996 0.039091 0.494491
0.091793 0.427240 0.254644
0.104247 0.402641 -0.296016
0.095371 -0.186482 -0.463849
0.178591 0.374527 0.326595
0.286346 0.430496 0.248964
0.136075 -0.454987 0.198999
0.069970 0.226579 0.441536
-0.181187 -0.023763 -0.499527
0.226634 0.231055 0.439179
0.193016 0.394073 -0.307297
0.152555 -0.034980 0.494517
-0.151020 0.250238 -0.432972
0.076334 -0.316540 0.381894
0.127323 -0.227495 0.440579
0.102937 -0.119397 -0.485486
-0.035963 -0.496237 -0.036987
-0.101973 0.226132 -0.446109
0.031736 -0.225100 0.441760
0.205579 -0.142361 0.474945
-0.144056 -0.414709 0.272942
-0.284641 -0.478741 0.133334
-0.114003 -0.409378 -0.285086
0.220848 0.367499 -0.338737
-0.188527 -0.220268 0.444140
-0.076825 -0.395675 0.299650
-0.061155 -0.488052 -0.098518
-0.051695 -0.092878 0.487006
0.042484 -0.073096 -0.494768
0.173305 -0.353692 -0.352170
0.180806 0.027830 -0.499533
0.244435 -0.310037 0.387284
0.219707 -0.047889 -0.497783
0.083253 0.453607 0.204849
0.283850 -0.496254 -0.036772
0.090907 -0.254596 0.425533
-0.022406 0.284097 0.407124
0.079090 -0.249778 0.428295
0.250036 0.009990 0.495837
-0.193845 -0.309168 -0.392101
-0.039488 0.421265 -0.268599
0.242412 -0.319477 0.379374
0.259534 -0.283108 0.407245
0.270241 0.218106 -0.450064
-0.255370 0.439055 0.234040
0.167906 0.070469 0.491043
0.241179 -0.372731 -0.331847
0.171323 0.182796 0.461263
-0.175385 0.263242 0.420828
0.153755 -0.218131 0.445194
0.096365 -0.148808 0.473046
0.043223 -0.484652 -0.114749
-0.277696 -0.056484 0.492699
