-0.226512 0.491177 0.083933
0.173693 -0.497376 -0.009428
0.101125 0.274372 -0.418042
0.069088 -0.041991 -0.498421
0.098250 -0.159924 0.469212
-0.199089 0.273494 0.414539
-0.069826 -0.032987 0.494679
-0.289395 -0.200418 -0.457786
0.050089 0.498434 0.003202
0.252172 0.391954 -0.309954
0.286421 0.342336 -0.364335
-0.003979 -0.494948 0.047580
0.239535 0.036262 -0.498850
0.020961 -0.330182 0.370188
-0.200888 -0.280550 -0.413241
0.170285 0.410164 0.281095
0.193860 -0.497602 0.003130
0.037070 -0.363510 -0.342085
-0.004277 0.497210 -0.040479
-0.022122 -0.489380 -0.092181
-0.261419 0.147358 0.473619
0.111701 -0.288658 0.403413
0.136404 -0.345672 0.355736
-0.202841 0.408643 -0.287434
-0.229555 -0.294805 -0.403272
0.055911 -0.065154 -0.495917
-0.003774 0.391908 0.305808
0.089065 -0.327246 -0.377136
-0.288452 -0.132635 0.477630
0.050573 0.292032 -0.405994
-0.008725 -0.488921 0.089774
-0.147696 -0.091144 -0.491661
0.040938 0.194124 0.456717
-0.134752 -0.436932 0.235795
0.220131 0.226896 0.441369
-0.213069 0.430699 0.248610
-0.287098 -0.442968 -0.228713
-0.025916 -0.496574 -0.032823
0.196691 0.294526 -0.404113
-0.150849 -0.234682 0.436952
-0.029611 0.451277 0.209577
-0.218025 -0.012082 0.495615
0.088840 0.485345 0.111978
-0.131235 0.247647 0.430335
-0.194252 -0.448503 0.213447
-0.193033 -0.051254 0.493199
-0.257520 0.385924 -0.317517
-0.026416 0.255705 0.425423
0.169666 0.439170 0.233838
-0.250504 0.224900 0.442420
0.155480 0.064705 0.491723
0.036642 0.373811 0.327430
0.112812 -0.262591 -0.424953
0.009963 0.155733 0.471063
-0.003880 -0.423117 -0.264276
-0.256425 -0.014617 0.495570
-0.038412 0.400557 -0.298996
0.248993 -0.251050 -0.431989
-0.235931 0.368242 0.333919
-0.004779 -0.382187 -0.320827
0.037187 0.405936 -0.291304
0.087655 0.491280 0.083222
-0.206800 0.352832 0.349752
-0.211977 0.497333 -0.038258
-0.236199 0.479215 -0.139495
0.092724 0.473017 0.155023
0.242032 -0.463910 0.177489
-0.107365 -0.495719 0.040441
-0.074948 0.415451 -0.277699
-0.181884 0.365705 0.336530
0.083873 0.217747 -0.450241
0.103513 0.075672 0.490147
-0.060635 0.483818 -0.122103
0.073738 -0.006118 -0.500315
-0.098963 -0.228378 -0.444402
-0.236937 0.399474 -0.300524
-0.003506 0.453728 -0.208441
0.269238 -0.001935 -0.500240
0.064318 -0.087934 -0.492213
-0.040479 0.189945 -0.462680
-0.237440 -0.343564 -0.362355
-0.072733 0.492590 0.074164
0.141102 -0.132425 0.477688
-0.259172 -0.495974 0.038080
-0.266482 -0.348499 -0.357504
0.227946 -0.459471 0.189006
0.285824 0.275332 0.413254
-0.216943 -0.445717 -0.223135
-0.171061 0.003481 0.495896
0.107083 -0.040791 -0.498551
-0.075345 -0.069372 -0.495409
-0.289785 -0.426360 -0.258744
-0.192004 -0.242932 0.432221
0.238104 0.205107 -0.456359
0.004350 -0.416004 0.271090
-0.226527 -0.317750 0.380856
-0.181677 0.397759 0.298053
-0.004952 0.002588 -0.500158
-0.021119 0.188003 0.459309
-0.065935 -0.121431 -0.485003
-0.279622 -0.407478 -0.287964
-0.144489 -0.486535 -0.105759
0.111105 0.476591 -0.148095
0.066319 0.325683 -0.379281
-0.171684 -0.471968 0.155534
-0.246311 0.482235 -0.128764
-0.260317 -0.278967 0.409978
0.233567 -0.263801 -0.424216
0.152487 0.493528 -0.073318
0.154795 0.310367 0.387609
-0.216923 0.337405 -0.369135
-0.083598 0.154600 -0.475755
-0.014314 0.342585 -0.364092
-0.024467 0.491670 -0.084109
-0.273985 -0.177253 0.463191
0.184509 -0.478218 0.135051
-0.188245 -0.376048 -0.327981
-0.017012 0.498355 0.007599
0.161784 -0.220648 -0.448473
-0.178819 0.496108 -0.050682
-0.156211 -0.346923 -0.359123
0.259449 -0.167436 -0.470996
0.201659 -0.349153 0.352347
-0.203465 0.400211 0.294802
-0.082688 -0.047791 -0.497794
-0.080046 -0.475715 -0.148289
0.101497 0.165556 -0.471975
-0.002703 0.496243 0.045212
0.262689 -0.253745 -0.430346
-0.211135 -0.207946 0.450212
-0.102199 0.159237 -0.474155
-0.100233 -0.141848 -0.479341
0.153162 0.496371 0.043627
-0.189295 -0.497137 -0.022693
-0.043064 -0.414459 -0.277390
0.031946 -0.367182 0.333602
0.081963 -0.493251 -0.066864
-0.187018 0.449571 0.213039
-0.093326 0.340044 -0.366566
0.211444 0.198387 -0.459160
0.276350 -0.316315 -0.386403
-0.160111 -0.464989 0.174614
0.013770 -0.102338 -0.489540
-0.275161 0.398319 -0.301972
-0.139353 0.344135 0.358414
-0.240491 0.468636 0.167724
0.036477 0.136689 -0.481147
-0.184074 0.024821 -0.499758
0.161143 0.469724 0.164570
-0.099750 0.459850 0.190052
-0.146316 0.457063 0.196735
0.131368 0.400495 -0.299084
0.243663 -0.367771 0.332951
-0.040624 -0.172494 0.464875
-0.134174 -0.371681 -0.333071
-0.045808 -0.114852 0.482403
0.008457 0.239666 -0.439035
0.016820 -0.351621 -0.354297
-0.108346 0.408707 -0.287343
0.160977 -0.375620 -0.328480
-0.020458 -0.296623 0.397404
-0.128830 -0.474342 -0.152563
-0.100923 -0.420311 0.264130
-0.209163 0.476765 -0.147523
0.099978 0.191793 0.457763
0.118423 -0.189358 0.458144
0.188777 0.334655 0.366999
0.244919 -0.095601 -0.490893
-0.031509 0.266269 0.418982
-0.191926 0.303927 -0.397020
0.191815 0.089920 0.487694
-0.276875 0.098263 -0.490446
0.191694 0.121471 0.480884
0.177468 0.308633 -0.393470
-0.225717 -0.230251 -0.443416
-0.069498 -0.495565 -0.045281
-0.134253 -0.260366 0.422224
0.236886 0.310943 0.387150
0.055358 0.477268 0.142024
-0.230085 -0.258979 -0.427155
0.072472 0.216384 -0.450913
-0.133742 -0.225007 0.441805
0.059364 0.376172 -0.329161
0.138851 -0.071539 0.490522
-0.023780 -0.460505 -0.190377
0.285523 -0.468386 0.165559
0.283301 -0.464718 -0.180270
0.021787 0.245058 -0.435943
0.064355 0.235793 -0.441256
0.087846 -0.404481 -0.292138
0.218317 -0.174868 -0.468207
0.151466 -0.445025 0.220424
-0.181881 0.168296 -0.471030
0.234246 0.129068 0.479078
0.130102 -0.408886 -0.285832
0.152921 0.407600 -0.288926
0.236479 -0.075371 0.489967
-0.261440 0.417043 0.270674
-0.188060 -0.104305 0.484612
-0.150706 0.151772 -0.476730
0.077712 -0.468750 -0.168776
0.052727 0.169659 0.466193
-0.115733 -0.007664 -0.500249
0.286180 0.002359 0.495875
-0.271020 -0.432261 -0.248453
-0.174643 -0.026009 0.495244
-0.085316 -0.393847 -0.306233
0.089124 0.467970 0.169653
-0.031382 0.394544 -0.306707
0.081303 0.006985 0.495959
0.179077 0.493518 0.067749
-0.017465 -0.102785 -0.489434
0.077519 0.268186 -0.422125
0.067283 -0.216915 -0.450383
-0.126476 -0.247508 0.429597
0.283422 -0.260558 0.422113
0.100596 0.044618 -0.498173
0.056517 -0.473773 0.149618
-0.139084 0.252752 -0.431530
-0.251841 0.497907 0.024664
-0.162118 0.044263 -0.498202
0.121782 -0.493392 -0.065893
-0.137222 0.035417 -0.498918
0.080056 0.474434 0.150917
-0.233363 -0.338703 0.362520
0.052486 -0.143767 0.474557
0.150895 -0.489322 0.087444
0.150501 0.498308 0.010221
0.133034 0.458132 -0.198628
-0.157020 -0.414097 -0.277939
0.098304 -0.266740 -0.422424
0.021423 -0.488434 -0.096694
0.163005 -0.492910 -0.069225
0.140937 -0.099712 0.485574
-0.045681 0.046245 -0.498041
0.188258 -0.055699 0.492813
-0.205964 -0.393107 -0.307214
0.158501 0.003459 0.495895
-0.159698 0.261781 -0.426353
0.092173 -0.129658 -0.483048
0.249905 0.429530 -0.255043
0.217002 -0.297586 -0.401327
-0.204060 -0.043984 0.493788
0.021837 0.496321 -0.048705
-0.262078 -0.218010 -0.449862
0.210138 0.239222 -0.439289
0.128717 -0.367573 0.333171
-0.203220 0.178422 0.462905
-0.136731 -0.306564 0.389904
0.121607 0.457509 0.195666
-0.214675 0.493799 -0.071746
-0.090295 -0.494100 0.055429
-0.063875 -0.307476 0.389216
-0.072468 0.214152 -0.452013
0.161391 0.446734 -0.223479
-0.199438 -0.023215 0.495415
-0.108388 0.084563 -0.493139
0.271268 -0.270690 0.415442
0.080076 -0.032987 0.494679
0.207950 0.245036 0.431818
-0.100402 -0.096611 -0.490720
-0.261620 -0.378184 -0.325493
-0.271843 -0.021349 -0.499635
0.039594 0.251071 -0.432495
-0.143917 -0.279505 0.409623
-0.110115 0.397764 0.298046
0.016975 -0.497212 -0.018539
0.129219 0.043031 -0.498302
0.042687 0.179334 -0.467104
0.015429 -0.188746 -0.463000
0.123548 0.249206 0.429385
0.243946 -0.082681 -0.493118
-0.238781 0.493562 -0.073121
0.018178 0.394187 -0.307154
-0.243063 -0.481561 -0.127112
0.077280 0.423924 0.260252
0.012359 -0.224689 -0.446345
0.273406 0.231279 -0.443573
0.080006 0.016493 -0.499908
0.251781 -0.013895 -0.499969
0.025038 -0.154142 -0.475590
-0.183962 -0.130752 0.478150
0.268060 -0.478008 -0.139984
-0.255589 0.083592 0.488784
-0.236509 -0.389658 0.307196
-0.023562 0.486747 -0.109777
0.138182 0.000572 -0.500195
0.256395 -0.101077 -0.489840
0.034442 -0.497543 -0.000173
-0.202884 0.051655 0.493134
-0.016178 0.084648 0.488602
0.218186 0.436797 -0.242350
0.247287 0.099376 -0.490213
-0.267536 -0.390795 0.305770
-0.062991 0.287923 0.404448
0.231599 0.226408 0.441626
-0.042095 0.321098 0.379053
0.245941 -0.316136 0.382241
0.002611 0.275830 -0.417079
-0.148918 -0.433639 0.242050
0.060250 0.473268 -0.158986
-0.137063 0.376667 0.324102
0.007664 0.271774 0.415626
0.158249 0.495907 -0.052536
0.004601 0.493750 0.066147
0.164597 -0.234381 -0.441242
0.168565 -0.128360 0.478810
0.029220 -0.189367 0.458140
0.145822 -0.437166 -0.239899
0.222760 -0.006867 -0.500284
-0.172484 0.194164 0.456699
0.046394 0.122483 -0.485069
-0.119385 0.366105 -0.340275
0.147572 -0.029746 -0.499258
0.211056 0.333920 0.367665
0.167446 -0.483139 -0.121398
-0.116996 -0.324262 0.375268
-0.133522 -0.257417 -0.428108
0.259498 -0.181578 0.461388
-0.078226 -0.190962 0.457475
0.249191 -0.304880 0.391175
-0.122680 -0.497079 -0.025907
-0.258821 -0.315911 -0.386724
-0.099691 0.498624 -0.007324
0.200842 -0.459275 0.189442
-0.157977 0.319151 0.380605
0.182995 -0.408679 0.281564
-0.198548 -0.491328 -0.080160
0.091684 0.449755 -0.217295
-0.116876 0.495599 -0.055394
0.194706 0.384811 0.314610
0.165037 0.412062 -0.282546
0.265238 -0.390894 -0.310147
0.146477 -0.362787 -0.342828
0.249544 0.426673 0.255631
0.038615 -0.013769 -0.499975
0.174362 0.295303 0.399286
-0.021590 -0.437507 0.234702
0.245682 0.452554 0.206986
-0.031089 -0.314430 0.383704
-0.019900 -0.462335 0.181686
0.198921 -0.269124 -0.420970
-0.198462 -0.195401 -0.460037
-0.289139 0.456669 0.197683
0.201471 0.045271 -0.498120
0.088959 -0.216656 0.445920
0.123008 -0.010338 -0.500129
-0.261128 -0.466500 -0.175299
-0.038561 0.010592 -0.500014
0.285102 -0.337797 -0.367579
0.271174 -0.368209 -0.337117
0.118193 0.494101 0.063719
-0.167410 0.223065 0.443386
0.189562 -0.328342 0.371767
0.186591 0.269623 0.416938
0.284466 -0.272704 0.414113
0.049794 0.088461 -0.492499
-0.288713 -0.042906 0.493875
0.078824 -0.493128 0.064419
0.080841 -0.383471 -0.319331
0.170288 -0.124823 -0.484197
-0.221713 -0.497473 -0.004026
0.124466 0.220748 0.444606
0.039895 -0.290688 0.401881
0.227756 0.387875 0.311039
0.173994 -0.490072 -0.088841
0.010605 -0.371084 0.329293
0.281891 -0.497466 -0.004433
0.049815 0.118572 0.481573
0.282689 -0.459573 -0.192612
0.170567 -0.446006 -0.222548
-0.027265 0.282092 -0.412945
-0.117707 -0.269438 -0.420779
0.209232 -0.218677 -0.449511
0.283603 -0.292163 0.400769
-0.121428 0.489228 -0.098299
-0.052673 -0.495009 -0.052143
0.285538 -0.497153 0.015066
-0.130384 -0.496580 -0.032748
0.010172 0.494770 -0.063059
-0.217801 -0.322470 0.376805
-0.026325 0.484747 0.114832
-0.118045 0.107208 0.484273
0.285613 0.381787 -0.322706
0.165240 -0.475164 0.145058
0.216012 0.385960 -0.317472
-0.002710 0.419016 -0.272289
-0.235959 0.438371 -0.239361
0.237852 0.155753 0.471057
-0.207279 -0.495106 0.046112
0.285950 0.268592 -0.421858
0.184055 0.472380 -0.161897
0.043563 -0.466796 -0.174440
-0.016026 0.183742 -0.465266
0.094800 -0.082644 0.488915
-0.134443 0.116571 -0.486611
-0.174048 0.413347 -0.280708
0.161720 0.292370 0.401338
0.151343 -0.496442 0.030928
-0.047681 -0.180498 -0.466094
0.204346 0.166590 -0.471619
0.024204 -0.246033 0.430442
-0.285124 -0.367707 -0.337703
-0.172145 0.412586 0.277426
-0.203111 -0.002660 -0.500253
-0.215444 0.409368 0.282301
-0.071256 0.394099 -0.307264
-0.114964 0.278281 -0.415461
0.235946 -0.490674 -0.084678
0.276306 0.289591 -0.407836
-0.288376 -0.497410 0.009330
-0.168687 0.498650 -0.008770
-0.221410 -0.192943 0.456649
0.247883 -0.417462 0.268804
0.186133 -0.497456 -0.004980
0.252886 -0.496375 -0.035281
-0.155371 -0.015991 0.495545
0.034539 -0.450854 -0.212711
-0.061738 -0.480282 0.128285
0.019954 0.192714 -0.461526
0.093639 -0.446549 0.217529
0.210439 0.488242 0.098151
-0.259674 -0.054020 0.492975
0.179723 -0.288047 -0.407998
-0.075077 0.329713 0.371476
0.010638 -0.131525 0.477937
0.025027 -0.390531 0.306100
0.115685 -0.379358 -0.324124
0.136920 -0.497191 -0.019665
0.236200 -0.496951 0.019562
0.238488 0.077988 -0.494090
-0.215509 0.426224 -0.260466
-0.080404 -0.120873 0.480877
-0.217689 -0.293853 0.399494
-0.162830 -0.314037 -0.388219
0.033822 -0.143455 -0.478850
-0.193629 -0.272735 0.414092
-0.090294 0.164528 -0.472330
0.063249 -0.481913 -0.125839
0.248167 0.377989 0.322561
-0.048555 -0.469247 0.163265
0.095008 -0.252817 -0.430911
-0.022080 -0.301370 -0.398319
-0.044038 -0.497126 -0.023323
0.168358 0.433979 -0.247704
0.215105 -0.497240 0.013131
0.171140 -0.434609 -0.244359
0.088147 0.498035 -0.022607
0.267418 0.400638 -0.298880
0.071508 0.189711 0.458669
-0.105249 0.445944 -0.224978
0.080066 0.178679 0.462808
-0.289752 0.409790 -0.285794
0.116119 -0.392820 0.303230
-0.128286 -0.310053 -0.391396
0.257493 0.094398 0.486924
0.122079 0.078203 -0.494059
-0.058408 0.496026 0.047889
-0.016827 -0.005829 0.495728
0.140245 0.343249 -0.363445
-0.077434 0.339581 0.362538
-0.154347 0.445120 -0.226543
0.181775 -0.430859 -0.250899
-0.243870 0.080996 0.489231
-0.094971 -0.232345 0.438189
-0.283668 -0.438124 -0.238229
0.029772 0.494292 0.062401
0.034508 -0.336606 -0.368657
0.236601 0.446615 0.219039
0.233977 -0.058445 -0.496643
-0.094779 0.050974 -0.497658
-0.262617 0.498462 0.001687
-0.071543 -0.247293 0.429720
0.130063 0.313426 -0.389799
0.259197 0.452920 0.206243
0.003527 -0.072334 -0.494899
-0.053275 -0.130157 -0.482908
-0.037722 -0.276621 -0.415989
-0.057932 -0.214759 0.446855
-0.193482 0.472129 -0.162669
-0.159474 0.425588 0.257523
0.028243 -0.140645 0.475419
-0.043921 -0.116816 -0.486100
0.119765 0.310053 -0.392399
-0.027914 -0.398723 0.295799
0.159300 -0.155239 -0.475255
0.158639 -0.131535 0.477934
-0.185753 -0.469147 -0.167623
-0.177820 0.477551 -0.144948
0.092864 0.433967 -0.247726
-0.044354 0.459559 -0.195446
-0.172797 0.494539 -0.065199
0.058385 0.346119 0.356617
-0.269374 0.173343 -0.469289
0.156650 0.498175 -0.019486
-0.097105 -0.298278 0.396156
0.042634 0.205221 0.451737
0.230128 -0.141489 0.475186
0.216375 0.279792 -0.414463
-0.186654 -0.089196 0.487777
-0.074670 0.497986 -0.023692
0.107066 -0.190781 0.457551
-0.012276 -0.227549 0.440553
0.057364 -0.206646 -0.454991
0.246218 -0.356146 0.345539
0.177447 0.261213 -0.426679
0.275525 -0.360909 -0.344756
-0.203435 0.067819 0.491387
-0.083133 0.491901 -0.082771
-0.003670 0.205068 -0.456375
-0.189105 -0.458225 0.191782
-0.012963 -0.492360 -0.073025
-0.058796 0.406131 0.286956
0.256664 0.483045 0.121095
-0.017355 -0.152751 0.471686
-0.044533 -0.496647 0.026340
-0.114105 0.394471 -0.306798
-0.197778 0.485716 -0.114116
0.094643 -0.463698 0.178055
0.083146 -0.497245 0.013018
-0.209331 0.476596 0.144458
0.171284 -0.463989 0.177277
0.262467 0.352188 0.350414
-0.248908 -0.212780 0.447830
0.114898 0.023009 0.495253
-0.218821 0.463674 -0.185203
-0.236913 0.259516 0.423099
-0.286202 0.154363 0.471481
0.125285 -0.469439 -0.166779
-0.034402 -0.450466 0.209072
-0.028479 -0.346966 0.354476
0.180097 0.441897 0.228613
-0.169994 0.137754 -0.480853
-0.040707 -0.403268 -0.293746
-0.119038 0.286963 -0.409729
-0.281559 0.428579 -0.256602
0.077666 -0.258293 0.423412
-0.101114 -0.289660 0.402657
0.274077 0.173331 -0.469293
-0.168222 0.331214 -0.374536
0.155876 -0.041438 0.493994
-0.227088 -0.068192 0.491006
0.213049 0.485080 0.113244
-0.063902 0.043926 -0.498229
0.044011 -0.025815 -0.499435
0.000634 0.044522 -0.498181
0.079664 -0.495979 -0.040175
0.031267 0.399735 -0.300171
-0.201907 0.133346 -0.482070
-0.074413 0.285955 0.405824
0.050717 -0.279385 -0.414056
-0.033809 0.250205 -0.432991
0.084224 0.470948 0.161020
-0.244730 0.071964 -0.494962
0.152403 -0.382866 0.315714
0.195644 0.080556 0.489306
-0.095411 0.469929 0.163975
0.286816 0.395274 0.301347
-0.062001 0.085288 0.488492
0.147103 0.401434 -0.297741
0.100812 0.302695 0.393727
-0.080588 -0.491914 0.072385
-0.129587 -0.420525 0.263779
-0.240043 0.498577 -0.004711
0.048836 -0.401023 0.292511
-0.016630 -0.451957 -0.210471
0.068493 -0.148049 -0.477449
-0.203962 0.167108 -0.471440
0.087198 0.081964 0.489064
0.135175 -0.171550 0.465201
-0.260041 0.488130 0.098682
0.227331 -0.042739 -0.498340
-0.099225 -0.087484 0.488136
-0.156064 0.497530 -0.033868
0.157086 0.418000 -0.273956
0.135811 0.238436 -0.439740
-0.050729 -0.142944 0.474784
0.064342 -0.037288 0.494330
-0.283074 0.209905 0.449635
0.079777 -0.109634 -0.487807
0.223125 0.202182 -0.457578
0.274183 0.470551 0.162172
-0.225554 -0.430357 -0.251774
-0.287788 -0.119784 -0.485395
0.104026 0.489539 -0.096491
0.082900 0.464156 0.179722
-0.287788 0.314843 -0.388583
-0.254916 -0.433657 0.242014
-0.282705 0.204999 -0.456404
0.170930 0.127486 0.479454
-0.047170 -0.262136 0.421090
0.233474 0.428459 -0.256800
-0.116402 -0.494208 0.054425
0.274339 0.021878 0.495304
-0.237309 0.488294 -0.103267
0.184842 0.485618 0.110675
0.181402 -0.496361 0.032726
-0.052411 0.367163 0.335032
0.123572 -0.370686 -0.334230
-0.061087 -0.462641 -0.185253
-0.181456 -0.272080 0.414525
-0.233684 0.465259 0.177077
-0.036489 0.036022 -0.498869
-0.093313 0.496794 -0.044336
0.179382 0.490775 -0.089310
-0.237984 0.219844 -0.449208
-0.271804 -0.375074 0.324888
-0.207851 -0.099800 -0.490143
-0.060687 -0.402224 0.290793
0.286513 -0.439210 0.231469
-0.064069 0.412409 0.277694
-0.006191 0.389214 -0.313391
0.089696 -0.497552 0.000333
-0.106843 -0.473721 -0.154364
0.163703 -0.025554 -0.499446
0.233037 0.442390 0.227613
0.151558 0.443372 -0.229864
0.243120 -0.221486 0.443540
0.174316 -0.080997 -0.493407
0.235716 -0.483639 -0.119582
-0.236155 0.312511 0.385900
0.027341 0.483704 -0.122582
0.203402 -0.470143 -0.164736
0.140705 -0.203538 0.452232
-0.190435 0.471946 0.158128
0.008214 0.385064 0.314315
0.154236 -0.417403 -0.272931
0.224723 0.328818 -0.376591
-0.244892 -0.363930 0.337193
0.119224 0.228827 -0.444781
-0.132435 -0.074513 0.490091
0.120357 0.431820 -0.251286
-0.110947 -0.294966 0.398654
0.188394 0.375726 -0.329654
-0.047615 -0.424747 0.256854
0.092065 0.340682 -0.365944
0.050348 -0.297111 0.397036
-0.147858 -0.224731 0.441941
0.242334 0.480409 -0.135580
0.071905 0.484579 0.115539
0.034476 0.393568 -0.307931
0.113999 -0.407844 0.282758
0.175043 0.267564 0.418193
-0.218826 0.033329 0.494790
0.013445 -0.395097 -0.304576
0.118785 -0.076119 0.489859
0.256914 0.497014 -0.042299
-0.207920 -0.217836 0.445339
-0.070585 0.487412 0.102110
0.016900 0.230279 -0.444066
0.220308 -0.403077 0.289573
-0.288304 -0.295765 0.398051
-0.063739 0.473605 -0.157880
-0.003383 0.090321 -0.492110
-0.108386 -0.495840 -0.041883
0.063185 -0.380045 0.319251
-0.010761 0.278647 -0.415219
-0.125106 0.498566 -0.004122
0.190386 0.131905 -0.482468
0.177834 0.422563 0.262312
-0.099396 0.480274 0.131133
0.018717 -0.176688 -0.467524
0.104591 -0.211337 -0.452886
0.155632 0.395896 -0.305011
0.105348 0.214380 0.447627
0.005762 -0.351005 -0.354930
0.135989 -0.213060 0.447692
-0.073674 -0.261491 -0.425624
0.238935 0.489989 0.089811
-0.272902 0.497721 -0.029605
-0.192753 -0.478139 0.135309
0.151530 -0.277082 -0.415667
-0.009389 0.016528 0.495544
-0.192550 0.467422 0.171243
-0.080729 -0.230202 0.439245
0.283564 0.255234 0.425710
0.282679 0.166744 -0.471566
-0.225954 0.387032 0.312022
0.252563 0.497233 0.032986
0.009739 0.496608 0.040704
-0.108301 -0.105420 -0.488808
0.171837 0.148124 0.473385
-0.290238 0.497100 -0.041501
0.249506 -0.139469 -0.480067
0.047636 0.469361 0.165623
-0.142726 0.122075 0.480740
0.043065 0.351618 -0.355298
-0.218348 0.495900 0.049437
-0.146213 0.089233 -0.492338
-0.005347 -0.477428 0.137640
0.284830 -0.032286 -0.499144
0.078272 0.479536 -0.138444
-0.109776 -0.423738 0.258509
0.282748 0.098503 -0.490396
0.170578 -0.478003 0.135754
-0.225264 0.419059 -0.272219
-0.208301 -0.447232 0.216233
-0.043845 0.267637 -0.422488
0.228258 0.365432 -0.341019
0.280843 -0.372720 0.327488
-0.064499 0.162394 -0.473066
-0.108983 0.335258 -0.371065
0.075387 -0.497623 0.004585
0.140398 0.348607 0.354092
0.167103 0.304596 -0.396516
-0.083561 -0.399095 0.295268
-0.219968 -0.129598 -0.483062
0.276438 -0.199671 -0.458121
-0.100717 -0.442176 0.225835
-0.029434 -0.147151 -0.477723
0.059819 0.047236 0.493611
0.139141 0.340805 0.361430
-0.147809 -0.412286 0.276406
-0.098167 0.164400 0.468166
-0.288686 -0.159789 -0.473865
0.226147 0.497883 -0.025994
0.033829 0.022988 -0.499791
0.056758 0.493943 -0.070711
0.147745 0.303860 0.392798
-0.164391 0.476079 -0.149772
0.059364 -0.351831 -0.354081
0.056355 0.070192 0.491091
0.065951 -0.126641 0.479285
-0.179290 0.465492 -0.180357
0.099614 0.023073 0.495250
0.018112 0.452642 -0.210862
-0.241244 0.352180 -0.354751
-0.276595 -0.094290 0.486710
-0.258626 -0.088375 0.487949
-0.126116 0.373447 -0.332170
0.141515 0.445160 -0.226468
-0.167683 0.108539 -0.488293
-0.072829 0.361997 -0.344811
0.034573 0.496163 0.046189
-0.144221 0.498394 0.005451
0.009673 0.447818 0.216598
0.270723 -0.458494 -0.195199
-0.239615 -0.247178 0.429786
0.079601 0.450919 -0.214701
-0.273233 0.361733 0.340610
-0.236359 -0.056530 -0.496850
0.067577 0.489724 -0.095415
-0.032008 -0.497238 -0.017079
-0.186753 0.246007 0.431307
0.102444 0.418315 0.268748
-0.241640 -0.497050 -0.026953
0.270315 0.333857 0.367723
0.048495 -0.187909 -0.463314
-0.192315 0.316010 -0.387582
-0.080294 0.068724 0.491289
-0.071427 0.487565 -0.106336
-0.065041 0.381390 -0.323203
-0.247693 -0.312419 -0.389509
-0.288498 0.494354 -0.066907
0.045890 0.072694 0.490660
0.214424 0.469318 -0.170162
-0.155020 0.113673 -0.487218
-0.079718 0.494064 0.063974
-0.176278 -0.085710 -0.492596
0.220863 0.379097 -0.325931
-0.160523 -0.495584 -0.045043
0.108848 -0.377217 0.322522
0.164639 0.496581 0.041038
-0.031226 0.451009 -0.214500
0.222450 0.190824 -0.462313
0.126213 0.256966 -0.429114
0.004748 0.468211 0.168956
0.151910 -0.495688 -0.043762
0.245211 0.338561 -0.368010
-0.215686 -0.050973 0.493222
-0.176410 -0.284450 -0.410514
0.097442 -0.496822 0.022447
-0.145441 0.454364 -0.207025
-0.204776 0.491963 -0.082410
0.275312 -0.439455 -0.235842
-0.207222 0.487960 -0.104674
0.162760 0.053927 0.492888
0.285662 0.085861 -0.492951
-0.245072 -0.477431 0.137630
-0.092724 -0.089037 -0.492023
-0.012953 0.221526 -0.448379
0.203480 -0.153731 0.471348
0.101980 -0.495933 -0.040739
-0.047425 0.275421 0.413192
0.261273 -0.138598 0.475984
-0.041666 -0.231664 -0.442672
0.040822 -0.431058 0.246501
0.138841 0.498353 -0.015520
0.034388 -0.122173 0.480518
-0.139455 -0.100020 -0.490091
0.012486 0.209844 -0.454135
-0.288467 0.378288 0.322212
0.281805 0.453624 -0.208673
0.284985 0.360200 0.342185
-0.007900 -0.396506 0.298607
-0.078320 -0.406599 -0.289296
-0.184402 -0.074095 0.490152
0.154681 0.473473 0.153701
-0.265527 -0.208742 0.449820
-0.184324 -0.019279 0.495486
-0.237498 0.063293 -0.496216
0.044102 -0.326548 0.373306
0.112183 -0.487532 0.097811
0.218206 0.479056 0.135548
0.043699 -0.484141 0.112076
0.002052 0.363466 0.338829
-0.173785 0.023293 -0.499785
0.044158 0.097605 0.486371
0.214465 -0.363910 -0.341675
0.221760 -0.317029 0.381474
-0.238166 0.490758 0.086138
0.240420 -0.317039 -0.385825
0.200080 -0.192950 0.456647
-0.228806 -0.422479 0.260575
0.160250 -0.497439 0.008697
0.141805 -0.361910 0.339422
0.023462 -0.118993 0.481396
-0.024982 0.399932 -0.299890
-0.246112 0.498264 0.012665
-0.248103 -0.266013 -0.422867
0.100120 -0.418679 0.266807
0.060962 -0.248821 0.428844
0.184439 0.345605 0.357082
-0.204878 -0.448251 -0.217993
0.174292 0.427755 0.253745
-0.141087 0.460285 -0.193829
0.164889 -0.014846 0.495566
0.202219 -0.094797 0.486604
-0.271167 -0.032127 -0.499152
0.116318 0.370229 -0.335723
0.017376 0.370735 -0.335164
-0.162182 -0.417078 0.269434
-0.127813 -0.453829 0.201578
-0.083187 0.191391 -0.462077
-0.006236 0.498477 -0.012743
-0.039509 -0.162232 0.468415
-0.047295 0.409191 0.282568
-0.170460 -0.239338 -0.438632
0.064996 -0.358560 -0.347170
0.222177 0.243640 -0.436756
-0.089342 -0.060816 0.492073
0.045911 0.342512 0.359884
0.057535 -0.072528 0.490378
-0.029664 0.319697 0.380170
-0.040474 0.392121 0.305525
0.234777 0.198395 0.454800
-0.116353 0.379802 -0.325154
0.238879 -0.280716 0.408823
-0.267224 -0.484916 -0.113488
-0.260334 0.294634 -0.404031
0.182757 0.194583 -0.460746
-0.090670 0.117734 -0.486367
0.216608 0.166380 0.467423
0.019142 -0.325983 -0.378279
-0.277612 0.488317 -0.103171
-0.129727 -0.489711 -0.090599
-0.009739 -0.436136 0.237307
-0.273889 -0.246425 -0.434809
-0.221031 0.084899 -0.493090
0.227110 -0.481972 0.121205
-0.134388 -0.495127 -0.050690
0.116194 0.485881 -0.113420
0.158765 -0.435968 -0.241990
-0.121819 0.426897 0.255241
0.243584 0.179249 0.462594
0.229486 -0.110257 -0.487658
-0.243754 0.303699 -0.397192
-0.095960 -0.483767 0.113652
0.195786 0.274807 0.413621
0.005903 -0.026671 -0.499396
0.111710 0.061886 -0.496420
0.038079 -0.358720 0.342945
-0.285579 0.142001 0.475253
0.026801 -0.365195 -0.340354
-0.164196 -0.478888 0.132854
-0.281178 0.498289 0.011294
0.247123 -0.234889 -0.440974
0.172784 -0.494110 -0.060924
0.129373 -0.183642 -0.464915
0.025610 -0.180431 0.461866
-0.141047 -0.305661 -0.394898
0.002860 0.254529 0.426140
-0.123227 0.479487 0.133985
-0.073030 0.423994 -0.264124
-0.056236 0.276538 -0.416612
0.250160 0.482894 -0.125993
-0.087900 0.440200 0.232042
0.038586 -0.031590 0.494792
-0.105174 -0.493941 -0.062095
0.137073 -0.079477 -0.493669
-0.059448 0.321948 0.378375
0.028324 0.011042 0.495790
-0.101406 -0.170707 -0.469768
0.274770 0.366651 0.335559
-0.027929 -0.125128 0.479702
0.003935 0.458904 -0.196907
0.126155 -0.255798 -0.429094
0.255349 0.433658 0.243451
-0.120610 -0.454642 -0.204439
-0.177084 -0.203963 -0.456195
-0.262593 0.111647 0.483218
-0.121209 0.345333 0.357328
0.051290 0.248337 -0.434062
0.088968 -0.052690 -0.497265
-0.273891 -0.495986 0.037971
0.248591 -0.479258 0.131640
0.185377 -0.052977 -0.497233
0.157403 0.037363 -0.498761
0.177317 0.403564 -0.294696
0.067493 0.232006 0.438679
0.264314 0.281232 -0.413513
0.039044 -0.435817 -0.242252
0.176164 0.484027 -0.121224
-0.030667 -0.004971 0.495743
0.087514 -0.100007 -0.490094
-0.265061 0.061409 0.492080
0.209263 -0.036248 -0.498967
-0.020406 -0.348599 -0.357401
0.147888 -0.121110 -0.485079
-0.005508 0.379226 -0.325789
-0.261002 -0.488810 -0.094900
-0.081568 -0.132395 0.477697
0.203357 0.498114 -0.020836
-0.252698 0.232170 -0.443134
-0.059488 -0.488887 -0.094530
0.232460 -0.186200 0.459460
0.097724 -0.070495 0.490672
-0.036654 -0.490175 -0.088124
0.253094 -0.030186 -0.499239
0.200918 0.464400 0.179138
0.162323 0.238856 0.435072
-0.255424 -0.285158 -0.410019
-0.175698 0.497862 -0.026454
0.280850 -0.035777 0.494453
-0.084878 0.380376 -0.324475
0.049596 -0.014508 -0.499942
0.116264 -0.472029 0.155333
-0.090623 0.353605 -0.353364
-0.016134 0.488493 0.096951
-0.268698 0.468324 0.168629
0.027061 0.129390 -0.483162
-0.283380 0.127577 -0.483663
0.276427 -0.049564 0.493336
-0.010108 0.472514 -0.161456
0.143144 0.439389 -0.237429
-0.268022 -0.460970 0.185325
-0.092321 -0.423383 -0.263872
0.020482 -0.474289 0.147926
-0.287915 0.357480 0.344978
0.060980 -0.400761 0.292885
0.198497 0.420623 -0.269653
-0.110788 -0.182622 0.460952
-0.289926 0.332844 -0.373137
0.008779 -0.092622 -0.491406
-0.146459 -0.043797 0.493803
0.101763 0.123392 -0.484818
-0.013060 0.224921 0.442409
-0.202320 0.131721 0.478390
0.047022 0.442836 0.226709
0.250451 -0.347639 0.353821
-0.111833 -0.431040 -0.250582
0.126509 -0.491378 -0.079810
0.043158 -0.064242 -0.496016
-0.170071 -0.474586 -0.151856
0.111436 0.034153 0.494753
-0.267213 -0.497416 -0.007218
-0.083883 -0.488760 -0.095138
-0.106128 -0.483717 -0.119211
-0.046269 0.292433 -0.405692
0.183639 0.482713 0.122300
-0.289836 -0.382756 0.315852
0.175039 0.494992 0.057561
0.160609 0.489764 0.090886
0.241337 0.024406 -0.499765
0.161228 -0.439828 0.230294
0.186045 0.495642 -0.054993
-0.081480 0.006502 -0.500088
-0.132847 0.498370 -0.015128
-0.021681 0.453566 -0.208802
-0.087530 -0.497351 -0.010829
-0.161812 0.457317 0.196126
-0.184513 0.095254 -0.491076
0.006106 -0.495357 0.043796
-0.238496 -0.478499 -0.138206
-0.086508 -0.069350 -0.495413
0.181897 0.396755 -0.303933
-0.109959 0.440476 0.231497
0.090489 0.422243 0.262797
0.017011 -0.040179 -0.498617
0.005930 0.157992 -0.474585
-0.153497 -0.133318 -0.481943
0.022325 -0.149914 0.472665
-0.103729 0.496055 -0.051174
-0.265989 0.498198 -0.018959
0.016525 0.497466 0.030115
0.077663 -0.055385 -0.496973
0.148202 -0.146445 -0.477938
0.235534 -0.494510 -0.058161
-0.203605 -0.279601 0.409560
-0.145143 0.011251 -0.500002
-0.222872 -0.486904 0.100453
0.038783 0.367870 -0.338327
-0.249746 -0.399298 -0.299008
0.000789 -0.028570 0.495037
-0.111296 -0.174258 -0.468436
0.248996 0.160045 -0.473876
0.003037 0.491442 0.082102
-0.159470 -0.039712 0.494134
0.062887 0.479613 0.133530
0.098773 0.448460 0.215294
0.098051 0.035772 0.494681
-0.161804 0.454168 -0.207459
0.156263 -0.490963 0.077913
-0.134126 -0.480862 0.125875
-0.171211 -0.426692 -0.258165
0.032906 -0.037962 -0.498856
0.183798 0.497506 -0.034389
-0.049992 0.473592 -0.157922
0.274770 -0.011560 -0.500074
0.034512 0.020652 0.495359
-0.160130 -0.440137 -0.234458
-0.126084 -0.496853 0.021750
0.161311 -0.255765 -0.429114
-0.081332 -0.497379 0.010016
-0.237431 0.497843 0.025465
-0.119962 0.074282 0.490386
0.000546 0.085884 0.488389
0.184655 0.253882 -0.430883
-0.274127 -0.440150 0.229683
0.284458 -0.473666 0.149967
-0.019739 0.007741 0.495938
0.144867 -0.299403 -0.399888
0.072484 0.157054 0.470660
-0.145023 0.397429 -0.303089
0.040279 0.033481 -0.499075
-0.087859 -0.142931 -0.479010
0.085896 -0.458638 -0.194853
0.011883 -0.446474 -0.221598
-0.153655 -0.420901 0.263162
0.113487 0.190892 0.458167
0.104840 -0.274584 -0.417413
-0.049042 0.471137 0.160473
-0.099278 -0.364455 0.336613
0.059813 -0.478228 0.135017
0.114704 0.078676 0.489630
0.230462 0.056733 -0.497165
-0.201059 -0.440308 -0.234111
-0.069576 0.470624 0.161959
-0.014418 -0.497301 -0.013560
0.165649 0.158313 0.470276
0.129049 -0.205369 0.451469
-0.236681 0.207989 -0.455049
0.209610 0.014573 -0.499942
0.077657 0.450436 0.211284
-0.247891 0.342649 -0.364029
-0.194432 -0.393425 -0.306793
0.182925 -0.490802 -0.083791
0.137048 0.022086 -0.499807
-0.063754 0.073180 0.490576
-0.025453 0.098345 0.486244
-0.181740 -0.046266 -0.497959
-0.005514 0.347015 -0.359779
0.269967 -0.347422 0.354032
-0.061869 0.481254 -0.132812
-0.050461 -0.486720 0.101228
0.007503 0.450224 -0.216249
0.037451 -0.371566 -0.333205
-0.164722 -0.266434 0.418252
0.185406 0.361852 -0.344971
-0.110049 -0.256542 -0.428641
-0.249805 0.496595 -0.046175
-0.136426 -0.090360 0.487534
0.189813 0.132002 0.478304
0.106649 -0.156806 -0.474777
-0.088012 -0.151745 0.472033
-0.078557 0.216819 0.446532
-0.122843 -0.049309 -0.497630
-0.090056 -0.486828 -0.104360
0.148028 -0.064893 -0.495946
-0.026541 -0.288688 0.403390
0.022545 0.480178 0.131482
0.113648 0.010421 0.495818
0.010555 0.489687 -0.095630
0.141546 -0.285545 0.405635
-0.144407 0.469929 0.163975
0.076740 -0.119689 0.481204
0.234484 0.497172 -0.040832
0.238884 0.167768 0.466902
-0.194929 0.403906 -0.294207
-0.090652 0.128668 -0.483362
0.209749 0.221684 0.444113
-0.066932 0.410456 -0.284842
-0.171979 0.360957 -0.345959
-0.238611 0.196014 -0.460150
-0.003387 0.124674 -0.484464
0.145953 -0.050520 -0.497499
-0.025476 0.118824 -0.486079
-0.118800 0.159228 0.469997
-0.149647 0.498603 -0.006164
0.138934 -0.422612 0.260356
-0.170468 -0.312193 0.385624
0.133148 0.497087 0.034790
0.027678 -0.004501 0.495752
-0.289102 0.096644 -0.490785
0.121016 -0.412276 -0.280697
0.122786 0.483387 -0.123919
-0.227233 0.285255 0.406314
0.097172 -0.017965 -0.499787
-0.049327 0.493525 -0.073335
-0.211671 0.064961 -0.495975
0.274316 -0.454049 0.201087
0.254194 -0.275689 -0.416641
0.274108 -0.486650 -0.105208
-0.053497 0.350329 -0.356553
0.227478 0.149440 0.472983
-0.252022 -0.236592 -0.440078
0.229086 -0.286779 0.404820
-0.061279 0.422338 0.262654
-0.137050 0.498580 -0.004899
-0.227401 -0.495503 -0.046043
-0.183273 0.310563 -0.392014
0.269161 0.482207 0.124133
0.173107 -0.094314 -0.491115
0.135271 -0.384653 -0.317953
-0.266030 0.406355 -0.290706
0.261949 -0.095031 0.486555
-0.177371 -0.451424 -0.211553
0.273078 -0.176188 0.463601
0.085844 0.406861 -0.289982
0.285808 -0.418426 0.267223
0.109898 -0.283375 -0.411266
-0.039198 0.410141 -0.285292
0.282491 0.041948 0.494183
-0.059545 -0.428583 -0.254868
0.017117 -0.051813 0.493154
-0.117641 -0.354041 0.347588
-0.095536 -0.480866 0.125858
0.117873 0.481817 0.125545
-0.003474 0.486412 0.106887
0.197043 -0.474792 0.146279
0.025205 -0.469107 -0.167740
-0.245710 0.283679 -0.411898
0.132240 0.197786 -0.459411
0.008298 -0.257300 0.423981
0.031681 0.294498 -0.404134
0.113553 0.492768 -0.077731
0.125366 0.349246 0.353436
-0.228306 -0.331618 0.368956
0.243787 0.000097 -0.500203
0.221951 0.372968 0.328412
-0.027585 0.394300 0.302637
0.185341 0.445901 -0.225061
-0.229615 0.060603 0.492167
0.039691 -0.087721 -0.492250
0.143873 0.498592 -0.005552
-0.273622 0.497872 0.025096
0.011270 -0.285720 -0.409625
0.066980 0.395974 -0.304914
-0.057252 -0.092924 -0.491354
0.165263 -0.440475 -0.233773
0.010266 0.407509 0.285115
0.044537 -0.273133 0.413830
0.101976 0.427276 -0.258740
-0.003330 0.480620 -0.134888
0.270903 -0.496292 -0.036306
0.026589 0.056780 0.492580
-0.250777 0.495494 -0.056364
-0.255991 -0.451484 0.206804
0.153443 -0.283001 0.407315
-0.245355 -0.080823 0.489178
-0.036359 0.445570 0.221159
0.037733 -0.196334 -0.459619
-0.152305 0.036648 0.494641
-0.188923 0.172547 0.465109
0.192149 -0.438374 -0.237794
-0.191020 -0.409910 0.279804
-0.053751 0.466136 -0.178641
-0.075403 -0.024574 -0.499490
-0.117912 0.496881 -0.043527
0.208825 -0.479968 -0.132883
0.266220 -0.491332 0.075770
-0.241562 -0.119128 0.481359
-0.213383 -0.008175 -0.500226
0.230529 0.476720 -0.147672
-0.039957 0.496331 -0.048613
0.170947 -0.158569 0.469679
0.179864 -0.105476 0.484367
-0.147580 0.473726 0.152968
0.257255 0.443414 -0.229785
-0.163556 0.466508 0.173892
-0.277466 -0.321685 -0.382121
0.221637 -0.029501 0.494961
-0.186515 -0.492274 -0.073618
-0.228622 0.114966 -0.486947
0.066409 0.285222 0.406337
-0.139047 -0.315061 -0.387402
-0.089811 0.462213 0.184383
-0.145573 -0.335910 0.365239
-0.150954 0.483437 0.119678
0.099837 -0.298448 0.396027
0.218260 0.310895 -0.391764
-0.106491 0.297258 -0.402052
0.044841 0.210890 -0.453620
-0.140981 0.354094 -0.352888
0.191002 0.195610 0.456050
0.128429 0.491209 -0.086788
-0.289878 0.466060 0.175157
0.215248 -0.011826 0.495620
-0.072797 -0.194947 -0.460241
-0.115894 0.439775 -0.236696
0.065834 -0.394893 0.300630
0.182506 -0.178022 0.462870
0.036362 -0.381148 -0.322038
0.126610 -0.428151 0.251269
0.228962 -0.425007 0.256427
0.081650 0.289658 -0.407785
-0.287290 0.496401 0.043259
0.049645 0.039739 0.494421
-0.040521 0.455484 0.200524
0.069925 0.306043 -0.395424
-0.206796 -0.431262 -0.250196
-0.160989 0.211429 0.448951
0.092160 -0.489986 0.083589
0.133859 0.176172 0.463749
0.116388 -0.495970 -0.040282
0.145527 0.458276 0.193827
0.073300 0.255964 -0.429689
-0.138969 -0.458588 -0.194973
0.171671 0.174070 -0.469039
0.083782 0.315215 -0.388264
-0.175541 0.029770 0.494950
0.158025 -0.300171 0.394727
0.261471 -0.195729 0.455488
-0.073033 0.493332 -0.074457
0.229222 0.286062 0.405750
0.259716 0.128214 -0.483487
0.012106 -0.482584 0.118630
0.231841 -0.108804 0.483670
-0.149598 0.415772 0.272600
0.090094 -0.064075 -0.496034
-0.057706 -0.497023 -0.027286
0.261115 -0.059947 0.492199
-0.132834 -0.483453 0.114975
0.162201 0.014814 0.495621
-0.187134 -0.316223 0.382166
-0.077926 -0.169219 -0.470327
-0.236496 -0.032801 -0.499121
-0.068612 0.387969 0.310929
-0.115788 0.203087 0.452695
-0.169913 0.079976 0.489406
-0.033765 0.136997 -0.481062
0.204120 0.406090 0.287010
-0.245860 -0.485622 -0.110117
0.178082 0.391187 0.306764
-0.064508 0.498599 -0.005910
-0.220041 0.020246 0.495377
0.119745 0.160237 -0.473810
0.232049 -0.023091 -0.499557
-0.257993 0.038373 0.494564
-0.090925 0.325869 0.374958
0.086629 0.498235 0.014253
-0.270767 -0.497176 -0.020538
0.070256 -0.471188 0.158089
-0.229497 -0.350405 -0.355547
-0.039454 -0.389870 0.306929
-0.266552 0.398728 0.296768
-0.214283 -0.496537 0.028792
0.135333 0.408047 -0.288287
0.283993 -0.107752 -0.488254
0.206384 0.089007 -0.492385
0.233878 -0.473782 -0.154187
0.034814 0.433238 -0.248961
0.099735 0.311756 -0.391113
-0.025191 0.481480 0.126764
0.115253 -0.095126 0.486535
0.081709 -0.363298 -0.342303
0.065902 0.057311 -0.497082
0.163366 -0.052427 0.493104
-0.133059 -0.497170 -0.020882
0.089913 0.018737 -0.499867
-0.144330 -0.459456 0.189040
-0.267002 -0.042423 0.493914
0.185615 0.379856 0.320384
-0.085522 0.287766 -0.409199
0.211261 0.135788 -0.481396
0.001168 -0.067591 0.491093
-0.215876 0.448274 -0.220554
0.117090 0.230182 0.439639
-0.131457 0.071892 0.490798
0.243192 -0.496919 -0.028573
-0.042477 0.300649 -0.399493
-0.212897 0.199674 -0.458624
0.161830 -0.143737 -0.478764
0.068726 -0.497239 0.013136
0.072908 -0.168473 0.466263
-0.229305 -0.414062 0.273867
0.267099 0.437820 -0.240407
0.255166 0.268544 0.417596
-0.122476 0.308308 0.389251
-0.054421 0.055700 -0.497275
-0.271837 -0.350882 0.350663
-0.206589 -0.078562 -0.493827
0.243490 0.056417 -0.497211
-0.128896 -0.277104 0.411208
0.001668 0.459877 0.189986
0.181657 0.281455 0.408972
0.059699 -0.007683 -0.500248
0.218784 -0.481458 -0.127486
-0.115964 0.141449 -0.479833
0.163258 0.371845 0.329720
0.086125 -0.288596 0.403460
0.116334 -0.459131 -0.193672
-0.022220 -0.473328 -0.155504
-0.255542 -0.497575 0.001645
0.177897 -0.040600 -0.498571
0.062089 -0.280737 0.408810
0.242016 -0.243440 -0.436472
0.241142 0.246257 0.431175
-0.090008 -0.466681 0.170104
0.079963 0.222003 0.443945
-0.007479 0.470502 0.162313
0.113097 -0.445215 0.220064
0.193397 0.033493 0.494783
-0.010262 0.467585 -0.174779
0.184764 -0.374377 0.325658
0.129378 -0.305807 0.390476
0.174376 0.216056 -0.451074
0.214481 -0.490213 -0.087866
0.032472 0.285500 -0.410695
0.172898 -0.151396 -0.476427
-0.151018 0.041655 -0.498413
-0.018423 -0.487330 -0.101965
0.202356 0.369478 0.332479
0.151354 0.010822 0.495800
-0.005054 0.383854 0.315725
-0.189165 -0.005127 0.495741
-0.228618 0.434428 -0.246850
-0.078794 -0.427846 0.251770
-0.234564 0.485572 0.110896
-0.108119 -0.101267 0.485249
-0.079916 -0.314422 -0.387912
0.193044 0.164079 0.468287
-0.280024 0.423108 0.261487
-0.169384 0.291031 -0.406749
-0.229499 -0.056919 0.492636
0.024137 -0.497401 0.009531
0.083186 0.430116 -0.254082
-0.058588 -0.395369 -0.304216
0.125851 0.495187 0.056214
0.260777 0.460434 -0.193497
-0.193138 0.252983 0.427082
-0.055556 0.252952 -0.431416
0.016801 -0.312283 -0.389618
-0.027005 -0.092928 0.486996
-0.040131 -0.493805 0.058155
-0.190344 0.267553 -0.422544
-0.055146 0.486992 -0.108748
0.105668 0.431327 0.247516
-0.224880 0.293797 0.400340
-0.288500 -0.260964 0.421863
-0.242669 0.475985 -0.150079
-0.033419 0.388167 -0.314704
-0.249185 -0.327193 -0.377183
-0.174500 0.235367 -0.441500
-0.165235 -0.352111 -0.353794
0.092142 0.134020 -0.481884
0.169500 0.314914 -0.388522
-0.021230 0.447404 0.217437
-0.247768 -0.248473 -0.433560
0.179952 -0.104402 -0.489050
-0.162295 0.303063 0.393433
-0.289084 0.490979 0.085086
0.139704 0.296002 -0.402999
0.180731 0.351931 -0.354994
-0.282354 0.366432 0.335783
-0.046865 0.081534 0.489138
-0.215954 0.467276 0.171667
-0.072303 0.091214 0.487472
-0.258278 -0.087973 -0.492207
0.149015 -0.387432 -0.314714
0.099273 0.229321 0.440092
-0.056549 -0.497278 -0.014867
-0.180618 0.064873 0.491705
-0.125468 0.231367 0.439015
-0.206783 -0.473087 -0.156204
-0.160407 0.022520 -0.499799
-0.144475 -0.255923 0.424771
-0.136888 -0.293767 -0.403998
0.236955 -0.287384 -0.408461
0.018832 0.125272 0.479980
0.149099 -0.304791 0.391242
0.272649 0.478409 -0.142135
-0.236745 0.343761 -0.362947
-0.174557 -0.293589 -0.404122
-0.073411 0.347940 0.354778
-0.286851 0.311717 0.386533
0.257149 0.332174 0.369246
-0.043100 0.498252 -0.017771
-0.030871 0.311320 0.386849
0.024380 -0.435495 0.238524
0.208502 -0.482886 -0.122312
-0.157421 0.258806 0.423532
0.214767 0.035984 -0.498873
-0.020318 -0.075987 0.489878
-0.044385 0.450212 -0.216276
0.156033 -0.487579 0.097571
0.286960 0.417504 -0.274764
-0.146427 0.282943 -0.412383
0.095177 -0.487980 0.095237
0.175386 0.496152 0.046327
-0.080689 -0.450249 -0.213937
0.077434 0.238691 0.435159
-0.184156 -0.436081 -0.241791
0.271306 -0.479564 0.130637
-0.041627 0.414571 0.274418
0.130614 -0.464349 0.176319
-0.286058 -0.343104 0.358236
0.207465 -0.244004 0.431606
0.144062 -0.314939 0.383268
0.240685 0.260877 0.422269
-0.036921 -0.487684 0.096958
-0.067585 -0.389920 -0.311438
0.222117 0.300896 0.395161
-0.262062 -0.077352 0.489681
-0.046025 0.394757 -0.306439
-0.065485 -0.297841 0.396485
0.060194 0.210879 0.449198
-0.277304 -0.225552 -0.445891
-0.157340 -0.184265 -0.464681
0.182337 -0.442479 -0.229706
-0.140989 -0.206767 0.450793
-0.139333 0.485555 0.110977
0.279627 -0.206831 0.450762
0.036435 0.443327 0.225712
0.013299 -0.294037 -0.403809
0.109888 -0.079233 -0.493711
0.213985 -0.225431 0.441596
0.067474 -0.495825 0.039459
-0.045028 -0.326632 -0.377691
0.000876 -0.495170 -0.050162
0.034811 -0.131047 -0.482636
0.193269 0.331807 -0.374026
0.230626 0.441594 -0.233241
0.243818 -0.448034 -0.218432
0.269169 -0.473005 -0.156440
-0.116220 -0.438553 -0.237480
0.125205 -0.279330 -0.414094
-0.117624 -0.199180 -0.458341
-0.081886 -0.377376 -0.326433
-0.134991 0.146410 -0.478464
-0.126273 0.055544 -0.497288
-0.053778 0.446704 -0.223535
-0.155327 0.325229 -0.379671
0.118787 -0.497527 -0.001013
0.118296 -0.193964 -0.460682
-0.120200 -0.259765 -0.426676
-0.032354 -0.221339 -0.448109
0.274126 -0.475732 0.143196
-0.287970 0.109910 -0.488006
0.255001 0.323960 -0.380760
-0.097495 -0.492676 0.067962
-0.065329 -0.000216 -0.500209
0.036287 -0.423213 0.259371
0.151024 0.210880 -0.453625
0.000064 0.497484 0.029885
-0.137768 -0.151237 -0.476476
0.029348 0.437514 0.236728
-0.240311 -0.310314 0.387075
0.193915 -0.278294 -0.414819
0.283337 0.072553 -0.494876
0.085603 0.126172 -0.484050
-0.146247 -0.446367 -0.221816
0.186671 0.490569 0.087043
0.183818 0.104022 -0.489239
-0.288301 0.399807 -0.300068
0.027405 -0.419630 -0.269557
-0.089475 0.484830 0.114436
-0.048128 0.184011 0.460808
0.097648 -0.314881 0.383317
-0.166056 0.418040 -0.273890
0.178217 -0.011348 -0.500083
0.095060 -0.477970 0.135864
0.250314 -0.190476 0.457678
0.006797 -0.490498 -0.085891
-0.028597 -0.420971 0.263047
-0.283758 0.447890 -0.221284
-0.063593 0.476964 -0.146870
0.283463 -0.292882 -0.404616
0.232737 0.082280 0.489010
-0.266916 0.484765 0.114750
-0.202161 -0.495817 -0.042172
0.033166 0.461888 0.185165
0.239412 -0.047083 -0.497870
0.203713 0.120163 -0.485709
-0.258232 -0.462579 0.181036
-0.231316 -0.126496 0.479325
0.202002 -0.312537 -0.389415
-0.273400 -0.311159 -0.390514
0.250654 0.365433 -0.341018
0.153410 -0.476750 0.139861
-0.080777 0.385824 0.313430
0.059890 0.464680 -0.182521
-0.286168 -0.288983 -0.407343
0.013196 0.314986 -0.388460
-0.270634 0.148606 -0.477822
0.174894 0.205872 -0.456040
-0.177485 0.497309 -0.038787
-0.199885 -0.497531 -0.000799
-0.039409 -0.218353 0.445084
0.238807 0.480715 0.129537
0.184828 -0.263115 0.420443
-0.033245 0.328147 -0.377167
-0.287114 0.285938 -0.410406
0.154163 -0.266804 -0.422384
0.196248 0.023225 -0.499786
-0.260034 -0.474245 -0.152844
-0.147056 0.494903 0.058179
-0.279022 -0.450969 -0.212477
-0.000967 0.180783 -0.466500
0.216624 0.412980 -0.281233
0.069668 -0.325706 -0.378530
0.011976 0.325827 0.374995
0.089335 0.379330 -0.325674
0.150263 0.277159 0.411976
-0.106985 0.352719 -0.354226
-0.166143 0.234771 0.437223
-0.222479 0.249937 0.428939
-0.100889 0.322095 -0.382360
-0.084148 -0.229620 -0.443749
-0.012563 0.271078 0.416050
0.145569 0.472057 -0.162862
0.170619 0.097085 -0.490693
-0.191586 -0.367588 -0.337841
0.005157 0.187761 0.459400
-0.002111 -0.373797 0.326298
-0.233310 -0.462181 0.182097
0.198475 0.240819 0.434039
-0.145127 -0.361614 -0.344033
-0.065800 0.254056 0.426428
0.039087 -0.414127 -0.277892
-0.242519 -0.459602 -0.192541
-0.259395 -0.482941 0.117128
0.162808 -0.252624 0.426663
0.234310 0.355933 -0.351097
0.284722 -0.217623 0.445444
-0.136308 -0.213323 -0.451995
-0.136974 0.217767 -0.450231
-0.225497 -0.470394 0.160209
0.073536 0.498220 0.015090
-0.261474 -0.319973 0.378948
0.264057 0.468017 0.169518
-0.024172 -0.487605 0.097416
0.244258 -0.126092 -0.483895
-0.240505 0.495080 0.056951
-0.136985 0.268868 0.417398
-0.158510 0.377025 -0.328220
0.015100 0.498167 0.018023
0.141706 0.205353 -0.456256
0.056142 -0.258546 0.423267
0.100396 -0.053768 -0.497148
0.005112 -0.041829 -0.498438
0.154121 -0.330295 0.370091
0.051301 0.465016 0.177661
-0.251209 -0.339316 0.361924
-0.231765 0.073548 -0.494733
0.118318 -0.450518 0.208957
0.196789 0.498369 0.006834
-0.032602 0.343771 -0.362938
0.180972 0.492001 0.078237
0.006209 -0.363878 0.337250
0.223535 -0.334101 0.366825
0.271556 -0.144002 0.474492
0.074900 -0.448171 -0.218155
0.265208 0.491149 0.084127
-0.058783 -0.492537 0.068770
0.094091 0.358667 -0.348435
-0.050656 -0.336921 -0.368372
-0.147006 -0.279239 -0.414158
-0.191080 0.402557 0.291693
0.235163 0.459153 0.191723
-0.287493 -0.093175 0.486944
-0.138312 0.470636 -0.166648
-0.076614 -0.454280 -0.205307
-0.185501 0.051334 -0.497629
-0.255612 -0.475130 0.145172
-0.116268 0.469504 -0.169665
0.284246 0.487952 0.099535
-0.228321 -0.264995 0.419202
-0.260694 -0.073190 -0.494752
-0.202459 0.336009 0.365773
-0.145955 -0.085762 0.488464
-0.210263 -0.452690 -0.208985
-0.274925 0.272599 -0.419212
-0.248980 0.210407 -0.453858
0.260588 0.152172 0.472150
0.286847 0.492244 0.076558
0.107635 -0.065738 0.491361
0.079512 0.488939 -0.099975
0.285123 -0.338082 0.363125
-0.124350 0.420459 0.265500
0.081676 -0.142638 0.474869
0.052782 0.281090 -0.413606
0.097483 0.265816 -0.423690
-0.236530 0.024509 -0.499763
-0.037774 0.222473 0.443698
-0.258974 -0.048495 -0.497718
-0.157335 -0.483578 0.114446
0.281755 -0.120587 -0.485204
-0.015041 -0.289417 -0.407040
-0.178801 -0.491966 0.072087
-0.272592 0.333477 -0.372593
-0.080973 0.496154 -0.050254
-0.218888 -0.291992 -0.405239
0.136865 0.020053 0.495386
0.052062 0.435375 0.240457
-0.194421 -0.206728 -0.454954
0.201088 0.493317 0.069137
-0.043910 0.304308 0.392441
-0.147879 -0.466027 0.171847
0.167123 -0.168846 -0.470467
0.192468 -0.432280 -0.248420
0.263034 0.379564 0.320725
-0.088189 -0.454035 -0.205894
-0.235584 0.352360 0.350237
-0.082907 -0.180406 0.461876
-0.157885 -0.051594 -0.497383
0.259462 0.498123 0.020500
-0.002936 0.477908 0.139707
0.260316 -0.361886 0.339449
-0.075896 -0.105337 0.484396
0.203019 0.422574 0.262296
0.111051 0.472465 -0.161616
-0.039958 -0.148828 -0.477211
-0.040340 -0.368335 -0.336970
-0.259320 -0.436050 -0.241847
-0.287707 0.240019 -0.438832
0.212863 -0.485256 -0.111865
0.138064 0.369111 0.332907
0.059604 -0.308176 -0.392892
0.193632 -0.177625 -0.467173
-0.140065 0.492018 -0.082090
-0.125199 0.126949 0.479582
0.097493 0.361420 0.340931
-0.225713 0.481279 -0.132730
0.032962 0.284978 0.406508
-0.080740 0.367635 -0.338587
0.072486 0.484768 -0.118104
0.081144 0.165673 0.467689
-0.102991 -0.497426 -0.006628
0.262611 -0.433636 0.242054
-0.083629 -0.352674 -0.353215
-0.049221 -0.351789 0.349781
0.059317 0.317663 -0.386163
-0.205362 0.483735 -0.122451
-0.264047 0.282029 0.408570
0.276794 -0.321664 0.377497
-0.156400 -0.054077 0.492970
0.105324 -0.452266 0.205062
0.196636 0.349965 0.352698
-0.289991 0.197512 0.455196
0.140787 -0.319238 -0.384072
-0.174921 -0.497171 0.014668
-0.179167 0.150761 0.472580
0.286927 -0.162618 -0.472804
-0.188397 -0.159286 -0.474020
-0.248615 0.480598 0.129961
0.241573 0.435281 -0.245231
-0.094618 0.387768 -0.315205
-0.125648 0.497455 -0.035529
-0.272321 0.461318 0.186532
-0.013830 0.399107 -0.300984
-0.095233 -0.494475 -0.058402
-0.097178 -0.253396 0.426220
-0.157803 -0.272476 -0.418888
0.192139 -0.287667 -0.408264
0.269247 0.474681 -0.154355
0.156931 0.491906 0.078890
-0.135336 -0.242026 -0.437216
-0.210934 0.059044 0.492335
-0.112299 0.257984 -0.428530
0.046228 -0.092103 0.487168
-0.287270 0.486062 -0.112661
0.154795 -0.497053 -0.026916
