-0.129897 -0.236167 -0.440301
-0.265998 0.127931 0.479348
-0.278175 0.116369 0.482096
0.062246 -0.369776 -0.335291
0.080390 0.070644 -0.495153
0.150496 0.426723 -0.259647
0.238433 0.293071 -0.405210
-0.076604 -0.290330 -0.406402
0.111827 -0.495555 -0.045405
-0.048928 -0.289051 0.403116
0.183993 -0.140908 0.475346
-0.246983 0.449130 0.213935
-0.095534 -0.492416 -0.072638
0.269716 -0.017995 -0.499785
-0.289147 0.294839 0.399611
0.053533 -0.416071 0.270995
-0.020630 0.090442 0.487604
0.248327 0.483848 -0.121978
-0.129977 0.432714 0.245098
-0.170385 -0.236870 0.435697
-0.290180 0.498344 0.008220
-0.262387 0.068385 -0.495480
0.200410 0.392828 0.304589
-0.109744 -0.349985 -0.355977
0.242995 0.341404 -0.365241
0.263249 -0.437420 -0.239458
-0.171271 -0.437245 -0.239762
-0.017396 0.467450 0.171161
0.003360 0.407546 0.285060
-0.071807 0.269762 -0.421085
-0.218223 -0.231478 -0.442770
-0.219831 0.437190 0.237292
0.092097 -0.245998 -0.435069
-0.289540 -0.335289 -0.369851
0.113289 -0.446043 -0.222472
-0.081376 -0.112522 -0.487120
-0.287679 0.491752 -0.083635
0.216734 0.094725 -0.491187
-0.267752 0.423794 -0.264451
-0.049565 0.182396 -0.465827
0.054738 -0.179430 -0.466495
-0.144202 -0.495514 -0.045916
0.105055 -0.094691 -0.491050
0.167505 0.496074 -0.050993
-0.288093 0.428581 -0.256600
0.253889 -0.488216 0.093869
-0.174760 -0.403734 -0.293128
-0.116315 -0.134253 -0.481658
-0.258421 -0.182289 0.461091
0.133001 0.162470 0.468891
0.125935 -0.432119 -0.248701
-0.191671 -0.181358 0.461479
0.151675 -0.237894 -0.439392
-0.289553 0.494431 0.061437
0.164900 0.137836 0.476524
0.089090 0.257527 -0.428792
0.212501 0.264977 0.419770
-0.253479 0.461507 -0.190977
0.201959 0.490304 0.088310
0.071122 -0.408922 0.281217
-0.111071 0.093354 -0.491474
0.070490 0.342464 -0.364210
0.124738 -0.404393 0.287693
0.040894 -0.360337 0.341160
0.248486 -0.496181 -0.037684
0.073365 -0.436418 0.236771
0.132289 -0.494643 -0.056661
-0.273689 -0.198993 0.454127
-0.247933 0.481845 0.125445
-0.267892 -0.125474 -0.484042
0.036325 0.211838 -0.453153
-0.085324 0.158280 -0.474486
0.152322 -0.162905 0.468183
-0.176803 0.448377 -0.220358
-0.264456 0.493229 0.069748
0.165333 0.494054 -0.069691
-0.155947 -0.045658 -0.498024
-0.125465 0.166400 0.467416
-0.195709 0.496596 -0.046162
-0.180596 -0.484566 -0.115156
-0.072589 0.262363 0.421363
-0.008372 -0.474849 0.146091
-0.244217 -0.110935 -0.487497
-0.216753 -0.475901 -0.147617
-0.158339 0.422591 -0.266424
-0.236516 -0.025564 -0.499446
0.024592 -0.497271 -0.015274
0.140949 0.032499 0.494827
-0.002844 -0.443082 0.224115
-0.283734 -0.454570 -0.204611
0.140552 -0.342142 0.359172
-0.159873 0.117086 -0.486503
-0.004554 -0.462157 -0.186413
0.019190 0.466315 -0.178163
-0.000654 -0.320099 0.378840
0.021225 0.089584 0.487752
-0.049831 -0.448042 0.214475
0.087717 -0.495578 -0.045115
-0.176016 0.453041 0.205997
-0.253757 0.085847 0.488396
0.219421 0.396302 -0.304502
-0.120425 0.382387 -0.321953
-0.191694 0.487045 0.103863
0.081462 -0.087419 -0.492302
-0.285072 -0.458680 -0.194753
-0.139961 0.489217 -0.098360
0.172543 -0.345107 0.356286
0.285635 -0.466619 -0.174953
0.078841 -0.182730 -0.465257
0.240667 0.290584 0.402587
0.075155 -0.278052 0.410582
0.049329 0.473647 -0.157743
-0.024107 -0.428958 0.249947
-0.079615 0.296610 -0.402540
0.002520 0.034434 -0.498998
-0.139507 0.320883 0.379224
0.079423 -0.402704 0.290108
0.166518 -0.459077 -0.193801
0.131020 0.415503 -0.277625
0.036823 0.050604 0.493247
-0.254541 0.497916 0.024562
0.224991 -0.358585 0.343094
-0.078672 0.449822 -0.217144
0.005411 0.497242 0.032875
0.057317 -0.467147 0.168863
0.285371 0.204241 0.452177
0.131341 -0.359189 0.342427
-0.129197 -0.497614 0.003777
-0.044207 -0.312627 0.385252
-0.150331 -0.290461 0.402053
-0.150760 0.252638 -0.431596
0.095265 0.422856 -0.265989
0.087541 -0.334852 -0.370246
0.228538 0.445507 -0.225808
-0.066446 -0.429149 0.249634
0.043296 0.383151 0.316545
-0.204496 0.467139 0.172063
0.284809 -0.066126 0.491305
0.028514 -0.291269 -0.405745
0.182681 -0.004495 -0.500286
0.261329 0.120207 0.481184
-0.250320 -0.244032 -0.436160
0.123015 -0.170462 -0.469860
0.264773 0.483422 0.119731
-0.207024 0.222894 0.443476
0.154086 -0.388916 -0.312769
0.057484 -0.459917 -0.191785
0.250499 -0.118217 -0.485767
0.230261 0.131544 0.478444
0.088403 -0.293031 -0.404512
0.258829 -0.034357 0.494568
0.128178 0.408094 0.284230
0.009637 -0.465782 0.172499
0.170083 0.462659 0.183314
0.034241 -0.238360 0.434843
0.195715 -0.497545 0.006328
0.108017 0.342225 0.360143
0.139540 0.469553 -0.169536
0.147578 -0.190027 -0.462449
0.156438 -0.032813 -0.499121
0.193944 -0.482714 0.118083
0.026800 -0.414568 -0.277224
-0.264213 0.441132 -0.234118
0.282733 0.038357 0.494565
0.142290 0.478058 0.139162
-0.196201 0.498035 -0.022599
0.259241 -0.148820 0.473042
0.098868 -0.301256 0.393908
-0.253330 -0.090663 -0.491743
0.244955 0.493208 0.069895
-0.129085 -0.048881 0.493391
-0.286161 -0.448495 0.213466
-0.253172 -0.203605 -0.456356
-0.207759 -0.395221 0.300218
0.271218 0.177263 0.463339
0.226627 -0.446706 -0.221128
-0.072132 0.392942 0.304437
-0.194318 -0.316624 0.381822
0.143685 0.410907 -0.284197
-0.008841 -0.327642 -0.376776
-0.119381 -0.096420 -0.490752
0.003335 0.494747 0.059255
0.082371 -0.160812 -0.473481
-0.044695 -0.334175 0.366762
-0.261766 -0.055952 0.492776
-0.106472 0.427383 -0.258564
-0.111306 0.487793 0.100292
0.095710 0.496570 -0.046405
0.112225 0.491457 0.081993
-0.026350 0.065004 -0.495969
-0.137822 -0.434231 0.240925
0.025010 0.491583 -0.084615
0.108025 -0.181826 0.461284
0.143577 0.273648 0.414432
-0.157731 0.291965 0.401621
0.118397 0.144444 0.474508
0.251784 0.355036 0.347488
-0.146095 -0.127580 -0.483542
0.098649 -0.393228 -0.307054
-0.278777 -0.262962 0.420544
0.197280 -0.079929 0.489308
-0.241063 0.496465 -0.047379
0.232912 0.266975 0.418552
-0.278253 0.146126 -0.478542
-0.237837 0.496183 0.045950
-0.146067 -0.424629 0.257047
-0.250126 -0.489509 0.086357
-0.069693 -0.017444 -0.499810
0.188234 -0.491333 0.075765
0.035803 0.494661 -0.064073
0.031106 -0.457724 0.192899
0.058945 -0.117815 -0.485862
-0.167067 0.210178 0.449512
-0.158141 0.434816 -0.246114
0.170346 -0.148498 -0.477312
0.061658 -0.290993 -0.405938
0.140505 -0.263333 -0.424501
0.113675 0.435703 0.239885
0.006296 -0.153495 -0.475787
-0.245537 -0.445751 0.219045
0.025319 0.497659 -0.030988
0.045605 -0.401413 0.291953
0.001378 0.269735 -0.421103
-0.130275 -0.311372 0.386277
-0.091394 -0.135511 0.476836
0.258156 0.158651 0.470173
-0.201161 -0.496575 -0.032815
0.242646 -0.467097 -0.173566
-0.089884 0.401726 0.292795
0.211852 0.498008 -0.023209
-0.027016 -0.398607 0.295965
-0.137733 0.026119 0.495113
-0.150811 -0.256119 -0.428899
-0.013505 0.253984 -0.430824
-0.152837 0.265852 -0.423666
-0.190255 0.451106 -0.214283
0.181549 -0.462460 0.181354
0.164516 0.497467 0.030104
-0.140662 -0.113588 0.482667
-0.231687 0.483934 -0.121613
0.034032 -0.396276 0.298896
-0.175968 -0.483292 0.115653
-0.021259 -0.497392 -0.008520
-0.038443 0.272878 -0.419028
0.222277 0.246597 -0.435060
0.207689 -0.291881 -0.405317
0.106942 -0.362478 -0.343145
-0.290028 -0.180969 -0.465918
0.240887 -0.460206 0.187360
0.275200 -0.486944 -0.103806
0.125689 0.303348 -0.397457
0.159856 -0.401104 0.292395
-0.121093 -0.190442 0.457692
-0.102300 0.453127 0.205823
0.179699 0.378506 -0.326585
-0.022565 -0.485854 -0.109012
-0.116566 0.002713 -0.500156
0.278205 -0.361154 -0.344505
-0.097230 -0.497195 -0.019475
0.193842 0.440263 -0.235768
-0.273300 -0.135193 0.476924
0.053768 -0.035575 -0.498997
-0.163236 0.497398 -0.036813
-0.021255 -0.210016 -0.453479
0.070600 0.494560 -0.065007
-0.167209 0.274942 0.413527
0.078754 -0.493159 0.064135
0.028109 0.110966 0.483380
-0.123423 -0.264197 -0.423974
-0.124660 -0.363626 0.337528
0.215715 0.082524 -0.493434
-0.051528 0.008813 -0.500046
0.169728 -0.402327 -0.294993
-0.240972 -0.349470 -0.356507
0.205381 -0.267773 0.417368
0.140598 0.347567 0.355160
0.020635 -0.497000 0.018466
-0.155089 0.469266 -0.170301
0.120329 0.079678 -0.493846
-0.286475 0.064265 0.491771
0.121132 -0.444634 0.221166
0.115783 0.326036 0.374806
-0.214644 0.381227 0.318786
0.101017 -0.464136 -0.181668
-0.084334 -0.491675 -0.077758
-0.096287 -0.350414 -0.355537
0.070017 0.321389 -0.382966
0.138845 0.403289 0.290722
0.163354 0.085783 0.488407
0.101186 -0.283309 -0.411311
0.062570 -0.396053 -0.303309
0.011371 -0.451425 -0.211551
-0.105391 0.210730 0.449265
-0.064996 0.373321 0.328001
-0.039043 0.164349 0.468185
0.190695 0.135603 -0.481447
-0.233898 0.441346 0.229731
0.286603 -0.351542 -0.354379
-0.229001 0.253414 0.426819
-0.024412 0.496060 -0.051122
-0.018426 0.148212 -0.477958
0.209545 -0.113583 -0.486868
0.081935 0.007747 -0.500065
0.139464 -0.186665 0.459267
-0.096047 -0.147534 0.473485
0.119975 0.496511 -0.046953
-0.153261 -0.218941 -0.449372
-0.025481 -0.496632 -0.032115
-0.078068 -0.079496 -0.493666
-0.081873 0.145262 0.474258
-0.221225 0.442886 0.226606
0.198816 -0.479709 0.130162
-0.168979 -0.273267 0.413741
-0.065339 0.120233 0.481178
-0.129817 -0.437521 0.234677
0.053032 -0.456465 0.195704
-0.032757 -0.145427 -0.478249
0.169495 -0.494812 -0.054579
0.249023 0.092344 0.487277
-0.116536 0.138290 -0.480705
0.104232 0.497163 0.033857
-0.168412 -0.432900 0.099779
0.093665 -0.229994 -0.383102
0.264818 0.042972 0.441010
0.266023 -0.343380 0.280879
0.285507 0.283614 -0.346034
-0.235890 -0.285052 -0.343950
0.190915 -0.155132 0.414978
0.250773 0.281277 -0.347846
0.067412 0.189233 -0.405623
0.159854 -0.153054 0.415726
-0.126565 0.400322 0.193823
-0.268184 -0.240780 -0.376492
-0.009742 -0.368401 -0.251418
0.125378 0.270680 0.351713
0.241902 -0.188289 0.401235
0.073515 0.110531 0.429433
0.249568 -0.002570 0.443161
-0.034904 -0.400016 0.192413
-0.115734 0.078015 0.436313
-0.145817 0.340245 -0.290056
-0.287979 -0.026828 0.442399
0.070642 0.202537 -0.398917
0.036822 0.434681 -0.100749
0.145770 0.314107 0.313858
-0.057265 0.013049 0.442864
0.248286 0.019978 -0.447000
0.213935 0.334101 0.292672
-0.039532 0.012339 0.442887
-0.071950 -0.429385 0.113913
0.269439 -0.336494 0.288795
0.063450 -0.436717 -0.087055
-0.087152 0.387375 0.218290
0.258903 -0.441175 -0.059492
-0.067399 0.292282 -0.338480
-0.027147 0.044009 0.440912
0.170545 -0.428474 -0.121400
0.080268 0.439909 0.069598
0.024663 -0.411093 -0.172043
-0.184913 0.381300 -0.232916
-0.028687 0.346874 0.277696
0.058165 -0.090065 -0.438132
0.275256 0.168991 -0.414383
-0.195888 -0.249911 0.365933
-0.033080 0.422025 0.141363
-0.233360 0.443987 0.037229
-0.256123 -0.364871 -0.256611
0.011159 0.359610 -0.265630
-0.142263 0.073667 0.437002
-0.221622 -0.423931 -0.137038
0.019602 -0.038868 0.441301
-0.142135 -0.393087 -0.210365
-0.142159 -0.359263 -0.264756
0.177073 -0.442867 0.038236
-0.033832 0.219798 -0.389737
0.206111 -0.298745 -0.331878
-0.172371 -0.442965 0.037202
-0.011853 0.368497 -0.252784
-0.021360 -0.197137 -0.401146
0.270163 -0.097549 -0.436459
-0.117027 -0.143400 -0.423555
0.283704 0.354334 -0.272432
-0.116993 0.428742 0.119650
-0.040946 0.317586 0.310379
-0.230207 0.261028 0.359074
0.160480 0.444009 -0.041354
-0.076828 -0.438888 -0.073933
-0.104576 0.283854 -0.345847
-0.120272 -0.027976 -0.446684
-0.132111 -0.441960 0.047837
0.008459 -0.327056 -0.303853
-0.278539 0.439133 -0.078850
0.023257 0.224648 -0.386869
0.120505 0.414004 0.163333
-0.078975 -0.320159 -0.311134
0.238541 -0.428418 0.117241
-0.016094 -0.082305 0.435471
-0.145711 0.005971 0.443087
0.078785 -0.414384 0.159740
0.098225 -0.382920 0.224089
0.237664 -0.058960 -0.443522
0.013117 -0.376081 0.235654
0.147164 -0.444604 -0.012309
0.223717 0.065196 -0.442697
-0.116312 0.229213 0.379816
-0.277445 0.320864 0.307101
0.163719 0.228844 0.380034
-0.198434 -0.008871 0.442963
-0.218852 -0.345813 0.277742
0.207138 -0.167141 0.410387
0.059862 -0.420829 -0.146193
-0.132764 0.330291 0.296993
0.027547 0.445041 0.026088
-0.029418 -0.205660 -0.396803
-0.194077 0.436326 0.089037
-0.212196 0.406013 0.181797
-0.208370 -0.100674 -0.435761
0.259735 0.173984 0.407869
-0.054460 -0.441239 -0.059087
0.014169 -0.258485 -0.364460
0.135642 -0.148195 -0.421829
-0.210178 -0.387524 0.216305
-0.213651 0.278587 -0.349933
0.046756 0.370071 0.246114
-0.067604 -0.404203 -0.187966
0.211289 0.094875 0.432933
-0.104550 -0.418265 0.148960
-0.133056 0.001344 -0.447586
-0.267836 0.403826 0.186851
-0.197131 0.003003 0.443180
-0.224655 0.053580 -0.444360
-0.263190 -0.200105 0.395280
0.007212 -0.395661 0.200960
-0.071496 -0.369020 -0.250507
-0.257863 -0.381734 -0.230449
0.162068 -0.284186 0.340360
-0.210063 0.090936 0.433813
-0.079292 0.417455 -0.158409
0.223783 0.080920 0.435853
0.271329 0.048246 -0.444864
0.080924 0.021371 -0.446956
-0.266060 0.382456 0.226607
-0.222568 -0.432277 -0.106920
0.242330 0.293377 -0.337514
-0.191813 -0.327210 -0.303679
0.240966 0.029215 -0.446663
-0.240420 0.441114 0.061992
-0.123871 0.436051 0.090266
-0.135387 -0.205851 -0.396706
0.168074 -0.433181 0.098520
-0.247017 -0.126018 0.424687
-0.018072 0.383787 0.224356
0.101346 -0.030478 0.442094
-0.000460 -0.319843 0.307097
0.188900 0.184776 0.403199
-0.113813 -0.406631 0.178003
0.190323 -0.438937 0.069269
-0.186722 -0.424580 0.130452
0.144925 -0.442274 0.044517
-0.059899 0.314389 -0.317929
-0.032082 -0.388115 0.215305
0.053724 -0.428228 0.117895
-0.176319 -0.086255 -0.438984
0.190644 0.399910 0.194633
-0.200419 -0.173852 0.407482
0.122044 -0.024214 0.442481
-0.139089 0.416656 -0.160628
0.207596 -0.248963 0.366577
-0.063216 0.412961 0.165742
-0.263854 -0.405832 -0.184201
-0.206603 0.435659 0.092022
0.096664 0.444288 0.034045
0.229717 -0.243414 0.370349
0.284305 0.417933 -0.157083
-0.251141 0.114897 0.428215
-0.263988 0.445329 -0.021858
0.275497 -0.303587 -0.327609
0.262655 0.365806 0.252391
0.110606 0.439404 -0.077142
-0.026217 -0.221891 0.383540
0.221510 -0.444731 -0.008271
0.087023 0.393536 0.207141
-0.122625 -0.177464 -0.410273
-0.103422 0.033149 -0.446292
-0.185401 -0.417504 -0.155428
-0.083588 -0.380300 -0.232872
-0.147020 0.062352 0.438794
-0.197901 -0.396684 -0.203305
0.069727 -0.279638 0.343970
-0.081320 -0.000038 -0.447594
-0.149336 -0.410579 -0.173232
0.075035 0.138284 -0.425766
0.208666 -0.118954 -0.431093
0.153907 -0.171394 -0.412900
0.057883 -0.059793 0.439037
-0.261483 0.391326 -0.215833
-0.107913 0.192237 0.399812
0.050746 -0.425130 -0.132910
-0.223641 -0.020025 0.442613
-0.157009 -0.323196 0.303745
-0.164614 -0.160023 0.413217
0.087562 -0.415852 -0.160015
0.059530 -0.234544 -0.380411
0.101387 0.315752 0.312213
-0.009864 -0.060859 -0.443221
0.035313 0.359678 0.261190
0.176233 0.304496 0.323358
0.130689 0.411755 0.168529
0.186103 -0.406716 -0.182159
0.244529 -0.332489 -0.297691
0.221460 -0.115665 0.427695
-0.014959 0.427096 -0.129672
-0.189443 0.065390 -0.442666
-0.094376 -0.403236 0.185847
-0.179908 -0.097714 -0.436423
-0.156575 -0.141503 -0.424238
-0.153625 -0.441697 0.050618
-0.098048 -0.215994 0.387028
0.057828 0.221521 0.384365
-0.025470 -0.421369 -0.144690
0.058996 -0.416819 -0.157329
-0.074179 -0.438679 0.070895
-0.161474 0.413506 0.164483
0.209656 -0.068346 0.437682
-0.099240 -0.005369 -0.447427
0.182094 -0.366328 0.250115
0.266294 -0.432570 -0.105609
-0.010339 0.441394 0.060226
-0.009720 -0.157835 -0.418358
0.067652 0.242280 -0.376169
-0.246117 -0.400369 -0.196073
0.143114 0.053352 0.440028
0.246659 -0.441568 0.051985
-0.013980 0.066804 -0.442442
0.148922 0.182317 0.404263
0.286845 0.439782 -0.074752
0.017448 -0.350504 0.271695
-0.264608 -0.222506 -0.387530
0.093286 -0.070506 -0.441693
0.000881 -0.190707 0.400069
-0.086381 -0.444388 -0.019187
-0.271715 0.004116 -0.447499
0.231357 -0.293237 0.332381
0.269473 -0.422637 0.136815
0.110041 -0.099507 0.431668
-0.143359 -0.092535 -0.437580
0.141857 0.101211 0.431517
0.120917 -0.248096 -0.371520
-0.017245 -0.284846 -0.344131
0.037801 -0.301226 -0.329691
0.015742 0.405615 0.182719
0.022178 -0.205196 -0.397040
0.136708 -0.440125 0.061764
0.262434 -0.276500 0.346404
0.172564 0.238357 0.374408
0.128123 -0.386875 0.217402
0.202737 -0.331414 -0.298910
-0.001368 0.022912 0.442554
0.153853 -0.139965 -0.424792
0.018452 -0.444792 0.001982
-0.001249 0.033314 -0.446276
0.181927 -0.033789 0.441781
-0.000048 -0.251375 0.364938
0.244760 -0.409804 0.170669
-0.011812 0.299911 -0.331753
-0.113892 -0.212656 -0.393239
0.068807 -0.374861 -0.241911
-0.074286 -0.152887 -0.420139
-0.187849 -0.004898 -0.447442
-0.155399 0.286904 -0.343221
-0.196914 0.428642 -0.124348
-0.123708 -0.435068 -0.094432
0.224017 -0.066346 -0.442352
-0.053899 -0.364731 -0.256818
-0.167521 -0.440502 -0.063741
0.095474 -0.305530 0.321410
-0.001103 -0.442199 -0.049657
-0.290275 -0.441542 -0.056606
0.242328 -0.220501 0.384362
-0.177715 0.445256 -0.024181
0.190966 0.131873 -0.427637
0.083786 0.347922 0.276345
-0.159581 -0.402512 0.187514
0.285786 -0.089414 -0.438278
0.063778 0.442096 0.055793
0.015530 -0.019725 -0.446976
-0.130925 0.129637 -0.428287
-0.244404 0.152234 0.416390
-0.284410 -0.235621 0.375420
0.187476 -0.364964 -0.256475
-0.096899 0.420547 0.145468
0.239681 -0.425008 0.128977
-0.259948 0.300438 -0.331289
0.269818 -0.441299 -0.058706
0.140963 0.054699 -0.444254
-0.121593 0.005172 -0.447465
0.079977 0.350640 -0.277195
-0.056087 -0.092184 0.433305
-0.131566 0.421461 0.142928
0.084749 0.428858 0.119252
0.263678 0.328639 -0.303220
-0.142505 0.358960 -0.266468
-0.260022 0.326488 0.301306
-0.244802 0.068526 -0.442169
0.134862 -0.288536 0.336526
0.231062 0.156235 -0.419303
-0.017947 0.120143 0.426691
0.050597 -0.444299 -0.022009
-0.222791 0.105472 -0.434918
0.194480 -0.444733 0.003852
0.202077 0.322009 0.305956
-0.265731 0.319372 0.308593
0.148057 -0.022635 0.442531
0.178761 0.196416 -0.402035
0.237628 0.067707 -0.442299
0.232651 -0.362825 0.255268
0.164418 -0.168516 0.409792
0.214019 -0.153802 -0.419810
-0.207313 0.281399 0.343399
-0.075468 -0.063620 -0.442784
-0.275014 0.372965 0.241857
-0.161070 -0.348380 0.274433
0.020919 0.026050 0.442456
0.171644 0.178060 -0.410458
0.101951 0.001647 0.443223
-0.144365 0.158393 0.414173
0.079128 -0.029180 0.442216
0.021213 0.235289 -0.380576
0.064246 -0.379970 -0.233431
-0.112154 -0.301909 0.324736
0.200525 0.140242 -0.425061
0.095521 -0.397120 0.198097
-0.223614 -0.439882 -0.067653
-0.002250 -0.131352 0.423137
-0.141482 0.190392 0.400752
0.210658 0.241155 0.372580
0.176713 0.334561 -0.296503
0.178465 -0.352919 -0.272934
-0.153203 -0.142578 0.419498
-0.145253 -0.003874 -0.447474
-0.012814 -0.413147 -0.167298
-0.085167 -0.384333 0.221701
0.003527 0.178025 0.406120
-0.190736 0.131651 -0.427701
0.286696 -0.434403 -0.097407
0.198584 0.165230 0.411657
-0.014844 -0.206535 0.392004
0.097302 0.422797 -0.143572
0.230873 -0.215108 0.387552
-0.101508 -0.292284 0.333221
-0.278298 0.212458 0.389508
0.252438 0.165751 -0.415785
-0.126915 -0.431466 -0.110546
0.187370 -0.305492 -0.325802
0.213925 -0.237723 -0.378530
0.008256 0.348123 -0.280439
-0.248827 -0.442477 0.042370
0.033190 0.439214 -0.078341
-0.124184 -0.135400 -0.426315
-0.131071 -0.382845 0.224216
0.006898 0.050394 0.440308
-0.230670 0.133357 0.422852
0.052656 0.240484 0.373036
0.006460 -0.180710 0.404515
0.198763 0.284384 -0.345436
-0.277779 -0.153005 0.415743
-0.106186 0.161299 0.413127
-0.059950 -0.254896 -0.366899
0.195224 -0.031380 -0.446362
-0.079611 -0.408157 -0.178828
-0.067828 -0.379415 0.230016
0.007097 0.335535 -0.295399
0.209707 0.287176 -0.342981
-0.167595 -0.379243 -0.234661
0.186628 0.194205 0.398809
0.247279 -0.392378 0.207403
0.206209 0.445736 -0.008899
0.232609 0.442839 -0.053733
-0.179637 -0.082104 0.435503
0.193461 -0.419862 -0.148878
-0.127142 -0.222897 -0.387299
-0.004896 -0.156502 0.414485
-0.153491 -0.291376 -0.338375
0.038287 -0.275386 0.347268
0.018536 0.299096 -0.332473
-0.140993 -0.209470 0.390509
-0.009110 0.153031 0.416103
0.120346 -0.002700 0.443157
-0.159823 0.020841 -0.446973
-0.138011 -0.226800 0.380637
-0.151674 -0.061665 -0.443094
-0.280755 -0.312596 0.314344
0.241892 -0.168111 0.409967
-0.160754 -0.033843 0.441776
0.145685 0.294890 0.331827
0.043639 0.127674 0.424503
-0.163572 -0.313363 -0.317931
-0.114332 -0.069545 0.437492
0.119531 0.445000 -0.030867
0.123732 0.423906 -0.140490
-0.094127 -0.341347 0.283291
0.251758 0.445496 0.012183
0.097953 0.035820 0.441686
0.267890 -0.399020 -0.198720
-0.182335 -0.170635 0.408875
-0.056567 0.243411 -0.375400
-0.273895 0.311809 0.316156
0.115967 0.299912 0.327399
-0.227771 -0.382136 -0.229769
-0.030310 -0.413332 -0.166870
-0.211241 0.442543 0.052512
-0.201157 0.443336 0.044124
0.139219 -0.441577 -0.056236
0.104882 -0.416973 -0.156903
-0.083367 -0.316084 0.310856
0.224985 0.421403 -0.147445
0.232488 0.254924 0.363222
-0.181544 0.014878 -0.447160
-0.289153 0.170607 -0.413684
0.083387 0.051173 -0.444588
-0.224318 0.301961 -0.329946
0.118933 0.387565 0.217968
-0.111235 -0.433516 0.097022
-0.055322 -0.374828 0.237607
0.255337 -0.359120 -0.264940
-0.174533 -0.140302 0.420317
-0.164980 0.325558 0.302362
-0.228016 0.288723 -0.341617
-0.145432 0.402380 -0.194138
-0.252395 -0.199848 0.395412
0.079387 -0.353784 0.267467
-0.026455 0.437953 0.081756
-0.045807 -0.439196 -0.071985
-0.075577 0.197782 -0.401340
0.080255 0.272775 0.350088
-0.006149 -0.402608 0.187298
0.108233 -0.301759 -0.329221
-0.276972 0.141703 -0.424535
-0.275205 -0.328090 0.298327
0.286438 0.401177 -0.196499
0.283694 0.166870 0.410948
0.156711 0.315293 0.312672
-0.007794 -0.197290 -0.401068
-0.277617 -0.426767 0.122924
-0.095909 -0.046148 -0.444966
-0.184392 -0.362191 -0.260555
-0.157928 0.265683 -0.359942
0.252544 -0.396039 -0.204572
-0.098895 0.243060 -0.375639
-0.217361 -0.430236 -0.115337
0.231312 0.445178 -0.026663
-0.154937 -0.102922 -0.435258
0.199252 -0.422831 -0.140631
0.222678 -0.407841 -0.179559
0.201826 0.351587 -0.275974
0.204266 -0.271166 -0.354894
0.261041 -0.307596 -0.323698
-0.243302 0.422594 -0.144136
-0.120843 -0.294896 0.330918
0.062282 0.196964 -0.401756
-0.244974 0.419057 0.149605
0.187655 0.428436 0.120705
-0.278430 -0.268460 -0.356994
0.170249 0.445739 0.004464
0.013789 -0.150604 -0.420961
-0.214558 0.442555 -0.056737
0.285511 -0.377745 0.232839
0.006599 -0.167647 -0.414521
-0.123973 -0.433079 0.098977
-0.124659 0.319073 -0.313245
-0.169775 0.159484 -0.418133
-0.286148 -0.125670 0.424788
-0.114226 -0.250326 0.365651
0.115337 -0.418473 -0.152736
-0.090608 0.322208 0.305758
-0.106104 -0.439825 0.063663
0.207557 0.075359 0.436734
-0.111128 -0.005165 -0.447433
0.021984 -0.287454 -0.341833
0.158167 0.387748 0.217659
-0.261712 0.395916 0.202470
-0.207391 0.263589 0.357213
-0.212243 0.002404 -0.447552
0.148320 0.387803 -0.221920
-0.194409 0.247472 0.368287
-0.181651 -0.303378 -0.327793
-0.220971 0.415179 -0.164732
-0.095631 0.023248 -0.446897
-0.150197 0.323175 0.304790
0.047674 -0.218257 -0.390043
0.075943 -0.253123 0.363750
0.247144 -0.206215 -0.396521
-0.009131 0.186535 0.402438
-0.170204 -0.242283 0.371117
0.275754 -0.350302 0.271955
-0.052829 0.433548 -0.105815
-0.114395 -0.097853 -0.436391
-0.072861 0.246555 0.368910
0.007708 0.065682 0.438266
0.138918 0.111055 0.429316
0.162354 -0.414781 0.158636
-0.219193 0.407464 -0.182799
-0.289347 -0.290482 -0.339163
-0.262143 0.207341 -0.396469
-0.168338 -0.150820 0.416530
-0.025225 0.315491 0.312474
-0.200849 0.439769 0.070483
-0.164423 0.354722 -0.271932
-0.082358 -0.306556 -0.324738
0.150628 -0.384007 -0.226606
0.173044 0.382463 0.226595
-0.115407 0.366467 0.251418
-0.253312 -0.426546 -0.128038
-0.073241 -0.187517 -0.405923
-0.114775 -0.039857 0.441207
-0.152547 0.443524 -0.046487
-0.218716 0.069558 -0.442006
-0.172334 0.361106 -0.263659
0.170470 0.424397 -0.138961
-0.174048 0.384615 -0.227310
-0.268879 0.126034 0.424980
0.241896 0.269306 -0.357132
-0.243225 -0.116093 -0.431924
0.042337 0.241659 -0.376591
0.054036 0.365416 -0.257318
-0.105928 -0.394746 0.202756
0.160082 -0.186659 -0.406294
0.130447 -0.399349 -0.198075
0.137574 0.327210 0.300488
-0.237689 -0.311042 0.315898
0.026440 -0.185507 0.402439
-0.214137 0.237091 -0.379510
-0.006546 -0.393367 -0.209815
0.005922 0.437944 -0.086151
-0.187175 0.219550 0.385531
0.098926 0.019525 -0.447014
0.032838 -0.441714 0.050440
-0.065454 0.192886 -0.403834
-0.230258 0.367905 0.249302
0.039391 -0.342021 0.282525
-0.013136 -0.021277 0.442574
-0.125362 0.394802 0.204657
-0.210659 0.145396 -0.423205
-0.181617 0.209600 -0.395318
0.206178 -0.438247 -0.077974
-0.032693 -0.363266 0.254620
0.195366 -0.442773 -0.043592
0.185668 -0.100624 -0.435772
-0.178863 0.443834 0.038847
0.286484 -0.395740 0.200805
-0.034835 0.106552 -0.434676
-0.286984 -0.409475 0.171430
0.141173 0.274279 0.348921
0.223340 0.273521 0.349509
-0.245621 0.360849 0.259680
-0.029323 -0.441273 -0.058871
-0.083015 -0.290029 -0.339563
0.053351 -0.440173 -0.065818
0.121525 0.109707 0.429618
-0.084551 -0.116288 -0.431867
0.056329 -0.353679 -0.271955
-0.203466 0.361630 0.258535
0.155276 -0.348875 -0.278149
0.271952 -0.440523 0.059253
0.183623 0.357196 0.264389
0.237686 0.020930 0.442617
0.166012 0.056498 -0.444074
-0.123158 -0.378808 -0.235396
0.004655 -0.090944 -0.437936
-0.071978 -0.441971 -0.052076
0.127803 0.441872 0.057205
-0.260945 0.424393 -0.138973
0.107892 0.087334 0.434618
0.067161 -0.127781 0.424175
0.045335 0.445232 -0.024950
0.060321 0.437617 0.083262
-0.021725 -0.301339 0.325238
0.111630 0.183876 -0.407942
-0.281634 -0.136308 0.421697
0.099320 0.382742 -0.230476
-0.125327 -0.284693 0.339913
-0.080723 -0.421467 0.140065
-0.024788 -0.441945 0.047993
-0.144498 -0.238787 0.373493
-0.134351 0.158886 -0.418349
-0.227354 0.023852 0.442525
-0.237938 -0.384373 0.221633
-0.194313 -0.438438 0.072420
-0.115083 0.205379 0.393115
0.195573 0.445649 0.007315
-0.199645 0.347588 0.276776
-0.207328 -0.363903 -0.258036
-0.040640 -0.091230 -0.437872
0.277528 0.216978 0.387052
0.101583 0.360103 0.260641
0.153913 -0.129915 -0.427908
0.033103 0.315003 -0.317315
0.268189 -0.416913 0.152715
-0.151454 0.425082 -0.136602
0.284559 0.444919 -0.031730
-0.276918 0.059695 -0.443568
0.138495 -0.017912 -0.447033
0.275360 0.377972 -0.238543
0.011302 0.035284 -0.446090
-0.161806 0.384899 -0.226829
0.193550 -0.293637 -0.336382
-0.192964 -0.056774 0.439515
0.059363 -0.304309 -0.326973
-0.041208 0.129157 -0.428426
-0.022235 -0.365018 -0.256395
0.142767 -0.242035 0.371285
-0.243830 -0.215484 -0.391683
-0.285295 -0.205277 0.392645
-0.228244 -0.428384 -0.121710
-0.006872 -0.421023 -0.145652
0.088795 0.162774 0.412595
0.047106 0.336190 -0.294655
0.196020 -0.425376 0.127709
0.116655 -0.441089 0.055680
0.187795 -0.066024 0.438050
-0.153008 0.444563 -0.035497
0.133600 0.301728 -0.330151
-0.155629 -0.399932 -0.196932
0.024945 0.407977 0.177260
0.246327 -0.378160 0.232137
-0.272727 0.162519 -0.417040
-0.104741 -0.427119 0.121710
0.253895 0.425995 0.129108
0.229848 -0.312917 -0.318377
0.274399 0.253543 0.364161
-0.235022 -0.246601 -0.372536
0.206414 -0.425495 0.127302
-0.028566 0.088401 -0.438733
-0.070795 -0.301919 0.324727
0.050806 -0.176261 0.406440
-0.145346 0.436929 -0.090693
0.118072 -0.207858 0.391330
0.175950 -0.037979 -0.445738
0.017930 0.380324 0.230213
0.285828 -0.077915 0.436167
-0.052067 0.191099 0.400391
-0.120633 0.396733 -0.205221
0.253159 0.301101 0.326351
0.047399 -0.346092 0.277383
0.049157 0.006211 -0.447433
0.051624 0.419140 0.149375
-0.198646 -0.293367 -0.336619
0.147313 -0.033449 -0.446166
0.021463 0.421119 -0.148233
-0.031570 0.203500 -0.398426
0.164027 -0.443073 -0.040414
0.016846 0.386086 0.220469
0.034094 -0.352897 0.268610
-0.076380 -0.421392 -0.144627
-0.078396 0.227088 0.381072
0.076599 -0.395012 -0.206587
0.189782 -0.403402 0.185463
-0.269677 -0.039397 0.441251
0.001784 0.421385 -0.147495
-0.224432 0.372765 0.242150
-0.278132 -0.378942 0.230816
0.229077 -0.166379 0.410717
0.171852 0.041789 -0.445475
0.055993 -0.345835 -0.282068
0.242732 0.148595 0.417700
-0.283201 0.084067 -0.439702
0.093338 -0.284062 0.340470
0.015803 -0.378272 -0.236302
-0.275894 0.345389 -0.283963
0.061621 0.223655 -0.387456
-0.147267 0.240573 0.372975
0.227221 0.320710 0.307255
-0.004602 0.269498 0.352630
-0.000008 0.044323 -0.445235
-0.104096 -0.409856 -0.174903
-0.189286 0.240519 0.373012
-0.109395 0.434854 -0.099974
-0.100745 0.437623 0.083235
-0.099103 -0.242874 0.370715
0.054446 0.437288 -0.089085
-0.007354 0.138749 -0.425598
0.109006 -0.040649 0.441132
-0.254453 -0.416501 -0.158212
-0.035598 -0.268973 0.352242
0.214946 -0.416832 -0.157293
0.204759 0.376455 0.236721
-0.045928 -0.376828 0.234391
0.096286 0.399012 -0.200748
0.177676 0.399017 0.196384
0.116334 0.117440 -0.431830
-0.209095 0.394743 0.204773
-0.262474 0.116649 0.427706
0.124886 0.332265 -0.299107
-0.082863 0.333909 -0.297243
0.166873 0.259543 -0.364437
-0.197678 0.110460 -0.433802
-0.120182 0.445195 0.021766
-0.070872 0.388905 0.215702
0.083785 0.434287 -0.102510
0.155917 -0.387259 0.216753
-0.137303 0.388142 0.216992
-0.240583 -0.198399 -0.400503
-0.197588 0.429897 0.115677
-0.288539 0.403922 -0.190984
0.061621 0.415808 0.158630
0.099451 -0.419757 0.144816
-0.030693 -0.442295 -0.048648
-0.241246 -0.303339 0.323474
0.040161 -0.088459 -0.438491
-0.135813 0.346096 -0.283052
-0.183628 0.174658 0.407577
-0.177552 -0.430399 0.110422
0.216362 -0.235264 0.375631
0.235202 0.287244 -0.342921
-0.059195 -0.204810 0.392883
0.202091 -0.201530 -0.398908
0.013934 0.445258 -0.024120
-0.144057 -0.312984 0.313956
0.203919 -0.308496 0.318445
-0.193083 -0.164716 0.411436
0.089229 -0.265118 -0.359586
0.190386 -0.195612 -0.401923
0.035488 -0.413147 -0.167296
-0.015238 0.433949 0.099672
0.157584 0.111512 -0.433552
-0.109141 0.420117 -0.151015
-0.236677 0.238811 0.374140
0.195401 0.430159 -0.119128
0.115949 -0.433159 0.098621
-0.263706 0.445209 0.021315
-0.207070 0.201935 0.394870
0.227249 -0.396319 -0.204022
-0.047585 -0.083919 0.435153
-0.225922 -0.257240 0.360952
-0.091109 0.101733 -0.435753
-0.178929 -0.107058 -0.434334
-0.168859 0.338191 -0.292386
0.031599 0.168367 -0.414653
0.029394 0.300579 -0.331165
0.275158 -0.433867 0.095453
-0.264893 0.445821 0.001834
-0.023112 0.025016 -0.446842
0.110714 -0.444055 -0.029801
-0.000062 -0.436344 -0.088726
0.249453 -0.017707 -0.447039
-0.247312 -0.377260 -0.238013
0.191121 -0.226797 -0.384992
0.109122 -0.245342 0.369038
0.118795 -0.035998 0.441572
-0.156251 0.321228 -0.311090
0.069750 -0.444758 -0.007417
0.214996 0.224986 -0.386669
-0.277899 -0.396801 -0.203076
0.144083 -0.295065 0.330770
-0.173722 0.291110 -0.339513
0.171297 0.416075 -0.162242
-0.228448 0.064609 -0.442790
-0.223158 0.324605 0.303360
-0.035253 0.309672 -0.322646
0.105917 -0.086157 0.434652
0.138405 -0.347459 -0.279974
0.032995 0.337847 0.288422
0.226117 -0.319953 -0.311341
-0.102593 0.432789 0.104859
0.010983 -0.196380 0.397178
0.051740 0.216076 -0.391938
-0.145950 -0.365158 -0.256189
-0.037146 -0.327048 0.299510
-0.048147 -0.277414 -0.350048
-0.285340 -0.394822 0.202607
-0.159757 -0.442683 0.040186
0.266427 0.443780 -0.043773
-0.191632 -0.270982 -0.355037
0.035626 -0.202289 -0.398521
0.275122 0.058804 -0.443709
-0.289205 -0.244259 -0.374128
0.273036 0.358673 0.262484
-0.120874 0.372317 0.242810
0.051447 0.184998 -0.407456
0.022559 0.346787 -0.282161
0.082018 0.298078 0.329017
-0.171214 -0.282193 -0.346341
0.036564 -0.352547 -0.273415
-0.087716 -0.061224 0.438810
0.168608 0.140688 -0.424900
0.140900 0.305999 0.321966
0.161685 -0.374636 0.237890
-0.119252 0.285841 -0.344158
0.029231 0.285766 0.339870
-0.265666 0.277075 0.346752
-0.189403 -0.328095 0.298322
0.219736 -0.438674 0.070927
0.286244 -0.103854 -0.435050
0.021307 -0.252588 -0.368467
-0.076318 0.444253 0.034416
0.052062 -0.420134 0.143768
-0.168186 0.216076 0.387585
0.069185 -0.402637 0.187231
-0.071028 -0.400900 0.190679
0.209256 -0.137350 0.421380
0.203666 0.438825 -0.080799
0.010074 -0.062374 0.438628
0.031636 -0.438092 -0.078957
0.175292 0.286524 -0.343556
0.272756 0.366747 -0.255360
0.256571 -0.269649 0.351718
0.246380 -0.299427 -0.331277
0.076316 0.291626 0.334705
-0.229689 0.212867 -0.393653
-0.140579 -0.373409 0.239695
-0.056738 0.201893 0.394892
0.179265 0.419340 0.148821
0.156772 0.327266 -0.304777
0.245972 -0.362160 -0.260601
0.083841 -0.282873 -0.345814
-0.078904 0.412348 -0.171512
0.214047 -0.380925 -0.231816
-0.284868 0.441136 -0.066206
0.124873 -0.084629 0.434994
0.143999 0.439485 -0.076629
0.137164 0.390041 -0.218135
-0.286528 0.431633 0.109701
0.134005 0.298579 0.328575
0.040608 0.441269 0.061011
-0.198389 -0.441758 -0.054321
-0.201132 -0.386149 -0.222984
-0.275448 -0.043450 -0.445221
0.119156 0.440515 0.065775
0.260529 0.107245 -0.434521
0.192522 0.358075 -0.267609
0.040796 -0.247901 -0.371653
-0.130283 -0.424964 0.129128
-0.238385 0.087807 -0.438866
-0.026594 -0.443591 -0.034938
-0.206073 -0.393749 -0.209066
-0.180620 -0.070943 0.437271
-0.132767 -0.440655 -0.062773
0.232041 -0.049865 -0.444614
-0.189836 -0.444276 -0.022745
0.159766 -0.199052 -0.400170
-0.286449 0.329802 0.297548
0.155808 -0.442566 -0.045779
-0.127945 -0.009642 0.442939
-0.121619 -0.017035 -0.447060
-0.226301 -0.108168 -0.434086
0.246698 -0.045733 -0.445005
-0.117870 0.436786 -0.091332
-0.170857 0.374325 0.239855
0.015793 -0.027404 0.442381
-0.067222 -0.210184 -0.394498
0.123417 -0.424682 -0.134452
-0.140953 0.034067 0.441851
-0.081584 0.156295 -0.419282
0.168672 -0.114644 0.427991
0.254032 0.224336 -0.387054
-0.053192 -0.096163 -0.436769
0.087566 -0.230906 0.378208
0.044150 0.251020 -0.370229
0.284404 -0.408779 -0.177391
0.117792 -0.214488 -0.392272
0.280008 -0.285521 -0.343537
0.220178 -0.046774 0.440553
-0.227767 -0.307817 -0.323477
0.106477 -0.139448 -0.424978
0.196221 -0.407097 -0.181278
-0.137458 -0.328271 -0.302476
-0.027298 0.099035 -0.436356
-0.129838 0.443254 0.044985
0.015827 -0.099555 -0.436011
-0.125254 0.057848 -0.443860
-0.263377 -0.388542 0.214582
0.279827 -0.431146 0.107626
0.178873 -0.430776 -0.113477
-0.008554 -0.409553 -0.175603
-0.290115 -0.338953 -0.290359
-0.234392 -0.392288 0.207580
-0.251062 -0.197477 -0.400973
-0.085709 -0.444320 0.017003
0.001355 -0.143152 -0.423644
-0.227018 -0.010780 0.442903
-0.020682 -0.166382 0.410715
-0.057328 -0.418845 0.147349
0.135764 0.000945 -0.447598
-0.205957 0.362147 -0.262129
-0.138036 0.358713 0.262433
-0.242698 -0.425558 -0.131436
-0.104825 -0.437485 -0.082786
0.181074 -0.386436 -0.222498
-0.149117 0.220150 0.385176
-0.184616 -0.239589 0.372948
-0.011741 -0.385926 -0.223359
-0.228946 0.042384 0.441065
-0.018881 -0.241468 0.371671
-0.223258 0.143009 0.419711
-0.180579 -0.379757 0.229438
0.282639 0.442888 0.048858
-0.217831 0.169777 -0.414043
-0.228517 0.334404 0.292328
0.042224 -0.393042 -0.210454
0.167549 -0.417194 -0.156289
-0.035509 0.063765 -0.442923
-0.004485 0.409967 0.172661
0.253785 -0.368468 -0.251319
-0.163041 0.358398 0.262839
0.057401 -0.370061 0.244622
-0.090961 0.399142 0.196139
0.106911 -0.309397 0.317543
-0.139006 -0.407265 -0.180891
0.075682 0.333885 0.292916
0.145828 -0.324014 0.302926
-0.145141 -0.179402 0.405081
-0.249298 -0.279747 -0.348238
-0.284795 -0.333084 -0.297017
-0.126168 0.444518 0.031620
-0.238416 -0.405245 0.181204
-0.138822 -0.254245 -0.367341
-0.061944 0.262708 -0.362250
-0.228751 -0.414787 -0.162973
-0.153679 0.394248 0.205745
0.176294 -0.370876 -0.247776
0.271399 0.372844 -0.246388
-0.236742 0.317154 0.310811
0.166570 0.064661 0.438428
-0.050674 0.442722 -0.054971
-0.083135 -0.427185 -0.125839
-0.135344 -0.389301 0.213300
0.089179 0.445835 -0.005739
0.260788 -0.439626 0.064918
0.276578 0.412311 -0.171597
0.122720 -0.443293 0.033739
-0.097809 -0.299988 0.326429
0.260881 -0.016910 -0.447064
0.103994 0.117462 -0.431824
-0.186235 0.108333 -0.434278
0.285239 -0.427734 -0.123948
-0.090691 0.081080 0.435828
-0.012258 -0.430291 0.110792
0.286121 0.017383 -0.447082
-0.160809 0.385507 0.221448
0.050367 0.289334 0.336725
0.067028 0.326184 -0.306005
-0.019591 -0.442705 -0.044309
-0.120606 -0.215729 0.387184
0.157810 0.392968 0.208257
-0.116493 0.341798 -0.288295
0.128545 0.434002 -0.103787
-0.192782 0.392369 -0.213786
0.151728 -0.207270 0.391630
0.253635 -0.137765 0.421230
-0.162173 0.395270 -0.208092
0.179218 -0.321697 0.305243
0.285836 0.181353 0.404680
-0.290159 -0.379422 0.230003
0.215725 0.185937 0.402696
0.285213 0.034824 0.441780
-0.277980 -0.166453 0.410684
-0.163176 -0.413826 0.161290
0.160666 -0.234685 0.375974
-0.110847 -0.339384 0.285517
0.023748 0.132539 0.423090
-0.133313 -0.397168 -0.202355
-0.067784 0.270519 0.351837
-0.251793 -0.188335 0.401215
-0.106879 -0.152571 0.415900
-0.288790 -0.094956 0.432685
0.132856 0.410058 -0.176803
0.076962 -0.075156 0.436604
-0.168532 -0.439399 0.066347
0.075711 0.444950 0.027043
-0.078266 -0.361863 -0.261039
-0.079185 0.110118 -0.433879
0.246281 -0.277369 -0.350083
0.252999 0.444190 0.035083
-0.124731 0.196607 -0.401938
-0.053169 0.439418 -0.077051
0.081551 0.422447 0.140189
-0.117411 -0.319206 -0.312088
0.151767 -0.237838 0.374109
0.092998 0.005314 -0.447461
-0.244028 0.040814 -0.445567
-0.144581 -0.339753 0.285099
0.055711 -0.214271 0.388046
-0.004304 -0.230958 -0.382531
0.243961 0.421671 0.142345
-0.039666 -0.444908 -0.001704
0.007497 -0.427630 0.119953
0.114850 0.445618 -0.012644
-0.148160 0.426246 0.128244
0.100734 0.439464 -0.076763
-0.026531 0.414286 0.162681
0.160026 0.406360 0.180996
-0.147730 -0.305018 -0.326276
-0.070988 0.440733 0.064396
-0.198785 0.189331 0.401228
-0.259291 -0.137119 -0.425815
-0.161945 0.379747 0.231187
0.272393 0.298545 -0.332958
-0.055208 -0.063702 0.438418
-0.182479 -0.039287 0.441261
0.066168 0.434097 -0.103361
-0.099539 -0.443412 0.032476
-0.287422 -0.317266 -0.314028
-0.288137 0.258281 0.360941
-0.075846 0.312550 0.315415
0.221301 0.414588 0.161982
0.113122 0.226243 -0.385926
-0.164372 0.423021 -0.142949
0.227737 0.439896 0.069682
-0.017377 0.444114 -0.040245
0.199970 0.445507 -0.016203
0.281710 0.364272 0.254647
0.071105 -0.066895 0.437912
0.244061 0.089135 -0.438569
0.046947 0.445879 -0.000010
-0.275689 -0.387927 -0.219977
0.036421 -0.373406 -0.244053
0.075870 0.031545 -0.446443
-0.269915 0.426071 -0.133200
0.016839 -0.070739 0.437303
0.269949 0.249588 -0.371202
0.232206 0.267479 0.354196
-0.187934 0.323218 0.304747
0.245943 -0.405248 0.181198
0.053842 -0.190570 0.400139
-0.190605 0.337092 -0.293632
-0.194292 -0.444275 0.018446
0.031545 0.423858 -0.140625
-0.214938 -0.191853 0.399485
0.229882 -0.416771 0.153110
-0.150697 -0.443830 -0.032410
0.123722 0.183547 -0.408084
-0.204765 0.224029 -0.387235
-0.187791 0.151750 0.416564
-0.278517 0.382312 0.226850
-0.115587 -0.382922 -0.228439
0.213770 0.381860 0.227615
0.066813 0.010104 0.442957
-0.257129 0.386309 -0.224445
0.048324 -0.435757 -0.091351
0.237014 -0.325707 0.301030
-0.089060 0.260307 0.359564
0.152495 -0.216009 -0.391372
-0.253888 0.364923 0.253690
0.059315 -0.037421 -0.445791
-0.183039 0.396742 -0.205204
-0.194081 -0.278169 0.345109
-0.153602 -0.433140 -0.103059
-0.098531 0.341459 0.284326
-0.001198 -0.200922 0.394864
0.269576 -0.252981 -0.368200
0.062684 0.098428 0.432139
-0.096288 -0.430945 0.108524
0.097537 -0.187626 0.401522
0.150114 -0.377084 -0.238311
0.039201 -0.434022 0.094761
0.025835 0.358590 -0.266945
-0.272959 -0.071128 -0.441595
-0.231833 0.040863 -0.445562
-0.113246 -0.141767 0.419789
-0.218610 0.421097 0.143940
0.248817 -0.256149 -0.366047
0.270986 -0.024908 0.442459
0.098986 -0.404118 0.183808
-0.184002 0.030076 -0.446582
-0.153427 0.306415 0.321550
0.202354 -0.399500 0.193425
0.130974 0.431277 0.110925
0.035484 -0.078987 -0.440350
-0.149765 -0.238444 -0.378079
0.137107 0.420077 -0.151126
-0.211763 -0.128752 -0.428246
0.100334 -0.388775 0.214188
-0.106814 -0.187032 -0.406133
-0.173562 0.216893 -0.391455
0.148258 -0.428716 -0.120567
0.250409 0.138192 0.421446
-0.189238 0.346430 0.278268
0.035549 0.445294 0.018606
0.169843 -0.324547 0.302347
0.199553 -0.293529 0.332123
0.144947 -0.431536 0.105881
-0.064973 -0.229253 -0.383539
-0.026294 0.360720 -0.264199
-0.289596 -0.182514 0.403734
-0.021865 0.062883 0.438710
-0.115495 -0.367217 0.248806
-0.236612 -0.211892 0.389274
-0.041368 0.072987 -0.441463
0.108583 -0.412815 0.163711
-0.115950 0.443425 0.043181
0.103906 0.148345 -0.422144
-0.065742 0.189956 0.400957
0.005529 -0.439433 0.066138
0.095820 0.239873 -0.377805
0.183386 -0.076534 0.436385
-0.155339 -0.097856 0.432037
-0.058496 0.352258 0.270754
0.286315 0.312903 0.315062
0.103938 0.196072 0.397858
0.143411 -0.395372 0.201527
-0.277582 0.089863 0.434053
0.234672 -0.196944 0.396891
-0.207029 -0.165407 0.411137
-0.219468 -0.444362 -0.020013
0.199693 0.255082 0.363115
-0.011374 -0.417201 -0.156270
0.065905 0.407160 -0.183501
0.045949 -0.287076 -0.342166
0.127548 0.400645 -0.197542
0.221144 0.148033 -0.422256
0.273485 -0.384463 0.221480
-0.104726 0.277465 0.346450
0.157364 -0.010968 -0.447251
-0.018245 -0.418359 0.148698
-0.110323 0.327290 -0.304751
-0.148078 0.395345 -0.207944
-0.219376 0.386232 0.220221
0.152270 -0.389418 -0.217456
-0.048626 -0.387431 -0.220815
-0.268896 0.097216 0.432409
0.185136 -0.151105 -0.420781
0.284753 -0.019686 0.442624
-0.239470 -0.072560 0.437015
0.256059 0.049611 0.440382
-0.186016 -0.386245 -0.222820
0.180193 0.442972 0.047969
0.241404 -0.211067 0.389695
-0.254183 -0.366131 0.250405
0.225553 -0.302094 -0.328925
-0.185918 0.445473 -0.017281
-0.105836 0.132762 0.423025
-0.157728 0.445768 0.003525
0.007436 0.390138 -0.217970
0.222502 0.417318 -0.158789
-0.022205 -0.186755 -0.406252
0.163638 -0.020752 -0.446944
-0.044074 -0.165375 -0.415504
-0.119787 0.178005 0.406129
-0.159001 -0.256520 -0.365795
0.224501 -0.002829 0.443153
-0.238561 0.389349 -0.219305
-0.059494 0.414300 -0.167000
0.280884 0.249708 -0.371121
0.018377 0.432848 -0.108948
0.095424 -0.322286 -0.309008
-0.052570 0.428289 -0.125563
0.216905 -0.290593 0.334712
-0.184170 -0.432688 0.100727
0.016639 0.058709 0.439371
-0.188900 -0.111212 -0.433342
-0.283345 0.330584 -0.301015
0.119280 0.440847 -0.068030
-0.217418 -0.372847 -0.244876
-0.214723 0.165526 0.411529
-0.107122 -0.260961 -0.362777
0.097048 -0.334823 -0.295044
0.134355 -0.249991 0.365879
-0.000267 -0.310111 0.316830
0.022419 0.442571 -0.056568
-0.057498 -0.185541 0.402425
0.172615 -0.443660 -0.034205
0.013963 -0.388903 -0.218326
0.031007 -0.233719 -0.380899
0.250830 -0.171122 -0.413017
0.098768 0.337804 -0.292825
0.080609 0.368751 -0.252411
0.210524 0.445218 -0.025386
-0.241603 0.349291 -0.278934
-0.271291 0.045086 0.440810
-0.044834 -0.242149 0.371208
-0.106123 -0.133685 -0.426813
-0.207605 -0.328715 0.297618
0.069886 -0.427450 0.120572
0.030773 -0.387763 -0.220255
0.251312 0.017623 0.442721
0.219448 0.366580 0.251252
-0.282988 -0.442873 -0.042528
-0.077130 -0.350311 -0.276297
-0.185759 -0.444799 -0.006099
-0.062927 -0.413800 0.161363
0.032710 0.117622 -0.431777
-0.030546 -0.204188 0.393200
0.021661 0.391469 -0.215552
-0.032161 -0.236328 -0.379356
-0.077200 0.067485 0.437981
-0.259715 0.443421 0.043219
0.230301 0.171658 -0.413229
-0.084524 -0.261074 -0.362700
-0.070366 0.415119 -0.164898
0.166166 -0.273807 -0.352846
0.147097 0.316621 -0.315698
-0.161321 -0.373366 0.239758
0.174844 0.330695 0.296535
0.255997 0.373121 0.241626
0.036480 0.401214 -0.196427
-0.241139 -0.083979 -0.439493
-0.016862 0.442742 0.050404
-0.193478 0.360131 0.260605
-0.111602 -0.169868 -0.413560
0.144147 0.341604 -0.288515
0.045888 -0.410357 -0.173746
0.146481 -0.438876 -0.074007
0.178383 -0.395703 -0.205230
0.033796 -0.138838 -0.425197
0.112980 0.005928 0.443088
0.242843 -0.388837 -0.218437
0.018985 0.330919 -0.300635
0.280095 0.276467 0.347224
0.204743 -0.282129 -0.346390
-0.239613 0.186553 -0.406783
0.285980 0.395165 0.203945
0.156034 0.442616 -0.056088
-0.180917 0.063195 0.438660
-0.040929 -0.230243 -0.382954
-0.263292 0.402007 -0.194871
0.108777 0.406591 0.180463
-0.277242 0.279953 0.344520
-0.217199 0.033658 -0.446243
-0.182301 -0.180216 -0.409082
0.236305 0.354524 -0.272187
-0.286269 -0.389644 -0.217073
-0.097829 0.374265 0.239943
-0.239545 0.395097 -0.208432
-0.053421 0.321326 -0.310993
0.185458 0.443605 -0.045628
0.086247 -0.050170 -0.444586
-0.011626 0.441294 -0.065206
0.189557 0.421467 -0.147266
-0.279649 0.145848 0.418689
-0.084197 0.202776 0.394442
0.194264 -0.143069 -0.423674
-0.235053 -0.411217 -0.171758
-0.253567 -0.440512 0.059321
-0.043383 0.054370 0.439932
-0.289109 -0.300128 -0.330659
0.051831 -0.200903 -0.399227
-0.136470 0.442500 0.052961
0.211708 0.009400 -0.447332
0.073727 -0.382433 0.224913
0.216694 0.445665 -0.011171
-0.243534 -0.233162 0.376874
0.200136 0.201452 -0.399470
-0.202596 -0.172945 -0.412228
0.169969 0.249164 0.367137
-0.161924 0.436459 -0.092794
-0.105298 0.239687 0.373578
0.255979 0.079007 -0.440509
0.006342 -0.443924 0.027062
0.185221 -0.427061 0.121912
0.190222 0.209318 0.391108
0.137173 0.265893 -0.359779
-0.203392 0.287200 -0.342960
0.151342 0.055066 -0.444220
-0.289344 -0.233219 -0.381194
0.172751 -0.024748 -0.446818
-0.251996 -0.079174 -0.440321
0.271731 0.283903 0.341456
0.173421 0.362689 0.256977
-0.067362 -0.255490 0.362142
-0.008778 -0.435184 -0.093915
-0.237696 0.442555 0.052386
-0.234415 -0.444403 0.014345
-0.213799 0.424892 0.132904
0.252660 -0.131942 -0.427319
-0.004860 -0.095168 -0.436992
-0.229482 -0.142262 0.419611
0.144898 -0.310259 -0.321034
0.099304 0.443294 0.044563
-0.289453 0.358394 -0.267198
-0.073674 -0.436747 0.082570
0.073476 -0.402439 -0.192011
0.127703 -0.181590 -0.408488
0.249117 -0.323995 -0.307299
0.121739 -0.340453 0.284304
0.054321 -0.360416 0.258813
0.237367 0.376973 0.235878
0.124333 -0.288042 -0.341314
0.198871 -0.055546 -0.444063
-0.021373 -0.401979 0.188561
0.262836 0.387794 -0.221934
0.007368 -0.044687 0.440751
-0.179480 -0.183509 0.403304
-0.103150 -0.384733 0.221024
-0.173121 0.272671 -0.354522
-0.197811 -0.064199 -0.442692
0.144126 -0.208476 -0.395368
0.186667 0.233756 -0.381483
0.166391 0.294014 -0.336952
0.259213 0.215100 -0.392516
0.111732 -0.172003 -0.412636
0.110910 -0.292003 -0.337822
-0.107282 0.444346 0.033436
0.088853 -0.121322 -0.430405
-0.098253 -0.270017 0.351432
-0.018690 0.165725 -0.415796
-0.277085 -0.295207 -0.334997
-0.252469 -0.443577 0.030728
-0.067934 -0.209530 0.390478
0.025921 -0.261281 -0.362559
0.260668 0.091359 0.433719
-0.265297 -0.252667 -0.368413
0.040311 0.059764 0.439204
0.123433 -0.379541 -0.234156
-0.274324 -0.116460 0.427464
0.232298 -0.444620 -0.011801
0.139404 -0.443819 -0.032522
-0.062528 0.135496 -0.426584
-0.090183 0.328076 -0.303859
-0.149662 -0.218502 -0.389898
-0.063530 0.043827 -0.445282
0.015610 0.385467 -0.225869
-0.219552 0.366501 0.251367
-0.031353 0.334237 -0.296871
-0.118888 -0.444696 -0.009387
-0.124336 -0.226209 0.380987
0.106837 0.372054 -0.247551
0.222402 0.231609 -0.382753
-0.118383 0.251910 -0.369624
0.211441 0.274394 -0.353185
-0.087720 -0.247364 -0.372017
0.204602 -0.350561 -0.275974
-0.122805 -0.396011 -0.204627
-0.043483 0.020295 -0.446990
0.017150 -0.281568 0.342472
0.224776 0.374520 -0.243922
-0.131563 -0.333620 -0.296408
-0.289642 0.247604 0.368198
0.286034 0.022155 0.442578
-0.193638 -0.215065 0.387577
-0.208465 0.429517 0.116984
-0.227498 0.073229 0.437071
0.277957 0.200551 -0.399929
-0.242045 -0.137536 0.421313
0.068579 -0.027902 0.442337
0.203172 -0.426287 -0.128927
-0.090680 -0.029891 0.442149
0.074504 0.280526 -0.348429
-0.254601 -0.145780 0.418345
-0.270011 0.434356 0.097851
-0.101934 -0.099862 -0.435942
-0.199735 -0.358591 0.261269
0.095759 0.133387 0.422844
-0.043872 0.142518 0.419888
0.040260 0.418471 -0.155588
-0.159616 -0.204298 0.393144
0.213070 -0.201547 0.394546
-0.126817 0.044576 0.440858
-0.094594 -0.169469 0.409379
0.194626 -0.216514 -0.391073
0.268022 0.011917 -0.447253
-0.234060 -0.224826 0.381805
0.194577 0.120490 0.426591
-0.114923 -0.369449 -0.249876
-0.234140 0.013545 0.442849
0.273540 0.337639 0.288658
0.050257 -0.277704 0.345470
-0.145132 0.178873 -0.410107
0.197211 -0.389171 -0.217873
0.192195 0.412464 -0.171243
0.176764 -0.395576 0.201126
-0.207645 -0.288605 -0.340817
-0.058646 0.435431 -0.097392
-0.273834 -0.175277 0.406866
0.167626 -0.349250 0.273312
0.177898 0.376983 -0.240215
-0.287928 -0.159568 -0.417734
-0.066261 -0.351474 -0.274798
0.118037 -0.012386 -0.447206
0.009584 0.445599 -0.013252
0.233773 -0.297822 -0.332692
-0.234667 0.445532 -0.015410
-0.238403 -0.182729 0.403641
0.079281 0.362104 0.257837
-0.262483 -0.426938 0.122332
0.248751 0.338120 -0.292466
-0.130933 -0.444474 0.012094
0.272271 0.383529 0.224793
0.147755 0.067422 0.437991
-0.046501 0.443773 -0.043850
0.026606 -0.008430 -0.447331
-0.249457 0.391170 -0.216140
