-0.114848 -0.227121 -0.445065
0.032242 -0.497182 -0.020194
0.015979 0.360223 -0.346770
-0.163897 0.007543 0.495947
0.275345 0.269036 -0.421564
0.286662 0.111497 -0.487674
-0.016130 0.389932 -0.312491
-0.191119 -0.395073 -0.304607
-0.023671 -0.495189 -0.049924
0.282502 -0.165031 0.467450
-0.139497 0.217217 -0.450502
0.264027 -0.203678 -0.456323
-0.103141 -0.497402 0.009515
0.019875 0.476123 0.146019
0.099494 0.244023 -0.436536
-0.264974 -0.030779 -0.499212
-0.083871 -0.192111 -0.461514
0.208444 0.482486 -0.127707
0.193745 -0.392073 -0.308584
0.275222 0.369231 0.332767
0.005462 0.491013 -0.087926
0.148551 0.124699 -0.484457
-0.275224 -0.472858 -0.156867
-0.246819 -0.031919 0.494765
-0.247466 0.383531 -0.320519
0.092336 -0.344693 0.356688
0.237987 -0.213639 -0.451853
0.133595 -0.104763 -0.488964
0.183234 -0.344659 0.356722
0.101572 0.498133 0.019935
-0.227071 -0.348222 -0.357788
0.230618 0.444124 0.224095
0.284884 -0.230609 0.439045
0.197344 -0.473451 0.150675
-0.177551 0.483010 -0.125504
0.171935 -0.491996 0.071912
-0.148724 -0.354926 -0.350903
0.013175 0.326535 0.374354
0.286954 0.135413 -0.481500
0.192314 -0.423537 0.258839
-0.009784 -0.481314 -0.128007
0.264230 -0.473499 0.150516
0.116313 -0.025078 0.495320
-0.006619 -0.483562 0.114516
0.031406 0.028929 -0.499444
0.097075 -0.170204 0.465665
0.101380 0.358060 0.344382
0.207646 -0.348945 0.352549
0.254526 -0.288616 -0.407600
0.070396 0.111113 0.483345
-0.118413 0.222232 0.443825
0.243075 0.100944 -0.489884
0.161923 0.356664 0.345816
0.054000 -0.497550 0.000253
0.053253 -0.349126 0.352373
0.175595 0.454762 0.202256
0.167587 0.018089 -0.499879
-0.258460 -0.234582 0.437009
0.266978 -0.435447 -0.242898
0.214225 -0.494820 -0.054482
-0.042344 0.028082 -0.499513
0.131449 0.390228 0.308035
-0.280256 0.359404 0.343001
0.098422 0.376169 -0.329164
-0.103862 0.304992 -0.396217
-0.147065 0.484769 0.114729
-0.018130 0.390059 0.308259
0.127803 -0.314134 -0.388141
-0.159193 -0.197132 -0.459261
-0.136359 0.073097 0.490590
0.041438 0.493238 -0.075003
0.259481 0.007559 -0.500069
-0.271000 -0.219652 0.444444
0.226542 0.265060 -0.424189
-0.181460 0.409706 -0.285914
-0.288640 -0.483654 0.114129
-0.097402 0.312835 -0.390300
0.206756 0.318716 0.380952
0.110987 0.492538 0.074526
-0.218984 0.405697 -0.291647
-0.043997 0.384046 -0.319872
0.062463 -0.390036 -0.311285
0.261365 -0.484017 0.112601
-0.192795 -0.494410 -0.058856
0.043497 -0.333753 -0.371241
-0.071233 0.125837 0.479846
0.072577 -0.487754 -0.099941
-0.151075 0.107151 0.484287
-0.147667 -0.195342 0.455649
0.037719 0.111840 0.483172
0.138034 0.432289 -0.250516
0.193601 -0.413219 0.275072
-0.239346 -0.415140 0.272325
-0.252512 0.428094 -0.257399
0.161855 -0.490942 -0.082824
0.241339 0.248382 0.429887
-0.218778 0.026266 0.495107
0.285156 0.469255 0.165928
0.160655 -0.458919 -0.194180
0.159590 -0.455439 0.197990
0.144515 0.490549 0.087136
-0.259597 -0.301916 -0.397884
0.215927 -0.230580 0.439059
0.095473 0.496008 -0.051609
0.059308 -0.484228 -0.116771
0.271002 0.333449 -0.372617
-0.209488 -0.008899 -0.500193
0.274154 0.485025 0.113508
-0.063572 0.191746 -0.461929
-0.095222 0.439342 -0.237518
-0.170633 0.193423 -0.461230
-0.078043 0.298035 0.397376
-0.030581 0.470860 -0.166052
-0.015917 -0.365576 0.335375
-0.127486 -0.267811 -0.421771
-0.222176 -0.045718 -0.498018
0.063140 -0.168863 -0.470460
-0.228248 0.303328 -0.397472
0.117387 0.167445 -0.471324
0.132413 -0.491837 0.072835
0.240479 -0.124717 0.479816
-0.057840 -0.079934 0.489307
-0.075577 0.197147 0.455360
-0.065328 -0.372499 -0.332118
0.138166 -0.496610 0.027176
-0.085098 0.361597 0.340749
0.111196 0.352038 -0.354889
0.093408 -0.487593 0.097487
0.072073 -0.413036 0.275333
-0.107321 0.240626 0.434140
-0.068313 0.292059 -0.405974
-0.114547 0.328240 -0.377087
-0.094408 0.240926 -0.438312
-0.173597 0.441962 -0.232542
-0.054121 0.432368 -0.250388
-0.162704 0.425718 -0.261296
-0.195620 -0.491790 0.073109
-0.110096 0.495357 -0.057630
0.126735 -0.496421 0.031393
0.091547 0.477861 -0.143933
0.248753 0.256055 0.425209
-0.113500 -0.348412 -0.357593
-0.119029 0.482750 -0.126597
0.274211 0.380913 -0.323801
0.032240 -0.454519 -0.204733
-0.025813 0.266802 0.418658
-0.249764 -0.298858 0.395718
-0.259653 0.251538 0.427963
-0.071729 0.495810 0.050551
-0.267502 -0.114400 -0.486674
-0.061558 0.247031 -0.434811
-0.248207 0.492240 -0.080798
-0.249735 0.243327 -0.436936
0.105264 0.406383 -0.290666
0.258902 0.042088 -0.498378
-0.048867 -0.181954 0.461231
0.157501 -0.488649 0.091355
0.267378 -0.442558 0.225110
0.069837 0.442704 -0.231133
-0.064492 0.301377 0.394778
-0.182436 0.497537 -0.033703
0.029392 0.169155 0.466382
-0.147232 -0.482043 -0.125368
-0.289096 -0.497465 -0.004483
-0.097518 -0.374682 -0.329574
0.205155 -0.023682 -0.499530
-0.025356 0.286275 -0.410183
-0.049946 0.004090 -0.500131
0.282071 0.494810 0.058819
0.223476 0.457570 0.195520
-0.194256 0.423806 -0.264431
-0.282952 -0.348543 -0.357459
0.213924 0.489013 0.094469
0.097055 -0.277345 0.411049
0.182176 0.436216 -0.243454
0.053893 -0.459085 0.189865
-0.273955 0.468285 0.168741
-0.116731 0.160100 0.469731
0.072820 -0.403833 -0.292997
-0.277109 0.227600 0.440998
-0.091002 0.265029 -0.424210
-0.069671 -0.014893 -0.499925
-0.148062 0.220708 0.444627
-0.174485 0.464168 0.179694
0.011766 -0.461029 0.185166
0.198630 0.409938 0.281437
0.190312 -0.211514 -0.452807
0.283798 0.242078 0.433376
0.236986 0.482679 -0.126896
-0.206313 0.272470 0.415202
0.217042 0.163937 0.468340
0.062944 0.480423 0.130596
-0.038920 -0.394885 -0.304858
-0.246429 -0.449763 -0.214923
-0.217915 0.122753 -0.484994
0.074251 0.474457 -0.155088
-0.037289 0.496914 0.036921
-0.195466 -0.283271 0.407137
-0.132274 0.427173 -0.258908
-0.245592 -0.270659 0.415463
0.205071 0.489373 -0.097454
0.286806 0.461287 0.186605
-0.075282 0.420498 -0.269858
-0.011419 0.233284 0.438006
-0.166427 0.214311 0.447658
0.249125 0.490196 -0.092675
0.132356 -0.389136 -0.312478
0.278273 0.495258 -0.058544
0.047644 -0.483123 -0.121453
0.114076 -0.368016 0.332681
0.057983 0.313225 0.385331
-0.234666 -0.497605 0.003278
-0.207876 0.457095 -0.200937
0.214214 -0.486280 -0.106978
0.034936 -0.145980 -0.478080
0.032458 0.241894 -0.437757
0.139935 -0.415047 -0.276499
-0.059994 0.381032 -0.323652
0.006968 -0.372314 0.327935
0.257243 0.138454 0.476336
0.028575 0.432977 0.244639
0.069881 -0.020955 0.495455
-0.166403 0.446215 -0.224464
0.226277 0.479529 0.133834
0.112008 -0.356512 -0.349273
-0.201440 -0.422235 0.260975
-0.288233 0.058875 0.492353
-0.270921 -0.133600 0.477364
-0.159581 0.276704 0.412294
-0.202014 0.134308 0.477601
0.036552 -0.374544 -0.329735
0.260093 0.485046 0.113408
-0.150219 0.447986 -0.221100
-0.024951 -0.175682 -0.467901
-0.143637 0.488798 0.095496
-0.147020 -0.173184 -0.468839
-0.208671 -0.493482 0.061144
0.068032 -0.360067 0.341457
-0.028314 -0.110752 0.483262
0.021489 -0.097693 0.485997
0.057974 0.473909 -0.156885
0.214862 -0.151602 0.472082
-0.168462 -0.212243 -0.452480
-0.237726 -0.480073 -0.132505
0.235358 -0.423891 -0.263049
0.062170 0.485703 -0.114172
0.075741 0.404051 -0.294000
-0.074797 0.380735 -0.324025
0.065628 0.097472 -0.490612
-0.204058 -0.383300 -0.319530
0.016926 0.170362 -0.470318
-0.038207 0.311080 -0.391624
0.154989 0.177233 0.463351
0.249747 0.263314 -0.425342
0.240462 -0.463486 -0.183225
-0.108516 0.437746 -0.240549
-0.092926 -0.463572 0.178389
0.026735 0.492637 -0.078494
0.219101 -0.168747 -0.470504
0.200396 0.199362 0.454366
0.041839 0.491421 -0.085556
0.248171 0.238468 -0.439722
-0.204781 -0.327182 0.372762
0.012145 0.234356 0.437441
-0.114433 -0.497577 0.001734
-0.127705 -0.348773 0.352717
-0.090384 -0.410568 -0.283284
0.114057 -0.085635 0.488482
-0.258710 -0.257332 -0.428159
0.251669 -0.435766 0.238010
-0.094815 -0.393318 -0.306934
0.257537 -0.090022 0.487604
-0.169092 -0.378763 -0.324817
-0.168142 -0.490166 -0.088189
0.124160 -0.491307 -0.080301
0.037320 0.329566 0.371609
-0.001685 0.167045 -0.471462
0.084179 -0.488566 0.091836
-0.066885 0.003531 0.495897
0.177307 -0.465514 -0.178156
0.055394 0.455413 0.200694
-0.108858 0.484491 -0.119272
0.062898 -0.253736 -0.430351
-0.066327 -0.497223 -0.017899
0.173257 -0.483626 0.114246
-0.203663 0.208874 -0.454613
-0.207291 -0.357501 0.344220
0.185446 0.211777 -0.453183
-0.207241 0.126728 -0.483897
-0.145206 0.206225 -0.455893
0.275295 0.142094 -0.479655
-0.011129 0.132368 0.478192
-0.061308 -0.136970 0.476433
-0.149954 -0.403749 -0.293108
-0.188726 0.221026 -0.448625
-0.260560 0.037472 0.494604
-0.065779 -0.344422 0.356953
0.239939 -0.131528 -0.482490
0.224517 0.434969 0.241165
-0.203884 0.252841 0.427169
-0.065380 0.497135 0.034195
-0.004993 -0.457430 -0.197751
-0.027553 0.497436 0.030479
-0.283572 -0.465914 -0.176996
-0.149910 -0.286222 -0.409274
0.041251 0.494162 0.063298
0.033144 -0.487113 -0.103001
0.181063 0.357112 0.345356
0.088426 -0.218819 -0.449436
0.040756 0.299206 0.396509
-0.187437 0.311780 -0.391096
-0.239748 0.290022 0.402980
-0.195506 0.007055 -0.500078
-0.026994 0.336831 0.365029
-0.056482 -0.274639 0.412836
-0.079273 -0.160036 -0.473773
0.032304 -0.246905 -0.434516
0.062110 -0.247019 0.429878
-0.133092 -0.341830 0.359476
0.196134 -0.438995 0.231877
-0.181341 -0.431209 0.246254
-0.090060 0.462191 0.184437
0.276544 0.037774 -0.498727
-0.032220 -0.496743 0.024203
0.008312 0.474126 0.151807
0.286467 0.383450 0.316196
-0.265196 -0.123027 0.480282
0.162255 -0.253594 0.426107
-0.034878 0.269093 -0.421527
0.050133 0.182810 -0.465654
-0.249760 0.074423 -0.494606
-0.131265 -0.453493 -0.207196
-0.289338 0.288600 -0.408583
0.009413 0.458399 0.193532
0.275682 -0.382260 -0.320742
-0.244209 0.498501 -0.012217
0.078812 0.495139 -0.059649
0.095357 0.207337 0.450788
0.148233 0.286302 -0.410166
-0.018942 0.296131 0.398707
0.227268 -0.481954 -0.125690
-0.176464 0.447646 0.216947
0.217983 -0.466110 0.171626
0.096628 0.170919 0.465720
-0.089726 0.038934 0.494508
0.107086 0.454486 0.202917
-0.085063 0.377839 -0.327321
0.091095 0.494743 -0.063312
0.213377 0.498405 0.004848
-0.028798 0.463779 0.180627
-0.119202 -0.486722 0.101217
-0.125727 -0.476717 -0.144659
0.256591 0.493170 -0.075401
0.182896 -0.488927 -0.094341
-0.090889 -0.482737 -0.122852
-0.213410 0.491353 -0.085954
-0.268394 -0.497184 -0.020058
0.003204 0.021338 -0.499820
0.158802 0.221022 -0.448627
0.007467 0.385549 -0.317988
0.282295 -0.482974 0.116990
-0.225797 0.290858 -0.406880
0.134993 0.148223 0.473355
0.112379 -0.237487 -0.439606
-0.059609 -0.497369 -0.009786
0.218042 -0.330939 -0.373791
0.033059 -0.209013 0.449686
0.275505 -0.446382 0.217846
-0.067860 -0.214944 -0.451267
0.280562 0.440431 -0.235449
-0.011905 -0.307171 -0.393694
0.060489 -0.178708 -0.466766
-0.228687 0.497603 0.028417
0.208925 -0.067837 -0.495628
-0.273945 -0.443018 -0.228613
-0.249177 -0.048996 -0.497664
0.266064 0.309210 0.388532
0.149765 0.443336 0.225693
-0.086518 -0.212096 -0.452546
0.155116 0.270047 0.416679
-0.023091 0.380981 0.319074
-0.077140 0.279070 0.410640
-0.119609 0.457223 -0.200653
0.059780 -0.105190 -0.488863
-0.144602 0.035338 -0.498925
-0.033577 0.155253 -0.475529
0.120775 -0.360871 0.340570
0.009038 -0.391294 0.305144
-0.289901 0.462111 -0.189369
-0.172315 0.131627 0.478419
-0.290189 0.240626 0.434140
0.108885 -0.453515 -0.207141
-0.153268 -0.478169 0.135211
-0.160984 -0.429877 0.248440
-0.246116 -0.373829 0.326263
0.274485 -0.160868 -0.473461
0.284511 0.319902 0.380006
-0.244901 -0.359524 0.342057
-0.233106 -0.172099 0.465011
-0.275171 -0.358309 -0.347428
-0.195491 0.123675 0.480360
-0.083243 0.307205 -0.394547
-0.155614 0.332941 0.368552
0.272626 0.325523 -0.379418
-0.112197 -0.387142 -0.315052
-0.253010 0.494349 0.062006
-0.041488 0.201115 -0.458023
-0.283247 -0.220347 -0.448631
0.080058 0.454085 0.203880
0.071551 0.496449 0.042664
-0.130929 0.236076 -0.441094
0.155748 0.498280 -0.017146
0.213077 0.256847 -0.429182
-0.276515 -0.448539 -0.217408
0.173121 -0.412760 -0.279963
0.120763 -0.477421 0.137663
-0.253718 0.406186 0.286883
0.266467 0.275352 -0.417395
0.057177 -0.497339 -0.011501
0.085041 -0.434791 0.239861
-0.142846 -0.244356 0.431404
-0.198636 0.497217 -0.040417
0.013598 -0.153822 -0.475687
-0.145918 -0.433481 0.242350
0.057987 -0.412324 -0.280624
-0.169623 0.020831 -0.499830
0.135359 0.485593 -0.114632
-0.111125 -0.426282 -0.258879
-0.068518 -0.253693 0.426050
-0.045539 0.253818 0.426573
0.017818 -0.192494 -0.461342
0.192933 -0.309611 0.387606
0.278968 0.489266 -0.098078
-0.170144 -0.435260 -0.243224
0.168145 -0.344641 0.356740
0.026509 0.124940 0.480059
-0.218647 0.107395 0.484229
0.278808 0.376791 0.323956
-0.084964 0.483697 0.118735
0.098120 -0.270680 -0.420022
0.111054 -0.230213 0.439240
0.239486 0.435034 -0.245700
0.285317 -0.480276 0.128305
0.195442 0.319258 0.380520
-0.137303 0.486933 0.104400
-0.201294 -0.203965 -0.456194
0.005332 -0.069164 -0.495445
-0.076311 -0.127268 0.479112
-0.225213 -0.252097 0.426965
0.056322 -0.305842 0.390449
0.239168 -0.476120 0.141926
0.018133 0.144872 -0.478888
0.226947 0.431850 -0.251236
-0.207795 0.401036 -0.298310
-0.146754 -0.480810 0.126093
0.081174 0.433110 0.244407
0.200480 -0.445675 0.219190
-0.276770 -0.426026 0.254755
0.184350 0.151023 0.472500
-0.059718 0.409983 -0.285518
0.154480 0.320038 -0.384125
0.284525 -0.323378 -0.380638
0.096771 -0.244397 0.431381
0.172430 0.284146 -0.411589
-0.215843 -0.256986 0.424162
-0.093402 0.497840 -0.026948
0.166868 -0.464077 0.177043
-0.128003 0.383288 -0.320823
-0.005213 -0.438405 0.232997
-0.276139 -0.208493 -0.454162
-0.248711 -0.471099 0.158330
0.183432 0.103191 0.485228
-0.211427 0.054318 0.492846
0.088035 -0.448968 -0.216538
0.072064 -0.244117 -0.436116
-0.203644 -0.105391 0.484385
0.137628 0.492557 0.074390
0.163290 0.406863 -0.289980
0.118421 0.057335 -0.497078
-0.263287 -0.414324 0.273493
-0.079845 0.161967 -0.473213
-0.141193 0.315666 0.383384
-0.253409 -0.491160 -0.081320
0.090019 -0.461929 0.182768
0.187894 0.441755 0.228902
0.252661 0.439424 -0.237362
-0.229443 0.291543 0.401916
-0.114755 -0.463647 -0.182840
-0.163509 0.369551 -0.336471
-0.027349 0.094659 0.486878
-0.286635 -0.489798 0.084679
-0.228570 -0.464846 0.174995
0.173103 0.379285 0.321050
-0.269929 -0.363139 0.338066
-0.082488 0.333629 0.367929
-0.278401 0.498487 0.000255
0.216190 -0.478009 0.135733
0.147069 -0.483443 0.115015
0.035122 -0.233799 0.437458
0.209795 -0.418674 -0.271004
-0.113536 0.486294 0.107449
0.212176 0.441107 -0.234165
0.027696 -0.412088 0.276690
0.064187 0.165106 -0.472131
-0.229673 -0.417899 0.268087
-0.036683 -0.220073 0.444236
-0.146863 0.362962 0.339347
0.196150 -0.482620 0.118479
-0.127925 -0.416512 -0.274280
-0.052046 0.302882 0.393578
0.117211 0.475974 -0.150117
-0.068408 0.490892 -0.088628
-0.239778 -0.427262 0.252728
-0.195074 -0.139095 0.475847
0.237087 -0.496868 0.021424
0.056439 -0.481364 -0.127827
-0.128723 -0.326905 -0.377444
0.147597 -0.107306 -0.488360
-0.236817 -0.495261 0.044681
0.071243 0.428176 0.253010
-0.054516 0.479572 -0.138325
0.242795 0.270505 -0.420594
0.023043 0.425176 0.258241
-0.186464 0.083807 0.488747
0.147634 -0.118951 -0.485592
0.152034 0.497209 0.033279
0.142826 -0.019019 -0.499739
0.026992 0.482698 -0.126818
-0.045948 0.468928 -0.171202
-0.142231 0.236343 -0.440941
0.029764 0.467364 -0.175369
-0.002195 0.060847 0.492140
-0.002554 -0.423462 -0.263752
0.208953 -0.488816 -0.094872
-0.234473 -0.398093 -0.300606
-0.217458 0.220784 -0.448745
0.286317 -0.486620 0.101647
-0.239936 0.363535 0.338759
-0.039581 -0.489149 0.088451
0.000593 0.329446 0.371718
0.241095 -0.144507 -0.478529
-0.264636 0.317188 -0.386571
0.081820 -0.152883 -0.475974
-0.283234 -0.103164 -0.489344
0.181438 -0.442449 -0.229767
-0.267035 0.175272 0.464086
-0.213750 0.493647 0.066855
-0.128274 -0.487379 -0.101729
-0.121319 0.321567 -0.382813
-0.224256 0.015807 -0.499920
-0.059031 -0.012523 -0.500031
0.265145 0.330666 0.370612
-0.209612 0.413917 0.275410
0.079551 -0.111134 -0.487450
-0.170437 -0.442363 -0.229942
0.247491 0.469651 -0.169274
0.084137 -0.436294 -0.241421
0.221369 0.408223 -0.288035
-0.028074 -0.496065 -0.039106
0.280522 -0.372409 -0.332222
0.233872 0.495014 -0.060801
-0.088799 0.012919 0.495706
0.211207 -0.130632 0.478183
0.103206 0.019762 0.495399
-0.243150 -0.204161 -0.456106
0.047891 -0.057856 -0.496706
0.039916 -0.397502 -0.301389
0.235439 -0.067706 -0.495642
-0.160652 -0.453818 -0.206415
0.042119 -0.462975 -0.184452
0.116914 -0.168801 0.466149
-0.138648 -0.064606 -0.495977
-0.255900 0.426341 0.256210
-0.289114 0.256504 -0.429379
-0.085583 0.458243 0.193907
-0.197532 -0.404827 0.287072
-0.074439 -0.157809 0.469941
0.247733 0.165604 -0.471959
0.194247 -0.175455 0.463854
-0.221224 0.347583 0.355144
0.012363 0.478591 0.137230
-0.229838 -0.185530 -0.464206
-0.007589 -0.199556 -0.458173
-0.014030 -0.431377 -0.249995
0.047628 -0.043722 -0.498234
-0.093065 0.498356 0.007548
0.015057 0.483419 -0.123784
-0.210733 0.349086 -0.357764
-0.005117 0.394180 -0.307163
0.072741 -0.496639 -0.032028
-0.222497 0.283706 0.407397
-0.223952 0.079470 -0.493876
0.042064 0.233289 -0.442582
-0.160311 0.311348 0.386827
-0.094621 0.222109 -0.448092
-0.118427 -0.458752 -0.194581
0.059999 0.155917 0.471007
-0.007277 0.090332 0.487623
-0.098451 0.492359 0.075764
0.235441 -0.303610 -0.396533
-0.140730 -0.454467 0.200158
-0.164517 -0.105682 -0.488746
-0.016095 0.151290 0.472419
-0.066863 0.398181 -0.302146
-0.222443 -0.474046 -0.153422
0.139875 0.034131 0.494754
-0.269711 0.301705 -0.398697
-0.049369 0.496878 0.037369
-0.248158 0.467139 -0.175968
-0.217697 -0.493575 -0.064624
-0.008883 0.009706 0.495850
0.120216 0.236527 -0.440835
0.194003 0.418900 -0.272479
-0.192171 0.322503 0.377932
-0.110453 -0.495348 0.043878
0.262955 -0.005651 0.495731
-0.159085 0.299658 -0.400241
-0.254103 0.375391 -0.330023
0.282136 0.438405 0.235174
-0.170512 0.313804 0.384869
-0.186385 0.350689 -0.356202
-0.056194 -0.160936 -0.473435
-0.113289 0.326396 0.374480
-0.263706 0.269248 0.417166
-0.227680 0.361272 0.341083
0.036814 0.464275 -0.183600
0.149202 -0.464602 0.175644
0.245548 -0.244692 -0.435813
-0.083337 0.498240 0.013991
0.253447 0.457142 -0.200833
0.273393 -0.313744 -0.388452
0.002271 0.211046 -0.453543
-0.179799 -0.113207 0.482747
0.007398 0.300842 -0.399348
0.140723 -0.486336 0.102844
0.139467 -0.191812 0.457121
0.238640 -0.078123 -0.493902
0.103881 -0.443356 0.223595
-0.020679 0.172739 0.465037
0.015116 -0.415225 0.272204
-0.021239 -0.271024 0.415222
0.169596 0.294012 0.400190
0.188591 -0.184631 0.460115
0.103575 -0.480984 0.125363
-0.173838 -0.258035 -0.427730
-0.133793 -0.171637 -0.469419
0.203652 0.000120 -0.500203
-0.014724 0.109365 0.483761
0.189806 -0.494963 0.047437
0.086887 -0.492925 -0.069118
0.086145 0.301812 0.394430
-0.224032 -0.454882 0.199232
-0.130691 0.420021 -0.270640
-0.094431 -0.274444 0.412964
0.039242 0.210526 -0.453799
0.268374 -0.386208 0.311522
0.276667 0.455017 -0.205568
0.208124 -0.467354 -0.172823
-0.029510 -0.494127 -0.060811
0.271561 -0.496270 0.034742
0.215697 0.239479 0.434744
0.042439 -0.428492 0.250711
-0.184832 0.360052 -0.346959
-0.036326 0.450560 -0.215501
-0.051070 -0.497147 -0.022136
-0.104056 0.498271 0.012249
0.131280 0.271550 -0.419905
0.177285 -0.497173 -0.020690
-0.203253 0.101545 -0.489758
-0.232448 0.216330 0.446752
-0.188032 -0.079949 0.489305
0.268852 0.269240 0.417171
0.165742 0.487879 -0.105013
-0.288897 0.409541 0.282038
0.230868 -0.483384 0.115265
0.286260 0.496082 -0.050924
0.274604 0.120837 -0.485523
-0.009267 0.127387 -0.483715
0.083829 0.397120 0.298900
-0.159357 -0.218340 0.445091
-0.022503 -0.066129 0.491304
-0.024715 0.107807 0.484131
-0.251889 0.310606 -0.391981
-0.171668 -0.100124 0.485488
-0.096435 -0.488800 -0.094950
0.181557 -0.465294 0.173800
-0.215384 0.486465 0.106630
-0.121675 -0.014743 0.495567
-0.035728 -0.336702 0.364469
-0.017472 0.068420 -0.495474
0.132901 -0.117460 -0.485947
0.285097 -0.131161 0.478037
-0.063857 -0.202245 0.452771
-0.176909 0.415755 -0.277266
-0.039592 0.174264 -0.468972
-0.013015 -0.497384 -0.009002
0.205006 0.498217 0.015269
0.178332 0.247801 -0.434370
-0.130316 0.329299 -0.376178
-0.070703 -0.473431 0.150738
-0.287090 -0.081205 -0.493372
-0.144787 0.334240 0.367375
0.261888 0.054808 0.492793
-0.095980 -0.283572 0.406938
0.214479 0.401679 -0.297392
0.196945 -0.484160 -0.117099
0.023715 -0.348958 0.352537
0.260311 0.313116 -0.390064
-0.185521 -0.424340 0.257522
-0.215272 -0.417494 0.268751
-0.094840 -0.245739 0.430612
0.212453 0.006788 -0.500083
-0.178095 0.433817 -0.248010
0.110614 0.497491 -0.034723
0.217694 -0.321824 -0.382009
0.148640 0.047852 0.493545
0.020764 0.494608 -0.064559
0.237959 -0.234595 0.437002
-0.084037 -0.339903 0.361353
-0.174125 -0.114160 -0.486731
-0.046682 0.080623 0.489295
0.232584 0.277705 -0.415841
0.121807 -0.128574 0.478751
-0.254467 0.480466 0.130439
0.024383 -0.439362 0.231180
0.259505 0.345834 0.356874
-0.036048 0.112689 -0.487424
0.273021 0.498516 -0.001339
-0.151562 -0.237010 0.435617
0.275512 0.497788 -0.028102
-0.256808 0.364419 0.337850
-0.143703 -0.416555 0.270292
-0.041382 0.459346 -0.195921
-0.073196 -0.482407 0.119376
0.118692 0.278162 -0.415540
0.016862 -0.207727 -0.454506
0.122467 0.148962 0.473129
0.178450 -0.234952 0.436797
-0.000610 -0.404336 0.287774
-0.211364 -0.317961 0.380675
0.071379 -0.346340 -0.359722
0.236578 -0.385817 -0.316596
-0.211662 -0.229184 -0.443978
0.016985 0.388817 -0.313889
0.206963 0.187259 0.459589
-0.203857 -0.485689 -0.109799
0.095341 0.488128 0.098696
0.256619 -0.469906 -0.165425
-0.052936 0.447200 -0.222594
-0.002877 0.364519 -0.342027
0.064991 0.354847 -0.352155
0.147653 0.369135 0.332879
0.140040 -0.200629 -0.457691
-0.106147 0.294086 0.400138
-0.064023 0.323793 0.376838
-0.117992 0.498076 -0.021688
0.134046 0.433190 0.244268
0.161388 0.367050 -0.339232
0.273215 0.497831 0.025605
-0.005324 0.115501 -0.486835
-0.277539 0.215097 -0.451547
-0.172434 0.409920 0.281464
0.232767 0.224029 0.442878
0.258452 -0.497011 -0.027433
0.027646 -0.116465 0.482065
0.278115 -0.326657 0.373213
-0.117365 0.046031 -0.498059
-0.251084 0.130700 -0.482801
0.099419 -0.466721 0.169997
0.004250 -0.024014 0.495400
-0.030075 0.387680 -0.315314
0.049062 -0.422316 0.260841
-0.106490 0.034869 0.494721
-0.104153 0.329715 0.371474
-0.289436 -0.113839 -0.486807
-0.155121 -0.138609 0.475981
0.019071 0.497686 -0.030387
0.209149 -0.206705 -0.454964
-0.194012 -0.416496 -0.274305
0.267656 0.492765 -0.077749
0.137080 -0.109298 0.483566
-0.023030 0.035739 0.494682
-0.224361 0.030750 -0.499297
0.156849 0.464359 -0.183376
-0.165058 0.154507 0.471438
-0.157473 0.348162 0.354549
0.112741 -0.483715 0.113870
-0.062225 -0.321192 0.377902
-0.111214 0.072497 -0.494885
-0.199094 -0.446494 -0.221558
-0.137526 0.339142 -0.367444
0.113803 -0.182327 0.461075
0.216001 -0.317567 0.381013
0.143252 0.101334 0.485669
0.248966 -0.234670 0.436959
-0.247141 0.021625 -0.499815
-0.182075 -0.476756 -0.144519
-0.053779 -0.180468 -0.466106
-0.051375 0.494309 -0.067329
-0.006046 -0.130648 -0.482758
0.116385 0.417262 0.270343
-0.214683 0.273574 -0.418569
-0.203835 0.420458 0.265501
0.186482 0.466463 -0.177770
-0.123978 -0.265888 0.418613
-0.276793 0.273614 -0.418542
0.010221 -0.497237 -0.017111
0.278735 -0.143382 0.474663
0.203544 -0.307824 0.388954
0.077866 -0.198349 0.454395
0.282012 0.362628 -0.344115
0.003158 -0.274781 0.412741
-0.030330 -0.107739 -0.488257
0.240952 -0.435501 0.238514
0.089212 0.438022 -0.240024
-0.277711 0.449450 -0.217975
-0.053938 -0.334197 -0.370840
-0.008031 -0.278862 0.410048
-0.246184 0.498201 0.016170
0.042036 -0.491172 0.076700
0.237374 0.033314 -0.499089
0.227834 -0.216643 0.445927
0.042276 0.495605 0.053085
0.043854 -0.324866 -0.379291
-0.206176 0.111528 0.483247
-0.247363 0.490288 -0.092136
-0.271140 0.439321 0.233576
-0.037228 -0.179157 -0.466598
0.124220 0.232423 0.438459
-0.054868 0.262373 0.421357
-0.187276 0.404640 0.288932
-0.044598 0.470966 0.160969
0.092266 -0.477345 0.137912
-0.065164 -0.352716 -0.353172
0.072715 -0.127629 0.479012
0.237100 -0.042073 0.493943
-0.253625 -0.497370 -0.009761
-0.212725 0.228080 0.440746
-0.224620 -0.203982 0.452047
0.155780 0.134058 -0.481873
0.019060 0.133457 -0.482040
-0.017129 -0.264794 -0.423610
0.187848 0.493112 -0.075737
-0.005834 0.225427 0.442143
0.283801 -0.225846 -0.445736
0.088465 -0.050301 -0.497523
-0.024183 0.472365 0.156913
-0.058702 -0.357026 0.344682
-0.073811 -0.370607 0.329821
0.204436 -0.045334 -0.498060
-0.151093 0.408725 -0.287317
0.107391 -0.457164 0.194147
-0.188223 0.443515 0.225331
-0.061962 0.311088 0.387034
0.267576 0.065257 0.491664
0.256638 0.198006 0.454974
0.086419 -0.037104 0.494345
0.129518 -0.403326 0.289218
0.168395 0.487685 0.100810
-0.109118 0.116691 0.482020
0.087678 0.179589 0.462467
0.224799 -0.447677 0.215289
-0.268954 0.259988 0.422812
0.105157 0.445122 -0.226540
0.253081 0.125569 0.479910
0.110874 -0.339805 0.361447
0.082149 -0.373387 -0.331083
-0.039869 0.292724 -0.405473
-0.164089 -0.267246 -0.422115
-0.043586 0.413794 0.275596
0.173632 -0.496265 0.034873
-0.152351 0.318478 0.381142
0.229649 -0.078423 0.489526
-0.071695 -0.468243 -0.170244
-0.129473 -0.472751 -0.157176
-0.152987 0.429419 -0.255225
0.116063 0.498435 -0.013682
0.188269 0.265524 0.419436
-0.098547 -0.488338 0.093157
0.166979 -0.037705 -0.498884
-0.151388 0.285152 -0.410925
0.275976 -0.070079 -0.495287
0.267073 0.447959 -0.221151
0.261212 -0.497227 0.013421
-0.079479 -0.482034 -0.125400
-0.242253 0.372579 -0.333128
-0.143225 0.330080 -0.375508
0.060456 0.329844 -0.375711
-0.108855 -0.337872 -0.367511
0.116893 0.317796 -0.386049
0.285779 -0.486755 -0.104707
-0.102116 -0.177800 0.462963
-0.074365 -0.383257 0.315223
0.030718 -0.497064 0.017046
-0.047242 0.293932 0.400245
0.021219 -0.464283 0.176495
0.174455 -0.286464 -0.409105
-0.106316 0.389941 0.308415
0.244789 -0.335472 -0.369684
-0.052388 0.483936 -0.121605
0.165417 0.053691 -0.497438
-0.140068 -0.484502 -0.115464
-0.270808 -0.216779 -0.450444
-0.224699 0.250790 -0.432656
-0.257243 0.161414 0.469287
-0.042669 0.447174 0.217904
0.244661 0.483122 0.120818
0.230977 -0.390677 0.305917
0.211880 0.219395 -0.449429
-0.006382 0.160595 0.469580
0.042981 0.287725 -0.409227
0.228056 -0.400305 -0.297672
0.099035 0.295398 -0.403455
0.284219 0.489923 0.090125
-0.006548 -0.266844 -0.422360
0.136309 -0.400085 -0.297965
-0.114191 0.405250 -0.292285
0.237406 -0.469162 0.163493
0.273868 -0.199295 -0.458290
0.114131 -0.411601 -0.281719
0.033540 -0.328457 -0.376038
0.099208 -0.087893 0.488050
0.246111 -0.479110 0.132126
-0.206611 -0.493972 -0.061880
-0.105592 0.320560 -0.383677
0.251776 -0.148250 0.473238
-0.088394 0.002018 0.495869
-0.165597 -0.495812 -0.042235
0.245946 0.305052 -0.396172
0.215154 -0.376496 -0.327459
0.219373 0.054203 -0.497396
-0.130697 0.076230 -0.494344
0.001964 0.496996 -0.042461
0.018270 -0.329276 0.370966
0.068193 0.441831 0.228748
-0.053381 0.351320 0.351306
-0.075814 -0.490847 -0.083483
0.250504 0.452707 -0.210716
-0.014394 -0.244901 -0.435703
-0.056622 0.252765 0.427215
0.151885 -0.140817 0.475371
-0.071733 0.478477 -0.141913
-0.009968 0.424417 0.259505
-0.237767 -0.354255 -0.351591
-0.123275 -0.177485 0.463094
0.183922 0.470346 -0.167421
0.163030 0.497036 0.035415
0.113516 0.112310 0.483061
-0.082711 -0.141038 -0.479588
0.153181 -0.481260 0.124200
-0.239013 -0.421274 0.262551
-0.149429 0.138982 0.476175
0.204789 0.498625 -0.007405
0.065909 -0.193273 -0.460992
0.249388 -0.488122 0.094414
0.200160 0.368938 -0.337148
-0.032885 -0.068733 -0.495519
-0.150455 -0.438254 0.233284
0.065549 -0.464748 0.175255
0.182693 0.149696 -0.477446
0.098686 0.497283 0.032368
0.265666 -0.269353 -0.420831
0.022330 0.441293 0.229840
-0.007025 -0.380432 0.318766
0.051859 0.362592 0.339728
0.255341 0.071834 0.490808
-0.113338 -0.482767 -0.122745
0.271080 -0.322654 -0.381294
0.237577 0.496595 0.040864
0.027468 -0.063739 -0.496070
-0.053645 -0.469874 0.161595
0.050144 0.462842 -0.187419
0.284398 0.024753 -0.499759
-0.134268 0.498573 -0.004474
-0.276724 -0.282964 0.407339
0.179242 -0.493118 0.064514
-0.152783 -0.277046 -0.415691
-0.056575 -0.432894 0.243464
-0.031716 0.045123 -0.498132
-0.215867 -0.124027 -0.484386
-0.050885 -0.326867 0.373033
0.000662 0.485909 0.109287
-0.256672 -0.362106 -0.343528
0.060550 -0.102379 0.485016
0.016395 -0.180324 -0.466160
0.190217 0.458148 -0.198591
0.225165 -0.261900 -0.425374
-0.103486 0.485199 0.112677
0.043590 0.497716 -0.029723
0.262795 0.369326 0.332657
0.090430 -0.456247 0.196191
0.175343 -0.384528 -0.318099
0.038177 0.498382 0.006112
-0.289840 -0.227336 -0.444952
-0.053201 -0.397806 0.296977
0.177165 -0.490146 0.082656
0.153455 -0.331620 -0.373173
0.084666 0.062699 -0.496302
-0.113269 -0.281324 0.408422
0.202874 0.416377 0.271684
-0.202054 0.175259 0.464091
0.055236 -0.327816 -0.376619
0.046105 0.156968 0.470686
0.063292 0.357840 0.344609
-0.139806 0.491690 -0.083993
0.080225 -0.415380 -0.275995
0.157734 0.105678 0.484637
0.048112 0.085424 -0.493014
-0.088407 -0.201236 -0.457419
-0.272830 0.357225 -0.349839
-0.006414 0.458399 -0.198031
-0.148194 0.276232 -0.416813
-0.095333 -0.112080 0.482983
-0.276647 -0.480828 0.126021
0.282382 0.498411 0.004517
-0.053051 0.345808 -0.360954
0.058067 0.194391 -0.460826
0.132899 0.285646 -0.410599
-0.185600 0.496257 -0.049302
0.161436 0.435224 -0.245338
0.191878 -0.251811 0.427129
-0.078587 -0.465233 -0.178970
-0.132936 0.482642 0.122555
0.018441 0.328358 -0.376986
-0.139144 -0.262038 -0.425290
0.268413 -0.244586 0.431273
-0.223369 0.495294 0.055474
0.068550 -0.355810 -0.349995
0.245187 0.043582 0.494006
-0.100221 0.434909 0.241269
-0.201907 0.468316 -0.172831
-0.165069 -0.370237 -0.334754
-0.097119 0.165963 0.467580
0.146965 -0.486832 -0.104341
0.210190 0.393403 0.303826
0.080885 -0.281794 -0.412371
-0.007575 0.469739 0.164526
0.175388 0.464499 -0.183003
0.155143 0.468105 0.169264
-0.002437 0.316263 -0.387365
0.188343 -0.310476 -0.391058
-0.175935 0.456537 -0.202180
-0.154946 0.496139 0.046486
0.230026 -0.495028 -0.051915
-0.201098 -0.180374 -0.466141
0.286272 0.077626 -0.494142
0.080138 0.273986 -0.418297
0.036118 0.294947 -0.403795
0.270246 0.419944 0.266280
0.017480 0.071909 -0.494970
0.159605 0.449306 -0.218296
0.034260 -0.485459 0.106532
0.272945 0.086945 -0.492794
-0.035105 0.400912 -0.298489
-0.204757 -0.389226 0.307737
-0.039357 0.330165 0.371067
0.242750 -0.436325 -0.241367
-0.270191 -0.194733 -0.460337
0.138325 0.398187 -0.302138
0.281943 0.311640 -0.391201
-0.230808 0.417331 -0.275012
-0.119052 -0.497232 -0.017436
0.253676 0.332763 0.368713
-0.167005 -0.367582 0.333161
0.119548 0.498242 0.013894
-0.050721 -0.325889 -0.378364
0.231983 0.346894 0.355852
-0.059248 -0.473182 0.151555
0.256854 0.496145 -0.050341
-0.192352 -0.416624 0.270178
0.174320 -0.313179 -0.388903
0.012583 -0.439806 0.230337
-0.170039 0.234394 -0.442038
0.225926 0.163185 -0.472793
-0.025059 -0.158951 -0.474122
-0.024630 0.438239 0.235463
-0.045034 -0.429834 0.248510
-0.232183 0.046528 0.493688
-0.105528 -0.108384 0.483758
0.023366 -0.436702 -0.240709
0.060151 -0.001754 0.495801
-0.090620 -0.412838 0.275617
-0.010751 -0.139374 0.475770
0.032426 -0.198604 0.454289
-0.281415 0.156954 0.470691
0.147506 -0.165996 0.467117
-0.014926 0.265165 0.419655
-0.265345 0.318885 0.380817
-0.077379 0.344506 -0.362222
-0.068725 0.044501 -0.498182
-0.136851 0.495018 -0.060766
-0.149668 0.181850 -0.466055
0.073496 -0.463501 -0.183189
-0.187599 -0.202227 0.452779
-0.234073 -0.484845 -0.113829
0.153313 -0.295604 -0.402713
0.116817 -0.039036 0.494189
-0.184992 -0.492147 -0.074497
-0.240856 0.443403 0.225558
0.099856 -0.279569 -0.413927
-0.112617 -0.257394 0.423928
-0.183900 -0.173119 0.464660
0.044307 -0.392440 0.303706
-0.288541 0.498586 -0.005217
0.176607 0.477024 -0.146675
0.137028 -0.353497 0.348118
-0.262315 -0.029913 0.494928
-0.205204 0.494800 0.058888
-0.123016 -0.432555 -0.247941
0.190778 0.416414 0.271627
0.149474 0.306182 0.390946
-0.149946 0.446000 0.220288
-0.105480 0.381697 0.318239
0.046309 -0.488718 -0.095339
-0.118895 -0.189944 -0.462486
0.021117 -0.166967 -0.471172
0.062482 0.042421 -0.498351
0.086505 0.417450 -0.274842
-0.120462 0.178952 0.462706
-0.102597 0.290046 -0.407493
-0.220508 -0.484354 0.111182
0.120994 0.495611 0.053011
-0.133960 -0.482686 0.118201
0.100433 -0.497590 0.005331
-0.018100 -0.330236 -0.374427
-0.235198 -0.196051 0.455353
-0.136465 0.397807 -0.302615
-0.096839 -0.493833 0.057895
0.185270 -0.461304 -0.188460
-0.138620 0.470038 -0.168243
0.205603 -0.496628 -0.032158
-0.283845 0.446039 0.220209
0.125865 -0.152031 0.471934
0.187608 -0.061399 0.491988
-0.036078 0.002785 -0.500155
-0.042261 -0.447601 -0.219311
0.223150 0.079989 -0.493801
-0.179548 0.420984 0.264704
-0.173218 -0.496746 -0.030699
-0.251515 0.403484 -0.294811
-0.238292 -0.112867 -0.487038
-0.154563 -0.474157 -0.153102
-0.116452 -0.351718 0.349849
0.121318 0.132636 0.478111
-0.091484 0.058886 -0.496854
0.118678 0.014228 -0.499949
-0.162903 0.038543 0.494551
0.108115 0.150352 0.472705
0.124679 0.497785 0.026177
0.207800 0.090807 -0.492008
0.154478 -0.033813 -0.499076
0.138495 0.262965 -0.425572
-0.028218 0.468679 0.167599
0.035717 -0.353471 -0.352397
0.136709 -0.378632 -0.324970
-0.001603 0.412003 0.278308
0.175085 -0.336137 0.365019
0.201157 -0.263172 -0.424599
-0.265192 0.403083 -0.295384
-0.122176 0.438909 -0.238340
0.124430 0.486140 0.108182
0.061248 -0.405643 -0.290598
-0.237704 0.129714 -0.483073
-0.151211 0.483055 -0.125316
0.015820 -0.085872 0.488448
-0.076357 -0.100288 0.485454
0.120742 -0.072743 0.490347
-0.132070 -0.204180 -0.456098
-0.058455 -0.104307 0.484612
-0.223347 0.424180 0.259863
0.096944 0.107115 0.484295
-0.254442 0.460757 -0.192778
0.244060 -0.456378 0.195898
0.239993 -0.485471 0.106481
-0.118746 0.028558 0.495004
-0.149545 0.498180 0.017343
-0.181040 -0.447088 -0.220353
-0.021556 0.396778 0.299352
-0.261049 -0.490065 -0.088889
0.090890 0.390146 0.308144
0.128655 -0.486921 0.100380
-0.229712 0.409790 -0.285794
-0.017928 0.493616 0.067076
0.002263 0.437818 0.236197
0.107184 -0.014628 -0.499936
0.108029 0.351803 0.350810
0.040298 0.307586 0.389827
0.132989 0.263897 0.420428
-0.284533 0.154876 -0.475660
0.150319 0.047664 -0.497926
-0.177694 0.002508 -0.500160
-0.043486 0.454280 -0.207211
-0.092031 0.318166 0.381391
0.004368 -0.476251 -0.146351
-0.098915 0.489227 -0.098304
-0.113175 0.468370 -0.172688
-0.128812 0.117146 0.481911
0.034270 0.419771 0.266542
0.034504 0.318734 0.380937
0.274203 -0.363529 0.337635
-0.037854 0.017540 0.495498
0.227013 -0.456495 -0.199993
0.041246 0.053244 -0.497474
-0.076160 -0.206426 -0.455090
0.286681 0.237278 -0.440404
-0.176167 -0.072248 0.490419
0.040565 -0.194706 -0.460349
-0.187601 0.034101 -0.499025
-0.105631 0.440057 0.232293
-0.137182 0.210489 0.449373
-0.253601 -0.495954 -0.040477
0.088772 0.216245 -0.450981
0.041800 0.370276 -0.335670
0.207259 0.485439 0.111529
-0.165436 -0.027012 0.495163
-0.010526 -0.098926 0.485739
0.195012 0.497161 0.033877
0.225913 -0.408768 0.281436
0.108562 -0.213722 0.447366
0.011530 0.379397 0.320919
-0.036905 -0.372025 -0.332670
0.220338 0.384013 -0.319914
-0.241172 -0.494430 -0.058715
-0.046728 0.495440 -0.056861
0.088076 -0.263685 0.420067
-0.074529 -0.345255 -0.360824
-0.277494 0.406272 -0.290825
0.245087 0.420414 0.265568
0.275788 -0.299711 -0.399643
-0.131147 0.017308 0.495509
0.147135 -0.334922 0.366121
-0.057788 -0.191843 0.457108
-0.168567 -0.412323 -0.280625
0.022462 0.122952 -0.484939
0.043117 0.100134 0.485936
-0.201494 -0.451514 -0.211371
-0.070888 0.122595 -0.485038
0.239584 -0.482013 0.121033
-0.048075 0.480779 0.129306
0.002775 0.186096 -0.464285
0.224619 -0.429998 -0.252399
0.020411 -0.478442 -0.138411
-0.056428 -0.063602 -0.496085
-0.083757 -0.361387 -0.344266
0.152614 -0.041796 0.493965
0.258049 0.498616 -0.006884
0.254772 0.203042 -0.457219
0.047294 0.481438 -0.132119
0.146965 -0.164804 -0.471984
0.082317 -0.164032 0.467794
0.010894 -0.323501 0.375921
-0.057494 0.107063 -0.488602
0.094692 -0.115098 0.482351
-0.036379 0.488311 -0.103199
0.119963 0.467219 0.171831
0.020946 -0.497439 0.008686
-0.034419 -0.370322 0.330135
0.119422 -0.486704 -0.104953
-0.018282 0.374370 0.326778
0.130812 -0.352005 -0.353903
-0.288689 0.320450 -0.383772
-0.253304 -0.449702 0.210776
-0.148100 0.464773 0.178244
-0.232711 -0.162249 -0.472942
0.081724 -0.207592 -0.454567
0.272491 -0.484044 -0.117649
-0.050909 -0.274083 -0.417764
-0.193524 -0.497533 -0.000730
0.068502 -0.273661 0.413481
-0.057366 0.498243 -0.017971
-0.236537 -0.319235 -0.384074
-0.217443 -0.190518 0.457660
0.098706 -0.451067 0.207733
0.176191 0.247192 0.430613
0.153916 0.498559 -0.003743
-0.255038 0.449469 -0.217931
-0.159186 0.489777 0.090823
-0.023945 0.473412 -0.158513
0.120986 0.149504 -0.477513
0.102433 -0.488914 -0.094403
-0.188509 -0.175346 -0.468028
-0.105342 0.367968 -0.338219
-0.053789 0.498598 -0.005889
0.093542 -0.487265 -0.102276
0.000928 0.454634 0.202564
-0.123304 0.027410 -0.499567
-0.250897 0.496294 -0.048964
-0.207733 0.198797 0.454620
-0.006166 0.493907 0.065059
0.040479 -0.317098 0.381415
0.156364 -0.495381 0.043573
-0.090044 0.449571 -0.217705
0.034714 -0.164765 0.467541
0.162652 -0.007599 -0.500252
0.023181 0.478095 -0.143165
-0.075594 -0.195922 0.455407
0.098397 -0.450768 -0.212885
-0.112098 -0.407611 0.283092
-0.221257 -0.314255 0.383855
0.223989 0.490145 0.089067
0.056937 -0.279036 0.409932
0.029186 -0.495614 -0.044679
0.137715 0.365542 0.336697
-0.288090 0.049724 -0.497759
-0.273879 -0.420589 0.263674
-0.016140 0.363569 0.338724
-0.130818 0.223062 -0.447622
0.212708 -0.309265 -0.392024
-0.201408 0.410213 -0.285190
0.113159 0.471953 -0.163138
0.161022 -0.332593 0.368119
0.275245 -0.266299 0.418341
-0.134981 -0.207310 0.450525
0.197952 -0.073699 -0.494664
-0.101899 -0.467994 0.166604
-0.212242 0.433486 -0.248553
-0.066087 -0.489609 0.085779
-0.161938 -0.200769 0.453387
-0.209351 -0.404917 0.286943
0.139945 -0.497613 0.003741
-0.095916 0.151218 0.472441
0.115730 -0.496773 0.023545
0.042135 0.105846 -0.488857
-0.187315 0.137575 0.476604
0.249346 0.029482 0.494963
-0.172494 0.084453 -0.493155
0.117829 0.159904 0.469791
0.191871 0.041855 0.494193
0.152289 0.080655 -0.493704
-0.280596 0.404769 0.288760
0.014357 0.289401 0.403414
0.133127 -0.131072 0.478062
-0.173985 -0.298639 0.395883
-0.080511 0.185610 -0.464487
0.252469 0.143250 -0.479336
-0.045984 0.343582 0.358914
-0.179287 -0.346893 -0.359153
0.198394 0.387774 -0.315197
-0.040583 -0.381041 -0.322162
0.044547 -0.199743 0.453814
0.133048 -0.410512 -0.283368
-0.185622 0.065709 0.491615
0.132141 -0.320593 0.378416
-0.159144 0.186773 -0.464002
-0.040560 -0.088934 0.487832
-0.089614 0.373959 0.327257
-0.067726 -0.492127 -0.074635
0.253217 -0.455814 -0.201626
-0.007419 0.298627 0.396962
0.218901 -0.280888 0.408710
-0.078660 0.469382 0.165559
0.160622 0.042217 -0.498368
0.262302 0.283176 0.407768
0.125199 0.251442 0.428022
0.150274 -0.177062 0.463270
0.120978 0.428567 -0.256622
-0.227352 -0.395579 0.299770
0.285027 0.095341 -0.491058
-0.118140 -0.492303 0.070127
0.112350 -0.184267 -0.464680
0.083279 0.017593 0.495496
-0.023798 0.480595 -0.134971
0.231016 0.492511 0.074712
-0.191279 -0.004718 0.495748
-0.221187 0.043692 -0.498248
-0.289567 -0.259066 -0.427102
-0.161547 0.242120 -0.437628
-0.178929 -0.466547 0.170461
0.255493 0.150544 0.472647
-0.140584 0.496425 -0.047749
0.118145 0.416585 -0.276079
-0.149830 0.382830 0.316919
0.151403 -0.463820 -0.182425
-0.066466 -0.478671 -0.137584
-0.063646 0.458986 0.192125
-0.229777 0.403826 0.290011
-0.062972 0.494037 -0.069843
0.021298 -0.065147 0.491446
-0.286232 0.210100 -0.454009
0.006580 -0.403142 -0.293912
-0.264956 -0.202478 0.452674
-0.272530 0.043337 0.494033
-0.164434 -0.014254 0.495576
-0.044091 -0.044305 -0.498171
0.197309 0.471646 0.158996
0.118662 0.278739 0.410871
0.187162 0.434069 0.242734
-0.177818 0.074805 0.490296
-0.000202 -0.497160 -0.021423
-0.281525 -0.139454 0.475748
-0.061306 0.092508 0.487249
-0.198382 -0.283320 -0.411304
-0.164156 0.497871 -0.026262
-0.159306 0.464829 0.178109
0.238989 0.456111 -0.203130
-0.222220 0.474284 0.151351
0.096315 -0.058028 -0.496688
-0.005681 -0.279599 -0.413906
-0.281769 -0.486265 0.103140
-0.232868 -0.370761 0.329650
-0.172723 -0.496224 0.035773
-0.217734 -0.488812 0.090407
0.039588 0.047173 0.493618
0.275186 -0.098202 -0.490446
0.095983 0.385094 -0.318559
-0.024130 0.491484 -0.085191
0.018802 0.482531 0.122959
-0.278285 0.484550 -0.119023
-0.231981 0.283333 -0.412126
-0.100192 -0.259418 0.422767
-0.010269 0.221750 -0.448268
-0.116870 -0.290910 0.401714
0.139696 0.095576 -0.491009
0.046757 -0.466888 -0.174173
-0.104235 -0.475012 0.145557
0.238452 -0.118873 -0.485611
0.107404 0.217001 -0.450608
0.148324 -0.107913 0.483856
-0.049919 -0.053412 -0.497187
-0.137713 -0.401110 0.292386
-0.008318 0.320732 0.379344
0.210867 0.210038 -0.454040
-0.275111 0.312337 -0.390676
-0.082560 0.131653 -0.482537
0.158602 0.471445 -0.164493
0.088780 0.491122 0.084314
-0.261855 -0.368578 0.332060
-0.272259 0.388036 0.310851
0.022965 -0.488222 -0.097708
-0.276706 0.454878 0.201978
-0.052837 -0.479656 -0.134013
-0.272677 -0.454779 0.199462
0.129961 -0.455426 -0.202559
0.207889 -0.333282 0.367528
0.086915 0.337408 -0.369132
-0.113461 -0.126607 0.479294
-0.021920 -0.372432 0.327805
-0.088754 0.438990 0.234152
0.154182 -0.416622 0.270182
0.073157 0.014771 -0.499939
-0.084181 0.259362 0.423193
0.286195 0.301153 0.394956
0.191434 0.331686 0.369689
0.153173 -0.194515 0.455994
0.119140 0.027190 -0.499585
-0.281134 0.443834 -0.228987
0.236030 0.451576 -0.213236
-0.043040 0.227162 -0.445602
-0.063209 -0.287498 -0.408382
0.153741 -0.261761 0.421337
0.246874 0.107832 0.484125
0.183799 -0.357521 0.344200
0.109375 -0.450869 0.208174
-0.026364 -0.275372 -0.416862
-0.175641 0.493824 -0.071600
0.104712 0.482236 0.124027
0.171932 -0.119442 0.481272
0.217848 -0.126340 -0.483837
-0.180081 -0.431858 -0.249155
-0.164019 0.489406 -0.097263
-0.007240 0.081852 -0.493531
0.272823 0.011193 0.495783
0.017994 0.447728 -0.221591
0.092646 -0.189893 -0.462509
0.166909 0.468178 0.169052
0.222035 0.255191 0.425736
-0.169921 0.482636 0.122579
0.115024 0.424188 0.259852
-0.269268 -0.333602 -0.371378
-0.186586 -0.467742 -0.171697
-0.136511 -0.479226 -0.135571
0.111414 -0.279055 0.409920
0.233354 0.494347 0.062018
-0.221055 -0.439153 -0.236434
0.257302 0.378544 0.321913
0.123619 -0.472901 0.152476
-0.103455 -0.365661 -0.339876
-0.211722 0.169185 -0.470724
-0.011546 -0.006235 0.495721
0.022255 -0.160358 0.469062
0.144844 0.457672 0.195276
0.173263 -0.455978 -0.201235
-0.226789 0.085770 0.488409
-0.094880 0.101583 0.485610
-0.047874 -0.212366 0.448034
-0.174497 -0.227982 -0.444611
0.194208 -0.016439 0.495537
-0.267671 0.374850 -0.330621
0.013121 -0.030383 0.494890
0.286841 -0.431554 0.245688
-0.057856 -0.453661 0.201952
0.016683 0.435729 0.239840
0.094555 0.409858 -0.285697
0.155456 -0.343023 -0.362846
-0.138169 -0.261200 0.421707
0.005635 0.481206 0.127756
-0.233137 -0.437977 -0.238486
-0.213057 -0.082589 0.488923
0.095798 -0.403759 0.288599
-0.137157 0.004627 0.495916
0.164023 -0.423706 0.258561
0.224005 0.233020 0.438145
0.151140 -0.228292 0.440187
-0.215364 0.211562 -0.453289
0.010743 -0.051098 -0.497437
-0.155483 0.254420 0.426206
0.055231 0.063254 0.491880
0.243326 0.010423 0.495817
0.006907 0.350681 0.351962
0.080908 -0.195558 -0.459967
0.180147 -0.377548 0.322157
0.062095 -0.424576 -0.261855
0.246029 0.313656 -0.389601
-0.156312 -0.220879 -0.448351
0.212124 0.497717 -0.029683
-0.158612 0.468944 0.166831
-0.156496 -0.113867 0.482609
0.156080 0.421658 -0.267954
-0.247838 0.229196 -0.444599
-0.271112 0.052569 -0.497529
-0.016823 -0.463060 -0.184249
0.111754 0.139484 0.476021
-0.260800 -0.496738 -0.030808
-0.250223 -0.411222 0.277928
0.161172 0.068429 0.491321
-0.042980 -0.409268 -0.285253
0.229976 -0.128630 0.478736
-0.226270 0.382919 0.316815
-0.249812 0.386165 0.313032
-0.104564 0.473091 0.154808
0.232565 0.454626 0.202581
-0.257112 0.262484 -0.425890
0.257261 -0.469915 0.161485
0.128930 -0.497473 0.007940
-0.261989 -0.075686 -0.494322
0.142127 -0.344311 0.357061
0.128363 0.014009 0.495657
0.240647 -0.375012 -0.329189
-0.023096 -0.492024 0.071749
-0.070593 -0.453770 0.201709
0.118443 0.474994 0.149292
0.285923 -0.193903 0.456249
0.198415 -0.060543 -0.496416
0.213659 0.375247 -0.330182
0.115011 -0.496705 -0.031216
0.230132 -0.497057 -0.026860
-0.030503 0.123050 0.480508
0.056473 0.251416 -0.432297
-0.211262 0.476507 0.144779
-0.140959 -0.032400 -0.499139
-0.012390 -0.310743 0.386752
0.158406 0.056126 0.492650
0.186769 -0.470304 -0.164271
-0.078068 -0.478592 -0.137867
-0.229947 0.312496 -0.390556
-0.140444 0.189305 0.458821
0.044524 0.455584 -0.204305
-0.061892 0.090943 -0.491979
-0.096081 0.049567 -0.497772
-0.160520 0.479653 -0.138060
-0.023806 -0.495991 0.037925
-0.228495 0.120362 -0.485654
0.169905 0.378480 -0.326613
0.089578 -0.072591 -0.494855
0.066824 0.229709 0.439888
0.117374 0.212934 -0.452613
0.221517 -0.493060 0.065048
-0.012455 0.436325 0.238801
0.026878 -0.307922 0.388880
-0.007305 -0.447917 0.214753
-0.039924 0.249467 -0.433414
0.049200 0.202690 -0.457367
-0.262438 0.388821 -0.313884
-0.211248 0.352620 0.349970
0.124167 -0.481888 -0.125927
0.252170 -0.132268 -0.482264
0.159793 0.382533 -0.321770
0.280484 0.415838 0.272500
0.123133 -0.149213 -0.477093
0.027550 0.448332 0.215554
0.077037 0.458931 0.192257
-0.074803 -0.269551 -0.420710
-0.185886 0.380507 -0.324310
-0.065154 -0.363795 -0.341793
-0.134523 -0.401231 -0.296445
0.269110 0.228202 -0.445089
-0.114781 0.069261 0.491231
0.015522 0.453344 0.205383
0.002786 -0.230822 0.438940
0.286568 0.252718 -0.431550
-0.076850 0.489959 0.089954
-0.065463 0.034498 0.494738
-0.238168 -0.496765 0.023714
0.270300 -0.281114 -0.412846
0.058199 0.088105 0.488007
0.014619 -0.232046 0.438337
0.159261 -0.374868 -0.329357
-0.034535 -0.097922 -0.490494
-0.137793 -0.342151 -0.363635
0.284471 0.349183 0.353501
-0.072187 0.450370 0.211419
0.045704 -0.276430 -0.416122
-0.260693 0.008006 0.495926
0.013855 0.486490 -0.110859
0.044249 0.413250 -0.280847
0.065479 -0.311944 0.385837
-0.016477 -0.167940 -0.470807
-0.184462 0.193971 -0.461002
-0.060574 -0.047596 0.493495
0.243920 -0.493957 0.056744
0.283460 -0.178096 0.462839
-0.288922 -0.391137 -0.309825
0.281318 -0.339752 -0.365808
-0.085151 -0.214910 0.446781
-0.229106 -0.494520 0.051540
0.127995 0.495555 -0.055796
-0.102640 0.200075 -0.458457
0.031109 0.055208 0.492750
-0.162154 -0.417500 -0.272783
0.216817 0.496495 0.042098
0.211456 0.107821 0.484127
-0.136412 -0.391873 -0.308849
0.263481 -0.269561 0.416188
-0.122252 0.127949 0.479344
-0.241606 -0.311210 0.386399
-0.126746 -0.305852 -0.394745
0.168015 0.274376 -0.418039
-0.162443 -0.497201 -0.019161
0.054723 -0.224806 -0.446284
0.215660 0.497707 0.027133
0.257966 -0.252763 -0.430945
0.253082 -0.405178 -0.291214
0.111951 0.196742 0.455542
0.243354 -0.245386 0.430814
-0.141479 0.496020 0.047958
0.221424 0.494071 0.063927
0.157496 0.414829 -0.278589
0.084351 0.486950 0.104318
-0.273539 -0.311546 -0.390206
0.096015 -0.484743 0.109547
-0.077526 -0.005638 -0.500306
0.214865 -0.394579 -0.305263
-0.040873 -0.251185 -0.431906
-0.082604 0.476788 0.143762
0.155560 -0.371381 0.328966
0.083038 -0.486235 -0.107192
0.164211 -0.497011 -0.027437
-0.187861 0.006796 0.495955
-0.221155 -0.496825 0.022382
-0.092381 0.197047 0.455405
0.153957 0.095558 0.486724
0.165549 -0.490279 0.081884
-0.166659 -0.353385 0.348226
-0.108529 0.478260 0.138429
0.283107 -0.154569 0.471059
-0.000586 -0.493907 0.057209
0.015628 0.223480 0.443168
-0.120786 0.415466 0.273062
0.118609 0.299296 -0.400514
0.130701 0.490766 0.086103
0.017568 -0.481747 0.122151
-0.129370 0.188628 0.459075
-0.220712 -0.496618 -0.032282
-0.076433 0.060728 0.492153
0.020466 0.495728 -0.054195
0.168920 -0.451692 0.206341
0.261000 0.490517 -0.090811
-0.177340 0.493391 0.068630
-0.150921 0.167626 -0.471262
0.229039 0.264706 0.419935
-0.011030 -0.162178 0.468434
0.231740 0.287495 -0.409378
-0.213306 -0.494884 -0.053689
-0.015302 -0.471046 -0.162118
0.036188 0.478257 0.138440
-0.062091 0.498106 0.021413
-0.139538 0.433765 0.243264
0.123975 -0.248419 0.429075
-0.200557 -0.406000 -0.290125
-0.130742 0.036744 -0.498811
-0.206464 -0.263083 0.420464
-0.286300 0.430602 -0.253284
-0.148702 0.193441 -0.461222
-0.172580 -0.059318 0.492289
-0.190727 0.078398 -0.494031
