-0.290288 -0.052405 0.455648
-0.290288 -0.106650 -0.488206
-0.290288 0.435365 -0.098334
-0.290288 -0.251020 0.409565
-0.290288 0.005600 0.482107
-0.290288 -0.439249 0.194812
-0.290288 -0.367631 -0.253388
-0.290288 -0.443040 0.193824
-0.290288 -0.357368 -0.347643
-0.290288 -0.334928 0.332984
-0.290288 0.027052 -0.471552
-0.290288 0.276927 0.368565
-0.290288 0.354224 0.331781
-0.290288 0.053041 0.466207
-0.290288 0.164593 0.422074
-0.290288 0.255345 -0.417111
-0.290288 -0.451060 -0.154198
-0.290288 0.185870 -0.422103
-0.290288 -0.071754 0.476410
-0.290288 0.158821 -0.444227
-0.290288 0.185294 0.451114
-0.290288 0.351254 -0.318671
-0.290288 0.455330 -0.016774
-0.290288 0.437635 -0.088692
-0.290288 0.401671 0.194274
-0.290288 0.468858 0.139538
-0.290288 0.318378 -0.319070
-0.290288 -0.081846 0.464951
-0.290288 0.434597 -0.238524
-0.290288 -0.233457 0.402988
-0.290288 -0.458735 0.174268
-0.290288 -0.438043 -0.137513
-0.290288 -0.423972 0.157518
-0.290288 -0.251648 -0.369408
-0.290288 0.273821 0.371872
-0.290288 -0.465027 0.108526
-0.290288 -0.299361 -0.389017
-0.290288 -0.137567 0.447141
-0.290288 0.163467 -0.457119
-0.290288 -0.069394 -0.465366
-0.290288 -0.036984 -0.456094
-0.290288 0.477276 -0.045094
-0.290288 0.307969 0.320038
-0.290288 0.405239 -0.254726
-0.290288 -0.452732 -0.006172
-0.290288 -0.268958 -0.370123
-0.290288 0.351976 0.306803
-0.290288 -0.239079 0.400265
-0.290288 0.180846 0.455927
-0.290288 0.216212 0.427114
-0.290288 0.448320 0.154838
-0.290288 0.441878 0.099813
-0.290288 0.247872 -0.401125
-0.290288 0.445489 0.208390
-0.290288 0.469500 -0.115334
-0.290288 -0.293569 0.399041
-0.290288 0.449494 0.019039
-0.290288 -0.438559 -0.096029
-0.290288 0.477053 -0.026409
-0.290288 -0.492199 0.069873
-0.290288 -0.446979 0.216374
-0.290288 0.469847 0.153462
-0.290288 -0.301769 -0.342589
-0.290288 -0.336156 -0.364107
-0.290288 -0.490433 0.042559
-0.290288 0.075752 0.483590
-0.290288 -0.370798 -0.253022
-0.290288 0.416798 -0.245655
-0.290288 0.257789 0.372030
-0.290288 -0.306746 -0.371450
-0.290288 -0.234188 -0.380825
-0.290288 -0.401820 -0.270457
-0.290288 -0.448950 -0.146903
-0.290288 0.354745 -0.329115
-0.290288 -0.074476 -0.474260
-0.290288 -0.290646 0.398234
-0.290288 0.345091 -0.337328
-0.290288 0.392477 0.213627
-0.290288 -0.433140 -0.134219
-0.290288 -0.446957 0.096381
-0.290288 -0.188229 0.452383
-0.290288 0.489236 0.029424
-0.290288 -0.286740 0.388364
-0.290288 -0.090952 -0.477774
-0.290288 0.324090 0.336085
-0.290288 -0.066492 0.438075
-0.290288 -0.219016 -0.434075
-0.290288 -0.122221 -0.445491
-0.290288 0.211307 0.429222
-0.290288 0.460191 -0.107210
-0.290288 -0.460262 -0.031686
-0.290288 0.373597 0.306697
-0.290288 -0.002193 0.484950
-0.290288 -0.020685 0.488207
-0.290288 -0.430122 -0.226552
-0.290288 -0.036920 0.474032
-0.290288 0.462926 -0.167466
-0.290288 0.466674 0.035774
-0.290288 -0.034660 0.475989
-0.290288 -0.291368 -0.387020
-0.290288 -0.340116 -0.305262
-0.290288 -0.271401 -0.360962
-0.290288 -0.407135 -0.243931
-0.290288 0.336372 -0.337143
-0.290288 -0.484674 -0.026029
-0.290288 0.424402 -0.212990
-0.290288 -0.316935 -0.379838
-0.290288 -0.380147 -0.256259
-0.290288 -0.238342 -0.400741
-0.290288 0.280542 0.399571
-0.290288 -0.271251 0.370524
-0.290288 0.333007 -0.331729
-0.290288 0.434013 -0.194704
-0.290288 0.471920 -0.080264
-0.290288 -0.492439 -0.049673
-0.290288 0.373156 0.245097
-0.290288 0.074100 0.439548
-0.290288 0.365915 0.257688
-0.290288 -0.410787 0.196101
-0.290288 -0.352179 -0.305294
-0.290288 -0.259195 -0.383636
-0.290288 0.460189 -0.042930
-0.290288 -0.324166 0.367155
-0.290288 0.058487 -0.481906
-0.290288 -0.409101 -0.255592
-0.290288 0.160503 -0.433508
-0.290288 0.167407 0.446182
-0.290288 -0.197916 -0.432323
-0.290288 0.191272 0.419808
-0.290288 -0.028770 -0.451877
-0.290288 0.042903 0.463813
-0.290288 -0.309801 0.318353
-0.290288 0.048380 0.459489
-0.290288 0.413917 0.239681
-0.290288 0.221705 -0.432936
-0.290288 -0.093395 -0.452161
-0.290288 -0.332083 -0.322652
-0.290288 -0.446092 0.055344
-0.290288 0.459313 0.087230
-0.290288 -0.275645 0.363997
-0.290288 0.493459 -0.065904
-0.290288 0.093758 -0.484158
-0.290288 -0.060178 -0.451374
-0.290288 -0.446587 0.191653
-0.290288 0.128977 0.445633
-0.290288 0.182481 0.452549
-0.290288 -0.292380 -0.361528
-0.290288 0.463055 0.039744
-0.290288 -0.355975 -0.305131
-0.290288 -0.419340 0.241311
-0.290288 -0.128285 -0.458510
-0.290288 0.030541 0.473710
-0.290288 0.162303 -0.439409
-0.290288 0.286953 -0.405699
-0.290288 0.261890 -0.377812
-0.290288 0.171164 -0.454522
-0.290288 0.304869 0.351492
-0.290288 0.260683 0.415999
-0.290288 -0.434713 -0.241062
-0.290288 -0.451387 -0.194099
-0.290288 -0.444716 -0.040575
-0.290288 -0.338422 0.330775
-0.290288 -0.418049 0.203489
-0.290288 -0.431795 -0.128244
-0.290288 -0.389136 -0.282801
-0.290288 0.319489 0.312391
-0.290288 0.436072 0.173674
-0.290288 0.240969 -0.421324
-0.290288 0.160081 -0.437000
-0.290288 -0.141898 -0.446765
-0.290288 0.384867 -0.258710
-0.290288 -0.147261 0.440581
-0.290288 0.444092 0.072350
-0.290288 -0.131496 -0.459828
-0.290288 0.498179 -0.004270
-0.290288 -0.173639 -0.445483
-0.290288 0.212711 0.443171
-0.290288 0.427289 0.198392
-0.290288 -0.268468 -0.416442
-0.290288 0.069570 -0.447449
-0.290288 0.201682 0.404895
-0.290288 0.424342 -0.168890
-0.290288 0.467628 -0.174026
-0.290288 0.264084 0.406527
-0.290288 0.162779 0.434007
-0.290288 -0.452670 0.191835
-0.290288 -0.490282 -0.046106
-0.290288 -0.117509 -0.481062
-0.290288 -0.462831 0.017327
-0.290288 -0.359768 0.268829
-0.290288 0.394809 -0.209319
-0.290288 0.076532 -0.460132
-0.290288 0.142281 0.451777
-0.290288 0.312098 0.352167
-0.290288 -0.062799 0.481955
-0.290288 -0.445194 -0.167389
-0.290288 -0.341200 0.284210
-0.290288 -0.075440 0.449307
-0.290288 0.043429 0.482110
-0.290288 0.021906 0.476014
-0.290288 -0.349703 0.348474
-0.290288 0.352011 -0.298393
-0.290288 -0.328524 -0.343706
-0.290288 0.372600 0.283903
-0.290288 0.023479 -0.457474
-0.290288 0.142292 0.475107
-0.290288 -0.047944 -0.488441
-0.290288 -0.064836 -0.480001
-0.290288 -0.320351 -0.362387
-0.290288 -0.409468 -0.223348
-0.290288 0.335956 0.342695
-0.290288 0.462908 -0.124168
-0.290288 -0.411015 -0.276288
-0.290288 0.257357 0.417729
-0.290288 0.395048 0.218124
-0.290288 -0.453879 -0.163449
-0.290288 0.356893 -0.299111
-0.290288 -0.188417 0.442494
-0.290288 -0.150461 0.458728
-0.290288 -0.487212 -0.069508
-0.290288 -0.140522 -0.467536
-0.290288 0.341855 0.334768
-0.290288 -0.322044 0.331960
-0.290288 -0.104112 0.484354
-0.290288 -0.126569 0.438511
-0.290288 0.349639 -0.355382
-0.290288 0.473363 0.052435
-0.290288 0.344962 -0.360569
-0.290288 0.298472 -0.362813
-0.290288 0.420081 -0.215780
-0.290288 -0.010226 0.491514
-0.290288 0.473338 -0.115935
-0.290288 0.443774 -0.049205
-0.290288 0.220475 -0.422288
-0.290288 0.445995 0.075606
-0.290288 0.038234 -0.494546
-0.290288 -0.131511 -0.438334
-0.290288 -0.033963 0.468026
-0.290288 0.433742 0.152268
-0.290288 0.443631 0.216884
-0.290288 -0.464402 0.164078
-0.290288 -0.429419 0.206463
-0.290288 -0.002388 -0.488107
-0.290288 0.120924 0.440093
-0.290288 -0.357216 0.307956
-0.290288 0.388872 -0.287058
-0.290288 0.385730 -0.226870
-0.290288 -0.020203 0.464200
-0.290288 0.348624 -0.338172
-0.290288 0.062122 -0.463099
-0.290288 -0.209709 -0.442003
-0.290288 -0.246817 -0.430123
-0.290288 0.410230 0.249016
-0.290288 -0.363701 -0.336987
-0.290288 -0.052861 0.439991
-0.290288 -0.061454 0.489211
-0.290288 -0.324201 0.352612
-0.290288 -0.147437 0.464817
-0.290288 0.432281 -0.246921
-0.290288 -0.457497 -0.093494
-0.290288 -0.245227 -0.415186
-0.290288 -0.239183 0.427366
-0.290288 0.256137 0.397396
-0.290288 -0.450554 -0.107430
-0.290288 0.280024 -0.386949
-0.290288 -0.460194 -0.161411
-0.290288 0.477275 -0.014239
-0.290288 0.275258 0.379702
-0.290288 -0.407385 0.195949
-0.290288 0.295684 0.341255
-0.290288 0.265822 -0.380924
-0.290288 0.376489 0.293984
-0.290288 -0.452863 -0.088489
-0.290288 0.404298 0.213076
-0.290288 0.383507 -0.276337
-0.290288 0.301453 0.386553
-0.290288 0.488652 -0.017527
-0.290288 -0.437797 -0.190022
-0.290288 0.282137 -0.371317
-0.290288 0.451142 0.051301
-0.290288 -0.472377 0.135851
-0.290288 -0.478562 0.112154
-0.290288 -0.107035 0.464004
-0.290288 0.416994 0.269841
-0.290288 0.396171 0.214656
-0.290288 0.416041 -0.195698
-0.290288 0.266385 0.355359
-0.290288 0.162150 0.426811
-0.290288 -0.454773 -0.062796
-0.290288 -0.318330 -0.341449
-0.290288 0.158673 -0.421448
-0.290288 -0.195098 0.454336
-0.290288 0.093906 -0.457011
-0.290288 -0.077131 -0.446164
-0.290288 -0.012845 -0.460682
-0.290288 0.133880 -0.433706
-0.290288 -0.223129 -0.434837
-0.290288 0.399153 -0.294397
-0.290288 0.148338 -0.429447
-0.290288 0.069843 -0.481376
-0.290288 0.397295 -0.214224
-0.290288 0.105557 -0.484406
-0.290288 0.462578 0.181027
-0.290288 0.286625 -0.347830
-0.290288 0.480087 -0.122062
-0.290288 0.474426 0.087082
-0.290288 0.338549 0.339751
-0.290288 0.270385 -0.367722
-0.290288 0.331970 -0.342677
-0.290288 0.253338 -0.388002
-0.290288 0.068221 -0.454840
-0.290288 -0.325756 -0.318695
-0.290288 -0.146193 -0.431614
-0.290288 -0.445945 0.141978
-0.290288 0.154284 0.449741
-0.290288 -0.401162 0.236738
-0.290288 0.195295 -0.459000
-0.290288 0.354416 -0.295563
-0.290288 -0.309209 -0.367331
-0.290288 -0.444748 -0.056628
-0.290288 0.361772 0.313575
-0.290288 0.469444 -0.010093
-0.290288 0.366863 0.272051
-0.290288 0.011952 0.462198
-0.290288 -0.146754 -0.477496
-0.290288 -0.442998 -0.190774
-0.290288 -0.394707 0.235801
-0.290288 -0.379312 -0.236891
-0.290288 0.127964 -0.472130
-0.290288 0.449861 0.013113
-0.290288 0.099747 -0.489899
-0.290288 0.097307 0.433199
-0.290288 -0.328401 -0.369040
-0.290288 -0.195602 -0.416504
-0.290288 -0.450024 0.103095
-0.290288 -0.065630 0.458575
-0.290288 0.196796 -0.409131
-0.290288 -0.145014 0.467816
-0.290288 0.143637 -0.475917
-0.290288 -0.462062 0.147133
-0.290288 0.013605 0.442869
-0.290288 -0.356798 0.285561
-0.290288 0.388161 0.225247
-0.290288 -0.386605 0.268996
-0.290288 0.424039 0.211927
-0.290288 0.429748 -0.148028
-0.290288 0.450328 -0.125989
-0.290288 0.320146 -0.322353
-0.290288 -0.422597 -0.185715
-0.290288 0.455602 -0.159648
-0.290288 -0.420413 -0.164443
-0.290288 0.288338 -0.393397
-0.290288 0.162426 -0.426571
-0.290288 -0.330290 0.364645
-0.290288 0.449997 -0.032143
-0.290288 -0.315871 0.362888
-0.290288 0.495851 0.006740
-0.290288 -0.473473 0.027525
-0.290288 0.349988 -0.308274
-0.290288 0.339747 -0.365991
-0.290288 -0.169161 0.452692
-0.290288 -0.370303 0.328339
-0.290288 -0.477288 -0.074890
-0.290288 0.312734 0.355356
-0.290288 -0.378997 0.248770
-0.290288 0.022150 0.463764
-0.290288 -0.270273 0.410473
-0.290288 -0.381425 -0.268697
-0.290288 0.422879 -0.236427
-0.290288 0.470192 0.034110
-0.290288 -0.444593 0.088508
-0.290288 0.375299 -0.313036
-0.290288 0.315202 -0.380561
-0.290288 -0.349489 0.300111
-0.290288 0.031920 -0.456040
-0.290288 -0.377736 -0.287443
-0.290288 0.327053 0.355371
-0.290288 -0.204851 0.430417
-0.290288 -0.080936 -0.453739
-0.290288 -0.219107 -0.421730
-0.290288 0.464346 0.099678
-0.290288 0.195984 -0.403321
-0.290288 -0.457105 0.028009
-0.290288 -0.342242 0.299803
-0.290288 -0.448163 0.087309
-0.290288 -0.180069 -0.465305
-0.290288 -0.468305 0.163219
-0.290288 -0.362893 0.337598
-0.290288 0.419194 0.183956
-0.290288 0.452823 -0.088997
-0.290288 0.460568 -0.176740
-0.290288 0.323477 0.363573
-0.290288 -0.442730 -0.195316
-0.290288 0.229773 -0.408204
-0.290288 -0.004293 -0.464825
-0.290288 -0.173954 -0.453286
-0.290288 0.359091 -0.319230
-0.290288 0.458703 -0.017118
-0.290288 -0.247703 0.389725
-0.290288 -0.367374 -0.335570
-0.290288 0.046332 0.448180
-0.290288 0.400000 0.234951
-0.290288 -0.473074 0.051745
-0.290288 -0.285386 0.346069
-0.290288 0.052890 -0.492367
-0.290288 -0.105844 0.442991
-0.290288 -0.387883 -0.224955
-0.290288 0.386165 0.298756
-0.290288 0.141956 -0.443523
-0.290288 0.473254 -0.143769
-0.290288 0.276653 -0.396057
-0.290288 -0.442549 -0.081468
-0.290288 -0.242377 -0.406398
-0.290288 -0.380128 -0.279817
-0.290288 -0.191294 -0.460130
-0.290288 -0.405513 -0.187793
-0.290288 0.082198 -0.484442
-0.290288 -0.105505 -0.456509
-0.290288 0.403351 -0.218109
-0.290288 0.259904 -0.382453
-0.290288 -0.002354 0.465407
-0.290288 -0.240628 -0.398141
-0.290288 -0.287097 -0.347155
-0.290288 -0.370445 0.271023
-0.290288 -0.227328 0.403885
-0.290288 -0.459770 0.050664
-0.290288 0.451156 0.070801
-0.290288 -0.483013 -0.121557
-0.290288 0.348949 0.336223
-0.290288 0.256932 0.366395
-0.290288 0.001245 -0.450198
-0.290288 0.098575 -0.486304
-0.290288 0.219990 0.427111
-0.290288 -0.157159 0.427640
-0.290288 -0.121361 0.469188
-0.290288 0.438587 -0.084592
-0.290288 -0.205991 0.451163
-0.290288 -0.239445 -0.430292
-0.290288 0.077218 0.448794
-0.290288 -0.101532 0.474421
-0.290288 0.092399 0.478850
-0.290288 0.376324 -0.243602
-0.290288 -0.075589 -0.470912
-0.290288 -0.108225 -0.447164
-0.290288 -0.462622 -0.095198
-0.290288 0.028937 -0.484261
-0.290288 -0.420059 -0.228939
-0.290288 -0.366940 0.301026
-0.290288 0.241636 0.418939
-0.290288 -0.390771 0.221552
-0.290288 -0.421584 -0.144997
-0.290288 0.050377 -0.444683
-0.290288 0.045211 0.473934
-0.290288 -0.013550 0.476704
-0.290288 0.494425 -0.046490
-0.290288 -0.451898 -0.029185
-0.290288 0.426281 0.226985
-0.290288 0.459522 -0.122945
-0.290288 -0.060697 0.471096
-0.290288 -0.329736 0.337294
-0.290288 -0.384938 -0.307881
-0.290288 -0.094057 0.463794
-0.290288 0.409080 0.264286
-0.290288 -0.288164 -0.396709
-0.290288 0.367116 -0.306566
-0.290288 0.187374 -0.432596
-0.290288 0.434187 -0.121887
-0.290288 0.412129 -0.202237
-0.290288 0.364086 -0.303321
-0.290288 -0.043262 -0.480801
-0.290288 -0.075710 -0.486205
-0.290288 0.197996 -0.438527
-0.290288 0.330991 0.350061
-0.290288 -0.202053 -0.437765
-0.290288 0.109205 -0.485422
-0.290288 -0.468505 0.152992
-0.290288 0.427575 0.247757
-0.290288 -0.484882 -0.080771
-0.290288 0.396913 -0.281199
-0.290288 -0.463568 -0.028319
-0.290288 0.156018 -0.425913
-0.290288 0.399541 -0.242452
-0.290288 0.054410 0.462944
-0.290288 -0.376720 -0.299220
-0.290288 -0.216361 -0.423156
-0.290288 -0.481420 0.097948
-0.290288 0.300311 -0.376421
-0.290288 -0.079516 -0.472409
-0.290288 0.434629 0.137699
-0.290288 0.466572 0.091808
-0.290288 -0.074404 -0.458873
-0.290288 -0.099393 0.485277
-0.290288 0.426539 0.166311
-0.290288 0.438055 -0.219549
-0.290288 0.324005 -0.349860
-0.290288 0.303061 0.354859
-0.290288 0.340928 0.342215
-0.290288 -0.473518 0.066492
-0.290288 0.444600 -0.227415
-0.290288 0.447608 -0.128495
-0.290288 0.474555 -0.097545
-0.290288 0.385798 0.234769
-0.290288 0.142771 -0.450140
-0.290288 -0.449793 -0.191234
-0.290288 -0.496166 0.014874
-0.290288 0.166131 0.460680
-0.290288 -0.405639 0.247273
-0.290288 -0.031370 -0.467834
-0.290288 -0.340403 -0.316502
-0.290288 0.356064 -0.318190
-0.290288 0.224782 -0.403663
-0.290288 0.013827 0.477181
-0.290288 -0.248901 -0.396390
-0.290288 0.289312 0.352919
-0.290288 -0.216603 0.387819
-0.290288 -0.168219 -0.461940
-0.290288 0.018712 -0.467700
-0.290288 0.478608 -0.029202
-0.290288 0.447760 0.048289
-0.290288 0.331318 -0.316620
-0.290288 0.420383 0.157012
-0.290288 -0.394989 -0.216839
-0.290288 0.295991 -0.366702
-0.290288 0.293415 0.336983
-0.290288 0.384994 0.222825
-0.290288 -0.360723 -0.327035
-0.290288 0.008041 0.477329
-0.290288 -0.408772 0.243986
-0.290288 -0.288865 0.346198
-0.290288 -0.363570 -0.313724
-0.290288 -0.454476 0.062411
-0.290288 0.492658 0.056275
-0.290288 -0.485840 -0.065426
-0.290288 0.036753 0.448766
-0.290288 -0.420012 0.190259
-0.290288 -0.197787 0.445259
-0.290288 -0.376349 -0.251801
-0.290288 0.076051 -0.490078
-0.290288 0.047091 0.441522
-0.290288 -0.326830 0.306813
-0.290288 -0.125960 -0.451562
-0.290288 0.074477 0.451503
-0.290288 -0.444511 0.130507
-0.290288 0.477598 0.083842
-0.290288 -0.138911 -0.456277
-0.290288 0.168836 -0.443042
-0.290288 -0.268807 0.353243
-0.290288 -0.299707 -0.340013
-0.290288 0.065946 0.474754
-0.290288 0.134802 0.443572
-0.290288 0.440912 -0.095576
-0.290288 -0.430694 0.118552
-0.290288 0.437227 0.107988
-0.290288 -0.456661 0.010018
-0.290288 -0.462760 -0.137155
-0.290288 -0.407317 -0.218867
-0.290288 0.270310 -0.418455
-0.290288 0.265538 -0.377097
-0.290288 0.473399 0.082657
-0.290288 0.399243 0.261934
-0.290288 -0.360613 -0.274188
-0.290288 -0.443791 0.037222
-0.290288 0.291748 0.341193
-0.290288 0.041790 0.455776
-0.290288 0.242603 -0.382047
-0.290288 0.441572 -0.063531
-0.290288 0.189214 -0.452325
-0.290288 0.443937 -0.045513
-0.290288 -0.227134 -0.390760
-0.290288 -0.492523 0.051364
-0.290288 -0.189032 0.418667
-0.290288 -0.213276 0.398682
-0.290288 -0.473326 0.001876
-0.290288 -0.475049 0.117937
-0.290288 0.415375 0.185303
-0.290288 0.436589 -0.151114
-0.290288 0.425026 -0.204260
-0.290288 0.487106 -0.023063
-0.290288 0.131820 0.473545
-0.290288 -0.134674 0.476603
-0.290288 0.479363 -0.062976
-0.290288 0.259878 0.396512
-0.290288 0.047722 -0.481686
-0.290288 -0.271782 -0.395698
-0.290288 0.105396 -0.435577
-0.290288 0.142038 0.428335
-0.290288 0.476905 -0.122453
-0.290288 0.181289 0.407143
-0.290288 0.230945 -0.383236
-0.290288 0.378181 -0.294973
-0.290288 -0.202129 -0.398726
-0.290288 0.163941 -0.460315
-0.290288 0.093677 0.484647
-0.290288 -0.022891 -0.486550
-0.290288 -0.451190 -0.161335
-0.290288 0.415886 0.174008
-0.290288 -0.293823 -0.346862
-0.290288 0.324139 0.327251
-0.290288 0.381784 0.275166
-0.290288 0.289760 -0.375673
-0.290288 0.268608 0.410072
-0.290288 -0.409070 0.181765
-0.290288 -0.006984 -0.462512
-0.290288 0.420024 0.191655
-0.290288 0.463932 0.156822
-0.290288 -0.410688 0.232334
-0.290288 0.048687 0.477649
-0.290288 -0.200539 -0.449315
-0.290288 -0.414392 0.185696
-0.290288 -0.422022 -0.154819
-0.290288 0.306347 -0.332039
-0.290288 0.400370 0.294415
-0.290288 0.271384 0.388530
-0.290288 0.459541 -0.151524
-0.290288 -0.329297 -0.320198
-0.290288 -0.062180 -0.472036
-0.290288 0.080210 0.452464
-0.290288 -0.040991 0.474963
-0.290288 0.095881 0.444987
-0.290288 0.265315 -0.367877
-0.290288 -0.441990 -0.176267
-0.290288 -0.378107 0.237319
-0.290288 -0.467848 -0.132965
-0.290288 0.338500 0.344986
-0.290288 0.367136 0.321891
-0.290288 -0.435650 -0.114180
-0.290288 -0.429071 -0.188381
-0.290288 0.487785 -0.026593
-0.290288 0.347202 0.324738
-0.290288 -0.399238 0.262798
-0.290288 -0.445865 -0.094313
-0.290288 -0.326951 -0.323167
-0.290288 0.392155 0.292923
-0.290288 0.091707 0.444581
-0.290288 0.381625 -0.247507
-0.290288 0.466743 0.027434
-0.290288 0.210090 0.400944
-0.290288 -0.343534 0.281012
-0.290288 0.061336 -0.479048
-0.290288 0.204266 -0.404129
-0.290288 -0.268368 -0.411051
-0.290288 -0.469504 0.072876
-0.290288 -0.417534 -0.261428
-0.290288 -0.432260 0.180848
-0.290288 0.465341 -0.003465
-0.290288 -0.458589 0.157482
-0.290288 0.420979 -0.218722
-0.290288 0.139076 0.467372
-0.290288 0.421513 -0.202997
-0.290288 0.357991 -0.329954
-0.290288 0.058435 -0.459929
-0.290288 -0.285286 0.373771
-0.290288 0.492635 0.030384
-0.290288 -0.320252 0.322634
-0.290288 0.450472 0.187551
-0.290288 -0.083331 0.473350
-0.290288 0.026790 -0.475611
-0.290288 0.283935 0.392030
-0.290288 0.171996 0.440053
-0.290288 -0.185836 0.444353
-0.290288 0.231751 0.406568
-0.290288 -0.479908 -0.034478
-0.290288 0.435721 0.158625
-0.290288 -0.441732 0.119576
-0.290288 -0.335898 -0.348429
-0.290288 0.455029 0.082444
-0.290288 -0.362680 0.270056
-0.290288 -0.407085 0.185174
-0.290288 0.455853 -0.138437
-0.290288 -0.449253 0.146038
-0.290288 0.372282 -0.287016
-0.290288 0.311736 0.340195
-0.290288 0.273993 0.385253
-0.290288 -0.407277 0.238282
-0.290288 0.378908 -0.316806
-0.290288 -0.441741 0.053802
-0.290288 -0.401636 -0.291310
-0.290288 -0.482357 -0.003523
-0.290288 -0.166241 -0.429078
-0.290288 -0.487226 0.065724
-0.290288 -0.445426 -0.113199
-0.290288 -0.429369 -0.141756
-0.290288 0.341529 -0.308778
-0.290288 0.118175 -0.461182
-0.290288 0.354121 0.346947
-0.290288 0.219507 0.400918
-0.290288 -0.050999 -0.492201
-0.290288 0.418325 -0.210288
-0.290288 -0.294388 -0.367150
-0.290288 0.254356 -0.375173
-0.290288 -0.094631 0.433671
-0.290288 -0.413448 0.208074
-0.290288 0.282814 0.376185
-0.290288 -0.102472 0.455937
-0.290288 -0.072593 -0.486975
-0.290288 0.487659 0.077387
-0.290288 -0.477587 -0.113383
-0.290288 0.372419 -0.248718
-0.290288 -0.308735 -0.356101
-0.290288 0.125908 -0.432839
-0.290288 -0.144818 -0.473256
-0.290288 -0.183026 -0.413480
-0.290288 -0.480415 0.037445
-0.290288 0.053443 -0.469088
-0.290288 0.379042 -0.280980
-0.290288 -0.103717 0.459522
-0.290288 0.023247 0.480942
-0.290288 -0.090375 0.464801
-0.290288 -0.483180 -0.056420
-0.290288 0.350671 -0.284544
-0.290288 -0.432739 0.145754
-0.290288 -0.055232 -0.462706
-0.290288 0.152395 0.471770
-0.290288 0.024682 0.477893
-0.290288 -0.125825 -0.465632
-0.290288 0.399593 0.238436
-0.290288 0.283858 0.342917
-0.290288 0.122775 -0.454480
-0.290288 -0.435644 0.192035
-0.290288 0.438645 -0.174207
-0.290288 0.070117 0.462185
-0.290288 0.463471 0.028848
-0.290288 -0.022947 0.490823
-0.290288 0.212691 -0.410659
-0.290288 0.351443 -0.323485
-0.290288 -0.216102 -0.437222
-0.290288 0.292764 -0.369928
-0.290288 0.116915 0.476573
-0.290288 0.404684 0.217135
-0.290288 0.428641 0.185961
-0.290288 -0.398057 -0.293115
-0.290288 -0.432891 0.121305
-0.290288 -0.475862 0.014645
-0.290288 0.095110 0.470281
-0.290288 0.427715 0.135048
-0.290288 0.411726 -0.206053
-0.290288 0.190461 -0.415474
-0.290288 -0.410696 0.236032
-0.290288 0.453422 0.164933
-0.290288 0.483969 -0.025579
-0.290288 0.235737 -0.435293
-0.290288 -0.380996 -0.312095
-0.290288 -0.141998 -0.455728
-0.290288 -0.489115 0.071570
-0.290288 0.474217 0.111929
-0.290288 0.369668 -0.301059
-0.290288 -0.282240 -0.404697
-0.290288 0.052460 -0.456128
-0.290288 0.303658 0.362753
-0.290288 0.016778 0.493459
-0.290288 0.042411 0.470838
-0.290288 0.369578 -0.327380
-0.290288 -0.072907 -0.465213
-0.290288 0.404276 -0.191190
-0.290288 0.052267 0.478615
-0.290288 0.436225 -0.155844
-0.290288 -0.367789 0.254268
-0.290288 -0.335638 -0.352425
-0.290288 -0.032549 -0.464136
-0.290288 0.387202 -0.245027
-0.290288 -0.467979 0.109565
-0.290288 -0.378228 -0.314113
-0.290288 -0.453556 -0.095059
-0.290288 0.202307 -0.438312
-0.290288 -0.450995 0.002781
-0.290288 0.370301 0.294014
-0.290288 -0.276531 0.405815
-0.290288 0.451397 -0.092508
-0.290288 -0.410999 -0.180931
-0.290288 0.108193 0.436576
-0.290288 0.483219 0.098676
-0.290288 -0.033374 0.456899
-0.290288 -0.490960 0.012987
-0.290288 -0.080978 0.480336
-0.290288 0.342150 0.323350
-0.290288 -0.182520 -0.432342
-0.290288 0.080473 0.488114
-0.290288 0.414675 0.267503
-0.290288 -0.330995 0.311852
-0.290288 0.470704 -0.153155
-0.290288 0.455143 0.158055
-0.290288 0.071507 0.477725
-0.290288 0.206711 0.435673
-0.290288 -0.477484 0.069578
-0.290288 -0.055306 0.471634
-0.290288 0.061860 0.487901
-0.290288 -0.386943 -0.228283
-0.290288 -0.455398 -0.170549
-0.290288 -0.277537 -0.390402
-0.290288 -0.055747 0.451992
-0.290288 -0.492835 0.047696
-0.290288 0.148363 0.447913
-0.290288 0.345652 -0.356716
-0.290288 0.015195 -0.467634
-0.290288 0.102329 -0.451035
-0.290288 0.227318 0.391862
-0.290288 -0.474747 -0.111896
-0.290288 -0.008171 0.443996
-0.290288 0.427568 -0.134532
-0.290288 -0.394214 -0.254340
-0.290288 0.379272 0.297339
-0.290288 -0.165844 -0.424721
-0.290288 -0.340757 -0.334042
-0.290288 0.436720 -0.198001
-0.290288 0.469026 -0.133124
-0.290288 0.403290 0.248531
-0.290288 -0.450978 0.182698
-0.290288 -0.305690 0.362287
-0.290288 -0.191171 -0.415784
-0.290288 0.288594 -0.386695
-0.290288 0.057145 0.443256
-0.290288 0.473630 -0.089981
-0.290288 0.490079 -0.045931
-0.290288 0.401261 0.290252
-0.290288 0.466361 -0.076139
-0.290288 0.428449 -0.194739
-0.290288 0.360874 -0.266392
-0.290288 0.077399 -0.447805
-0.290288 -0.222596 -0.428362
-0.290288 -0.097976 0.441974
-0.290288 -0.217445 0.414036
-0.290288 -0.455924 0.085885
-0.290288 0.467356 0.158966
-0.290288 -0.089188 0.437980
-0.290288 0.444622 -0.174421
-0.290288 0.237214 -0.388673
-0.290288 0.346298 0.311780
-0.290288 -0.402120 -0.294904
-0.290288 -0.365277 -0.306918
-0.290288 0.250717 -0.370744
-0.290288 -0.064274 0.445938
-0.290288 -0.018115 -0.476520
-0.290288 0.315494 0.372521
-0.290288 0.241793 0.372237
-0.290288 0.421003 -0.251474
-0.290288 0.229214 0.408807
-0.290288 -0.457070 0.112264
-0.290288 0.030674 0.447723
-0.290288 -0.049732 0.482869
-0.290288 0.318396 -0.342240
-0.290288 0.200920 0.436964
-0.290288 -0.316917 -0.352436
-0.290288 0.399532 -0.274498
-0.290288 -0.146134 0.443491
-0.290288 -0.370693 0.322780
-0.290288 -0.464238 0.000188
-0.290288 0.345195 0.336603
-0.290288 -0.033273 0.460865
-0.290288 -0.103005 0.434595
-0.290288 0.062560 -0.468595
-0.290288 0.345724 -0.308788
-0.290288 0.318446 0.338559
-0.290288 -0.078738 -0.475978
-0.290288 -0.345657 -0.297345
-0.290288 0.248607 -0.404463
-0.290288 0.395925 -0.272780
-0.290288 0.440258 0.087337
-0.290288 -0.293954 -0.402636
-0.290288 0.253869 0.391382
-0.290288 -0.432713 -0.153690
-0.290288 0.081854 0.435966
-0.290288 -0.287064 0.396610
-0.290288 0.045401 -0.451919
-0.290288 0.296293 -0.375331
-0.290288 0.194815 0.439831
-0.290288 0.452607 -0.163261
-0.290288 0.437185 -0.102335
-0.290288 0.175400 0.433406
-0.290288 -0.203621 -0.412434
-0.290288 -0.406832 -0.251299
-0.290288 0.000050 -0.467986
-0.290288 -0.464763 -0.058172
-0.290288 -0.409005 -0.273700
-0.290288 -0.407559 0.178330
-0.290288 0.326398 -0.366558
-0.290288 -0.464159 -0.168073
-0.290288 -0.180215 0.417590
-0.290288 -0.265265 -0.392761
-0.290288 0.198835 -0.421558
-0.290288 -0.216167 0.408035
-0.290288 -0.434694 0.214451
-0.290288 -0.044917 0.464791
-0.290288 -0.284449 0.385005
-0.290288 -0.228680 -0.403306
-0.290288 0.364647 -0.260392
-0.290288 -0.034234 -0.446858
-0.290288 0.294368 0.377689
-0.290288 -0.167792 0.426893
-0.290288 -0.024381 -0.448706
-0.290288 0.115392 -0.458861
-0.290288 0.455913 0.140546
-0.290288 0.248775 0.385224
-0.290288 -0.452461 -0.102911
-0.290288 -0.199048 -0.401390
-0.290288 0.121449 -0.463048
-0.290288 -0.231113 0.430364
-0.290288 -0.447443 -0.212911
-0.290288 -0.087430 0.449038
-0.290288 0.444057 -0.158076
-0.290288 -0.198756 0.436627
-0.290288 0.115917 0.481385
-0.290288 0.363269 0.292351
-0.290288 0.019069 -0.497135
-0.290288 0.453804 -0.141193
-0.290288 -0.014167 0.447569
-0.290288 -0.021052 -0.479013
-0.290288 -0.156692 0.432714
-0.290288 -0.184409 0.425276
-0.290288 -0.256074 0.390058
-0.290288 0.457003 -0.130727
-0.290288 -0.323512 -0.308471
-0.290288 0.458541 -0.163149
-0.290288 -0.454988 -0.202814
-0.290288 -0.418994 -0.155736
-0.290288 -0.188910 -0.429427
-0.290288 -0.092027 0.445052
-0.290288 0.476235 0.014834
-0.290288 -0.483015 -0.086049
-0.290288 -0.421747 -0.215799
-0.290288 -0.444556 0.152616
-0.290288 -0.003419 0.460969
-0.290288 0.440047 -0.185383
-0.290288 -0.247020 -0.399512
-0.290288 0.251618 -0.377033
-0.290288 -0.480561 -0.006566
-0.290288 0.311362 0.337145
-0.290288 0.365073 0.325554
-0.290288 -0.020587 0.451652
-0.290288 0.274841 0.359353
-0.290288 0.062082 -0.489835
-0.290288 -0.194256 0.447274
-0.290288 -0.342611 0.303840
-0.290288 -0.391122 -0.226592
-0.290288 0.401738 -0.266253
-0.290288 0.364951 0.331014
-0.290288 0.224409 0.389054
-0.290288 -0.203328 -0.416482
-0.290288 -0.380431 -0.259415
-0.290288 -0.240946 0.397577
-0.290288 0.047060 -0.445490
-0.290288 -0.339089 0.361854
-0.290288 -0.399715 -0.220784
-0.290288 0.480180 0.078830
-0.290288 -0.385568 -0.303575
-0.290288 -0.168560 0.448230
-0.290288 -0.206906 -0.408674
-0.290288 0.118556 -0.457293
-0.290288 0.042776 0.459126
-0.290288 -0.272450 0.366194
-0.290288 0.178842 0.416276
-0.290288 -0.085875 0.469736
-0.290288 -0.468403 0.039453
-0.290288 0.450984 -0.182500
-0.290288 -0.471882 -0.091873
-0.290288 -0.048942 -0.455033
-0.290288 0.413376 -0.249496
-0.290288 0.458231 -0.197782
-0.290288 -0.453019 0.186929
-0.290288 -0.334861 -0.321160
-0.290288 0.446349 -0.008180
-0.290288 0.093730 0.452831
-0.290288 0.433595 0.131777
-0.290288 -0.471101 -0.149352
-0.290288 -0.289245 0.342059
-0.290288 0.138520 -0.464670
-0.290288 -0.446881 0.027138
-0.290288 0.447915 0.149444
-0.290288 -0.459218 0.117113
-0.290288 0.427759 -0.130896
-0.290288 0.444561 -0.072821
-0.290288 -0.214719 0.394262
-0.290288 0.455480 0.057675
-0.290288 -0.459101 0.145706
-0.290288 0.452471 0.003037
-0.290288 0.343299 -0.344970
-0.290288 0.474274 -0.052928
-0.290288 -0.390696 -0.261925
-0.290288 -0.209268 -0.438575
-0.290288 -0.474297 0.070858
-0.290288 -0.424632 0.209640
-0.290288 -0.152964 0.460646
-0.290288 -0.221142 0.397858
-0.290288 0.349072 -0.321413
-0.290288 -0.464675 0.008655
-0.290288 0.278848 0.352093
-0.290288 -0.467400 -0.051560
-0.290288 -0.099435 -0.443623
-0.290288 -0.062052 -0.443313
-0.290288 -0.455213 -0.115635
-0.290288 0.490428 -0.034442
-0.290288 0.404889 -0.262196
-0.290288 -0.206622 0.396781
-0.290288 -0.078890 0.441492
-0.290288 -0.450614 0.020270
-0.290288 0.498113 -0.020145
-0.290288 -0.219002 0.441754
-0.290288 0.045458 0.445024
-0.290288 -0.020338 0.484562
-0.290288 -0.023985 0.456454
-0.290288 0.121359 -0.447583
-0.290288 0.238608 0.428028
-0.290288 0.098624 -0.462361
-0.290288 0.357164 0.298838
-0.290288 -0.283004 -0.348298
-0.290288 0.200287 0.409956
-0.290288 -0.097621 -0.480613
-0.290288 0.024175 -0.492017
-0.290288 0.188697 -0.445542
-0.290288 -0.401892 -0.195540
-0.290288 -0.461249 0.095490
-0.290288 -0.282003 -0.408298
-0.290288 0.464095 -0.107719
-0.290288 -0.174338 -0.417865
-0.290288 -0.251535 0.374150
-0.290288 0.284411 -0.386253
-0.290288 -0.336947 -0.341510
-0.290288 -0.445266 -0.034980
-0.290288 -0.451942 -0.115646
-0.290288 -0.199146 -0.405789
-0.290288 0.151572 -0.446637
-0.290288 0.077458 -0.492974
-0.290288 -0.327249 0.365958
-0.290288 -0.221661 -0.413094
-0.290288 -0.309024 0.323723
-0.290288 0.426419 0.194069
-0.290288 0.476044 -0.032961
-0.290288 -0.223263 0.417747
-0.290288 -0.441976 -0.057862
-0.290288 0.423716 0.250189
-0.290288 0.183010 0.430162
-0.290288 -0.341601 -0.352529
-0.290288 0.000742 0.476787
-0.290288 -0.203945 0.442048
-0.290288 -0.038308 -0.448992
-0.290288 0.193062 -0.408542
-0.290288 -0.410411 0.217254
-0.290288 0.416024 -0.174832
-0.290288 -0.363734 0.260462
-0.290288 0.083812 0.468806
-0.290288 0.271444 0.374409
-0.290288 0.288384 0.400999
-0.290288 -0.451181 -0.037803
-0.290288 0.168460 -0.469369
-0.290288 0.216987 -0.436652
-0.290288 0.273835 -0.353919
-0.290288 0.386906 0.290795
-0.290288 0.044816 -0.447952
-0.290288 0.484805 -0.084563
-0.290288 -0.438678 0.144486
-0.290288 -0.184082 0.459762
-0.290288 -0.441959 -0.151266
-0.290288 -0.039013 -0.464742
-0.290288 -0.462676 0.070310
-0.290288 -0.477032 -0.142789
-0.290288 -0.318655 0.376866
-0.290288 0.432979 0.120055
-0.290288 0.165128 -0.468063
-0.290288 -0.036598 0.492371
-0.290288 -0.118911 -0.467672
-0.290288 0.484119 -0.101393
-0.290288 0.417419 -0.207007
-0.290288 0.052522 0.492950
-0.290288 -0.436211 0.236841
-0.290288 0.382537 -0.307250
-0.290288 0.340775 0.331603
-0.290288 0.470150 0.037759
-0.290288 0.274715 -0.392252
-0.290288 -0.025440 0.462590
-0.290288 -0.391511 -0.231216
-0.290288 0.462231 0.064120
-0.290288 0.176522 0.424234
-0.290288 -0.257595 -0.412220
-0.290288 0.430973 -0.211940
-0.290288 -0.374327 -0.268703
-0.290288 0.114199 0.478534
-0.290288 -0.200189 -0.421693
-0.290288 -0.104321 -0.463320
-0.290288 0.313426 -0.389323
-0.290288 -0.087546 -0.457785
-0.290288 -0.247316 0.417143
-0.290288 0.305581 0.337090
-0.290288 -0.427223 0.163522
-0.290288 -0.153756 0.429377
-0.290288 0.271896 -0.388165
-0.290288 -0.120386 -0.452695
-0.290288 -0.435944 0.209037
-0.290288 -0.361196 0.274062
-0.290288 0.331495 -0.307479
-0.290288 -0.042579 -0.451036
-0.290288 0.450531 -0.046400
-0.290288 0.038239 -0.469165
-0.290288 0.491584 -0.079889
-0.290288 -0.431993 0.230676
-0.290288 0.443214 -0.114630
-0.290288 -0.474028 0.006017
-0.290288 0.326826 0.316586
-0.290288 0.286648 -0.408764
-0.290288 0.133644 -0.455660
-0.290288 0.343519 -0.351161
-0.290288 0.349797 0.313506
-0.290288 0.370841 0.278417
-0.290288 0.448868 -0.172728
-0.290288 0.039819 -0.458796
-0.290288 0.109054 0.459513
-0.290288 -0.305305 -0.361967
-0.290288 -0.406395 -0.194035
-0.290288 -0.471443 0.047944
-0.290288 -0.450990 -0.079623
-0.290288 0.168864 -0.451213
-0.290288 0.257881 -0.425049
-0.290288 0.142580 0.432927
-0.290288 -0.353240 0.297364
-0.290288 -0.255499 0.414387
-0.290288 0.032459 0.486401
-0.290288 -0.318581 0.335264
-0.290288 -0.393583 -0.223951
-0.290288 -0.398461 -0.245274
-0.290288 0.430533 0.157163
-0.290288 0.448008 -0.114654
-0.290288 0.174329 0.409800
-0.290288 -0.473603 -0.003455
-0.290288 -0.422845 -0.173904
-0.290288 -0.371872 -0.302246
-0.290288 -0.439617 0.227254
-0.290288 -0.450686 -0.092971
-0.290288 -0.264761 0.417273
-0.290288 -0.106789 0.439141
-0.290288 -0.413677 -0.229123
-0.290288 0.201606 -0.441468
-0.290288 0.406150 -0.229148
-0.290288 -0.325113 -0.334000
-0.290288 0.484448 0.054079
-0.290288 0.433992 0.111667
-0.290288 -0.306520 0.389777
-0.290288 0.068997 0.465043
-0.290288 -0.490021 0.063235
-0.290288 0.089658 -0.485169
-0.290288 0.281683 0.385393
-0.290288 -0.330894 -0.359634
-0.290288 -0.155588 -0.452927
-0.290288 -0.144413 -0.444246
-0.290288 0.461695 0.152555
-0.290288 0.472113 -0.007293
-0.290288 -0.313791 0.337939
-0.290288 0.407931 0.180004
-0.290288 0.119130 -0.472694
-0.290288 0.461113 -0.135627
-0.290288 -0.382638 -0.262192
-0.290288 -0.353500 0.308266
-0.290288 -0.221079 0.384029
-0.290288 0.298323 0.349520
-0.290288 0.239906 0.380586
-0.290288 -0.306664 0.383266
-0.290288 0.403009 -0.252349
-0.290288 0.319018 0.315662
-0.290288 -0.304666 0.337597
-0.290288 0.260395 0.405947
-0.290288 -0.250499 0.419236
-0.290288 0.400643 0.267047
-0.290288 -0.097117 0.435950
-0.290288 0.477157 -0.089030
-0.290288 -0.347516 0.319684
-0.290288 0.151971 -0.470399
-0.290288 0.396436 -0.296008
-0.290288 -0.359640 -0.345449
-0.290288 -0.414574 0.212040
-0.290288 0.061545 0.484774
-0.290288 -0.207572 -0.427666
-0.290288 -0.103334 0.447650
-0.290288 -0.419092 -0.213268
-0.290288 -0.223426 0.441643
-0.290288 0.470564 -0.149318
-0.290288 -0.441548 0.070196
-0.290288 -0.436087 -0.187152
-0.290288 -0.384984 0.232580
-0.290288 -0.365356 -0.256030
-0.290288 -0.342189 0.287854
-0.290288 -0.465446 0.102582
-0.290288 0.198168 0.435278
-0.290288 0.452685 -0.030651
-0.290288 -0.464820 0.025044
-0.290288 0.216794 -0.444087
-0.290288 0.296827 0.365021
-0.290288 -0.198969 -0.453923
-0.290288 0.032685 0.490509
-0.290288 -0.264230 0.407300
-0.290288 -0.448965 -0.196887
-0.290288 0.488934 0.044418
-0.290288 0.069507 -0.468041
-0.290288 0.173597 0.422066
-0.290288 -0.261012 -0.386030
-0.290288 -0.002590 0.443215
-0.290288 0.383637 0.254656
-0.290288 -0.039695 -0.452392
-0.290288 0.430137 -0.187380
-0.290288 0.198319 0.406637
-0.290288 0.360388 0.308792
-0.290288 0.399400 -0.249803
-0.290288 -0.342140 0.356750
-0.290288 0.458824 -0.139881
-0.290288 0.496208 0.027106
-0.290288 0.488673 -0.036932
-0.290288 -0.351122 -0.339422
-0.290288 0.169581 0.437415
-0.290288 -0.109794 -0.482495
-0.290288 0.326930 0.343237
-0.290288 -0.132086 0.432496
-0.290288 -0.232576 -0.411134
-0.290288 -0.426003 -0.199738
-0.290288 0.282307 -0.404212
-0.290288 0.015174 -0.464476
-0.290288 0.485198 -0.018897
-0.290288 -0.088253 -0.486328
-0.290288 0.460261 -0.058236
-0.290288 0.317399 0.378845
-0.290288 -0.395091 -0.273453
-0.290288 -0.398202 -0.277987
-0.290288 -0.029193 0.472039
-0.290288 -0.396900 0.246950
-0.290288 -0.224790 -0.393804
-0.290288 -0.407214 -0.211837
-0.290288 -0.311947 -0.363884
-0.290288 0.420037 -0.237769
-0.290288 0.449009 -0.067801
-0.290288 0.125608 0.452534
-0.290288 -0.056022 0.442811
-0.290288 0.436731 -0.116343
-0.290288 0.169683 0.460088
-0.290288 -0.454533 0.002457
-0.290288 -0.072963 -0.461613
-0.290288 0.154456 -0.442534
-0.290288 -0.128445 0.465397
-0.290288 -0.165542 0.460695
-0.290288 0.444930 0.196694
-0.290288 0.282958 0.359680
-0.290288 -0.131323 0.439789
-0.290288 -0.191615 0.416472
-0.290288 -0.480606 0.076332
-0.290288 -0.378781 0.254246
-0.290288 -0.149114 0.420386
-0.290288 -0.148418 -0.434782
-0.290288 0.466811 -0.023230
-0.290288 -0.366901 -0.273869
-0.290288 0.386720 0.260955
-0.290288 -0.307247 -0.374594
-0.290288 -0.447183 0.051336
-0.290288 -0.343128 -0.357551
-0.290288 0.375318 0.317635
-0.290288 -0.132604 0.436649
-0.290288 0.064560 -0.456384
-0.290288 -0.047157 -0.496746
-0.290288 0.039404 0.467379
-0.290288 0.397370 -0.302993
-0.290288 0.243365 0.432223
-0.290288 0.358982 -0.347892
-0.290288 0.376921 0.312036
-0.290288 0.347707 0.354070
-0.290288 -0.459281 -0.028338
-0.290288 0.305034 -0.327788
-0.290288 0.167334 -0.419186
-0.290288 -0.200828 0.399939
-0.290288 -0.253111 0.385232
-0.290288 0.440961 0.154236
-0.290288 0.422777 0.146092
-0.290288 -0.164613 0.427785
-0.290288 -0.138463 0.440547
-0.290288 -0.222931 0.424173
-0.290288 -0.413370 0.222145
-0.290288 -0.266870 -0.385681
-0.290288 -0.186604 -0.415177
-0.290288 0.113562 0.460076
-0.290288 0.001986 0.483099
-0.290288 0.398079 0.207768
-0.290288 -0.468662 0.148666
-0.290288 0.025498 0.451377
-0.290288 -0.213569 -0.443179
-0.290288 0.426964 0.150418
-0.290288 0.113548 -0.483018
-0.290288 0.447823 0.033733
-0.290288 -0.138533 -0.444934
-0.290288 0.263167 0.365371
-0.290288 -0.406784 0.208332
-0.290288 -0.366207 -0.260728
-0.290288 -0.425916 -0.196134
-0.290288 -0.283883 0.359872
-0.290288 0.268231 -0.409005
-0.290288 -0.283815 0.381909
-0.290288 -0.068719 0.490360
-0.290288 -0.435187 -0.195397
-0.290288 0.442720 0.174973
-0.290288 -0.314714 -0.332822
-0.290288 0.426292 0.128469
-0.290288 0.488202 0.066238
-0.290288 0.036465 -0.453143
-0.290288 -0.054462 -0.471863
-0.290288 0.480543 -0.015112
-0.290288 -0.016313 -0.498159
-0.290288 -0.239375 0.380812
-0.290288 0.396556 -0.292338
-0.290288 0.473662 0.116062
-0.290288 0.418529 -0.157532
-0.290288 0.209489 -0.418407
-0.290288 0.310365 -0.337604
-0.290288 -0.228532 -0.400055
-0.290288 -0.359664 -0.314521
-0.290288 -0.284217 -0.369286
-0.290288 0.478294 0.087189
-0.290288 0.308957 0.363644
-0.290288 0.200704 0.440644
-0.290288 -0.322001 0.349979
-0.290288 0.415855 -0.191309
-0.290288 0.450562 -0.169702
-0.290288 -0.377017 -0.265327
-0.290288 -0.485898 0.053894
-0.290288 0.105592 -0.469411
-0.290288 -0.444805 0.014378
-0.290288 0.433778 -0.149510
-0.290288 -0.232997 0.409223
-0.290288 0.413132 0.210115
-0.290288 0.473713 -0.045347
-0.290288 0.454607 0.189401
-0.290288 -0.005523 -0.470196
-0.290288 0.328637 -0.354422
-0.290288 0.223527 0.404311
-0.290288 0.082724 0.477342
-0.290288 0.185932 0.436187
-0.290288 -0.048014 0.465350
-0.290288 0.387672 -0.253396
-0.290288 -0.171441 0.455024
-0.290288 -0.303996 0.330971
-0.290288 -0.471945 -0.122178
-0.290288 -0.486298 0.043585
-0.290288 -0.413678 0.230145
-0.290288 0.213001 -0.426079
-0.290288 -0.445659 0.149179
-0.290288 -0.322305 -0.328381
-0.290288 0.448515 -0.200502
-0.290288 -0.204689 0.399902
-0.290288 0.303430 -0.350884
-0.290288 -0.101419 -0.452767
-0.290288 -0.466450 -0.070254
-0.290288 0.496993 0.020314
-0.290288 -0.288423 -0.400591
-0.290288 -0.449638 0.188427
-0.290288 -0.146212 -0.470338
-0.290288 -0.467547 0.018635
-0.290288 -0.381949 0.291711
-0.290288 0.438095 0.132936
-0.290288 -0.387012 -0.260902
-0.290288 -0.372873 -0.282435
-0.290288 -0.370138 0.293892
-0.290288 -0.449001 -0.117367
-0.290288 0.360409 -0.300692
-0.290288 0.230078 -0.389974
-0.290288 -0.465883 0.167150
-0.290288 0.216684 -0.413566
-0.290288 -0.208533 -0.433448
-0.290288 -0.471754 -0.087649
-0.290288 -0.040752 0.467820
-0.290288 0.122472 0.480637
-0.290288 -0.409303 -0.226949
-0.290288 -0.141460 0.452415
-0.290288 0.300950 -0.367014
-0.290288 -0.016269 0.465249
-0.290288 -0.466478 0.015401
-0.290288 0.460623 0.122388
-0.290288 0.138867 0.461587
-0.290288 0.481253 0.017081
-0.290288 0.459755 -0.073783
-0.290288 0.465742 0.137472
-0.290288 0.112869 -0.478302
-0.290288 -0.378742 -0.244627
-0.290288 0.088592 -0.439632
-0.290288 -0.446449 0.007211
-0.290288 -0.018006 0.443242
-0.290288 -0.413057 -0.168427
-0.290288 -0.464508 -0.120891
-0.290288 0.474938 0.126788
-0.290288 -0.001840 0.450688
-0.290288 0.329340 -0.310152
-0.290288 -0.140933 -0.425798
-0.290288 -0.279993 0.408061
-0.290288 0.479213 0.003227
-0.290288 -0.257304 -0.377536
-0.290288 -0.015282 -0.484003
-0.290288 -0.003330 -0.492311
-0.290288 0.481904 0.074930
-0.290288 -0.454085 0.088594
-0.290288 0.388193 0.248088
-0.290288 0.460426 0.061282
-0.290288 -0.442226 0.160615
-0.290288 0.432607 0.108384
-0.290288 0.049059 -0.448684
-0.290288 -0.425846 -0.173062
-0.290288 -0.438748 0.154298
-0.290288 -0.232013 0.421987
-0.290288 0.261943 0.412617
-0.290288 -0.091986 -0.473429
-0.290288 0.454391 -0.175057
-0.290288 -0.310548 -0.359523
-0.290288 -0.180676 -0.424228
-0.290288 -0.469789 -0.073214
-0.290288 -0.456117 -0.103445
-0.290288 -0.285522 0.364874
-0.290288 0.251383 -0.420646
-0.290288 -0.361085 -0.267898
-0.290288 0.330540 0.303699
-0.290288 0.247117 0.407606
-0.290288 -0.144377 -0.466995
-0.290288 -0.003584 -0.447774
-0.290288 0.401772 0.190994
-0.290288 0.439268 0.095127
-0.290288 0.354447 -0.314951
-0.290288 -0.379803 -0.241683
-0.290288 0.439333 0.175277
-0.290288 -0.229166 0.380416
-0.290288 -0.473121 -0.050815
-0.290288 0.096631 -0.459041
-0.290288 -0.273467 0.381464
-0.290288 0.361367 0.285668
-0.290288 -0.455912 -0.013623
-0.290288 -0.008458 -0.472025
-0.290288 -0.304556 0.334113
-0.290288 -0.323698 -0.311692
-0.290288 0.306576 -0.365914
-0.290288 -0.174473 0.407347
-0.290288 -0.221032 0.404123
-0.290288 -0.257294 0.398726
-0.290288 0.459716 -0.185442
-0.290288 0.457944 0.161252
-0.290288 -0.110590 -0.439527
-0.290288 -0.064780 0.449958
-0.290288 0.309414 -0.392196
-0.290288 0.288655 -0.351278
-0.290288 -0.468791 -0.063815
-0.290288 0.375337 -0.285579
-0.290288 0.189324 -0.456383
-0.290288 -0.369968 -0.265690
-0.290288 -0.380952 -0.319283
-0.290288 0.419982 0.162590
-0.290288 0.446217 0.052218
-0.290288 0.115328 0.428169
-0.290288 -0.224868 -0.431603
-0.290288 -0.040025 -0.456774
-0.290288 0.293859 0.387683
-0.290288 -0.212421 0.389965
-0.290288 -0.218793 -0.429464
-0.290288 -0.358792 -0.334105
-0.290288 -0.424532 -0.223283
-0.290288 0.481156 -0.006823
-0.290288 -0.175080 -0.449365
-0.290288 -0.091390 0.458640
-0.290288 0.200244 -0.424710
-0.290288 0.477892 -0.135093
-0.290288 -0.339408 0.345455
-0.290288 -0.184972 -0.443920
-0.290288 -0.447454 0.154140
-0.290288 0.399820 0.275300
-0.290288 -0.433653 0.211331
-0.290288 -0.414452 -0.222707
-0.290288 0.024815 -0.469034
-0.290288 0.257500 0.391927
-0.290288 0.385045 -0.289738
-0.290288 -0.471338 -0.034612
-0.290288 -0.158160 0.469472
-0.290288 0.242019 -0.388402
-0.290288 -0.349972 -0.323472
-0.290288 -0.412412 -0.279846
-0.290288 0.378987 0.239803
-0.290288 -0.311754 0.327736
-0.290288 0.482991 -0.109372
-0.290288 -0.038993 0.445918
-0.290288 -0.345832 0.300005
-0.290288 0.337758 0.325422
-0.290288 -0.455825 0.128444
-0.290288 -0.396034 0.280788
-0.290288 -0.139956 0.437646
-0.290288 -0.362394 0.303315
-0.290288 0.422970 -0.177315
-0.290288 0.421742 -0.181231
-0.290288 -0.078446 0.465848
-0.290288 -0.452076 -0.065770
-0.290288 -0.182229 0.434130
-0.290288 0.317836 -0.325550
-0.290288 -0.428246 -0.240663
-0.290288 0.495775 -0.039907
-0.290288 0.238543 0.405239
-0.290288 -0.001141 -0.482567
-0.290288 -0.075067 0.461576
-0.290288 -0.259343 0.389153
-0.290288 -0.447098 0.184514
-0.290288 -0.009920 -0.493284
-0.290288 0.481857 -0.078972
-0.290288 -0.000704 0.457080
-0.290288 0.315806 -0.322336
-0.290288 -0.234594 0.413580
-0.290288 -0.395017 -0.207034
-0.290288 0.467600 -0.018937
-0.290288 0.184978 -0.409967
-0.290288 0.470063 0.071465
-0.290288 0.019104 0.452062
-0.290288 0.214830 0.434626
-0.290288 0.347629 0.301032
-0.290288 -0.315116 0.328665
-0.290288 -0.445485 0.110267
-0.290288 0.461273 -0.116131
-0.290288 0.458245 -0.037904
-0.290288 0.456417 0.097349
-0.290288 -0.375008 0.274047
-0.290288 -0.411382 0.254329
-0.290288 -0.459491 0.017796
-0.290288 0.468328 0.127969
-0.290288 -0.412998 -0.265335
-0.290288 -0.351723 -0.308505
-0.290288 -0.263584 0.356513
-0.290288 -0.401689 -0.234525
-0.290288 0.351437 -0.336912
-0.290288 0.300369 -0.390326
-0.290288 -0.164911 -0.463477
-0.290288 0.462583 -0.077248
-0.290288 0.255602 -0.410667
-0.290288 0.475609 0.090387
-0.290288 0.228525 -0.401775
-0.290288 -0.467215 -0.169030
-0.290288 0.420540 -0.150020
-0.290288 -0.413760 0.272260
-0.290288 0.372005 0.316676
-0.290288 0.087310 -0.481288
-0.290288 -0.459537 0.036096
-0.290288 0.036280 -0.489214
-0.290288 -0.226718 -0.420720
-0.290288 0.224835 0.409465
-0.290288 -0.417493 0.209856
-0.290288 -0.315281 -0.329456
-0.290288 0.459258 0.036236
-0.290288 0.214470 -0.441275
-0.290288 -0.249394 -0.385623
-0.290288 0.454058 0.063754
-0.290288 0.422349 0.203505
-0.290288 -0.104667 0.466523
-0.290288 0.209930 0.395658
-0.290288 -0.460596 0.073768
-0.290288 0.214662 -0.400909
-0.290288 0.268568 -0.370881
-0.290288 -0.490753 -0.080552
-0.290288 0.192267 0.411605
-0.290288 -0.226143 -0.410837
-0.290288 -0.492424 -0.037163
-0.290288 0.367684 -0.269858
-0.290288 -0.391643 0.237442
-0.290288 0.056393 -0.492292
-0.290288 -0.442263 0.103723
-0.290288 -0.448759 -0.031564
-0.290288 0.455379 0.078634
-0.290288 0.343564 0.286542
-0.290288 -0.322001 0.358627
-0.290288 0.372059 0.322789
-0.290288 -0.469422 -0.166393
-0.290288 -0.469917 -0.004045
-0.290288 0.456952 0.114145
-0.290288 -0.116596 -0.477658
-0.290288 0.250290 -0.432086
-0.290288 0.482481 0.009707
-0.290288 -0.429071 -0.153476
-0.290288 -0.209635 0.449247
-0.290288 -0.483011 -0.109508
-0.290288 0.215697 -0.428598
-0.290288 -0.048307 0.440995
-0.290288 -0.449015 -0.164522
-0.290288 -0.132411 -0.481613
-0.290288 0.359088 -0.314632
-0.290288 -0.261871 -0.376639
-0.290288 -0.209859 0.445263
-0.290288 0.479178 0.127770
-0.290288 -0.419876 -0.237767
-0.290288 0.255503 0.370008
-0.290288 0.171111 -0.418004
-0.290288 -0.466900 -0.111596
-0.290288 -0.181017 0.441202
-0.290288 -0.332847 -0.357230
-0.290288 -0.401753 -0.245061
-0.290288 0.445854 -0.026125
-0.290288 0.262005 -0.370927
-0.290288 0.452730 -0.178058
-0.290288 0.168988 0.449065
-0.290288 0.342389 0.350398
-0.290288 0.160594 0.450975
-0.290288 -0.190594 -0.408821
-0.290288 0.390652 0.272012
-0.290288 -0.459049 -0.106236
-0.290288 -0.457064 0.073532
-0.290288 -0.410984 0.250898
-0.290288 0.309905 0.342973
-0.290288 -0.494708 -0.047059
-0.290288 -0.470862 0.008112
-0.290288 -0.249406 0.393097
-0.290288 -0.286301 -0.357161
-0.290288 -0.483541 0.075420
-0.290288 -0.492457 -0.023104
-0.290288 0.212352 -0.403230
-0.290288 -0.151491 -0.437672
-0.290288 -0.186966 0.434101
-0.290288 0.453172 -0.026731
-0.290288 -0.391588 0.253412
-0.290288 -0.460967 -0.117392
-0.290288 -0.065946 -0.460457
-0.290288 0.404853 -0.266063
-0.290288 -0.433602 0.165747
-0.290288 0.457798 -0.064694
-0.290288 -0.424368 0.131343
-0.290288 -0.333875 -0.325727
-0.290288 -0.204177 0.412390
-0.290288 0.481419 -0.070334
-0.290288 0.268621 -0.413696
-0.290288 0.231004 -0.432932
-0.290288 0.016101 0.445414
-0.290288 0.431977 -0.215958
-0.290288 0.451049 0.152242
-0.290288 0.236437 0.395019
-0.290288 -0.431702 0.216777
-0.290288 0.340288 0.286000
-0.290288 0.470857 0.146075
-0.290288 -0.241914 0.403552
-0.290288 -0.490579 0.077642
-0.290288 0.297730 -0.380428
-0.290288 0.446655 -0.209937
-0.290288 -0.030741 0.450616
-0.290288 0.475643 -0.068776
-0.290288 -0.461080 0.091953
-0.290288 0.445265 0.058792
-0.290288 -0.458741 0.137789
-0.290288 0.010940 0.487338
-0.290288 0.090929 0.449961
-0.290288 -0.164329 0.466255
-0.290288 0.439531 -0.190161
-0.290288 -0.456453 -0.099575
-0.290288 -0.440348 -0.124650
-0.290288 -0.210586 -0.449185
-0.290288 -0.020177 -0.482306
-0.290288 0.418105 -0.228475
-0.290288 0.428943 -0.124758
-0.290288 0.252373 0.404597
-0.290288 -0.142207 0.448666
-0.290288 0.203282 -0.432267
-0.290288 -0.050783 0.488052
-0.290288 0.460100 -0.062210
-0.290288 -0.075401 -0.467550
-0.290288 0.055118 0.440041
-0.290288 -0.366449 -0.270252
-0.290288 0.253070 -0.395585
-0.290288 -0.216004 -0.415877
-0.290288 0.470969 -0.129926
-0.290288 0.329822 -0.338896
-0.290288 -0.298394 0.364381
