0.262386 -0.176385 -0.410740
-0.022834 -0.255200 -0.366692
-0.064901 -0.404489 -0.187305
0.034074 -0.402192 0.188143
0.201743 0.443561 -0.046097
-0.229634 -0.423542 -0.138377
0.133134 0.361845 -0.262572
-0.271113 -0.410832 0.168294
-0.241247 0.382692 0.226207
-0.152161 0.425251 0.131667
0.142680 -0.441218 0.054867
0.137722 0.442550 -0.056790
0.191445 -0.070183 -0.441745
-0.280553 -0.254190 0.363025
-0.009894 0.444331 0.033594
0.030809 -0.414752 -0.163071
0.171000 -0.437570 0.077895
-0.186005 0.190455 -0.405073
-0.183952 0.301232 -0.330589
0.258617 0.363295 -0.260439
-0.228866 0.442899 -0.053095
-0.272496 -0.062379 -0.442981
-0.254538 0.123217 -0.430152
0.006525 0.359340 0.261624
-0.121556 -0.224635 0.381918
0.249531 -0.039222 -0.445621
-0.218603 -0.064783 -0.442600
-0.067717 -0.153244 -0.420011
0.250718 -0.441854 0.048961
0.139322 -0.444075 -0.029158
-0.182552 0.435169 0.094212
-0.189616 0.393320 0.207567
-0.128242 -0.019953 -0.446969
0.151780 0.199598 0.396061
-0.137694 0.347425 -0.281339
-0.247883 -0.353248 0.268158
-0.048842 0.424078 -0.140014
-0.085401 -0.384469 0.221471
0.168519 -0.262569 -0.361563
0.246433 -0.249090 0.366491
-0.271495 0.436202 -0.093942
-0.050313 -0.042406 -0.445320
-0.033492 0.186340 0.402522
0.025787 -0.193061 -0.403223
-0.074716 0.063842 0.438558
0.233458 -0.403168 -0.190357
-0.017499 0.387852 0.217482
0.236307 0.168955 0.410045
0.006374 -0.440693 0.058178
0.016994 0.109616 0.429638
0.027183 -0.190720 0.400062
-0.036945 -0.372643 0.240823
0.072607 0.398686 0.197034
0.078595 0.140137 -0.425099
0.054633 -0.149368 -0.421406
-0.192838 -0.040971 0.441102
-0.212988 0.397668 -0.203385
-0.210249 -0.181875 0.404011
0.003937 -0.400501 -0.195814
0.178840 -0.142270 0.419608
0.214242 -0.398142 0.196091
-0.058673 -0.044199 0.440797
-0.243401 -0.444144 -0.026964
0.247542 -0.056740 -0.443874
-0.121260 -0.165870 0.410937
0.157033 -0.368572 -0.251165
0.153020 -0.134325 0.422274
-0.066714 0.341277 -0.288885
-0.188373 0.050531 -0.444648
0.001287 0.421542 -0.147058
-0.064705 0.440061 -0.072993
0.040731 0.257127 -0.366079
-0.023383 0.428399 0.120833
0.002842 0.366153 0.251879
-0.017903 -0.222362 -0.387615
-0.131016 -0.360178 -0.263517
0.123188 -0.297482 -0.332992
-0.167107 -0.061342 0.438791
0.064383 -0.441557 -0.056454
-0.151959 -0.365400 0.251480
-0.189974 -0.167871 0.410071
-0.192871 0.382756 -0.230453
0.079042 -0.027280 0.442385
-0.139132 0.267347 -0.358652
0.217354 -0.103472 -0.435135
-0.024796 -0.416233 0.154605
-0.204224 -0.234068 0.376339
0.285001 0.419206 -0.153546
-0.252734 -0.444482 0.011852
0.270778 0.127296 0.424613
-0.283455 -0.245617 0.368851
0.206061 -0.080386 0.435775
-0.243426 -0.132571 -0.427136
-0.285119 -0.379517 0.229844
-0.224559 -0.110491 -0.433551
-0.013281 -0.444130 0.023060
-0.131411 0.443315 -0.048692
-0.063986 -0.440423 -0.064237
0.261133 0.149321 -0.421792
0.106962 -0.435001 0.090379
0.277814 -0.403713 -0.189099
0.089652 -0.265924 0.354607
0.005537 0.077022 -0.440824
-0.241295 0.432736 -0.109449
-0.258341 -0.118927 -0.431101
-0.219959 0.424968 0.132641
0.094042 -0.109504 0.429434
-0.051098 0.386097 0.220451
0.065662 -0.157234 -0.418574
0.191393 0.407175 -0.183467
-0.286434 -0.356561 0.263887
-0.089579 0.225907 -0.386125
-0.200020 -0.048203 -0.444772
-0.170185 0.417469 0.154019
0.223272 0.437089 0.085624
-0.269152 0.199323 -0.400555
-0.208395 -0.348264 -0.278936
-0.264141 0.366125 0.251921
-0.205207 0.133332 -0.427213
-0.088126 -0.333406 -0.296651
-0.077029 -0.213784 -0.392664
0.253676 0.445499 -0.016438
0.009315 0.432756 0.105007
-0.215627 0.312755 0.315210
0.252037 -0.115914 0.427622
-0.221481 0.355339 0.266783
-0.023251 -0.306678 -0.324616
0.250601 0.081728 -0.440078
0.164413 -0.019806 0.442620
-0.278305 0.082575 0.435591
-0.271435 -0.440903 -0.061205
0.158765 -0.375667 0.236354
0.208725 -0.414930 -0.162578
0.286415 -0.240281 0.372478
0.095540 0.441711 -0.062575
-0.202241 -0.273001 -0.353471
0.165751 0.077478 0.436398
-0.252678 -0.234288 -0.380562
0.185989 0.380108 0.230577
-0.280595 0.134938 0.422393
-0.230997 0.434307 -0.102423
-0.132872 -0.192934 0.398934
-0.202569 -0.400951 -0.194932
-0.061786 -0.340928 -0.288119
-0.185647 0.263332 -0.361766
-0.004118 0.334577 0.292132
0.025069 -0.305311 -0.325982
-0.282239 0.146960 -0.422642
0.086052 0.365535 -0.257142
0.055002 -0.444901 -0.001500
0.040891 0.411471 -0.173539
-0.001227 0.412198 -0.171859
-0.027782 0.404974 -0.188552
0.136295 0.315697 0.312269
0.037542 -0.207066 0.391734
-0.043335 0.435922 0.090844
0.194012 0.364188 0.254772
-0.094154 -0.433149 0.098662
-0.227151 0.427339 -0.128834
0.055769 -0.168364 -0.414211
-0.139383 0.362415 -0.261734
0.012845 -0.344480 -0.283814
-0.216771 -0.423266 0.134973
0.285404 -0.255037 -0.366803
0.111166 -0.413233 0.162746
-0.057780 -0.409732 0.170837
0.221986 0.243162 0.371216
0.178388 0.004096 0.443146
-0.164167 -0.426949 -0.126650
0.249286 0.145303 0.418885
-0.036306 -0.379839 -0.233653
0.058017 -0.419086 -0.151032
-0.121165 -0.030617 -0.446434
-0.110993 0.123122 -0.430179
-0.168094 -0.396861 -0.202958
-0.171095 0.087993 0.434471
0.063545 0.286181 0.339505
-0.236755 0.443783 -0.043746
0.053024 0.106961 -0.434585
-0.190680 -0.156120 -0.418976
0.024699 -0.444104 0.023882
-0.244864 -0.385875 -0.223446
-0.224212 0.243804 -0.375133
0.153493 0.391865 0.210421
0.276270 -0.444716 0.004389
-0.063372 0.433118 -0.107743
-0.002830 0.146169 -0.422927
-0.139599 -0.166846 -0.414868
-0.174437 -0.257201 0.360979
-0.065855 0.341039 0.284802
0.099051 0.179025 0.405688
-0.161118 -0.145568 -0.422775
0.001941 0.354739 -0.271910
-0.000401 0.004845 -0.447476
0.244557 0.422489 -0.144426
-0.159363 0.262743 0.357869
0.205114 0.388115 -0.221392
0.264595 0.437576 -0.087797
0.256914 -0.022569 -0.446886
0.156735 -0.159858 0.413276
0.276671 0.322630 -0.309688
0.177086 0.438837 0.076371
-0.030017 0.326209 0.301624
-0.287748 0.382817 0.225997
-0.232600 0.417173 0.154838
0.197248 0.439144 -0.078783
-0.235969 0.445435 -0.018467
0.203117 -0.288441 -0.340963
0.000958 -0.175786 -0.410999
0.275846 -0.344855 0.278978
-0.087708 0.445052 -0.030319
0.043220 -0.383109 0.223769
-0.138415 0.230027 0.379335
0.280858 -0.191090 0.399874
-0.143270 0.429656 0.116506
0.196449 -0.260427 -0.363140
-0.245143 -0.368604 0.246765
0.005078 0.254082 -0.368148
0.125152 0.268768 0.353196
0.151345 -0.017940 0.442678
-0.235964 0.401527 -0.195812
-0.000082 -0.332193 -0.298027
0.286386 0.186365 -0.406864
0.236369 -0.224044 0.382267
0.231126 -0.431680 -0.109592
0.227448 -0.022099 0.442548
0.247000 -0.152520 -0.420272
-0.272737 -0.333691 0.291974
-0.257322 0.031212 -0.446475
0.283873 -0.282726 0.341574
0.141002 0.362486 0.257276
0.005291 -0.350507 -0.276045
-0.059182 0.117867 0.427353
0.051567 0.319559 0.308406
-0.164554 0.428749 0.119629
-0.135038 0.411834 -0.172699
-0.022435 0.378610 -0.237464
-0.030518 -0.186338 -0.406433
0.245160 0.205120 0.393247
0.226001 0.190127 -0.405237
-0.278259 0.445308 -0.022530
-0.019551 0.272299 0.350457
0.081391 0.402499 -0.193905
-0.084677 0.094989 -0.437261
0.126262 0.270382 -0.356297
0.222394 -0.130746 -0.427667
-0.113239 -0.299532 -0.331185
0.151135 -0.182163 0.403886
0.279491 0.424402 -0.138943
-0.079661 -0.147887 -0.421939
0.081966 0.407775 0.177725
-0.210307 0.298422 -0.333066
0.226566 0.388444 -0.220835
0.228150 0.351978 -0.275469
0.235853 0.432010 -0.112699
0.147004 -0.413008 0.163267
0.005835 0.313220 0.314745
0.011190 0.271864 -0.355148
-0.099439 0.180684 -0.409323
-0.154603 -0.434246 0.093755
-0.213096 -0.094390 0.432812
-0.235241 0.193437 0.399200
0.284435 0.263147 0.357556
-0.033192 0.078825 0.436185
-0.187747 -0.062552 -0.442953
-0.063900 -0.039749 -0.445571
0.224559 -0.161550 -0.417020
-0.007314 0.004203 0.443142
-0.021446 0.084033 0.435356
-0.164162 0.394214 -0.210164
0.092918 -0.417940 -0.154216
0.099801 0.027903 0.442398
-0.131725 -0.337751 -0.291723
0.074069 -0.250014 0.365863
0.089207 0.445171 0.022515
-0.252222 -0.442202 0.045280
-0.121812 -0.043445 0.440868
0.082178 0.275676 0.347838
0.226237 -0.328450 0.297919
-0.181178 0.432032 -0.112598
0.103244 -0.229374 0.379115
0.135802 0.155468 -0.419579
-0.188920 -0.437379 0.079101
0.125674 0.119360 -0.431272
-0.045318 0.416899 -0.159954
0.035786 -0.426522 -0.128120
0.274787 0.371209 -0.248793
0.205586 0.181314 0.404697
-0.066504 -0.222288 -0.387659
0.151709 0.058505 -0.443756
-0.201688 0.064958 -0.442734
0.139762 0.421339 0.143267
0.107878 0.058141 0.439461
-0.163305 -0.327357 -0.303512
-0.123552 0.339847 -0.290508
-0.089863 -0.305899 -0.325395
0.002968 0.376180 0.237126
0.098950 -0.193147 0.398826
-0.230999 -0.441489 0.052816
-0.222672 -0.378197 0.232076
0.134041 0.096536 0.432562
0.270034 -0.083048 -0.439701
-0.282698 -0.348924 0.273732
-0.040585 -0.444652 0.006437
-0.247227 0.375093 -0.243078
0.023363 -0.324613 -0.306624
-0.205256 0.443666 -0.044978
0.131291 0.308713 -0.323605
-0.199263 -0.381648 0.226241
-0.276002 -0.089556 0.433893
-0.072767 0.336091 0.290415
-0.019617 0.306752 -0.325567
0.085662 -0.296552 -0.333812
0.055647 0.344716 0.280478
0.151271 -0.241852 0.371410
0.216780 0.158792 -0.418382
0.073534 -0.119657 0.426535
0.109619 0.431388 -0.114897
0.286894 0.129902 0.423856
0.106724 -0.443816 0.028206
-0.215510 0.334327 0.292416
0.187922 -0.423620 -0.138109
0.279538 -0.022169 0.442546
0.223240 -0.106968 0.430001
-0.013488 0.383105 0.225510
-0.057217 0.415592 0.159231
0.149739 -0.379232 0.230326
-0.227947 0.308189 -0.324130
-0.066694 -0.423925 -0.137057
-0.189291 -0.080375 0.435777
-0.241518 -0.065818 -0.442436
0.020640 -0.135718 0.421869
-0.135899 0.195266 -0.402621
-0.144179 0.017683 0.442719
-0.099586 0.025275 -0.446834
-0.035991 0.300346 0.327017
0.270504 0.022408 0.442570
0.235172 0.438225 -0.084584
0.174277 0.428592 0.120169
-0.150720 -0.397819 -0.201078
-0.070324 0.146982 -0.422634
-0.120859 -0.436394 0.084145
-0.282992 -0.318816 0.308124
0.007091 0.105950 -0.434811
-0.230992 0.386593 -0.223966
0.089022 0.362369 0.257447
0.250940 0.404131 0.186146
-0.140594 0.007161 0.443049
-0.182479 0.360373 0.260293
-0.090326 0.335276 -0.295692
0.173588 -0.097090 0.432209
0.176106 0.192025 0.399920
-0.138391 -0.248703 0.366754
0.104824 -0.135241 0.422007
0.124798 -0.440663 -0.062722
-0.195923 -0.070881 -0.441634
0.184122 -0.239485 0.373019
-0.153554 0.392316 0.209536
-0.235157 0.131659 -0.427699
0.285905 0.442520 0.052751
-0.065086 0.397249 -0.204207
0.189320 0.250057 0.366530
0.261827 0.396092 0.202125
0.039197 -0.128607 0.423935
-0.077941 -0.369391 -0.249961
-0.150287 0.099754 -0.436196
0.158130 0.343848 -0.285950
0.058468 0.152994 0.416116
-0.029356 0.214418 -0.392863
0.218941 0.397761 -0.203204
-0.251886 -0.409718 0.170868
-0.126564 -0.212961 -0.393083
-0.129666 0.239517 -0.378047
-0.126623 -0.151691 0.416217
0.177160 0.251289 0.365693
0.094927 -0.159127 0.413539
0.255726 -0.066495 0.437975
0.031512 0.210626 0.390442
-0.159514 0.245600 0.369559
0.212359 0.444013 -0.041310
-0.056876 0.121219 -0.430732
0.242612 -0.435887 0.086415
0.119322 0.439063 -0.079293
0.089892 -0.204469 0.393057
-0.196838 -0.419141 0.146527
0.267768 -0.421606 0.139679
0.187372 -0.353259 0.268144
-0.104312 -0.293899 -0.336151
0.077298 -0.298142 0.328056
0.224560 -0.263859 -0.360562
0.173064 0.189313 -0.405589
-0.184254 0.277737 0.346238
0.192481 -0.234159 0.376285
0.058131 -0.257543 -0.365100
-0.107995 0.378306 0.233624
-0.150837 0.189503 -0.405507
-0.137628 -0.441065 0.055833
0.247083 -0.106868 -0.434376
0.156358 -0.436073 -0.089936
0.055619 0.156467 -0.419220
0.237138 0.035943 0.441674
0.042555 0.234251 -0.381190
-0.251574 -0.397187 0.197965
0.194037 -0.090742 0.433628
-0.031837 -0.437236 -0.084358
0.246143 0.363252 -0.260503
-0.217662 -0.442342 -0.048150
-0.262437 0.160969 0.413245
-0.098228 -0.310926 -0.320367
0.176006 -0.030054 0.442134
-0.102025 -0.334518 -0.295390
-0.068465 0.435261 -0.098152
-0.196983 -0.000804 0.443217
0.144718 -0.213157 0.388630
-0.184089 -0.200781 0.394936
0.056294 0.385679 -0.225511
-0.089473 0.382393 -0.231067
0.217455 0.164427 0.412000
-0.205687 -0.355579 -0.269506
-0.252035 0.344597 -0.284984
-0.020368 0.020500 -0.446984
-0.263769 -0.307004 0.319937
0.147033 0.290721 0.335502
0.035571 -0.323495 0.303445
-0.257966 0.044865 0.440831
0.199231 -0.432007 -0.108128
-0.251653 0.154556 -0.419907
-0.163883 -0.416698 0.153312
0.273523 0.445414 0.014806
0.103080 0.334854 0.291817
-0.062328 -0.420767 -0.146364
-0.053873 0.398636 -0.201487
-0.094976 -0.444790 0.002039
-0.006821 0.070240 -0.441898
0.148900 0.274948 -0.352756
0.228221 0.031150 0.442127
-0.083596 -0.353989 -0.271555
-0.277035 -0.213925 -0.392592
-0.019663 -0.352312 -0.273717
-0.013179 0.249281 0.367057
-0.221021 0.416404 -0.161329
0.195545 0.210124 0.390698
0.153881 -0.003753 -0.447478
0.180044 0.352300 -0.275054
-0.162419 0.167273 -0.415126
-0.011390 0.445390 -0.019902
-0.263024 -0.140272 -0.424681
0.114786 -0.429034 -0.119471
-0.182864 -0.149405 -0.421393
0.138052 0.267941 -0.358191
0.025589 -0.206627 -0.396311
0.230473 -0.422752 0.136498
0.176554 -0.322423 0.304518
0.174428 0.261340 -0.363215
0.074577 0.076754 0.436513
0.173457 -0.326712 -0.304244
0.038845 0.156967 -0.419040
-0.229769 -0.432163 0.103076
-0.022204 -0.363907 -0.258030
0.197584 0.378459 0.233366
-0.069851 -0.303654 -0.327551
0.133927 0.436587 -0.092221
0.251498 -0.173211 -0.412113
-0.139023 -0.098575 0.431877
-0.085013 -0.347413 -0.280033
-0.182994 0.399793 -0.199215
0.100878 -0.419777 0.144759
-0.175197 0.278525 -0.349981
0.104988 0.395800 0.202698
-0.231161 -0.013720 -0.447165
-0.063549 -0.444360 0.015736
-0.170037 -0.431037 -0.112466
0.281796 0.350803 0.272631
0.271277 -0.011923 0.442868
-0.240582 0.433571 0.101363
0.191895 -0.138717 -0.425241
0.018918 0.362586 -0.261482
-0.036174 0.009132 0.442987
0.069792 -0.362304 0.256035
-0.262423 -0.407866 0.175147
-0.060286 0.443241 -0.049477
0.241037 0.388028 -0.221539
-0.007104 0.347755 -0.280914
0.030724 0.197242 -0.401615
0.265625 0.443502 -0.046719
-0.289789 0.444828 0.028341
0.047196 0.347782 -0.280879
-0.276281 -0.428021 0.118605
-0.189668 -0.202991 -0.398164
0.035855 0.407535 -0.182635
-0.056872 0.440634 0.065020
0.076457 -0.181906 0.403997
0.276401 0.182728 -0.408439
0.233407 -0.188130 0.401304
0.143689 0.414335 -0.166921
-0.251169 -0.010303 0.442918
-0.149525 0.318298 0.309667
0.147466 -0.142195 0.419635
-0.283328 0.245747 0.369459
0.173079 0.377672 -0.239049
-0.128774 0.014110 -0.447184
-0.149034 -0.441783 0.049709
-0.182711 0.259839 0.359882
0.079273 -0.438429 -0.076830
-0.231713 0.319848 0.308117
-0.083041 -0.373988 -0.243197
-0.260914 -0.444302 -0.021922
0.235916 -0.437860 0.076064
-0.267946 0.063025 0.438687
-0.030860 -0.352019 0.269741
0.187969 -0.117717 0.427099
-0.140052 -0.220900 0.384126
-0.129031 -0.382867 0.224178
0.092992 0.309053 -0.323266
0.260675 0.186454 -0.406826
-0.133186 -0.364217 0.253221
0.018597 -0.443375 0.032863
0.060791 0.211745 -0.394225
0.103883 -0.411684 -0.170678
-0.007014 -0.354070 -0.271450
0.261125 -0.016114 0.442736
-0.289480 -0.188915 -0.405318
-0.088959 -0.420273 0.143384
0.148051 -0.442356 0.043648
-0.049202 0.089795 0.434068
-0.171662 0.408763 0.175442
0.212763 -0.004065 0.443114
-0.024105 -0.165881 -0.415285
0.126688 0.213663 -0.393248
-0.169898 -0.016151 0.442735
0.064579 -0.386634 0.217810
0.036773 -0.257292 -0.365270
0.175894 -0.444457 -0.017005
0.060676 0.182890 0.404015
-0.043060 0.351755 -0.275756
-0.243574 -0.034597 0.441704
0.009096 -0.410168 -0.174183
-0.212642 -0.365939 -0.255040
-0.213688 -0.309804 -0.321490
0.153965 0.353183 -0.273916
-0.053100 0.397254 0.199846
-0.054877 0.184159 -0.407819
-0.173369 0.159102 -0.418271
0.197380 0.007693 -0.447386
0.222503 -0.191962 0.399429
0.170500 -0.244908 -0.373687
-0.140039 0.047678 0.440565
0.163447 0.420395 -0.150244
-0.260520 -0.401529 0.189444
0.017141 0.007894 -0.447380
0.002755 -0.094815 0.432717
0.080826 0.323737 -0.308581
-0.120859 -0.341026 -0.288007
0.157391 0.300998 -0.330796
0.200546 0.445724 -0.009284
-0.022715 -0.436045 0.085707
0.227390 -0.291098 0.334266
0.141614 -0.079541 0.435909
-0.245721 0.103421 -0.435376
-0.220573 -0.186849 -0.406212
-0.145854 -0.425434 -0.131864
0.233673 -0.300276 0.326175
-0.009729 0.267431 -0.358586
-0.018936 0.437976 -0.086007
-0.108136 0.389600 0.214528
-0.028578 0.441130 -0.066247
0.055418 0.439646 0.071263
0.053255 0.368680 0.248162
-0.133499 -0.432689 0.100721
0.213484 -0.409624 0.171085
0.180166 0.248110 -0.372207
0.047340 -0.263628 -0.360742
0.087429 0.395712 -0.207226
-0.049433 -0.433253 0.098199
0.234685 -0.024004 -0.446841
-0.234875 0.234688 0.376578
-0.034353 0.440140 0.068142
-0.158522 -0.101187 -0.435646
-0.237175 -0.381846 -0.230259
-0.264744 -0.380618 -0.232335
-0.236680 -0.433536 -0.101288
-0.219409 -0.370725 0.243644
0.085222 -0.305375 -0.325919
0.087445 -0.183456 0.403327
0.143714 0.386523 -0.224084
0.006938 -0.326390 -0.304609
0.089190 0.297618 0.329422
0.266792 0.442538 -0.056914
-0.075528 0.133606 -0.427133
0.282198 -0.322211 0.304729
0.003644 -0.315507 0.311433
0.155683 0.396909 0.200521
-0.115501 -0.311457 0.315483
-0.238324 -0.392776 -0.210977
-0.238780 0.246354 -0.373400
0.060594 0.064342 0.438479
-0.028429 0.243764 0.370807
-0.265288 -0.038523 -0.445687
-0.011515 -0.325997 0.300702
-0.070347 -0.031365 0.442010
-0.068262 -0.361865 0.256682
-0.070244 -0.274941 -0.351966
-0.174786 -0.119803 -0.430846
0.232517 -0.444858 -0.000122
0.247203 -0.028737 -0.446612
0.218435 -0.409892 -0.174820
0.037915 -0.342480 -0.286359
0.139641 -0.397496 0.197358
0.038920 -0.312386 -0.318907
0.260469 0.383807 0.224322
0.003588 0.346282 0.278460
-0.238714 0.407797 0.177675
-0.270938 0.231156 0.378667
-0.052859 -0.194613 -0.402432
0.001481 0.255150 0.363069
0.033992 -0.431146 -0.111979
-0.093334 0.242001 -0.376359
-0.287762 -0.396200 0.199901
0.239032 -0.098974 -0.436141
0.260974 -0.442799 0.038960
0.134054 -0.304001 0.322891
0.055471 -0.440021 -0.066779
0.259574 -0.147051 0.417887
0.062025 0.440883 -0.067804
0.152321 -0.402895 -0.190988
0.235814 0.428492 -0.124866
-0.154036 -0.343853 0.280269
-0.275229 -0.383592 -0.227307
0.213390 0.143065 -0.424044
-0.140026 -0.114886 -0.432274
0.169283 -0.403243 0.185830
-0.231186 0.295936 -0.335258
-0.269476 -0.073886 -0.441158
-0.032428 -0.189863 0.400499
-0.081802 0.376332 0.236902
0.041884 -0.176662 -0.410620
0.162625 0.176368 0.406837
0.113861 0.386900 0.219093
-0.146709 -0.438079 0.074684
0.211384 0.421301 -0.147727
-0.133290 -0.375936 -0.240253
-0.276474 -0.416724 -0.157595
0.039126 -0.440163 -0.065878
0.244866 0.415645 -0.163438
-0.267897 0.360426 -0.264579
0.150794 0.343686 0.281800
0.286056 0.163405 -0.416722
0.104908 -0.075088 -0.440968
0.180938 -0.017821 0.442682
-0.102487 -0.114425 0.428055
-0.146511 0.231251 -0.382964
-0.062920 -0.284544 -0.344398
-0.190602 0.072358 -0.441562
-0.014100 0.375119 0.238686
-0.011949 -0.435008 0.090350
-0.188385 0.109375 0.429692
0.206224 0.166458 -0.415479
0.253773 0.388305 -0.221071
0.103684 0.445920 -0.001313
0.024154 -0.295963 0.329977
0.151983 0.439495 0.072213
0.262533 0.308393 -0.323926
-0.107387 -0.086168 -0.439003
0.100517 0.156926 0.414701
0.285273 -0.383908 0.222419
-0.171103 0.445281 0.019044
0.241544 -0.172276 -0.412518
0.229611 0.325432 0.302504
-0.084927 -0.417130 0.152112
0.265550 -0.416031 0.155164
-0.215924 -0.377571 -0.237488
0.285733 -0.394680 -0.207238
0.019133 -0.434286 -0.097930
-0.280219 0.170166 -0.413874
-0.286661 -0.344615 -0.283640
0.238478 0.440425 0.066345
0.086798 -0.442288 -0.048719
-0.006251 0.048210 -0.444868
0.159612 -0.202254 0.394185
0.009032 -0.437826 0.076280
0.099283 0.198629 0.396555
0.128822 -0.443146 0.035294
-0.088662 0.070378 0.437523
0.124009 -0.363164 0.254770
0.205729 -0.435287 0.089099
-0.181234 0.343026 -0.286901
-0.099127 0.326101 -0.306099
-0.224552 0.181224 0.404736
0.139406 -0.102859 -0.435273
-0.226790 0.442506 0.052902
0.249376 -0.204616 -0.397335
0.131537 0.443429 -0.047493
0.036777 0.219777 0.385397
0.273941 0.043165 -0.445345
0.271568 0.382359 0.226771
-0.061163 0.383726 0.224460
0.065104 -0.442548 0.041614
-0.169248 0.266433 0.355007
0.222747 0.424310 -0.139262
-0.176910 0.368450 0.248500
0.053388 0.268323 0.353541
-0.163576 0.439606 -0.075864
0.077509 0.383327 -0.229488
-0.066345 -0.394289 0.203653
-0.081312 0.442540 0.052538
0.286497 0.417983 0.152589
-0.035825 0.022399 -0.446924
-0.088959 0.118076 0.427292
-0.114438 -0.444287 -0.022412
0.265638 -0.444758 -0.007430
-0.236241 -0.251860 -0.368962
0.078885 0.438610 -0.082156
-0.233663 -0.436737 -0.086968
0.103014 0.006346 0.443075
-0.037717 -0.399797 0.192842
-0.076342 0.297380 0.329632
-0.199137 0.063026 0.438687
0.196600 0.423070 -0.142813
0.063250 0.032265 0.442022
-0.033801 -0.310295 -0.320999
-0.251471 0.440323 0.066986
-0.172461 0.128751 -0.428544
0.254294 0.421097 -0.148293
0.195208 0.396542 -0.205596
-0.114839 -0.407129 -0.181204
-0.131288 -0.030998 -0.446398
0.223900 -0.339263 -0.290008
-0.001388 -0.007200 -0.447369
-0.233373 -0.439171 0.067786
-0.231358 0.119144 -0.431335
0.191542 -0.414709 0.158836
-0.037659 0.056383 -0.444092
-0.055454 0.349614 0.274164
-0.155022 -0.321272 -0.310022
-0.102483 -0.292945 0.332638
0.091416 -0.095090 -0.437009
-0.124309 -0.333441 0.292258
0.273548 -0.240393 0.372401
-0.153204 0.363408 0.255918
-0.067821 0.403736 0.187060
0.109706 0.402429 0.189688
0.177014 0.419894 -0.151634
-0.082688 0.405090 0.183930
-0.052021 0.132559 -0.427438
-0.107001 0.239577 0.373652
-0.135016 0.228538 -0.384568
-0.054041 0.309386 0.318579
-0.273705 -0.393313 0.205568
-0.082588 -0.360492 -0.263055
-0.259311 -0.072498 -0.441378
0.018479 0.404100 0.186219
0.266848 0.408359 0.176378
0.186346 0.063006 0.438690
-0.137721 0.167730 -0.414929
0.272768 0.129199 -0.428414
-0.259799 -0.444853 -0.004399
-0.162856 -0.237071 -0.378916
0.255975 0.255115 0.363093
0.031787 0.146114 0.418593
-0.071168 0.201148 0.395271
-0.013092 -0.069615 0.437481
0.030538 0.386725 -0.223742
0.069921 0.389311 -0.219369
-0.142528 -0.444785 -0.006558
0.010655 0.073499 0.437028
-0.262471 -0.336755 0.288499
-0.022826 0.062196 -0.443172
-0.091621 -0.405714 0.180121
0.028751 0.444185 -0.039492
-0.235254 -0.240249 -0.376853
0.074168 0.327536 0.300118
0.134949 -0.112511 0.428611
-0.247130 -0.438590 -0.075810
0.226254 0.251263 -0.370064
-0.158179 0.214317 -0.392915
0.055774 -0.405922 0.179640
-0.225567 -0.444709 -0.008963
-0.287219 0.173080 0.408260
-0.132367 0.176815 -0.410997
-0.114372 0.346792 -0.282155
-0.200783 -0.294529 -0.335595
0.129005 -0.415028 0.157950
-0.287278 -0.079598 0.435900
0.037661 -0.419947 -0.148642
-0.232850 0.193974 -0.403280
-0.158621 -0.403263 0.185785
0.078930 -0.134233 -0.426654
-0.226386 0.289454 0.336619
-0.225526 -0.434945 0.090628
-0.022689 -0.065642 0.438110
-0.132399 0.442510 0.052860
0.063047 0.122276 -0.430425
0.164993 -0.443601 0.030475
-0.273934 0.210778 -0.394718
0.242013 -0.292373 0.333143
0.063954 0.428642 0.119997
0.082075 -0.194684 -0.402396
-0.126634 -0.417174 0.151991
-0.245696 -0.326192 -0.304834
0.092135 0.148675 0.417671
-0.118923 0.314884 -0.317434
-0.190584 -0.221665 -0.388027
-0.094006 -0.104742 -0.434852
0.092275 0.228244 -0.384743
-0.151146 0.110245 -0.433851
-0.276377 0.156414 -0.419238
-0.033450 0.085786 -0.439318
-0.079073 0.121423 -0.430673
-0.207017 -0.421539 -0.144220
-0.257443 0.007165 -0.447403
-0.216062 -0.014282 -0.447147
-0.182487 0.445826 -0.006035
0.232894 -0.343394 0.280861
0.241658 0.445447 -0.018112
-0.160776 -0.351050 0.270991
0.285778 -0.246189 -0.372816
-0.104966 0.129538 0.423962
0.215625 -0.257851 0.360537
-0.070167 -0.114329 -0.432436
0.000176 0.038383 -0.445797
0.077696 0.342978 -0.286956
0.277869 -0.211157 0.389649
-0.183260 -0.301171 -0.329739
-0.177537 0.438928 0.075795
-0.032239 0.158551 0.414116
-0.082006 -0.441174 0.055145
-0.053854 -0.075530 -0.440898
-0.206349 -0.313896 0.313044
-0.002553 0.445543 0.010677
-0.173816 0.000914 -0.447599
0.076678 0.120515 0.426583
-0.165163 -0.440407 -0.064341
0.051111 -0.149593 0.416972
-0.077084 0.320603 -0.311716
0.216545 0.415874 0.158447
-0.072003 0.445509 0.011760
0.100157 0.421828 0.141910
0.218861 0.229970 0.379368
-0.013776 0.439298 -0.077812
-0.091762 0.413399 -0.169084
-0.254057 -0.050349 -0.444569
0.008164 -0.103566 -0.435114
0.273995 0.427301 -0.128964
0.192660 -0.038582 0.441328
0.046338 -0.273047 -0.353435
-0.191793 -0.423385 -0.138918
0.218737 -0.384678 0.221116
-0.144175 -0.230515 0.378440
0.007421 0.105898 0.430469
-0.180982 -0.393124 -0.210292
0.115679 0.434138 -0.103180
-0.134468 0.402468 0.189612
0.256453 -0.314328 -0.316965
-0.069598 -0.043256 0.440886
-0.162097 -0.135517 -0.426281
0.042118 0.241669 0.372231
-0.016480 0.445488 0.012430
0.054759 0.116820 -0.432010
-0.060048 -0.054341 0.439838
0.101439 0.426784 -0.130744
-0.044575 0.318060 0.309905
-0.157104 0.237277 -0.379401
0.013446 -0.038943 0.441294
-0.168812 -0.126942 0.424419
-0.273981 -0.382483 0.224829
-0.268652 -0.151174 0.416403
-0.045461 0.425843 0.129630
-0.170857 0.350727 0.272729
0.252923 0.223995 0.382902
0.110510 0.407776 0.177725
-0.145038 -0.291618 -0.338161
-0.105964 0.015308 -0.447147
-0.069856 -0.164847 -0.415733
-0.052158 -0.398645 0.195103
-0.033439 -0.200662 0.394997
-0.102135 -0.410331 -0.173806
0.059082 0.223789 -0.387377
-0.224292 0.424408 -0.138923
-0.125719 -0.424679 0.130111
-0.067501 -0.210424 -0.394376
-0.103327 0.049150 -0.444779
-0.141587 -0.210173 0.390151
0.032860 0.317847 0.310118
0.177653 -0.439425 -0.070539
0.002427 0.401506 0.191500
0.181904 -0.097509 -0.436468
-0.014266 -0.179204 -0.409520
0.063071 0.343278 -0.286615
0.066581 0.191588 -0.404495
-0.116226 0.434749 0.096092
-0.115574 0.099274 -0.436303
0.100978 -0.202607 0.394005
0.081219 0.060132 -0.443499
0.280201 0.344344 -0.285311
0.285015 0.267554 -0.358491
-0.285444 -0.327547 -0.303296
0.087811 -0.412343 0.164802
-0.209122 0.002031 0.443211
-0.067365 0.429560 0.116835
-0.221676 -0.034829 0.441682
-0.077402 0.444777 -0.033227
0.041772 0.199400 -0.400515
-0.251236 -0.402924 -0.190921
-0.258055 -0.259053 -0.364073
0.261843 -0.444093 -0.028575
0.115787 -0.193601 0.398594
0.186480 0.153156 0.416058
-0.249195 -0.072876 -0.441318
-0.128510 -0.137173 -0.425797
0.250238 0.068305 -0.442204
-0.267143 0.275425 0.348032
0.019887 0.335278 -0.295691
0.050954 -0.293524 -0.336482
-0.240127 0.315678 0.312287
-0.102806 -0.405436 -0.185116
-0.234907 -0.198953 0.395868
0.088896 0.431395 -0.114874
-0.067761 -0.376485 0.234971
0.008266 -0.140207 0.420351
-0.229857 -0.176726 0.406239
-0.258383 0.077237 -0.440790
-0.256831 -0.278433 0.344904
-0.130009 -0.158760 -0.418025
-0.157701 -0.200959 -0.399199
-0.006087 0.438056 -0.085649
-0.256470 -0.388623 0.214446
-0.104248 0.153596 -0.420253
0.008842 0.270097 0.352165
-0.067177 0.442131 -0.059922
0.203501 -0.144222 -0.423259
-0.112537 -0.408484 0.173719
0.125556 0.428050 0.122035
-0.149407 -0.080879 0.435697
0.061907 -0.141226 -0.424338
-0.068002 0.163609 -0.416648
-0.128819 0.266961 -0.358951
0.245367 -0.262421 -0.361678
-0.088252 -0.418416 -0.152894
0.209220 0.438892 -0.080375
-0.285615 -0.217724 0.386004
-0.054462 -0.381827 -0.230292
0.089353 0.053040 -0.444411
-0.028343 0.436259 0.089335
-0.215444 -0.245765 -0.373104
0.207588 -0.444681 -0.009880
-0.113784 -0.386698 -0.222055
-0.202313 0.376886 0.236025
0.133412 0.080401 -0.440289
-0.069567 -0.437222 0.080096
0.115929 -0.406819 0.177568
0.123290 -0.407106 -0.181256
-0.287590 0.422721 0.139429
-0.042462 -0.008714 0.442968
0.075073 -0.208266 -0.395476
-0.256412 0.445083 -0.029691
-0.056660 -0.443457 -0.036349
0.212445 0.441010 -0.067004
-0.087944 0.369327 -0.251563
-0.118430 0.075963 0.436638
0.200465 -0.158569 -0.418094
-0.028571 -0.331023 -0.299354
0.269656 0.262052 -0.362732
0.103063 0.433480 -0.106121
-0.221108 -0.394951 0.202353
-0.092870 -0.399253 0.193910
-0.021211 -0.426008 0.125535
-0.084187 -0.327342 -0.303529
0.131176 -0.435356 0.088789
0.052511 0.250583 -0.370526
-0.279681 0.427716 -0.127537
-0.173798 0.108291 0.429934
0.261021 -0.349377 -0.277502
0.061153 -0.400790 -0.195247
-0.055377 0.359536 -0.265726
0.127994 -0.339455 -0.289789
0.069624 -0.381326 -0.231137
-0.228823 -0.094740 0.432734
-0.067656 -0.326813 -0.304129
0.155850 0.198770 -0.400836
-0.240585 -0.444306 0.017459
-0.095857 -0.077192 -0.440635
0.205897 0.359682 0.261184
0.286714 -0.038021 0.441381
-0.278327 0.067673 0.437951
-0.287444 -0.091931 0.433362
0.070584 -0.127788 -0.428526
0.197669 -0.436814 -0.086620
-0.276759 -0.443875 -0.031930
-0.160681 -0.356955 -0.267732
-0.065023 -0.318430 -0.312864
0.144933 -0.070476 -0.441698
-0.226259 -0.329827 0.296357
-0.268547 -0.403763 0.184628
0.145535 0.075803 -0.441017
0.047051 -0.008506 0.442975
0.035264 -0.394364 -0.207859
-0.022126 0.445476 -0.017165
-0.236811 0.120906 0.426470
0.166417 0.352042 0.271034
-0.111956 -0.404432 0.183083
-0.053599 -0.443648 0.029980
0.281273 -0.030592 -0.446436
-0.081301 -0.243280 0.370440
0.182427 0.369054 0.247611
0.244419 0.409731 0.173207
0.235124 0.140675 0.420552
0.125888 0.185737 0.402783
-0.184156 0.437693 -0.087272
0.236295 0.043401 -0.445322
0.140320 0.282271 -0.347075
-0.241420 -0.307107 0.319833
0.058206 -0.355383 -0.269759
0.208583 0.287943 0.337952
0.161367 -0.239756 -0.377188
0.231605 0.340237 0.285712
0.163448 -0.052745 0.439989
-0.137091 0.005459 -0.447456
0.141403 0.337876 -0.292743
0.265182 0.429820 0.115941
0.159435 0.218626 -0.390431
-0.288268 0.334685 -0.296363
-0.021237 -0.206985 0.391775
-0.163399 0.074585 0.436856
-0.039067 -0.360483 0.258715
0.213340 0.429465 -0.121516
0.286504 0.392172 -0.214173
-0.289820 0.217825 0.386551
0.218392 0.437386 -0.088646
-0.288748 -0.320690 -0.310604
-0.050692 0.248502 0.367587
0.003978 0.410842 0.170638
-0.139114 -0.080310 -0.440141
0.109097 -0.438815 0.070034
0.258648 0.306356 0.321609
0.245534 0.220750 -0.389174
0.149844 0.441588 0.058999
-0.099763 -0.022279 0.442542
0.243955 -0.315224 -0.316069
-0.047407 0.070858 0.437447
-0.056601 -0.297954 -0.332576
-0.219156 -0.188499 0.401144
0.076028 0.259040 0.360426
-0.063209 -0.417445 -0.155591
0.201184 0.090679 0.433871
-0.059214 -0.140391 -0.424638
-0.258499 0.406106 -0.185937
0.013770 -0.072720 -0.441343
0.080812 0.355698 0.266319
-0.202272 -0.413700 -0.165992
-0.262905 0.115559 -0.432377
-0.194833 0.444726 0.029412
-0.180417 0.439757 -0.074913
-0.256206 0.074706 0.436837
0.037132 -0.252536 0.364149
-0.223477 -0.347135 0.276038
0.036267 -0.442750 0.039479
-0.060138 -0.390177 0.211723
0.043562 -0.118206 0.426957
0.152727 -0.278376 -0.349302
0.151496 0.090023 -0.438371
-0.143514 0.445663 -0.011227
-0.153334 0.430308 0.114263
0.124260 -0.026177 0.442420
0.144311 0.428989 0.118802
-0.249227 0.442692 0.050932
0.195170 0.339441 0.286615
-0.289179 -0.403194 -0.190298
0.273444 0.271141 0.351355
0.090816 0.427611 -0.127898
-0.221824 0.283179 -0.346371
-0.010832 -0.275084 0.347502
0.208235 0.156716 0.414776
0.024503 -0.245916 0.368648
-0.105493 -0.185433 0.402471
0.037134 0.445584 -0.013741
0.181584 -0.124835 0.425031
0.022586 -0.030178 0.442122
0.177531 -0.272603 0.349426
-0.245125 -0.045657 0.440659
0.136123 0.122248 -0.430433
-0.208397 0.274022 0.349121
0.201388 -0.434532 -0.096833
0.202435 0.432493 0.106182
-0.158355 0.419357 0.148773
-0.286006 0.000190 -0.447602
0.005956 -0.287427 -0.341857
0.217903 -0.030848 -0.446412
0.041998 0.434871 0.095546
-0.080699 0.330656 0.296579
0.191967 0.411633 0.168811
-0.113765 -0.226131 -0.385386
-0.262875 -0.442862 0.038289
-0.242773 0.319936 -0.312383
-0.084384 -0.442635 -0.045047
-0.222599 -0.198424 0.396137
-0.255127 0.001023 0.443242
0.000574 -0.244558 0.369571
-0.169674 0.434728 -0.100541
-0.061842 0.262329 -0.362544
0.204320 0.318537 0.309428
-0.040749 0.267784 0.353959
-0.094528 0.218452 -0.390533
0.286123 -0.127472 0.424264
0.079387 -0.365685 0.251060
-0.022522 0.101245 -0.435862
-0.045132 0.167779 -0.414908
0.226904 0.179466 -0.409850
-0.201366 0.232598 -0.382168
-0.007404 -0.205361 0.392602
-0.176539 0.242366 -0.376110
0.099627 -0.425116 0.128605
0.221811 -0.165893 0.410927
-0.230314 0.445400 0.015248
0.165070 -0.444298 -0.022061
0.129389 -0.241041 0.371961
0.037452 -0.013575 0.442816
-0.220765 0.290982 -0.339626
-0.144974 -0.440695 -0.062521
0.165094 -0.326405 0.300238
0.014966 0.212662 0.389404
0.006094 0.028316 -0.446738
0.070169 -0.215614 0.387252
-0.252855 0.087450 -0.438946
0.222684 -0.375131 0.237162
-0.119227 -0.239716 0.372861
-0.160469 -0.090321 0.433722
0.164432 -0.001400 -0.447552
0.171442 0.389796 -0.218549
0.193609 0.266369 0.355057
0.190386 -0.337425 0.287739
0.274013 -0.432995 -0.103705
0.105077 -0.326943 0.299629
0.276290 0.247051 0.368573
-0.272919 -0.168441 -0.414178
-0.101040 0.350233 0.273365
-0.149268 0.414075 -0.167521
0.089842 -0.433931 -0.099518
0.239196 -0.039532 0.441238
0.284815 0.076874 -0.440847
-0.159166 -0.430876 -0.113133
-0.061400 -0.403933 0.184237
-0.289530 -0.211987 -0.393580
0.114209 -0.301499 -0.329451
0.129089 0.391703 0.210740
0.100886 0.377506 0.234977
-0.051268 -0.441899 -0.052835
-0.086750 0.062880 -0.443064
-0.027306 -0.357491 0.262688
-0.255695 0.427008 0.125620
0.096818 -0.377745 0.232839
0.134451 -0.067367 -0.442191
0.274073 -0.224530 -0.386333
-0.144242 -0.442584 -0.045585
-0.185708 -0.387744 -0.220286
-0.097423 0.163438 -0.416710
-0.006588 0.378866 0.232677
0.011754 -0.414296 -0.164338
-0.056486 0.025304 0.442479
-0.092618 0.022530 0.442566
0.162657 -0.342058 0.282484
0.001711 0.391324 -0.215837
0.026201 -0.205469 0.392547
-0.119085 -0.193938 0.398423
0.127781 0.331179 0.295986
-0.053399 -0.423402 -0.138859
0.092142 -0.286590 0.338241
0.185720 0.441197 -0.065822
0.024717 -0.431759 -0.109238
-0.100637 -0.358527 0.261352
0.089667 -0.025771 0.442432
-0.154333 -0.245359 0.369026
0.199683 0.253843 -0.368310
0.139995 0.401995 0.190539
0.006464 -0.226482 0.380825
-0.063525 0.018321 0.442699
-0.039885 -0.444421 -0.018150
-0.187794 -0.127770 0.424178
0.070998 0.133228 -0.427243
-0.162917 0.116029 0.427887
0.059617 -0.286839 0.338021
-0.120872 -0.232794 -0.381445
0.260063 0.120654 -0.430896
-0.105318 0.445810 -0.006538
0.096188 -0.370448 -0.248405
-0.133892 0.219872 0.385340
-0.076402 0.312660 0.315305
0.192063 0.210816 -0.394699
0.114960 0.092598 -0.437795
-0.028283 -0.026757 0.442401
0.138541 -0.354210 -0.271271
-0.112040 -0.438874 -0.074020
0.138615 -0.272429 0.349561
-0.176906 0.437089 0.085624
-0.262003 0.300505 0.326877
0.277603 0.118813 -0.431431
0.123069 0.152402 -0.420683
-0.005596 0.141816 0.420141
0.005576 -0.414326 0.159901
0.158336 0.231686 0.378354
0.138953 -0.439817 0.063709
-0.139166 0.101016 -0.435913
-0.042117 0.420256 -0.150629
0.145541 -0.159631 0.413358
-0.011534 0.391758 -0.214986
0.030221 -0.258182 0.360312
-0.204346 0.231612 0.378397
0.163600 -0.431739 -0.109325
0.009512 0.375269 -0.242819
-0.121243 0.102559 0.431215
0.056051 0.441753 0.057955
-0.273662 0.442278 0.054640
0.049605 0.362794 0.256823
-0.248234 -0.106929 -0.434363
0.148581 -0.250780 0.365342
0.213073 -0.316041 0.310899
0.186100 -0.444424 -0.018035
0.035510 0.386255 0.220183
-0.118704 -0.436831 -0.086547
-0.048826 0.259158 -0.364699
-0.067082 -0.113472 0.428332
-0.072006 -0.247782 0.367380
0.047812 -0.205103 0.392734
-0.113312 0.337716 -0.292925
-0.009754 0.360500 -0.264482
0.054676 -0.389904 0.212259
-0.181424 -0.346973 -0.280600
0.168767 0.433585 0.101300
-0.168129 -0.030035 -0.446489
0.011160 -0.249824 0.365992
0.007567 0.131050 0.423523
-0.102885 -0.442411 0.043067
-0.094373 0.166250 0.411216
0.037212 -0.442285 -0.048746
0.125628 -0.383248 -0.227889
0.009451 0.304459 0.323390
-0.171617 -0.203883 0.393355
-0.288555 0.395914 0.202475
0.080993 -0.260848 0.358500
0.256084 0.429581 -0.121117
-0.243032 -0.084723 0.434973
0.000186 -0.057047 -0.443825
-0.218885 -0.013155 0.442829
-0.128894 0.421789 0.142017
-0.084550 0.263361 0.357390
0.073335 -0.305257 0.321683
0.258391 0.123687 0.425662
0.069537 -0.431432 0.106345
-0.178651 0.082053 -0.440027
0.183965 -0.417118 -0.156498
0.189216 -0.133368 0.422552
0.100360 -0.355380 0.265409
0.186100 0.445432 -0.018565
-0.100297 -0.439425 0.066186
0.156482 -0.441507 0.052627
0.029882 -0.441397 -0.058089
0.032970 -0.228574 -0.383941
0.057672 -0.130464 -0.427749
0.144572 -0.122293 -0.430122
-0.171653 -0.420950 -0.145857
-0.204443 -0.436183 -0.089443
0.149081 -0.360304 -0.263332
0.076892 0.301135 -0.330674
-0.011435 0.301274 0.326199
-0.247946 -0.197603 0.396555
0.055243 -0.429872 0.112235
0.032299 -0.443625 0.030227
-0.168516 0.415480 -0.163895
-0.249673 -0.425716 0.126540
0.245815 0.034321 -0.446181
-0.201037 -0.439544 0.065436
-0.076712 0.025258 -0.446834
-0.013401 -0.358471 -0.265777
-0.017393 0.408247 -0.180989
-0.107560 -0.229956 0.378771
0.229365 -0.317236 -0.314058
0.003630 0.431832 -0.113369
0.102201 0.343272 -0.286623
-0.132222 0.237768 0.374756
0.118334 -0.144779 0.418705
0.221739 -0.052540 0.440008
-0.196336 -0.358297 -0.266002
-0.209082 0.437969 -0.086039
0.125719 0.017654 0.442720
-0.148782 0.443425 -0.047530
0.113616 -0.100369 0.431476
0.209484 -0.377026 -0.238408
0.118180 0.316732 -0.315586
0.140556 0.040183 0.441273
-0.067344 -0.399766 0.192904
0.025858 0.000393 -0.447608
-0.253741 -0.413681 0.161691
0.257760 0.426683 -0.131094
-0.220794 0.397882 0.198612
-0.244187 -0.273782 0.348512
-0.024372 0.262313 -0.362555
0.192130 -0.165203 -0.415579
-0.230055 0.445072 -0.030040
0.216856 0.213816 0.388816
-0.202144 0.116168 0.427846
-0.235940 -0.368751 -0.250902
0.172993 0.339252 -0.291182
0.193437 -0.049326 -0.444665
-0.231325 0.167460 -0.415046
0.039802 0.174077 0.407829
0.135390 -0.011129 0.442892
0.282632 -0.438496 0.072051
-0.258536 -0.129698 -0.427971
-0.171413 -0.318738 -0.312555
0.203743 -0.344242 -0.284121
0.070799 -0.424533 -0.134966
0.030872 0.079858 -0.440374
-0.167519 0.002922 0.443183
-0.091756 -0.288630 0.336442
-0.230947 0.441402 -0.064526
-0.126517 0.445619 -0.012628
-0.192361 -0.402875 0.186681
-0.148449 -0.267655 -0.357618
0.230557 0.104448 -0.435146
-0.034577 -0.425129 0.128559
0.166332 -0.417027 -0.156753
0.051256 0.388385 0.216582
0.185971 -0.278787 0.344629
-0.123246 0.231851 -0.382609
-0.010012 0.110275 0.429491
0.089575 0.414646 -0.166201
-0.246798 0.235166 0.376296
0.185565 -0.260467 -0.363113
0.164687 0.443001 -0.052016
-0.139927 -0.363092 -0.259229
-0.068904 0.443949 -0.041986
-0.007378 -0.337263 -0.292276
-0.197085 0.440833 0.063763
-0.034127 0.439551 -0.076213
0.103360 0.204562 -0.397885
-0.164344 -0.443817 -0.032548
-0.076700 0.098526 0.432117
-0.221065 0.271638 0.350970
0.164836 -0.444255 0.019080
0.168338 0.349126 -0.279145
0.089180 0.443933 -0.042156
-0.088577 0.236459 0.375530
-0.044159 0.246800 -0.373097
-0.113178 -0.347618 -0.279769
0.112390 0.211828 -0.394183
0.244517 -0.342136 0.282395
-0.122153 0.445154 0.023068
0.012959 -0.228477 -0.383999
-0.275338 0.366292 -0.256029
-0.024436 0.280434 0.344147
0.136362 0.256126 -0.366759
-0.266612 0.106220 -0.434750
-0.071472 -0.442029 0.047104
-0.178022 0.043992 -0.445267
-0.137933 -0.220360 -0.388799
-0.109205 0.222938 0.383527
-0.169560 -0.080330 -0.440137
-0.146867 0.414822 0.161370
-0.164064 0.121318 -0.430704
0.260269 0.375876 -0.241927
0.231998 0.129956 0.423841
-0.080820 -0.005068 -0.447436
0.046304 -0.373540 -0.243856
0.275750 -0.344786 -0.283420
0.112198 -0.023920 0.442491
-0.109388 0.271276 -0.355604
-0.042154 -0.287065 0.337822
-0.268844 0.074407 0.436884
-0.220070 -0.260770 0.358553
0.181628 0.147665 -0.422389
-0.014505 -0.136719 -0.425931
-0.074920 0.376513 -0.240989
0.176344 -0.158794 -0.418013
0.215855 -0.222673 0.383078
-0.113201 -0.019196 -0.446992
-0.216458 0.408264 0.176596
0.045982 0.341677 0.284079
-0.275596 0.375081 0.238742
-0.126576 -0.391394 0.209334
-0.214778 0.284864 0.340666
-0.049569 0.336361 -0.294462
0.005515 -0.248522 -0.371230
-0.248826 0.417690 0.153404
0.094777 -0.197171 -0.401129
0.044684 -0.444879 -0.000791
-0.149753 -0.024967 -0.446811
-0.207321 -0.166911 0.410486
-0.288501 0.413060 -0.169866
0.029720 -0.106749 0.430050
-0.095748 -0.325407 0.301371
0.220882 0.149804 -0.421618
0.106097 -0.315766 0.311175
-0.113159 0.017142 0.442736
0.086123 0.163454 -0.416704
-0.261770 -0.298647 -0.331965
0.076190 0.166246 0.411217
-0.078489 -0.030836 -0.446413
0.145678 0.318238 0.309727
-0.100756 -0.120130 -0.430751
0.062352 0.412326 -0.171564
-0.262065 0.445759 -0.008182
0.241442 0.161271 -0.417490
0.081128 -0.085012 -0.439262
0.286482 -0.444596 0.008216
0.131867 0.444569 0.031072
0.202663 -0.438280 -0.077768
-0.084767 0.163747 0.412245
0.232914 0.246525 0.368931
-0.096740 -0.437355 -0.083610
0.284670 0.429475 -0.121482
-0.079135 -0.184954 0.402678
0.076954 -0.317043 -0.314251
-0.154343 0.438696 -0.081610
0.088614 -0.362008 -0.260825
-0.120236 0.440297 -0.071504
0.110291 -0.444290 0.017946
0.051649 0.331742 -0.299700
-0.143958 0.375144 -0.243003
-0.148654 0.172504 0.408509
-0.073634 -0.147481 0.417732
0.259280 0.383404 -0.229357
0.150169 0.266809 -0.359069
-0.048333 0.034562 0.441805
-0.157908 -0.028060 0.442322
-0.126626 0.369116 0.247519
-0.251460 0.297092 -0.334239
0.239692 0.331467 0.295660
0.236226 -0.221242 -0.388277
-0.124647 -0.368239 0.247303
-0.128881 0.150949 0.416853
-0.094695 -0.439443 -0.070425
0.004183 -0.019312 0.442635
0.203234 -0.416636 0.153485
-0.152201 0.145336 0.418873
-0.023759 0.414842 -0.165666
-0.127234 -0.438048 0.074880
0.285806 -0.418934 -0.151455
0.033437 0.307504 -0.324815
-0.184692 -0.115563 -0.432078
0.122275 -0.268057 0.352953
-0.163897 -0.136591 0.421615
0.065604 0.393862 -0.210856
0.010918 0.040271 0.441265
-0.042728 -0.247455 -0.371956
-0.076280 0.287771 0.338104
-0.142826 -0.320786 -0.310508
0.276983 -0.397906 -0.200908
0.232680 0.440827 -0.068157
-0.032413 -0.298558 -0.332043
-0.286039 0.124569 0.425406
0.030140 0.442437 0.053630
-0.110291 0.354080 0.268406
-0.174881 0.430634 0.113139
0.170045 0.101785 -0.435742
-0.202586 0.000399 -0.447608
-0.001966 0.440593 -0.069634
0.024493 0.000060 0.443244
-0.085981 -0.381744 -0.230432
0.243203 -0.314454 0.312486
0.092365 -0.220117 -0.388943
-0.032658 -0.216796 0.386553
0.176272 -0.005751 -0.447415
-0.120325 -0.302980 0.323792
0.239179 0.152077 0.416447
-0.134235 0.205444 -0.397435
0.184860 0.424949 -0.137061
-0.207668 -0.095420 -0.436935
0.117902 0.414951 0.161012
0.262545 -0.211779 -0.393685
0.095139 0.300681 -0.331075
0.154098 0.363772 -0.259737
-0.177042 0.148668 -0.422027
0.215337 -0.295062 0.330771
-0.158929 0.347790 -0.280869
0.046025 -0.353177 -0.272603
-0.263570 -0.428979 0.115310
0.066091 -0.375770 0.236179
-0.008204 0.378933 -0.236917
0.054744 -0.428002 -0.123025
-0.212417 -0.177252 -0.410365
0.065926 0.076486 -0.440909
-0.261123 -0.383186 0.223639
-0.238118 0.372110 -0.247468
-0.051437 0.331951 0.295111
-0.078742 -0.376219 0.235420
0.043971 -0.377653 0.232996
-0.073242 0.240706 -0.377239
-0.072932 0.043735 0.440937
-0.266892 -0.443798 0.028388
0.243346 0.347290 0.277160
0.038286 0.355221 -0.271288
0.258754 -0.411718 -0.170600
0.237983 0.296187 0.330683
0.096665 0.441540 0.059304
0.095119 0.374669 -0.243702
0.003307 0.382015 0.227352
-0.124634 0.428934 -0.123345
-0.180990 0.288271 0.337662
0.280546 -0.330588 0.295494
0.273459 -0.223286 0.382715
-0.097211 0.010548 -0.447296
-0.028151 0.392562 0.209053
0.178515 -0.319923 -0.311371
-0.107751 0.331472 -0.300007
-0.277575 -0.055935 0.439648
-0.139510 0.388486 -0.220765
0.256552 -0.317779 0.309162
-0.230767 -0.118598 0.426842
0.170395 0.173535 -0.412417
-0.286033 0.236681 -0.379753
-0.146317 -0.410584 0.168867
0.049927 -0.325647 -0.305452
-0.075378 0.323198 0.304767
-0.219628 0.069483 -0.442018
0.180966 0.042254 -0.445431
-0.081504 0.246042 -0.373612
-0.001170 -0.303690 -0.327518
0.006850 0.163753 -0.416596
-0.278139 0.433583 -0.105663
0.223661 0.167864 -0.414871
0.143550 0.004236 -0.447495
-0.258379 -0.298902 0.327386
-0.065980 -0.230750 -0.382654
-0.138132 -0.022775 -0.446880
-0.050619 -0.283531 -0.345291
-0.265992 -0.394281 -0.208022
-0.132918 -0.056594 -0.443897
-0.025563 -0.177458 -0.410276
-0.032665 0.438387 0.079207
0.218666 0.154344 0.415630
-0.014322 0.092760 0.433405
0.139901 0.442255 0.054790
-0.076105 -0.230065 -0.383059
-0.103438 0.055051 0.439868
-0.237029 -0.156283 0.414563
-0.242335 -0.045928 -0.444987
-0.254193 0.443630 0.041012
-0.112445 0.251634 -0.369812
-0.213507 -0.166439 -0.415044
0.040260 0.210071 -0.395078
0.279557 0.314339 -0.317979
0.121879 0.420290 0.146182
0.238873 0.025009 0.442488
-0.116129 -0.318253 -0.313041
0.111870 0.436726 -0.091600
-0.148977 -0.154154 0.415330
-0.089693 0.128541 0.424252
-0.081406 -0.274079 -0.352634
0.198166 0.424888 0.132918
0.249777 -0.384140 0.222026
0.258239 -0.056650 0.439535
-0.153248 0.335791 -0.295108
0.283363 0.009787 -0.447320
-0.079684 -0.077724 -0.440550
-0.092554 -0.265792 -0.359063
-0.182918 -0.443049 0.036315
0.206029 -0.228927 0.379379
0.237887 -0.364051 -0.257818
0.140889 -0.436158 0.085204
-0.123686 0.358866 -0.266589
-0.241299 0.140683 -0.424902
0.102289 -0.376572 -0.239177
0.275251 -0.362640 0.255541
-0.100152 -0.130104 -0.427853
-0.232566 0.280768 0.343888
0.157867 -0.413829 0.161281
0.009751 0.166054 0.411301
0.172945 0.396915 -0.204863
0.143554 -0.441954 -0.052253
0.228339 -0.369816 0.244982
0.058713 -0.014912 -0.447127
0.081558 -0.157463 -0.418492
0.130150 -0.248729 -0.371089
-0.111340 0.445767 0.003571
-0.034840 -0.002674 0.443158
-0.011280 0.413446 -0.168975
0.255901 -0.444255 0.019056
-0.180939 0.433049 0.103697
-0.225496 -0.341827 -0.287100
-0.124346 0.402867 0.188830
-0.074809 0.439704 0.070893
0.079152 0.258624 -0.365062
0.234303 -0.142018 0.419699
0.274622 0.139941 -0.425169
0.110009 -0.444702 0.004844
0.132239 -0.238747 -0.377873
-0.061555 -0.355871 -0.269129
-0.206812 -0.010246 -0.447274
-0.219035 0.440351 -0.071163
0.152495 -0.328429 0.297942
0.007327 -0.335248 0.290209
0.249541 0.310401 -0.321918
0.274572 -0.268578 0.352549
0.083735 0.424975 -0.136971
-0.223201 0.374109 0.240173
-0.024732 0.435939 -0.095121
-0.094960 0.190746 0.400571
-0.140713 -0.402845 0.186751
-0.129464 0.150164 -0.421489
-0.214637 -0.444430 0.013494
0.152575 -0.181063 -0.408716
0.068918 -0.441008 0.056191
-0.288450 -0.442415 -0.047377
-0.191726 0.407026 0.179457
-0.203260 0.388586 -0.220594
0.128319 -0.411429 0.166915
0.217690 0.445187 0.022029
-0.065665 0.367235 0.250287
0.166956 0.392790 0.208607
0.139616 0.209618 0.390955
-0.119096 0.087792 0.434516
0.087501 -0.150366 0.416694
-0.117272 0.397796 0.198781
-0.173079 -0.401854 -0.193159
0.049459 -0.335715 0.289679
0.084467 0.096227 -0.436984
0.207905 0.404400 0.185525
-0.159132 -0.444723 -0.008523
0.083679 0.418745 0.150472
0.277250 0.100840 0.431600
0.286672 -0.272017 0.349881
0.058064 -0.411735 -0.170560
-0.122494 0.062090 -0.443189
-0.026512 -0.431434 0.106339
0.236712 -0.203146 0.393731
-0.223306 -0.403960 -0.188528
0.004782 0.429877 0.115744
0.234475 -0.398103 -0.200521
-0.024381 0.421008 -0.148541
0.253954 -0.234652 -0.380347
-0.020837 -0.270484 0.351070
0.228511 0.438698 0.077247
-0.022619 0.370684 -0.249565
0.286233 0.145291 0.418890
0.168592 0.422555 0.139890
-0.096365 0.318201 -0.314118
-0.128711 0.140106 0.420756
-0.033476 0.396364 0.201591
0.229963 0.377548 -0.239260
-0.034976 -0.037768 0.441405
-0.280083 -0.302819 -0.328287
-0.267664 0.084516 0.435248
-0.181831 -0.432767 0.100374
0.041262 0.338745 -0.291758
0.032248 -0.434198 0.093973
-0.123204 0.320074 0.307891
0.088915 0.435512 0.092679
0.125845 0.421844 -0.146217
-0.107180 0.445329 0.017491
-0.037849 -0.433346 0.097785
-0.037659 -0.379005 0.230709
-0.159101 -0.400568 -0.195683
0.066422 0.213867 0.388791
0.282162 -0.328152 -0.302611
-0.174544 0.169445 -0.414186
-0.096393 0.088716 0.434310
-0.264546 0.068488 -0.442175
-0.028036 0.194937 0.398436
0.209421 0.040037 0.441287
0.089974 0.189879 -0.405344
0.186588 0.430568 0.113366
-0.280383 -0.127322 -0.428662
-0.032388 0.443516 0.042215
0.178671 -0.426241 -0.129087
-0.221298 0.400962 -0.196920
-0.040036 -0.160902 -0.417254
0.001216 0.425476 -0.135245
-0.104944 0.212966 0.389249
0.011277 -0.058583 -0.443582
0.030528 -0.053620 -0.444260
0.191950 -0.048220 0.440417
-0.073356 0.438066 0.081238
0.105375 -0.287094 0.337797
0.173860 -0.249901 0.365940
-0.057326 -0.437379 0.079103
-0.025603 -0.443570 -0.035159
-0.179859 0.153063 0.416092
0.099630 0.443286 -0.049001
0.216379 0.396488 0.201348
-0.210727 0.058248 0.439444
-0.253484 -0.432343 -0.106625
-0.125574 0.211724 0.389883
0.018017 0.325331 0.302619
