0.148420 0.451326 -0.213794
-0.168269 0.496513 0.041877
-0.132027 0.296295 -0.402778
0.009386 0.497152 -0.041020
0.224290 0.384184 -0.319700
0.093196 0.361138 0.341221
0.166992 0.491827 -0.083198
-0.081198 0.124319 -0.484562
0.037531 -0.013222 -0.499999
-0.027906 0.251498 -0.432250
-0.048947 -0.484991 0.108500
0.039329 0.112936 0.482912
-0.074801 -0.256557 0.424408
-0.086168 0.355537 0.346974
0.082617 -0.112850 0.482822
0.000093 -0.190157 -0.462390
-0.070730 -0.204153 -0.456110
0.107398 0.433594 0.243563
-0.091570 0.486897 0.104569
-0.020053 0.301796 -0.398628
0.021681 -0.478154 -0.139456
0.243854 0.172459 0.465142
-0.001850 -0.299570 0.395181
0.103394 -0.137785 -0.480580
0.202765 0.292312 -0.405783
-0.195938 0.359981 0.342409
-0.243144 0.013837 0.495664
0.212385 -0.490538 -0.085618
-0.220060 -0.336861 -0.368427
0.031970 0.427097 0.254893
0.184583 0.487631 0.101069
0.146444 -0.257317 0.423972
-0.285219 -0.377465 0.322249
0.230081 -0.483573 0.114469
0.017082 -0.478529 0.134031
0.024294 0.325141 -0.379747
-0.048486 -0.406425 0.284787
0.189327 0.489898 0.090243
-0.277998 -0.067142 0.491158
0.025609 0.010577 0.495811
-0.048918 -0.029148 -0.499285
0.141065 -0.071858 0.490475
0.286331 -0.346051 0.355367
0.100086 -0.243944 0.431640
-0.092495 0.491837 -0.083143
0.228824 0.102491 -0.489560
-0.173048 -0.392618 0.303484
-0.261064 0.175468 -0.468556
-0.014922 -0.013715 -0.499977
-0.113061 0.306204 0.390928
0.217709 0.233661 -0.442399
-0.096616 -0.491871 -0.076407
-0.165588 -0.440181 0.229624
0.243784 0.352283 0.350317
0.159854 -0.495956 0.038254
-0.142810 0.185531 -0.464520
0.286143 0.057252 -0.497090
0.066472 -0.434910 0.239635
-0.215453 -0.442826 -0.229003
-0.096166 0.146682 0.473825
-0.079254 0.304894 -0.396291
0.240700 0.183722 -0.465275
-0.255231 0.128748 0.479154
-0.134990 -0.169462 -0.470236
-0.252756 0.364677 0.337585
-0.262130 -0.006505 -0.500301
-0.174432 0.270087 0.416654
-0.021196 -0.449710 -0.215032
-0.241220 0.390721 -0.311501
-0.043666 0.479147 0.135218
0.266630 0.317964 0.381551
0.140920 0.428634 -0.256512
-0.223503 -0.157696 0.469980
0.192383 -0.345657 -0.360423
0.209652 -0.232546 0.438090
0.173772 0.208103 -0.454993
0.229276 0.409389 -0.286367
0.050185 -0.484152 0.112034
0.159518 -0.369072 -0.336111
0.166513 -0.488148 0.094263
-0.132746 0.469329 0.165713
-0.140007 0.469655 -0.169263
-0.023253 0.479473 -0.138648
-0.078166 0.199881 -0.458538
-0.064931 0.212321 0.448551
0.082832 -0.488683 -0.095506
-0.076965 0.467451 -0.175135
0.008664 -0.141301 -0.479508
0.167799 -0.361059 0.340362
0.132764 0.200618 -0.458230
0.120585 0.126313 -0.484011
0.182870 -0.130673 0.478172
-0.040365 0.202958 0.452753
0.109242 0.401416 -0.297767
0.064603 -0.382509 -0.320451
-0.196112 -0.104463 0.484579
0.176355 -0.263810 -0.424210
-0.086552 0.179489 0.462504
-0.278613 0.159931 0.469782
-0.092362 -0.243137 0.432103
0.206883 0.386221 0.312967
-0.008217 -0.421177 -0.267214
0.045001 0.494705 -0.063661
0.251697 0.494545 0.060651
0.065167 -0.088489 0.487926
0.132384 0.476581 -0.148127
-0.252412 0.294943 -0.403798
0.073817 -0.159021 -0.474101
0.076452 -0.098890 0.485747
0.098083 -0.145415 0.474102
-0.226884 0.275449 -0.417330
0.173100 -0.331772 0.368823
0.029903 0.271382 -0.420016
0.193207 0.245243 -0.435837
-0.057754 0.358449 -0.348647
0.142634 -0.225757 -0.445782
0.032497 0.170170 -0.470384
0.252639 -0.494208 0.054430
-0.217569 -0.497107 0.016092
0.169325 0.432878 -0.249550
0.020945 -0.404322 0.287793
0.071532 0.366721 -0.339596
0.284093 -0.486394 0.102599
-0.109621 -0.413889 0.274115
-0.200888 0.468642 -0.171962
0.106538 -0.169955 0.465751
-0.187395 -0.453195 -0.207910
-0.084152 -0.138564 0.475994
0.235052 0.019661 0.495403
-0.145960 0.439421 0.233401
0.037488 0.293475 -0.404905
0.140888 0.253236 -0.431253
0.101285 -0.497305 0.011670
-0.223561 0.295034 0.399475
0.202374 0.492980 -0.076500
0.236510 -0.293512 0.399751
0.178575 -0.433607 0.242109
-0.072331 0.181539 -0.466185
-0.289901 0.040149 0.494377
0.257940 0.190735 0.458238
-0.232270 0.496869 -0.043635
-0.164284 0.420456 0.265505
0.126671 0.496016 -0.051527
-0.203396 -0.461511 0.183883
-0.164929 0.320042 0.379894
0.225493 0.497254 -0.040019
0.045110 0.068106 0.491356
0.142754 -0.434899 0.239656
0.194796 0.076058 0.490081
0.168672 0.328192 0.372853
0.285307 -0.196579 0.455133
-0.036498 -0.113468 -0.486895
0.191130 0.497917 -0.025237
0.009636 -0.152906 -0.475967
0.127924 -0.497126 -0.023314
-0.016268 -0.131512 -0.482495
0.117273 0.457657 0.195312
0.181825 0.449067 -0.218827
0.219045 0.259356 -0.427744
-0.277594 -0.286268 -0.409242
-0.205024 0.266205 0.419021
-0.081860 -0.324097 0.375410
-0.143365 0.394068 0.302945
-0.056539 0.296605 -0.402545
0.050426 0.108200 0.484037
0.052549 0.495846 -0.053103
0.126730 -0.195927 0.455405
-0.134882 -0.047766 0.493481
-0.005963 0.487826 0.100134
-0.222388 -0.401896 -0.295564
0.170008 0.367011 -0.339275
-0.261926 0.138227 0.476405
-0.016061 0.336718 -0.369804
0.194681 -0.160592 -0.473564
-0.190743 0.307434 0.389948
-0.012603 0.294407 -0.404202
0.087670 -0.011469 -0.500078
0.071778 0.067895 0.491379
0.030235 0.471565 -0.164173
-0.162888 0.223526 0.443144
-0.170968 0.100088 -0.490064
-0.035863 -0.497450 0.008436
-0.136206 -0.210192 0.449105
-0.141310 -0.107839 0.483872
0.156485 0.484766 0.114741
0.003012 -0.058843 0.492358
-0.203920 -0.494168 -0.060530
0.099588 0.376242 -0.329084
-0.093445 -0.497073 -0.026257
0.128909 0.494206 -0.068283
0.077867 0.414332 -0.279300
0.005758 0.272566 0.415143
0.180700 -0.005637 -0.500306
0.173383 -0.476859 0.139504
0.282953 -0.023242 0.495414
0.172300 -0.497212 0.013751
-0.203260 0.075157 0.490236
0.113793 0.245789 -0.435524
-0.270845 0.386298 -0.317049
-0.261538 -0.329574 0.370710
-0.137097 0.138114 -0.480754
0.182546 -0.303198 -0.396862
0.261732 -0.118334 0.481578
0.089068 0.493710 0.066423
0.028729 -0.468629 -0.169125
0.054002 -0.488034 0.094927
0.104392 -0.352029 0.349547
0.229289 -0.218792 -0.449450
-0.212375 0.418664 0.268218
0.236568 0.141964 0.475265
-0.248613 -0.473240 0.151365
0.211856 0.482431 0.123320
-0.175740 0.498646 -0.008978
0.200782 -0.243937 0.431645
-0.274735 -0.025283 -0.499459
-0.149707 -0.256556 0.424408
0.104268 0.100227 0.485920
-0.201407 -0.482959 0.117051
-0.206054 0.371975 0.329569
0.094192 0.201075 -0.458040
0.251271 0.122106 -0.485173
0.236981 -0.247955 0.429341
-0.017072 -0.046326 0.493598
-0.054936 0.494908 0.058141
-0.137136 0.491891 -0.082825
0.085437 -0.214567 0.446950
-0.058363 -0.022967 -0.499562
0.117463 -0.497187 -0.019904
-0.057175 0.199545 -0.458677
-0.128542 0.190167 -0.462587
0.266327 -0.254553 0.425557
-0.026623 -0.482655 -0.123149
-0.049223 -0.495047 0.046665
-0.152018 0.485633 -0.114468
0.020490 -0.055991 -0.496908
-0.020590 -0.268454 0.416919
-0.114138 -0.065444 -0.495886
-0.273063 0.494942 -0.061470
-0.139411 0.485637 -0.114449
0.064942 0.107627 0.484174
-0.170800 -0.436110 0.237357
-0.073059 -0.325546 -0.378675
-0.245719 0.254613 0.426088
-0.217166 0.383197 0.316491
-0.215287 0.229858 0.439810
-0.111937 0.376960 0.323760
-0.007510 0.461655 -0.190582
0.200855 -0.472344 -0.158356
-0.142887 -0.072621 -0.494849
0.024382 0.095361 0.486758
0.092527 0.243511 -0.436830
-0.259492 0.342055 0.360297
0.168255 0.452153 0.207799
0.230384 -0.015169 -0.499912
0.241857 -0.146134 0.473904
0.142798 0.072075 -0.494946
0.123403 -0.497078 0.016737
-0.260142 -0.475178 -0.150140
0.181227 0.387288 0.311723
-0.049727 0.414218 0.274953
0.144783 -0.389132 0.307856
0.286234 -0.098996 0.485724
0.102008 0.288511 -0.408651
-0.034318 0.476655 -0.147884
-0.033048 0.381978 -0.322466
0.072192 -0.272739 -0.418704
0.011275 -0.006250 0.495720
0.036328 0.348256 0.354453
0.219975 -0.324588 -0.379542
0.265576 -0.493742 0.058735
-0.107849 0.328967 -0.376463
0.052285 0.271026 -0.420250
-0.008296 0.050738 -0.497677
-0.188147 0.173428 0.464779
-0.099899 -0.450031 0.210043
0.113383 0.494133 -0.068955
-0.016920 0.078724 0.489622
-0.025076 0.497781 0.026227
-0.219577 -0.337717 0.363481
-0.076051 0.439009 -0.238149
0.138676 -0.489545 0.086148
0.103542 -0.028427 0.495048
0.020932 -0.492410 0.069507
-0.013574 -0.482545 -0.123548
-0.210287 0.003730 0.495900
-0.171469 -0.485016 -0.113010
-0.270220 0.154220 0.471525
-0.177275 -0.126801 -0.483727
0.108659 0.344514 -0.362214
0.018818 -0.460631 0.186227
0.192480 -0.008679 -0.500203
0.165316 -0.201380 0.453132
0.232380 -0.071319 -0.495073
-0.273002 -0.291556 0.401227
-0.012024 0.474114 0.151843
-0.238066 -0.479748 -0.133680
-0.265989 -0.007582 0.495696
-0.140775 0.095470 -0.491031
-0.098677 -0.025231 0.495307
-0.099131 0.446041 0.220205
-0.257551 -0.463528 -0.183126
-0.160310 0.264872 0.419834
0.069780 0.054878 0.492785
0.216995 0.496285 -0.049041
0.052134 0.099288 -0.490231
0.200200 -0.409503 -0.284896
0.159083 0.295093 0.399434
-0.274217 0.230106 -0.444151
-0.053420 0.378250 -0.326867
0.057036 -0.427859 -0.256130
-0.196694 0.107121 -0.488590
0.165597 0.306197 -0.395308
-0.168929 -0.151037 -0.476537
0.267357 -0.210122 0.449140
0.257584 0.049929 0.493320
-0.210791 0.243746 0.432497
-0.148848 0.461047 0.187180
-0.128571 0.435719 0.239857
-0.176059 0.372555 0.328893
-0.123065 0.252404 0.427435
0.285396 0.479775 -0.137660
0.067519 -0.390204 0.306511
-0.253886 0.099273 -0.490234
-0.286435 0.102808 0.485319
0.054789 0.157320 0.470579
0.265034 -0.224805 -0.446284
-0.263295 0.318632 -0.385332
-0.256277 0.489916 -0.094297
0.104607 -0.340961 0.360322
-0.173412 0.472586 0.156271
0.083093 0.238891 0.435053
-0.266281 0.408009 0.284359
0.148124 -0.155917 0.470594
0.060212 0.436851 -0.242249
-0.247152 -0.268533 -0.421331
-0.224319 0.182086 0.461530
0.045586 -0.497352 -0.010774
-0.013680 -0.494560 -0.057685
-0.274567 0.177189 0.463367
-0.120889 -0.010411 -0.500126
0.013288 -0.295346 -0.402893
0.094887 0.452223 0.207657
0.143542 -0.344067 -0.361900
-0.041563 0.227949 0.440814
-0.209286 -0.221136 -0.448216
-0.149412 -0.309356 0.387798
0.194262 0.061776 -0.496436
-0.161274 0.145783 -0.478637
-0.008446 -0.449488 0.211252
0.102414 0.005446 -0.500107
0.134873 0.213328 -0.452418
-0.204807 -0.490511 -0.085808
-0.286688 0.416198 0.271954
0.032017 -0.366876 0.333940
0.083831 0.099179 -0.490254
0.206905 0.343813 -0.362897
0.073084 -0.485719 0.105439
0.109159 0.067421 -0.495619
0.271460 -0.096102 0.486331
0.013026 -0.493591 0.060131
0.075898 0.107781 -0.488452
-0.002617 0.335240 -0.371081
-0.235333 -0.054098 -0.497112
-0.112206 -0.232166 -0.442408
-0.261966 -0.217508 -0.450117
-0.194207 0.463272 0.181843
-0.045832 0.294376 -0.404226
0.253632 0.239758 -0.438982
-0.120123 0.241455 0.433703
0.000026 0.422388 -0.266758
0.264061 0.458306 -0.198239
0.282663 0.416993 -0.275495
-0.120731 -0.416786 0.269912
0.102014 0.176851 0.463494
0.073225 -0.226653 0.440994
0.263110 -0.394190 0.301512
-0.171400 0.463398 0.181541
0.269752 0.489719 0.091101
0.258242 0.173675 0.464686
-0.133995 0.373140 0.328212
-0.243486 0.165535 -0.471983
-0.189260 -0.479100 0.132159
0.214039 -0.481170 -0.128531
-0.047345 0.266002 -0.423567
0.124830 -0.313930 -0.388304
-0.059675 -0.466255 -0.176009
-0.092928 0.094532 -0.491228
0.019530 0.462602 -0.188058
-0.079451 -0.494845 0.048531
-0.267813 0.477652 -0.144617
0.265492 -0.321139 -0.382556
0.117755 0.232779 -0.442834
0.227724 0.238222 0.435406
0.032231 0.464893 -0.181955
-0.277675 -0.279644 0.409531
0.213772 -0.368679 -0.336569
0.077122 -0.495132 -0.050628
0.108907 0.490598 0.086902
0.156006 0.365088 -0.341398
0.177110 0.498230 0.014545
-0.019127 -0.463814 0.177746
-0.230178 0.496779 0.038597
-0.214009 0.369590 -0.336428
-0.069888 0.492498 0.074803
-0.061189 -0.359640 0.341929
0.162070 -0.138741 0.475945
0.230071 0.498125 0.020400
-0.209334 0.253126 -0.431316
-0.135148 0.430042 -0.254203
-0.000094 0.181228 0.461852
-0.244582 0.375635 0.325304
0.181980 -0.025811 0.495260
-0.242560 0.486256 0.107628
0.141499 0.415628 0.272818
0.226763 0.495587 0.053310
-0.270186 -0.260127 -0.426455
-0.208297 0.434770 -0.246202
-0.097342 -0.187536 -0.463453
0.104797 0.425622 0.257465
-0.229073 -0.369020 -0.336173
-0.181502 -0.454706 0.199624
-0.004185 0.475034 -0.153197
0.239096 0.049076 0.493412
0.116143 0.428310 0.252777
0.232595 0.115131 -0.486912
-0.075202 0.282558 -0.412637
0.110724 -0.496624 0.026855
-0.160631 0.489579 -0.096259
-0.035508 -0.450199 0.209669
-0.237487 -0.205947 0.451197
0.021456 0.435388 0.240434
0.064229 -0.459310 0.189364
0.180815 0.358579 0.343850
0.059462 -0.282329 0.407759
0.241381 0.365276 -0.341191
-0.178191 0.199742 0.454196
-0.172792 0.498087 -0.021440
-0.078626 0.070954 0.490959
-0.097728 -0.224596 0.442008
0.159326 -0.409616 -0.284726
0.271617 -0.474389 -0.152429
0.210535 -0.058386 0.492424
-0.154410 -0.006736 0.495712
0.045400 -0.134431 0.477134
0.180520 0.497749 0.026624
0.054199 0.310659 -0.391941
0.039997 -0.120928 -0.485123
-0.280400 -0.210370 0.449018
-0.023748 0.050959 -0.497659
-0.265422 -0.334203 -0.370834
-0.236616 -0.204981 -0.455738
-0.244170 -0.286817 -0.408858
0.043154 0.191465 -0.462046
0.173916 0.291923 -0.406076
0.208011 0.485222 -0.116195
0.269163 0.493487 -0.073557
0.054287 0.475366 -0.152110
0.158686 0.425988 0.256826
-0.122305 0.222748 -0.447777
0.274328 0.475036 0.149170
-0.285171 0.461728 -0.190389
-0.273750 -0.257002 0.424153
-0.182069 -0.463809 -0.182451
-0.178593 0.469462 -0.169778
0.024705 0.199153 0.454460
0.196143 -0.406940 0.284050
-0.129517 0.035089 -0.498945
-0.040630 0.491219 -0.086732
0.160134 -0.398515 -0.300045
-0.196448 0.438430 -0.239249
-0.105500 -0.237143 0.435541
0.265006 -0.484846 0.109111
0.081342 0.081322 0.489174
-0.018624 0.263994 0.420369
0.196984 0.207464 0.450730
0.246007 -0.417218 0.269204
-0.201260 0.486704 0.105491
0.221994 0.256544 0.424911
0.131108 0.368163 0.334005
-0.179087 0.093165 0.487136
-0.165648 -0.469992 -0.165175
-0.095528 -0.496543 0.028672
-0.104688 -0.098510 -0.490393
0.274511 0.319194 -0.384849
0.198755 -0.209597 -0.453667
-0.071475 -0.401050 -0.296685
0.040541 0.493160 0.070225
0.025035 0.454567 0.202723
0.211995 -0.451062 0.207745
0.195914 0.168094 0.466780
-0.009319 0.484231 -0.120364
-0.107429 -0.167796 -0.470861
-0.101287 0.231946 -0.443245
-0.273590 0.481204 0.127765
0.092315 -0.203090 0.452419
-0.002144 -0.087200 0.488196
-0.238989 0.225266 0.442227
-0.224045 0.414453 -0.279126
-0.201064 0.494730 0.059372
0.015197 -0.075474 0.489952
0.208748 -0.271612 0.414834
0.200381 -0.236591 -0.440078
-0.011162 0.118580 0.481571
0.248247 -0.436904 0.235849
-0.049651 0.497878 0.025026
-0.042952 0.444828 0.222665
0.073720 -0.355052 -0.350773
0.173704 0.198400 0.454798
0.016485 0.321256 0.378926
0.059451 -0.155922 -0.475046
-0.043553 -0.114371 0.482503
0.255412 0.081773 0.489097
-0.054590 -0.121652 0.480662
-0.066133 0.396183 -0.304651
-0.247181 -0.238521 0.434751
-0.289312 0.417927 -0.274075
-0.137841 0.152806 0.471956
-0.005891 -0.353997 -0.351857
-0.242499 0.050207 0.493290
-0.000542 0.493962 0.064682
0.098349 0.479223 0.134941
-0.084084 0.365350 0.336895
-0.214378 -0.477677 0.136823
-0.022507 0.393458 -0.308069
-0.212023 0.194525 -0.460770
-0.118059 0.458165 0.194093
-0.182925 0.277165 -0.416198
0.075458 0.446455 0.219364
-0.274842 -0.050408 0.493267
0.238396 0.444917 -0.226930
-0.109845 0.079239 -0.493909
0.056697 0.274723 0.413680
0.096610 -0.496588 0.027659
0.055710 0.050969 -0.497658
-0.130967 0.498558 -0.003641
-0.199883 -0.044334 -0.498168
0.033950 -0.034468 0.494559
-0.273587 0.474787 -0.154006
0.034681 -0.375802 0.324085
-0.120744 -0.403238 0.289343
-0.165652 0.364103 0.338175
-0.273787 -0.436783 -0.240568
0.244891 -0.388609 -0.313176
-0.264597 0.425021 -0.262439
-0.109436 -0.294880 0.398719
-0.217843 -0.448558 -0.217369
0.075288 0.393653 0.303495
0.028617 0.392238 0.305371
-0.255149 0.167596 0.466967
-0.255006 -0.495747 -0.043032
-0.092658 0.295271 -0.403550
-0.197402 -0.474714 -0.151486
-0.104912 0.459321 -0.195977
-0.053230 -0.232209 -0.442385
0.286306 0.196615 0.455599
0.244796 0.398545 0.297011
0.172479 0.469278 -0.170267
-0.264759 -0.037076 -0.498930
-0.133119 -0.484631 0.110018
-0.030680 -0.492651 -0.071014
0.064197 0.211171 0.449067
0.135907 -0.392563 -0.307934
0.165438 0.493288 0.069338
0.224802 -0.264157 0.419755
0.237775 0.314368 -0.388990
-0.105051 0.140111 0.475830
0.101776 0.367490 -0.338747
-0.040848 -0.335810 0.365337
0.125818 0.030580 -0.499310
0.099634 0.413300 -0.280775
0.144853 -0.381404 -0.321739
0.084107 0.456985 -0.201182
-0.286133 0.498192 0.016630
-0.219950 -0.469987 -0.165189
0.228242 -0.442478 -0.229707
-0.107998 -0.183303 -0.465042
-0.268234 0.428565 0.252333
0.180445 -0.282043 0.407948
0.057015 -0.497247 -0.016600
-0.182235 -0.423484 -0.263720
-0.006719 -0.046066 -0.497980
0.091762 -0.291870 -0.405324
-0.032581 -0.427259 -0.257176
0.129778 -0.391339 0.305088
-0.148699 0.450686 0.210778
0.123817 -0.488306 0.093345
-0.153244 0.019197 0.495424
-0.122528 0.237038 -0.440542
0.115202 0.028292 -0.499496
0.071877 -0.488560 -0.096093
-0.285942 -0.493631 -0.064241
0.154624 0.213536 0.448006
0.267587 -0.343155 0.358186
0.224029 -0.415627 0.271629
0.250228 -0.461886 0.182882
-0.287618 0.077853 -0.494110
0.239158 -0.425736 0.255231
-0.273820 -0.000158 0.495830
-0.090347 -0.307278 0.389366
-0.016383 -0.290361 0.402128
0.246924 0.142043 -0.479669
-0.196882 -0.359911 0.341629
-0.278408 0.356587 -0.350461
-0.132375 0.314598 0.384235
0.008093 0.490871 0.085602
0.122745 -0.427847 -0.256150
0.247402 -0.432225 -0.248516
-0.031045 -0.068103 0.491019
-0.242624 -0.358140 -0.347601
0.260882 0.312611 -0.390469
0.182683 -0.389445 0.307463
0.233730 0.355110 0.347413
0.053154 -0.405542 0.286049
0.049296 -0.463180 -0.183960
-0.236955 0.382325 0.317507
0.129744 -0.088115 -0.492182
0.224146 0.480696 0.129605
-0.198088 0.488125 -0.103979
0.026447 -0.491396 -0.079689
0.131029 0.325640 -0.379318
-0.285141 -0.454954 0.199072
0.002066 0.484403 -0.119643
0.233400 -0.383331 0.315130
0.034915 0.069520 -0.495315
0.257405 0.347165 0.355574
0.276821 0.440826 0.230788
0.039001 0.454755 0.202274
-0.031344 0.466709 -0.177113
0.219199 -0.497071 0.016891
0.227180 -0.116301 0.482099
0.286787 -0.492137 -0.074562
0.108249 -0.222134 -0.447690
0.212970 0.473962 -0.156710
0.138054 -0.189990 -0.462465
0.195937 0.331617 -0.374190
-0.220717 -0.480762 -0.130009
-0.046894 -0.462918 -0.184589
-0.230504 -0.497298 0.011825
0.067085 -0.479402 -0.134934
-0.001486 0.317317 0.382068
0.226944 0.158632 -0.474364
-0.269872 0.372607 0.328832
0.163368 -0.413029 0.275344
-0.162433 -0.495535 -0.045654
0.236277 0.126629 0.479658
0.161321 -0.028865 -0.499298
-0.226385 -0.458159 -0.196002
0.200383 -0.490211 -0.087877
-0.085447 0.136564 0.476912
0.096703 0.136219 0.477018
-0.161551 0.430573 -0.253332
-0.097791 -0.387048 0.310469
0.255112 -0.140804 0.475375
0.156805 0.191101 0.458073
-0.169866 0.398230 0.297428
0.217353 -0.009122 -0.500183
-0.209073 0.172477 0.465135
-0.092372 -0.023926 -0.499519
0.132118 0.168590 0.466594
0.071901 -0.485834 -0.109104
0.143754 0.343599 0.358899
0.183219 0.297332 -0.401996
0.010017 0.364206 0.338070
-0.173767 -0.327979 0.372078
0.215065 -0.043138 -0.498297
0.005589 -0.170136 -0.469982
-0.033272 0.327016 -0.378137
-0.275696 0.120642 -0.485577
0.006131 0.152916 0.471923
0.251042 0.057869 0.492462
-0.223418 0.360792 0.341576
-0.168945 0.492182 -0.081134
0.039266 0.385259 0.314088
-0.029830 -0.490100 -0.088647
0.103129 0.473547 0.153488
-0.010569 0.010653 -0.500013
0.187514 -0.310549 0.386898
-0.203514 -0.029224 -0.499282
-0.110517 -0.221134 -0.448217
-0.168728 -0.370866 -0.334020
0.221362 0.464062 0.179949
0.015687 -0.464120 -0.181705
0.102219 -0.024344 -0.499501
-0.129186 -0.331645 0.368932
0.053163 -0.344240 0.357130
0.215325 -0.295076 -0.403082
0.007665 -0.411564 0.277438
-0.046715 -0.497624 0.004334
0.144573 -0.294709 0.398848
-0.117554 -0.355599 -0.350211
0.033322 0.083729 -0.493260
0.074664 0.347258 0.355478
-0.165876 -0.320620 0.378393
-0.002138 0.242875 0.432956
0.099796 -0.063186 0.491730
0.180485 -0.046604 -0.497922
-0.152890 -0.409663 -0.284654
0.004228 -0.435713 -0.242434
0.012410 -0.065005 0.491467
0.286393 -0.158896 0.469566
0.271910 -0.352707 0.348887
0.055896 0.461238 -0.191695
0.281264 0.061388 0.492082
-0.262830 -0.451911 -0.210566
0.137011 -0.243362 -0.436513
-0.093203 0.022895 -0.499792
0.154692 -0.431539 -0.249712
-0.154473 -0.040945 0.494034
0.019415 -0.054386 0.492945
0.226555 0.498603 -0.006167
0.243321 -0.315739 -0.386862
0.263070 0.399420 -0.300591
0.182633 0.007752 0.495937
0.132425 -0.093792 0.486815
-0.057506 0.409552 0.282022
-0.216476 -0.491831 0.072869
0.152926 -0.038517 -0.498796
0.282474 0.352890 0.349693
-0.132646 -0.493437 -0.065580
0.003857 -0.253874 0.425946
-0.263570 -0.129904 -0.482985
-0.146991 -0.171048 0.465374
0.221185 0.288302 -0.408808
0.119223 -0.495477 0.042683
0.273459 0.115762 0.482240
0.109837 0.044133 -0.498212
0.041527 -0.026646 0.495193
0.164499 0.305954 0.391128
0.283328 0.090027 -0.492171
0.058107 0.069137 0.491244
-0.119531 -0.469019 -0.167995
0.196633 -0.477490 -0.141860
0.138805 -0.212400 -0.452409
-0.287983 -0.165834 0.467173
0.203393 0.385867 -0.317589
0.189626 0.365979 -0.340415
0.030856 -0.497484 -0.003431
-0.012515 0.273783 -0.418431
-0.150424 0.230015 0.439727
-0.174859 -0.494560 0.051164
-0.229529 -0.474508 -0.152083
0.108034 0.474441 -0.155140
-0.081316 -0.497244 -0.016765
-0.155828 0.125282 0.479978
0.286281 0.452817 0.206452
0.136875 0.224567 0.442595
0.280293 0.472270 -0.162256
-0.100655 -0.354491 0.347150
0.233504 0.089886 0.487700
-0.045115 0.497045 0.035304
-0.239881 0.477025 0.142902
-0.107868 -0.292406 -0.404949
0.235390 -0.435910 -0.242091
0.128651 0.400632 -0.298889
0.075947 0.018378 -0.499874
-0.142659 0.218358 -0.449940
-0.038701 -0.365825 0.335101
0.208151 -0.455999 0.196743
-0.226114 0.447947 0.216336
0.006967 0.497847 -0.026782
0.060282 0.444091 -0.228498
0.117669 -0.470828 -0.162750
0.224129 -0.482765 -0.122753
0.090172 -0.384162 0.314088
0.026371 -0.457470 0.193465
0.152281 -0.387414 -0.314735
0.255706 -0.254361 -0.429970
0.070594 0.195495 -0.460366
0.186591 -0.497233 -0.017385
-0.119977 0.339975 0.362181
0.000835 0.010655 0.495807
-0.039098 0.485895 -0.113362
-0.117355 0.118477 0.481595
-0.238449 0.492231 0.076644
-0.124086 0.110943 0.483386
0.189306 0.486486 -0.110876
-0.078863 0.292777 -0.405432
0.127893 -0.496391 -0.035081
0.132048 0.480962 -0.133767
0.221051 0.397908 0.297856
-0.077326 0.235013 0.437095
0.034547 -0.496278 0.034584
0.082999 0.352298 0.350301
0.262371 -0.098595 -0.490378
0.150666 -0.169255 0.465993
-0.000136 0.283182 0.407764
-0.243569 0.333866 -0.372260
0.152554 -0.076957 0.489738
0.165583 -0.490588 -0.085270
0.268771 -0.349714 -0.356256
-0.288005 -0.044321 -0.498169
0.052331 -0.112175 -0.487203
-0.247533 -0.494983 -0.052470
-0.206059 0.205956 0.451407
-0.206408 0.496239 0.045255
0.052493 -0.469862 -0.165550
-0.102912 0.044821 0.493872
-0.099555 0.332182 0.369239
0.281034 -0.491679 0.073752
-0.024324 0.244984 0.431845
-0.046359 -0.240867 0.433405
0.155094 -0.025655 0.495273
-0.163193 0.498426 -0.013873
0.135478 0.007482 0.495949
-0.272617 0.495026 0.057324
0.163151 -0.496578 -0.032774
0.148544 -0.409130 0.280920
-0.109868 0.195018 0.456316
-0.049718 0.047131 0.493623
-0.283871 -0.325572 -0.378651
-0.090962 -0.250682 -0.432214
-0.036287 0.488469 -0.102532
-0.289773 0.288729 0.403884
-0.225001 0.180441 -0.466642
-0.190247 -0.274431 -0.417520
0.262168 0.336576 -0.369934
0.141709 -0.137443 -0.480685
0.270857 -0.267875 -0.421732
0.166836 -0.497239 -0.017019
-0.088545 -0.462523 -0.185535
-0.151926 -0.373822 0.326271
-0.133974 -0.091453 0.487305
0.115592 -0.048072 -0.497764
-0.264296 0.272814 0.414992
-0.161448 0.312565 0.385857
-0.173725 0.109156 0.483810
-0.272684 -0.092224 0.487143
-0.192318 0.187591 -0.463661
-0.028159 -0.090951 0.487410
0.044404 -0.099124 -0.490287
-0.009878 0.496797 -0.044303
0.006117 -0.427871 -0.256108
-0.129710 0.088242 0.487983
-0.252783 -0.266245 0.418377
0.268210 0.308574 0.389039
-0.184284 0.488439 -0.102659
0.113313 0.417500 -0.274770
-0.257439 -0.496855 0.021709
0.111337 -0.344004 -0.361957
-0.126603 -0.001400 0.495808
-0.175202 -0.257641 0.423786
-0.004571 0.484551 0.115642
0.102639 0.402601 0.291635
-0.083003 0.022475 0.495277
0.234583 -0.072007 0.490454
-0.219760 0.201704 0.453315
0.242594 0.330674 0.370605
-0.075453 0.337528 -0.369015
0.241320 0.013033 -0.499970
-0.105945 -0.363091 0.338118
0.119945 -0.178519 0.462663
-0.121279 -0.091337 0.487329
0.154389 -0.462660 -0.185207
-0.116219 0.423703 0.260587
0.148507 -0.372211 -0.332454
-0.218902 -0.116922 0.481968
-0.245260 0.249934 -0.433146
-0.107202 0.296875 -0.402340
0.064393 0.435828 0.239667
-0.173823 -0.368730 0.331893
0.184003 -0.468731 -0.168830
-0.043709 -0.029534 0.494959
-0.199337 0.377783 -0.327383
-0.036602 0.248066 0.430080
0.018851 0.471827 -0.163474
0.212960 -0.417688 0.268434
0.014246 -0.487406 -0.101603
0.104964 -0.233045 0.437845
0.219650 -0.073935 0.490175
-0.067545 -0.490655 0.079699
-0.012087 0.435244 -0.245302
-0.112660 0.254423 -0.430573
-0.090945 0.492858 0.072315
0.030167 0.338925 0.363132
-0.004159 -0.492874 -0.069473
0.258345 0.351850 -0.355072
0.233799 -0.443304 0.223694
-0.162059 -0.347788 -0.358234
0.015908 0.466848 -0.176745
-0.009270 -0.124986 0.479742
-0.065771 0.484757 0.114785
-0.289069 -0.312621 0.385257
0.283919 0.467182 0.171939
-0.190238 -0.470383 0.160238
-0.191879 -0.493774 -0.063252
0.003266 -0.449012 0.212312
-0.151320 -0.154369 -0.475520
-0.035767 -0.466140 -0.176342
-0.000392 -0.438114 0.233550
-0.215014 -0.351290 0.350266
-0.248151 -0.476946 -0.143832
-0.273050 0.498140 0.019525
-0.056338 0.309688 -0.392674
-0.046144 -0.163476 0.467986
-0.281752 -0.247722 0.429474
-0.096550 0.445734 -0.225378
-0.246861 0.384250 -0.319617
0.077515 0.399131 -0.300955
0.250395 -0.426019 0.254767
0.097193 -0.484322 -0.116324
-0.072207 -0.054576 0.492930
0.075485 0.419900 -0.270838
0.049382 0.435765 -0.244311
0.025158 -0.496528 0.029004
-0.243101 -0.396872 -0.302224
-0.156757 -0.465172 0.174126
-0.139959 -0.491891 -0.076266
-0.190693 -0.219319 -0.449172
0.051444 -0.264835 0.419308
0.078742 -0.391145 0.305331
0.211522 0.160642 0.469566
0.158718 -0.133314 -0.481945
0.115767 0.492351 -0.080154
-0.240353 0.265610 0.419384
0.222624 -0.335030 0.366028
-0.151130 -0.135850 -0.481171
0.104732 0.149512 0.472961
-0.197678 -0.251413 -0.431768
-0.149080 -0.317960 -0.385091
0.275762 0.496191 0.045852
0.285459 0.314212 -0.389124
0.094588 0.451866 -0.212591
-0.156784 -0.337095 0.364085
0.153204 0.023811 0.495217
-0.073291 0.382940 0.316791
0.253654 -0.077667 -0.493981
-0.185516 0.080492 -0.493728
0.209125 -0.053732 -0.497152
0.212947 0.371902 0.329654
-0.012814 0.187886 -0.463538
0.000400 -0.489713 0.085172
-0.033599 0.496199 -0.049841
-0.001782 -0.232427 0.438149
-0.044831 -0.452837 0.203789
-0.235512 0.410806 0.280121
0.194976 -0.463874 0.177584
0.261495 0.222302 -0.447997
0.231228 0.275393 0.413211
-0.169475 0.282786 -0.412487
-0.036663 -0.176637 -0.467543
0.031858 -0.494715 0.049733
0.085203 0.390272 0.307977
-0.075919 -0.295375 -0.402873
-0.016746 -0.226380 0.441128
0.149610 0.351040 0.351593
0.091489 -0.376390 -0.327583
0.270220 -0.376521 0.323291
-0.115911 -0.212123 0.448154
-0.229494 -0.406548 0.284611
-0.117244 0.015805 -0.499920
0.117056 -0.489955 0.083766
-0.156662 0.183946 -0.465181
-0.201348 0.028238 -0.499500
0.190473 -0.060248 -0.496448
-0.029038 -0.293041 -0.404505
0.024642 -0.138325 0.476059
-0.213312 -0.232548 0.438089
0.041072 -0.391439 -0.309425
0.018282 0.169684 0.466183
-0.271471 0.396450 0.299788
0.210503 0.485731 0.110134
-0.010616 0.492164 0.077109
-0.172574 -0.056425 0.492708
-0.247873 0.206794 -0.455638
0.210283 0.451076 -0.214352
-0.067759 0.321019 0.379115
0.057586 -0.321289 -0.382437
-0.034254 0.436810 -0.242326
-0.171850 0.010988 0.495792
-0.248297 -0.492085 0.071392
-0.009553 0.460788 0.187803
-0.115139 0.434996 0.241118
0.221550 -0.387845 -0.314189
-0.268534 -0.447787 -0.218934
-0.040139 -0.495678 -0.043888
0.054877 -0.466493 0.170606
-0.260814 0.112549 0.483004
-0.025814 0.275505 0.413133
0.247141 -0.449412 0.211421
-0.039967 -0.470052 0.161120
0.123227 -0.404711 -0.291832
0.213521 0.449056 0.214086
-0.185330 0.493078 0.070789
0.167768 -0.448524 -0.217438
0.145079 -0.212425 0.448005
0.101020 -0.009584 -0.500163
0.284696 0.114722 -0.486998
-0.241129 -0.490084 0.083018
-0.194597 0.349847 0.352819
-0.015854 0.055917 0.492673
-0.190184 -0.059615 -0.496516
0.284897 0.464915 -0.181894
0.260479 0.371626 0.329976
0.008970 -0.056357 -0.496868
-0.143356 -0.389371 0.307556
-0.008676 -0.270323 0.415685
-0.084699 0.496992 0.035965
0.019593 -0.337200 -0.368120
-0.188287 -0.351388 -0.354537
-0.044638 0.329994 0.371221
-0.247122 0.107673 0.484163
-0.043067 -0.007642 0.495695
-0.251257 -0.385667 0.312200
0.274075 -0.452216 -0.209946
-0.015328 0.469175 0.166162
-0.115317 -0.306105 0.390250
0.160135 0.398082 0.297624
0.057924 -0.460792 -0.189687
0.060612 0.480497 0.130327
0.001128 -0.099155 0.485691
-0.055848 -0.461465 0.184005
-0.179098 -0.478972 -0.136492
-0.188314 -0.103152 -0.489347
0.133363 -0.167900 0.466460
-0.120261 -0.124589 -0.484253
0.211726 0.112444 0.483029
0.121811 0.004763 0.495919
0.268483 -0.388633 0.308481
0.163545 -0.072424 0.490393
-0.080669 -0.087633 -0.492265
-0.139890 -0.263247 -0.424553
0.034963 -0.409394 0.280541
0.269139 -0.271811 0.414702
-0.175241 0.145892 0.474066
0.270047 0.387781 0.311149
0.064227 -0.495443 -0.046793
0.140250 0.031567 0.494869
-0.179270 -0.446518 0.217588
0.195918 0.437835 0.236168
-0.203738 0.344610 0.357983
-0.251049 -0.304993 0.391089
-0.038898 0.416730 0.271148
0.197264 0.447860 -0.221340
-0.044841 0.466688 -0.177171
-0.059360 0.032170 -0.499182
-0.258949 0.498546 -0.002980
-0.238931 -0.488136 -0.098117
-0.161885 0.229448 -0.444475
0.124319 0.085384 -0.493020
0.019908 -0.352215 0.349366
0.140653 -0.415209 0.272227
0.060380 -0.115358 0.482297
-0.186580 -0.247859 0.429395
0.262060 -0.405084 0.286704
-0.106009 -0.445004 -0.224581
-0.192712 0.320036 -0.384127
0.003397 0.195191 -0.460493
-0.168033 0.088776 0.487891
0.091025 -0.354911 0.346742
0.134750 -0.444135 -0.226346
0.050414 0.498331 0.008965
0.223311 -0.355081 0.346576
-0.147033 -0.453950 0.201309
0.047164 0.069824 -0.495271
0.226656 0.484098 0.117283
-0.101294 0.377127 -0.328107
0.087115 0.418079 -0.273826
0.137055 0.316434 -0.387218
-0.226058 0.486485 0.106535
-0.039584 -0.077617 0.489642
-0.009890 -0.323296 -0.380712
0.238984 -0.114296 0.482519
-0.201910 0.215592 0.447083
0.256113 -0.012992 0.495599
-0.117739 0.490105 -0.093203
-0.268125 0.256618 -0.429314
0.068556 -0.309604 -0.391754
0.080520 0.466614 0.173584
-0.274198 -0.377718 0.321969
-0.178797 -0.435333 -0.243097
0.135459 0.091776 -0.491805
0.136061 0.053615 0.492922
-0.005978 -0.025864 -0.499432
0.055775 0.495894 0.049512
-0.167493 0.428725 0.252054
0.221446 0.065993 -0.495826
0.125705 0.324360 0.376324
-0.237792 0.489974 -0.093961
-0.031300 -0.282550 -0.411843
0.031281 0.225995 -0.446177
-0.230990 -0.490116 -0.088536
-0.021814 -0.424398 -0.262165
0.090910 0.426674 0.255631
-0.274835 -0.201673 0.453009
-0.007860 -0.358009 0.343725
-0.144328 0.407393 0.285283
-0.222601 0.344394 0.358179
-0.181261 0.118928 0.481488
0.069219 -0.475881 0.142708
0.123501 0.410483 0.280611
-0.288979 -0.310913 -0.390710
0.142622 0.467986 -0.173710
0.227636 0.303839 0.392814
-0.262439 -0.401742 -0.295768
-0.009568 0.496596 0.040853
0.011477 -0.467808 -0.171507
0.129104 -0.260589 0.422096
-0.265722 0.483421 0.119734
-0.045906 0.312699 0.385750
0.116147 0.498567 -0.010732
-0.253491 0.322287 0.378104
0.283875 0.396992 0.299069
0.286248 -0.387657 -0.314438
0.250660 -0.476584 0.140405
0.000479 -0.497131 -0.023001
0.265128 0.025905 -0.499689
-0.270977 0.333450 -0.372617
0.028351 0.483483 -0.123514
0.158312 0.442513 0.227363
-0.252310 0.110740 -0.487832
0.126237 -0.083127 0.488845
-0.157089 -0.373549 -0.330894
0.251541 -0.490341 0.081523
0.285431 0.446218 0.219845
-0.123045 -0.227355 0.440648
0.283597 0.278476 0.411055
0.074665 -0.345842 -0.360233
0.130238 -0.486283 -0.106963
0.172972 0.313584 -0.389663
0.281985 0.462266 0.184256
0.232163 0.101188 0.485704
-0.022678 0.193972 -0.461001
0.286866 -0.203731 -0.456299
-0.061982 -0.061797 -0.496280
-0.111368 -0.388718 -0.313032
0.075110 0.118288 -0.486227
0.078801 -0.358170 0.343552
-0.086300 0.381274 -0.323348
-0.197234 -0.438926 0.232008
-0.267259 0.071922 -0.494968
-0.063252 -0.400488 0.293276
-0.109338 0.383461 -0.320607
-0.198705 0.453789 -0.208305
-0.198315 0.054911 -0.497339
-0.255915 0.455525 0.200426
-0.001394 0.399911 0.295201
0.173307 0.040327 -0.498521
-0.139098 0.035945 0.494673
-0.087560 -0.475503 0.143949
0.222199 0.498403 0.004951
0.098036 0.394300 0.302638
0.237847 -0.323109 0.376257
0.256272 0.312867 0.385616
0.096841 0.446777 -0.223397
0.285450 -0.311795 -0.390007
0.239384 -0.492285 -0.073543
-0.082325 -0.497577 0.005608
0.066711 -0.247300 0.429716
-0.201966 0.457512 0.195660
0.123247 -0.428684 0.250396
-0.076263 0.400410 0.294538
0.102362 -0.435995 -0.241942
-0.222968 -0.496833 -0.029636
-0.252487 -0.433862 -0.245661
-0.091804 0.045822 0.493764
0.261548 0.071400 -0.495043
-0.066040 0.490699 -0.089753
0.092623 -0.232348 0.438188
-0.039859 -0.374017 0.326056
-0.091624 0.338857 0.363194
0.055080 -0.378242 -0.325424
-0.221959 -0.205319 0.451489
0.186169 0.082648 0.488946
0.175777 0.065642 0.491622
0.135799 0.034730 -0.498974
0.257943 -0.166398 -0.471385
-0.184882 0.454221 -0.207343
0.279219 -0.367160 -0.338336
-0.234753 -0.247434 -0.434194
0.226807 -0.490327 -0.087075
0.107153 -0.466163 0.171485
-0.133850 -0.457575 0.193232
-0.114096 0.335327 -0.371006
0.003165 0.109845 -0.488020
-0.157838 0.443155 0.226061
-0.115248 -0.428429 0.250814
0.269800 -0.449915 0.210302
-0.014049 -0.497501 0.007305
-0.029449 -0.242751 -0.436835
0.108000 -0.408863 0.281301
-0.096138 0.308549 0.389058
-0.134801 -0.494848 -0.054134
-0.081364 -0.350264 0.351265
0.105514 0.137732 -0.480859
0.259195 0.337153 0.364737
-0.217628 0.397546 -0.302942
-0.189041 -0.460486 -0.190422
-0.219664 -0.493585 0.060187
0.232117 -0.003566 0.495769
0.059983 -0.411747 -0.281498
-0.144204 -0.431092 0.246446
-0.254282 0.487511 0.101637
-0.052285 0.402294 -0.296512
-0.254129 0.263329 0.420774
-0.236853 -0.104906 0.484486
-0.049615 0.263709 0.420543
-0.076433 -0.281483 0.408317
0.199010 0.366806 0.335399
0.158848 0.057063 0.492549
-0.152493 -0.092417 -0.491442
-0.194110 -0.294375 0.399100
-0.061283 0.268040 0.417902
0.143059 -0.083247 0.488828
-0.209925 0.389755 0.308662
0.080572 -0.429671 -0.252970
0.211654 -0.131662 0.477899
-0.139053 -0.189848 -0.462529
-0.243427 0.116796 -0.486563
-0.231937 -0.434931 -0.243797
-0.074273 0.421802 0.263465
-0.064373 0.462113 0.184625
-0.195309 -0.310670 -0.390904
0.086119 0.116300 0.482113
-0.153832 0.057541 -0.497048
-0.036744 0.095862 0.486671
-0.051918 -0.301007 -0.398609
-0.186376 0.105043 0.484788
-0.102644 0.441020 -0.234330
0.011607 0.321352 -0.382997
-0.127289 0.323930 0.376713
-0.210783 -0.050880 -0.497460
-0.128160 0.079305 -0.493900
-0.028429 -0.488631 0.091460
0.017854 0.457876 -0.199197
0.238128 -0.033245 -0.499101
0.050259 0.055803 0.492685
0.130749 -0.453978 -0.206032
0.071408 -0.082644 -0.493124
-0.071745 -0.497495 -0.002837
-0.049668 -0.442915 -0.228821
0.255909 0.131959 -0.482453
-0.115365 -0.131645 0.477903
0.055226 -0.370964 -0.333906
-0.052305 -0.379274 0.320218
0.280600 -0.149363 0.472854
0.248039 0.438857 -0.238438
0.151594 -0.497369 0.010255
0.206389 0.433726 0.243333
-0.059097 0.496546 -0.046629
0.000092 -0.416100 0.270952
0.244627 -0.495141 0.045791
0.129712 0.442067 -0.232342
-0.039976 -0.381142 0.317876
-0.011300 -0.311976 -0.389863
-0.059431 -0.242640 -0.436893
0.278747 0.209168 -0.454468
-0.084945 -0.369115 -0.336061
-0.062528 0.317593 -0.386223
-0.240595 0.225868 -0.446240
-0.130576 -0.069355 0.490837
-0.191510 -0.018336 0.495503
0.210868 -0.311371 0.386278
-0.241174 -0.496406 0.031711
0.121842 -0.041919 0.493955
-0.246907 -0.317139 -0.385746
-0.150434 0.191417 0.457931
-0.158317 -0.235879 -0.440453
0.127939 0.497943 0.024227
-0.186294 0.480773 0.129326
0.132406 -0.025126 0.495316
0.179839 0.143591 0.474768
0.275273 -0.425111 -0.260922
-0.085495 -0.386712 0.310891
0.163504 0.496384 0.043466
-0.104576 -0.272485 -0.418881
-0.122088 0.371551 0.330063
-0.098669 0.135024 -0.481607
0.154526 0.492665 0.073645
-0.257886 -0.418499 0.267102
0.215767 0.275925 0.412839
0.026264 0.409261 -0.286550
0.180213 -0.272609 -0.418795
-0.036244 0.288864 -0.408384
0.044828 0.287315 -0.409497
0.077985 -0.412441 -0.280447
0.022732 0.264519 0.420049
-0.266136 -0.350857 -0.355082
-0.262469 -0.487219 0.099127
-0.106731 0.496452 0.042634
-0.183652 0.465548 -0.180208
0.147773 -0.478357 0.134594
0.230203 -0.261043 -0.425897
-0.128374 0.427231 0.254659
0.255238 -0.431616 0.245587
-0.267257 -0.440075 0.229825
0.061675 0.320911 -0.383376
-0.038999 0.334848 -0.371417
0.222920 -0.148427 -0.477333
-0.155296 0.399582 -0.300388
-0.063851 0.257547 0.424300
-0.121502 0.349935 0.352729
-0.116236 -0.365469 -0.340073
-0.120342 0.315651 0.383396
0.233379 0.294340 0.399960
-0.131964 -0.465934 0.172095
0.267877 -0.392823 -0.307590
0.087330 -0.439086 0.231703
-0.076033 -0.496882 -0.029023
0.108917 -0.421354 -0.266946
0.227627 -0.439236 0.231418
-0.241823 0.436047 -0.243776
0.064228 0.416354 0.271718
-0.150333 -0.497073 0.016858
0.102808 -0.206235 0.451055
-0.115100 -0.462792 0.180468
-0.159881 -0.486021 -0.108215
-0.046985 -0.358325 -0.347411
0.148286 0.222425 0.443723
0.105644 0.081251 -0.493618
-0.237642 -0.474811 0.146217
-0.167784 0.405299 0.288059
-0.062736 0.475319 -0.152264
-0.182042 0.241923 0.433457
0.219523 -0.306116 0.390242
0.009427 -0.491418 -0.079536
0.013050 0.204758 -0.456504
0.216760 0.495999 0.048218
-0.153489 -0.394601 0.300997
-0.001795 0.470704 -0.166468
0.097632 -0.295052 0.398589
-0.001982 -0.108859 -0.487991
-0.014152 -0.480326 0.128133
0.205927 -0.493909 -0.062319
-0.163247 -0.073459 -0.494705
0.042331 0.417830 -0.274235
0.209833 -0.096648 0.486216
0.215017 0.157706 -0.474684
-0.191630 0.378495 0.321971
0.085838 0.492057 0.077848
-0.277831 -0.131430 0.477963
0.237891 -0.496508 -0.033642
0.100667 -0.403153 0.289466
0.098975 -0.490817 -0.083691
0.266642 -0.175738 0.463756
0.025205 -0.358728 0.342936
-0.169929 0.494236 0.062784
0.095561 -0.487591 -0.100719
0.093329 0.189673 -0.462794
0.193141 -0.301677 0.393591
0.249047 -0.164207 0.467734
0.009433 0.498248 0.013574
-0.077790 -0.064905 0.491481
0.041396 -0.426466 0.254035
-0.106111 0.492137 -0.081398
0.041886 -0.387731 0.309612
-0.229211 0.491805 -0.083330
0.034538 0.040255 0.494366
-0.165812 -0.281037 -0.412901
0.084321 -0.324301 -0.379802
0.099513 -0.096883 0.486167
0.115063 0.325586 -0.379365
0.062058 0.337024 -0.369506
-0.013528 -0.056203 -0.496885
0.146852 0.491270 0.083289
-0.086853 0.464032 0.180022
-0.263880 -0.487371 -0.101770
0.154764 0.470227 0.163112
-0.171310 0.488902 0.095000
0.263406 0.449472 -0.217926
0.119595 0.498229 0.014596
0.083025 -0.127544 -0.483550
-0.228357 -0.094774 -0.491036
-0.157858 -0.311022 -0.390623
0.134437 -0.453193 0.202997
0.017477 -0.492352 -0.073078
-0.082768 0.498318 0.009637
0.286870 -0.328466 -0.376030
0.145286 0.244814 0.431935
0.057639 -0.307393 0.389279
-0.156388 -0.081020 -0.493403
-0.049903 -0.496965 0.019247
0.121790 0.359984 -0.347034
0.128234 0.063314 0.491874
-0.134532 0.125581 0.479907
-0.120341 0.466672 0.173415
0.086993 -0.200438 -0.457777
-0.027449 0.110440 0.483505
0.253249 -0.272346 -0.418979
-0.008027 0.423688 0.260609
0.121641 -0.329244 -0.375326
-0.042808 0.493637 0.066925
-0.073958 -0.378757 0.320822
0.199228 -0.090034 0.487602
0.026521 -0.421047 0.262923
0.216710 -0.378077 0.321573
-0.071882 0.014378 -0.499946
-0.074165 0.487674 -0.105879
-0.289595 -0.072559 0.490374
0.026579 -0.495154 -0.050359
0.009701 0.368342 -0.337806
0.283978 -0.440489 -0.233744
0.094528 -0.448875 0.212618
-0.208272 0.428072 0.253191
0.216568 0.010427 -0.500017
-0.011625 -0.292101 -0.405163
0.053590 0.401931 -0.297032
-0.052470 0.430088 0.249676
0.068791 0.452753 0.206582
-0.224086 -0.495803 -0.042344
0.192097 -0.404682 -0.291871
-0.131942 -0.402275 -0.295061
0.121897 0.422385 -0.266762
0.189170 0.096960 -0.490719
-0.232429 0.474183 0.151642
0.158670 -0.307842 -0.393158
0.104670 0.457997 0.194496
0.116260 0.366106 -0.340274
-0.259021 -0.230806 -0.443125
-0.005736 0.189874 0.458607
0.095794 -0.489015 0.089228
-0.097599 0.462752 -0.187659
-0.127891 0.145402 0.474216
-0.277575 -0.191053 0.457437
0.281754 0.402627 -0.296037
0.212277 0.196110 0.455826
0.257645 0.106096 0.484537
0.062289 -0.483096 0.116477
-0.027622 -0.221938 0.443318
0.014592 -0.495191 -0.049898
-0.032454 -0.108001 0.483838
-0.288314 -0.491852 0.072749
0.200305 0.136602 0.476901
0.002808 0.447348 0.217551
0.021930 -0.400609 -0.297269
-0.264687 0.445063 0.222189
-0.005775 0.082122 0.489037
0.197971 0.157067 0.470656
-0.000519 -0.093658 -0.491228
-0.250199 -0.121508 0.480702
-0.275771 0.300824 -0.399362
-0.261046 -0.224189 0.442208
-0.252460 0.374105 -0.331443
0.181812 0.167813 0.466886
-0.146010 0.338979 -0.367603
0.238054 -0.479513 -0.134533
0.286702 -0.358721 -0.347005
-0.287778 0.212169 0.448619
0.194505 0.473422 -0.158480
0.127877 0.484651 -0.118598
-0.183983 -0.215308 0.446584
0.003051 -0.402536 -0.294715
-0.185458 0.496790 0.038453
-0.247032 0.457670 0.195282
0.026621 0.060072 -0.496682
-0.122714 0.496266 -0.049219
-0.118643 -0.496527 -0.033407
0.117027 -0.199887 0.453754
0.154477 -0.434464 0.240483
-0.277325 -0.450680 0.208596
0.082877 0.275583 0.413078
-0.079803 0.320141 0.379816
-0.288745 0.377500 0.323130
-0.153762 -0.097442 0.486050
-0.256893 0.360794 -0.346140
0.274945 -0.357185 -0.348582
0.192129 -0.480319 0.128160
0.146805 0.360817 0.341551
0.200282 0.247742 0.430277
0.072462 0.446935 -0.223096
0.204780 -0.439823 0.230305
-0.283263 -0.477329 0.137964
-0.214046 0.498372 0.006691
-0.115381 0.277774 -0.415795
0.197110 -0.494909 -0.053382
0.073317 -0.030496 0.494881
-0.062163 0.498214 0.015440
0.013198 0.164290 -0.472412
0.164539 -0.347837 -0.358184
0.231002 0.172469 0.465139
-0.255985 -0.479677 0.130266
-0.012807 0.320762 -0.383504
0.199408 -0.389299 -0.312262
0.177158 0.335042 0.366649
-0.195272 0.388641 0.310139
0.049439 0.479903 0.132480
0.101332 -0.497529 -0.000902
0.013178 -0.033373 -0.499096
0.282421 0.362540 -0.344212
-0.233504 -0.086216 -0.492509
-0.072301 0.484423 -0.119556
-0.192587 -0.281839 0.408082
-0.193195 0.013546 -0.499961
0.103106 0.485966 -0.113066
0.147298 0.096641 0.486537
0.258126 -0.496557 -0.033037
-0.065568 0.262292 -0.426017
-0.133872 0.001039 -0.500186
0.215296 0.043752 0.493988
-0.082126 -0.266727 0.418059
0.128552 0.046298 -0.498037
0.262958 0.480366 -0.135723
-0.157503 -0.193715 -0.460794
-0.067445 -0.469131 -0.167671
-0.150766 -0.124082 -0.484373
0.151692 0.476378 0.145250
0.204265 -0.300651 0.394365
-0.205706 -0.122843 -0.484668
-0.064120 0.461319 -0.191478
0.190489 -0.366602 -0.338909
-0.205121 -0.488785 0.090561
-0.046380 -0.178694 0.462590
-0.018082 -0.232821 -0.442063
-0.019985 0.240703 -0.438440
-0.217673 0.496172 -0.050084
-0.041425 0.454433 -0.206869
-0.095069 -0.486662 0.101468
-0.019630 -0.116454 -0.486186
-0.065108 -0.169109 0.466043
-0.229808 0.027228 0.495064
0.164029 -0.193861 -0.460728
-0.093572 -0.381088 0.317944
-0.091740 -0.109603 0.483502
-0.094487 0.274119 0.414102
-0.128623 -0.411323 0.277783
0.078456 -0.343422 0.357927
-0.144732 0.492469 0.074999
-0.238859 0.389904 0.308465
-0.097103 0.351840 0.350772
-0.035207 0.312788 -0.390335
-0.238651 0.486050 -0.112712
0.154928 0.332074 -0.373797
0.042012 -0.479501 -0.134577
-0.248490 -0.428451 -0.255098
-0.285867 0.389028 -0.313625
0.185444 -0.170400 0.465598
0.173474 -0.353915 -0.351940
-0.103462 -0.252972 -0.430817
-0.094415 0.203528 -0.457017
0.146688 -0.376266 0.323573
-0.058708 0.115029 -0.486934
0.200048 0.497686 -0.030377
-0.154004 0.266431 -0.423284
-0.025735 -0.403939 -0.292857
0.139817 -0.488815 -0.094878
-0.085754 -0.406407 -0.289585
-0.179244 -0.139802 0.475652
-0.284180 -0.489849 0.084380
0.031919 -0.461272 0.184518
-0.140494 -0.496143 0.036516
-0.003302 -0.455109 -0.203318
0.255356 -0.343002 0.358335
0.076148 -0.457248 0.193960
0.072853 0.218351 0.445845
-0.155488 0.008781 -0.500047
-0.131035 -0.358809 -0.346914
0.175780 -0.496309 -0.036094
0.096360 -0.055167 -0.496997
0.107369 0.498518 -0.001435
-0.162252 0.404442 -0.293441
0.140225 -0.407095 -0.288545
-0.252160 -0.360052 0.341474
0.256054 -0.287838 -0.408144
0.144955 0.206052 0.451364
-0.198877 0.015629 0.495584
-0.101054 -0.041489 0.493990
-0.156731 -0.390560 -0.310589
-0.172644 0.497353 -0.037799
0.008224 0.297464 -0.401896
0.278316 -0.380643 0.318501
-0.273880 -0.310793 0.386714
0.250535 -0.469259 0.163233
0.169736 -0.097986 0.485936
-0.126113 0.455328 -0.204875
-0.254549 0.477616 -0.144733
0.009735 0.497162 0.033868
-0.190120 -0.262644 -0.424921
-0.182228 0.333573 -0.372511
0.100795 0.182356 -0.465844
-0.271784 -0.308045 -0.392997
-0.028794 -0.357286 -0.348479
-0.253477 0.457031 -0.201080
-0.215444 0.418746 -0.272731
0.033118 0.420149 0.265970
0.175770 -0.227672 0.440492
0.091740 -0.494837 0.048610
-0.245949 0.481230 -0.132889
-0.133570 -0.367631 -0.337790
0.218231 -0.244591 -0.435866
0.085253 -0.472151 0.154935
0.252790 0.496171 0.046099
0.282293 0.434566 0.241868
-0.101438 -0.014748 0.495567
-0.135513 0.268784 -0.421731
0.079219 0.414967 0.273819
-0.242713 -0.414996 0.272531
-0.239428 -0.085912 0.488442
-0.096050 0.255698 -0.429841
0.072025 0.456494 -0.202278
-0.288672 0.352874 -0.354075
0.112571 -0.446379 -0.221791
0.199769 -0.419528 0.265415
0.087483 0.011135 0.495786
-0.025869 -0.380668 -0.322597
-0.256370 0.073625 0.490500
0.138150 0.495973 -0.051933
0.118515 0.226373 0.441644
0.130887 0.491297 0.083100
-0.073334 -0.356079 0.345604
-0.129364 -0.399687 0.294421
-0.225937 0.212915 0.448284
0.110797 -0.444265 0.221867
0.245574 0.262250 -0.426044
-0.064723 -0.449074 0.212175
-0.257356 -0.047579 -0.497817
-0.181245 -0.112457 -0.487136
0.151151 -0.496714 -0.031098
0.286765 -0.463557 -0.183057
0.246141 0.291460 0.401974
-0.064773 0.091626 0.487401
0.154275 0.194464 -0.460796
0.204389 0.492617 0.073981
-0.039670 0.427523 0.254149
-0.153352 0.206508 -0.455775
-0.075934 0.238676 -0.439602
-0.178300 0.428212 0.252949
0.194716 -0.274753 0.412760
0.256443 0.477653 -0.144613
0.177521 0.480732 -0.134524
0.268987 0.406104 -0.291065
-0.275859 0.459433 0.191052
0.204850 0.026342 -0.499654
-0.089452 -0.471493 -0.160823
-0.258013 0.497616 -0.031939
-0.286636 -0.153128 0.471556
-0.097868 -0.232061 -0.442463
-0.181612 0.418142 -0.273722
0.281649 0.495316 0.055322
-0.205051 -0.196075 -0.459735
0.067229 0.299621 -0.400269
-0.092326 -0.347891 0.353576
0.237166 -0.135766 -0.481197
0.167770 0.498316 -0.016342
0.164932 0.181185 0.461868
-0.223525 0.482781 0.122053
-0.061614 -0.258775 -0.427279
0.005539 -0.222921 0.442833
-0.131156 -0.497290 0.012001
0.018575 0.394662 0.302158
-0.285496 0.395227 0.301409
-0.135611 -0.236402 -0.440178
-0.206083 -0.432265 -0.248446
-0.112403 0.292465 0.401271
-0.003494 0.160670 0.469557
0.243215 0.453287 -0.209423
0.166702 -0.311974 0.385812
0.189542 -0.278243 -0.414855
0.086824 0.090103 0.487663
-0.223151 0.329283 -0.376193
-0.073038 -0.116378 -0.486204
0.284401 0.279864 -0.414416
-0.050263 0.107470 -0.488517
-0.121780 0.042332 0.494141
0.247421 0.458613 0.193019
0.243585 -0.485608 -0.110184
-0.115241 0.480607 0.129927
-0.156850 -0.260048 -0.426504
-0.095552 -0.439760 0.230424
-0.287727 -0.480721 0.126470
-0.019988 -0.068090 -0.495600
-0.027253 0.490689 -0.089809
-0.012769 -0.037411 -0.498915
-0.269923 0.498489 0.000155
0.020198 -0.087371 0.488160
-0.224809 -0.385139 0.312864
-0.216203 0.132644 0.478108
0.144678 -0.481011 -0.129106
-0.062334 -0.417582 0.268607
-0.114715 0.325952 0.374882
0.281021 0.015732 -0.499921
-0.239879 -0.444777 -0.225043
0.059581 0.396387 -0.304395
-0.189500 0.212531 -0.452811
0.143661 -0.365399 -0.340145
-0.172886 0.468478 0.168182
0.183375 0.476112 0.146051
-0.231465 -0.436710 0.236216
-0.228239 -0.328819 -0.375711
-0.191162 0.076703 0.489970
-0.214665 -0.371315 -0.333497
-0.128923 0.446317 0.219645
0.105207 -0.191311 0.457330
0.021072 -0.102402 -0.489525
-0.062809 0.160204 0.469699
0.062705 -0.069196 -0.495439
0.076359 0.338472 0.363543
