0.286960 0.144055 0.428899
0.286960 0.060732 0.484722
0.286960 0.416350 -0.195581
0.286960 0.211131 0.409707
0.286960 -0.187419 -0.450998
0.286960 0.039925 -0.446445
0.286960 -0.475318 -0.080894
0.286960 0.350164 -0.319962
0.286960 0.206867 -0.455428
0.286960 0.479524 0.068669
0.286960 -0.323493 0.350192
0.286960 -0.021181 0.451760
0.286960 0.339646 -0.314728
0.286960 0.172995 -0.466897
0.286960 -0.251194 0.388921
0.286960 -0.446844 -0.008051
0.286960 0.229943 0.402007
0.286960 0.312318 0.343384
0.286960 -0.067820 -0.442182
0.286960 -0.491108 0.031953
0.286960 -0.364264 0.308620
0.286960 -0.258753 -0.385281
0.286960 0.301950 0.389157
0.286960 0.428701 0.211977
0.286960 -0.392225 0.258393
0.286960 0.195424 0.407323
0.286960 -0.009310 0.478129
0.286960 0.010669 -0.463706
0.286960 -0.108792 0.476583
0.286960 -0.456917 0.079069
0.286960 0.328104 -0.306651
0.286960 0.387785 -0.251706
0.286960 0.459671 0.132761
0.286960 -0.445744 -0.125544
0.286960 -0.386986 -0.283870
0.286960 0.384383 -0.273703
0.286960 -0.424412 0.181676
0.286960 0.483380 0.100682
0.286960 -0.009038 -0.492174
0.286960 0.108236 -0.438279
0.286960 0.258712 0.366106
0.286960 0.178236 0.436047
0.286960 0.414430 -0.192749
0.286960 -0.145853 -0.473856
0.286960 -0.408382 -0.219037
0.286960 -0.403049 0.195408
0.286960 -0.269656 0.358833
0.286960 -0.429636 -0.138826
0.286960 0.019190 -0.498700
0.286960 0.458105 -0.160226
0.286960 -0.117880 0.472297
0.286960 0.382896 0.308607
0.286960 -0.439836 0.203453
0.286960 -0.406816 0.274338
0.286960 0.097508 0.486338
0.286960 0.469642 -0.028435
0.286960 -0.364386 0.269025
0.286960 0.304683 -0.353392
0.286960 0.094267 -0.449006
0.286960 -0.462084 -0.001122
0.286960 -0.357912 0.301077
0.286960 -0.345322 -0.318663
0.286960 0.057155 0.446644
0.286960 -0.342553 -0.290140
0.286960 0.351415 -0.316935
0.286960 0.031347 -0.460979
0.286960 0.294920 0.362581
0.286960 -0.078555 -0.493551
0.286960 -0.428013 -0.232399
0.286960 -0.167460 -0.450730
0.286960 0.024824 -0.473661
0.286960 0.369467 -0.276585
0.286960 -0.476402 -0.005225
0.286960 -0.248219 -0.430602
0.286960 -0.459212 -0.163208
0.286960 -0.297986 -0.382991
0.286960 0.296084 -0.342371
0.286960 0.184336 -0.457495
0.286960 -0.246267 0.380053
0.286960 0.127287 -0.461289
0.286960 -0.216546 0.390758
0.286960 -0.250389 -0.410463
0.286960 -0.190148 -0.458054
0.286960 0.359965 -0.342469
0.286960 0.016807 0.480904
0.286960 -0.345320 0.291907
0.286960 -0.455833 -0.201472
0.286960 0.285511 -0.379262
0.286960 -0.063002 -0.443658
0.286960 0.126037 -0.480200
0.286960 -0.044298 -0.492629
0.286960 -0.473325 -0.129370
0.286960 -0.415054 -0.198613
0.286960 0.399522 0.250006
0.286960 0.440807 -0.103059
0.286960 0.128453 0.434994
0.286960 0.349235 0.277803
0.286960 0.091093 -0.442551
0.286960 0.391378 -0.290674
0.286960 0.286230 0.386538
0.286960 0.101336 -0.439222
0.286960 -0.440481 0.065024
0.286960 -0.302667 -0.381442
0.286960 -0.148151 -0.465045
0.286960 0.351716 -0.340443
0.286960 0.444173 -0.048806
0.286960 0.372149 0.292002
0.286960 -0.384837 0.295540
0.286960 -0.489452 0.065787
0.286960 -0.367877 0.331798
0.286960 -0.276224 -0.385555
0.286960 0.224202 0.414506
0.286960 0.119682 -0.472420
0.286960 0.146214 0.433708
0.286960 0.466345 -0.144143
0.286960 0.054664 0.449002
0.286960 0.481060 -0.076865
0.286960 -0.106376 0.454050
0.286960 -0.242527 0.411129
0.286960 -0.477360 0.075877
0.286960 -0.107083 -0.440177
0.286960 -0.273940 -0.417371
0.286960 0.123320 -0.473925
0.286960 0.183880 -0.429291
0.286960 0.243557 0.427941
0.286960 -0.430117 -0.208828
0.286960 0.144819 0.465081
0.286960 0.205181 -0.440204
0.286960 0.204483 0.438759
0.286960 -0.238497 0.393075
0.286960 -0.308360 -0.354956
0.286960 0.293109 0.390671
0.286960 -0.382367 -0.239917
0.286960 -0.405154 -0.216706
0.286960 0.223399 0.391220
0.286960 -0.481226 0.057693
0.286960 -0.485944 -0.105607
0.286960 0.419717 0.245429
0.286960 0.253667 0.420034
0.286960 0.467891 -0.164848
0.286960 -0.175187 -0.458559
0.286960 0.455397 0.196494
0.286960 0.460065 0.061432
0.286960 0.384905 -0.249419
0.286960 0.190607 0.434301
0.286960 0.280591 0.385648
0.286960 0.429059 -0.156394
0.286960 0.215527 0.440684
0.286960 -0.155497 0.415263
0.286960 -0.115327 0.468939
0.286960 -0.083062 0.451114
0.286960 -0.048267 -0.497105
0.286960 0.047081 0.454896
0.286960 -0.056448 0.463584
0.286960 0.471452 0.052219
0.286960 -0.387626 0.271446
0.286960 -0.087228 -0.492220
0.286960 0.462501 0.095624
0.286960 -0.287129 0.373106
0.286960 0.398410 0.230060
0.286960 -0.110200 0.469038
0.286960 -0.095220 -0.484368
0.286960 0.462516 0.153836
0.286960 -0.217293 0.401237
0.286960 -0.341341 -0.342929
0.286960 0.458485 0.031726
0.286960 -0.489309 0.019726
0.286960 -0.378222 -0.260571
0.286960 0.261611 -0.404162
0.286960 -0.415324 0.221173
0.286960 -0.170759 0.427017
0.286960 0.259090 0.384933
0.286960 0.268112 0.365765
0.286960 -0.415382 0.198722
0.286960 0.463967 0.034022
0.286960 0.490931 0.018055
0.286960 -0.249237 0.410167
0.286960 -0.183237 0.431480
0.286960 -0.208194 0.429496
0.286960 -0.074995 -0.453436
0.286960 -0.400231 -0.279745
0.286960 -0.466085 -0.076742
0.286960 -0.383807 -0.254737
0.286960 -0.449111 -0.079038
0.286960 -0.392369 0.232539
0.286960 -0.467073 -0.005681
0.286960 -0.153175 -0.450863
0.286960 0.314463 0.328790
0.286960 0.135610 -0.441484
0.286960 0.471711 0.030193
0.286960 -0.453756 0.000445
0.286960 0.472346 -0.152542
0.286960 0.483178 -0.118611
0.286960 0.192955 -0.427869
0.286960 0.463459 0.161788
0.286960 0.350284 0.331246
0.286960 -0.213941 -0.422781
0.286960 -0.403762 0.229521
0.286960 0.447927 0.216342
0.286960 -0.032255 -0.462768
0.286960 0.462229 -0.032967
0.286960 0.060994 0.491727
0.286960 -0.015223 0.479231
0.286960 0.372558 -0.325085
0.286960 -0.173015 -0.440489
0.286960 -0.010732 0.459390
0.286960 -0.485288 -0.019951
0.286960 -0.217360 -0.405755
0.286960 -0.036360 0.449950
0.286960 0.497561 -0.000391
0.286960 0.034358 0.455828
0.286960 -0.070291 -0.463410
0.286960 0.396502 -0.223566
0.286960 0.438671 -0.093792
0.286960 0.077926 0.438782
0.286960 0.400534 0.278641
0.286960 -0.182346 -0.457056
0.286960 0.031095 -0.498850
0.286960 -0.362790 -0.273078
0.286960 0.402093 0.283984
0.286960 0.483667 0.058621
0.286960 0.222059 -0.423831
0.286960 -0.139780 0.439695
0.286960 0.462239 0.015250
0.286960 0.217440 -0.415820
0.286960 0.340747 -0.295935
0.286960 0.458124 -0.032663
0.286960 -0.269082 0.380165
0.286960 -0.390720 0.304241
0.286960 0.340099 0.289122
0.286960 -0.476579 -0.112380
0.286960 -0.461647 -0.012360
0.286960 -0.482142 0.037453
0.286960 -0.375871 -0.317093
0.286960 -0.396376 -0.265006
0.286960 0.401258 -0.293263
0.286960 0.048010 0.461537
0.286960 -0.446702 0.206883
0.286960 -0.202887 -0.437956
0.286960 0.246773 0.396550
0.286960 -0.407430 0.200038
0.286960 0.494461 0.059216
0.286960 -0.374508 0.309264
0.286960 0.275886 -0.352511
0.286960 0.483856 -0.000325
0.286960 -0.161152 0.438184
0.286960 0.349189 -0.305458
0.286960 -0.464766 0.071794
0.286960 -0.074142 0.489714
0.286960 0.383800 -0.295349
0.286960 0.289366 0.353784
0.286960 0.300370 0.352626
0.286960 0.255553 0.365285
0.286960 -0.312383 -0.358942
0.286960 0.431436 0.210341
0.286960 -0.464376 -0.122600
0.286960 -0.481394 -0.116969
0.286960 0.071841 0.451179
0.286960 0.373525 -0.301043
0.286960 -0.473094 0.003668
0.286960 -0.451046 -0.151108
0.286960 -0.332391 0.355518
0.286960 0.170646 -0.445979
0.286960 -0.190377 0.424372
0.286960 0.126133 -0.443178
0.286960 0.131165 0.471326
0.286960 0.397980 0.239782
0.286960 0.461217 -0.103602
0.286960 0.290974 0.358367
0.286960 -0.281777 0.380222
0.286960 0.166012 0.455288
0.286960 -0.463281 0.045999
0.286960 0.104994 -0.448366
0.286960 -0.006344 0.451755
0.286960 -0.290108 0.347185
0.286960 0.412892 0.218830
0.286960 0.222657 -0.399397
0.286960 0.286414 -0.357446
0.286960 -0.134455 -0.481509
0.286960 0.416911 -0.172545
0.286960 -0.233444 0.397748
0.286960 0.304692 0.323379
0.286960 0.444534 0.197712
0.286960 -0.314054 -0.385825
0.286960 0.309816 0.319374
0.286960 0.219877 -0.390065
0.286960 0.463477 0.041740
0.286960 0.002486 0.484884
0.286960 -0.462945 0.121945
0.286960 -0.063528 0.470456
0.286960 -0.394472 0.270953
0.286960 -0.019926 -0.452839
0.286960 0.127646 -0.467139
0.286960 -0.147012 -0.441969
0.286960 0.253835 0.387292
0.286960 -0.445118 -0.153642
0.286960 0.067891 -0.477203
0.286960 -0.353275 0.321122
0.286960 -0.414547 0.170493
0.286960 0.376646 0.296373
0.286960 0.229011 0.439405
0.286960 0.341005 0.350571
0.286960 0.273674 -0.408972
0.286960 0.230041 0.423906
0.286960 0.204689 -0.401210
0.286960 0.441230 -0.089246
0.286960 0.434344 -0.208486
0.286960 0.456708 -0.039686
0.286960 -0.465295 0.052021
0.286960 0.235278 0.377245
0.286960 0.431138 0.234090
0.286960 0.267068 -0.411185
0.286960 -0.005141 0.470867
0.286960 -0.276583 0.402218
0.286960 -0.414988 -0.258084
0.286960 -0.402302 -0.207389
0.286960 -0.457656 0.094429
0.286960 -0.402531 0.226419
0.286960 0.388876 -0.283044
0.286960 -0.054298 0.474882
0.286960 0.493003 -0.069477
0.286960 -0.299119 -0.357071
0.286960 -0.476611 0.127128
0.286960 0.281920 0.395588
0.286960 0.324441 -0.366620
0.286960 -0.066223 0.468157
0.286960 -0.432386 0.219438
0.286960 0.232269 -0.391750
0.286960 -0.317274 0.316749
0.286960 -0.051528 0.468420
0.286960 -0.426598 -0.136761
0.286960 -0.099358 -0.468116
0.286960 0.334760 -0.314212
0.286960 -0.419863 -0.204432
0.286960 0.126399 -0.473466
0.286960 -0.202847 0.416676
0.286960 0.007585 -0.490000
0.286960 -0.212729 0.439256
0.286960 0.053679 0.483495
0.286960 0.448720 0.011983
0.286960 -0.223618 -0.419253
0.286960 -0.456700 0.168002
0.286960 0.149917 -0.443951
0.286960 0.161219 0.448327
0.286960 -0.471105 0.066613
0.286960 0.370133 0.312690
0.286960 -0.051705 -0.462036
0.286960 0.366701 0.312006
0.286960 0.416632 0.220488
0.286960 0.102146 -0.488181
0.286960 -0.318677 0.354883
0.286960 0.303397 0.359262
0.286960 -0.340877 0.353815
0.286960 -0.072649 0.479138
0.286960 -0.083352 0.455752
0.286960 -0.404774 -0.201554
0.286960 -0.354994 0.287111
0.286960 -0.442360 0.141922
0.286960 0.039263 0.460608
0.286960 0.362388 -0.329413
0.286960 0.402285 -0.207757
0.286960 0.485746 -0.093934
0.286960 -0.451308 -0.130927
0.286960 -0.393486 0.266908
0.286960 -0.364982 0.278463
0.286960 -0.128872 0.423941
0.286960 -0.242783 0.402303
0.286960 -0.203550 0.398467
0.286960 0.106143 -0.475694
0.286960 -0.254324 -0.386916
0.286960 -0.429849 0.233401
0.286960 0.457187 0.106837
0.286960 0.379626 -0.235867
0.286960 -0.361274 -0.263658
0.286960 -0.408130 0.220215
0.286960 -0.351795 -0.305422
0.286960 -0.426121 0.230856
0.286960 0.460731 -0.016096
0.286960 0.461368 0.021506
0.286960 -0.380922 -0.321984
0.286960 -0.031413 -0.457104
0.286960 -0.314098 -0.346858
0.286960 -0.081415 0.470144
0.286960 -0.465608 0.048756
0.286960 0.291458 -0.382701
0.286960 -0.482238 -0.053855
0.286960 0.152742 -0.475934
0.286960 -0.335163 0.330118
0.286960 -0.370561 0.287346
0.286960 -0.278354 -0.360633
0.286960 0.476936 0.052075
0.286960 -0.184887 0.449290
0.286960 -0.276335 -0.390193
0.286960 -0.360207 -0.345165
0.286960 -0.414078 0.227336
0.286960 0.322777 -0.357654
0.286960 0.285723 -0.349615
0.286960 0.434263 0.167636
0.286960 -0.199529 -0.400448
0.286960 0.430835 -0.147701
0.286960 -0.133747 0.444659
0.286960 -0.312090 -0.366935
0.286960 0.266039 0.397803
0.286960 -0.145183 0.460080
0.286960 -0.252232 0.423945
0.286960 0.409418 0.255759
0.286960 0.302983 0.334351
0.286960 0.056071 -0.458243
0.286960 0.342418 0.332371
0.286960 -0.171012 0.461002
0.286960 -0.427493 0.152802
0.286960 -0.375316 -0.286371
0.286960 -0.445886 -0.069658
0.286960 0.267591 -0.372162
0.286960 0.217686 -0.444431
0.286960 -0.250111 -0.419815
0.286960 0.106192 -0.472432
0.286960 -0.110101 0.441992
0.286960 -0.031517 -0.449646
0.286960 -0.116037 0.427765
0.286960 -0.149160 -0.450884
0.286960 -0.407539 0.254155
0.286960 0.486444 -0.050594
0.286960 0.465552 -0.138809
0.286960 -0.479591 -0.004701
0.286960 0.439113 0.147277
0.286960 -0.332788 -0.336670
0.286960 -0.041082 -0.495067
0.286960 0.354276 -0.283740
0.286960 0.269880 -0.404584
0.286960 -0.322780 0.362388
0.286960 -0.460084 0.041567
0.286960 0.063052 -0.488056
0.286960 -0.119718 0.456923
0.286960 0.394198 -0.288242
0.286960 0.474920 0.107306
0.286960 0.463530 0.019001
0.286960 0.315537 0.361046
0.286960 0.470722 0.140140
0.286960 0.294407 -0.336787
0.286960 -0.215231 0.410456
0.286960 0.235705 -0.402821
0.286960 -0.391130 0.272354
0.286960 0.235820 0.412863
0.286960 -0.139319 -0.450039
0.286960 0.445876 0.010459
0.286960 0.026366 0.487710
0.286960 0.251115 -0.408606
0.286960 -0.308418 -0.373035
0.286960 0.491436 0.048426
0.286960 -0.426653 0.225769
0.286960 -0.167323 -0.466384
0.286960 0.331102 -0.346607
0.286960 -0.368541 -0.285099
0.286960 0.404516 -0.255348
0.286960 0.168776 0.431668
0.286960 -0.217921 -0.422763
0.286960 0.404628 -0.204170
0.286960 -0.393533 0.213192
0.286960 -0.380096 0.264489
0.286960 -0.478428 0.031948
0.286960 0.087599 0.440929
0.286960 0.259638 -0.397076
0.286960 0.470258 -0.050605
0.286960 -0.239373 -0.415813
0.286960 -0.304136 0.382967
0.286960 -0.193640 0.451023
0.286960 -0.399226 0.293052
0.286960 0.145330 0.440432
0.286960 -0.040981 0.448095
0.286960 -0.258831 -0.401864
0.286960 0.442251 0.174758
0.286960 0.413898 -0.267044
0.286960 -0.041809 0.483579
0.286960 -0.484425 -0.009179
0.286960 0.093987 0.466375
0.286960 0.332673 -0.349684
0.286960 -0.391341 0.282782
0.286960 -0.059055 0.490218
0.286960 0.370370 -0.291729
0.286960 -0.442241 0.122772
0.286960 0.429773 -0.125895
0.286960 0.460583 0.184153
0.286960 0.076483 -0.479946
0.286960 0.063695 0.474660
0.286960 0.400472 -0.199649
0.286960 0.244530 0.413880
0.286960 0.467725 0.122267
0.286960 -0.243366 -0.406215
0.286960 0.341222 -0.361075
0.286960 -0.469573 -0.085598
0.286960 0.455303 0.100261
0.286960 0.044484 -0.458027
0.286960 0.376474 0.283069
0.286960 -0.239527 -0.394032
0.286960 -0.341081 -0.353660
0.286960 -0.077887 -0.460994
0.286960 0.048324 -0.488669
0.286960 0.403207 -0.194299
-0.255502 0.276700 0.412297
-0.264033 -0.496288 0.034360
-0.084496 0.045678 0.493780
-0.076117 0.441645 0.229124
-0.043361 0.282327 -0.412790
-0.026983 0.011047 0.495789
-0.269523 0.365525 -0.340916
0.158411 -0.127301 -0.483608
0.088239 0.248789 -0.433803
-0.074391 -0.477048 0.138883
0.150701 0.475330 -0.152227
-0.099976 0.421938 -0.267497
-0.122378 -0.332167 -0.372678
-0.269309 0.442523 -0.231476
0.105604 -0.414058 -0.277997
-0.248743 0.458003 0.194481
-0.066321 0.495333 -0.057852
0.137949 0.175957 0.463830
0.139294 0.483279 0.120247
-0.184629 0.351222 0.351406
-0.152034 -0.405969 0.285438
-0.077659 0.358142 -0.348946
0.200967 0.000406 0.495840
0.257041 -0.167416 -0.471003
-0.288989 0.491774 0.079807
0.225597 -0.497600 0.005099
-0.243285 0.131315 0.478514
-0.182776 -0.421817 0.261660
-0.216894 0.230328 -0.444042
-0.136491 0.487257 -0.107634
-0.049107 -0.490944 0.078023
-0.269956 0.467374 0.171382
0.285832 0.112053 0.483122
0.229612 -0.293682 0.399623
-0.014170 -0.492206 0.070694
-0.006665 -0.455165 0.198601
-0.044748 -0.486147 -0.107614
0.142538 -0.395841 0.299442
-0.150036 0.253270 -0.431234
-0.059867 0.200419 -0.458313
-0.248643 -0.494823 -0.054437
0.201941 0.240904 -0.438325
0.251687 0.046176 0.493726
0.245779 -0.119981 -0.485348
-0.195330 0.434640 -0.246449
0.240008 -0.035556 0.494471
-0.166279 -0.263855 -0.424183
0.075954 -0.201606 0.453037
0.188210 0.012159 -0.499986
-0.205402 -0.215462 0.446509
-0.044626 -0.165131 -0.471861
0.107437 0.093338 0.487106
0.206844 -0.479761 -0.133635
0.278761 0.219464 0.445282
-0.287593 0.153528 0.471736
-0.160848 -0.367307 -0.338169
0.175058 -0.374589 0.325424
-0.186227 -0.376648 -0.327282
-0.027086 -0.339974 -0.365607
0.240274 -0.468537 0.165157
0.264432 -0.189248 0.458190
-0.245413 -0.010209 -0.500135
-0.184962 0.478869 0.136225
0.197812 0.441144 -0.234096
-0.024196 0.489778 -0.095102
-0.139296 0.498639 -0.008163
-0.125179 -0.411430 -0.281978
-0.289207 -0.082268 -0.493189
0.185712 0.342897 -0.363788
-0.289011 0.445167 0.221977
-0.137610 0.201368 -0.457918
-0.276136 -0.416101 0.270951
0.119031 -0.443384 -0.227870
0.199651 -0.496259 -0.036716
0.002522 0.494456 -0.065965
-0.142455 0.042924 0.494077
0.128898 -0.344962 -0.361089
-0.182157 -0.415598 0.271671
-0.055160 0.481059 0.128291
0.003522 -0.463597 -0.182960
-0.253602 -0.497419 -0.007015
-0.164447 0.037544 -0.498746
-0.215531 -0.497105 0.016146
0.231699 -0.085102 -0.492701
0.189892 -0.493001 0.065590
-0.173213 0.077709 0.489796
0.006703 0.070390 0.491057
0.204820 -0.165693 0.467221
0.005389 -0.475843 -0.147827
-0.018796 -0.356659 0.345040
0.145820 -0.341788 -0.363965
-0.235016 -0.053515 -0.497175
0.190849 -0.094703 0.486624
-0.004238 -0.284064 0.406613
-0.118426 -0.355012 0.346643
-0.163931 0.461379 -0.191318
0.072173 -0.384336 0.313869
-0.224202 0.498127 0.020267
0.025645 0.489514 0.092080
0.202969 -0.496667 0.025899
-0.092753 0.439728 0.232866
0.120335 0.109458 0.483738
0.275107 -0.259177 -0.427034
0.214893 0.370891 -0.334991
-0.194504 -0.165287 0.467362
0.286183 -0.497300 -0.013661
0.154886 -0.214451 -0.451489
0.124694 -0.458430 0.191326
0.232045 0.112094 -0.487549
-0.080094 -0.380586 0.318573
-0.012626 -0.449518 0.211185
-0.007784 -0.148746 0.473067
0.033330 0.482599 -0.127231
0.099787 -0.308188 0.388679
-0.007183 0.472053 0.157817
0.168758 -0.341652 -0.364087
0.219267 0.263207 -0.425413
-0.221577 -0.497070 -0.026398
-0.233546 0.465719 -0.179753
-0.051969 0.162353 0.468934
0.285599 -0.217447 -0.450144
0.142659 0.269230 -0.421436
0.153900 0.314326 -0.389026
-0.125069 -0.106267 0.484201
0.068325 -0.392951 0.303066
-0.126647 -0.147133 -0.477728
-0.280373 -0.496058 -0.039191
0.041731 0.498107 0.021348
0.162908 0.441766 -0.232914
0.235011 -0.463424 -0.183374
-0.271327 0.141718 -0.479759
0.168046 0.061298 -0.496505
0.005374 0.377723 -0.327448
-0.038891 0.464124 -0.184003
-0.158506 -0.204138 0.451982
0.057140 0.367239 0.334954
0.168924 -0.336174 0.364982
0.097675 0.492442 -0.079627
-0.083754 -0.410949 0.278318
0.081233 -0.187750 0.458814
0.099946 -0.377388 0.322333
0.070575 0.338914 0.363142
0.245309 0.179615 -0.466987
-0.040243 0.070457 -0.495180
0.083161 0.337350 -0.369189
-0.005936 -0.348416 0.353064
0.063597 0.494547 0.060640
-0.070468 -0.231511 0.438600
0.097319 0.182863 -0.465633
-0.053767 -0.003477 0.495770
-0.236856 -0.470896 0.158871
0.225475 0.417477 0.270016
0.048651 0.357065 0.345404
0.222672 0.457970 -0.198989
0.206375 0.438027 -0.240015
0.257951 -0.326768 0.373118
-0.068743 0.258871 0.423492
0.284046 -0.472462 -0.158015
0.266155 0.482322 -0.128397
0.272920 -0.478783 0.133197
-0.175604 0.093029 -0.491542
0.141915 0.411365 0.279275
-0.221183 0.489932 0.090081
0.134470 0.202216 0.453086
0.070430 0.497905 0.024698
0.013329 -0.390937 0.305592
0.120779 -0.382094 0.316682
-0.088819 -0.105734 0.484313
0.082237 0.337188 0.364706
0.113915 -0.364178 -0.341399
0.151689 0.031799 0.494859
-0.231328 0.449564 0.213053
0.111162 0.174028 0.464553
-0.223880 -0.377251 0.322484
-0.242874 -0.495908 0.038692
-0.083618 0.425823 -0.261123
0.136794 0.349043 -0.357805
0.186970 -0.304287 -0.395994
0.209154 0.388092 0.310786
0.180698 0.381635 -0.322896
-0.021328 -0.185841 0.459610
0.207949 0.477472 0.141286
-0.188274 0.112851 -0.487390
0.286003 -0.255783 -0.429104
0.229104 -0.388067 -0.313895
-0.042731 0.046470 -0.498023
0.137290 0.019608 -0.499852
-0.220861 0.359440 0.342965
0.050596 0.494012 0.064338
-0.248136 -0.076272 0.489837
0.137444 -0.214590 0.446938
0.078648 -0.031485 -0.499180
0.183078 0.385512 0.313793
-0.026662 -0.389502 -0.311992
0.265750 -0.192991 -0.461119
-0.267013 -0.291447 -0.405620
-0.191990 0.064132 0.491785
-0.186073 -0.444268 -0.226075
0.102856 0.083022 -0.493362
0.190209 -0.205777 0.451281
-0.119561 0.381064 0.318976
-0.048014 0.058434 -0.496919
-0.187846 -0.407450 0.283321
0.068168 0.289342 -0.408024
0.126310 0.461999 -0.189666
0.021751 -0.398809 -0.299656
-0.188548 0.085963 -0.492936
0.153470 0.436888 -0.242178
-0.079720 -0.164322 0.467694
-0.191512 -0.497228 0.013400
-0.078612 0.398314 -0.301979
-0.197978 0.342292 -0.364378
0.188562 0.034324 -0.499007
0.172015 0.405806 0.287387
-0.188702 0.498545 -0.011238
-0.065017 -0.247152 0.429801
-0.160385 0.370603 -0.335310
-0.243355 0.455654 -0.204148
0.170803 -0.270215 -0.420305
-0.075378 -0.050235 0.493281
-0.018863 -0.207240 0.450560
0.134342 -0.243272 -0.436560
0.143322 -0.429335 0.249328
-0.286414 -0.444601 0.221229
0.248739 -0.482104 0.120648
-0.081016 -0.496008 0.037769
-0.109112 -0.110299 -0.487649
-0.113273 -0.299159 0.395490
-0.048864 -0.140194 -0.479845
-0.073008 0.497669 -0.030753
0.171295 -0.223153 -0.447154
-0.253473 -0.203249 0.452352
-0.004853 0.253514 0.426758
-0.160999 0.486489 0.106517
0.028409 0.242802 0.432994
0.090590 0.141403 -0.479846
-0.039518 -0.454990 0.198991
-0.069944 -0.134324 -0.481637
-0.261456 -0.495053 -0.051601
0.205779 -0.494134 -0.060761
0.145171 -0.002360 0.495790
0.076217 -0.497248 -0.016552
0.206153 0.214388 0.447623
0.181378 -0.443106 -0.228433
-0.100983 0.124634 0.480132
0.128070 -0.405761 -0.290441
0.175160 0.031627 0.494866
-0.207912 -0.497163 -0.021272
-0.132852 -0.339078 0.362155
0.046757 -0.389178 -0.312422
-0.046589 -0.125597 -0.484013
0.196653 -0.266308 0.418335
0.049789 0.180751 0.462031
0.022397 -0.330860 -0.373862
0.109479 -0.493707 -0.063716
-0.267717 0.276555 0.412399
-0.119158 0.010921 -0.500008
0.120146 -0.066518 0.491248
0.104013 0.060419 -0.496632
-0.087307 -0.263772 0.420010
-0.128413 0.193213 -0.461317
0.082361 -0.488086 0.094622
-0.101556 -0.495167 -0.050192
-0.193617 0.152803 -0.476375
-0.262729 0.374754 -0.330727
0.162110 -0.302792 0.392750
-0.136963 -0.305071 -0.395369
-0.207756 0.434873 0.241333
-0.238518 0.087944 0.488034
0.286349 -0.037283 -0.498920
0.040583 -0.060647 0.492097
-0.248218 -0.469486 0.162630
-0.100995 -0.213327 0.447561
-0.109041 0.217570 -0.450328
0.096426 0.195017 -0.460565
0.194240 -0.493757 -0.063367
-0.174959 -0.070938 -0.495139
0.017784 0.383457 0.316188
-0.096630 -0.473893 0.149225
-0.074642 -0.488976 -0.094110
0.238044 0.054440 0.492833
0.094591 -0.229766 0.439460
-0.148154 -0.044641 0.493735
-0.289958 0.424230 0.259789
-0.231643 -0.454098 -0.205743
0.122529 -0.184856 -0.464459
-0.157655 -0.490835 0.078654
-0.045230 0.480863 -0.134094
-0.122015 0.161804 0.469140
-0.232294 0.121828 0.480799
0.230632 -0.347330 0.354121
0.116460 0.212950 -0.452605
0.119821 0.399767 -0.300125
0.190130 -0.389442 0.307466
0.091013 -0.008924 0.495672
-0.256057 0.482442 0.123279
0.211465 -0.333035 -0.371892
0.201761 0.430820 0.248400
-0.246082 -0.314341 -0.387977
0.199787 -0.212554 -0.452340
-0.102547 -0.088007 0.488027
-0.226863 -0.201665 -0.457226
0.147599 0.484971 -0.117253
0.252210 -0.101470 -0.489747
0.151988 -0.305537 0.390679
0.101711 -0.072983 0.490313
0.203461 -0.017460 -0.499809
-0.171193 0.449564 0.213053
-0.008404 0.426370 0.256160
-0.247571 -0.166960 -0.471174
-0.246767 -0.244418 -0.435957
-0.196984 -0.018283 0.495504
-0.178629 0.406595 -0.290363
0.228075 0.297841 0.397512
0.027784 -0.056787 -0.496822
-0.201268 0.422291 0.262724
-0.264088 0.466317 -0.178158
-0.258840 -0.198704 -0.458555
-0.128011 0.448925 0.214350
-0.125419 0.484239 -0.120332
-0.264443 -0.414089 0.273828
0.188457 0.402853 -0.295714
0.029852 0.401151 -0.298146
0.282773 0.494604 -0.064594
-0.094987 -0.405555 0.286031
0.187471 0.281998 0.408592
-0.116719 -0.418064 -0.271929
0.272528 -0.214319 -0.451548
-0.199546 0.423025 -0.265712
0.042093 -0.450330 0.209377
0.061778 0.413583 0.275916
0.028876 -0.425268 0.256000
-0.254061 -0.223698 0.442450
-0.081155 0.489905 -0.094365
0.286511 0.497989 -0.023621
0.235810 -0.066149 0.491301
-0.253282 0.413894 0.275445
-0.156851 -0.392038 0.304210
-0.262990 -0.145188 0.474165
-0.042068 0.307982 0.389511
0.139782 0.399824 -0.300044
-0.131967 0.464930 0.177866
-0.018018 0.491980 -0.082310
-0.139624 -0.467022 -0.173785
-0.194570 -0.495292 -0.048651
0.186490 -0.156117 -0.474987
0.136029 0.304441 -0.396633
0.070480 -0.332308 -0.372550
-0.110407 0.191859 0.457733
0.175756 -0.038918 0.494198
0.118359 0.494265 -0.067732
0.136578 -0.002424 -0.500249
0.187954 -0.496078 -0.038945
-0.223359 0.325265 0.375505
-0.114849 0.405964 -0.291265
0.000137 0.490066 -0.093426
0.271865 0.339383 -0.367209
0.172027 0.456234 0.198725
0.048937 -0.492593 0.068443
0.140000 0.288892 -0.408363
0.284358 0.498091 0.022273
-0.006084 0.430685 -0.253148
-0.239999 -0.351874 -0.354037
0.052298 0.498633 -0.009260
0.268967 0.046310 -0.498036
-0.201313 0.387625 0.311330
-0.032582 0.354094 0.348457
0.230452 0.311220 -0.391518
0.203676 -0.448324 0.213847
-0.080382 -0.189239 -0.462802
-0.189770 -0.300004 0.394853
-0.106892 0.498604 -0.006197
0.283834 -0.449482 -0.215495
0.036856 0.472475 -0.161585
-0.246980 -0.062026 -0.496256
-0.004211 -0.102270 0.485038
-0.010459 -0.379171 -0.324342
-0.235442 -0.193484 -0.460897
-0.289837 -0.099428 0.485634
-0.170203 0.153263 0.471817
-0.176813 0.498473 0.001042
-0.225522 0.071980 -0.494959
-0.084811 0.466850 0.172901
-0.187840 -0.389167 0.307811
0.281858 -0.482388 0.119455
0.204887 0.323977 -0.380745
0.194488 -0.367530 -0.337909
-0.021435 -0.457563 -0.197433
0.004596 0.031818 0.494858
-0.203409 0.263632 0.420590
0.283008 0.062680 0.491942
0.161232 0.253829 0.426566
0.025741 -0.496871 0.021349
-0.158580 -0.474022 -0.153491
0.177677 -0.259276 0.422849
-0.192006 0.209734 0.449712
0.213197 -0.465623 -0.177841
0.060928 -0.190963 -0.462029
-0.114543 -0.047699 -0.497804
0.273822 -0.184894 0.460005
-0.005636 0.156679 0.470775
-0.126384 -0.456110 0.196496
-0.001287 -0.481550 0.122979
0.264811 -0.064759 0.491502
-0.214679 0.262704 0.421156
0.113838 -0.461414 0.184141
0.009234 0.321830 0.378469
0.061329 -0.277320 0.411065
-0.205290 -0.008954 0.495672
0.119706 0.004486 0.495914
-0.187015 -0.422510 -0.265195
0.052786 -0.380945 -0.322275
-0.183426 -0.405487 -0.290804
-0.153668 0.060487 -0.496622
-0.150252 -0.211666 0.448379
-0.004543 -0.217140 -0.450282
0.267906 -0.208903 0.449741
0.256418 -0.489225 -0.092918
0.261507 0.182510 -0.465780
0.172650 -0.417235 -0.273185
-0.078381 0.422837 0.261899
0.214842 -0.006073 -0.500314
-0.263508 0.474451 -0.155107
0.203541 0.012210 -0.499985
-0.230786 -0.063337 0.491708
-0.078369 -0.105304 0.484403
-0.195736 0.459523 0.190837
-0.221659 -0.447243 -0.220039
0.035025 -0.477898 0.136098
0.057194 -0.097671 0.486002
-0.006603 0.080024 0.489398
-0.117257 0.030840 0.494902
0.050587 -0.493953 0.056781
0.273200 0.476418 -0.148660
0.194371 0.498640 -0.008241
0.099421 -0.486326 -0.106760
-0.233917 0.186910 0.459719
0.274922 0.390807 -0.311394
-0.128922 -0.376600 0.323204
0.082205 0.407926 0.284484
-0.062786 0.423285 0.261219
0.271369 -0.351031 -0.354903
0.013069 -0.339723 -0.365835
-0.160062 -0.447280 -0.219964
0.250815 0.470092 -0.168099
0.101596 0.137474 0.476634
0.030482 0.166602 0.467340
0.265880 0.177147 0.463383
0.235999 0.231193 0.439107
-0.143142 -0.279606 0.409556
-0.210074 -0.464311 -0.181247
0.057653 -0.120962 0.480852
0.236141 0.496365 -0.048298
0.272552 -0.301532 -0.398190
0.043103 0.041806 -0.498401
0.216984 0.388588 -0.314176
0.146920 0.497370 0.031300
0.035847 0.341479 -0.365169
0.196011 -0.376945 -0.326936
-0.174720 0.489348 0.092871
-0.005840 -0.224975 0.441821
-0.260519 0.470239 -0.167706
0.000881 0.460245 -0.193917
0.079357 -0.467068 0.169072
0.191567 -0.030911 -0.499206
0.074925 -0.497517 -0.001597
0.000877 -0.449370 0.211516
-0.194926 -0.333220 0.367581
-0.178066 0.116766 0.482002
-0.039527 0.490028 -0.093650
0.110773 0.498209 0.015690
0.149071 0.447195 -0.222603
-0.056141 -0.077480 0.489662
0.131323 -0.445060 -0.224468
0.271681 -0.385317 -0.317179
0.108011 -0.002728 0.495784
-0.175241 0.468055 0.169406
-0.289129 -0.437267 -0.239723
0.215598 0.421609 -0.268036
-0.098060 -0.497348 -0.010972
-0.146240 0.496495 -0.047096
-0.200896 0.379754 -0.325206
0.073460 0.238399 0.435313
0.205803 0.289719 -0.407739
-0.263030 -0.022880 0.495421
0.208013 0.427038 -0.259130
-0.112145 0.480047 -0.136768
-0.121781 0.193132 0.457162
0.118219 0.364352 -0.342212
-0.261176 0.262538 -0.425854
-0.234907 0.448879 -0.219247
-0.151350 0.369023 0.333010
-0.216383 0.244115 0.432303
-0.180276 0.338152 -0.368408
0.127631 -0.462277 0.181840
-0.267449 0.273930 -0.418333
-0.200746 0.495938 0.048971
0.235150 0.283638 -0.411924
0.025432 0.154725 0.471371
-0.100042 0.264654 -0.424457
0.099298 -0.456740 -0.199407
-0.024964 0.495762 0.051150
0.056175 -0.056196 -0.496886
0.039921 0.385993 -0.317430
0.154437 0.335290 0.366424
0.018085 0.465912 -0.179238
-0.140017 -0.166903 -0.471196
-0.286443 -0.042345 0.493921
-0.061170 0.210887 -0.453622
-0.039682 -0.303249 -0.396821
0.069202 0.490604 -0.090302
0.176130 0.372943 0.328441
0.055413 -0.213085 -0.452102
0.083688 0.486386 -0.111297
0.192957 -0.468384 0.165567
0.183877 0.498183 0.017140
-0.080137 -0.220107 -0.448758
-0.035811 0.151943 -0.476671
0.036921 0.482492 0.123099
0.286291 0.153838 -0.476018
0.286715 -0.271293 -0.419648
-0.093989 0.175092 0.464154
-0.123268 0.443240 -0.230115
-0.201486 0.057146 0.492540
0.251241 -0.439981 -0.234776
-0.144207 -0.031431 0.494805
-0.137788 -0.394186 0.301517
0.252635 0.291138 0.402200
-0.259155 0.118939 -0.486047
0.265608 -0.432883 -0.247369
0.116861 -0.302976 0.392611
-0.022845 0.087878 -0.492621
0.024589 0.482157 0.124313
0.145603 -0.286916 -0.408789
-0.179953 -0.244786 -0.435764
-0.110309 0.352991 -0.353961
0.066027 0.009149 -0.500040
-0.007155 -0.210223 0.449090
-0.071483 0.399742 0.295424
0.029157 -0.076809 0.489759
0.167683 -0.273730 0.413435
0.155849 0.381882 0.318023
0.017597 -0.029586 -0.499265
-0.000556 0.143946 -0.479144
-0.082411 -0.020628 0.495461
0.286809 0.415430 0.273118
-0.104153 0.496615 0.040611
-0.035408 -0.484281 -0.116519
0.097020 0.309333 -0.392942
0.159127 -0.436691 -0.240728
-0.142193 -0.124598 -0.484250
0.141138 0.133053 0.477984
0.191358 -0.263575 -0.424353
0.131738 -0.376636 0.323164
-0.126211 0.169884 -0.470483
0.170347 0.092154 -0.491726
0.049839 -0.398910 -0.299522
0.273883 0.478956 0.135907
0.048295 0.496482 0.042264
0.058305 -0.081505 -0.493320
0.098402 -0.395750 -0.303710
0.257972 -0.493319 -0.066398
0.024804 -0.480764 -0.130002
-0.116545 0.470756 0.161579
0.080059 0.036239 -0.498852
-0.078831 -0.083528 0.488787
-0.036792 0.497317 -0.038618
0.079225 0.063873 -0.496132
-0.043577 -0.495142 -0.050497
0.253338 0.390064 -0.312325
-0.109396 -0.446238 -0.222078
-0.216457 0.349855 -0.357015
0.003100 0.452254 -0.211726
0.112353 0.439875 -0.236506
0.123942 0.489520 0.092048
0.048851 -0.457200 0.194066
0.095543 -0.387835 -0.314202
0.135394 0.085273 -0.493036
-0.069080 0.151856 -0.476701
-0.204764 0.487547 0.101468
-0.272495 -0.386890 -0.315346
-0.220704 -0.467235 -0.173168
-0.062907 -0.408286 0.282126
0.094839 -0.422393 0.260716
0.132006 -0.310663 0.386812
0.057267 -0.348630 -0.357369
0.073889 0.144033 -0.479120
-0.229249 0.166210 -0.471750
-0.278211 -0.473073 0.151913
-0.259853 0.369543 0.332403
-0.249649 0.285786 0.405943
-0.098158 0.100594 -0.489958
0.193235 -0.335830 0.365318
-0.204622 0.176120 0.463768
0.166211 -0.425405 -0.260409
-0.268370 0.446102 0.220080
0.089791 0.464915 0.177904
-0.116516 0.186081 -0.464291
-0.193621 0.454959 0.201783
0.152016 0.175305 0.464074
0.037365 0.393475 -0.308047
-0.172228 0.364780 -0.341739
0.013781 -0.206896 -0.454879
0.105380 0.212536 0.448454
0.144306 -0.378453 -0.325179
-0.134642 -0.468347 0.165665
0.250725 -0.349985 0.351537
-0.105592 -0.440851 0.228353
0.034525 0.398250 0.297402
-0.258670 0.490017 -0.093712
0.041212 0.265323 0.419559
-0.180258 0.400100 -0.299650
0.216588 0.430111 0.249636
0.181380 -0.420528 -0.268196
0.072702 -0.424128 -0.262635
-0.120043 0.215106 0.447301
-0.038879 -0.476616 0.140300
-0.173148 -0.493260 0.063196
0.277168 0.288660 0.403932
-0.122970 -0.477964 -0.140143
-0.067622 -0.113812 0.482620
0.019121 0.279989 -0.414334
-0.211939 0.300739 0.395286
0.087832 -0.496013 0.037725
-0.135795 0.447798 -0.221457
0.165616 0.419479 -0.271529
0.257707 0.015031 0.495611
0.250776 -0.497037 0.017646
-0.256532 0.420395 0.265597
-0.113219 -0.204762 -0.455836
0.200854 0.017309 0.495509
-0.086778 0.261150 -0.426715
-0.132044 0.193702 0.456906
-0.054486 0.151617 0.472319
0.049675 0.379931 -0.325011
-0.285468 0.366474 0.335740
0.175202 0.466559 0.173744
0.124556 0.180572 0.462098
0.026865 0.297272 0.397910
-0.016163 -0.495041 0.046715
0.026744 0.371138 0.330544
0.001594 0.410154 -0.285274
0.128700 -0.010807 -0.500108
-0.133392 0.451954 -0.212394
-0.192119 0.487112 0.103545
-0.090449 0.496136 -0.050423
-0.112684 0.456391 0.198347
0.255187 -0.398626 0.295939
-0.179411 0.498154 0.018757
0.084094 -0.481072 0.124992
0.126054 0.223228 0.443300
0.193281 -0.447470 0.215750
0.216886 0.350133 -0.356744
-0.162707 0.081904 0.489074
0.069868 -0.489875 0.084233
0.220942 0.396385 -0.304398
0.178551 -0.315144 0.383091
0.147523 0.302748 0.393684
-0.001024 -0.100668 -0.489937
-0.017744 -0.007403 -0.500260
0.143164 0.328247 -0.377081
-0.170166 0.477790 -0.144163
0.095796 -0.043621 0.493817
-0.164627 -0.486510 -0.105879
0.258523 0.467219 -0.175756
0.187278 0.012698 0.495715
0.013082 -0.132119 0.477773
0.123718 0.369027 0.333005
-0.211622 0.077796 -0.494118
0.031095 0.380167 -0.324737
0.144945 -0.473550 0.150350
-0.036567 0.065414 0.491647
0.171065 -0.130197 0.478303
-0.202348 0.288287 -0.408819
0.061258 -0.497173 -0.020686
-0.096325 0.052157 -0.497562
-0.231317 0.290585 0.402586
-0.133742 0.488668 0.096119
-0.247727 0.326599 0.374296
0.134214 0.163798 -0.472582
-0.122054 0.237889 -0.440054
0.253411 -0.485208 0.107586
0.022864 -0.313146 -0.388929
0.247029 0.134908 0.477417
0.195932 -0.338620 -0.366834
0.109868 -0.371636 -0.333124
0.173765 0.490228 0.088669
0.033591 -0.156082 0.470537
0.167378 -0.371175 -0.333661
0.039898 -0.471749 -0.160081
0.143748 -0.135600 0.476812
-0.109603 0.441437 -0.233539
-0.129134 -0.018855 0.495493
0.154648 0.174365 -0.468937
0.169300 0.438287 0.235378
-0.224034 -0.111930 -0.487261
0.010004 -0.472022 -0.159290
0.163656 -0.436260 0.237071
0.231444 -0.324876 -0.379282
-0.217525 -0.432350 -0.248299
-0.279250 -0.002812 0.495782
0.220669 -0.479675 0.130274
-0.137048 0.143102 -0.479377
0.190950 -0.497482 -0.003527
0.056140 0.492299 -0.080456
-0.158972 -0.325459 -0.378754
0.020736 -0.216164 -0.450720
0.121022 -0.497176 -0.020539
-0.094119 -0.436038 -0.241867
0.270399 0.191520 0.457885
-0.192743 0.334348 -0.371846
-0.283996 -0.258620 -0.427374
0.255867 0.247815 0.430233
-0.193758 -0.459605 -0.192535
-0.004838 -0.497290 -0.014220
-0.065409 -0.258977 -0.427156
0.037535 0.124386 -0.484544
-0.171971 0.472566 -0.161285
0.220754 0.204332 -0.456682
0.174873 0.220706 -0.448783
-0.125617 -0.496775 0.023483
0.011150 -0.430352 -0.251783
0.253336 -0.388429 0.308737
0.258163 -0.006204 0.495721
0.077267 0.474005 -0.156571
-0.281374 -0.330789 0.369667
-0.150661 -0.348598 0.352887
0.273635 0.387550 0.311419
-0.084198 0.486170 -0.112206
0.147657 0.496648 -0.045683
-0.224178 -0.435161 0.239159
0.115430 -0.444654 0.221130
-0.102532 0.289554 -0.407864
0.042225 0.207631 -0.455226
0.045600 -0.005265 -0.500300
0.269496 0.498553 -0.003411
-0.230841 0.079997 0.489403
0.274397 0.464178 -0.183859
-0.070122 0.498411 0.004497
0.099023 0.420862 -0.269260
0.191516 0.463721 -0.185078
-0.255358 -0.468074 -0.170736
0.200578 0.229424 0.440038
0.258854 -0.349706 -0.356264
0.261374 -0.440819 0.228412
-0.082116 0.437560 0.236647
-0.195006 -0.279472 -0.413995
-0.000543 0.127722 0.479398
0.038405 -0.310234 -0.391252
0.265278 0.221993 0.443951
0.105675 -0.367832 0.332884
0.107431 0.485716 -0.114117
-0.210453 -0.496573 0.028006
-0.077152 -0.351047 0.350503
0.059150 0.262658 -0.425775
0.206266 0.041912 -0.498392
-0.152572 0.024790 0.495173
-0.268094 -0.322240 -0.381669
0.021526 0.493214 0.069855
0.263135 0.494142 0.063439
-0.289605 -0.431286 -0.250155
0.076640 -0.356141 0.345543
0.129356 -0.488591 0.091691
0.058057 -0.423926 -0.262988
-0.048946 0.470409 0.162583
-0.205475 -0.120947 0.480857
-0.268282 0.498238 0.014082
-0.213774 -0.014963 -0.499921
-0.005845 -0.474556 0.147050
-0.210813 0.477581 -0.144850
0.009594 0.456862 -0.201457
-0.095537 0.479918 0.132424
-0.237894 -0.157663 -0.474515
0.286817 0.362164 -0.344627
-0.272943 0.408739 -0.287297
0.067911 0.085573 0.488443
0.121641 0.049316 -0.497792
-0.133744 -0.416301 -0.274600
0.126152 0.066056 0.491577
0.062020 0.278088 -0.415588
0.213959 -0.333051 0.367726
0.285405 0.337768 -0.368782
-0.131082 0.342483 -0.364192
0.158184 -0.043157 -0.498295
-0.106158 -0.472526 0.153706
0.143281 0.055878 -0.497261
-0.257773 -0.267582 0.417494
0.148344 0.153834 0.471643
0.247714 -0.271093 -0.419770
0.283522 -0.202117 0.452824
0.221406 -0.304389 0.391545
-0.032114 0.430567 -0.253342
0.262871 0.385884 -0.317568
0.266805 0.493348 -0.074363
-0.064022 -0.490566 -0.085423
-0.027373 -0.305499 0.390708
0.008326 0.011614 -0.499996
-0.002965 0.018901 -0.499864
-0.061809 0.486991 0.104120
-0.211726 -0.495792 -0.042479
0.200001 0.267003 -0.422906
-0.283960 0.272309 0.415300
-0.014071 0.481656 0.126129
0.026259 -0.391661 0.304684
0.113830 -0.474328 0.147799
-0.232427 0.418659 0.268226
-0.196778 -0.044709 0.493729
-0.048421 -0.296561 -0.402044
-0.130234 -0.497270 -0.015307
0.092943 0.246008 0.431306
0.244008 0.207055 0.450914
0.157114 0.429069 -0.255798
-0.289052 0.496023 0.047923
-0.229143 0.438083 -0.239908
0.219966 -0.233467 -0.441723
-0.138874 0.498366 0.006976
-0.172211 -0.355371 -0.350445
0.160967 -0.235042 0.436745
-0.174172 0.288539 -0.408629
0.080411 -0.057136 0.492605
-0.090944 0.411609 0.278906
-0.173926 -0.023475 0.495410
-0.249281 0.352900 0.349683
0.243833 0.468798 0.167252
-0.162760 0.211414 0.448958
-0.140934 -0.350628 -0.355318
-0.080017 -0.494419 0.052471
0.073567 -0.472144 0.154957
0.166713 -0.457763 0.192811
-0.273342 -0.481456 -0.127494
-0.078450 0.193508 0.456993
0.034415 -0.481189 0.124500
-0.275539 -0.154014 0.471250
-0.115895 -0.086004 0.488429
-0.125162 -0.254893 -0.429646
0.255548 -0.359070 0.342558
-0.123152 -0.290583 0.401961
-0.233824 0.403945 -0.294151
-0.177421 -0.495211 -0.049657
0.065353 -0.340997 0.360287
-0.054615 0.027868 0.495035
0.213055 -0.497511 -0.001923
0.229488 0.131968 -0.482450
-0.270842 -0.171654 -0.469413
0.184382 0.292787 -0.405425
-0.086853 -0.298607 -0.400522
-0.121790 -0.463631 -0.182877
-0.239657 0.128207 -0.483489
0.273856 -0.438156 0.233469
-0.097407 -0.203604 -0.456356
0.162058 0.028302 0.495016
0.017215 -0.425038 -0.261049
-0.213952 0.440026 -0.236218
-0.043388 -0.118022 0.481664
-0.237877 -0.393408 -0.306815
-0.163421 -0.131764 -0.482417
-0.271268 0.495372 -0.057492
-0.251232 0.453882 0.204292
-0.184227 -0.493630 0.059777
0.175515 -0.462562 0.181080
0.065445 0.415211 -0.278042
0.120808 -0.250325 0.427981
-0.204749 0.225785 0.441954
0.273520 0.491019 -0.087891
-0.152890 0.140937 0.475578
-0.286052 -0.467166 0.168812
-0.008920 -0.427314 -0.257081
-0.217662 -0.063016 0.491754
-0.150961 -0.443646 -0.227338
-0.154654 0.112596 0.482993
-0.183201 -0.155754 -0.475098
0.236082 0.143546 0.474782
0.213189 0.261527 0.421873
0.172823 0.419089 0.267575
-0.130502 0.321093 0.379057
0.111769 0.132256 0.478227
-0.049004 0.226403 -0.445976
-0.133921 -0.434522 -0.244510
-0.288828 0.474398 -0.155280
-0.235305 0.282806 -0.412473
-0.043429 0.340093 -0.366518
-0.022587 -0.367955 0.332748
-0.162642 0.484100 0.117276
-0.076436 -0.485347 0.107004
-0.211844 -0.492711 0.067757
-0.138564 0.020274 -0.499840
-0.157727 -0.497172 -0.020740
0.284146 0.431218 0.247706
0.149031 -0.419163 -0.270265
-0.210358 0.473687 -0.157613
-0.075044 -0.071268 0.490561
0.247051 0.366009 0.336218
0.144102 0.468264 0.168801
-0.231517 -0.119151 0.481352
-0.000128 0.423183 -0.265454
0.082565 0.384165 0.315363
-0.237239 -0.463579 -0.183002
0.120663 0.337984 -0.368572
-0.163143 0.494901 -0.061853
0.251653 -0.158640 0.469654
0.033957 -0.350277 0.351252
0.035840 -0.256621 -0.428593
-0.038136 0.003276 -0.500146
-0.058167 0.270494 -0.420602
0.036368 -0.497039 -0.027092
0.219129 -0.064386 -0.496001
0.201604 -0.445732 -0.223104
-0.017766 0.149212 0.473053
0.052659 0.460290 0.188997
-0.051134 -0.497265 0.012563
0.207351 0.182970 -0.465588
0.269311 0.378332 0.322161
-0.028525 0.491568 -0.084704
0.283768 0.028306 -0.499495
0.031814 -0.491222 -0.080892
-0.136748 -0.496934 0.019951
-0.274366 0.456011 -0.203354
-0.073813 -0.415676 -0.275546
-0.265392 -0.360133 -0.345554
0.237911 0.498578 -0.010496
-0.187097 0.466234 0.174686
0.177822 0.359473 -0.347598
0.257243 0.258143 -0.428439
-0.115325 0.362452 -0.344309
-0.014499 0.214770 0.447452
0.079248 0.442036 -0.232401
-0.187677 -0.463197 0.179390
-0.289751 0.496877 -0.043561
-0.071462 -0.340954 -0.364720
-0.201149 -0.379221 0.320284
0.282853 -0.496979 0.018942
0.053084 -0.205457 0.451432
0.037283 -0.339922 0.361333
-0.065978 0.466888 0.172792
0.054601 0.440382 0.231689
-0.030053 0.496692 0.039668
-0.010105 -0.187661 0.458852
0.099505 -0.420633 -0.268038
0.216401 0.363461 -0.343195
0.279358 -0.135659 -0.481229
-0.231848 -0.385691 0.312171
0.230737 -0.488624 -0.095788
0.107525 0.444718 -0.227308
-0.062110 0.498301 0.010604
0.130815 0.114677 0.482498
0.080328 -0.307820 0.388957
-0.082267 0.228348 0.440605
0.264670 0.496083 0.047185
0.215772 0.498282 0.011644
0.180015 -0.367826 0.332891
0.221787 -0.489359 0.087231
-0.265345 0.420225 -0.270305
-0.178852 -0.296365 -0.402181
0.136599 -0.268166 -0.421554
-0.287077 0.209344 0.449887
0.044034 -0.115141 0.482342
-0.108503 -0.120971 -0.485112
0.004904 -0.473229 0.151402
0.043902 0.218234 -0.450001
-0.018476 -0.481890 0.121549
-0.117581 -0.142119 0.475012
-0.008201 0.355633 0.346876
0.138547 -0.343322 0.358023
0.030235 -0.408867 0.281295
0.093538 0.377068 -0.328172
-0.070819 0.347791 -0.359024
0.228255 0.430248 0.249398
0.064425 -0.478391 0.134484
-0.161047 0.069012 -0.495389
-0.124163 0.411859 -0.282835
-0.251232 0.336078 0.365711
-0.027811 -0.216924 0.445788
-0.224795 -0.062409 -0.496214
-0.046956 -0.208943 0.449721
-0.235654 -0.397729 0.297074
0.234418 -0.360404 -0.345275
0.159209 -0.402057 0.291032
-0.019176 -0.288267 0.403708
-0.114058 -0.481094 -0.128805
-0.105625 -0.341956 -0.363812
0.094956 -0.488572 0.091799
-0.050447 -0.013561 0.495589
-0.039153 0.496172 -0.050085
-0.004257 -0.433743 -0.245870
0.007226 -0.482571 -0.123453
0.094818 -0.368346 -0.336958
0.154328 -0.375852 -0.328210
-0.136257 -0.106102 0.484236
-0.290031 -0.139154 -0.480163
-0.098448 -0.399999 -0.298078
-0.075831 -0.013364 -0.499993
0.035462 0.472840 0.155537
0.119152 0.437296 0.237108
0.061856 0.074881 0.490283
-0.278711 -0.313971 -0.388272
0.208008 -0.497233 -0.017382
-0.262471 -0.450371 0.209285
0.089530 0.130454 -0.482869
-0.071054 0.062856 0.491923
-0.106427 0.107211 -0.488571
-0.076139 -0.480826 0.126029
0.258297 0.496891 -0.043437
-0.268639 -0.360190 0.341321
-0.121739 -0.405539 0.286053
0.149410 -0.419002 0.266278
-0.204372 0.032181 0.494842
-0.240609 -0.053217 0.493040
0.228755 0.431822 -0.251283
0.284385 0.354547 -0.352447
-0.162133 0.368243 0.333918
0.276499 0.493675 0.066663
0.280319 0.255481 -0.429966
-0.012278 0.479616 -0.138179
0.218399 0.129676 -0.483083
0.099624 -0.215875 0.446305
0.207438 0.379403 0.320912
-0.028447 -0.488090 0.094598
-0.250645 -0.496807 0.022784
-0.032802 0.495029 -0.060667
-0.168117 -0.494356 -0.059224
-0.110841 0.487762 -0.105509
-0.063643 0.109875 -0.488013
-0.242536 -0.281652 0.408205
-0.165376 -0.409155 -0.285424
0.034719 -0.439033 -0.236643
0.234193 0.489996 0.089778
-0.043090 0.442031 -0.232410
-0.029541 -0.394001 0.301748
-0.032598 0.169560 0.466230
0.036845 0.326903 0.374021
-0.201043 -0.409531 -0.284854
-0.100142 0.450787 0.210573
0.249426 -0.319004 0.379779
0.088101 0.496770 0.038706
-0.067972 0.497193 -0.040642
-0.170327 0.027940 -0.499524
0.187943 -0.497463 0.008161
-0.000595 0.228065 0.440754
-0.099116 -0.186914 0.459163
-0.238224 0.261606 0.421825
0.109658 -0.018039 0.495508
0.113379 -0.197699 0.454667
0.090943 -0.016472 -0.499854
-0.000411 0.463974 -0.184402
0.277063 -0.038618 0.494223
-0.199995 -0.109307 -0.487884
0.071414 -0.418164 -0.271777
0.260097 -0.272510 -0.418864
-0.168390 0.410681 -0.284520
-0.094682 -0.430434 -0.251639
0.091210 0.235803 0.436679
0.240774 0.269264 -0.421414
-0.245438 0.105071 -0.489020
-0.194569 0.014334 -0.499947
-0.243973 -0.433305 0.242683
-0.059986 0.061935 -0.496413
0.021693 -0.251506 0.427304
0.049181 -0.487706 -0.100172
0.064841 0.356486 -0.350559
-0.226483 0.233563 -0.442448
-0.145695 0.226627 -0.445865
0.056197 -0.068487 -0.495557
0.175009 -0.475173 -0.150157
0.070156 -0.348458 0.353023
-0.249994 0.313097 0.385432
0.175189 -0.393294 0.302636
-0.210793 0.179570 -0.467006
-0.081476 0.493278 0.069411
-0.030702 0.106813 0.484367
-0.193900 -0.251159 0.427503
-0.052044 0.093773 0.487031
0.176959 0.005070 0.495924
0.254174 0.480736 -0.134510
-0.029723 0.473497 -0.158235
0.141107 0.487756 0.100472
0.276631 0.483733 -0.122459
-0.013098 0.329576 -0.375941
0.044381 -0.251651 0.427221
0.234208 -0.496206 0.035941
-0.000032 -0.334354 -0.370697
-0.023534 -0.278730 0.410134
-0.129287 -0.325908 0.373855
-0.189786 0.343022 0.359422
0.166594 -0.484398 0.110996
0.264222 -0.389999 0.306768
-0.229766 -0.414322 0.273495
-0.070516 -0.495115 0.046035
0.060182 0.025863 -0.499692
0.104929 0.497018 0.035642
-0.118180 0.149725 0.472896
0.031847 0.450628 -0.215348
0.100081 0.036674 0.494640
-0.237105 0.351170 0.351460
0.122045 -0.433402 0.242499
-0.090140 0.320764 -0.383502
0.212460 -0.247794 -0.433974
0.042820 0.350893 -0.356004
0.263347 -0.446343 0.217922
0.128916 0.425535 0.257617
-0.077091 0.448875 0.214453
-0.123572 -0.175368 -0.468019
0.264895 0.492352 0.075807
0.097017 0.344092 -0.362625
-0.261809 -0.476338 -0.146034
-0.001849 -0.115718 0.482221
0.074812 0.153676 0.471691
-0.023497 -0.471630 0.156642
-0.192934 0.418653 -0.272884
0.268462 -0.128053 0.478895
-0.289638 -0.307172 0.389445
0.132425 -0.478631 -0.137725
0.007510 0.086762 -0.492821
0.283529 0.349945 0.352718
0.202555 -0.196394 0.455211
0.223918 -0.172503 -0.469094
0.223673 -0.433989 -0.245440
0.022385 0.079268 -0.493905
0.262229 -0.026169 -0.499419
0.239864 0.036746 -0.498811
0.041463 -0.497194 0.014161
0.017355 0.004037 -0.500132
-0.155257 -0.305902 0.390403
0.251284 0.065120 -0.495952
0.132965 0.467396 0.171319
-0.049515 -0.360880 -0.344787
0.145022 -0.268268 0.417042
0.062333 -0.247221 0.429761
0.007029 0.331025 0.370288
0.049185 -0.446126 0.218333
0.190295 -0.068087 0.491021
-0.031363 0.493615 0.067081
-0.278382 -0.438570 -0.237451
-0.068164 -0.478200 -0.139287
-0.016781 -0.392419 -0.308125
0.275276 0.480288 -0.135977
-0.003797 -0.199997 0.453708
-0.017964 -0.154534 0.471071
0.165337 -0.053025 -0.497228
-0.147151 0.149809 0.472871
-0.246249 0.467188 0.171921
0.248131 0.489994 -0.093848
0.107902 0.020920 -0.499828
0.056557 0.444680 -0.227380
-0.279340 0.145798 0.474095
0.030543 0.497354 -0.037784
-0.153122 -0.496251 -0.036815
0.264083 0.028301 0.495016
-0.154689 0.110878 -0.487803
-0.266136 -0.159128 -0.474068
0.002384 0.165941 0.467588
0.108189 -0.444862 -0.224870
0.092774 -0.104469 0.484578
0.202500 0.297533 0.397727
0.033701 -0.013396 0.495592
-0.250417 -0.126817 -0.483723
-0.183665 -0.397761 -0.301045
-0.122537 0.142861 -0.479444
-0.118631 0.340197 -0.366417
0.123185 -0.104630 -0.488996
0.010529 0.477993 0.139397
-0.129483 0.176692 0.463554
0.218616 0.004717 -0.500120
0.162256 -0.492081 -0.074955
-0.269379 -0.055304 0.492870
-0.027095 0.216742 -0.450736
0.157717 -0.342013 0.359298
-0.246962 -0.020564 -0.499670
-0.234696 0.389298 -0.313286
0.257370 0.495237 -0.058742
0.001108 0.495267 0.055663
-0.152412 -0.053608 -0.497165
0.102913 0.331818 0.369569
0.043353 -0.488478 0.092345
-0.097230 0.286332 0.405561
0.138523 0.224944 -0.446694
-0.034892 0.491652 0.080651
0.053851 -0.315929 0.382418
0.177991 0.292502 0.401246
0.050421 0.167705 -0.471234
-0.253146 -0.494450 0.052191
-0.271461 0.436400 -0.243106
-0.154228 -0.482249 0.120040
-0.241545 0.495807 -0.053463
0.136137 0.387799 0.311127
0.169909 0.216830 0.446527
-0.035006 -0.209701 0.449347
0.224705 -0.497448 -0.005434
0.228697 0.376823 0.323920
-0.259980 0.497835 0.025557
-0.076711 -0.054472 -0.497072
0.279860 -0.465605 0.172971
-0.009562 0.462096 0.184666
-0.113777 -0.421081 0.262867
0.125924 -0.368710 -0.336533
