0.211051 0.004538 0.443132
-0.114291 -0.379696 -0.233894
-0.101346 -0.441890 0.048580
-0.119885 0.322663 0.305302
0.050240 -0.046821 0.440549
-0.126236 -0.284733 -0.344231
0.124184 -0.361471 0.257261
0.098812 0.199898 0.395908
0.159758 0.318720 -0.313598
-0.172013 0.333043 0.293872
-0.087342 0.434999 0.094971
-0.198168 -0.444553 0.009576
0.052892 -0.443596 -0.034878
-0.146724 0.427572 -0.128031
-0.126730 -0.442999 -0.041197
-0.178159 0.370970 0.244791
0.044410 0.443646 0.040839
0.233462 0.309720 -0.322599
0.139031 -0.242122 0.371227
0.169517 -0.296891 0.329160
-0.227161 -0.377067 0.233986
-0.036897 -0.291772 -0.338026
0.080310 -0.308764 -0.322530
0.046600 -0.016149 0.442735
0.182167 -0.369695 -0.249513
0.283519 0.287660 -0.342554
-0.101308 0.437862 -0.086519
0.205655 0.163780 -0.416587
-0.041897 -0.190671 -0.404440
0.111447 -0.234436 -0.380474
0.013614 0.000385 0.443254
0.056345 -0.058898 -0.443532
-0.037019 0.438526 -0.082686
0.126890 0.013571 0.442848
-0.276980 0.183143 0.403906
0.127709 -0.246241 0.368427
0.006092 -0.442412 0.043056
0.099214 -0.275421 -0.351594
0.023733 0.068868 0.437762
-0.156659 -0.145187 -0.422912
-0.128922 0.197146 0.397310
-0.253945 0.088532 0.434351
0.182674 -0.101714 0.431175
-0.216140 0.303102 -0.328940
-0.096745 0.404732 -0.189111
0.158028 0.363844 0.255277
0.070577 -0.204276 -0.397508
0.172296 -0.402913 -0.190946
-0.098206 -0.444706 0.004720
0.109652 0.427041 0.125507
-0.262320 -0.187194 -0.406062
-0.289270 -0.208405 0.391051
0.158981 0.040700 -0.445578
0.042387 -0.444223 -0.024429
0.210967 0.434371 -0.102133
0.252364 -0.442936 -0.041865
-0.243327 -0.179888 -0.409224
-0.232627 0.445179 0.022267
-0.217875 0.088906 -0.438621
0.046948 -0.436459 0.083855
-0.247385 0.360872 0.259650
-0.143803 0.436454 -0.092815
0.246237 0.424375 0.134682
-0.073210 0.431379 -0.114927
0.231189 -0.436508 0.083638
0.051613 -0.347307 -0.280170
-0.206279 -0.376474 0.234988
0.032340 -0.444147 -0.026865
-0.101277 -0.323889 -0.307404
0.091739 0.375584 -0.242356
0.218319 0.269491 0.352635
0.065564 0.443968 0.037432
0.255577 -0.200882 0.394885
0.068820 0.336932 0.289461
0.127610 0.371998 0.243280
-0.051720 0.319673 0.308292
0.101020 0.444098 0.036062
-0.064805 -0.050243 -0.444579
0.187441 -0.024232 -0.446834
0.233125 0.265739 0.355546
0.049032 -0.423133 0.135431
-0.068779 -0.444150 -0.026762
-0.169073 0.273358 -0.353989
-0.188528 -0.442759 0.039383
0.165391 -0.151419 -0.420668
-0.147756 0.443657 -0.045075
-0.009741 0.275054 0.348320
0.079209 -0.443369 -0.037286
-0.046341 -0.238556 -0.378003
-0.008145 0.370770 0.245085
0.269664 -0.007127 -0.447372
-0.001347 0.026123 -0.446807
0.066275 0.287710 -0.342510
0.266775 -0.270685 -0.355267
0.127491 0.445336 0.017294
0.186204 0.076390 -0.440924
-0.006062 0.395876 0.202549
-0.083070 -0.437211 0.080162
-0.247524 -0.399387 0.193647
0.247753 -0.149276 -0.421440
-0.167128 0.377777 0.234518
-0.109380 0.066226 -0.442534
0.131493 0.385561 -0.225711
0.210682 -0.354946 -0.270322
-0.288432 0.043390 0.440970
-0.018666 -0.444691 -0.009542
-0.264568 0.273916 0.349203
-0.287005 -0.392025 -0.212450
-0.031458 -0.279562 -0.348381
-0.215064 -0.444410 -0.018496
-0.029774 0.322817 0.305148
-0.189103 -0.160260 0.413132
0.251444 0.243614 -0.375262
-0.014217 0.359431 0.261507
-0.093180 0.422560 0.139876
-0.256483 0.282337 -0.347024
-0.199209 0.437956 0.081746
0.064420 -0.322680 -0.308614
0.006942 0.440410 -0.070790
-0.189098 -0.144170 -0.423278
0.177982 -0.444352 -0.020343
-0.061571 -0.350390 0.271842
0.086979 -0.269651 -0.356070
-0.277180 0.284164 -0.345607
-0.250740 0.059665 -0.443573
0.116824 -0.360884 -0.262479
0.077864 -0.226933 -0.384912
0.240017 0.299046 0.328163
-0.102167 0.445695 0.005850
-0.066871 0.441943 0.056759
-0.003203 0.434662 -0.100833
-0.157688 0.118573 -0.431501
-0.241909 -0.362760 0.255365
-0.211011 0.444467 0.032159
-0.188327 0.437650 -0.087466
-0.220570 0.022540 0.442566
-0.160351 -0.340724 -0.288351
0.067576 0.132946 0.422972
0.215044 -0.222784 0.383012
-0.089680 -0.441816 0.049357
-0.095973 0.204596 -0.397868
-0.009596 -0.361646 0.257004
-0.037264 -0.258931 0.359803
0.236881 -0.332358 0.293486
0.162801 -0.347405 0.275690
-0.191400 0.442213 0.055056
-0.197776 -0.186934 0.401822
-0.037693 0.432272 -0.111525
0.106480 0.436488 -0.092663
0.033168 0.445349 -0.021234
-0.156192 0.389616 0.214500
0.029308 -0.444872 -0.000578
-0.073196 0.105489 0.430560
-0.052812 0.445220 -0.025332
0.194851 0.326119 0.301725
-0.002390 -0.208709 -0.395250
0.038528 -0.433644 -0.100803
-0.109032 -0.379422 0.230004
-0.253114 0.279687 0.344726
-0.224331 -0.160106 -0.417541
-0.273044 -0.335755 0.289633
-0.127325 -0.112065 0.428741
0.027928 0.040455 -0.445601
0.286444 -0.364024 0.253505
-0.180864 0.001672 -0.447575
0.167998 0.337395 -0.293289
-0.185976 0.236489 0.375513
-0.252000 -0.301797 0.324834
0.096814 0.391863 -0.214779
-0.075213 0.445319 -0.022187
0.149897 0.419929 -0.151537
-0.288893 0.440740 -0.068704
0.276640 0.088015 -0.438820
-0.150801 -0.392128 -0.212247
0.109161 0.201671 0.395005
0.258510 0.069440 0.437671
0.183844 0.197760 0.396997
-0.088282 -0.227860 -0.384363
-0.289735 -0.080733 0.435720
0.101234 -0.352666 0.268908
-0.052047 -0.420012 0.144107
-0.253164 0.415539 0.159378
-0.041378 0.175311 0.407295
0.047203 0.354676 0.267637
0.106643 -0.336374 0.288931
-0.063883 -0.114925 -0.432263
0.104823 -0.440679 0.058268
0.058226 -0.443127 0.035487
-0.275106 -0.046310 -0.444951
-0.243735 -0.007245 -0.447368
0.083247 -0.166237 0.410778
-0.038172 0.069007 -0.442093
-0.256518 -0.133918 0.422392
0.235151 -0.291705 0.333731
0.160003 -0.252572 -0.368478
0.059494 -0.375044 -0.241642
-0.087616 0.298801 0.328379
0.035204 -0.106138 -0.434540
-0.095677 0.002128 -0.447561
0.101472 0.119640 -0.431191
-0.202684 -0.273026 0.349098
-0.183903 0.262439 0.358105
0.190484 -0.412290 0.164925
-0.106158 0.151003 0.416833
0.265176 0.152836 0.416173
-0.111792 -0.440765 0.057722
-0.120691 -0.063727 -0.442767
-0.144564 0.019053 -0.447029
-0.247789 0.440523 0.065724
0.198317 -0.074355 0.436730
-0.210012 -0.141000 -0.424419
-0.248130 0.168867 0.410083
-0.078443 -0.112371 0.428652
-0.010994 0.445524 -0.015653
0.222755 -0.265665 -0.359161
-0.122156 -0.436824 -0.086579
-0.085957 -0.173691 0.407552
0.286265 -0.441544 -0.056586
0.159391 0.233286 -0.381760
-0.272314 -0.444295 -0.022159
0.047240 0.397397 -0.203918
0.214101 0.289912 -0.340569
0.111699 0.098599 -0.436454
0.084928 -0.055777 0.439673
-0.009935 -0.408559 0.173546
0.200867 -0.428399 -0.121659
-0.204892 0.139533 -0.425316
-0.013526 -0.444859 -0.000150
-0.083983 -0.422575 0.136988
-0.070269 -0.063603 -0.442787
-0.018451 0.419971 -0.151421
0.285745 0.303450 0.324281
0.095714 -0.154453 -0.419576
0.218084 0.343254 0.282290
0.274216 0.443343 0.044049
-0.271319 -0.384995 0.220581
-0.097553 0.049751 0.440369
0.128139 0.423666 0.136803
0.286693 0.407967 -0.181637
-0.218897 0.252993 0.364535
0.206476 0.263896 0.356975
0.037721 0.154599 -0.419892
-0.139932 -0.249938 -0.370268
-0.269699 -0.334700 -0.295184
0.028613 0.406175 0.181424
-0.259968 0.353881 -0.273016
0.198221 -0.425061 -0.133149
0.095003 0.177767 0.406232
0.006549 0.267970 0.353815
-0.168629 0.356526 -0.269605
0.035322 -0.355942 -0.269037
0.176511 0.280811 0.343854
-0.257908 0.320616 -0.311703
0.111538 0.440475 -0.070378
-0.164283 0.216298 -0.391807
0.243971 -0.440030 0.062368
-0.049801 -0.429552 0.113336
-0.047816 -0.060350 0.438948
-0.196957 0.208471 0.391540
0.184813 0.148509 -0.422085
0.208137 0.092715 0.433416
-0.041391 0.319711 0.308254
-0.042124 0.138206 -0.425794
-0.277108 0.284571 0.340925
0.175617 -0.438274 0.073452
0.023547 0.362884 0.256690
0.015378 -0.389985 0.212099
-0.288459 -0.241845 0.371414
-0.225019 -0.432480 0.101656
0.077201 -0.398960 0.194486
0.273968 0.420849 0.144628
-0.097672 -0.106720 0.430056
0.253506 -0.126277 0.424612
-0.003807 0.017032 0.442739
-0.198533 -0.403169 -0.190355
0.030876 0.277681 -0.350636
-0.203078 0.216647 0.387247
-0.109338 0.441313 -0.065090
-0.000046 0.261401 -0.363174
0.071752 -0.069113 -0.441914
-0.230829 0.438645 -0.081935
0.174679 -0.215049 0.387587
-0.017994 0.431990 -0.112787
-0.197522 0.235656 0.376006
0.085230 -0.435696 -0.091622
-0.007552 -0.113309 -0.432733
0.261298 -0.362734 -0.259756
-0.166158 0.436952 -0.090590
0.020860 0.445612 0.008508
-0.172784 0.288688 0.337295
0.025424 0.215331 0.388026
-0.289249 -0.145601 -0.422763
0.272683 -0.177499 -0.410258
-0.224556 -0.418937 0.147093
0.171538 -0.397959 -0.200804
0.169433 -0.047575 -0.444831
0.018948 0.035224 -0.446095
-0.099643 -0.432988 0.099385
0.142989 -0.019900 -0.446970
-0.135404 -0.444109 0.023710
-0.077438 -0.316439 0.310501
0.094915 -0.335316 -0.294484
-0.118252 0.186433 -0.406835
0.096394 -0.185927 -0.406611
0.005926 -0.378391 0.231748
0.076216 -0.002616 -0.447513
0.224758 0.314539 -0.317779
-0.230053 -0.352859 0.268659
-0.221098 0.412576 0.166632
-0.244353 -0.420668 0.142284
0.174404 0.167469 -0.415042
-0.270505 -0.379136 -0.234841
-0.155097 -0.394783 0.202684
-0.273326 0.373230 -0.245820
0.152299 0.387413 -0.222578
0.162947 0.338602 0.287566
0.200599 0.224238 -0.387112
0.123692 0.057310 -0.443946
-0.095885 0.116949 -0.431973
0.058128 0.356960 0.264693
0.118645 -0.306525 -0.324768
-0.172414 -0.444574 -0.013259
0.011920 0.442023 -0.060607
0.169580 0.262002 0.358413
0.274609 -0.116247 -0.431879
0.221804 0.250265 -0.370742
-0.226668 0.384702 -0.227163
0.185166 -0.359984 0.259449
-0.213681 -0.372466 0.241083
0.215263 0.437176 0.085235
-0.267612 0.445763 -0.008050
-0.131930 0.431569 0.109922
0.237740 -0.444778 0.002413
-0.253377 0.010035 0.442959
-0.082720 -0.091791 -0.437747
-0.040803 0.434881 -0.099855
-0.059695 0.445276 0.019189
-0.191782 0.227516 0.380820
0.061969 -0.284446 0.340131
-0.246163 -0.429715 -0.117129
0.130767 -0.321035 -0.310259
0.103546 0.272903 0.349988
-0.102614 -0.148246 -0.421810
0.285578 -0.411311 0.167186
-0.236036 0.213274 0.389093
-0.162974 -0.422136 -0.142560
0.032282 0.251225 -0.370090
0.074418 -0.434890 -0.095229
-0.188908 0.076134 0.436611
0.259622 -0.158063 -0.418276
0.008433 0.334563 0.292147
0.210991 -0.282202 -0.346334
0.012854 0.383153 -0.229782
0.221951 0.362518 0.257229
-0.045517 -0.374275 -0.242774
0.107489 0.409196 -0.178797
0.159125 0.101281 -0.435854
-0.147377 -0.209611 -0.394790
0.124493 0.042149 -0.445441
-0.095069 -0.345438 0.278227
-0.029263 0.441744 0.058013
0.148200 -0.327192 0.299346
0.267178 -0.337106 0.288101
-0.173769 -0.362485 0.255769
-0.289812 -0.407252 0.176567
0.011929 0.415192 -0.164695
-0.095748 0.434867 -0.099915
-0.232958 -0.351081 -0.275305
-0.065847 0.413702 0.164029
-0.098374 0.412244 0.167400
0.230165 -0.434052 -0.098977
0.013488 0.420365 0.145972
0.006429 0.117441 0.427476
-0.200319 -0.442620 0.040851
-0.121867 0.278361 -0.350108
0.251859 -0.262530 -0.361593
0.122184 0.440316 0.067032
-0.251879 -0.287651 0.337306
-0.096101 -0.048970 -0.444699
-0.023037 0.431133 0.111422
-0.062715 0.065754 0.438255
-0.088028 0.414616 0.161918
0.257524 0.442797 0.049822
0.060226 0.421528 -0.147097
0.213791 0.444247 -0.038840
-0.260295 0.240876 -0.377123
0.072068 -0.444203 -0.025062
-0.093992 -0.357627 -0.266866
-0.024643 -0.439124 0.068087
-0.058403 -0.427227 0.121341
0.281312 0.428329 0.121072
0.044652 0.416888 -0.159983
-0.191307 0.368219 0.248840
-0.222975 0.445289 0.018763
-0.033159 0.254871 -0.367612
-0.081116 0.409877 0.172869
0.284320 -0.416749 -0.157523
0.282829 0.080043 -0.440345
-0.094009 -0.091311 0.433500
-0.053850 0.190289 0.400804
-0.071451 0.314652 -0.317667
0.225326 -0.242346 0.371074
0.051114 -0.187079 0.401759
0.179854 -0.124296 0.425187
0.206476 -0.058426 0.439253
-0.199560 0.410520 0.171384
-0.259398 0.223974 0.382915
-0.118134 0.434596 -0.101129
-0.122002 0.329708 0.297655
-0.099859 0.225645 0.381926
0.148375 -0.022101 0.442548
0.038914 0.360751 0.259805
-0.158405 -0.181390 -0.408574
-0.035423 -0.004984 -0.447439
-0.253128 -0.442203 -0.049615
-0.153128 -0.244621 -0.373882
0.229177 -0.328104 0.298312
0.184539 0.000950 -0.447598
-0.160505 -0.434919 0.090748
0.017192 -0.236859 -0.379041
-0.137095 0.445810 0.002186
-0.193685 0.099437 0.431913
-0.180367 0.387381 0.218279
-0.199495 0.324826 -0.307493
-0.198539 -0.051345 -0.444475
-0.203506 0.415665 0.159029
-0.036342 0.426892 0.126018
0.132265 -0.436034 -0.090111
-0.156100 0.064317 0.438483
0.049807 -0.286767 -0.342439
0.268198 -0.042127 -0.445346
-0.188466 0.374717 -0.243632
0.125656 -0.194031 -0.402729
0.134031 -0.190067 0.400395
-0.057008 0.050971 -0.444607
-0.125061 0.302316 -0.329634
0.131008 0.339058 -0.291402
-0.070535 0.186094 -0.406982
-0.170383 -0.408208 0.174358
-0.000731 -0.438326 -0.077480
-0.072137 0.338817 0.287323
0.057123 0.029092 0.442322
-0.121319 0.414280 0.162695
0.245112 -0.007423 -0.447362
0.209883 -0.270441 -0.355457
0.026065 -0.404762 -0.186675
0.075308 -0.193775 -0.402859
0.222810 0.061849 0.438873
0.090102 0.423910 0.136127
-0.036004 -0.048510 -0.444743
0.248536 0.433014 0.103851
-0.203641 0.326533 0.301256
0.178727 0.418410 -0.155756
-0.270535 0.327548 0.300104
-0.162538 -0.328501 -0.302215
-0.179472 0.355841 -0.270490
-0.010893 -0.365678 -0.255424
0.241879 0.444006 0.037031
-0.041948 -0.247691 -0.371795
-0.142327 0.286875 -0.343247
-0.266166 -0.404864 -0.186437
-0.175624 -0.433895 -0.099681
0.122948 0.438180 0.080513
-0.280270 -0.141670 0.419824
0.031476 0.390530 -0.217309
0.034426 -0.283819 -0.345038
0.268697 -0.026195 -0.446772
-0.030352 -0.072220 0.437069
-0.163249 0.444395 0.032921
-0.017045 -0.165202 -0.415579
-0.181280 -0.145403 0.418480
-0.128170 -0.418131 0.149332
-0.179055 0.428887 0.119154
-0.249795 -0.198227 0.396237
-0.248489 0.097929 -0.436604
-0.097825 0.033422 0.441912
0.286109 -0.308396 0.318544
0.084292 0.208896 -0.395676
0.060638 -0.070599 0.437325
-0.201268 -0.392443 -0.211628
0.078336 -0.341086 -0.287940
-0.162935 -0.444071 0.024918
-0.057035 -0.366818 -0.253747
0.128097 -0.047870 0.440450
0.253351 -0.190011 0.400424
0.094620 0.029128 0.442318
0.129549 -0.373676 0.239302
0.085339 0.289512 0.336568
-0.115275 -0.351758 0.270079
0.200925 -0.405074 0.181600
-0.156875 0.386995 -0.223285
0.111128 -0.256590 0.361394
0.032098 0.417516 0.153888
0.124033 0.435599 -0.096644
0.165583 0.430234 0.114516
-0.063582 0.045307 0.440789
0.211965 -0.355126 0.265737
-0.258745 0.426135 0.128625
0.198949 -0.139667 0.420545
-0.203094 -0.359489 0.260111
0.242820 -0.388584 -0.218865
0.273476 0.438471 0.078678
0.017615 -0.348309 -0.278878
-0.219399 -0.422877 0.136150
-0.193014 0.404317 -0.190070
0.156097 0.161476 -0.417416
-0.070547 -0.404159 -0.188068
-0.168953 -0.441219 0.054860
-0.010682 0.438655 0.077517
-0.102702 -0.292299 0.333207
0.057504 -0.385810 0.219203
-0.029021 0.433626 0.101113
-0.058427 0.444671 -0.034347
-0.138783 -0.070766 -0.441652
0.147103 -0.256998 -0.365470
0.285035 0.432161 -0.112023
-0.036706 -0.126553 -0.428885
-0.187851 -0.407771 0.175367
0.212699 -0.437026 -0.085675
-0.050061 0.445669 0.006681
-0.022876 -0.422555 0.137045
0.206452 -0.440063 0.062158
-0.250057 0.437722 0.082790
0.008723 -0.444667 -0.010323
-0.103854 -0.178255 -0.409931
0.233559 -0.126513 -0.428896
-0.031474 -0.052694 0.439994
0.075963 0.332562 0.294418
-0.014431 0.445321 0.017758
0.226807 0.443620 -0.045473
-0.123499 0.063252 0.438651
-0.106320 0.203442 -0.398455
0.112893 0.435864 0.091104
-0.083893 0.375957 0.237454
0.019227 0.441580 0.059051
0.201352 -0.410718 0.168558
-0.045804 -0.070209 -0.441740
0.247413 -0.415707 0.156066
-0.077182 -0.269773 -0.355975
0.026130 -0.022598 -0.446886
-0.289071 0.183724 0.403654
-0.169213 -0.391728 0.208679
-0.141991 0.106022 -0.434795
0.123777 0.445389 -0.019951
-0.111388 0.424758 -0.137719
0.256044 0.164828 -0.416185
0.116633 -0.440740 -0.062234
-0.193343 0.386640 0.219532
0.231355 -0.026467 0.442410
-0.260781 0.445287 -0.023192
0.236948 0.421391 0.143124
-0.141528 -0.170165 -0.413432
0.097897 -0.253259 0.363658
0.255663 -0.408449 0.173800
0.204735 -0.016249 0.442732
0.070848 -0.245287 0.369076
0.097236 -0.240087 -0.376963
-0.243582 -0.424458 0.130871
0.226946 -0.419845 0.144571
-0.239102 0.434137 0.098830
-0.163416 0.283429 0.341823
-0.085127 0.312841 0.315124
-0.191234 -0.140092 0.420393
-0.252988 -0.350054 0.272275
-0.125471 0.292755 -0.338062
-0.069777 0.322341 -0.309978
0.236026 -0.141447 -0.424258
-0.192276 -0.412603 -0.168555
0.074420 -0.404072 0.183916
0.109124 -0.444578 -0.013141
0.226874 0.113003 0.428766
0.138839 0.072305 -0.441571
-0.286469 0.239346 0.373809
-0.184566 -0.317163 0.309777
0.103596 0.049204 -0.444774
-0.257071 0.363656 -0.259908
0.135032 -0.029322 0.442203
0.202862 -0.313612 -0.317682
-0.113528 -0.185914 -0.406616
-0.130174 -0.444567 -0.013506
-0.258812 0.290813 -0.339775
0.068845 -0.129031 -0.428165
-0.218351 -0.252487 -0.368536
0.214249 -0.328887 -0.301777
-0.262968 -0.081625 0.435579
0.265373 0.444909 0.027475
-0.031956 -0.437900 0.075813
-0.148147 0.150798 -0.421260
0.092108 0.125363 0.425175
-0.055348 -0.277472 0.345649
0.030933 0.140116 -0.425106
-0.228815 0.246409 0.369010
-0.035184 0.129754 -0.428253
-0.228145 0.438887 0.076054
0.089501 0.410178 -0.176526
-0.027937 0.421449 0.142961
0.139498 0.334922 -0.296094
0.235696 -0.092446 0.433247
0.168950 0.365224 0.253247
-0.142320 0.305543 -0.326775
0.182052 -0.251393 -0.369279
-0.156316 0.425527 -0.135070
-0.075806 0.438927 -0.080152
-0.267728 0.296129 0.330734
-0.046047 -0.196474 0.397130
0.221792 0.236187 -0.380045
0.134121 0.231315 0.378573
-0.068102 0.141762 -0.424514
-0.018640 0.121796 0.426211
-0.129098 -0.417685 -0.154925
-0.082895 0.445767 0.003575
0.210097 -0.292488 0.333041
-0.178142 0.296867 0.330084
-0.002431 0.009124 -0.447341
0.245431 0.314567 0.313398
-0.019088 0.093753 0.433184
0.136834 -0.402671 0.187153
0.190193 0.017915 -0.447065
-0.152768 -0.098672 -0.436209
0.160280 -0.287996 -0.341354
-0.162698 0.361852 -0.262562
-0.164792 0.260923 -0.363499
0.028132 0.163863 0.412203
-0.110444 0.242061 -0.376318
0.033957 -0.444291 0.017919
-0.122205 0.051411 -0.444565
0.206070 -0.421987 -0.142975
-0.265483 0.276126 -0.351842
-0.151115 0.250888 -0.370319
-0.033166 0.411497 0.169124
0.220369 0.024994 0.442489
0.066259 0.119374 -0.431268
0.284791 0.236235 0.375663
0.030226 0.105663 0.430521
0.007799 -0.124762 0.425052
0.258316 -0.439299 0.066978
0.074868 0.354864 -0.271748
0.190852 -0.097647 -0.436438
0.068301 0.443908 -0.042422
-0.048049 -0.167762 -0.414471
0.247820 0.126290 0.424906
0.022621 -0.064501 0.438291
-0.212590 0.057665 -0.443889
0.221684 0.003269 0.443172
-0.162964 -0.423320 0.134787
0.223261 0.418295 -0.156077
0.252134 -0.400388 0.191682
0.062026 -0.289234 -0.340263
-0.253684 -0.415012 0.157994
-0.247161 -0.324645 -0.306589
-0.003805 -0.384138 -0.226384
0.050967 0.095761 0.432735
0.198205 -0.439380 -0.070825
0.283239 0.280382 0.344187
0.253952 -0.377420 -0.237742
0.022373 -0.115357 0.427784
-0.129306 0.248613 -0.371865
0.202335 -0.327664 -0.303164
-0.154699 0.398238 0.197913
0.280621 -0.089174 0.433978
-0.071904 -0.308775 -0.322519
0.015471 0.301188 -0.330628
0.029023 -0.418896 0.147208
-0.053316 0.264169 0.356763
-0.051732 0.407812 -0.181995
0.265075 -0.404584 0.182733
0.084488 0.441143 0.061808
-0.275817 0.379460 0.231673
0.172347 -0.280923 0.342972
-0.020331 0.435766 -0.095896
-0.267307 0.332556 -0.298777
-0.221736 0.164753 -0.416217
0.078751 -0.071408 0.437197
-0.092947 0.155362 0.415264
-0.137205 -0.404651 0.182577
-0.068857 -0.239179 -0.377580
0.166572 0.271527 -0.355409
0.229546 0.405050 0.184024
-0.216871 -0.055446 0.439725
0.200140 0.445785 -0.007338
-0.093238 -0.394385 0.203464
-0.268400 0.437069 -0.090065
-0.250158 -0.265748 0.354743
-0.277185 0.092574 0.433447
-0.013012 0.089511 -0.438485
-0.004945 0.265349 0.355848
-0.047769 0.156401 -0.419243
0.058460 0.311676 0.316289
0.011519 -0.433765 0.095911
-0.001714 -0.127087 -0.428730
-0.044010 0.405111 0.183883
0.254614 -0.314799 -0.316495
0.196156 -0.430840 -0.113255
-0.261981 -0.383436 -0.227571
0.193618 -0.054803 -0.444148
-0.150319 -0.442715 0.039848
-0.019561 0.440300 0.067133
-0.072470 0.252381 0.364951
-0.057795 -0.387475 -0.220741
-0.004120 0.180490 0.405054
0.177402 -0.432063 -0.107879
0.271997 0.005567 -0.447453
0.221925 0.345215 -0.284188
0.273790 -0.267964 0.353025
0.066307 0.327485 0.300176
0.064091 -0.420747 0.142065
-0.132733 0.269597 -0.356907
0.196903 0.388775 0.215922
-0.077272 -0.444496 0.011394
-0.233274 0.406100 -0.185950
0.182074 -0.427799 -0.123725
-0.258682 -0.053093 -0.444309
0.163894 -0.413947 0.160954
-0.222143 0.176805 0.406648
-0.252402 -0.290225 -0.339390
-0.215401 0.224109 0.382834
0.039363 0.325015 -0.307303
-0.265723 0.287077 0.338715
0.196655 -0.429393 0.113882
0.026844 0.236394 0.375569
-0.002373 -0.444729 -0.008344
-0.112831 0.360917 0.259584
-0.275603 0.411438 -0.173614
-0.160063 -0.352820 -0.273063
-0.184260 -0.231826 -0.382018
0.196918 0.030526 -0.446540
-0.085121 0.319629 0.308336
0.093577 0.386677 -0.223824
-0.277867 0.445185 -0.026442
0.182930 -0.373602 0.239411
0.101928 0.424474 0.134341
-0.232812 -0.297651 -0.332843
0.286826 0.038778 -0.445759
-0.245009 0.018842 -0.447036
0.196596 -0.442670 0.040327
-0.066297 -0.358964 0.260788
-0.016805 -0.113356 0.428366
-0.280116 -0.377981 0.232440
-0.026012 0.262927 -0.362080
0.223985 0.106887 -0.434601
0.009011 -0.013441 -0.447173
-0.013739 0.442851 -0.053605
0.093365 0.445548 -0.014879
-0.220350 0.421492 0.142843
0.254372 -0.441025 0.056083
-0.270964 -0.182345 -0.408161
-0.159164 -0.104585 0.430533
-0.240906 0.436358 0.088893
0.102170 0.441013 0.062631
-0.267145 0.318957 0.309008
0.270911 0.300309 0.327050
-0.149686 -0.289080 0.336045
-0.229236 -0.425419 -0.131917
0.091418 0.445890 -0.004004
-0.194795 -0.385873 -0.223449
-0.288343 0.385574 0.221334
0.194446 -0.062796 0.438561
-0.057348 0.140503 -0.424967
0.181313 0.445914 -0.001115
-0.004747 -0.443046 0.036348
0.003756 0.390592 0.212849
-0.238604 -0.199975 0.395347
0.060769 0.050321 -0.444668
0.249331 0.045681 -0.445107
-0.104998 0.272698 0.350148
-0.240055 0.151212 0.416758
-0.112166 0.349476 0.274341
-0.086473 0.361269 0.259067
0.057407 0.065224 -0.442692
0.259301 0.290082 -0.340419
0.275314 0.414815 0.161388
0.141434 -0.185051 -0.406990
0.158337 0.201137 -0.399630
0.253899 0.435218 -0.098347
0.229933 0.409168 -0.178860
-0.183681 0.184291 0.403409
-0.154890 -0.403403 -0.189815
-0.188804 -0.332600 -0.297565
0.225068 -0.423757 -0.137638
0.023888 -0.175595 -0.411082
0.181875 -0.436651 -0.087349
-0.241973 -0.404396 0.183167
-0.270765 0.112863 -0.433160
-0.056095 -0.146339 -0.422497
0.226565 -0.437029 -0.085660
-0.076970 -0.216503 0.386727
0.128319 -0.185407 -0.406836
0.244175 -0.248055 -0.371548
0.068558 0.177638 -0.410641
0.097364 0.037736 -0.445858
0.071659 -0.034022 -0.446112
0.126235 0.408841 0.175262
-0.180866 0.404259 0.185851
-0.028467 0.090970 -0.438159
0.058778 -0.163049 0.412128
-0.040700 0.444151 -0.039854
0.236894 0.357084 0.264533
-0.090470 0.216172 -0.391882
0.221432 -0.248509 -0.371239
0.055664 -0.400299 0.191857
-0.187887 0.259361 -0.364561
0.043062 0.119376 0.426914
-0.008152 -0.076332 -0.440771
0.018487 0.316004 -0.316314
0.037057 -0.438106 0.074516
-0.254737 0.440388 -0.070928
-0.046095 0.103454 0.431015
0.023667 -0.100381 -0.435826
-0.192951 -0.111642 -0.433217
0.165599 -0.393657 -0.209247
0.125477 -0.428219 0.117925
0.012942 -0.263067 -0.361177
0.004134 0.357994 0.263360
-0.203879 0.147875 0.417959
-0.153889 -0.274539 -0.352278
0.180111 -0.337014 0.288205
-0.013057 -0.354932 -0.270339
0.093405 0.445328 0.017530
0.055645 -0.413087 -0.167436
-0.105194 0.005583 -0.447452
0.220729 -0.389877 -0.216666
-0.187171 -0.401461 0.189577
-0.237111 0.200845 -0.399779
-0.212793 0.130848 0.423581
0.187121 -0.427749 0.119543
-0.111033 0.299552 0.327717
-0.247319 -0.046865 0.440545
0.179367 -0.387644 -0.220455
0.270598 0.342311 -0.287713
-0.054327 0.059469 0.439250
-0.288490 0.325324 0.302628
-0.228520 -0.249585 -0.370508
-0.143667 -0.220924 0.384112
0.139090 -0.397745 -0.201223
0.035800 0.081639 0.435739
-0.243024 0.337780 0.288499
0.134632 -0.087904 0.434262
0.217790 -0.442626 -0.045142
-0.059148 0.130027 0.423820
-0.037202 -0.173328 -0.412063
0.095062 0.077091 0.436459
0.149606 -0.118288 0.426933
0.046589 0.436098 0.090056
-0.209102 0.097358 0.432378
0.030507 0.385947 0.220703
-0.059367 -0.436012 0.085857
0.140779 0.398980 0.196458
-0.112751 0.103473 -0.435364
0.006239 -0.420754 -0.146400
-0.112811 -0.263239 0.356690
0.137406 0.190328 0.400784
-0.260924 -0.345733 0.277846
-0.274458 -0.120022 -0.430782
0.162881 0.193630 -0.403455
-0.174484 0.375513 -0.242460
0.146365 0.305751 -0.326568
0.056780 -0.037869 0.441395
0.116165 -0.240693 0.372197
-0.164987 -0.091284 -0.437860
0.136900 -0.442582 0.041255
-0.230005 0.424244 0.135132
-0.207562 -0.130444 -0.427755
-0.190409 -0.441000 -0.060596
0.144994 0.002647 -0.447545
-0.182134 -0.444650 -0.010854
-0.184272 0.353201 0.269539
0.055992 0.443507 0.042315
0.151283 0.444810 -0.032878
0.221388 0.116358 -0.432144
0.212117 -0.444513 -0.015204
0.211463 0.126643 0.424803
0.046825 -0.443497 0.031580
0.188144 0.413802 0.163799
0.191644 -0.353078 0.268377
-0.239707 0.427305 0.124598
0.122383 0.445598 0.008941
0.026126 -0.266694 -0.358363
0.051222 0.334666 0.292031
0.040928 0.382531 -0.230833
-0.169892 -0.442907 -0.042174
-0.262278 -0.382619 0.224599
-0.072470 0.431593 0.109837
0.097633 0.381253 -0.232994
-0.254178 0.257047 -0.366133
0.216505 0.438908 -0.080273
-0.020814 -0.231121 -0.382435
-0.005144 -0.434801 -0.095628
0.078192 -0.420987 0.141399
-0.263925 0.085618 0.435002
0.089095 0.304784 0.323104
0.029712 -0.387989 0.215517
0.033165 0.013807 -0.447194
0.128620 -0.098877 -0.436163
0.034588 0.435230 0.093938
-0.154648 -0.170233 -0.413402
0.050262 -0.219294 -0.389430
-0.213301 0.282669 -0.346767
0.228902 -0.258915 -0.364168
0.262931 0.445371 0.016168
0.078359 -0.362585 -0.259975
0.041490 -0.308874 0.318067
-0.082886 0.247333 0.368381
-0.035230 0.149780 0.417274
-0.190967 -0.086351 0.434609
-0.151693 0.024110 0.442517
0.266481 -0.402669 -0.191510
-0.186178 0.426529 0.127269
0.166888 0.019370 0.442666
0.114488 -0.045978 -0.444982
0.164072 -0.423976 0.132528
-0.031508 -0.401836 -0.193195
0.283982 -0.089556 -0.438246
0.229863 0.193700 -0.403419
-0.207375 0.022012 0.442583
0.046374 -0.431059 0.108016
0.037141 0.426954 0.125805
-0.066880 -0.399905 -0.196983
0.031316 0.274026 0.349118
-0.169642 0.318629 -0.313690
0.073608 -0.367843 -0.252238
0.113211 0.356664 -0.269428
0.284218 -0.228294 -0.384107
-0.288432 -0.384989 0.220591
-0.184039 -0.118252 -0.431297
0.174923 0.343217 -0.286685
0.129895 0.443279 0.044727
0.031938 -0.377335 0.233533
0.207620 0.248694 -0.371810
-0.084721 -0.014800 -0.447131
-0.102713 -0.392304 0.207548
-0.245695 -0.025347 -0.446799
-0.254592 -0.279392 -0.348514
0.272092 -0.354996 -0.270257
-0.180124 0.432126 -0.112180
0.186055 -0.151816 -0.420525
0.037044 -0.266653 0.354042
-0.236471 -0.442331 -0.048266
0.073247 -0.055849 -0.444015
0.177489 0.179727 0.405384
-0.261847 0.151945 0.416494
-0.074855 -0.344145 0.279892
0.204021 0.288917 -0.341446
0.135718 -0.126188 -0.428991
0.261691 -0.059873 -0.443377
-0.130545 0.097507 0.432344
0.056998 -0.360794 -0.262611
-0.199859 -0.286776 -0.342430
-0.133665 0.130584 0.423658
0.278540 -0.443620 0.030273
-0.091471 -0.379955 0.229103
-0.082845 -0.264829 0.355456
0.237662 0.285856 0.339792
0.234174 -0.399833 -0.197126
0.094107 -0.160946 0.412885
-0.023725 0.399882 0.194687
-0.048290 -0.330626 -0.299804
-0.267411 0.299242 -0.332343
0.124513 -0.291778 0.333667
-0.035213 -0.261431 -0.362446
0.273528 0.039316 -0.445709
-0.262355 -0.108608 -0.433987
0.286283 0.155612 0.415174
0.204276 0.115190 0.428130
-0.126895 0.219440 -0.389949
-0.172579 0.292330 -0.338437
-0.229882 -0.186681 0.401931
-0.269044 0.365735 -0.256849
-0.067282 0.004853 -0.447475
-0.078777 -0.436808 -0.086647
0.284594 -0.007167 -0.447370
0.067213 -0.413007 -0.167621
-0.228827 -0.192898 -0.403306
-0.167578 -0.356693 0.263717
0.185820 0.119755 0.426804
-0.277471 0.373872 0.240522
0.148469 -0.152050 -0.420441
-0.142560 0.185986 -0.407029
0.094012 -0.048539 0.440386
-0.149725 -0.123632 0.425380
0.160974 0.370027 0.246179
0.168569 -0.380908 -0.231845
-0.118318 0.341724 -0.288378
0.105513 0.376441 -0.241096
0.184813 0.445531 -0.015440
-0.171305 -0.430440 0.110279
0.150194 -0.371412 -0.246987
0.169338 -0.387864 0.215730
-0.029684 -0.403562 0.185095
-0.175786 -0.427347 0.120927
-0.225075 -0.084202 -0.439443
0.001100 -0.444097 -0.028445
-0.034574 -0.436052 0.085677
0.010959 -0.409215 0.172031
-0.039761 0.223392 -0.387612
0.118758 -0.444222 -0.024487
0.172957 -0.425088 -0.133054
-0.009119 0.120437 -0.430960
0.184839 0.424782 -0.137636
0.230678 -0.163229 0.412063
0.250963 -0.217055 -0.390754
0.180892 0.138752 0.421244
-0.038975 0.424972 -0.136981
0.167654 -0.095743 0.432510
0.046780 -0.440227 -0.065476
0.232563 0.368463 -0.252834
0.068489 -0.337446 -0.292069
0.019340 -0.426430 0.124084
-0.071998 0.385311 0.221779
0.201221 -0.423452 0.134331
0.186164 0.329584 0.297796
-0.144605 0.249787 0.366714
0.158717 0.295127 -0.335972
0.280253 0.383459 -0.229265
0.050639 0.439495 0.072213
0.199556 -0.441435 0.053394
0.268281 -0.018857 0.442650
-0.212609 -0.028668 -0.446618
0.060155 -0.199480 -0.399952
-0.171387 -0.383744 -0.227050
0.102157 -0.386797 0.217534
-0.057130 0.024675 0.442499
-0.060924 -0.262700 -0.361461
-0.064469 0.445623 -0.012492
0.012458 0.387643 0.217837
0.196356 0.440235 -0.071893
0.284548 -0.372794 0.240601
-0.023238 -0.398730 0.194936
-0.125354 -0.404893 0.182019
-0.179583 0.419257 -0.153403
0.019561 0.445490 -0.016738
-0.132485 0.404208 0.185968
0.270957 0.421138 -0.148179
-0.049352 0.022975 -0.446906
-0.138903 0.318838 0.309127
-0.097526 -0.263154 -0.361109
-0.000856 0.365399 0.252989
0.088914 -0.297902 -0.332621
0.041852 0.250692 0.366099
-0.001400 -0.441607 -0.055921
-0.078558 -0.194258 -0.402613
0.102144 -0.383410 -0.227615
-0.136074 -0.439106 0.068201
0.048144 0.132695 -0.427398
0.126741 0.359212 -0.266143
0.232288 0.149167 0.417494
0.069107 -0.379313 -0.234542
0.170625 0.229727 0.379512
0.241989 -0.403599 -0.189361
-0.288633 -0.135317 -0.426339
0.286812 -0.392647 0.206876
0.140008 0.105519 -0.434907
0.244838 -0.267060 0.353726
0.009321 -0.121308 -0.430409
0.026475 0.444473 0.032088
-0.113583 0.075784 -0.441020
0.178864 0.264883 0.356209
0.205398 0.377167 -0.239904
0.213009 -0.342264 -0.286603
0.030178 -0.155698 -0.419127
-0.118242 0.150910 -0.421220
-0.217969 -0.310400 0.316540
-0.196116 -0.443745 0.028953
0.248361 0.154915 -0.419778
0.082325 0.096019 -0.437031
0.094166 -0.444366 -0.019896
-0.140926 -0.067515 0.437814
-0.031180 -0.366028 -0.254909
0.134297 0.177963 -0.410500
-0.245567 -0.339455 -0.289790
0.064165 0.044768 0.440840
-0.115584 0.226412 -0.385826
0.086830 0.366140 0.251898
-0.280222 0.399967 -0.198874
0.158642 -0.426530 -0.128093
0.022568 0.342941 0.282644
-0.240787 0.410494 -0.175795
-0.268400 -0.428781 -0.120344
-0.168018 -0.046021 -0.444978
0.097155 0.421335 0.143280
-0.180910 0.443243 -0.049460
0.030254 0.241318 -0.376823
0.005207 -0.219186 -0.389493
0.259339 0.345621 0.279311
-0.118043 -0.125486 -0.429195
-0.197046 0.183116 0.403917
0.011496 0.368090 0.249030
-0.157116 -0.318099 -0.313195
-0.243115 -0.332339 -0.297862
-0.162159 -0.409783 -0.175071
-0.258637 0.248356 0.367686
-0.168553 -0.371418 -0.246978
-0.170766 0.217328 0.386845
-0.182231 -0.214149 -0.392472
-0.178182 -0.411758 -0.170508
0.240126 0.304304 -0.327880
0.217414 -0.091059 0.433557
-0.023980 -0.264831 -0.359808
0.165897 -0.429141 0.114752
-0.290069 -0.414559 -0.163606
0.221147 -0.021201 0.442576
-0.029828 0.423591 -0.141365
0.099342 -0.172107 -0.412591
-0.220183 -0.025872 0.442429
-0.060801 0.040810 -0.445567
-0.033053 0.445670 -0.010998
-0.129181 -0.379361 -0.234460
0.113595 -0.142465 -0.423892
0.255781 0.439924 -0.073858
0.179052 -0.280851 -0.347382
0.043276 0.142010 -0.424424
-0.042031 -0.442794 -0.043363
0.105099 0.402289 0.189964
-0.035101 -0.029012 0.442232
-0.119409 -0.136213 -0.426078
0.192399 0.272721 0.350129
0.270921 -0.426649 0.123328
0.160084 -0.061915 0.438701
0.166010 0.069498 0.437662
-0.289368 -0.247832 -0.371699
-0.162152 0.394206 0.205827
-0.054704 0.329749 -0.301961
0.060248 0.320821 0.307144
-0.150521 -0.325646 -0.305453
-0.220904 -0.419399 -0.150164
-0.004804 -0.327460 0.299041
-0.197316 -0.052567 0.440006
-0.117850 -0.435017 0.090309
0.073804 0.210740 -0.394737
0.191175 -0.193495 -0.403002
-0.090180 0.204238 0.393697
0.158663 0.071762 -0.441657
-0.138616 -0.443094 -0.040189
0.173382 0.351657 -0.275884
0.134924 0.273940 0.349184
0.117682 0.261805 -0.362899
-0.111561 0.442686 -0.055351
-0.124340 0.444499 0.031820
-0.248126 -0.115092 0.427861
-0.272496 -0.424719 0.129973
0.197824 0.280565 -0.348398
0.220156 0.140221 -0.425068
-0.277448 0.405703 -0.186868
0.220501 -0.444102 0.023923
-0.226420 0.326203 -0.305984
-0.024857 -0.092110 0.433322
-0.054001 0.370976 0.244783
0.154596 -0.253466 0.363517
0.261316 0.423241 -0.142338
0.055909 -0.241710 -0.375860
0.199812 -0.303599 -0.327599
-0.180030 0.098630 0.432094
-0.183860 0.021455 -0.446954
-0.124291 0.123740 0.425646
0.008987 0.027290 0.442417
-0.159945 -0.360299 -0.263339
-0.052427 -0.429447 -0.118050
0.226520 -0.057965 0.439326
0.062923 0.205913 0.392843
-0.065617 -0.014994 0.442771
0.070057 0.354101 0.268379
-0.126336 0.445261 0.019655
0.282419 -0.444109 -0.028079
0.027763 -0.404902 0.181998
0.016324 -0.088763 0.434070
-0.241481 0.272071 -0.354987
0.187070 -0.025866 0.442429
0.147788 0.264790 -0.360635
-0.276902 0.359983 0.260795
0.110329 -0.112975 -0.432830
-0.027834 0.430001 -0.119672
-0.015661 0.106498 -0.434688
0.238495 0.430832 0.112457
-0.102456 -0.364977 0.252102
0.115137 -0.306739 0.320201
0.281228 0.435433 -0.097384
0.247739 0.204907 0.393356
-0.281762 -0.362210 0.256174
-0.214563 -0.382868 0.224178
-0.016809 0.133619 0.422776
-0.255254 0.420401 -0.150228
0.065799 0.404491 -0.189670
-0.198214 -0.444451 -0.017176
-0.283600 -0.444497 0.011362
-0.259862 -0.171795 0.408373
0.082394 0.290040 -0.340456
0.185674 -0.265263 -0.359473
-0.244858 0.195663 -0.402419
-0.127344 0.082414 -0.439970
0.109077 -0.079573 -0.440257
0.109340 -0.301328 -0.329601
-0.231822 0.410599 0.171201
0.114021 -0.384516 -0.225745
0.139235 0.336095 0.290410
-0.198369 0.079392 -0.440448
0.013954 0.436234 0.089445
0.194323 0.071538 0.437339
0.126390 -0.404049 0.183969
-0.146755 -0.311379 0.315561
-0.087659 0.258353 -0.365246
-0.091558 0.400258 0.193950
0.009674 -0.321589 -0.309704
0.044797 -0.301128 -0.329777
0.185239 0.311453 -0.320866
-0.022143 0.353860 0.268689
0.137553 -0.178036 0.405672
-0.231157 -0.438648 0.071094
0.183695 -0.201033 -0.399161
-0.039230 0.205918 -0.397194
-0.194735 -0.429123 -0.119166
-0.111702 0.384381 0.223352
0.187388 -0.378890 0.230904
0.089714 0.335980 0.290540
-0.190529 0.414598 0.161960
0.069034 0.408255 -0.180971
-0.084786 -0.406536 0.178222
-0.088502 0.425364 0.131277
-0.076447 0.371656 0.243782
-0.012169 0.422978 0.138714
0.007585 0.317932 -0.314386
0.206681 -0.193591 0.398600
-0.062290 0.430845 -0.116767
0.075650 0.149885 -0.421589
-0.064381 -0.281451 0.342563
0.025769 0.284183 -0.345592
-0.115504 0.402436 0.189675
0.070925 0.274076 0.349078
-0.049492 -0.137884 -0.425541
0.085263 -0.128045 0.424098
-0.197812 0.425897 0.129443
0.129552 0.441666 0.058505
-0.016832 0.199430 -0.400500
-0.263767 -0.317403 -0.313891
0.033166 0.401049 0.192396
0.116713 -0.174638 0.407143
0.060370 -0.444551 -0.014004
-0.279046 -0.419122 -0.150932
-0.197941 -0.281509 0.342518
-0.174754 0.439776 -0.074794
-0.276643 -0.153740 -0.419832
-0.157827 0.169527 0.409798
0.240357 -0.278030 -0.349570
0.082547 0.129874 -0.428218
-0.079077 0.115021 0.428179
-0.008603 -0.260469 0.358758
0.110807 -0.405482 -0.185011
-0.171044 -0.003601 -0.447483
0.097173 0.370628 -0.249648
0.076169 -0.277940 -0.349640
-0.148462 -0.086826 -0.438856
-0.240310 0.301933 -0.329971
0.034500 0.411790 0.168449
-0.058636 -0.000939 -0.447566
0.230506 0.351071 0.272285
0.269248 0.169594 -0.414122
0.240557 -0.405631 0.180313
0.091403 -0.443865 0.027687
0.283383 0.295511 -0.335632
0.002387 0.156675 0.414791
0.022718 -0.289851 -0.339719
0.187056 0.180387 -0.409451
-0.236499 -0.177031 0.406107
-0.053095 -0.280738 -0.347469
0.286335 -0.417436 0.151261
-0.083833 0.445454 0.013527
0.145724 0.425076 -0.136622
0.186537 -0.443213 -0.038933
-0.028035 -0.219412 -0.389360
-0.061969 -0.139171 -0.425078
-0.042329 0.396021 0.202265
0.141169 0.425037 0.132406
-0.284090 -0.338890 0.286077
-0.183105 -0.412681 0.164022
0.266156 -0.260248 0.358908
-0.119059 0.390755 0.212574
0.211265 0.445732 0.004665
-0.271710 -0.444298 0.017696
0.091971 0.427811 -0.127208
0.032882 0.445492 0.012299
0.038246 -0.393958 -0.208656
0.213452 -0.030739 -0.446423
0.230535 0.158755 0.414042
0.284223 -0.207678 -0.395775
-0.071525 0.132019 0.423241
-0.213709 0.408194 -0.181112
0.182934 0.440085 0.068488
0.199099 0.393585 -0.211400
0.239011 0.162577 -0.417019
-0.237166 -0.375757 -0.240555
-0.178376 0.307572 -0.324747
0.210647 -0.231020 0.378141
-0.059968 -0.444682 0.005471
0.127008 0.340255 0.285691
-0.225027 0.233245 -0.381785
-0.159993 -0.285379 -0.343662
0.111583 0.286184 -0.343856
-0.207989 0.258908 0.360515
0.218635 0.069493 -0.442016
0.133218 0.308639 -0.323680
0.087302 -0.008271 0.442982
0.258341 0.234537 0.376667
-0.080482 -0.428022 -0.122957
-0.058073 0.385032 0.222251
-0.275330 -0.438345 -0.077359
-0.196417 -0.210916 0.389772
-0.154069 0.264204 -0.361089
-0.251826 0.273896 -0.353572
-0.213425 0.425594 -0.134841
0.146650 0.145274 0.418896
-0.083017 -0.438414 -0.076922
0.051058 0.208472 -0.395892
-0.263031 -0.075492 -0.440904
-0.136839 -0.060621 -0.443259
-0.004570 -0.225434 0.381445
0.160939 -0.072467 -0.441383
0.231852 -0.175360 0.406830
0.207139 0.218224 -0.390668
0.161437 0.424234 0.135168
0.004813 -0.176460 0.406354
0.165283 -0.312839 0.314102
0.153234 -0.442921 0.037670
-0.163244 -0.399171 0.194072
0.149388 -0.231243 0.378009
-0.126674 0.382094 -0.231573
0.073027 -0.149181 0.417120
0.061665 -0.313262 -0.318032
-0.242182 -0.314049 -0.317245
0.023119 0.380580 -0.234132
-0.151730 0.301008 0.326434
0.055311 -0.425286 0.128020
0.195164 0.187116 0.402186
-0.016128 -0.125970 0.424701
-0.238476 -0.388331 -0.219294
0.130909 -0.011635 -0.447230
0.258799 0.380419 -0.234405
0.194993 0.439897 0.069674
-0.065177 0.442570 -0.056573
0.126551 -0.390367 0.211350
-0.178902 0.175825 0.407073
0.089269 0.003519 -0.447517
-0.197033 0.340608 -0.289644
-0.282175 -0.281984 -0.346503
0.147357 -0.429486 -0.117917
-0.086830 0.283142 0.342046
-0.168676 -0.105197 -0.434750
0.273702 -0.343433 -0.285165
-0.067738 0.342713 -0.287257
0.069737 -0.429352 -0.118380
0.186738 -0.441917 0.048290
0.096070 0.208909 -0.395670
-0.092944 -0.327583 0.298903
0.280870 0.049341 -0.444761
0.007710 -0.271059 -0.354978
0.162883 0.433779 -0.104782
-0.159635 0.445320 0.017780
0.053174 0.375043 0.238799
0.088966 0.439425 0.072657
-0.094757 -0.438249 -0.077962
0.285951 -0.226829 0.380620
-0.198507 -0.427850 0.119195
0.192058 -0.180573 0.404574
0.095376 0.398775 -0.201213
0.257343 0.399740 0.194965
0.192676 -0.394501 -0.207590
0.153000 -0.400933 0.190614
-0.094491 -0.278792 -0.348979
0.241688 0.025737 0.442466
0.064717 0.008234 0.443016
0.163923 0.426558 -0.131524
-0.264090 -0.295991 -0.334306
0.091234 -0.207379 -0.395927
0.227018 0.445290 -0.023099
0.032249 0.300844 -0.330931
0.080972 -0.245793 -0.373085
-0.102861 -0.429706 -0.117159
0.106544 0.439002 -0.079681
-0.102993 0.377971 -0.238544
-0.115401 0.441419 0.060063
0.018362 -0.288386 0.336658
0.246431 -0.126648 -0.428857
-0.091181 -0.057279 -0.443788
0.284798 0.109258 -0.434071
0.144570 0.060590 -0.443426
-0.208363 -0.086165 -0.439004
-0.161445 -0.434273 -0.097988
0.245855 -0.284506 -0.344431
-0.125537 0.443047 -0.051534
0.083222 0.443611 -0.045559
-0.229842 0.319338 -0.312981
0.049498 0.445858 -0.005016
0.143138 -0.048593 -0.444735
-0.148308 0.124903 -0.429662
0.258477 -0.048331 -0.444760
-0.152128 0.291302 -0.339343
0.034316 -0.444631 -0.011443
0.061541 -0.013474 0.442819
-0.095359 -0.212061 0.389188
-0.016444 -0.187497 0.401578
0.018057 -0.103378 0.430803
0.105147 -0.369366 0.245644
0.046447 -0.236335 -0.379351
0.227307 -0.002708 -0.447511
-0.123452 -0.442776 0.039201
0.145355 0.417964 0.152641
-0.103388 0.445352 -0.021122
-0.007615 0.377068 0.235718
-0.067797 -0.128261 0.424035
-0.154025 0.369762 0.246570
-0.202785 0.432633 -0.109911
-0.038996 -0.440866 0.057089
0.095077 -0.444449 0.012881
-0.044073 0.052681 -0.444445
0.135456 -0.007853 0.442995
0.052496 0.441346 0.060528
-0.083485 0.078481 0.436239
0.209288 -0.413832 0.161273
0.175374 -0.158970 -0.417949
0.045087 -0.259836 0.359188
-0.216417 0.137631 -0.425964
0.062709 0.389089 -0.219744
-0.069274 -0.228318 0.379739
0.263518 -0.444426 -0.017965
-0.165769 0.444513 -0.036017
0.040226 0.191889 -0.404342
-0.069264 -0.428091 -0.122720
-0.158650 -0.344779 0.279076
0.077713 -0.438359 -0.077269
-0.153340 0.445651 0.007261
0.028201 -0.256369 0.361544
-0.179121 0.408496 0.176060
-0.078343 0.429293 0.117753
-0.149663 0.350656 -0.277173
0.037627 -0.251656 0.364747
-0.058780 0.438396 0.079150
0.091847 -0.426965 0.122242
-0.132001 -0.271779 0.350065
-0.240889 -0.393407 0.205383
0.146185 -0.037426 0.441437
0.001174 0.412919 0.165838
-0.062233 -0.381029 -0.231641
-0.214705 -0.436562 -0.087749
0.078728 0.034511 -0.446163
-0.236199 -0.380207 0.228676
0.057203 -0.038629 -0.445677
0.263269 -0.347633 0.275396
0.004960 -0.290176 0.335079
0.141137 -0.372458 0.241095
-0.079411 0.390757 0.212571
-0.233775 0.419295 0.148946
-0.186859 0.438315 0.079664
0.232043 0.116638 -0.432063
-0.256388 0.292765 0.333701
-0.045305 -0.323262 0.303678
-0.070857 -0.154862 0.415075
0.182147 -0.444676 0.005686
0.206821 -0.100599 0.431424
-0.105271 0.121056 0.426426
-0.148680 -0.006817 -0.447381
-0.213079 -0.285145 -0.343868
-0.103818 -0.444355 0.015883
-0.276899 0.366013 0.252086
0.203108 -0.444349 0.016087
-0.047518 -0.260792 -0.362892
0.210402 -0.438295 0.073323
-0.277031 -0.351973 -0.274154
-0.203620 0.176434 0.406809
-0.101983 0.215947 0.387662
-0.211302 -0.307734 -0.323560
-0.275250 -0.412433 0.164594
0.268590 -0.007900 0.442994
-0.165344 0.106883 -0.434602
-0.177218 0.437783 -0.086873
0.028103 -0.293380 0.332255
0.089569 -0.439141 0.067977
-0.234879 0.432069 -0.112432
0.184056 0.406440 -0.185164
-0.289113 0.418036 0.152442
0.214518 0.356817 0.264877
-0.149432 0.165204 -0.416022
-0.152005 0.409687 0.173307
0.214919 -0.161852 -0.416912
0.037447 -0.049635 -0.444636
0.122088 -0.257295 0.360915
-0.178648 -0.012169 -0.447213
-0.140763 -0.429381 -0.118278
-0.233674 0.136428 0.421960
-0.253794 -0.443194 0.034783
-0.266377 0.427243 -0.129164
0.243419 -0.007966 0.442992
0.093191 0.445651 0.007270
0.271853 -0.213908 -0.392601
0.042782 0.318136 0.309829
-0.067373 -0.025112 0.442453
-0.035526 -0.428094 -0.122709
0.242655 0.243151 0.371223
0.091591 -0.261741 -0.362205
0.115794 0.444995 -0.030918
0.098940 -0.214823 -0.392073
-0.168890 0.369725 -0.250977
0.272170 0.113800 -0.432887
0.127233 -0.439475 -0.070225
0.120803 -0.037056 -0.445825
-0.032401 -0.350638 0.271522
-0.004450 0.049572 -0.444739
0.020097 -0.132746 -0.427086
0.054643 -0.261203 0.358259
0.275160 -0.050031 0.440246
-0.269117 0.116266 0.427818
-0.277007 -0.393539 -0.209479
-0.065879 0.426030 -0.133340
0.205137 0.440282 0.067243
0.201862 0.411193 0.169828
0.172991 -0.437959 -0.079794
-0.010984 0.233056 -0.381897
0.170310 -0.340794 0.283918
-0.051622 -0.399425 0.193573
-0.157921 0.233272 -0.381769
0.193228 -0.419242 -0.150600
0.252778 -0.043423 0.440870
0.266501 -0.329289 0.296967
-0.280139 0.445137 0.023602
0.132239 0.425971 -0.133542
-0.070240 -0.432320 0.102373
-0.142788 -0.405664 -0.184590
0.017088 0.443399 -0.047811
-0.072479 -0.263295 0.356646
0.286303 0.329319 0.298096
0.114780 -0.364698 0.252513
0.093941 -0.266738 0.353976
0.128934 -0.109905 0.429344
0.277885 0.110153 0.429518
-0.077926 -0.352436 0.269205
-0.029894 -0.441050 -0.060279
-0.178121 0.444344 -0.037812
-0.056143 0.346148 -0.282985
0.012651 0.341862 0.283868
-0.134709 0.260095 0.359708
0.017829 -0.091796 -0.437745
0.176192 -0.105536 -0.434674
0.181685 -0.308962 -0.322332
-0.124794 0.433873 0.100010
0.079061 -0.325940 0.300766
0.066828 -0.391564 -0.213354
-0.079425 0.441778 0.057801
0.253940 -0.136043 -0.426128
-0.112887 -0.345478 0.278174
-0.123724 0.224636 0.382523
0.110459 0.445329 -0.021864
0.023715 0.262078 -0.362714
0.192793 0.422704 -0.143830
-0.204213 0.268567 -0.357706
-0.232262 -0.238187 -0.378254
-0.241506 -0.350943 0.271129
-0.016486 -0.330737 0.295325
0.006102 0.350567 0.272935
-0.114480 0.442787 0.049925
-0.102942 0.314416 0.313549
-0.102142 0.408638 -0.180086
-0.037228 -0.288563 0.336502
-0.194307 -0.307535 0.319406
0.273421 0.330887 0.296318
-0.062063 -0.442437 -0.047145
0.255135 0.080260 0.435957
-0.084594 0.439791 0.070347
0.121246 -0.226364 -0.385248
-0.135349 -0.409131 -0.176577
0.283856 -0.208430 0.391039
-0.105795 -0.207635 0.391444
-0.013897 0.441151 -0.066110
-0.256055 -0.428404 0.117288
0.041171 -0.148071 -0.421873
-0.130400 0.176766 -0.411019
-0.182284 0.442246 -0.059196
0.051406 -0.371248 0.242875
-0.234687 -0.439995 -0.066943
-0.072972 -0.103215 -0.435193
0.181005 -0.184305 -0.407313
0.082926 -0.348609 -0.278492
-0.028683 -0.186802 0.401879
-0.045325 0.378041 -0.238426
-0.120218 -0.437288 0.079677
0.272972 -0.342415 0.282080
-0.279104 0.413973 0.163403
-0.133527 0.413747 0.163926
-0.117357 0.373226 0.241472
0.164209 0.255177 0.363051
0.239309 -0.130890 0.423271
0.272727 0.261882 -0.362847
0.119512 -0.444671 -0.010176
0.253765 -0.115901 0.427626
0.076125 -0.432949 0.099559
-0.200442 -0.430659 0.109527
-0.037464 0.420042 -0.151223
-0.017423 0.367396 0.250051
0.016591 0.116780 0.427668
-0.005863 -0.354485 0.266563
-0.053210 0.177384 0.406398
0.136199 0.037760 -0.445856
-0.269624 0.065805 -0.442600
0.106865 0.175686 0.407133
0.008667 -0.428172 0.118086
-0.081209 0.369649 -0.251089
0.055773 -0.441711 -0.054828
-0.106379 -0.253362 -0.367941
-0.157265 -0.108454 -0.434022
0.007443 0.177038 -0.410901
0.214799 0.438984 0.075442
-0.193612 -0.164131 -0.416043
0.143232 -0.438079 0.074682
-0.022555 -0.212203 0.389116
-0.118115 0.422954 0.138783
-0.103423 -0.422037 0.138481
-0.056285 -0.401517 -0.193820
0.249132 0.445882 -0.000087
-0.195120 -0.243108 0.370556
-0.104213 0.395531 -0.207580
-0.263895 -0.033928 -0.446121
-0.265453 0.361350 0.258948
0.259002 0.036129 -0.446010
0.068921 0.220103 -0.389557
-0.279570 -0.025156 0.442452
-0.280162 -0.321914 -0.309379
-0.123584 -0.101924 -0.435482
-0.061126 0.117359 -0.431854
0.269635 0.244404 0.370372
-0.208485 0.340210 0.285743
-0.088918 0.439230 -0.078239
-0.114417 0.413358 -0.169179
-0.081106 -0.398822 0.194755
0.138991 0.401974 -0.194935
-0.032495 -0.395943 0.200407
0.281785 0.119140 -0.431336
0.176531 0.191650 0.400111
0.148758 0.429103 0.118410
0.162798 -0.264018 0.356085
0.177792 -0.442747 0.039511
0.007600 -0.385647 0.219478
-0.178498 -0.038174 0.441366
0.104016 -0.311903 0.315038
-0.205606 0.190342 0.400777
0.216997 0.436612 -0.092109
-0.023379 0.403090 -0.192745
0.107086 -0.382166 0.225365
-0.099583 0.440688 -0.069037
-0.274275 -0.416337 0.154315
-0.140787 0.403459 -0.192021
-0.239573 0.402257 -0.194378
-0.175805 -0.016801 0.442714
-0.218946 -0.301305 -0.329622
0.267266 -0.444822 0.001017
0.226338 0.304015 -0.328136
0.005292 -0.392022 0.208102
0.192693 0.400061 0.194336
-0.146181 -0.104791 0.430487
-0.133367 -0.154457 0.415221
-0.133779 -0.413551 -0.166364
-0.230211 -0.181182 -0.408664
0.170294 -0.142954 0.419362
0.072114 -0.444368 0.015486
-0.156185 0.186093 0.402629
0.025766 0.067063 -0.442401
0.279078 0.445544 0.010661
-0.125761 0.416640 -0.160673
-0.053113 0.283312 0.341915
0.078544 -0.408208 0.174358
0.161375 0.404670 -0.189255
0.049028 -0.432182 -0.107343
0.055181 0.438001 -0.085895
-0.202244 -0.444205 0.020667
0.253968 0.132022 -0.427594
0.147678 -0.430857 0.108845
-0.162068 -0.008268 0.442982
-0.269399 0.255325 -0.367304
0.160073 0.085676 0.434989
-0.069033 0.379726 0.231224
-0.171689 -0.415170 -0.161910
0.231730 -0.406633 -0.182350
-0.260893 0.107420 -0.434482
-0.070981 -0.335672 0.289728
0.194564 -0.214839 0.387711
0.147171 0.084109 0.435339
0.014623 0.445202 -0.025903
0.035734 0.415316 -0.164352
0.143314 0.240331 -0.377493
