0.286960 -0.262561 0.387151
0.286960 -0.441534 0.139413
0.286960 0.018481 -0.448168
0.286960 0.493015 0.043419
0.286960 -0.270089 0.368831
0.286960 0.061660 -0.456810
0.286960 -0.451993 -0.026868
0.286960 0.460077 -0.135564
0.286960 0.460130 -0.105281
0.286960 -0.323514 -0.370467
0.286960 0.464901 -0.077967
0.286960 0.449002 0.036567
0.286960 -0.037847 0.488087
0.286960 -0.123070 -0.467544
0.286960 0.419815 -0.223869
0.286960 -0.404507 -0.283922
0.286960 -0.407696 0.187248
0.286960 -0.488889 0.041129
0.286960 0.369247 -0.298356
0.286960 0.219396 -0.439582
0.286960 -0.395880 -0.240211
0.286960 -0.377477 -0.253389
0.286960 0.113074 -0.445771
0.286960 0.452986 -0.022028
0.286960 0.441854 -0.099018
0.286960 -0.471838 -0.057345
0.286960 -0.364401 0.269573
0.286960 -0.392241 0.211063
0.286960 0.139190 0.465414
0.286960 -0.175292 -0.448478
0.286960 0.469150 -0.083437
0.286960 -0.341133 0.308004
0.286960 0.411247 -0.202719
0.286960 -0.165359 -0.418759
0.286960 -0.031896 0.492404
0.286960 -0.143657 0.462121
0.286960 -0.410584 0.238709
0.286960 0.069902 -0.461720
0.286960 -0.343538 -0.296214
0.286960 -0.340645 -0.305349
0.286960 0.111551 -0.449590
0.286960 -0.399856 0.265470
0.286960 0.382726 -0.267788
0.286960 0.384552 -0.233119
0.286960 0.081401 -0.465812
0.286960 0.434444 -0.171636
0.286960 0.475580 0.096353
0.286960 0.417600 0.263373
0.286960 -0.294744 -0.335955
0.286960 -0.093603 -0.456629
0.286960 -0.300958 0.364493
0.286960 -0.440443 0.214626
0.286960 0.493208 0.061477
0.286960 -0.446618 -0.084051
0.286960 0.322085 0.357920
0.286960 -0.407475 0.216819
0.286960 0.425924 -0.161003
0.286960 0.410500 -0.284142
0.286960 0.205291 -0.408576
0.286960 0.446030 -0.018235
0.286960 -0.009152 -0.472104
0.286960 -0.296359 -0.398188
0.286960 -0.108824 -0.434218
0.286960 -0.101328 0.454800
0.286960 -0.281266 -0.374084
0.286960 0.027954 0.453512
0.286960 -0.029012 0.473106
0.286960 -0.387891 0.231804
0.286960 0.323219 0.342616
0.286960 0.243592 -0.428682
0.286960 0.436243 0.190915
0.286960 0.427950 0.225121
0.286960 0.285765 0.404822
0.286960 -0.364819 0.290297
0.286960 -0.236046 -0.435911
0.286960 0.324138 0.320066
0.286960 -0.440380 0.068243
0.286960 0.166159 0.412506
0.286960 -0.250380 0.427456
0.286960 0.455032 -0.039278
0.286960 -0.432986 -0.154375
0.286960 0.463061 0.120740
0.286960 0.100743 0.465511
0.286960 -0.270819 -0.414377
0.286960 -0.152739 -0.460589
0.286960 0.062734 -0.478004
0.286960 0.338534 -0.310088
0.286960 0.369763 -0.257556
0.286960 -0.029433 0.447444
0.286960 -0.264699 0.361658
0.286960 -0.399390 -0.251941
0.286960 -0.200203 0.412708
0.286960 -0.440465 -0.232626
0.286960 -0.259036 0.372437
0.286960 0.481807 -0.114629
0.286960 -0.411873 0.235326
0.286960 0.455891 -0.184945
0.286960 0.317041 -0.319357
0.286960 -0.439636 0.072029
0.286960 -0.326062 -0.346824
0.286960 -0.265028 0.394397
0.286960 -0.229672 0.410350
0.286960 -0.432999 -0.104375
0.286960 -0.143386 0.429935
0.286960 -0.141847 -0.424858
0.286960 -0.109425 0.451294
0.286960 0.050130 0.466899
0.286960 -0.270423 0.356666
0.286960 -0.084214 -0.453754
0.286960 0.446586 0.148615
0.286960 0.185927 0.427108
0.286960 0.073905 -0.490612
0.286960 -0.018228 -0.490059
0.286960 0.113550 -0.477732
0.286960 0.414566 0.253779
0.286960 0.307791 -0.393472
0.286960 -0.438931 0.157414
0.286960 -0.111063 -0.468975
0.286960 0.303792 0.326941
0.286960 0.056625 0.491979
0.286960 -0.087682 0.476040
0.286960 0.468357 0.156793
0.286960 0.423372 -0.193351
0.286960 -0.033771 0.442087
0.286960 -0.228761 0.433463
0.286960 0.317351 0.367411
0.286960 -0.205691 -0.454889
0.286960 0.177791 0.448346
0.286960 -0.346954 -0.354457
0.286960 0.206141 0.437940
0.286960 0.137856 0.437180
0.286960 -0.244296 0.398424
0.286960 0.434374 -0.105829
0.286960 0.403973 0.236975
0.286960 0.344913 -0.308557
0.286960 0.393149 0.223580
0.286960 -0.130773 -0.446325
0.286960 0.331459 -0.323332
0.286960 0.162803 -0.421835
0.286960 -0.471296 -0.061813
0.286960 -0.182105 -0.455905
0.286960 0.178267 0.410863
0.286960 -0.377974 -0.265581
0.286960 0.356796 0.320663
0.286960 0.031231 0.481016
0.286960 0.477488 -0.101896
0.286960 0.273692 0.371211
0.286960 -0.290261 -0.361472
0.286960 0.173517 0.435475
0.286960 -0.183898 0.422346
0.286960 -0.306829 -0.393180
0.286960 -0.446698 -0.161714
0.286960 -0.323318 0.316457
0.286960 0.054640 0.480364
0.286960 -0.115603 0.439540
0.286960 0.399521 -0.229673
0.286960 0.449050 -0.071880
0.286960 0.078028 -0.473658
0.286960 0.319440 0.341417
0.286960 -0.400717 -0.285484
0.286960 0.104092 -0.457253
0.286960 0.478026 0.024248
0.286960 -0.417158 -0.178594
0.286960 0.488983 0.010911
0.286960 0.151437 -0.467503
0.286960 0.277452 0.397011
0.286960 -0.378436 0.254775
0.286960 0.284666 0.387366
0.286960 -0.165849 -0.466587
0.286960 0.452620 0.156641
0.286960 0.472724 0.062939
0.286960 0.379788 0.273965
0.286960 0.243354 0.416864
0.286960 0.216296 0.423720
0.286960 -0.212089 -0.428688
0.286960 0.161556 0.413099
0.286960 0.055601 -0.471301
0.286960 -0.441535 0.155012
0.286960 0.439810 0.142892
0.286960 -0.435628 0.088534
0.286960 0.058130 0.445983
0.286960 -0.045578 0.466629
0.286960 0.344434 0.286097
0.286960 -0.393857 -0.223259
0.286960 -0.434853 0.176476
0.286960 0.378007 0.315723
0.286960 0.109764 0.472285
0.286960 0.113540 0.465632
0.286960 -0.381088 -0.232174
0.286960 0.258560 -0.396012
0.286960 -0.306103 -0.334675
0.286960 0.248034 -0.413027
0.286960 0.243630 -0.418074
0.286960 0.135915 0.439866
0.286960 -0.325557 0.330461
0.286960 -0.284623 -0.405371
0.286960 -0.138724 0.433896
0.286960 0.375627 -0.287387
0.286960 -0.099883 0.480529
0.286960 -0.086996 -0.477230
0.286960 -0.068981 0.470125
0.286960 0.418404 -0.229547
0.286960 0.125768 0.458246
0.286960 -0.424371 -0.212495
0.286960 0.480658 0.116654
0.286960 0.466890 0.097364
0.286960 0.037424 -0.497079
0.286960 0.461959 0.060730
0.286960 0.126579 0.424931
0.286960 -0.265332 -0.409089
0.286960 0.402977 0.228628
0.286960 -0.290419 0.363856
0.286960 -0.441293 -0.157631
0.286960 0.052666 -0.497342
0.286960 0.026139 0.459185
0.286960 0.406479 -0.255192
0.286960 0.378784 -0.246418
0.286960 -0.122835 0.447368
0.286960 0.093556 -0.486179
0.286960 -0.461830 0.151696
0.286960 -0.283379 0.379269
0.286960 0.068862 0.476795
0.286960 -0.394717 -0.303613
0.286960 -0.253937 0.424610
0.286960 0.220517 -0.448735
0.286960 -0.064616 0.458730
0.286960 -0.005701 -0.470262
0.286960 0.441563 -0.132395
0.286960 -0.299462 0.377724
0.286960 0.307484 -0.342995
0.286960 0.375303 -0.309107
0.286960 -0.209794 -0.424809
0.286960 0.456882 -0.191629
0.286960 -0.150496 0.443371
0.286960 -0.162699 -0.472223
0.286960 0.203294 0.403879
0.286960 -0.185077 -0.452781
0.286960 0.047229 0.445775
0.286960 -0.003329 0.447358
0.286960 -0.085565 -0.470335
0.286960 -0.016890 -0.447270
0.286960 -0.473885 0.072149
0.286960 0.395491 -0.248113
0.286960 -0.478255 -0.028188
0.286960 -0.478543 0.130416
0.286960 -0.142463 -0.442583
0.286960 -0.400639 -0.215157
0.286960 -0.216117 0.424120
0.286960 0.168772 0.458043
0.286960 0.104370 0.440195
0.286960 0.290381 -0.351847
0.286960 0.468819 0.011747
0.286960 -0.008550 0.457963
0.286960 -0.241800 0.395781
0.286960 -0.222113 0.418713
0.286960 -0.069959 0.461769
0.286960 -0.485203 0.021618
0.286960 -0.233905 -0.391105
0.286960 0.407530 -0.193609
0.286960 -0.261733 0.358643
0.286960 -0.167693 -0.440483
0.286960 -0.048075 -0.468752
0.286960 -0.445033 0.002143
0.286960 0.446714 -0.075166
0.286960 -0.091223 0.468355
0.286960 -0.301710 -0.371695
0.286960 -0.436470 -0.129382
0.286960 0.458215 0.103414
0.286960 0.463869 -0.024017
0.286960 -0.119260 0.429534
0.286960 -0.466280 0.033077
0.286960 0.280555 0.365085
0.286960 0.086923 0.481055
0.286960 -0.365425 -0.300199
0.286960 -0.469179 -0.048767
0.286960 -0.324542 -0.363877
0.286960 -0.405320 -0.206911
0.286960 -0.290625 -0.375080
0.286960 -0.466527 -0.107290
0.286960 -0.241805 0.384152
0.286960 0.134098 0.446810
0.286960 0.472730 -0.011432
0.286960 -0.454728 -0.162724
0.286960 0.485449 -0.075325
0.286960 0.464557 0.076997
0.286960 -0.343901 -0.311282
0.286960 -0.366651 -0.274706
0.286960 -0.183739 0.432437
0.286960 -0.273213 0.408240
0.286960 0.468042 0.144089
0.286960 0.265149 -0.371529
0.286960 -0.096332 -0.490467
0.286960 -0.414905 -0.261427
0.286960 0.446203 -0.223228
0.286960 -0.222954 -0.438275
0.286960 -0.008193 0.443098
0.286960 0.293872 0.394623
0.286960 -0.369042 -0.257769
0.286960 -0.400343 0.269359
0.286960 -0.488570 -0.008835
0.286960 -0.457295 -0.152540
0.286960 -0.453224 0.007461
0.286960 0.175265 -0.428107
0.286960 -0.104880 0.480253
0.286960 0.470078 0.118018
0.286960 0.465187 0.059555
0.286960 -0.455258 0.002741
0.286960 -0.475614 -0.000929
0.286960 -0.241500 -0.433640
0.286960 -0.417690 0.231284
0.286960 0.256926 0.417922
0.286960 -0.446095 0.183265
0.286960 -0.312101 -0.378024
0.286960 -0.121735 -0.443695
0.286960 -0.473928 0.127022
0.286960 -0.136156 -0.461153
0.286960 -0.490964 0.009033
0.286960 0.469951 0.016075
0.286960 -0.285166 -0.350085
0.286960 0.086845 -0.463268
0.286960 0.034261 -0.464650
0.286960 0.291801 0.342374
0.286960 0.497034 0.019316
0.286960 -0.429915 0.209092
0.286960 0.470196 -0.004101
0.286960 -0.095048 0.436427
0.286960 0.259899 0.402672
0.286960 -0.441950 0.059139
0.286960 0.261440 0.358801
0.286960 -0.157524 -0.466889
0.286960 -0.452966 -0.047135
0.286960 -0.007979 -0.465938
0.286960 0.414915 -0.264058
0.286960 -0.409400 -0.207226
0.286960 -0.279599 -0.408540
0.286960 -0.280032 0.370626
0.286960 0.132251 -0.474580
0.286960 -0.233895 0.433455
0.286960 0.079591 -0.481739
0.286960 -0.277238 0.365404
0.286960 0.412137 0.206179
0.286960 -0.428626 0.176978
0.286960 -0.035166 -0.457195
0.286960 -0.187165 -0.436223
0.286960 0.124514 0.479910
0.286960 0.477830 -0.067887
0.286960 0.354811 -0.350267
0.286960 -0.031114 -0.471484
0.286960 -0.419046 -0.190807
0.286960 -0.420139 0.176681
0.286960 0.445308 0.052633
0.286960 0.437070 0.146684
0.286960 0.238292 -0.418936
0.286960 -0.258249 0.403031
0.286960 0.087063 0.445770
0.286960 -0.070074 -0.483317
0.286960 0.213444 -0.415360
0.286960 0.331150 -0.348299
0.286960 -0.400593 0.273019
0.286960 -0.407595 0.213322
0.286960 -0.268448 -0.390228
0.286960 0.291127 0.352485
0.286960 0.483743 -0.024253
0.286960 0.359772 0.323631
0.286960 -0.101657 -0.477841
0.286960 0.444324 -0.107584
0.286960 -0.325568 0.341757
0.286960 0.406454 -0.215364
0.286960 -0.122055 0.475961
0.286960 0.446062 -0.013820
0.286960 0.226005 -0.391095
0.286960 -0.481713 -0.064101
0.286960 -0.285568 -0.393443
0.286960 -0.459608 0.048176
0.286960 -0.072975 0.460268
0.286960 0.021840 -0.470392
0.286960 0.349642 -0.328235
0.286960 -0.493099 -0.039885
0.286960 0.465663 0.170784
0.286960 -0.452214 -0.101735
0.286960 -0.207720 -0.406646
0.286960 0.454176 0.115022
0.286960 -0.458539 -0.089037
0.286960 0.483698 0.042267
0.286960 -0.437711 -0.208010
0.286960 0.006205 0.495503
0.286960 0.411356 -0.233267
0.286960 -0.485296 -0.064886
0.286960 -0.349590 0.331575
0.286960 0.145187 0.439197
0.286960 -0.416509 0.198557
0.286960 -0.073904 -0.493878
0.286960 -0.419895 -0.210246
0.286960 -0.057529 0.439883
0.286960 -0.340229 0.326394
0.286960 -0.221787 0.426388
0.286960 0.071109 -0.474088
0.286960 0.478336 -0.136889
0.286960 0.477811 -0.005798
0.286960 -0.031845 -0.488586
0.286960 -0.462563 -0.160135
0.286960 -0.027935 0.484982
0.286960 -0.452543 -0.022363
0.286960 -0.478437 -0.021712
0.286960 0.234404 -0.437580
0.286960 -0.460504 0.040598
0.286960 -0.055479 -0.486708
0.286960 -0.029659 0.479817
0.286960 -0.359579 0.312178
0.286960 -0.323975 0.338321
0.286960 -0.005555 -0.450299
0.286960 0.099778 -0.453384
0.286960 -0.310895 0.372999
0.286960 0.437175 -0.214940
0.286960 0.455388 -0.006672
0.286960 -0.471233 0.146997
0.286960 0.242710 0.394816
0.286960 0.230374 0.404304
0.286960 -0.320718 -0.336148
0.286960 0.241702 0.425950
0.286960 -0.109623 -0.454045
0.286960 0.330661 -0.313783
0.286960 0.142449 -0.467022
0.286960 0.173849 0.456109
0.286960 0.408159 -0.187728
0.286960 -0.475203 -0.006094
0.286960 0.283932 -0.397019
0.286960 -0.364312 -0.285497
0.286960 -0.140381 0.444190
0.286960 -0.382173 -0.245163
0.286960 0.334934 0.331473
0.286960 0.380646 0.313446
0.286960 0.024058 -0.473114
0.286960 -0.297424 -0.370938
0.286960 -0.276198 -0.375032
0.286960 0.090850 -0.464298
0.286960 0.084906 -0.484398
0.286960 0.492294 -0.072978
0.286960 0.000644 -0.494186
0.286960 0.356669 -0.293235
0.286960 0.385656 -0.256229
0.286960 0.362991 -0.298806
0.286960 0.461672 0.048672
0.286960 0.343506 0.289517
0.286960 -0.189844 0.427047
0.286960 0.245744 0.414649
0.286960 -0.382875 -0.298673
0.286960 0.354703 0.304788
0.286960 -0.139256 -0.467220
0.286960 0.063210 -0.474343
0.286960 0.454268 0.012783
0.286960 -0.475875 -0.026127
0.286960 -0.131419 0.464696
0.286960 -0.215754 0.420898
0.286960 -0.129740 0.455504
0.286960 0.134287 0.435772
0.286960 -0.476812 -0.064160
0.286960 -0.020770 0.467089
0.286960 -0.265614 0.408083
0.286960 -0.058595 0.455361
0.286960 0.408260 -0.259756
0.286960 0.407584 -0.197016
0.286960 0.223521 0.414725
0.286960 -0.369537 -0.335462
0.286960 -0.083662 -0.478608
0.286960 -0.125649 -0.459847
0.286960 -0.103366 0.462257
0.286960 0.389848 0.222228
0.286960 -0.150083 0.471774
0.286960 -0.472733 -0.050614
0.286960 -0.135763 -0.472466
0.286960 -0.060626 -0.453167
0.286960 0.070871 -0.465689
0.286960 -0.326185 -0.304915
0.286960 0.150710 -0.427866
0.286960 0.017186 -0.462289
0.286960 0.470416 0.065555
0.286960 -0.465010 -0.072767
0.286960 -0.254537 -0.377482
0.286960 -0.455491 0.153696
0.286960 0.049132 -0.497324
0.286960 -0.239961 0.380879
0.286960 -0.453099 0.105395
0.286960 -0.432309 0.153283
0.286960 0.415618 -0.171644
0.286960 0.443778 -0.060873
0.286960 -0.480322 -0.129573
0.286960 0.238386 -0.387016
0.286960 -0.211522 -0.451680
0.286960 0.461545 -0.051114
0.286960 0.425839 0.203436
0.286960 0.395915 0.226008
0.286960 0.379857 -0.236917
0.286960 -0.348141 -0.351038
0.286960 0.234563 0.390343
0.286960 -0.024872 -0.455097
0.286960 0.460427 0.160161
0.286960 0.383360 -0.318665
0.286960 0.207105 -0.397200
0.286960 0.207834 -0.415494
0.286960 -0.449868 0.122848
0.286960 -0.369360 -0.261571
0.286960 0.457071 -0.100785
0.286960 0.161216 0.437146
0.286960 -0.441680 -0.223149
0.286960 -0.432836 -0.203857
0.286960 -0.286659 -0.401704
0.286960 -0.248103 0.424416
0.286960 0.480412 0.099751
0.286960 0.138471 0.427787
0.286960 0.408325 0.273206
0.286960 0.221526 0.432296
0.286960 0.480380 0.066761
0.286960 0.135071 -0.458639
0.286960 -0.251894 0.392811
0.286960 0.456342 -0.137604
0.286960 0.416712 0.191790
0.286960 -0.105639 -0.435610
0.286960 0.390821 0.305838
0.286960 -0.386905 -0.224907
0.286960 -0.350473 0.305131
0.286960 0.349200 0.349118
0.286960 0.164708 0.437065
0.286960 0.468153 0.160813
0.286960 -0.228949 -0.422909
0.286960 -0.482824 0.080221
0.286960 0.438929 0.093788
0.286960 -0.462023 0.030162
0.286960 0.238785 0.410169
0.286960 0.341382 -0.331178
0.286960 0.438746 0.156967
0.286960 0.321644 -0.311041
0.286960 -0.436651 0.236173
0.286960 -0.384814 0.263838
0.286960 -0.257429 -0.370675
0.286960 0.466043 -0.163351
0.286960 0.117385 0.465013
0.286960 -0.417728 0.193246
0.286960 -0.251088 0.403522
0.286960 -0.358664 0.331404
0.286960 -0.424118 -0.231709
0.286960 0.387495 -0.253457
0.286960 0.079002 0.466092
0.286960 -0.446832 0.157123
0.286960 0.148702 0.424861
0.286960 0.003383 0.462880
0.286960 -0.405143 0.181830
0.286960 -0.453170 -0.117533
0.286960 -0.298785 0.374087
0.286960 -0.444002 0.033010
0.286960 0.454314 -0.125742
0.286960 -0.318313 0.370950
0.286960 -0.341353 0.311668
0.286960 0.185082 0.450836
0.286960 0.446629 0.045317
0.286960 -0.273100 -0.368019
0.286960 -0.007219 0.446823
0.286960 0.409964 0.247704
0.286960 -0.284692 -0.397922
0.286960 -0.230975 0.423879
0.286960 0.040813 -0.498107
0.286960 -0.484995 0.010743
0.286960 0.155281 0.451264
0.286960 -0.352576 -0.298035
0.286960 0.441217 0.168488
0.286960 0.378489 0.263132
0.286960 0.211835 -0.423013
0.286960 0.295481 0.338080
0.286960 0.180504 0.446653
0.286960 0.458594 -0.013643
0.286960 0.145710 0.427660
0.286960 -0.385101 0.279288
0.286960 -0.003613 0.490181
0.286960 -0.404088 -0.223327
0.286960 -0.084530 0.435327
0.286960 -0.225589 0.434257
0.286960 -0.288552 -0.380194
0.286960 -0.407656 -0.278367
0.286960 0.264800 -0.382814
0.286960 -0.293870 -0.360366
0.286960 0.057737 0.477225
0.286960 -0.463467 -0.098132
0.286960 -0.450287 0.010082
0.286960 0.295236 0.378856
0.286960 -0.088533 0.456272
0.286960 -0.479705 -0.005630
0.286960 -0.217812 0.409346
0.286960 0.421471 0.150690
0.286960 0.462092 -0.138118
0.286960 -0.077538 -0.467259
0.286960 0.194509 0.447093
0.286960 0.242200 -0.384202
0.286960 -0.483661 0.007413
0.286960 0.268666 0.362384
0.286960 0.237356 0.398227
0.286960 0.250155 -0.397773
0.286960 -0.139498 0.473044
0.286960 -0.309534 0.375856
0.286960 0.249174 0.368200
0.286960 0.061525 0.448397
0.286960 0.421051 0.154816
0.286960 0.474763 0.040183
0.286960 -0.165306 -0.447439
0.286960 -0.233127 0.410225
0.286960 -0.389294 -0.242716
0.286960 -0.329900 0.364457
0.286960 0.447730 -0.128246
0.286960 0.155659 -0.432624
0.286960 0.251198 -0.384400
0.286960 0.161751 -0.436674
0.286960 0.485897 0.016481
0.286960 0.050941 0.444202
0.286960 -0.252359 -0.375314
0.286960 0.380180 -0.253474
0.286960 0.357903 -0.280716
0.286960 -0.396307 -0.236798
0.286960 0.347374 -0.293282
0.286960 0.038402 0.444876
0.286960 0.453809 -0.198659
0.286960 -0.475401 0.038118
0.286960 -0.467182 0.083112
0.286960 0.300600 0.348410
0.286960 -0.129312 -0.431530
0.286960 0.103987 0.458038
0.286960 0.451907 -0.161458
0.286960 -0.332622 0.351016
0.286960 -0.137878 0.476095
0.286960 0.379516 -0.324899
0.286960 -0.430685 0.234511
0.286960 -0.192484 -0.416772
0.286960 -0.035336 0.450210
0.286960 -0.005304 -0.484070
0.286960 0.487648 -0.031472
0.286960 0.456830 -0.046737
0.286960 -0.000227 -0.452097
0.286960 -0.295815 0.392135
0.286960 -0.406760 -0.213667
0.286960 -0.018763 -0.482463
0.286960 -0.454795 -0.143695
0.286960 -0.350816 -0.323852
0.286960 -0.004603 0.443923
0.286960 -0.227652 -0.436665
0.286960 -0.423972 -0.220933
0.286960 -0.444877 0.195112
0.286960 -0.269643 0.408849
0.286960 -0.268591 0.414736
0.286960 0.286650 -0.386050
0.286960 0.452536 -0.087367
0.286960 0.147028 -0.424006
0.286960 0.009969 -0.492221
0.286960 -0.393655 0.286813
0.286960 0.461143 -0.020672
0.286960 -0.321579 -0.353691
0.286960 -0.487884 -0.044238
0.286960 -0.449599 -0.159669
0.286960 0.347813 0.343569
0.286960 -0.447447 -0.030571
0.286960 -0.345856 0.299810
0.286960 -0.394986 -0.253026
0.286960 -0.367315 0.250087
0.286960 -0.401877 0.261733
0.286960 -0.132855 -0.470189
0.286960 0.357451 0.309912
0.286960 0.151452 0.431628
0.286960 -0.053347 -0.468599
0.286960 0.166079 -0.441294
0.286960 0.334938 -0.334402
0.286960 0.367704 0.268351
0.286960 -0.293144 0.381091
0.286960 0.395503 0.239594
0.286960 0.260013 0.372841
0.286960 0.484870 0.065274
0.286960 0.072854 -0.478132
0.286960 0.251613 -0.403302
0.286960 -0.342841 -0.324559
0.286960 -0.103038 0.449637
0.286960 0.314248 -0.324653
0.286960 -0.390261 -0.274923
0.286960 0.203411 -0.419799
0.286960 -0.452137 0.178035
0.286960 0.212212 0.400324
0.286960 0.196286 -0.449600
0.286960 0.206183 0.395265
0.286960 0.347633 -0.338335
0.286960 0.090923 0.448394
0.286960 0.092529 -0.461399
0.286960 0.382897 -0.302636
0.286960 0.478229 -0.010686
0.286960 -0.442051 -0.151602
0.286960 0.346343 0.347413
0.286960 0.433547 0.212852
0.286960 0.456400 0.006375
0.286960 0.446987 -0.008230
0.286960 0.437335 0.168350
0.286960 -0.416319 -0.240310
0.286960 -0.098678 0.466657
0.286960 0.472556 0.097882
0.286960 -0.184834 -0.417048
0.286960 -0.310372 -0.375187
0.286960 0.158319 -0.459825
0.286960 0.203115 -0.423951
0.286960 0.433594 -0.111052
0.286960 -0.182987 0.445899
0.286960 -0.437005 0.200574
0.286960 0.015762 0.477813
0.286960 0.448991 -0.162939
0.286960 0.398529 0.205625
0.286960 0.446144 -0.160427
0.286960 0.113339 0.428994
0.286960 -0.189056 -0.457784
0.286960 -0.466318 -0.011969
0.286960 -0.440710 0.198551
0.286960 -0.150018 0.457436
0.286960 -0.101957 -0.445533
0.286960 0.468836 -0.166241
0.286960 0.182880 0.404224
0.286960 0.463405 0.017843
0.286960 0.197841 0.446052
0.286960 -0.238701 0.395099
0.286960 0.080167 0.462977
0.286960 0.314628 0.325958
0.286960 0.158516 0.453050
0.286960 -0.213880 -0.404965
0.286960 -0.480942 -0.122524
0.286960 -0.325773 -0.324996
0.286960 0.215424 -0.400292
0.286960 -0.481187 -0.082103
0.286960 0.341801 -0.352884
0.286960 0.387585 -0.259692
0.286960 -0.496360 -0.020289
0.286960 -0.081199 -0.440880
0.286960 0.268991 0.396427
0.286960 -0.257729 -0.416462
0.286960 0.060030 0.483491
0.286960 0.411383 -0.189010
0.286960 -0.114270 0.476181
0.286960 0.491745 -0.002220
0.286960 -0.383000 0.315274
0.286960 -0.427265 -0.173675
0.286960 0.304688 -0.379420
0.286960 0.445436 -0.069872
0.286960 -0.471413 0.130034
0.286960 0.331961 -0.300784
0.286960 0.097558 0.469333
0.286960 0.066751 0.439702
0.286960 0.462433 -0.042715
0.286960 -0.490214 -0.085412
0.286960 -0.178043 0.406987
0.286960 -0.276152 -0.362289
0.286960 -0.073242 -0.457805
0.286960 0.182394 0.425074
0.286960 -0.398340 -0.268978
0.286960 -0.439384 0.175070
0.286960 -0.040851 0.459284
0.286960 -0.359133 -0.315335
0.286960 -0.459196 0.010844
0.286960 0.058066 -0.480312
0.286960 -0.445372 0.118436
0.286960 -0.210786 -0.409333
0.286960 0.094712 -0.472823
0.286960 0.020360 0.483527
0.286960 -0.055579 -0.464238
0.286960 -0.427025 -0.139200
0.286960 0.474771 0.009383
0.286960 -0.450904 -0.090238
0.286960 0.305037 -0.357430
0.286960 -0.108099 -0.443445
0.286960 0.406876 0.238662
0.286960 -0.410215 -0.248391
0.286960 0.401262 0.273006
0.286960 -0.155783 -0.440322
0.286960 -0.224526 0.409666
0.286960 -0.090863 0.461452
0.286960 0.359342 0.293047
0.286960 0.342895 -0.317643
0.286960 0.478370 -0.001334
0.286960 -0.015133 -0.498473
0.286960 -0.377862 -0.276523
0.286960 0.443227 0.064058
0.286960 -0.092227 0.479554
0.286960 0.187511 0.446900
0.286960 -0.317763 -0.370699
0.286960 0.443747 -0.129406
0.286960 0.416301 -0.236034
0.286960 0.486028 -0.042844
0.286960 0.472775 0.013287
0.286960 0.062183 -0.496366
0.286960 -0.154176 -0.451138
0.286960 0.391541 -0.216334
0.286960 0.448445 -0.133750
0.286960 -0.182416 0.449870
0.286960 0.251944 -0.388592
0.286960 -0.168267 0.424044
0.286960 0.490995 -0.045268
0.286960 0.401361 -0.258053
0.286960 -0.052083 -0.488876
0.286960 -0.452160 0.024001
0.286960 -0.171892 -0.417480
0.286960 -0.304674 -0.368916
0.286960 0.227271 0.398416
0.286960 0.045615 0.493675
0.286960 0.245350 -0.435255
0.286960 -0.415387 0.247772
0.286960 -0.427721 -0.124799
0.286960 -0.134472 0.438469
0.286960 -0.461354 0.013465
0.286960 0.303606 -0.369276
0.286960 -0.111705 0.482194
0.286960 -0.302781 0.367220
0.286960 0.400119 0.196121
0.286960 -0.410309 0.202729
0.286960 -0.375307 0.323810
0.286960 -0.427887 -0.200504
0.286960 0.466507 -0.058194
0.286960 -0.476491 -0.056238
0.286960 0.416937 -0.261150
0.286960 0.034348 0.469628
0.286960 -0.040181 0.475136
0.286960 0.332054 0.336970
0.286960 0.472072 0.094584
0.286960 0.444717 -0.089320
0.286960 -0.435755 -0.152051
0.286960 -0.387908 -0.253677
0.286960 -0.386653 -0.249310
0.286960 -0.224753 0.399099
0.286960 -0.203659 0.403107
0.286960 0.313302 0.354430
0.286960 -0.029591 -0.452638
0.286960 0.320443 0.310182
0.286960 0.180306 0.460784
0.286960 -0.284657 0.364070
0.286960 -0.227913 -0.440007
0.286960 -0.194214 0.413109
0.286960 -0.225294 0.441466
0.286960 -0.386241 0.240266
0.286960 0.438522 0.118968
0.286960 0.070178 -0.450268
0.286960 0.291386 0.381078
0.286960 0.485771 -0.085193
0.286960 0.375289 -0.271067
0.286960 0.190142 -0.411980
0.286960 0.029556 -0.448038
0.286960 0.449637 0.016707
0.286960 -0.497066 -0.013990
0.286960 -0.474269 -0.136434
0.286960 -0.336929 -0.353136
0.286960 -0.261712 0.364132
0.286960 0.365763 0.256728
0.286960 0.367525 0.328998
0.286960 0.183483 0.416572
0.286960 -0.419419 0.147627
0.286960 -0.270212 -0.356035
0.286960 -0.115820 -0.440349
0.286960 0.149102 0.446779
0.286960 -0.447379 0.032458
0.286960 -0.255386 -0.381136
0.286960 -0.450561 0.129348
0.286960 -0.446115 0.051378
0.286960 -0.476525 -0.077475
0.286960 -0.446274 0.045791
0.286960 -0.262743 -0.412702
0.286960 -0.445417 0.088960
0.286960 0.316514 0.322780
0.286960 0.120558 0.434008
0.286960 0.368018 0.312586
0.286960 -0.435021 0.213860
0.286960 -0.318894 -0.313561
0.286960 0.123410 0.431262
0.286960 -0.132901 0.422776
0.286960 -0.471641 -0.128815
0.286960 -0.181741 0.429064
0.286960 -0.381293 -0.320803
0.286960 -0.131696 0.452971
0.286960 -0.458928 0.156055
0.286960 -0.355625 -0.272992
0.286960 -0.433276 0.099402
0.286960 -0.388942 -0.237513
0.286960 -0.372742 -0.245440
0.286960 0.462017 0.009476
0.286960 0.432612 -0.117374
0.286960 -0.429132 0.189361
0.286960 0.322226 0.336791
0.286960 0.460637 -0.033569
0.286960 -0.184209 -0.437654
0.286960 0.051009 -0.457227
0.286960 -0.468431 -0.057775
0.286960 0.206685 -0.444229
0.286960 -0.247425 -0.431250
0.286960 0.250390 -0.416022
0.286960 0.090860 0.439903
0.286960 0.385161 0.237001
0.286960 -0.448951 0.176127
0.286960 -0.442538 -0.080969
0.286960 -0.037460 -0.494464
0.286960 -0.128821 -0.469818
0.286960 -0.348064 0.328336
0.286960 0.439018 -0.210888
0.286960 -0.427013 -0.205721
0.286960 -0.337031 0.305486
0.286960 -0.422834 -0.162842
0.286960 -0.381367 -0.288505
0.286960 0.254393 -0.414979
0.286960 0.053011 0.453263
0.286960 0.287849 0.350724
0.286960 -0.201827 -0.436063
0.286960 -0.157828 -0.450017
0.286960 -0.492513 -0.065560
0.286960 0.497291 0.023896
0.286960 0.455921 -0.170995
0.286960 0.135986 -0.433436
0.286960 0.123469 0.443171
0.286960 -0.390018 -0.301285
0.286960 0.248278 0.387112
0.286960 0.061139 0.488809
0.286960 0.192041 0.419108
0.286960 -0.223126 -0.422380
0.286960 -0.021879 -0.484569
0.286960 -0.480758 -0.042280
0.286960 -0.354615 0.314764
0.286960 0.467138 0.149033
0.286960 0.456470 -0.097391
0.286960 -0.416095 0.155627
0.286960 0.380084 0.256769
0.286960 0.131598 0.466839
0.286960 -0.037062 0.462139
0.286960 0.215102 -0.419611
0.286960 0.327789 -0.365268
0.286960 -0.423342 -0.139215
0.286960 -0.283821 0.345393
0.286960 -0.369340 -0.325855
0.286960 0.429209 -0.148846
0.286960 0.450660 0.132701
0.286960 -0.391997 0.302489
0.286960 0.444863 0.089381
0.286960 0.327434 -0.333696
0.286960 0.112529 0.445675
0.286960 -0.345243 0.336406
0.286960 -0.038358 -0.464676
0.286960 -0.335517 0.349054
0.286960 0.238175 -0.383572
0.286960 0.030046 -0.495711
0.286960 -0.018087 0.485004
0.286960 -0.478810 0.107773
0.286960 -0.461121 0.057330
0.286960 -0.167199 -0.433523
0.286960 -0.150955 0.461424
0.286960 0.278346 0.386995
0.286960 0.420977 0.144325
0.286960 0.221748 -0.421650
0.286960 0.244487 0.380247
0.286960 -0.188358 0.436181
0.286960 -0.336865 -0.310594
0.286960 0.070229 -0.482252
0.286960 0.335822 -0.368486
0.286960 0.192401 -0.445358
0.286960 0.164980 -0.417712
0.286960 -0.294097 0.339551
0.286960 0.370928 -0.263220
0.286960 -0.335960 0.302654
0.286960 0.044655 -0.467178
0.286960 0.257380 0.367446
0.286960 0.456426 0.067561
0.286960 0.442581 -0.137444
0.286960 0.483932 0.114351
0.286960 -0.317124 -0.316278
0.286960 -0.183107 0.460616
0.286960 -0.092308 -0.460440
0.286960 0.136382 0.468920
0.286960 -0.179846 -0.434492
0.286960 0.403906 -0.192731
0.286960 0.452912 -0.136104
0.286960 0.314743 0.363327
0.286960 0.152088 -0.430978
0.286960 0.325050 0.374578
0.286960 0.451207 -0.115065
0.286960 0.041382 0.476714
0.286960 -0.324854 -0.378490
0.286960 0.277878 -0.414371
0.286960 -0.443554 -0.188131
0.286960 -0.178931 0.453651
0.286960 0.450922 -0.189441
0.286960 -0.178117 -0.454380
0.286960 -0.491689 -0.036578
0.286960 -0.280753 -0.404882
0.286960 -0.305941 0.382363
0.286960 0.106188 -0.483341
0.286960 -0.000025 0.447839
0.286960 0.462410 0.021175
0.286960 -0.422669 -0.240508
0.286960 0.391973 -0.285134
0.286960 0.183449 -0.459138
0.286960 0.365453 0.326688
0.286960 0.465227 -0.093587
0.286960 -0.023475 0.469480
0.286960 -0.036440 0.454011
0.286960 0.213292 0.412396
0.286960 0.434292 0.121705
0.286960 -0.018793 0.479620
0.286960 0.447169 0.085499
0.286960 -0.434534 -0.169920
0.286960 0.485763 -0.049713
0.286960 0.444548 0.146244
0.286960 -0.121678 -0.460319
0.286960 -0.047342 0.470183
0.286960 0.466684 0.065385
0.286960 0.337292 -0.295030
0.286960 0.112013 -0.434155
0.286960 0.188363 -0.406138
0.286960 0.195035 -0.428112
0.286960 0.159276 0.422856
0.286960 0.169204 0.410278
0.286960 -0.448917 -0.011825
0.286960 -0.226130 -0.424534
0.286960 -0.303846 0.385158
0.286960 -0.439562 -0.140311
0.286960 -0.004471 -0.453529
0.286960 -0.423059 -0.156396
0.286960 0.081843 0.486514
0.286960 0.075759 0.457715
0.286960 -0.417953 -0.199762
0.286960 -0.092346 -0.475794
0.286960 0.392730 -0.264537
0.286960 -0.357834 -0.322434
0.286960 0.354077 -0.273293
0.286960 -0.485836 -0.012004
0.286960 0.011028 -0.472521
0.286960 0.405492 -0.245119
0.286960 0.464070 -0.055085
0.286960 0.489864 -0.041966
0.286960 -0.276644 -0.352283
0.286960 -0.353998 -0.280779
0.286960 0.189294 -0.446537
0.286960 0.275239 0.357459
0.286960 -0.244994 0.426973
0.286960 -0.393188 -0.242254
0.286960 -0.301921 -0.329208
0.286960 -0.366504 0.276172
0.286960 0.213848 0.445430
0.286960 0.422520 -0.188943
0.286960 0.424733 0.199439
0.286960 -0.145401 0.464743
0.286960 -0.083575 -0.457222
0.286960 -0.475546 -0.126030
0.286960 0.100642 0.439770
0.286960 0.190594 0.446268
0.286960 -0.253502 0.416321
0.286960 0.491202 -0.048674
0.286960 -0.168194 -0.461471
0.286960 0.216991 0.405037
0.286960 0.106081 -0.488059
0.286960 -0.450259 0.208322
0.286960 -0.019668 0.457377
0.286960 -0.376612 0.293843
0.286960 0.445632 -0.034963
0.286960 -0.416311 0.211335
0.286960 0.448394 -0.145411
0.286960 0.051764 -0.488112
0.286960 -0.125091 -0.430352
0.286960 -0.220864 -0.413446
0.286960 0.023143 -0.466015
0.286960 -0.419550 -0.187487
0.286960 -0.445082 0.175797
0.286960 0.390486 -0.240330
0.286960 0.000188 0.487013
0.286960 0.391609 0.249605
0.286960 -0.028613 0.452332
0.286960 0.399522 0.293541
0.286960 0.367732 -0.303332
0.286960 0.131432 0.462566
0.286960 0.306072 -0.364383
0.286960 0.413830 0.179728
0.286960 0.041534 0.469098
0.286960 -0.230737 -0.389552
0.286960 -0.305759 -0.339864
0.286960 0.146359 0.442086
0.286960 0.481306 0.025154
0.286960 -0.391134 0.265501
0.286960 -0.209153 0.449200
0.286960 -0.443874 -0.038900
0.286960 0.304384 -0.390098
0.286960 0.366337 -0.296742
0.286960 0.418553 -0.215516
0.286960 -0.133909 0.456213
0.286960 -0.061906 -0.457856
0.286960 0.484326 -0.046788
0.286960 0.403259 -0.221786
0.286960 -0.468553 -0.127716
0.286960 0.388376 -0.246512
0.286960 -0.227645 0.436839
0.286960 -0.452000 0.205594
0.286960 -0.378245 0.321292
0.286960 -0.425982 0.141691
0.286960 -0.444724 0.126696
0.286960 -0.453906 -0.203789
0.286960 -0.199649 -0.425551
0.286960 0.307950 -0.331336
0.286960 0.089312 -0.486751
0.286960 0.325634 0.331967
0.286960 0.443478 -0.047169
0.286960 0.456783 -0.151509
0.286960 0.420837 -0.245219
0.286960 -0.205319 0.400404
0.286960 -0.305422 -0.388015
0.286960 -0.162494 0.421327
0.286960 0.470090 0.044072
0.286960 -0.390925 -0.239961
0.286960 -0.000439 0.470040
0.286960 -0.251803 -0.385570
0.286960 -0.393902 0.225497
0.286960 -0.250433 -0.413715
0.286960 0.446785 -0.139631
0.286960 0.353525 -0.324068
0.286960 -0.028188 0.476277
0.286960 -0.476872 0.048821
0.286960 -0.471132 0.115915
0.286960 -0.458688 -0.037094
0.286960 0.333278 0.328262
0.286960 0.418403 -0.233217
0.286960 0.328790 0.310964
0.286960 -0.202537 0.441829
0.286960 0.436578 0.204742
0.286960 0.345815 0.297534
0.286960 -0.348044 -0.346606
0.286960 -0.453832 0.101787
0.286960 -0.462999 -0.066142
0.286960 0.220268 -0.424686
0.286960 0.252524 0.412392
0.286960 0.396656 -0.303664
0.286960 0.229090 0.411001
0.286960 0.384600 -0.272031
0.286960 -0.452308 -0.171832
0.286960 0.221445 0.404310
0.286960 0.368421 0.286931
0.286960 0.468389 -0.020731
0.286960 -0.358671 -0.325357
0.286960 -0.137472 0.454334
0.286960 0.099851 -0.445668
0.286960 -0.117549 0.458693
0.286960 -0.318550 0.366940
0.286960 -0.024316 0.485206
0.286960 0.430863 -0.215244
0.286960 -0.125465 0.456231
0.286960 0.428771 0.207765
0.286960 -0.153728 0.436052
0.286960 -0.094678 0.467068
0.286960 0.294675 0.399058
0.286960 0.424792 -0.182236
0.286960 0.232150 0.395999
0.286960 0.086835 0.435422
0.286960 0.395197 0.216032
0.286960 0.285718 -0.344504
0.286960 -0.270748 0.386179
0.286960 -0.416731 -0.214086
0.286960 -0.435121 -0.210759
0.286960 0.464951 0.036595
0.286960 0.463480 -0.147086
0.286960 -0.142563 -0.453146
0.286960 -0.037834 0.492265
0.286960 0.019577 -0.481560
0.286960 0.195624 -0.441321
0.286960 -0.416904 0.163705
0.286960 -0.243678 0.373080
0.286960 0.184657 -0.421251
0.286960 -0.440327 -0.102385
0.286960 0.067014 -0.452122
0.286960 -0.135635 0.446937
0.286960 0.343138 0.326609
0.286960 -0.256531 -0.398641
0.286960 -0.343374 -0.308187
0.286960 0.384028 0.249294
0.286960 -0.373486 -0.257246
0.286960 -0.314641 0.343219
0.286960 0.433818 0.202758
0.286960 0.076779 0.489713
0.286960 0.037463 -0.465234
0.286960 -0.373309 -0.283221
0.286960 0.340662 0.360094
0.286960 0.465214 0.090215
0.286960 -0.487425 -0.092516
0.286960 -0.423148 -0.180029
0.286960 -0.143645 0.458584
0.286960 -0.451437 0.097334
0.286960 0.179564 -0.430958
0.286960 0.234271 -0.414494
0.286960 -0.082353 -0.450785
0.286960 0.057267 0.461716
0.286960 0.196997 0.412853
0.286960 0.379079 0.320168
0.286960 -0.368777 -0.318367
0.286960 0.315022 -0.334738
0.286960 0.273038 -0.375863
0.286960 -0.042974 -0.446387
0.286960 -0.464748 0.169435
0.286960 -0.416632 -0.272583
0.286960 -0.385831 0.298942
0.286960 0.159418 -0.428726
0.286960 -0.120666 0.450163
0.286960 0.237199 0.376134
0.286960 0.464449 0.001550
0.286960 -0.146594 0.456934
0.286960 -0.111232 0.467497
0.286960 -0.057147 -0.469484
0.286960 0.024003 0.473077
0.286960 -0.350007 -0.303819
0.286960 0.266068 0.397785
0.286960 -0.384530 0.258253
0.286960 0.427744 -0.203266
0.286960 -0.476231 -0.073330
0.286960 0.400893 0.260661
0.286960 0.453273 -0.150832
0.286960 0.057360 -0.458906
0.286960 0.447247 -0.058431
0.286960 -0.369862 0.282745
0.286960 0.045635 0.486242
0.286960 0.460024 0.056509
0.286960 0.234221 0.428035
0.286960 0.349645 0.335507
0.286960 0.068609 0.447884
0.286960 -0.425123 0.202960
0.286960 0.447554 -0.002985
0.286960 0.372292 -0.325013
0.286960 -0.362510 0.331092
0.286960 -0.348571 0.311949
0.286960 -0.466690 0.073729
0.286960 -0.477092 0.012054
0.286960 -0.222490 0.391649
0.286960 0.072866 0.464740
0.286960 -0.145203 -0.423529
0.286960 0.459715 -0.120712
0.286960 0.246793 -0.388843
0.286960 -0.227970 -0.401964
0.286960 0.209480 -0.431533
0.286960 -0.465252 0.054738
0.286960 -0.464769 0.092670
0.286960 0.151725 0.471327
0.286960 0.404792 -0.226159
0.286960 0.377184 0.323100
0.286960 -0.308656 -0.337921
0.286960 -0.439070 0.221866
0.286960 -0.123709 0.432125
0.286960 0.426002 -0.260794
0.286960 0.422494 0.224617
0.286960 -0.154193 0.454474
0.286960 -0.478588 0.044159
0.286960 0.411992 -0.257161
0.286960 0.458437 0.047282
0.286960 -0.237067 0.383058
0.286960 0.299149 -0.371570
0.286960 -0.181880 -0.441093
0.286960 0.222116 0.395017
0.286960 0.269905 -0.385357
0.286960 0.005760 -0.499327
0.286960 -0.445364 -0.027411
0.286960 -0.443004 -0.160619
0.286960 0.031436 0.490829
0.286960 -0.439201 0.142443
0.286960 0.422001 0.221463
0.286960 -0.301096 -0.395586
0.286960 -0.212747 -0.417606
0.286960 -0.448521 0.163436
0.286960 0.439159 0.080000
0.286960 0.029101 0.449986
0.286960 -0.342289 0.322911
0.286960 0.217173 0.410763
0.286960 0.426040 -0.177018
0.286960 -0.459207 0.003263
0.286960 -0.265335 -0.377808
0.286960 -0.366082 0.331809
0.286960 -0.444205 -0.214410
0.286960 -0.371243 0.288022
0.286960 0.307993 -0.388254
0.286960 0.192904 0.408925
0.286960 -0.445151 -0.022691
0.286960 0.471490 -0.038652
0.286960 0.208371 0.442561
0.286960 0.407116 0.180796
0.286960 -0.139502 -0.437391
0.286960 0.421954 0.251632
0.286960 -0.047724 -0.493785
0.286960 0.314428 0.334051
0.286960 -0.268051 -0.382614
0.286960 -0.268934 -0.379202
0.286960 -0.171614 0.445277
0.286960 -0.058897 -0.488377
0.286960 0.106654 0.430589
0.286960 -0.309289 0.383612
0.286960 0.410171 0.264411
0.286960 -0.484827 0.054708
0.286960 0.484989 0.020555
0.286960 -0.407260 -0.250398
0.286960 -0.326063 -0.374218
0.286960 -0.477730 -0.140679
0.286960 0.379137 0.233704
0.286960 0.390968 0.266894
0.286960 0.448447 0.096684
0.286960 -0.396689 -0.255801
0.286960 0.388803 0.242551
0.286960 -0.278697 -0.368425
0.286960 0.084538 -0.444878
0.286960 0.432630 -0.168981
0.286960 -0.186227 0.405761
0.286960 -0.211863 0.447017
0.286960 0.029612 -0.453760
0.286960 -0.450740 0.190317
0.286960 -0.375595 0.311038
0.286960 -0.411724 -0.254360
0.286960 0.129166 -0.475796
0.286960 -0.356367 -0.336314
0.286960 0.475258 0.050910
0.286960 -0.439524 -0.070510
0.286960 0.356537 -0.303885
0.286960 0.397857 0.219675
0.286960 -0.426715 -0.243508
0.286960 0.420885 0.178017
0.286960 0.258343 0.408814
0.286960 -0.368136 -0.285786
0.286960 -0.326285 0.313723
0.286960 -0.312517 -0.370937
0.286960 0.168322 0.463011
0.286960 0.343728 0.357983
0.286960 0.189805 0.430965
0.286960 0.139956 -0.432884
0.286960 0.434091 0.242595
0.286960 -0.252726 -0.370095
0.286960 0.347998 -0.308858
0.286960 -0.436381 0.169057
0.286960 0.222162 -0.408651
0.286960 -0.381008 -0.296133
0.286960 0.296583 -0.364080
0.286960 -0.417726 -0.256070
0.286960 -0.025502 0.459515
0.286960 -0.443089 -0.206249
0.286960 -0.296426 0.379757
0.286960 0.341182 -0.364262
0.286960 0.350361 0.295150
0.286960 -0.468108 0.159576
0.286960 0.375070 0.275899
0.286960 -0.435700 -0.239623
0.286960 0.435405 0.161053
0.286960 -0.429986 -0.151564
0.286960 0.380544 -0.278707
0.286960 0.445713 0.220787
0.286960 0.456780 0.015449
0.286960 0.382875 0.269564
0.286960 -0.258732 -0.390362
0.286960 -0.206440 0.417421
0.286960 -0.388098 0.264958
0.286960 -0.178322 0.429989
0.286960 0.432018 -0.129646
0.286960 -0.262665 -0.389554
0.286960 -0.315152 0.324024
0.286960 0.069942 -0.469764
0.286960 -0.004902 0.461063
0.286960 -0.492953 -0.006071
0.286960 -0.139412 -0.478592
0.286960 0.325808 0.339723
0.286960 -0.433396 0.195643
0.286960 -0.412032 -0.202870
0.286960 0.044510 0.442937
0.286960 -0.438625 -0.183815
0.286960 0.258443 0.423659
0.286960 0.351127 0.342506
0.286960 0.228009 0.401790
0.286960 -0.093834 0.458310
0.286960 -0.013541 -0.448103
0.286960 0.271523 0.374362
0.286960 0.406850 0.201725
0.286960 -0.189885 0.449755
0.286960 -0.290310 0.341915
0.286960 -0.417736 -0.264298
0.286960 -0.410898 -0.195817
0.286960 -0.164948 0.439469
0.286960 -0.107121 0.460135
0.286960 0.006051 -0.479461
0.286960 0.165268 0.467461
0.286960 -0.413545 -0.170762
0.286960 -0.301202 0.325959
0.286960 -0.339535 -0.289804
0.286960 -0.150572 0.419801
0.286960 0.300427 0.333753
0.286960 0.001265 0.474856
0.286960 0.231628 -0.401350
0.286960 -0.460959 -0.080701
0.286960 -0.486375 0.014590
0.286960 -0.063563 -0.449101
0.286960 0.136858 0.453705
0.286960 0.484044 -0.038221
0.286960 -0.396208 -0.214909
0.286960 -0.089272 0.452426
0.286960 0.052528 0.456886
0.286960 0.459237 -0.132435
0.286960 -0.481030 -0.078558
0.286960 0.052856 0.462928
0.286960 0.484797 -0.092051
0.286960 0.452418 0.076711
0.286960 -0.121897 0.472936
0.286960 -0.011989 0.470348
0.286960 -0.072994 -0.478211
0.286960 -0.348974 -0.292423
0.286960 -0.477303 -0.098626
0.286960 0.403016 -0.199813
0.286960 -0.237947 -0.413471
0.286960 0.451052 0.080008
0.286960 0.494886 -0.001042
0.286960 -0.483802 -0.031750
0.286960 -0.257632 -0.383619
0.286960 -0.019018 -0.499431
0.286960 -0.483948 -0.035912
0.286960 0.319220 0.338068
0.286960 -0.437999 0.194620
0.286960 -0.420100 -0.202553
0.286960 0.474282 0.031651
0.286960 0.227022 0.407796
0.286960 -0.035031 -0.483988
0.286960 -0.209482 -0.399004
0.286960 -0.090262 -0.463040
0.286960 0.378407 0.245503
0.286960 -0.442083 0.051939
0.286960 0.015867 0.489246
0.286960 -0.476565 0.096321
0.286960 0.481514 -0.005609
0.286960 -0.332234 0.358674
0.286960 -0.460792 -0.060225
0.286960 -0.224801 -0.397736
0.286960 -0.472811 -0.040372
0.286960 -0.423444 0.164954
0.286960 -0.431566 0.136353
0.286960 0.075812 -0.494107
0.286960 -0.215936 0.416602
0.286960 0.201543 -0.428855
0.286960 0.472583 -0.014627
0.286960 0.219209 0.429602
0.286960 0.192506 -0.419425
0.286960 -0.446414 0.202822
0.286960 -0.139657 0.427141
0.286960 -0.217156 -0.418747
0.286960 0.161515 -0.417930
0.286960 0.393494 -0.274655
0.286960 0.110749 -0.439629
0.286960 -0.475411 0.051506
0.286960 0.181157 -0.424767
0.286960 -0.202869 0.406360
0.286960 -0.329456 -0.344149
0.286960 -0.394467 0.234255
0.286960 -0.251546 -0.421802
0.286960 0.441617 0.220384
0.286960 0.321563 0.350647
0.286960 0.289227 -0.358350
0.286960 0.275170 0.353973
0.286960 -0.119930 -0.451903
0.286960 0.051560 0.450108
0.286960 0.032155 -0.450784
0.286960 -0.320185 0.319766
0.286960 -0.430229 -0.143772
0.286960 -0.170738 0.452475
0.286960 -0.446336 0.166181
0.286960 0.290286 0.355683
0.286960 -0.236989 -0.382534
0.286960 -0.484855 -0.106258
0.286960 -0.359603 0.271453
0.286960 0.192973 0.452704
0.286960 -0.024613 -0.486375
0.286960 -0.150271 -0.450533
0.286960 -0.155942 -0.473652
0.286960 0.421125 0.263407
0.286960 0.082690 -0.478975
0.286960 -0.362662 -0.330669
0.286960 0.169316 0.424088
0.286960 0.104077 0.480235
0.286960 0.305675 -0.372679
0.286960 -0.199445 -0.456805
0.286960 0.466439 0.101670
0.286960 0.026558 -0.464825
0.286960 0.434354 0.109728
0.286960 -0.378083 0.286195
0.286960 0.155255 -0.454630
0.286960 0.273106 0.409805
0.286960 0.460220 0.163634
0.286960 -0.054329 0.456791
0.286960 0.212741 -0.431728
0.286960 0.288856 -0.403070
0.286960 -0.319945 -0.326948
0.286960 -0.447858 0.125210
0.286960 -0.431315 -0.172231
0.286960 0.432163 0.118503
0.286960 -0.372485 -0.318383
0.286960 0.365027 0.253559
0.286960 -0.416242 0.182501
0.286960 0.433052 0.171275
0.286960 0.446132 -0.116789
0.286960 -0.203354 -0.412890
0.286960 0.415998 -0.246420
0.286960 0.485960 -0.000159
0.286960 0.443860 0.041844
0.286960 -0.287163 0.395464
0.286960 0.148670 0.472939
0.286960 -0.075823 0.479205
0.286960 0.477259 -0.029143
0.286960 0.033435 -0.495058
0.286960 -0.399457 0.221234
0.286960 0.351610 -0.353788
0.286960 -0.430670 -0.223442
0.286960 0.056355 0.454974
0.286960 0.398632 -0.276438
0.286960 -0.267064 0.354868
0.286960 -0.460616 -0.048701
0.286960 0.453704 0.033496
0.286960 -0.254655 -0.392310
0.286960 -0.174329 0.449199
0.286960 -0.022255 0.481043
0.286960 -0.373716 0.245563
0.286960 0.318348 0.380815
0.286960 -0.480710 0.120870
0.286960 -0.245979 -0.383709
0.286960 -0.180830 0.405278
0.286960 0.152967 -0.424515
0.286960 -0.433736 -0.119663
0.286960 0.282473 0.374523
0.286960 0.360618 0.288318
0.286960 0.018399 0.442966
0.286960 0.200585 0.444157
0.286960 0.203470 0.427479
0.286960 -0.472882 -0.065134
0.286960 0.179710 0.423006
0.286960 0.315464 0.374667
0.286960 0.110763 0.457279
0.286960 0.156976 -0.469728
0.286960 -0.025521 -0.474265
0.286960 -0.298590 -0.337306
0.286960 -0.112091 -0.477273
0.286960 0.282942 -0.407505
0.286960 0.095673 -0.446493
0.286960 -0.226237 -0.418081
0.286960 0.196484 0.439763
0.286960 -0.285927 -0.367324
0.286960 -0.018406 0.451675
0.286960 0.409779 0.260441
0.286960 -0.479658 -0.058010
0.286960 0.444950 0.162041
0.286960 0.422567 0.196351
0.286960 -0.271835 0.399316
0.286960 -0.362880 -0.295809
0.286960 0.436288 0.113258
0.286960 -0.469817 -0.029465
0.286960 0.395452 -0.210271
0.286960 0.471287 0.100775
0.286960 -0.486855 -0.034102
0.286960 -0.470527 0.014885
0.286960 -0.282683 -0.368160
0.286960 0.170214 0.450258
0.286960 -0.080303 -0.469057
0.286960 -0.461335 0.139095
0.286960 0.472635 -0.021251
0.286960 0.125374 -0.472251
0.286960 -0.465169 -0.055793
0.286960 -0.018416 0.461062
0.286960 -0.007302 -0.498637
0.286960 0.465421 0.010203
0.286960 0.207802 0.412923
0.286960 -0.410820 0.266223
0.286960 -0.339465 -0.327068
0.286960 0.115899 -0.450471
0.286960 0.005943 0.466656
0.286960 -0.370193 -0.248912
0.286960 -0.275234 0.383186
0.286960 -0.453136 0.145296
0.286960 0.084969 -0.476319
0.286960 0.341158 -0.341727
0.286960 0.364656 0.323598
0.286960 0.496569 0.038515
0.286960 0.341688 -0.288793
0.286960 0.375235 -0.291044
0.286960 0.114441 0.442101
0.286960 -0.484385 0.049366
0.286960 -0.207790 -0.428974
0.286960 0.452430 -0.070129
0.286960 0.453745 0.064897
0.286960 0.029615 0.494461
0.286960 0.460912 -0.017032
0.286960 0.111575 0.476765
0.286960 0.201190 0.440439
0.286960 -0.417419 0.253831
0.286960 0.319867 -0.313879
0.286960 0.211350 0.448456
0.286960 -0.368802 0.279276
0.286960 0.432243 0.245747
0.286960 -0.423519 0.229231
0.286960 -0.489079 -0.013785
0.286960 0.395080 0.251271
0.286960 0.041078 0.465171
0.286960 0.124135 0.471033
0.286960 -0.452112 0.020651
0.286960 -0.415355 -0.167680
0.286960 0.100006 -0.436196
0.286960 -0.216658 0.406474
0.286960 0.467903 0.029232
0.286960 -0.320796 -0.368539
0.286960 -0.345742 -0.294035
0.286960 -0.451039 -0.036021
0.286960 -0.374072 -0.304288
0.286960 -0.467964 -0.009214
0.286960 -0.106953 0.470610
0.286960 -0.332637 0.362170
0.286960 -0.051534 0.473923
0.286960 -0.162226 -0.440909
0.286960 0.280010 -0.353790
0.286960 -0.351842 0.346473
0.286960 0.299520 0.378075
0.286960 -0.456173 0.041546
0.286960 0.010212 -0.468903
0.286960 0.435573 0.165771
0.286960 -0.380528 0.296078
0.286960 0.325091 -0.331587
0.286960 0.463083 0.033664
0.286960 -0.103745 -0.488672
0.286960 0.102279 0.450092
0.286960 0.354900 0.275269
0.286960 -0.414492 -0.190449
0.286960 0.465028 0.104888
0.286960 0.346702 0.340190
0.286960 0.011911 -0.499246
0.286960 -0.368980 -0.329590
0.286960 -0.102307 0.477492
0.286960 -0.339878 0.353150
0.286960 -0.427762 -0.165651
0.286960 0.497990 0.012937
0.286960 0.456345 0.057602
0.286960 -0.288920 0.388877
0.286960 0.420380 -0.208975
0.286960 0.428751 -0.132495
0.286960 0.019558 0.459511
0.286960 0.279191 0.403443
0.286960 -0.448866 0.086728
0.286960 0.083792 -0.448603
0.286960 -0.172339 0.463205
0.286960 -0.278496 -0.372103
0.286960 0.350269 -0.350828
0.286960 -0.462529 0.081840
0.286960 -0.365738 0.258080
0.286960 -0.425048 0.209160
0.286960 0.046531 -0.448353
0.286960 -0.233887 -0.412869
0.286960 0.354031 0.268932
0.286960 0.357984 0.269091
0.286960 0.287111 0.401610
0.286960 -0.343969 -0.351674
0.286960 0.101018 -0.489428
0.286960 -0.431130 -0.249158
0.286960 0.022960 -0.492843
0.286960 0.332590 0.311121
0.286960 -0.434745 0.156189
0.286960 -0.014027 0.451432
0.286960 0.023773 -0.478764
0.286960 -0.453730 -0.000152
0.286960 0.102676 0.462537
0.286960 0.241327 -0.402915
0.286960 0.063657 -0.461335
0.286960 -0.046935 0.448638
0.286960 0.454708 -0.016929
0.286960 -0.342403 -0.329135
0.286960 0.443272 0.177085
0.286960 -0.309201 -0.347646
0.286960 0.310481 -0.326608
0.286960 -0.351241 0.287866
0.286960 0.341825 -0.360457
0.286960 0.467379 0.138724
0.286960 0.379967 0.253356
0.286960 -0.282934 0.360941
0.286960 0.326055 -0.346279
0.286960 -0.359760 -0.335009
0.286960 -0.392189 -0.284426
0.286960 -0.293706 -0.363929
0.286960 -0.112210 0.442256
0.286960 0.042177 0.483682
0.286960 0.148617 0.469659
0.286960 -0.405185 -0.260820
0.286960 0.479241 -0.080589
0.286960 0.485872 -0.053108
0.286960 0.013076 0.468178
0.286960 -0.448731 0.029517
0.286960 -0.434568 0.118949
0.286960 0.262548 -0.417630
0.286960 -0.449066 0.181499
0.286960 0.258030 0.387344
0.286960 -0.174667 0.444498
0.286960 0.438382 -0.090179
0.286960 -0.407560 0.246704
0.286960 -0.473526 -0.083345
0.286960 -0.476071 -0.090407
0.286960 -0.178061 0.450371
0.286960 0.358771 0.327886
0.286960 -0.450314 -0.032844
0.286960 0.363161 0.273500
0.286960 0.133435 -0.431119
0.286960 -0.172507 -0.455847
0.286960 -0.006346 0.493053
0.286960 -0.347378 0.280530
0.286960 -0.166883 -0.457403
0.286960 0.418998 0.267597
0.286960 -0.304743 0.344734
0.286960 0.468279 -0.102439
0.286960 -0.125353 0.449200
0.286960 0.413989 0.245425
0.286960 0.485845 -0.035362
0.286960 0.481761 0.050993
0.286960 0.197047 0.454385
0.286960 0.395711 -0.255110
0.286960 -0.436887 0.136439
0.286960 -0.149842 0.449654
0.286960 -0.100618 0.463886
0.286960 0.325810 0.336170
0.286960 -0.298972 0.353018
0.286960 -0.465048 -0.179105
