0.267962 -0.430145 -0.115650
-0.250456 0.415232 0.160231
0.004128 -0.269952 -0.355836
0.166482 -0.197923 -0.400746
0.270745 -0.439025 0.068710
-0.097675 0.412719 -0.170655
0.202149 0.319737 0.308228
0.237838 0.049696 0.440374
-0.074440 -0.205048 -0.397115
0.194954 -0.185344 -0.406863
0.141810 0.445746 0.004242
0.241486 -0.349968 0.272386
0.281235 0.278125 -0.350291
-0.179491 -0.442146 0.045872
-0.175489 -0.393151 0.205886
-0.228456 0.232892 0.377640
0.187482 -0.005626 -0.447419
0.016443 0.142725 -0.424167
-0.150124 -0.292964 0.332621
0.233114 -0.431360 0.106670
0.180499 -0.161871 -0.416905
-0.186775 -0.229217 0.379208
-0.271243 -0.267753 0.353188
-0.191350 0.444116 -0.040225
-0.055662 -0.031706 0.441978
0.113535 0.260703 -0.363649
-0.255189 -0.364706 -0.256854
-0.109329 0.348341 0.275805
-0.007509 0.337198 -0.293513
0.134067 0.017973 -0.447063
-0.127399 0.394592 0.205068
0.215053 -0.196701 -0.401368
0.135490 0.407203 -0.183402
0.011163 0.390028 0.213803
0.116995 -0.401272 0.189947
-0.042866 0.111225 0.429278
-0.075954 -0.045512 0.440673
-0.033689 0.179009 -0.410048
-0.044351 0.114496 -0.432686
-0.149483 -0.021695 -0.446914
0.222039 -0.168212 0.409923
-0.179741 -0.444180 -0.025794
-0.071726 -0.289108 -0.340374
-0.239378 -0.434700 0.091725
-0.193691 -0.431683 -0.109575
-0.056299 0.383463 0.224904
-0.099550 0.353061 0.269719
-0.023205 -0.299260 -0.331424
0.111790 -0.266252 0.354353
-0.109961 0.255785 -0.366991
0.000086 0.121551 0.426282
0.260142 -0.427907 -0.123351
-0.071233 -0.369101 0.246034
0.225201 -0.290255 0.335010
-0.047192 -0.374706 0.237787
-0.269307 0.045067 0.440812
-0.269936 -0.129078 0.423798
-0.235666 -0.430753 0.109202
0.047081 0.380664 0.229638
0.015904 -0.444755 -0.007521
0.028830 0.348867 0.275126
0.143387 0.443189 0.045678
-0.102719 -0.291466 0.333942
0.107900 0.225657 0.381919
0.198133 -0.013118 -0.447183
0.228903 -0.219737 0.384814
-0.253379 -0.157470 -0.418489
-0.214470 0.399727 0.194992
0.095730 0.311294 -0.321025
0.174738 0.413877 -0.167979
-0.206834 0.441235 0.061229
-0.172084 0.420676 0.145110
0.100641 0.445326 0.017596
-0.051278 0.057191 -0.443965
0.122052 0.428172 0.121614
0.099984 -0.298060 -0.332482
-0.170187 -0.426888 0.122505
0.286654 0.357807 0.263601
-0.120409 -0.064686 -0.442615
0.000509 0.443142 -0.050523
0.095267 -0.427609 0.120023
0.113870 0.087588 -0.438915
-0.143700 -0.010288 -0.447272
0.047823 0.147692 0.418025
0.044842 0.374656 0.239368
0.274452 0.037454 0.441531
0.246838 -0.266658 -0.358391
0.253230 -0.179854 -0.409239
-0.085054 -0.121067 0.426125
-0.082377 0.232447 0.377903
-0.211729 0.220685 0.384860
-0.248432 -0.439135 0.068017
-0.175069 0.445117 -0.028613
0.131712 0.050452 0.440303
-0.155770 0.235076 -0.380702
0.106145 -0.317563 0.309378
-0.219737 -0.390505 0.211079
0.256883 0.051680 -0.444540
-0.152726 0.432506 0.106128
-0.164059 0.167766 -0.414913
0.078383 0.428854 -0.123618
-0.061796 0.233134 0.377497
-0.029494 -0.394770 -0.207062
0.050298 0.260326 0.359551
-0.178535 0.135878 0.422120
-0.135630 -0.142806 -0.423769
-0.160559 -0.297639 0.328500
-0.261308 -0.113553 -0.432662
-0.264729 -0.126556 -0.428884
0.038395 0.055389 0.439836
-0.190751 -0.442562 0.041469
-0.163588 -0.430698 -0.113745
0.121882 -0.398327 -0.200081
-0.161543 -0.187084 0.401757
-0.034827 0.444778 -0.033219
0.173152 0.289481 -0.340949
0.099098 0.385120 0.222102
0.050430 -0.161885 0.412547
0.151162 0.413811 0.163778
-0.186701 -0.409093 0.172312
-0.095513 -0.124027 -0.429619
0.198220 0.419007 0.149746
-0.045548 0.173862 -0.412275
-0.173172 0.261009 -0.363441
-0.260713 -0.394382 -0.207824
0.219610 -0.315037 0.311903
-0.054724 -0.269150 0.352105
0.129180 0.420077 -0.151126
-0.034012 0.243809 -0.375130
-0.271699 -0.432820 -0.104490
-0.079467 0.436040 0.090314
0.286660 -0.307064 -0.324229
-0.236279 0.416989 0.155351
-0.252502 0.115468 0.428050
-0.091606 0.274774 -0.352891
-0.051212 -0.098661 0.431857
-0.034567 -0.345981 -0.281879
-0.203089 -0.325497 -0.305622
-0.204906 0.145703 -0.423095
0.254881 -0.438226 -0.078112
-0.044409 0.242308 -0.376150
-0.035758 0.421966 -0.145880
-0.023159 -0.440460 0.059653
0.272453 -0.442255 0.044719
0.052987 0.125697 0.425078
0.005047 -0.330825 -0.299579
0.104821 -0.233730 0.376538
-0.097196 -0.138970 0.420796
-0.197069 -0.436640 -0.087401
-0.177326 0.237320 -0.379375
0.080563 0.431967 0.108536
0.155446 0.434301 0.098096
0.153278 -0.431507 -0.110365
-0.272066 -0.441026 -0.060431
-0.289213 -0.423605 -0.138158
0.003891 -0.082247 0.435480
0.286307 -0.215799 -0.391496
-0.152069 0.184689 -0.407590
-0.172225 -0.423610 0.133788
-0.208963 -0.209986 0.390246
0.078019 0.186370 -0.406862
-0.235163 0.411011 -0.174602
0.000698 -0.438330 0.073100
0.153599 -0.441466 -0.057413
0.254494 -0.334309 0.291273
-0.079390 -0.090747 -0.437980
0.272368 0.373902 -0.244830
-0.020840 0.293957 0.332650
-0.152495 0.112601 0.428883
-0.020851 -0.444891 -0.001171
0.074450 -0.084869 0.434940
-0.145689 0.139444 0.420995
-0.105472 -0.128752 -0.428246
-0.162591 0.424076 0.135665
0.034479 -0.147984 -0.421905
0.120581 0.342070 0.283633
-0.176694 0.444328 -0.037981
0.194040 0.024304 -0.446864
-0.080868 0.277225 -0.350990
-0.057436 -0.423100 0.135531
0.206561 0.353577 -0.273408
0.040867 0.334244 0.292510
0.203767 -0.107011 -0.434344
-0.233036 0.075894 0.436649
-0.252523 0.439516 -0.076435
-0.227954 -0.399998 -0.196802
-0.104287 -0.388769 0.214200
0.250912 -0.250871 0.365280
-0.031636 -0.227381 -0.384647
-0.205562 0.008173 -0.447371
-0.005042 0.216488 0.387342
-0.188903 -0.369142 0.245973
-0.222842 0.103057 0.431104
-0.158391 0.342920 0.282668
-0.037942 0.341270 -0.288893
-0.152912 -0.424490 -0.135115
-0.103269 -0.393735 -0.209093
-0.281664 0.439107 0.074661
-0.266661 0.210652 0.390428
0.161511 0.266583 0.354891
-0.215645 0.249995 0.366572
0.012859 0.291529 -0.339143
0.266987 -0.308163 0.318777
-0.216648 -0.012868 -0.447191
-0.157782 -0.402367 -0.192151
0.229254 -0.411082 0.167717
-0.153029 0.127915 0.424433
0.023531 -0.358690 -0.265495
-0.002571 -0.440991 0.056300
0.031372 0.208762 -0.395745
-0.273468 0.380320 0.230219
0.057350 -0.216449 0.386759
0.090453 0.430113 0.114932
0.218788 0.385902 0.220780
-0.033144 -0.026766 0.442401
-0.027685 0.440436 0.066270
0.022443 -0.343149 -0.285531
-0.109907 -0.437346 0.079315
0.013625 -0.239125 0.373263
0.242425 0.413248 0.165080
-0.105558 0.138751 -0.425598
0.056536 0.309266 -0.323053
-0.144450 -0.119300 -0.430992
0.236200 0.432855 0.104563
0.068241 -0.117278 0.427226
0.134540 0.423337 -0.142072
-0.015348 -0.420797 0.141927
0.086621 -0.003420 0.443135
-0.086447 -0.346435 -0.281295
-0.184528 0.135848 -0.426482
0.032561 -0.293897 0.331799
-0.096835 -0.222156 0.383383
0.045801 0.379878 -0.235320
-0.259715 -0.221384 0.383840
0.059349 0.027883 0.442398
-0.007740 0.352072 0.270994
-0.215023 -0.024589 -0.446823
0.174046 0.057437 0.439572
0.257363 0.165501 -0.415893
0.171227 -0.439436 -0.070472
-0.187653 -0.396040 -0.204569
-0.221785 -0.378108 -0.236580
-0.026654 0.414864 0.161253
-0.097050 0.228280 0.380368
0.026035 0.443775 0.039477
0.040712 0.183947 0.403558
-0.039490 -0.301526 -0.329427
-0.030194 0.031959 -0.446404
0.127130 0.425139 0.132053
-0.096823 0.443433 0.043093
0.052412 0.022809 -0.446911
0.041908 -0.440830 0.057317
-0.201720 0.120295 -0.431001
-0.049702 -0.389099 0.213642
0.028580 -0.362843 0.255242
0.142037 0.148002 0.417914
-0.175374 0.110556 0.429428
0.098236 -0.155501 0.414845
0.069594 0.167875 -0.414866
0.140411 -0.300792 0.325720
-0.234115 -0.260672 0.358620
0.162947 0.285026 -0.344877
0.273003 0.077258 -0.440786
-0.020081 -0.282902 0.341438
-0.164483 -0.361584 -0.261448
0.265352 -0.178895 -0.409654
0.269783 -0.377761 0.232812
0.201464 0.331705 0.295390
0.189491 0.434279 -0.102548
0.000799 -0.430790 0.109077
0.018121 0.441525 -0.063752
0.274168 0.312069 0.315897
-0.021955 0.445880 -0.004319
0.051794 0.288596 0.337376
0.139336 -0.005983 0.443054
-0.022065 -0.218145 -0.390109
0.185075 0.029843 0.442251
-0.055584 0.128637 -0.428577
0.088549 0.344443 0.280829
0.053822 0.408318 0.176471
0.077276 -0.230200 0.378626
-0.007313 0.011374 0.442917
-0.180860 0.146657 -0.422751
-0.107611 0.343565 -0.286291
0.038772 0.311089 0.316876
0.053809 -0.120123 0.426399
-0.191154 -0.091637 -0.437781
0.084573 -0.275804 -0.351296
-0.274550 -0.121739 -0.430283
0.217804 0.334057 0.292721
0.261805 -0.441568 -0.056339
-0.119355 -0.433347 -0.102131
-0.282417 -0.050937 -0.444513
-0.122864 -0.336359 -0.293302
-0.242609 -0.307739 0.319201
0.188229 -0.186123 0.402173
-0.231406 0.258938 -0.364848
-0.082773 -0.261221 0.358247
0.212194 0.373617 -0.245250
-0.108281 0.222877 -0.387916
-0.029779 -0.254810 0.362604
-0.176616 -0.194269 -0.402607
0.213502 0.110267 -0.433846
0.154164 0.365804 -0.256747
-0.230271 0.370839 0.244985
0.161143 0.413311 0.164934
0.128032 0.298939 -0.332611
-0.099943 -0.383740 0.222703
-0.167270 0.271893 -0.355125
-0.108710 -0.365953 0.250667
0.005056 -0.082771 -0.439751
-0.124393 0.439938 -0.073770
0.123064 -0.250647 0.365433
0.162152 -0.332100 0.293779
-0.160302 0.263063 -0.361975
-0.015470 0.118723 -0.431457
-0.034658 -0.330504 0.295589
0.251522 0.182874 -0.408375
0.185590 -0.150676 0.416582
-0.226430 0.152957 0.416130
0.004340 -0.116590 0.427426
-0.139486 0.408561 0.175909
-0.214585 0.352619 -0.274642
-0.258270 -0.251109 -0.369472
-0.260125 -0.423912 -0.137102
0.031652 0.328732 -0.303115
-0.145227 -0.160651 0.412991
-0.094654 0.430192 -0.119014
-0.035665 0.077102 0.436458
0.001040 -0.146845 -0.422315
0.152427 -0.417963 0.149799
-0.168765 -0.308110 0.318830
0.173237 0.441651 0.058601
0.085797 0.225168 -0.386562
0.125514 -0.005558 -0.447421
-0.160280 0.435188 0.094127
0.199095 -0.304100 0.322804
-0.030546 0.399034 0.196350
0.081270 0.203961 0.393838
0.184701 -0.444091 0.024276
-0.100008 0.394015 0.206203
-0.157405 0.445764 -0.008021
-0.238987 -0.418881 -0.151602
0.180106 0.348837 -0.279519
0.014312 -0.100811 0.431377
-0.061160 0.153881 -0.420151
-0.113763 -0.320499 0.306442
-0.079122 0.168190 0.410376
0.168703 0.402910 0.188744
0.111939 0.389556 -0.218955
-0.129314 0.017502 -0.447078
-0.083543 -0.439775 -0.068327
-0.232891 -0.193347 -0.403077
-0.081858 -0.403410 -0.189797
-0.041021 -0.426976 0.122202
0.214687 0.445673 0.006541
-0.215682 -0.171536 -0.412838
-0.282587 0.445587 -0.013658
0.186266 -0.211965 0.389238
0.263413 -0.296165 -0.334153
0.164942 0.052873 -0.444427
-0.256023 -0.047586 0.440477
0.086254 0.423429 -0.141816
0.101131 -0.417064 0.152297
0.078472 0.305648 -0.326671
0.284422 0.331522 -0.299950
0.098324 0.242750 -0.375850
-0.209834 0.210994 0.390254
-0.002558 0.104181 -0.435206
-0.259157 0.161797 -0.417300
0.084081 -0.396931 -0.202821
0.041915 -0.213350 0.388532
0.232703 0.295287 0.331477
0.218006 -0.380993 -0.231702
0.226808 0.439312 0.073368
0.176182 0.297456 -0.333918
-0.222576 0.291622 0.334708
0.033209 -0.387829 0.215788
-0.091119 0.214030 0.388707
-0.269669 -0.444162 -0.026395
-0.175450 -0.444657 -0.010614
-0.042541 0.269195 -0.357218
0.276632 -0.243517 0.370279
0.285173 0.445853 -0.005166
0.284386 0.356180 -0.270052
0.276149 0.403100 0.188371
0.034572 -0.409682 -0.175304
-0.080287 0.445332 0.017415
0.239344 0.100436 0.431690
-0.168839 -0.116798 -0.431719
-0.105070 -0.433722 -0.100454
-0.169000 -0.258702 -0.364312
-0.203746 -0.185305 -0.406880
-0.290182 0.325038 -0.307281
0.195003 -0.194359 0.398208
-0.214646 0.078043 -0.440662
0.045161 -0.431327 -0.111169
0.145774 -0.435461 -0.092676
0.201115 -0.185850 0.402291
-0.188475 0.209493 0.391019
-0.285503 -0.441612 0.051515
0.239811 -0.245187 0.369144
-0.103296 -0.027985 0.442329
-0.077538 0.445925 -0.002898
-0.261571 -0.204311 0.393137
0.033563 0.110943 -0.433694
0.173772 -0.376708 -0.238947
0.262989 -0.343224 0.281080
0.088004 -0.054054 -0.444219
0.062310 -0.170183 0.409070
-0.102546 0.432110 -0.112252
0.181771 0.095433 0.432808
-0.189551 -0.264857 -0.359788
0.045466 -0.264023 0.356081
-0.286027 -0.302067 -0.328949
0.079991 -0.434319 -0.097782
-0.063669 -0.435631 0.087560
-0.183419 -0.090224 0.433743
-0.228618 -0.107260 -0.434289
0.243401 0.441870 -0.061570
-0.130388 0.366864 -0.255187
0.075940 0.383509 -0.229180
0.123627 0.401840 0.190844
-0.244618 -0.388728 0.214268
-0.111877 -0.054902 0.439785
0.109519 -0.442237 -0.049255
-0.161852 -0.374472 -0.242485
0.014489 0.369604 -0.251156
0.240527 -0.069703 0.437467
0.233475 0.279087 -0.349545
0.018453 0.216195 0.387515
-0.102144 -0.440782 -0.061970
0.126488 -0.082175 -0.439845
0.172621 -0.187995 -0.405716
0.183363 0.415776 0.158720
0.086776 0.280311 -0.348596
0.015537 -0.263474 0.356507
0.193095 0.078036 -0.440663
-0.127235 0.325571 -0.306700
0.248691 -0.194736 -0.402369
0.020524 0.054694 -0.444255
0.007017 -0.404343 -0.187643
-0.228401 0.420401 0.145872
0.049311 -0.394734 -0.207134
-0.102950 0.427999 0.122209
0.269039 -0.157247 -0.418569
-0.174782 -0.443436 0.032219
0.113961 0.429225 -0.122342
-0.263691 0.361599 -0.262934
-0.143621 0.232769 -0.382067
-0.000240 -0.357164 0.263108
-0.007195 -0.398592 0.195208
0.234301 0.419319 -0.153232
0.164294 -0.444785 -0.006553
0.257799 0.071903 -0.441634
0.017458 -0.078029 0.436149
0.162318 -0.289609 0.335579
0.195382 -0.440545 -0.063468
-0.170433 0.233281 0.377410
0.121269 -0.270420 0.351119
0.241427 0.415884 -0.162774
0.178906 -0.387744 -0.220287
-0.238400 -0.054094 0.439861
0.121404 0.314051 -0.318268
0.074172 -0.411636 -0.170790
-0.068601 -0.248527 0.366874
-0.081580 0.285834 -0.344165
0.284590 0.317824 0.310141
0.094836 0.260514 0.359424
0.236804 0.395022 0.204226
-0.155337 0.299333 0.327910
-0.142519 0.123924 -0.429946
-0.254863 0.439346 0.073154
-0.120948 -0.175688 0.406688
0.024306 0.436450 -0.092836
0.078280 -0.142292 0.419600
-0.125500 0.191547 -0.404516
0.239729 0.227233 0.380987
-0.074563 0.006366 0.443074
0.157933 0.445078 0.025477
-0.185351 -0.363658 0.254043
-0.103678 0.443214 -0.049767
-0.051741 0.141280 0.420334
-0.038188 0.089003 -0.438599
0.260788 0.415338 -0.164289
0.253097 -0.145881 0.418308
0.085108 0.287926 -0.342320
0.155653 -0.346263 -0.281515
0.131389 0.230444 -0.383441
-0.170560 0.342854 0.282743
-0.061494 -0.364777 0.252397
-0.230530 -0.029216 -0.446567
-0.229001 0.241389 0.372421
0.119582 0.435728 -0.096066
-0.183907 0.125005 -0.429632
-0.103204 -0.090840 -0.437959
-0.259756 0.273710 -0.353716
0.046891 0.394405 -0.209789
-0.048775 -0.350246 0.272028
0.251700 0.443290 0.044610
0.117822 -0.108634 -0.433982
-0.260069 0.138974 -0.425517
0.137409 -0.243315 -0.374769
-0.109741 0.301422 -0.330422
0.232385 0.148356 -0.422140
0.157577 0.445802 0.002440
-0.105368 0.318939 -0.313380
0.250088 -0.441556 -0.056465
0.184824 -0.428322 -0.121922
-0.114248 0.048498 0.440487
-0.223764 0.210148 0.390686
-0.206282 0.188482 -0.405949
0.210881 0.372015 0.243254
0.265825 -0.198933 -0.400231
0.272805 -0.013142 0.442829
-0.020561 0.388787 0.215902
0.068733 0.144082 -0.423679
-0.027698 -0.209869 -0.394659
-0.173067 0.429122 0.118345
0.098338 0.445923 -0.002955
0.260037 -0.206988 0.391773
0.075661 0.413154 0.165297
0.076352 0.445683 0.006239
0.219422 -0.331843 -0.298424
0.134965 0.237616 0.374846
0.085972 -0.156084 0.414635
-0.188278 -0.436463 0.083840
-0.287850 -0.214201 -0.392441
-0.114211 -0.145592 0.418412
-0.167583 -0.382527 -0.229107
-0.065917 -0.424926 -0.133611
0.162863 -0.440651 -0.062799
-0.129906 -0.024655 -0.446821
0.189086 -0.121553 -0.430338
0.166230 0.347544 0.276833
-0.068980 0.297706 0.329344
0.104884 0.213397 -0.393384
0.156753 0.306152 -0.326166
-0.180763 -0.410730 -0.172882
0.189874 -0.278180 -0.349454
-0.013155 -0.118235 0.426948
0.025816 0.423963 -0.140334
0.098270 0.417141 -0.159282
0.285310 -0.162418 -0.416708
-0.036982 -0.401365 0.189765
0.032847 -0.000496 0.443227
0.164824 -0.359983 -0.263804
0.156374 0.193006 -0.403773
0.245173 0.247909 0.367990
0.286423 0.114947 0.428201
-0.006848 -0.314104 -0.317190
0.000923 -0.298197 -0.332361
-0.038223 -0.170403 0.408975
0.052001 0.443087 0.046751
-0.218193 -0.441630 0.051331
-0.038842 0.403718 -0.191455
-0.210938 0.414596 0.161963
0.219734 -0.444278 -0.022698
-0.079885 -0.375998 -0.240148
-0.148930 0.441585 -0.063373
0.119461 0.349112 0.274810
-0.186656 0.265728 0.355554
-0.247882 -0.407106 -0.181258
-0.083457 -0.371423 0.242617
-0.003607 -0.017219 -0.447055
0.264459 0.160339 0.413472
0.081478 -0.329676 0.296529
0.127413 -0.386347 -0.222648
0.286206 0.420315 -0.150467
-0.242689 -0.309651 -0.321643
0.283781 0.398466 -0.201819
0.073414 0.444121 -0.040172
-0.288469 0.418379 -0.155843
0.114104 -0.264227 -0.360277
0.094087 0.326164 0.301674
-0.191945 0.190794 -0.404900
-0.084773 -0.151905 -0.420493
-0.154396 0.445680 0.006323
0.006134 -0.377892 0.232591
0.205676 0.092588 0.433444
-0.039587 0.443475 -0.047004
-0.225956 0.443057 -0.051420
0.092438 0.094816 0.432946
0.016668 0.371058 0.244662
0.048966 0.221136 0.384593
-0.227910 -0.264319 -0.360206
-0.119619 0.399002 0.196415
0.014625 0.001210 -0.447590
-0.256840 -0.438267 -0.077850
0.083770 -0.428534 0.116840
-0.206837 -0.135296 0.421991
0.273767 0.421939 -0.145955
-0.134697 0.198144 -0.401155
-0.265583 -0.386854 0.217438
-0.148683 0.382267 0.226926
0.054029 0.427142 0.125160
0.153430 -0.094814 -0.437071
0.136732 0.439122 -0.078922
0.086454 0.110838 0.429365
0.209180 -0.070987 0.437264
0.147601 0.445275 0.019205
-0.104922 0.365099 0.253431
0.177652 -0.371192 -0.247310
-0.118022 -0.216930 0.386474
0.164802 0.428458 0.120628
-0.242060 0.374237 0.239985
-0.143045 0.298864 0.328323
-0.159434 -0.173715 -0.411896
0.190677 0.066023 0.438212
0.101174 0.439132 -0.078861
-0.260161 0.034589 -0.446156
-0.265936 -0.357211 0.263048
0.099609 -0.408070 -0.179030
0.265273 0.425219 -0.136133
0.033178 0.033493 -0.446259
-0.202209 -0.267346 -0.357858
0.125428 -0.174435 0.407230
0.078619 -0.248765 0.366712
-0.150050 -0.057403 -0.443769
0.054265 0.321745 0.306220
0.059487 0.294103 0.332521
0.009346 -0.299319 0.327019
-0.241801 -0.039591 -0.445586
-0.017523 0.354909 0.267337
-0.251778 0.319657 -0.312662
0.271728 -0.364780 0.252392
-0.245909 -0.112991 0.428471
0.246581 -0.440073 -0.066448
-0.277924 -0.178261 0.405574
-0.142867 -0.444341 -0.020680
0.066421 -0.361620 -0.261396
0.175071 -0.259294 -0.363910
0.181291 0.304120 0.323689
0.098581 -0.444061 -0.029603
0.101563 0.168823 -0.414456
-0.079807 -0.009834 0.442933
-0.120319 0.291228 0.335055
-0.057973 -0.266948 -0.358166
0.113921 0.098963 -0.436373
-0.283654 0.185535 0.402870
0.039591 -0.222057 0.383442
0.159328 0.424785 0.133272
-0.196566 0.002945 -0.447535
-0.204613 0.034481 0.441812
-0.041571 -0.043706 0.440843
-0.205470 -0.006791 -0.447382
0.245893 0.218258 -0.390648
0.195771 0.344854 -0.284654
-0.092537 -0.420696 0.142207
-0.088530 -0.331495 0.294465
0.264457 -0.400522 -0.195774
-0.045273 -0.361676 -0.261313
0.016336 -0.437757 -0.081071
-0.042228 -0.099350 -0.436057
-0.211126 -0.256820 0.361238
0.226649 0.018203 -0.447056
-0.038582 -0.444376 0.015203
-0.188916 -0.195602 -0.401928
0.188222 0.443779 -0.043788
0.273076 0.178017 0.406124
0.085809 0.271221 -0.355646
-0.268515 -0.254170 -0.367392
0.059651 0.256163 0.362381
0.263213 -0.029049 0.442229
0.072828 0.351818 -0.275675
-0.160153 0.246515 0.368938
-0.103111 -0.076557 -0.440735
-0.191141 0.306571 -0.325747
0.136701 0.365156 0.253348
-0.211809 0.118926 -0.431398
-0.275505 -0.338919 -0.290398
0.137498 -0.442726 -0.044087
0.106464 0.414690 -0.166090
0.232565 -0.436154 -0.089573
-0.043090 0.419514 -0.152690
-0.273380 -0.044674 0.440752
0.179994 0.220091 -0.389564
-0.272110 0.142646 -0.424195
-0.289214 0.445748 0.004175
-0.194788 -0.330710 -0.299709
0.227669 0.132891 -0.427341
-0.169804 -0.131851 0.422992
0.086858 -0.408669 0.173293
-0.160855 -0.206160 -0.396549
0.028370 -0.444683 -0.009809
0.224496 -0.078934 -0.440359
0.194286 0.103895 0.430917
0.227867 -0.056653 0.439534
-0.104120 0.248785 -0.371748
-0.264609 0.010768 -0.447290
-0.044981 0.225393 0.382075
-0.182613 0.444932 0.027236
-0.024390 0.066531 0.438132
0.192998 -0.229997 -0.383100
0.190835 0.129538 -0.428315
-0.043053 0.406955 0.179621
0.266718 -0.345891 -0.281996
-0.044081 -0.368186 0.247380
0.235567 0.171526 0.408933
-0.081396 0.378796 -0.237149
0.117094 -0.242509 -0.375316
-0.281553 -0.398960 -0.198840
0.140031 -0.108094 -0.434102
0.192255 -0.386821 0.217494
0.129572 -0.429026 -0.119500
-0.143385 -0.227966 0.379947
0.186942 0.382553 -0.230797
-0.158248 -0.306630 0.320310
-0.067624 -0.298680 -0.331936
-0.186055 0.041253 -0.445526
-0.100595 -0.428224 0.117907
-0.126435 -0.413904 -0.165427
-0.267207 0.399479 0.195478
-0.165565 0.072781 0.437142
0.147444 -0.246959 0.367939
0.228078 0.428742 -0.124007
-0.178379 0.443216 0.045386
0.088988 0.303574 -0.328524
-0.085756 0.328287 0.299266
0.118508 0.396696 0.200941
0.051851 0.207259 -0.396511
0.116474 -0.443200 0.034722
0.219241 -0.148071 0.417520
0.217743 0.205872 0.392864
0.029319 -0.109132 0.429517
0.184357 -0.439265 -0.071551
-0.069643 -0.055284 -0.444102
-0.231734 -0.328177 0.298229
0.256492 -0.350987 0.271072
0.185796 0.402483 0.189582
0.154175 0.402019 -0.194847
0.172249 -0.444175 -0.025953
-0.115911 0.076796 0.436506
-0.252816 -0.085786 -0.439089
0.130134 0.098357 0.432154
-0.081264 -0.205992 0.392281
0.098227 -0.191273 0.399781
0.095414 -0.444335 0.016526
-0.057535 0.421883 -0.146109
-0.069366 0.132152 0.423202
-0.085616 -0.335586 -0.294178
0.013184 -0.110289 0.429256
-0.287050 0.102779 0.431166
-0.112502 0.372875 -0.246343
0.254059 -0.168640 0.409738
0.149489 -0.371633 0.242308
0.048869 -0.103143 -0.435209
0.048642 -0.372079 0.241652
-0.235448 -0.358288 0.261660
0.114470 -0.438637 0.071160
-0.157423 -0.025234 0.442449
-0.112990 0.412581 0.166621
0.001484 0.309481 0.318484
-0.073040 -0.215499 -0.391674
0.119767 -0.181975 0.403968
0.110625 0.400535 0.193406
0.075556 -0.192085 -0.403720
0.086617 -0.438402 0.072643
0.283287 0.324851 -0.307468
-0.264802 0.103803 0.430937
0.230831 -0.068724 0.437622
0.240550 -0.411120 0.167629
0.233561 -0.331925 -0.298331
-0.094534 0.323477 0.304488
-0.221306 -0.438907 -0.073807
-0.005498 -0.290142 0.335109
0.113013 0.077432 -0.440759
-0.181112 0.445657 0.007077
-0.192171 -0.009643 0.442939
-0.076349 -0.431900 -0.108607
0.165267 0.131853 -0.427643
0.036598 0.151718 0.416576
0.179486 0.237631 -0.379191
0.106417 -0.340382 -0.288739
0.203578 -0.217713 0.386011
0.155934 0.343441 0.282078
-0.036650 0.167103 -0.415200
0.170329 0.381628 -0.232361
-0.200898 0.108671 0.429849
-0.288265 -0.405476 0.180672
-0.113657 0.281834 -0.347415
0.225585 0.422161 -0.145338
0.193646 -0.430621 -0.114009
0.155556 0.364244 0.254690
0.252976 -0.101095 -0.435667
0.088088 -0.326451 -0.304540
0.213144 0.404484 0.185332
0.021012 0.419195 0.149224
-0.270601 0.365428 0.252947
0.112933 -0.192820 0.398992
0.104276 0.342259 -0.287772
0.144556 -0.443405 -0.036899
-0.117495 0.441978 0.056534
-0.009014 -0.197483 -0.400970
0.205299 -0.258053 0.360400
-0.212573 0.377682 0.234679
-0.031632 0.167850 0.410524
-0.060435 0.255942 -0.366885
-0.020747 -0.363458 0.254337
0.039637 -0.396251 -0.204155
0.042642 -0.355734 -0.269306
-0.248798 0.022446 0.442569
-0.103276 -0.404467 0.183002
0.222800 -0.397484 0.197382
0.285899 -0.420730 0.142114
0.076701 -0.328253 -0.302496
0.043461 0.342807 -0.287150
-0.011373 0.184198 -0.407803
0.029390 -0.170607 -0.413240
0.092267 -0.356078 0.264509
-0.277570 -0.160792 0.412940
0.015033 0.105289 0.430605
-0.086140 -0.104017 0.430660
-0.084380 0.269108 -0.357285
-0.077935 -0.433624 0.096538
-0.171774 -0.297538 -0.332943
0.101230 0.390439 0.213109
0.198300 -0.443346 -0.037529
-0.155041 0.423983 -0.140277
-0.114819 -0.442738 0.039606
0.187859 0.402874 -0.193168
-0.129476 0.388681 -0.220434
-0.249596 -0.072890 0.436962
0.036164 0.376853 -0.240434
-0.213343 0.103713 -0.435311
0.137814 -0.165883 -0.415285
0.206195 0.388392 -0.220923
-0.181822 0.273710 0.349363
-0.255644 -0.296007 -0.334292
-0.206331 -0.425322 0.127896
0.145020 -0.412929 -0.167801
-0.014745 -0.382903 -0.228471
0.257506 -0.362139 0.256279
-0.125930 0.094175 0.433089
0.156394 0.108885 0.429801
0.046452 -0.387763 -0.220254
0.189796 -0.088377 -0.438510
-0.051398 0.430181 -0.119051
0.092313 -0.081484 0.435601
0.092703 0.319898 -0.312420
0.108380 -0.293679 0.331991
0.286494 -0.424779 -0.134119
0.064826 -0.090023 0.433788
-0.105036 -0.412425 -0.168966
0.156633 0.061690 0.438899
-0.129015 0.282600 -0.346820
0.155262 0.035500 0.441716
-0.284968 0.362040 -0.262285
-0.267147 0.355814 -0.270524
0.199124 -0.198433 -0.400486
0.145750 0.070158 0.437557
-0.201642 0.404400 0.185526
-0.287431 0.020238 0.442638
-0.250809 0.183338 -0.408174
0.038380 0.445121 -0.028463
0.156848 -0.403757 0.184642
-0.251213 0.340704 0.285182
0.076212 -0.370540 0.243917
-0.218035 -0.069464 0.437505
-0.217979 0.228565 0.380199
-0.184653 0.155675 0.415151
-0.181052 0.062630 0.438750
0.107620 -0.187076 -0.406114
-0.256819 0.413078 -0.169825
0.208265 0.261990 0.358421
-0.288626 0.376928 -0.240308
-0.126111 -0.060942 0.438855
-0.288094 0.403598 0.187380
-0.078186 -0.444556 -0.013834
0.008460 0.044903 0.440827
-0.191799 -0.382445 0.224893
-0.216242 0.371114 -0.248934
-0.133083 -0.444512 0.010902
0.176949 0.428723 0.119717
-0.162925 -0.429438 0.113730
-0.266186 0.426705 -0.131017
0.193397 0.436651 0.087581
-0.001897 0.410260 -0.176337
0.197141 0.408777 -0.179765
0.006479 -0.201768 0.394433
-0.210377 0.165481 0.411549
0.286583 0.295393 -0.335737
0.058250 0.397532 0.199300
-0.200022 -0.225135 0.381621
0.064510 0.022124 -0.446933
0.140252 0.284874 -0.345010
0.211447 0.340838 -0.289383
-0.287061 0.440687 0.064685
-0.080929 0.319152 0.308813
0.270704 0.382571 -0.230765
-0.250813 0.443468 0.042726
-0.054013 -0.407462 -0.180435
0.212938 -0.373402 -0.244059
0.216963 0.038256 -0.445809
-0.218544 -0.444782 0.002309
-0.204573 0.355189 -0.271330
0.247983 0.321460 -0.310858
0.174605 -0.444382 0.015042
0.260142 -0.402197 0.188132
-0.184629 0.443923 0.037914
0.213829 -0.438164 0.074146
0.221041 0.049927 -0.444706
0.067035 0.376831 0.236118
-0.158367 0.357689 -0.268107
-0.138528 -0.392430 -0.211655
-0.141260 0.368590 -0.252647
-0.231830 -0.420440 0.142918
-0.103951 -0.388408 -0.219163
0.252216 0.283330 0.341901
0.042503 0.371679 -0.248102
-0.208743 -0.091345 -0.437846
-0.093672 -0.143385 -0.423560
-0.140079 -0.256393 -0.365881
-0.230035 0.022521 -0.446920
-0.116442 0.034607 -0.446154
0.195485 -0.299523 -0.331193
0.186278 -0.441600 -0.055994
-0.286957 0.418435 0.151333
-0.028630 0.302914 0.324753
-0.193072 -0.293866 -0.336180
0.112281 -0.020203 0.442607
0.043637 -0.094280 0.432837
0.219116 0.317066 0.310899
-0.036511 -0.335500 -0.294276
0.072837 -0.441031 0.056045
0.087765 -0.061312 0.438796
0.150353 -0.312842 0.314099
0.018114 0.377723 0.234610
0.253922 -0.224458 0.382022
-0.140279 -0.324826 -0.306383
0.145765 -0.018376 -0.447018
-0.062954 -0.179792 0.404912
0.193587 -0.021585 0.442564
0.111415 -0.443978 -0.030839
-0.032733 -0.009321 -0.447303
0.216263 -0.073132 -0.441277
-0.012644 0.445306 -0.022600
0.055171 -0.166773 -0.414899
0.183210 0.369389 -0.251472
-0.185600 0.304274 0.323554
0.236072 -0.282241 -0.346304
-0.073989 0.222140 -0.388353
-0.237005 -0.291767 -0.338030
0.272986 0.157810 -0.418736
0.255988 0.301694 0.325829
0.135116 0.160109 -0.417908
-0.246941 0.228769 0.380078
-0.020504 -0.414902 0.158301
-0.135718 0.053911 0.439976
0.147697 -0.405848 0.179810
-0.153794 0.438369 -0.083679
-0.123930 -0.422525 -0.141479
0.070825 0.254290 -0.368007
-0.242266 0.059855 0.439189
0.003736 -0.065928 0.438065
-0.274732 -0.086242 -0.438987
0.272360 -0.443764 -0.033107
-0.212185 -0.439719 -0.068684
0.040793 -0.234281 -0.380566
-0.093266 0.400398 0.193674
0.189554 0.423141 -0.142616
-0.254244 -0.437151 0.080542
0.138643 0.445100 0.024792
-0.168153 -0.444812 0.001345
0.068212 0.386548 -0.224041
0.010237 0.012338 -0.447240
0.034538 -0.350833 -0.275624
0.096191 -0.403485 0.185272
0.151980 0.289455 0.336619
-0.084580 -0.420198 -0.147943
0.044729 0.432103 0.107929
0.285439 -0.354394 0.266681
-0.194302 -0.038613 0.441325
0.136360 0.418813 0.150284
-0.164451 0.179748 0.405375
-0.160100 -0.442430 0.042863
-0.071911 0.281585 -0.347607
0.187012 -0.434815 -0.095565
0.231026 0.345376 -0.283980
-0.121347 -0.013346 -0.447176
-0.120431 0.087076 -0.439030
0.008232 -0.218892 -0.389667
-0.057726 0.443986 0.037242
0.032722 -0.421175 -0.145231
-0.124696 0.444300 0.033917
-0.135934 -0.047481 -0.444840
0.259654 -0.439608 0.065033
-0.220607 -0.408045 -0.179088
-0.109519 0.352169 -0.275223
0.173815 -0.372027 0.241728
0.182411 0.419690 -0.152202
-0.081171 0.116415 -0.432128
0.174455 -0.275970 0.346815
0.213944 0.380372 0.230131
0.033211 0.261379 -0.363189
0.218518 0.445542 -0.015071
-0.084483 -0.430178 -0.115536
0.161108 -0.211829 -0.393660
0.026231 0.397450 -0.203813
-0.252376 0.112439 -0.433283
-0.246296 -0.019942 0.442615
0.055183 0.344695 0.280505
0.113063 0.325805 -0.306435
-0.020956 -0.038098 -0.445727
0.112082 0.376372 0.236843
-0.167730 -0.008374 0.442979
-0.137888 0.290571 0.335635
0.247959 -0.364820 0.252334
0.236078 0.023008 -0.446905
-0.014134 -0.142039 -0.424045
-0.195192 -0.116547 0.427439
-0.058184 -0.423070 -0.139966
0.098356 0.285731 -0.344255
-0.170418 -0.415295 -0.161564
-0.289247 -0.405161 -0.185753
0.108337 -0.390307 -0.215822
-0.256484 0.291231 0.335053
0.225995 -0.197378 0.396670
-0.259358 -0.427216 -0.125729
-0.050823 0.262649 0.357942
0.148268 -0.439978 0.062694
-0.156624 0.377547 0.234908
0.064364 0.269924 0.352299
0.138418 -0.329001 0.297294
0.256747 -0.417171 -0.156351
-0.156374 0.243718 -0.375192
-0.062331 0.429908 -0.119991
0.083595 -0.086191 -0.438998
0.037937 0.063751 -0.442926
0.247313 0.438746 0.076946
-0.167882 -0.179825 -0.409251
0.215710 0.443895 -0.042560
-0.058323 0.418174 -0.156412
0.125449 -0.060480 -0.443281
-0.138709 -0.402565 -0.191752
-0.113560 0.119323 -0.431283
0.210773 -0.398953 0.194499
-0.068275 -0.115138 -0.432201
0.061055 0.233531 -0.381616
0.245243 0.445701 0.005651
0.113237 0.423236 -0.142351
0.130799 0.004004 0.443149
-0.010658 -0.219723 0.384822
-0.027707 0.079276 -0.440467
0.217808 0.433994 0.099470
-0.065330 0.296975 -0.334342
-0.233266 -0.054893 -0.444139
-0.154428 0.344983 -0.284487
0.198906 -0.000371 -0.447584
0.213136 -0.161981 0.412512
0.221650 0.445327 0.017551
0.153344 0.299768 0.327526
0.023607 -0.293895 -0.336154
-0.103963 -0.266902 -0.358202
-0.053348 0.344522 0.280728
0.074328 -0.178353 0.405535
0.012426 0.418185 -0.156382
-0.094086 -0.387700 -0.220361
0.068562 0.015952 0.442773
0.038593 0.385883 -0.225166
0.242243 -0.178067 0.405659
0.228533 0.408337 -0.180782
-0.110467 0.438668 0.077433
0.191356 0.294367 0.332288
0.238315 -0.101739 -0.435523
-0.003794 -0.263487 -0.360851
-0.091312 -0.202411 -0.398459
0.250373 -0.444409 -0.018524
-0.118276 -0.236925 -0.379002
-0.185268 0.334073 -0.297057
-0.146865 0.035459 0.441720
0.268483 -0.300057 0.326368
-0.289681 0.220410 0.385022
-0.053882 -0.340318 0.284457
-0.169990 -0.435546 -0.092294
-0.289803 0.276705 -0.351392
0.151961 -0.255144 0.362377
-0.275707 -0.374968 -0.241755
-0.037853 -0.082723 0.435405
0.182693 -0.329918 0.296254
0.031334 -0.422552 0.137051
-0.026274 0.445636 0.007734
0.160831 0.254276 -0.368016
-0.210968 -0.360144 0.259214
0.275007 0.313509 -0.318809
0.043208 -0.206944 -0.396149
0.151203 -0.263738 0.356303
0.116948 -0.444140 0.022716
0.121462 -0.280172 -0.347909
0.188422 0.366128 0.251917
-0.021527 -0.323770 0.303170
-0.127567 -0.170050 -0.413481
-0.259407 -0.270135 0.351340
0.035517 0.079568 -0.440420
-0.075677 0.040510 -0.445596
0.229606 0.445644 -0.011820
-0.277806 0.172291 -0.412955
0.218154 0.444466 0.032171
-0.217306 -0.428016 0.118623
-0.240797 0.257744 0.361306
0.216417 -0.212513 -0.393312
-0.143914 0.440130 -0.072561
0.269377 -0.443161 0.035131
0.142856 -0.268990 -0.356582
-0.037212 -0.258228 -0.364634
0.027347 -0.327152 0.299391
-0.240894 0.183589 -0.408066
-0.239778 0.317959 -0.314360
0.102232 0.361102 -0.263665
-0.286629 0.283704 0.341610
0.207415 0.104949 0.430681
-0.023882 0.260554 -0.363750
-0.272958 0.353887 0.268654
0.205898 0.303640 -0.328466
-0.077205 -0.088721 0.434079
0.111716 -0.245064 0.369227
-0.099490 0.399854 -0.199096
-0.137968 0.419765 0.147639
-0.248464 -0.376551 0.234858
0.167085 0.421801 -0.146337
-0.013383 -0.014694 0.442780
0.015671 -0.273795 0.348501
0.222458 0.279825 -0.348972
0.256091 0.326772 -0.305338
-0.288437 -0.315152 -0.316141
-0.184399 0.382644 -0.230643
0.227866 0.322541 -0.309777
0.072101 0.001641 0.443223
0.232892 0.287028 0.338758
0.123972 -0.423308 0.134828
0.086583 -0.444121 -0.027692
-0.156771 -0.162998 0.412146
0.224125 -0.390177 0.211723
-0.236717 0.426557 -0.131527
0.273127 -0.413326 -0.166884
-0.028033 0.346188 -0.282933
0.042127 -0.031760 -0.446326
-0.088939 -0.167500 -0.414585
0.217938 0.436800 -0.091268
0.129319 0.430803 0.112559
-0.013596 -0.142990 0.419349
0.223565 -0.438558 -0.076016
-0.219514 0.058515 -0.443755
-0.266538 -0.442300 -0.048588
0.225941 -0.030984 -0.446399
-0.161751 -0.154735 -0.419474
0.231425 0.445418 0.014663
-0.064572 0.431029 0.111780
-0.157934 0.399054 -0.200666
-0.025716 -0.399585 0.193259
0.223985 -0.406216 0.178962
-0.145478 0.427646 0.123425
-0.257740 -0.392425 0.207311
0.022229 -0.441531 -0.056726
-0.188987 0.426217 0.128342
0.048156 -0.093359 -0.437396
0.120421 0.034103 0.441848
0.064729 0.098630 0.432094
0.184820 -0.135722 0.421868
-0.026004 -0.391022 0.210064
0.234766 0.273572 0.349470
-0.227191 -0.349924 0.272443
0.079695 -0.436651 -0.087350
0.208270 -0.188705 -0.405409
0.211731 0.359764 -0.265432
-0.011915 -0.358628 0.261222
-0.114521 0.231587 0.378412
-0.270390 0.309585 0.318380
0.134658 0.348256 -0.280268
0.228200 0.246700 -0.373165
0.222456 -0.012454 0.442851
-0.233877 0.236997 -0.379566
0.286825 -0.392362 0.207434
0.136823 0.406971 0.179583
-0.261567 0.167637 0.410616
0.035404 -0.391680 -0.213127
-0.215334 0.436034 0.090342
0.135510 0.440917 -0.067587
-0.086413 0.311609 0.316356
-0.010873 -0.154033 0.415373
0.255599 -0.370043 0.244648
-0.260357 0.440905 -0.067662
-0.129622 0.361397 0.258878
-0.229225 -0.435417 0.088518
-0.264311 -0.180955 -0.408762
-0.275201 -0.255077 0.362422
0.196230 -0.342345 -0.286511
-0.176417 0.176683 0.406701
-0.272961 0.119146 0.426981
0.032222 -0.280265 0.343483
0.048469 -0.410068 -0.174413
0.041147 -0.231566 0.377818
0.064859 -0.209562 0.390462
-0.162253 0.148675 0.417671
0.096726 0.440763 0.064207
-0.154331 0.209229 0.391154
0.083932 -0.099022 0.431777
-0.155701 -0.287468 -0.341821
-0.238814 0.031712 -0.446427
0.156831 0.171405 -0.413338
-0.195700 0.304304 0.323527
0.089050 0.069563 0.437652
-0.108785 -0.256486 0.361464
-0.090726 0.077548 0.436387
0.016633 -0.250834 0.365306
0.162839 -0.257770 -0.364946
0.257838 0.098324 -0.436515
-0.194417 0.351848 0.271283
0.078890 -0.043789 -0.445189
-0.043535 -0.433979 -0.099306
0.207336 -0.139761 0.420512
0.100933 0.434748 0.096094
-0.215796 -0.189509 -0.405033
-0.051827 -0.438973 0.069040
-0.139616 0.175803 0.407082
-0.179707 -0.380527 -0.232489
0.115135 -0.121417 0.426024
0.090615 0.251685 0.365424
0.005157 0.223546 0.383167
-0.227043 0.132076 0.423225
-0.012756 0.094742 0.432963
0.240169 0.439874 -0.074173
0.233580 0.430070 0.115082
0.214515 0.243550 0.370953
-0.250689 0.032132 -0.446388
0.137913 -0.343015 -0.285704
0.164577 0.425492 -0.135191
-0.151994 0.367969 -0.253561
0.264867 -0.089968 -0.438154
-0.014394 -0.329760 -0.300787
-0.150708 -0.398859 -0.199037
0.207572 -0.243891 -0.374378
-0.156198 -0.390843 -0.214770
0.112569 0.357746 0.263679
0.234324 -0.425730 0.126491
-0.121403 0.410409 0.171638
-0.226721 0.065831 -0.442596
0.089460 0.378291 0.233650
0.099541 -0.379064 0.230610
-0.127406 -0.441208 -0.059279
-0.281344 -0.318417 0.308523
-0.203626 -0.361193 -0.262024
0.179451 -0.318745 -0.312549
-0.218422 0.445347 -0.021270
0.101566 0.076352 -0.440930
0.172481 -0.408707 0.173205
0.226943 0.246140 0.369192
0.016266 0.080955 -0.440201
-0.049258 -0.408522 0.173631
-0.117280 0.044796 -0.445191
-0.102225 -0.318421 0.308519
0.075504 -0.237749 -0.378515
0.131352 -0.207772 0.391374
-0.050045 0.343428 -0.286446
-0.219500 0.388987 -0.219916
0.241143 0.409012 0.174867
-0.066908 -0.444176 -0.025924
0.016788 -0.436395 0.084144
-0.204109 -0.291633 -0.338148
-0.253965 -0.423128 0.135448
-0.163279 0.108919 -0.434147
-0.189370 -0.441212 0.054901
0.275792 -0.149660 -0.421301
-0.004828 0.391701 0.210744
0.216395 0.345116 0.279962
-0.100088 0.163068 0.412489
0.189411 0.188388 -0.405989
0.150374 -0.110799 -0.433462
0.274734 0.445216 -0.025456
-0.102158 0.437075 0.085685
-0.162855 0.445186 0.022052
-0.099840 -0.105208 0.430394
-0.127445 -0.158841 0.413642
-0.179813 -0.206282 0.392133
-0.182306 -0.167820 -0.414446
-0.035360 -0.439679 0.064581
-0.051514 0.280532 -0.348425
-0.239029 0.217299 0.386862
-0.234007 -0.363089 -0.259234
0.137070 -0.433559 0.096831
-0.020414 0.333573 -0.297624
-0.089416 -0.242978 0.370645
0.013306 -0.431603 -0.109936
-0.169098 0.406281 -0.185532
0.080118 -0.283677 -0.345163
0.148801 0.433867 -0.104390
-0.211506 -0.434740 -0.095899
-0.102658 -0.416700 -0.157659
0.137214 -0.177038 0.406104
-0.188331 0.442074 -0.060283
-0.202913 0.445671 0.006605
0.144772 0.177318 0.406426
0.138667 0.210235 -0.394995
0.115859 0.406747 -0.184455
0.212781 0.438633 -0.082007
-0.280857 -0.292663 0.332887
-0.065021 0.200254 0.395727
0.064258 0.444903 0.027548
0.008924 0.398317 0.197759
0.117156 -0.279475 0.344096
0.070170 0.204718 -0.397805
0.282148 0.084018 -0.439713
0.054518 -0.440197 -0.065666
-0.095335 -0.019914 0.442616
-0.076703 -0.444001 0.026239
0.070568 -0.323677 0.303263
0.203778 0.044613 0.440855
-0.234126 -0.287545 0.337399
-0.252943 -0.444458 0.012610
0.208331 0.444566 0.031112
-0.050570 -0.248510 0.366885
0.004828 0.190608 -0.404995
0.110558 -0.429453 0.113677
-0.208098 -0.444583 -0.012992
-0.054881 0.036186 -0.446005
0.034302 0.392063 -0.214386
-0.161906 -0.368867 -0.250732
0.149325 0.224017 0.382889
0.086261 -0.431725 0.105033
0.179851 -0.308688 -0.322606
-0.277976 -0.246825 0.368030
-0.242539 0.042502 -0.445407
-0.002860 -0.411755 -0.170513
-0.290119 -0.415412 0.156884
-0.279510 0.375274 -0.242812
-0.010560 -0.429693 -0.117205
0.033109 -0.037626 0.441418
-0.076863 0.173111 -0.412600
0.189110 0.019397 0.442665
0.026206 -0.272878 0.349213
-0.050788 -0.115812 0.427652
-0.147332 -0.185513 0.402436
-0.281070 -0.444599 -0.012470
0.240319 0.428586 -0.124541
-0.290257 -0.444376 0.015226
-0.020709 0.421230 -0.147924
-0.211834 -0.347404 -0.280045
0.165830 -0.276462 -0.350786
0.091480 -0.024036 -0.446840
0.119662 0.009464 0.442977
-0.228244 -0.226566 -0.385129
0.039504 0.145495 -0.423170
0.135749 -0.041652 0.441038
-0.128085 -0.441359 0.053972
-0.271002 0.285608 -0.344363
0.013373 -0.370914 -0.247720
0.154702 -0.377924 -0.236891
-0.044906 -0.287535 0.337408
0.019558 0.382112 -0.231543
-0.104729 0.187800 -0.406244
0.250723 0.377469 0.235040
-0.261963 0.434717 0.096235
-0.225728 -0.236752 0.374751
-0.009786 0.229640 -0.383917
-0.098480 0.408618 -0.180131
-0.190657 -0.147052 -0.422240
0.028017 0.156401 0.414890
0.032054 -0.333349 0.292363
0.151410 -0.442554 -0.045905
0.106253 -0.106912 0.430013
0.007453 0.176794 0.406653
0.134416 -0.138995 0.420787
0.199089 0.368952 0.247761
0.169637 -0.349104 -0.277853
-0.156904 0.333886 0.292916
-0.058898 -0.035000 -0.446020
-0.244089 -0.419367 0.145898
-0.169031 0.369336 0.247197
0.204185 -0.039834 0.441209
-0.090735 -0.073680 -0.441191
-0.125194 0.050640 0.440285
-0.288116 -0.189879 -0.404844
0.224785 0.060613 -0.443423
0.126646 -0.228957 0.379361
-0.088655 -0.039540 0.441237
0.214140 -0.410921 -0.172443
-0.224142 -0.249966 0.365895
-0.247166 0.131528 -0.427737
0.174663 0.094323 -0.437410
-0.118979 0.061460 0.438935
0.163880 -0.402251 -0.192379
-0.104467 -0.074680 0.436679
-0.013122 0.061381 -0.443301
-0.211740 0.333834 -0.297328
0.174740 -0.008513 -0.447328
0.230545 -0.419639 -0.149496
-0.197165 -0.303242 -0.327914
0.232806 0.180769 -0.409286
0.169975 0.445764 0.003655
0.261247 0.106159 0.430411
0.224144 0.376267 -0.241351
0.113161 0.444086 -0.040537
0.185264 -0.254050 -0.367474
0.053950 0.409449 -0.178211
-0.110669 -0.443576 -0.035095
0.212312 -0.006696 0.443032
0.146940 -0.205416 -0.396927
-0.277195 0.359549 0.261356
0.073449 -0.378187 0.232093
0.022714 -0.182486 -0.408100
0.033320 0.417482 0.153981
-0.042347 -0.438223 -0.078126
-0.031870 0.223173 -0.387741
-0.106018 0.442835 0.049422
-0.071664 0.087706 -0.438889
0.256301 -0.184131 0.403035
-0.268935 0.167437 -0.415056
0.157481 -0.444523 0.010537
-0.029632 -0.317488 -0.313806
-0.243635 -0.351428 0.270504
0.143367 0.201095 -0.399652
0.057728 0.445762 0.003727
-0.084325 0.372413 -0.247022
0.165040 0.396814 -0.205062
0.018969 -0.323655 -0.307639
-0.001218 0.444559 0.031177
-0.067372 0.073084 -0.441447
-0.022450 -0.403400 -0.189822
0.206729 0.427478 -0.128356
0.066492 -0.018357 -0.447019
0.025541 0.091335 -0.438078
0.068510 0.394081 0.206072
0.118124 -0.337589 -0.291907
-0.236600 0.062421 -0.443136
0.141186 0.187141 0.402176
-0.252859 0.088334 -0.438748
0.093972 0.399444 -0.199900
-0.047023 -0.444193 0.021041
-0.014046 0.277673 -0.350642
-0.071163 0.328636 -0.303224
-0.197306 0.202207 0.394731
0.125615 -0.041023 0.441097
0.128204 0.378182 -0.238187
0.077497 0.261143 -0.363350
0.204396 0.445689 0.006045
0.257686 0.355097 -0.271449
-0.138602 0.343745 0.281730
0.093029 -0.094663 -0.437105
0.018464 -0.411111 -0.172002
0.023804 0.417867 -0.157266
0.274387 -0.303114 -0.328026
-0.059463 0.189408 0.401195
-0.063588 -0.239892 0.372742
0.043669 -0.008675 0.442970
0.166563 0.398612 0.197179
-0.279282 -0.056733 0.439521
-0.280953 0.181827 -0.408829
-0.240382 -0.159036 0.413572
-0.142761 0.412557 -0.171030
-0.130820 -0.366657 0.249630
-0.242577 0.086628 -0.439130
-0.132206 -0.331403 0.294570
-0.201792 0.028331 -0.446738
0.240583 0.377712 0.234628
0.116511 -0.414816 -0.162894
-0.149753 0.074355 -0.441246
-0.243578 0.367974 0.249201
0.073159 0.336081 0.290426
-0.241471 -0.380909 -0.231843
-0.076026 0.441343 -0.064898
-0.214749 0.445912 -0.003308
-0.002720 -0.395433 -0.205761
0.002845 0.347660 -0.281036
-0.283696 -0.444259 -0.023302
-0.242901 0.366232 -0.256117
0.038474 -0.245831 0.368706
0.227680 -0.299759 0.326631
0.285469 -0.063617 -0.442784
-0.104508 -0.441307 0.054301
0.030370 -0.207305 -0.395965
-0.216907 -0.159307 -0.417828
0.120210 -0.212315 0.389059
-0.012307 0.331531 0.295587
-0.265681 -0.332483 -0.297698
0.223773 0.417697 -0.157736
-0.228415 -0.444744 0.003501
0.211321 -0.427123 0.121696
-0.194521 0.407404 -0.182937
-0.120421 -0.444400 -0.018797
-0.189298 -0.053103 0.439955
-0.207554 -0.327278 0.299248
0.007222 -0.015035 0.442770
0.202387 0.379644 -0.235716
-0.048547 0.392577 0.209024
-0.195295 -0.138100 -0.425463
0.050747 -0.081695 -0.439921
-0.108126 -0.444879 -0.000794
-0.235407 0.153841 -0.420165
0.075366 0.420687 0.145079
-0.056599 -0.373953 -0.243249
0.156822 -0.431153 0.107596
0.018054 0.351084 0.272269
-0.206579 0.274144 -0.353379
-0.237430 -0.403636 -0.189277
-0.274949 0.193642 0.399095
0.018583 0.441394 0.060226
0.244031 0.266481 -0.359323
-0.285892 0.153118 -0.420425
0.279644 0.274059 0.349092
-0.136668 -0.215805 0.387139
-0.203078 -0.145870 0.418312
0.124012 -0.358642 0.261203
-0.166048 -0.291329 0.334063
-0.016122 -0.071106 0.437245
-0.126180 0.257109 0.361738
0.100986 0.180316 -0.409482
0.022566 0.336627 -0.294160
0.034866 -0.106229 -0.434519
-0.091635 -0.353956 -0.271598
0.158029 0.163397 0.412371
0.243103 -0.444910 -0.002582
-0.117669 0.443443 0.042989
0.096912 0.115538 -0.432383
0.121491 -0.327182 -0.303711
0.277625 0.436112 0.089991
0.110537 -0.214541 0.387887
0.041876 0.227464 -0.385204
-0.081364 0.421881 0.141763
-0.003937 -0.366158 -0.254718
0.281957 0.162430 -0.417073
0.206947 -0.203759 -0.397772
0.253565 0.440261 -0.071732
0.158605 0.326166 0.301672
0.117739 0.129989 0.423831
-0.181642 0.182086 -0.408716
0.238320 -0.404877 -0.186408
0.188392 0.439090 0.074768
-0.268559 0.330726 -0.300853
-0.202263 0.063008 -0.443043
-0.182023 -0.261789 0.357814
0.272340 0.240349 -0.377481
0.141491 0.429880 -0.120090
-0.066097 -0.052351 0.440026
0.149124 0.210415 0.390550
0.104314 -0.313819 -0.317475
-0.179286 -0.313255 0.313685
-0.289988 0.185038 -0.407439
-0.230692 0.283882 -0.345826
-0.256846 -0.373723 -0.243586
0.205107 0.170582 -0.413694
-0.048736 -0.394262 -0.208059
0.038948 -0.443012 0.036706
-0.113116 0.206545 -0.396874
-0.108990 -0.399028 0.194352
-0.150300 -0.327873 -0.302926
0.087643 0.378016 -0.238468
0.084086 0.043374 0.440972
0.203217 0.276077 -0.351880
-0.071283 0.437995 0.081571
0.212075 -0.108115 0.429744
0.087150 0.050759 -0.444627
0.106420 0.348403 -0.280077
0.200180 -0.282064 0.342088
0.008629 0.229438 -0.384036
0.166868 -0.399245 0.193925
0.142330 0.191704 -0.404437
0.183158 0.437040 0.085844
0.122661 -0.343765 -0.284737
0.201088 0.347897 0.276378
0.091268 0.209433 0.391050
-0.197839 0.429693 0.116380
-0.154071 0.442943 -0.052630
-0.237522 -0.444729 -0.008328
-0.119205 0.436683 -0.091793
-0.094106 0.404745 -0.189082
0.275932 -0.181380 -0.408579
0.239056 0.314375 -0.317944
0.253469 -0.040167 -0.445531
-0.181917 -0.100560 0.431433
0.087956 0.153931 -0.420133
-0.179826 0.018835 -0.447036
0.236572 0.376899 -0.240357
-0.213178 -0.437908 -0.080115
0.247959 0.402056 0.190420
0.270783 -0.436862 0.082055
-0.192459 -0.262732 0.357083
-0.031246 -0.351756 -0.274434
-0.009610 -0.438140 0.074297
-0.009808 0.442468 -0.057659
-0.253003 -0.284490 0.340092
-0.251624 0.445651 -0.011616
-0.024559 0.339635 -0.290748
0.159106 0.443298 -0.048879
0.154929 -0.056282 0.439593
0.222524 -0.434821 -0.095538
-0.014136 -0.305060 -0.326234
0.134601 -0.341292 0.283353
0.059691 0.069782 -0.441970
0.286166 0.445364 -0.020755
-0.009920 -0.240337 -0.376793
-0.264714 0.091529 -0.438034
0.100228 -0.039738 -0.445572
-0.234151 0.364203 0.254748
0.204234 -0.293468 -0.336530
-0.214924 -0.233359 -0.381111
-0.202275 0.268619 0.353311
0.053876 0.127023 -0.429046
0.102570 0.196608 -0.401938
0.255816 -0.420006 0.144124
-0.012320 0.444612 0.030618
0.191297 -0.107395 -0.434259
-0.183163 0.334666 0.292031
0.019549 -0.012630 0.442845
-0.063859 -0.428919 -0.119870
0.178845 -0.230567 -0.382763
-0.036905 -0.015487 0.442756
0.053720 -0.019124 0.442641
-0.000190 -0.233858 -0.380816
-0.266235 0.394807 -0.209001
-0.137101 -0.355661 -0.269400
0.126711 -0.371685 0.242232
-0.149499 0.401959 0.190611
-0.125089 -0.191908 0.399457
-0.013595 -0.435295 -0.093418
-0.129802 -0.425135 0.128541
-0.263939 0.442679 -0.055421
-0.148563 -0.353839 -0.271749
0.120353 -0.134449 -0.426591
0.119483 -0.418923 0.147132
-0.008092 0.307482 -0.324837
0.092367 0.435671 -0.096318
0.017375 -0.359064 0.260660
-0.190931 0.426440 -0.131929
0.235800 0.121366 -0.430689
-0.041812 -0.228924 -0.383735
0.035156 -0.139917 0.420456
0.058581 0.013810 -0.447194
0.263900 0.171187 0.409080
0.169089 -0.104902 -0.434816
-0.252688 0.441807 0.057615
-0.243822 -0.438228 -0.078097
-0.076005 -0.359335 0.260310
0.087595 0.442513 0.052824
-0.021987 0.348777 0.275243
0.156754 0.308004 0.319961
-0.029071 0.195478 0.398160
-0.039822 -0.441489 0.052821
0.008441 0.151856 -0.420879
-0.233273 -0.190276 0.400289
0.175525 -0.359471 0.260135
-0.115504 -0.240572 0.372280
0.017426 0.174827 0.407504
-0.154419 -0.077438 0.436242
-0.011726 0.161141 0.413183
-0.234008 -0.132453 -0.427171
-0.172603 -0.365731 -0.255346
-0.069768 0.443904 0.038106
-0.053439 -0.005956 -0.447409
-0.162410 -0.228047 0.379900
-0.181801 0.157426 -0.418874
0.283125 0.076774 0.436510
0.087672 0.389709 -0.218696
0.078167 -0.120878 -0.430533
0.240375 0.337969 0.288284
-0.056868 0.379888 -0.235302
-0.182973 -0.235729 -0.379710
-0.235323 0.183565 0.403723
0.237430 -0.222309 -0.387646
0.194758 0.440158 -0.072383
0.285528 0.007814 -0.447382
0.171133 -0.435331 0.088902
0.284588 0.071986 -0.441621
0.285809 0.383854 0.224243
0.091513 -0.119713 -0.430872
0.124173 -0.118831 -0.431128
-0.130161 0.223388 0.383261
-0.049643 0.433103 -0.107810
0.002282 0.246934 0.368652
-0.045124 0.079061 -0.440501
-0.136702 -0.210135 -0.394523
-0.200091 -0.160021 -0.417571
-0.014382 0.174299 -0.412086
-0.014012 -0.388864 0.214039
0.277871 0.379264 0.232005
0.214156 -0.267939 -0.357397
0.212003 0.366976 -0.255022
0.031732 -0.156712 0.414409
-0.124724 -0.437997 0.075204
-0.037083 -0.394622 0.202999
0.270994 -0.426997 -0.126484
-0.269659 0.404078 -0.190622
-0.182575 0.445371 -0.020530
-0.161181 -0.243422 0.370343
