-0.248285 0.313296 -0.319023
0.090239 0.327928 0.299674
0.244798 -0.130334 -0.427786
-0.160014 -0.392830 0.206516
-0.221697 0.369864 -0.250773
0.046060 -0.290548 -0.339105
-0.150462 0.396362 0.201596
-0.006546 -0.318064 -0.313229
-0.017024 -0.439647 -0.069136
-0.272710 -0.312803 -0.318491
-0.168032 0.438495 0.078525
-0.041425 -0.102696 -0.435309
0.089066 0.148247 0.417825
-0.129883 0.201411 -0.399490
0.219922 0.097285 -0.436748
0.091926 -0.401346 0.189804
0.185902 -0.345019 -0.283119
-0.245020 0.436996 -0.090391
0.092904 -0.380140 0.228790
0.088625 -0.439476 -0.070215
0.082793 -0.138195 -0.425429
0.068906 -0.444711 -0.008912
0.286631 0.441712 -0.062568
-0.052914 -0.444492 0.011539
-0.206683 0.405113 -0.188231
0.107472 -0.075798 -0.440855
-0.223995 0.279522 -0.349208
-0.014963 -0.437038 -0.085607
-0.197652 -0.441715 0.050430
0.268946 0.412419 -0.171347
0.085515 0.062931 -0.443055
0.142918 -0.068212 0.437703
0.234622 0.432949 -0.108497
0.102398 -0.129334 0.423723
0.099021 0.405797 0.182296
-0.052589 -0.041493 -0.445406
0.034114 0.206805 0.392389
0.222460 0.269229 0.352838
0.163164 0.445935 -0.002562
-0.200391 -0.176864 -0.410533
-0.039085 -0.430900 0.108697
-0.229117 -0.145412 -0.422831
-0.275968 -0.190559 -0.404497
-0.154415 0.345950 -0.283241
-0.082158 -0.395121 0.202021
0.077325 -0.178022 0.405678
-0.221197 0.411409 -0.173682
0.201283 -0.370854 0.243454
-0.252271 -0.032510 0.441902
0.273163 0.180985 -0.409193
-0.072944 0.240834 -0.377152
-0.132685 -0.321772 -0.309522
-0.243344 -0.023417 -0.446860
-0.248523 -0.163394 0.412003
0.243431 -0.395066 0.202127
0.081605 -0.276349 -0.350874
-0.148115 -0.420423 -0.147320
0.090246 -0.034988 0.441667
0.105500 -0.248096 0.367166
0.058872 -0.237679 -0.378556
0.166620 0.376905 0.235992
-0.253722 -0.422196 -0.142395
-0.078653 0.386318 0.220077
-0.193974 0.381353 -0.232825
-0.142306 0.444029 -0.041141
-0.214770 0.286624 0.339114
0.233604 0.014098 -0.447185
-0.264445 0.008077 0.443021
-0.063308 -0.311248 -0.320046
0.039563 0.419250 -0.153425
0.266313 0.440373 -0.071023
-0.037473 0.210305 0.390605
-0.004256 0.345787 -0.283450
-0.009315 -0.029261 0.442209
0.188073 -0.361381 0.257394
-0.149368 -0.191347 0.399743
0.142384 -0.204855 0.392860
-0.153493 0.432555 0.105909
0.102411 -0.444715 -0.008788
-0.209945 0.381486 0.228248
0.152882 0.119277 0.426943
0.196563 -0.391830 0.208479
-0.141783 0.319034 0.308931
-0.092015 -0.172853 0.407915
-0.231264 -0.225997 -0.385465
0.019642 -0.186967 -0.406161
0.112781 0.243637 0.370893
0.231116 0.421810 0.141959
-0.158947 -0.206097 -0.396581
-0.200396 0.399013 0.196392
-0.189984 0.257471 -0.365845
0.190082 -0.326291 -0.304722
-0.289793 0.437858 -0.086537
0.014085 0.404622 -0.189365
0.059162 -0.335407 -0.294382
0.089475 -0.444227 -0.024299
-0.152199 0.438535 0.078275
-0.279112 0.319879 0.308086
0.039631 0.411571 -0.173309
0.006417 -0.438482 -0.076491
0.016526 0.311384 -0.320935
0.165980 0.417275 -0.158908
0.028533 0.139444 0.420995
0.113511 -0.155942 -0.419039
-0.071977 -0.114961 -0.432253
-0.230310 0.396956 0.200429
-0.094959 0.435564 0.092444
-0.011648 -0.018908 -0.447002
-0.251440 -0.425485 -0.131687
0.061221 -0.388846 0.214069
-0.191410 -0.277749 0.345434
-0.274681 -0.372711 0.240722
0.034856 -0.150860 -0.420869
-0.050370 -0.352645 0.268935
-0.279401 -0.151236 0.416380
0.244059 0.277826 0.346170
0.046475 -0.323621 -0.307672
-0.232969 0.264431 0.356560
-0.075445 0.197977 0.396887
0.137772 -0.047721 -0.444817
0.105496 -0.268927 0.352278
-0.033589 0.083745 0.435405
-0.098887 0.036080 0.441661
-0.154154 -0.438520 0.071902
0.139224 -0.033041 -0.446205
-0.224453 0.028205 0.442388
-0.186557 -0.380156 -0.233116
0.074461 0.243298 -0.375477
0.177058 0.399649 -0.199498
-0.005146 0.026082 0.442455
-0.158797 -0.167424 0.410264
0.285446 0.443077 -0.051209
0.045062 0.049840 -0.444714
0.231269 -0.240005 -0.377019
-0.053413 0.400999 0.192495
-0.167866 0.441569 0.059121
0.273370 0.439938 0.069418
0.102300 0.310177 -0.322142
-0.221599 -0.087815 -0.438635
0.164677 -0.163823 0.411823
-0.055295 0.444942 -0.031486
-0.248290 -0.436055 -0.090019
0.171883 -0.175404 0.406811
-0.074641 0.364146 0.254833
-0.273907 -0.041519 -0.445404
-0.018953 -0.444167 0.021857
0.096248 0.337504 0.288811
0.188916 -0.286505 -0.342669
0.115342 0.445714 -0.009589
-0.267564 -0.383110 -0.228121
0.120432 0.429823 0.115929
0.007894 0.134334 0.422569
-0.204315 0.104800 -0.435068
0.063779 -0.414739 -0.163107
0.048653 0.440842 0.063707
0.121924 -0.342455 -0.286387
-0.150883 0.147867 0.417962
-0.178806 -0.097333 -0.436508
-0.108148 -0.191825 -0.403853
-0.145826 0.083652 0.435420
-0.151329 -0.217830 0.385942
0.169995 0.371661 -0.248128
0.099733 0.074268 -0.441260
0.245451 -0.286603 -0.342583
0.059645 -0.095157 -0.436994
0.243639 0.185033 -0.407441
-0.273278 -0.444339 -0.020764
0.274393 -0.128368 0.424004
0.190176 0.076661 0.436527
0.023253 -0.170429 0.408964
-0.223567 0.087006 -0.439045
0.043940 0.311073 0.316892
-0.060411 -0.425162 0.128447
-0.054557 -0.325108 -0.306063
-0.242259 0.360514 -0.264465
-0.075018 -0.444652 -0.010794
0.243282 -0.118176 -0.431318
0.271628 -0.334052 -0.295918
0.200653 -0.272544 -0.353825
-0.110018 0.397170 0.200009
0.185592 0.417085 0.155084
-0.126728 0.418120 0.152209
0.283883 0.253058 -0.368844
-0.200854 -0.422796 0.136374
0.005292 0.390902 0.212310
0.194229 0.082404 -0.439971
0.156623 -0.267743 0.353196
-0.204760 -0.271980 0.349909
0.188248 0.035177 -0.446100
-0.201918 0.251401 -0.369970
0.283436 -0.400511 -0.195794
-0.155530 -0.434307 -0.097836
0.184078 -0.431284 -0.111360
-0.096643 -0.416881 0.152803
0.258802 -0.333859 -0.296137
0.163872 0.285131 -0.344784
-0.150089 0.441151 0.061756
-0.229534 -0.314636 0.312305
-0.143046 -0.305285 0.321656
0.138144 0.428501 -0.124836
-0.141066 -0.401803 0.188905
0.175725 0.364699 -0.258373
0.100612 0.369641 0.246747
-0.174418 -0.443612 -0.034710
-0.047962 0.057415 0.439576
0.099752 -0.064662 -0.442619
-0.043389 0.179600 -0.409792
-0.054529 0.424294 0.134960
-0.234371 -0.350061 -0.276620
-0.068327 -0.379926 -0.233505
-0.222438 0.084914 0.435159
0.189592 0.112651 -0.433221
-0.080941 -0.309910 -0.321384
-0.099548 0.023256 0.442544
0.016840 0.155373 0.415260
-0.207539 0.430969 0.111987
0.267199 -0.415187 0.157510
0.186846 0.241246 0.372518
0.076846 -0.142063 0.419683
-0.137081 0.375180 -0.242950
0.094360 -0.427911 -0.123339
0.005710 0.378106 -0.238317
-0.223914 0.334422 -0.296661
0.024318 -0.204029 -0.397634
-0.009172 -0.256859 0.361211
0.035622 0.325183 -0.307136
-0.058528 -0.444477 -0.016363
-0.220070 0.277045 0.346776
-0.235389 -0.432992 0.099368
0.166002 -0.116161 0.427551
-0.150469 -0.028437 -0.446640
-0.277169 0.350339 -0.277582
-0.239786 -0.168750 0.409690
0.051723 -0.444075 -0.029161
0.216003 -0.367898 -0.252158
-0.063500 0.333167 0.293731
0.100039 -0.267836 -0.357478
-0.097631 -0.421130 0.141002
-0.172278 0.040504 -0.445596
0.277375 -0.395395 0.201482
-0.188628 0.191539 -0.404520
0.180923 -0.389875 -0.216669
-0.007700 -0.218048 0.385813
0.224151 -0.444681 -0.009875
-0.011727 0.044054 -0.445261
-0.014000 -0.274056 -0.352652
-0.191677 0.299137 0.328083
0.240852 0.270097 0.352165
0.010921 0.032150 -0.446386
-0.287144 -0.364614 0.252637
0.151609 0.344244 0.281087
-0.152110 -0.265525 -0.359270
-0.161204 0.323041 0.304924
-0.087744 -0.275791 0.346954
0.259404 0.389406 0.214855
0.258780 -0.436531 0.083536
0.218475 0.189158 0.401303
-0.104894 0.135797 -0.426497
0.105953 0.235456 0.376124
-0.286083 0.110906 0.429349
-0.036010 -0.441654 0.051068
-0.262542 -0.175510 -0.411118
0.220025 0.053295 0.440034
-0.227883 0.325166 0.302799
0.263379 0.326069 0.301782
-0.277044 -0.404734 -0.186738
0.108137 0.174891 0.407476
-0.239563 -0.425772 0.126347
-0.080904 -0.317909 0.309031
-0.064034 0.153453 -0.420305
0.158727 -0.340459 0.284298
-0.162306 0.443881 0.038358
0.111826 0.377334 -0.239621
0.182645 -0.162681 0.412260
0.242657 0.161594 0.413020
0.091255 0.043996 0.440913
-0.040344 0.342465 -0.287538
0.253585 0.333865 0.292939
-0.109141 0.092378 -0.437844
0.257645 -0.366647 -0.253999
0.192436 -0.422222 0.137968
0.003234 0.445773 0.003379
-0.003850 -0.201975 0.394328
-0.195884 -0.197899 0.396404
-0.174335 -0.328162 -0.302599
0.072104 0.073149 0.437084
-0.212671 -0.052388 -0.444376
0.270506 0.342728 -0.287240
-0.020044 -0.375111 0.237191
0.285293 -0.219087 0.385198
-0.237775 0.199314 -0.400559
-0.089866 -0.435337 0.088876
-0.182778 0.413723 0.163982
0.101612 0.109756 -0.433960
-0.138925 -0.419243 0.146243
-0.241211 0.029068 -0.446677
-0.289988 0.053324 0.440031
-0.024731 -0.422429 0.137393
0.248964 -0.407237 -0.180955
-0.087732 -0.229810 0.378857
0.068969 0.304375 0.323465
0.229920 0.374038 -0.244631
0.153845 0.100026 0.431781
-0.014859 0.445629 0.007946
0.135176 -0.265102 0.355245
0.273530 0.445843 -0.005484
-0.180650 0.193062 0.399391
0.065061 0.172666 -0.412793
-0.076091 -0.360478 0.258722
0.235610 -0.356639 -0.268139
0.094609 -0.018813 -0.447004
-0.228920 0.230377 -0.383481
0.042359 -0.434984 -0.094807
-0.045472 -0.316103 0.310837
-0.161364 -0.431774 0.104816
-0.277807 -0.024193 0.442482
0.243444 0.422876 -0.143353
0.099215 -0.432568 0.101264
0.122383 -0.325179 0.301629
0.170765 -0.260668 0.358623
-0.043039 -0.366667 0.249615
-0.234119 0.033312 0.441923
0.144888 -0.106025 0.430211
-0.218971 -0.443003 -0.041153
-0.201517 -0.009039 -0.447312
-0.242716 -0.201746 -0.398798
0.025191 0.001218 -0.447590
0.041096 -0.057559 0.439391
0.230904 -0.395088 0.202085
-0.271279 0.399747 -0.199305
-0.152719 -0.408826 -0.177283
0.071426 -0.111794 -0.433173
0.090598 0.381700 0.227884
-0.094865 -0.444701 -0.009216
-0.116891 -0.144185 0.418919
0.171818 0.192453 0.399701
0.217815 0.320208 -0.312111
-0.066298 0.104610 -0.435110
0.090002 0.432559 0.105890
-0.086756 0.433192 0.103057
-0.199994 -0.441835 -0.053512
-0.220668 -0.137326 0.421388
-0.196478 -0.158794 0.413660
0.061886 0.362824 -0.261132
0.161181 -0.399496 0.193433
-0.179912 0.441090 0.062141
0.240254 0.213370 -0.393397
0.201878 0.075610 0.436694
0.126735 0.345506 0.279460
-0.108296 -0.249003 -0.370904
-0.008530 0.378612 0.233107
-0.071269 -0.409289 0.171859
0.040406 -0.389768 -0.216864
-0.096924 0.436128 -0.094275
0.206457 0.299688 -0.331951
0.191940 0.367953 -0.253585
-0.169796 -0.043317 0.440880
-0.269812 -0.299357 -0.331338
-0.247482 -0.444309 -0.021708
0.092415 -0.440563 0.058998
0.052020 0.057537 0.439556
0.139283 0.309533 -0.322785
0.128684 0.404841 -0.188859
0.251424 0.150178 -0.421484
-0.063441 -0.203303 0.393651
-0.214436 0.140195 0.420724
-0.120189 -0.002856 -0.447506
-0.057070 -0.435425 -0.092835
-0.102694 -0.201413 -0.398967
0.243714 -0.113499 0.428324
-0.019490 -0.007716 -0.447353
-0.184071 0.110411 0.429460
-0.207387 -0.028653 0.442266
0.134883 0.256361 -0.366599
0.132356 -0.239361 0.373103
0.115255 0.100650 0.431642
-0.287725 -0.019560 0.442627
-0.025976 0.267947 -0.358186
-0.073935 -0.319262 -0.312031
0.120380 -0.277047 -0.350333
0.012317 -0.146267 -0.422523
-0.105374 0.250046 0.366538
-0.234906 -0.330991 -0.299390
-0.036495 0.243588 0.370927
0.060685 0.161016 0.413228
0.225426 0.242207 -0.376218
-0.202155 -0.360455 0.258756
-0.263962 -0.020997 -0.446936
-0.205491 0.368256 0.248785
0.139381 -0.313008 -0.318286
0.015632 0.211650 0.389920
0.102512 -0.407015 0.177115
0.171742 -0.160603 -0.417361
-0.221388 -0.019105 -0.446995
0.189081 0.394732 -0.209148
-0.041003 0.384441 -0.227604
0.165095 -0.411672 -0.170706
-0.259009 -0.411683 0.166327
0.007424 0.315291 -0.317027
-0.119085 -0.444101 0.023957
-0.289674 -0.298646 0.327612
0.269179 0.384283 -0.227872
0.233343 0.185155 -0.407388
0.235680 0.444641 0.030311
-0.124103 0.376676 -0.240734
-0.115472 0.080030 0.435994
-0.199630 -0.405199 -0.185664
0.078869 -0.438019 0.075065
0.168283 -0.098584 -0.436228
-0.199910 -0.063850 0.438394
0.130785 0.313511 0.314454
0.209483 -0.354330 -0.271116
-0.096066 0.420804 -0.149106
0.039821 -0.279414 0.344143
0.066755 0.040852 0.441210
-0.019846 0.279670 0.344740
0.002659 0.331736 0.295354
0.207146 0.135731 0.422163
-0.162694 -0.389284 -0.217682
0.138482 -0.378020 -0.236729
0.101439 -0.420383 0.143076
-0.278045 0.435988 0.090549
-0.007164 -0.410749 -0.172839
-0.156821 -0.427894 0.119043
0.239934 -0.095600 -0.436895
0.138357 0.143033 0.419703
0.148303 0.267478 0.354197
-0.083299 0.129755 -0.428252
-0.220284 -0.272781 -0.353642
0.113348 -0.346049 0.277438
0.255627 0.080980 0.435843
0.151297 -0.107580 -0.434217
0.270388 -0.241016 -0.376332
-0.112311 0.117967 0.427324
0.032707 -0.118983 -0.431084
-0.008215 -0.418314 -0.153177
0.144649 0.369116 -0.251873
-0.022544 0.326976 0.300753
0.200079 -0.424893 0.129373
-0.149834 0.287544 0.338303
0.055851 0.438290 -0.084175
0.124581 -0.392339 -0.211834
-0.200440 -0.367728 0.248055
0.179708 -0.324361 -0.306911
-0.047139 -0.403135 0.186081
0.031491 -0.397393 0.197562
-0.074448 -0.444862 -0.000259
0.075018 0.219765 0.385404
-0.086381 -0.353410 0.267948
-0.175444 0.099535 0.431891
0.173637 0.283325 0.341904
-0.023977 -0.363936 0.253635
-0.258719 0.068187 -0.442223
0.227706 -0.128612 0.423933
-0.067332 -0.237926 -0.378411
-0.116214 -0.070284 0.437375
0.029397 0.234888 0.376460
-0.231870 0.136599 0.421911
0.052511 -0.439135 0.068015
0.013740 -0.156036 -0.419006
-0.114842 0.435073 0.094640
-0.012724 0.016390 0.442759
0.270818 -0.443865 -0.032037
-0.123469 -0.230549 0.378420
-0.047092 0.044838 -0.445187
0.119768 0.312350 0.315615
-0.145228 0.302108 0.325463
0.026413 -0.444158 -0.026493
-0.275587 -0.094657 0.432752
-0.071163 -0.327451 -0.303405
-0.053496 0.368969 -0.252089
-0.289563 -0.374591 -0.242309
-0.102876 -0.279176 0.344328
-0.229290 -0.263154 0.356756
0.214889 0.194550 -0.402986
0.247659 0.388756 -0.220308
0.203661 0.445188 -0.026347
0.261197 -0.301408 -0.329530
0.054706 0.341089 -0.289099
0.213950 -0.429593 -0.117547
-0.163271 -0.258868 -0.364199
0.187419 0.445074 0.025615
-0.252117 -0.430863 -0.113176
0.150898 -0.434975 -0.094849
0.259353 0.442381 0.053991
-0.078183 0.375148 -0.242998
0.083555 -0.288829 0.336267
-0.208107 0.313587 -0.318732
0.255987 0.442663 -0.055593
-0.283984 0.114879 -0.432574
0.093692 0.089825 -0.438415
0.058777 0.092517 -0.437813
0.064798 -0.086156 -0.439006
-0.101043 0.086646 -0.439126
-0.250256 -0.274195 0.348192
-0.170635 0.445787 0.002924
-0.206266 0.332443 0.294553
-0.179516 0.288476 -0.341835
-0.228599 0.432602 0.105698
-0.103347 -0.442746 0.039516
0.241954 -0.396488 -0.203691
-0.273738 -0.015144 -0.447120
0.240225 -0.383827 -0.226909
0.210496 -0.135307 -0.426342
-0.229553 -0.367417 0.248512
0.238855 -0.302759 -0.328340
0.273008 0.445102 -0.029067
-0.139818 -0.395934 0.200424
-0.142886 -0.410548 -0.173303
0.099916 -0.146388 -0.422479
-0.151264 -0.066007 -0.442406
-0.079706 -0.428462 0.117087
-0.026004 -0.182571 0.403710
0.040856 -0.196050 0.397347
0.241962 -0.095949 0.432464
-0.072576 0.441678 0.058429
-0.272892 0.445302 0.018355
-0.082533 -0.204560 -0.397364
0.193155 -0.408010 0.174815
-0.044153 0.445691 -0.010338
-0.062590 0.406157 0.181466
-0.149724 0.070821 -0.441806
-0.229213 -0.263473 -0.360862
0.080213 0.357380 -0.268505
-0.118827 -0.388447 -0.219097
-0.195699 0.427676 -0.127675
-0.203427 0.342196 -0.287843
-0.098688 -0.019519 -0.446982
0.071018 0.119986 -0.431090
-0.113024 -0.304094 -0.327162
0.081752 0.441961 -0.060998
-0.180685 0.227365 -0.385262
-0.053991 0.378992 0.232464
0.049339 -0.015106 -0.447121
-0.203015 -0.400112 -0.196578
0.103339 0.443038 0.047274
0.251155 0.369855 -0.250785
-0.163419 -0.444340 0.016376
-0.221397 0.403032 -0.192858
0.068788 -0.203098 -0.398109
-0.129718 -0.415201 -0.161824
-0.182380 -0.157851 -0.418352
0.063554 0.103425 -0.435375
-0.032252 -0.082605 0.435424
0.262286 0.338991 -0.291479
-0.115092 -0.243104 0.370559
0.217178 0.285232 -0.344695
-0.165904 0.221262 0.384518
0.004104 -0.140075 0.420399
0.192686 0.388188 0.216915
0.236891 -0.232938 -0.381361
-0.206908 0.270996 0.351468
-0.000527 -0.298406 0.327824
-0.186312 0.219250 0.385708
0.161871 0.036263 -0.445997
0.236429 0.279382 -0.349316
0.223506 0.163300 0.412406
0.036973 -0.322046 0.304894
0.236006 -0.417308 0.151617
0.155857 -0.443063 -0.040521
0.193011 0.193999 -0.403267
-0.117966 -0.190866 0.399988
0.049420 0.352463 0.270490
-0.015338 -0.170976 -0.413081
-0.045913 -0.266557 0.354116
0.224105 0.291554 0.334768
0.262168 0.312116 0.315849
-0.281456 0.429455 0.117199
-0.128608 0.140634 0.420566
0.104261 0.091534 0.433680
0.102037 -0.197977 -0.400718
0.184275 0.442489 -0.057436
0.235621 -0.105503 0.430328
-0.232918 -0.167790 -0.414459
0.188641 0.400593 -0.197646
-0.183329 -0.404563 0.182781
0.263708 -0.135374 -0.426322
0.112433 -0.261020 0.358383
0.261226 0.112106 -0.433380
0.217440 -0.053010 0.439964
-0.161046 0.388266 -0.221136
0.175313 -0.171087 -0.413032
-0.164832 -0.383936 -0.226725
-0.244473 -0.038491 -0.445690
-0.183505 0.043365 0.440972
0.281478 -0.340526 0.284221
0.285530 0.445359 -0.020899
0.020776 -0.433004 -0.103665
0.255380 0.181292 0.404707
0.079929 0.421240 0.143542
0.164931 0.248434 -0.371987
0.274911 -0.210368 0.390051
0.193058 -0.414560 0.159251
-0.202406 -0.241844 0.371415
0.007584 0.295738 0.331079
-0.242587 0.142221 -0.424348
0.100429 0.305467 0.322498
0.090992 0.014028 0.442834
-0.100290 0.211147 0.390176
0.133903 0.279066 -0.349561
0.212549 -0.127254 0.424328
-0.039114 0.116745 -0.432032
-0.043900 0.153430 -0.420313
-0.098975 -0.253618 0.363413
0.271545 -0.443769 0.028703
-0.073509 0.076757 -0.440866
0.178291 -0.008200 -0.447338
-0.003012 0.436381 0.088788
-0.210895 -0.425015 0.128954
0.043683 -0.365826 -0.255206
-0.240942 0.344460 0.280808
0.164665 -0.075767 -0.440860
-0.149324 -0.203632 -0.397837
-0.209909 -0.342448 0.282042
0.093318 0.139313 -0.425395
-0.066827 0.445655 0.007127
0.021566 0.415113 -0.164916
-0.207599 -0.309766 -0.321528
0.282943 -0.305480 0.321460
-0.189306 -0.189135 0.400869
0.202818 -0.131771 0.423015
0.129942 -0.274399 0.348034
-0.091332 0.090692 -0.438221
0.060346 0.357397 0.264130
0.095627 -0.245399 0.368999
0.017284 0.363685 -0.259865
0.242531 0.344647 0.280567
-0.171155 0.381544 0.228148
-0.117057 -0.114939 -0.432259
-0.067045 -0.375025 -0.241670
-0.094725 -0.307831 -0.323462
-0.039002 0.293905 -0.337049
-0.155485 -0.186189 -0.406498
-0.216405 -0.012826 0.442839
-0.010514 -0.417436 0.151264
-0.014194 -0.207310 -0.395963
0.250711 -0.259590 0.359355
-0.245584 -0.136610 -0.425963
0.135493 0.170232 0.409493
-0.057290 0.374019 0.240306
0.164320 0.053405 -0.444377
-0.265822 -0.440516 -0.063650
-0.117741 -0.413939 0.160975
-0.209763 0.323502 -0.308816
0.187204 0.249094 -0.371538
-0.052108 0.303075 0.324611
-0.072450 -0.195274 -0.402095
-0.212834 0.039488 -0.445692
-0.196472 0.440391 0.066560
-0.211457 -0.208638 0.390933
-0.004405 0.306160 -0.326159
-0.136413 0.024295 0.442511
-0.077235 0.121172 -0.430746
0.145209 -0.444528 0.010393
0.257719 0.407395 0.178605
-0.030228 0.386805 0.219253
-0.026910 0.172454 0.408531
0.254919 -0.417839 -0.154497
-0.232036 0.115240 -0.432469
-0.212653 -0.253926 -0.367558
0.244822 0.173430 0.408109
-0.017585 -0.392159 -0.212186
0.024106 0.165089 0.411718
-0.048773 0.145142 -0.423297
0.139245 0.113867 -0.432868
0.032184 0.351460 0.271783
0.024038 0.441522 -0.063771
0.158962 0.435961 -0.095023
0.135281 0.417158 0.154881
0.219316 0.372016 -0.247606
0.224548 0.427315 0.124564
0.162870 0.330150 -0.301507
-0.289045 -0.400174 -0.196455
-0.221389 -0.343580 -0.284975
-0.041260 -0.212917 0.388752
-0.075760 -0.442567 -0.045769
0.001138 -0.349317 -0.277578
0.179607 -0.381418 -0.230983
0.162623 -0.252880 -0.368269
0.023363 -0.438325 0.073128
0.178950 -0.444076 0.024768
0.156594 0.355376 0.266735
-0.137839 0.428253 0.121336
0.161571 0.355825 -0.270509
0.195676 0.439895 -0.074042
-0.085306 0.221847 0.384172
0.145957 0.346059 -0.283100
0.006535 0.440164 0.067992
0.229604 -0.013897 -0.447159
-0.209967 0.303430 -0.328652
0.162508 0.307126 -0.325193
0.024223 0.444439 -0.036801
0.145983 0.257907 0.361195
0.155232 0.445686 -0.010494
-0.036877 0.334138 0.292629
0.091372 0.422381 0.140374
-0.079367 -0.376725 -0.238919
0.263211 0.043890 0.440923
0.029077 -0.385868 0.219105
-0.030580 0.243023 -0.375664
-0.105186 0.444206 -0.039271
0.038539 -0.439618 0.064967
-0.113040 0.409783 -0.177439
0.157808 0.010780 -0.447289
0.270535 0.267405 -0.358606
-0.017893 -0.198454 0.396122
0.002541 -0.012923 0.442836
0.261612 -0.320826 0.306114
0.234323 0.350550 0.272958
0.080424 -0.154638 -0.419509
0.111427 -0.240396 0.372400
0.170486 0.444842 -0.032545
-0.116242 0.197945 -0.401257
-0.137394 0.320155 -0.312164
-0.079148 -0.440341 -0.064754
-0.060700 -0.212367 0.389032
-0.203139 -0.190977 0.399931
0.069688 0.271021 0.351449
-0.250528 -0.382193 -0.229672
-0.289876 0.232885 -0.381998
-0.199027 -0.390249 -0.215935
0.106100 0.122313 -0.430414
-0.114826 0.361663 0.258487
0.036566 -0.423922 0.132717
-0.244886 -0.428968 0.115345
0.077546 -0.423703 0.133467
0.040695 0.363207 0.256215
-0.001404 0.153272 -0.420370
-0.103199 0.445138 -0.027927
-0.095424 -0.009194 0.442953
-0.121291 -0.160321 -0.417463
-0.109289 -0.407900 0.175070
0.180462 -0.240214 0.372523
-0.002830 0.415537 0.159384
-0.142273 -0.017905 0.442680
0.272323 0.417429 -0.158480
0.082732 0.130611 -0.428004
-0.226925 0.155171 0.415333
-0.270448 0.220810 -0.389139
0.205891 -0.167910 0.410054
-0.198901 0.282859 -0.346619
0.153315 0.444661 -0.034454
0.155666 0.340902 -0.289310
-0.174774 -0.010553 -0.447264
-0.289464 -0.143747 -0.423430
-0.024628 -0.028081 -0.446674
-0.205534 0.115089 0.428160
0.109729 -0.346536 -0.281164
0.008231 -0.297396 -0.333067
0.062784 -0.252425 -0.368578
-0.217003 -0.311719 0.315221
0.208016 -0.420243 -0.147820
0.012241 -0.335844 -0.293886
-0.125424 0.370939 0.244838
0.247363 -0.153477 -0.419927
-0.039057 0.445351 -0.021146
-0.226310 0.423527 0.137191
0.159135 -0.085731 0.434748
-0.219087 -0.395921 0.200450
-0.200373 0.385604 0.221283
0.043897 0.084542 0.435243
0.260703 0.122913 0.425887
0.236232 -0.043420 0.440870
0.115871 -0.442606 -0.045353
0.072827 0.240071 0.373316
-0.243466 0.276415 0.347264
0.269102 -0.282737 0.341566
-0.125113 0.272526 -0.354634
-0.190069 -0.260184 0.358951
-0.130693 0.370795 -0.249403
0.226223 -0.435021 -0.094642
0.198755 -0.238819 0.373471
0.183849 0.044983 -0.445173
0.060891 -0.056545 0.439551
0.112316 -0.398872 0.194658
-0.034630 0.061843 0.438874
0.140672 -0.371812 0.242046
-0.039680 0.326724 0.301039
-0.119376 0.185712 0.402794
-0.122438 0.443428 -0.047504
-0.238419 0.302534 -0.329441
-0.065414 0.049440 0.440398
-0.021027 -0.330756 -0.299657
0.100078 0.427607 0.123558
0.215276 0.444348 0.033418
-0.259330 -0.331137 0.294871
-0.216086 -0.321598 0.305342
0.286056 -0.258466 -0.364473
-0.064530 0.225519 0.382001
0.212790 0.121205 -0.430736
-0.212514 -0.067499 -0.442170
-0.229475 0.406546 -0.184920
0.002776 -0.441836 0.049146
0.124250 -0.418743 -0.151984
-0.204527 -0.322833 0.304107
-0.097723 0.298084 -0.333364
0.251466 -0.103128 0.430859
-0.116312 0.250555 0.366192
0.185838 0.264208 -0.361086
0.277060 -0.444514 0.010833
-0.133530 -0.444523 0.010527
-0.228336 0.445794 0.002695
-0.067219 0.074294 0.436902
0.185581 0.356066 -0.270199
0.142640 -0.415209 -0.161802
-0.203990 0.444701 -0.034035
-0.028987 -0.125038 0.424972
-0.222602 0.041533 -0.445499
0.147768 0.442333 -0.058646
0.046662 -0.444200 0.020809
0.169920 0.412681 -0.170743
0.224372 -0.335991 -0.293719
-0.186802 -0.255656 -0.366382
-0.198174 -0.021127 -0.446932
-0.083001 -0.437410 -0.083259
-0.267000 0.040140 0.441277
-0.129034 0.340530 -0.289733
0.084121 -0.377068 0.233985
-0.065952 -0.318320 0.308620
-0.093011 -0.204278 -0.397508
-0.156229 0.189850 0.401003
-0.195213 -0.388955 0.213885
0.121546 0.445783 0.003042
-0.159840 0.303296 0.324416
0.248984 0.190020 0.400930
-0.155990 -0.214549 -0.392236
-0.209767 -0.369676 -0.249541
0.140388 -0.217802 0.385958
-0.199672 -0.383578 -0.227330
-0.123935 0.434216 -0.102828
0.212687 0.009202 0.442985
0.127979 0.437374 -0.088699
0.168328 0.160547 0.413397
0.049336 -0.407610 -0.180094
0.047285 -0.240213 0.372524
-0.094758 0.415378 0.159824
-0.206419 -0.253600 0.363426
-0.131276 -0.284521 0.340065
0.027715 0.362767 0.256862
-0.290167 0.426035 -0.133324
-0.201135 0.243351 0.371087
-0.223485 -0.433743 -0.100361
0.050156 -0.043582 0.440855
-0.140652 0.195706 -0.402397
0.283852 -0.086990 0.434466
-0.172982 -0.118211 -0.431308
0.105435 0.167873 -0.414867
-0.050560 -0.438969 -0.073420
0.226019 0.069630 0.437641
0.105326 -0.443658 0.029872
0.251057 -0.319762 0.307178
0.236141 -0.080174 -0.440162
0.168088 -0.438515 0.071932
-0.049381 0.171609 -0.413250
-0.288601 -0.419524 -0.149817
0.019225 -0.444915 -0.002408
-0.254079 -0.202138 0.394244
0.016633 -0.375273 0.236953
-0.010514 0.187133 -0.406532
-0.152416 -0.350824 0.271282
0.142788 0.442471 0.053274
0.052411 0.359064 -0.266334
0.159711 0.445324 0.017660
-0.219757 0.248917 -0.371658
0.250183 0.444233 0.034629
0.039275 -0.403855 0.184418
-0.145156 -0.075707 -0.440870
0.187780 -0.344850 0.278984
0.079224 0.205533 -0.397390
0.272375 0.433107 0.103438
0.083019 0.116924 -0.431980
0.108488 0.436162 -0.094124
0.130709 0.439266 -0.078015
-0.001919 0.038139 -0.445820
-0.230198 0.205084 -0.397619
0.094775 -0.092761 0.433176
-0.110244 0.127979 0.424415
0.082881 -0.382719 -0.228783
-0.051660 -0.308833 -0.322460
0.248269 0.113957 -0.432842
-0.093316 0.134264 -0.426942
0.207825 0.445287 0.018849
-0.034374 -0.297716 0.328432
0.241146 -0.257164 0.361004
-0.199754 0.387990 -0.221603
-0.022421 -0.093174 0.433084
0.206829 0.095775 0.432732
-0.158510 -0.444895 -0.003045
0.025360 0.332497 -0.298844
-0.170769 -0.318404 0.308536
0.042395 -0.438192 0.073971
0.244649 0.057605 0.439546
-0.212642 0.024925 0.442491
0.074095 -0.434035 -0.099056
0.154831 -0.351989 0.269781
-0.052777 0.433423 0.102024
-0.058125 0.195158 -0.402676
0.244602 -0.444380 0.015098
-0.156933 0.084660 0.435216
-0.152793 -0.442380 -0.047748
0.000557 -0.376681 -0.238993
-0.081947 0.247666 -0.372509
-0.274238 0.389255 -0.219463
0.004878 0.430081 -0.119398
0.286419 -0.379388 -0.234415
-0.276061 0.326926 0.300810
-0.006298 0.160561 0.413392
0.147593 0.317164 -0.315154
-0.105661 0.048757 -0.444816
-0.011822 0.248417 0.367645
0.238533 -0.444680 0.005547
-0.166446 0.347650 -0.281049
0.150564 -0.294632 0.331151
-0.162676 -0.351901 0.269894
0.021306 0.013654 0.442845
-0.048019 0.442568 0.052241
-0.211604 0.346041 -0.283123
-0.162162 0.433448 -0.106265
-0.123358 0.147949 -0.422286
0.071189 -0.357252 -0.267348
-0.215844 0.444819 0.028429
0.286858 -0.131899 0.422978
-0.020201 -0.398565 -0.199614
-0.019558 0.242874 -0.375765
-0.037126 0.022197 0.442577
-0.123046 0.412638 -0.170842
0.149382 0.437685 -0.087310
-0.201935 0.184392 0.403365
-0.246725 0.434046 0.099238
0.088791 -0.052714 -0.444345
0.285531 0.123443 -0.430086
-0.057380 -0.440463 -0.063986
-0.246479 0.180721 0.404954
0.216417 0.028454 -0.446734
-0.258821 0.440284 0.067235
-0.177479 -0.442632 0.040721
0.038356 0.198126 0.396811
-0.153018 0.353294 -0.273772
-0.058397 0.174603 0.407601
-0.257108 0.134911 -0.426755
0.007058 -0.423374 0.134600
-0.269258 0.435975 -0.094961
0.138866 0.272376 0.350397
0.031376 -0.372413 0.241160
-0.150002 -0.147488 0.417730
-0.051167 -0.183344 0.403375
-0.043537 -0.166941 -0.414827
-0.188453 -0.094547 0.432777
0.285578 -0.151709 -0.420564
-0.081235 -0.010033 -0.447280
0.060161 0.106481 0.430338
0.091904 -0.063953 0.438378
0.053884 0.428595 -0.124512
-0.043210 0.111696 0.429145
-0.069977 0.066906 -0.442426
-0.226867 0.381070 0.228950
0.050376 -0.141068 0.420041
-0.269795 0.131927 0.423268
0.176384 0.092748 -0.437762
-0.082127 0.364950 -0.258003
-0.049687 -0.270166 -0.355670
0.257066 0.268754 -0.357560
-0.268988 0.174564 -0.411971
0.283149 0.171897 0.408772
-0.028020 0.415053 -0.165081
0.064356 0.330438 0.296826
0.230213 0.148006 0.417912
-0.182885 -0.221267 -0.388263
0.189221 0.280728 -0.348272
-0.051201 0.428018 0.122143
0.029080 -0.350096 -0.276574
-0.203324 -0.263674 0.356352
-0.181001 0.349371 0.274477
-0.066076 -0.067936 -0.442100
-0.071302 0.327368 0.300308
-0.279945 -0.084620 0.434996
-0.277182 -0.139629 -0.424913
-0.220075 -0.060376 -0.443298
0.228091 0.315591 0.312374
-0.160557 -0.353488 -0.272201
-0.146221 -0.437112 -0.085145
-0.065246 -0.357285 0.262953
-0.006167 -0.372093 0.241632
-0.050017 0.413508 0.164479
-0.111675 0.380452 0.229995
0.025536 0.220241 0.385122
-0.067366 0.444962 -0.031270
-0.014014 -0.098780 0.431831
-0.125380 0.439648 -0.075599
-0.234125 -0.397914 -0.200892
-0.195484 0.434555 -0.101313
0.049949 -0.338347 -0.291047
0.117426 -0.075452 -0.440910
0.284468 -0.321051 -0.310243
0.242222 -0.178469 0.405485
0.114096 -0.179226 0.405157
-0.077345 0.314409 0.313556
-0.201199 0.435863 0.091105
-0.025951 -0.034261 0.441736
0.073094 -0.315381 -0.315912
0.247105 -0.421137 -0.145336
-0.175196 -0.383388 -0.227652
0.084638 -0.129206 0.423761
0.089257 -0.264726 -0.359889
0.179394 -0.285997 0.338763
0.101280 -0.383046 0.223877
-0.072364 0.118192 0.427258
0.026172 0.200710 0.395494
0.286672 0.197859 -0.401300
-0.238610 -0.191941 -0.403794
0.217990 -0.426940 -0.126679
0.146405 -0.187180 -0.406068
0.084000 0.387504 0.218071
0.170004 0.227155 -0.385387
-0.066505 0.152213 0.416398
-0.061844 0.009690 0.442970
-0.232309 0.206062 0.392767
0.200375 0.291759 0.334587
-0.214631 0.064883 -0.442746
0.090188 -0.423482 0.134230
0.017495 -0.075700 -0.440871
0.055529 -0.253713 0.363349
0.085989 0.337504 0.288812
-0.139352 -0.365906 -0.255089
-0.267597 -0.246795 -0.372404
-0.070254 0.036578 0.441614
0.286883 -0.084461 -0.439385
0.270123 0.429250 -0.122256
0.041332 -0.383821 -0.226919
-0.092645 -0.161779 0.412585
0.118713 -0.141146 0.420013
0.273038 -0.430933 0.108579
-0.184802 0.443412 -0.047669
-0.049542 -0.344973 -0.283179
-0.198262 -0.369141 -0.250329
-0.275400 -0.180779 0.404485
0.285230 -0.095436 -0.436932
-0.048435 0.352757 0.270112
-0.239440 0.264824 -0.360609
-0.266521 0.279367 0.344975
-0.147951 0.172351 0.408576
0.111634 0.018050 -0.447061
0.179359 0.402147 0.190241
-0.258894 -0.351615 -0.274616
0.060282 0.141789 0.420151
0.285491 0.439612 0.071477
0.040258 -0.292436 0.333087
-0.010527 0.220963 -0.389048
0.260639 0.035541 -0.446065
0.005922 -0.233396 -0.381090
0.191546 -0.385381 -0.224281
-0.041150 -0.377457 -0.237681
-0.053151 0.083693 -0.439767
0.037691 -0.128455 -0.428332
0.230149 -0.351002 0.271053
-0.220384 -0.077825 -0.440534
-0.024863 -0.380158 0.228760
0.033728 0.285143 -0.344774
0.045497 0.013153 -0.447215
0.047140 -0.249459 -0.370593
0.178239 0.089561 0.434121
-0.228454 0.107280 0.430160
-0.078662 -0.364398 -0.257307
0.261438 -0.443544 0.031081
-0.171111 0.421997 -0.145794
0.111072 -0.418202 -0.153489
-0.087200 -0.102452 -0.435364
0.122851 0.197709 -0.401377
-0.275832 -0.209718 0.390382
0.089525 -0.216650 0.386640
-0.229517 0.334775 0.291907
0.106557 0.365034 0.253527
0.000574 0.318501 0.309465
-0.162823 -0.440854 0.057164
-0.100559 -0.196658 0.397037
0.170943 -0.186647 0.401946
0.239146 -0.017640 -0.447041
0.073007 -0.436395 0.084141
-0.144925 0.270387 0.351940
-0.073422 -0.133168 -0.426963
0.012599 0.387293 -0.222782
0.136741 0.227037 -0.385456
0.113408 -0.441110 0.055544
0.153395 -0.285539 0.339168
0.186697 -0.132259 -0.427227
0.279750 -0.373735 -0.243568
0.174311 0.045315 -0.445142
-0.259641 0.346092 0.278704
0.091330 -0.410928 0.168073
-0.174641 0.051626 -0.444545
-0.253492 0.430957 0.112026
-0.265517 0.101563 -0.435791
-0.123957 -0.012588 -0.447200
-0.038650 -0.119615 0.426547
0.275431 0.133386 -0.427197
0.256245 -0.428353 0.117465
-0.046758 0.058164 -0.443810
-0.029682 0.198291 -0.401080
0.093026 -0.317228 0.309713
0.208521 0.427743 -0.127445
-0.065113 -0.102765 -0.435294
0.002149 -0.055568 -0.444059
0.023774 0.418648 0.150743
0.261117 0.435462 0.092903
-0.210480 0.407936 0.177354
0.134846 -0.441001 -0.060589
0.229378 -0.114868 0.427926
0.232087 -0.319622 -0.311672
0.008549 -0.126608 0.424515
0.083111 -0.077714 0.436198
-0.068394 -0.438497 0.072047
0.076878 -0.443595 -0.034893
0.021779 0.385592 -0.225657
0.260601 0.402355 0.189834
-0.003132 0.202177 0.394747
-0.128564 -0.200929 0.394861
-0.029163 0.334960 -0.296051
0.196942 0.274503 -0.353100
0.057447 0.160370 -0.417814
-0.133777 0.278814 0.345403
0.137909 -0.444716 -0.008747
0.197616 0.246023 -0.373625
-0.015736 0.395847 0.202607
0.065995 -0.322919 0.304021
-0.288620 0.050875 -0.444616
-0.036908 -0.391056 0.209998
-0.022513 -0.182051 -0.408288
-0.081124 -0.021572 -0.446918
-0.118018 0.436539 -0.092435
-0.068130 0.182584 0.404147
0.033520 0.106632 -0.434658
0.080458 -0.242369 0.371059
0.280146 0.395009 -0.208603
0.023250 0.070744 0.437465
0.162694 -0.324487 0.302414
-0.181153 -0.170175 0.409074
-0.115652 0.219356 0.385645
-0.109715 0.237545 -0.379242
0.086894 0.319978 0.307987
-0.026387 0.403597 -0.191734
0.063648 -0.382716 0.224435
-0.186793 -0.005830 0.443059
0.115530 -0.371788 -0.246433
0.047187 -0.026110 0.442422
-0.107607 -0.211367 -0.393895
0.166087 -0.399106 -0.198551
0.186302 0.120982 0.426448
0.059877 0.437336 0.084516
0.008418 -0.342768 0.281668
-0.005331 0.344031 0.281361
0.236156 0.381195 -0.233093
0.122102 -0.414010 0.160778
-0.003896 0.440419 0.066381
-0.241647 0.070208 0.437549
0.203146 0.113196 0.428710
-0.176619 0.160399 -0.417804
-0.222963 -0.409633 -0.175418
0.003268 0.268553 0.353363
0.087727 -0.348526 -0.278598
-0.184909 0.213905 -0.393124
0.012228 0.046364 -0.445042
-0.216188 0.425519 -0.135099
-0.221185 0.002666 -0.447544
-0.146208 -0.056029 0.439633
-0.212054 0.146053 -0.422969
0.112049 -0.376231 0.235400
0.235523 -0.418737 -0.152001
0.189756 0.400480 0.193513
0.091529 0.089373 0.434163
0.268604 -0.410865 0.168217
-0.002763 0.445171 -0.026877
0.205063 -0.276699 0.346249
-0.135203 0.186248 0.402562
-0.117146 0.108464 -0.434249
0.101113 0.386940 0.219025
-0.112916 0.273174 0.349778
0.197934 -0.380661 -0.232263
0.130147 -0.140105 0.420388
-0.271521 0.138260 -0.425775
-0.109301 -0.428950 -0.119762
-0.192675 -0.425779 0.126325
-0.138573 -0.146202 -0.422546
-0.216410 -0.229653 -0.383303
0.069104 0.235062 -0.380710
0.079488 -0.311040 0.315901
-0.157792 0.408783 -0.179751
-0.277805 -0.160003 -0.417577
-0.218000 -0.261811 -0.362151
-0.208214 -0.115199 -0.432184
0.211010 -0.436179 0.085108
-0.180591 0.062822 -0.443073
-0.172145 -0.283121 0.341268
-0.085209 0.363681 0.255517
0.116693 -0.235555 -0.379813
0.247332 0.438664 -0.081811
-0.183195 -0.442968 -0.041524
0.022182 0.445211 -0.025606
0.205322 -0.340387 -0.288733
0.189459 -0.419235 -0.150620
0.083765 -0.234165 0.376281
-0.243021 0.429151 -0.122597
0.282469 0.385633 0.221235
0.223695 0.442702 0.050825
0.066986 -0.398180 0.196017
-0.244726 0.398588 -0.201580
0.274390 0.033471 0.441908
0.253517 0.423677 -0.141127
-0.160212 -0.186678 0.401933
0.259275 -0.364839 0.252305
-0.206618 0.054496 0.439920
0.144736 0.352034 -0.275397
0.099655 0.406559 -0.184891
0.120067 -0.353022 -0.272803
0.188866 0.375053 0.238783
-0.088560 -0.049861 0.440262
0.096156 -0.365738 0.250983
-0.152571 0.370334 -0.250082
-0.145249 -0.416128 0.154896
0.141784 -0.359764 -0.264111
-0.147246 0.022007 -0.446936
0.087419 0.226749 -0.385627
-0.285993 -0.218173 -0.390092
0.148041 -0.047729 0.440463
0.223044 -0.443370 0.032919
-0.154906 -0.118423 0.426893
-0.124852 -0.245461 0.368957
0.237053 -0.380022 0.228990
-0.258757 0.185284 0.402979
-0.170924 -0.137483 -0.425685
-0.169719 0.203759 0.393941
-0.288716 -0.254212 -0.367363
0.149531 0.164348 0.412029
-0.263258 0.294050 0.332568
0.046296 0.384797 0.222648
0.216548 0.085000 -0.439494
0.052689 0.293344 -0.337543
-0.158074 0.103332 0.431042
-0.016340 0.262610 -0.362326
0.142617 -0.370818 -0.247861
-0.271570 -0.238103 -0.378306
-0.095992 0.062247 -0.443164
0.055493 0.149136 -0.421859
0.277127 0.408687 -0.179973
-0.091622 0.091241 0.433745
-0.270340 0.445747 0.004195
0.060481 -0.287774 0.337197
-0.196718 0.320289 0.307676
0.103453 -0.388841 0.214077
0.028499 0.016238 -0.447118
0.238503 -0.310661 -0.320633
0.285447 -0.289476 0.335696
-0.201118 -0.286160 0.338620
-0.157918 -0.238707 -0.377901
-0.146766 0.333621 0.293217
-0.174940 -0.440569 0.058961
-0.058946 0.441630 0.058734
0.132240 -0.330978 0.295052
-0.287934 -0.040513 -0.445499
0.252584 -0.379515 0.229846
-0.099006 0.305917 -0.326402
-0.263886 0.126368 -0.429236
0.177959 0.336427 0.290033
-0.031924 -0.171112 -0.413022
0.240067 0.444565 -0.035473
0.095110 0.065495 0.438296
-0.236082 -0.438872 -0.074032
-0.075343 -0.410004 -0.174560
0.051068 -0.425973 0.125655
0.283377 -0.127989 -0.428468
0.246944 -0.010616 -0.447262
0.188229 -0.290673 0.334642
0.221360 0.393838 0.206550
0.233470 -0.334241 0.291351
-0.005093 0.213193 0.389134
-0.110794 -0.031032 0.442041
0.192754 -0.368139 0.247450
0.233885 -0.162736 0.412240
0.095074 -0.145216 0.418548
-0.261527 -0.368754 0.246545
0.250730 -0.443904 0.027266
0.042571 0.355382 -0.271081
-0.178220 -0.050471 0.440204
-0.040339 0.311354 -0.320965
-0.162245 -0.422999 -0.140165
-0.143881 -0.432787 -0.104639
0.249853 -0.279112 0.344378
0.279221 0.083657 0.435419
0.083751 -0.400009 -0.196781
0.128739 -0.044719 0.440748
-0.151332 -0.276951 -0.350407
-0.274711 -0.429487 0.113562
0.127885 -0.351988 0.269782
-0.057003 0.029953 0.442240
-0.244113 0.087779 0.434519
0.038062 0.382017 0.227349
0.001338 -0.396296 -0.204068
-0.269567 0.412496 0.166817
-0.248768 0.321280 -0.311038
0.257741 0.356344 0.265488
-0.141408 0.326332 -0.305837
0.090490 -0.258626 0.360010
0.160941 -0.226537 0.380793
0.111357 -0.440441 -0.064122
-0.227129 0.216245 0.387485
-0.048780 -0.433558 -0.101188
-0.265573 -0.443977 0.026496
0.131400 -0.253256 -0.368013
0.108684 -0.105014 -0.434791
0.205683 -0.444818 0.001163
0.165280 -0.075692 0.436519
0.042534 -0.398005 0.196359
0.254591 -0.330905 0.295134
-0.267139 0.436269 0.089290
0.055678 -0.379337 0.230148
-0.064461 0.404473 -0.189711
-0.287657 0.155576 -0.419540
0.004040 -0.386205 -0.222888
0.265279 -0.444502 0.011203
0.248748 -0.299870 -0.330886
-0.040636 -0.421707 0.139399
-0.135663 -0.226238 0.380969
0.130809 0.148036 -0.422255
0.084266 0.397530 0.199303
0.023600 0.438627 0.077696
0.107115 0.153754 0.415843
-0.170991 -0.136323 0.421693
0.179770 -0.300386 0.326078
-0.141873 0.425445 -0.135352
-0.173184 0.305375 -0.326936
-0.112865 0.013813 0.442840
0.145863 -0.418832 0.147384
0.237281 0.430716 0.112857
0.025963 0.296375 -0.334871
0.272296 0.226895 -0.385540
-0.261532 -0.278299 -0.349362
0.066856 0.340377 0.285553
0.278238 -0.027472 -0.446731
0.266573 0.394494 0.205262
-0.169601 -0.419255 -0.150562
0.265105 -0.076964 0.436317
-0.149960 -0.425033 -0.133246
0.030786 -0.426817 -0.127103
-0.019032 0.142344 0.419951
0.191690 0.321797 0.306168
0.069169 0.423405 0.137530
-0.162760 -0.363084 -0.259241
0.189781 0.237838 -0.379069
0.004006 0.219009 0.385851
-0.073734 -0.395328 -0.205967
0.127437 -0.216966 0.386453
0.127514 -0.386173 0.218589
0.092306 0.436829 -0.091138
0.270648 0.444044 -0.040985
-0.180660 0.069416 0.437675
0.254735 -0.439857 0.063460
0.191486 0.062667 0.438744
-0.261645 -0.154926 -0.419405
0.079859 -0.185176 -0.406936
-0.263569 -0.436458 -0.088213
-0.031547 0.131721 -0.427681
-0.122128 0.444423 0.032622
-0.221030 -0.130245 -0.427812
0.177764 -0.433256 0.098186
0.091313 -0.195862 -0.401796
0.001407 0.325936 -0.306286
-0.240009 0.431197 0.111201
0.115294 -0.444792 -0.006318
-0.133068 0.385516 0.221433
0.028593 -0.346311 0.277100
0.212994 0.161197 -0.417517
-0.254343 -0.180199 0.404736
0.188209 0.405304 0.183436
-0.185622 0.420219 0.146379
-0.175160 -0.370163 0.244471
0.061438 -0.444824 0.000953
0.185671 -0.182536 -0.408078
0.232773 -0.414888 -0.162693
-0.054656 0.051928 -0.444516
0.257452 -0.399832 -0.197128
-0.140591 -0.444640 -0.011157
-0.158319 -0.329157 0.297117
-0.065366 -0.216157 -0.391285
0.088103 -0.444579 0.008756
0.231184 0.297431 0.329587
0.228087 -0.364365 -0.257356
0.129323 -0.374347 0.238315
0.011216 0.237132 -0.379486
0.026029 0.242810 0.371455
0.215907 0.434096 0.099014
-0.237786 -0.393621 -0.209317
-0.248709 -0.107202 -0.434302
0.275621 0.237371 -0.379345
0.265226 -0.238413 0.373747
-0.069755 0.346178 0.278593
0.062478 -0.363942 0.253625
0.193740 0.349577 -0.278565
0.023179 0.229297 -0.384120
0.077618 -0.006508 0.443038
-0.206458 0.445706 0.005507
-0.008776 0.427804 0.122880
0.082781 -0.018980 0.442646
-0.181689 -0.441983 -0.051945
0.134211 -0.059748 0.439044
0.214977 -0.402636 -0.191586
-0.143435 -0.214561 -0.392229
-0.124124 -0.135058 0.422060
0.146792 0.334540 0.292174
0.284528 0.093287 0.433288
0.060870 -0.439762 -0.068412
0.118253 0.211918 -0.394137
-0.161280 0.405343 0.183346
0.160135 -0.378795 -0.235418
0.029279 0.443460 0.042809
-0.126646 0.420990 -0.148591
-0.184549 0.329274 -0.302500
0.011532 0.215188 -0.392464
-0.094139 -0.064542 0.438285
-0.219533 -0.418114 -0.153733
-0.075502 0.219759 0.385407
-0.275986 -0.317746 0.309194
0.112220 0.431658 -0.113968
0.142336 0.066415 0.438150
-0.233306 0.017577 0.442722
0.108054 -0.056543 0.439551
-0.288473 0.194390 -0.403068
-0.251466 -0.050367 -0.444567
0.051540 -0.115564 0.427724
0.275178 -0.003566 0.443130
-0.001817 -0.421057 0.141204
0.247207 0.169427 -0.414194
0.112089 0.442584 0.052073
0.176121 -0.149295 -0.421433
-0.158800 0.400108 0.194244
0.230876 0.405843 -0.186545
0.065853 -0.432802 0.100218
-0.035988 -0.183758 0.403196
-0.214487 -0.429796 -0.116851
-0.154025 0.309731 -0.322588
0.181330 0.323558 0.304408
-0.030267 0.236424 0.375552
0.200005 -0.130876 -0.427629
-0.099700 0.374321 0.239861
0.230284 0.205609 -0.397352
0.215680 -0.272340 0.349630
0.167878 -0.366091 0.250463
0.158807 -0.444011 -0.030491
0.044872 0.339952 -0.290389
-0.136915 0.435836 -0.095580
-0.067928 -0.136438 0.421659
0.217710 0.384503 0.223145
0.080972 -0.443282 0.033845
-0.033756 0.276063 0.347537
-0.065195 0.387574 -0.222306
0.271464 -0.272108 0.349810
-0.242486 0.267403 0.354255
-0.204710 -0.409413 0.171573
0.085221 -0.426024 0.125481
0.082896 0.023305 0.442542
-0.190624 0.278151 -0.350271
-0.192622 0.063627 0.438592
0.176286 -0.247615 -0.371847
-0.051443 0.123918 0.425595
0.186631 -0.410250 -0.173993
0.070148 0.264193 -0.361098
0.232052 -0.390574 0.210945
0.222214 0.074959 -0.441151
-0.053652 -0.096221 0.432403
0.189672 -0.033863 0.441774
-0.118947 -0.416481 -0.158268
-0.016605 -0.087392 -0.438730
0.064728 -0.028601 0.442271
0.102650 -0.403997 -0.188442
0.252118 0.445383 0.015772
-0.034473 -0.360685 0.258418
-0.160125 -0.373503 0.239556
-0.203791 0.139161 -0.425450
-0.272650 -0.441667 0.050936
-0.183993 0.304804 -0.327440
0.183166 0.228517 -0.384581
-0.151384 -0.202209 0.394208
-0.254836 0.422270 -0.145037
-0.154759 0.384988 0.222326
-0.112559 0.040776 0.441217
-0.027420 -0.324064 -0.307229
0.259013 0.266415 0.355021
-0.100792 -0.092971 -0.437483
-0.199119 -0.038140 0.441369
-0.278947 -0.082222 -0.439838
-0.039993 0.269429 -0.357037
0.127803 -0.023181 0.442514
-0.129226 0.409768 0.173121
0.186701 -0.261309 -0.362540
0.222282 -0.441790 0.049639
0.274361 -0.197866 -0.400775
0.199420 0.399267 -0.200248
-0.000166 0.008311 -0.447367
0.146790 0.418560 -0.155340
-0.027253 0.445669 0.006671
-0.231170 -0.191320 0.399757
0.008338 -0.042350 -0.445325
-0.184520 0.088307 -0.438754
0.179664 0.325213 -0.307106
0.220418 0.391551 -0.215392
0.107592 -0.400185 -0.196434
0.105482 -0.442577 0.041304
-0.177665 -0.343012 0.281354
0.282784 -0.239416 0.373065
0.163287 0.437196 0.085145
-0.123141 0.060622 0.439068
0.055106 0.247240 0.368445
-0.111608 0.242628 0.371579
-0.106911 -0.325830 0.300890
0.084695 0.281473 -0.347694
-0.289990 0.445128 -0.028247
-0.133060 -0.028279 0.442302
0.220143 -0.145536 0.418433
-0.182111 -0.441700 0.050591
0.205160 -0.028162 0.442313
0.218353 0.310207 -0.322112
0.168494 -0.007823 0.442996
-0.286216 0.374496 0.239604
-0.218699 -0.442060 -0.051134
-0.133092 0.196190 0.397797
0.029791 -0.294814 -0.335344
0.013550 -0.114314 0.428087
0.214554 -0.437283 -0.084061
0.015016 0.331301 0.295847
0.145587 -0.364859 -0.256629
-0.116769 -0.288442 0.336608
-0.082191 -0.369532 0.245401
-0.173333 0.313303 0.314662
-0.036986 0.054726 -0.444252
-0.007401 0.445470 -0.017359
0.081787 -0.414247 -0.164474
0.101230 0.052964 0.440065
0.083303 0.025884 -0.446814
0.130189 -0.131397 -0.427477
0.187794 -0.170951 -0.413091
0.002254 0.423933 -0.140415
0.284068 0.442851 0.049255
-0.147468 -0.320038 -0.311255
-0.235848 -0.414142 -0.164764
0.150663 -0.331067 0.294951
-0.160697 -0.022740 -0.446881
0.103256 0.275925 0.347644
-0.100390 -0.350690 -0.275809
0.286415 0.269815 -0.356737
-0.215631 -0.160803 0.412936
-0.203105 0.393588 0.207040
-0.023233 0.243994 0.370651
-0.173648 -0.349608 -0.277204
0.272019 -0.130276 -0.427803
0.210078 0.419645 -0.152328
0.179561 -0.428088 0.118375
-0.077360 -0.041208 0.441079
-0.156763 0.345431 0.279556
-0.160115 0.426362 -0.132197
0.072155 -0.086870 0.434493
0.020174 -0.038359 -0.445702
0.274257 0.245357 -0.374078
-0.188245 0.375255 0.238487
0.267142 -0.374201 0.238529
0.168546 0.425207 0.131818
0.119311 -0.364882 -0.256596
0.017051 -0.006434 -0.447393
0.049757 0.227183 0.381017
0.282916 -0.349156 -0.277786
0.123090 0.078605 0.436220
-0.039354 0.141297 -0.424681
-0.125258 -0.119381 0.426615
0.046656 -0.353973 0.267222
-0.038061 -0.296515 -0.333844
-0.225663 0.123890 0.425603
0.089370 0.443530 0.042067
-0.107054 0.355120 -0.271418
-0.011658 0.338447 0.287742
-0.219630 -0.436332 -0.088780
0.161342 -0.404140 0.183758
-0.007533 -0.191473 -0.404032
-0.151947 -0.114760 -0.432311
-0.286466 -0.432541 0.101383
0.228055 0.067521 -0.442328
-0.072439 -0.278263 0.345036
-0.026953 -0.088164 -0.438557
0.203780 -0.435517 -0.092426
-0.162032 -0.306737 -0.324557
-0.068720 -0.440578 0.058909
0.014557 0.021417 -0.446955
0.034567 -0.092237 0.433293
0.043489 0.004486 0.443133
0.114435 0.089779 -0.438425
0.168424 0.203355 0.394147
-0.232922 -0.237028 0.374588
-0.155557 -0.288596 -0.340826
-0.098106 -0.441799 0.049537
0.096647 0.445239 -0.024704
-0.106463 -0.369681 -0.249533
0.120981 0.426383 0.127771
-0.264329 0.391679 0.210786
-0.152685 0.374278 0.239925
0.228194 0.306523 -0.325795
-0.173737 0.048410 0.440496
-0.290053 0.444926 0.027302
-0.032522 -0.161667 -0.416978
-0.112698 -0.434448 0.092851
0.112561 -0.126884 -0.428789
0.045214 -0.155785 0.414743
-0.097384 -0.161583 -0.417009
-0.141053 -0.075450 0.436557
-0.065736 0.429995 -0.119691
0.074984 -0.426287 -0.128927
-0.151534 -0.432693 0.100704
-0.236723 -0.330413 0.295693
-0.237802 0.444453 -0.036658
-0.203777 -0.164642 -0.415822
0.126238 0.274509 0.348743
0.077020 0.347105 -0.281751
-0.276243 -0.253203 -0.368050
0.144110 -0.145839 -0.422677
0.268011 0.395087 -0.208450
-0.199631 0.193815 0.399007
-0.263980 -0.361243 0.257596
-0.168250 0.289989 -0.340501
-0.277422 0.260506 0.359429
0.280748 -0.417626 0.150736
-0.239148 -0.444047 0.025672
0.150622 -0.391838 0.208464
-0.151589 0.428259 -0.125669
0.157567 -0.068918 0.437592
0.164263 -0.314544 -0.316750
-0.155718 0.359964 0.260820
-0.253391 -0.359665 -0.264238
-0.011606 0.309422 0.318543
-0.050583 -0.073225 0.436909
-0.086804 -0.031170 -0.446382
0.023256 -0.211633 0.389407
0.170492 -0.405959 0.179556
-0.066633 0.438070 0.081208
-0.078902 0.212183 -0.394002
-0.249449 -0.277254 -0.350172
-0.045325 -0.418174 0.149213
0.260457 0.362633 0.257060
-0.076077 -0.250737 -0.369725
0.201353 0.156240 0.414948
0.136550 0.380250 -0.234691
-0.039199 -0.271723 -0.354463
-0.159989 -0.419266 0.146179
0.031932 -0.436898 0.081892
-0.266079 -0.387575 0.216218
0.274534 -0.146936 -0.422282
0.175229 0.389628 -0.218833
-0.265876 0.246239 -0.373479
0.032850 -0.175622 0.406717
0.149202 0.398306 0.197780
-0.264331 -0.330806 -0.299600
0.258775 -0.145310 -0.422867
0.065348 0.250014 0.366560
0.109457 0.424852 0.133042
0.176880 0.431357 0.110653
-0.125744 0.422570 0.139848
0.175486 0.078816 -0.440540
0.180113 0.156951 0.414692
-0.288724 0.443442 -0.047349
-0.071809 0.271446 -0.355472
0.268381 -0.264272 0.355889
0.130633 -0.442876 -0.042500
0.089167 0.102598 -0.435560
0.241339 0.440121 -0.072617
-0.104369 -0.080459 -0.440117
-0.276595 -0.014540 0.442785
-0.145313 -0.377092 0.233944
0.228744 -0.271020 -0.355007
0.284930 0.439172 -0.078609
0.019945 0.253495 -0.368547
0.222959 -0.158445 0.413785
-0.019937 0.422312 -0.144918
-0.079286 0.369634 0.246757
0.158000 0.200877 -0.399763
-0.020788 0.445370 -0.020561
0.283707 -0.040776 0.441120
-0.146849 -0.312187 0.314753
0.083065 -0.381932 0.225760
-0.181057 0.445752 0.004047
-0.208382 0.403962 0.186536
