-0.190167 0.247835 -0.434350
-0.138529 0.363172 0.339132
-0.274005 0.290999 -0.406774
-0.183998 0.121688 -0.485288
0.212237 -0.133490 -0.481891
-0.075801 -0.455602 0.197628
0.265793 0.363582 0.338711
0.159968 0.470519 -0.166961
-0.029505 0.465561 -0.180173
0.127309 0.239583 0.434689
-0.242970 0.424459 0.259442
0.030832 0.304261 0.392478
-0.223832 -0.246279 0.430302
-0.019236 -0.477436 0.137612
-0.012054 0.093898 -0.491360
0.171035 0.486079 -0.112591
0.202913 -0.368931 0.331671
0.014913 -0.489892 0.084133
0.286429 0.016245 0.495556
-0.033939 -0.451019 0.207840
-0.237293 0.410024 0.281306
-0.205345 0.341961 0.360383
0.232739 -0.401734 0.291494
-0.063176 -0.230237 0.439228
0.047755 -0.184978 -0.464413
-0.031910 0.482732 0.122230
0.126853 -0.292830 0.400265
-0.279953 -0.496431 0.031152
-0.195265 -0.421891 -0.266132
0.239780 -0.487389 0.098411
-0.154391 -0.403649 -0.293240
0.107248 -0.244972 0.431051
-0.175080 -0.141281 -0.479514
-0.157238 0.291523 0.401930
0.113467 0.031942 0.494852
-0.242768 -0.354541 -0.351298
-0.055186 -0.470649 -0.163269
-0.147048 -0.407893 -0.287336
0.012350 -0.224756 0.441929
0.284576 -0.464546 0.175793
0.237419 0.058307 0.492415
-0.053686 0.330658 0.370619
0.017489 -0.030150 -0.499240
0.116421 -0.194836 -0.460291
-0.252815 -0.062004 -0.496258
-0.268898 -0.459568 -0.192623
0.101029 0.100018 0.485956
0.270952 0.168748 0.466535
0.148382 0.483271 0.120276
0.152974 -0.411719 0.277218
-0.226458 0.497756 -0.028826
-0.285513 0.034423 -0.498999
0.159481 -0.004441 -0.500285
0.105945 0.087531 0.488106
0.035991 -0.416747 0.269977
-0.239563 0.068154 0.491351
-0.227142 -0.368946 0.331654
-0.126120 -0.488073 -0.098420
-0.182068 -0.474351 -0.152538
-0.175252 0.491047 -0.087732
0.044223 0.495809 0.050567
-0.135975 0.414169 0.275029
-0.084950 0.031066 -0.499271
0.271797 0.356901 0.345573
0.179848 -0.416797 0.269895
-0.132473 0.302165 -0.398350
-0.190987 0.483898 0.118007
-0.246725 -0.179952 -0.466299
0.237955 0.475737 0.147139
0.187245 -0.402282 0.290710
-0.265089 -0.147893 -0.477496
-0.223996 0.450781 0.210585
0.168757 -0.282491 -0.411884
0.059662 -0.256119 -0.428898
-0.095438 -0.442453 0.225309
0.281430 0.451471 -0.213471
-0.269434 0.042818 0.494089
-0.097947 -0.028094 0.495075
0.162962 0.417667 0.269729
-0.139830 -0.451136 -0.212138
0.244157 -0.202969 -0.456641
-0.200252 0.382486 -0.321829
0.237787 -0.329465 0.370804
0.151052 -0.123233 0.480226
0.131416 0.498409 -0.014253
0.158597 -0.279699 -0.413836
0.154506 -0.402406 0.290534
-0.145471 0.455975 0.199345
-0.212020 -0.158805 0.469597
-0.180667 -0.462441 0.181404
0.286607 0.109342 0.483766
0.021402 0.023459 -0.499782
0.244574 0.384730 -0.319014
0.085293 0.276730 -0.416485
-0.058728 -0.320607 -0.382980
-0.092999 -0.496706 -0.031195
-0.263833 -0.494638 -0.056724
0.097353 -0.120513 -0.485221
0.221097 -0.395326 0.300087
-0.028817 -0.086166 -0.492518
-0.248357 -0.492746 0.067554
-0.183725 -0.430803 0.246920
0.031231 0.210604 0.449321
0.065644 -0.463078 0.179706
0.056865 0.403334 -0.295025
0.286844 -0.008431 -0.500214
-0.141948 -0.476875 -0.144089
-0.225397 0.260286 0.422630
-0.249483 -0.481694 -0.126633
-0.099397 -0.299644 -0.399696
0.076437 -0.462661 -0.185204
-0.094445 0.278541 -0.415289
0.039723 0.434665 -0.246401
0.214714 0.318990 0.380733
0.273577 0.253524 0.426752
0.182105 -0.023954 -0.499518
-0.208391 0.210790 0.449238
-0.150831 -0.175039 -0.468143
0.149789 0.471846 0.158418
-0.274265 -0.497531 0.006640
-0.081375 -0.441758 0.226629
-0.285156 0.315068 0.383861
-0.272747 0.325165 0.375595
-0.177321 0.452019 -0.212249
-0.262730 0.297030 0.398079
0.211206 0.019288 0.495420
-0.049414 -0.228202 -0.444495
0.114069 0.307702 0.389734
-0.206873 0.195167 0.456249
0.000473 -0.458980 -0.194034
0.194464 -0.040828 -0.498546
-0.188973 -0.361061 -0.344601
0.220799 0.490398 -0.091499
0.227158 0.475918 -0.150301
-0.127226 0.322631 0.377830
-0.150563 -0.492103 -0.074800
0.028063 -0.221725 0.443423
0.096520 0.108788 -0.488241
0.131554 0.257034 -0.429075
0.210042 -0.497505 -0.002259
-0.192853 0.257955 0.424051
-0.102992 -0.087802 -0.492236
-0.186828 -0.353573 -0.352293
0.255775 0.438970 0.234188
-0.125867 -0.497249 0.012919
0.282674 0.407316 -0.289331
0.053893 -0.444370 0.221668
-0.105974 -0.491079 -0.081880
0.272931 0.244033 -0.436531
-0.152948 -0.247803 0.429427
-0.273296 0.497195 0.033453
0.126400 -0.152821 0.471662
0.178123 0.223891 -0.447214
-0.244813 -0.331618 -0.373175
0.182812 -0.010330 0.495647
-0.248833 0.409885 0.281517
0.070587 -0.496339 0.033219
0.172621 -0.112495 0.482896
-0.040861 -0.346509 -0.359548
0.260190 -0.182823 -0.465222
0.215135 0.457012 -0.201123
-0.002496 -0.390339 0.306341
0.014503 0.406977 0.285834
-0.123290 -0.497230 -0.017504
-0.054318 -0.369969 0.330525
-0.145471 0.494193 -0.068400
0.286660 -0.398853 -0.299598
0.221048 -0.347530 -0.358500
0.261983 0.158508 0.470217
-0.129198 0.452810 -0.210486
0.127866 -0.407647 -0.287708
0.111273 -0.418171 -0.271768
0.141902 0.417112 -0.275325
0.098685 0.393154 0.304157
-0.034793 0.075118 0.490243
-0.134120 -0.329489 -0.375103
-0.181728 0.449564 0.213055
0.090295 0.437547 -0.240927
-0.117827 -0.284113 0.406581
-0.189339 0.221111 0.444415
0.206941 0.324790 -0.380048
0.169241 0.357983 -0.349102
-0.245640 -0.197144 0.454898
-0.148413 0.487393 0.102202
0.212742 -0.074813 -0.494472
0.192061 0.405791 -0.291512
-0.129712 0.427536 0.254128
0.043435 -0.497566 0.001134
-0.289131 0.103618 0.485126
-0.048054 -0.052931 0.493063
0.228854 -0.227460 0.440596
0.157465 0.138336 0.476372
-0.016857 -0.470416 0.160152
0.164130 -0.407114 -0.288515
0.248434 0.289872 0.403085
0.168887 0.466903 0.172746
0.263227 -0.277237 0.411120
-0.288565 0.492665 -0.078330
0.124317 0.294979 -0.403771
-0.238241 -0.374598 0.325414
-0.047832 0.222249 -0.448022
0.111385 -0.060315 -0.496440
-0.065780 0.260029 0.422787
-0.139922 -0.215595 0.446443
-0.171657 0.070870 0.490974
0.039860 0.475432 -0.151893
-0.207861 0.300862 0.395188
-0.043699 0.144403 0.474520
0.039799 -0.483063 -0.121672
-0.203718 0.498450 0.002318
-0.174012 -0.154964 -0.475339
-0.139477 0.078490 -0.494018
0.161447 0.054935 -0.497337
-0.120813 -0.403876 -0.292939
-0.126251 -0.395708 -0.303767
0.245230 -0.441070 -0.232565
-0.251659 -0.496899 -0.028814
-0.120562 -0.410330 0.279203
0.127148 0.491584 0.081116
-0.026825 0.494941 -0.061479
0.043062 -0.038292 0.494249
0.138470 -0.119157 0.481351
-0.124368 -0.401341 0.292056
-0.009871 0.189360 0.458800
-0.121460 -0.482363 -0.124209
-0.244383 0.481759 0.125755
0.065094 0.472219 -0.162422
-0.220661 -0.270279 -0.420266
0.109366 -0.294981 -0.403148
0.098063 -0.390758 -0.310328
0.236745 -0.263502 0.420188
-0.005097 -0.027730 0.495105
0.112355 0.456910 -0.201351
0.173788 0.252828 0.427176
0.161174 -0.183007 0.460792
0.219951 0.006569 0.495951
0.115200 -0.362816 0.338422
0.095825 0.361459 -0.345405
-0.188686 0.323626 0.376989
0.044973 -0.494833 0.048644
0.048843 -0.215545 -0.450998
0.119668 0.029381 -0.499407
0.245412 -0.015344 -0.499904
-0.112040 -0.413783 0.274267
0.032130 0.286043 0.405763
0.183684 0.259102 -0.427889
-0.155505 0.221611 0.444152
0.182369 0.485031 0.113479
0.161091 0.196220 0.455776
0.186402 -0.346522 -0.359534
-0.212241 0.495871 0.049797
0.036042 -0.309704 0.387535
-0.207032 -0.244572 0.431281
-0.172188 -0.497480 -0.003642
0.208918 0.444159 0.224022
-0.156290 0.497178 0.033663
0.237288 0.070877 0.490973
-0.231638 -0.094158 0.486738
-0.193993 -0.483482 0.114851
0.172595 -0.490648 0.079739
0.266121 0.277043 -0.416278
-0.053028 -0.488110 -0.098240
-0.193159 -0.388712 0.308383
-0.024565 0.250646 0.428507
-0.246183 0.156820 0.470732
0.166601 -0.161920 0.468523
0.231385 -0.283369 -0.411269
-0.198302 0.009510 -0.500034
-0.204062 -0.447709 -0.219093
0.276391 0.310554 -0.392020
-0.240817 0.410263 -0.285118
-0.215889 0.134507 -0.481750
-0.004068 0.383527 -0.320523
-0.215192 -0.149863 -0.476895
-0.089892 -0.049402 0.493349
-0.086230 0.255206 0.425727
0.191743 0.277223 -0.416159
0.070875 -0.264472 0.419548
0.286838 -0.102392 0.485013
-0.076557 -0.494893 -0.053577
-0.140325 0.443535 0.225289
-0.234580 -0.005055 0.495742
-0.178868 -0.091662 -0.491572
-0.117631 -0.273518 0.413575
-0.075230 -0.497152 0.015080
-0.272582 -0.400818 -0.296993
-0.260816 0.482129 -0.129212
-0.178030 -0.018588 -0.499759
-0.071070 -0.250093 -0.432572
0.028956 -0.117308 0.481861
0.152077 -0.066167 0.491299
0.068024 -0.495853 -0.041731
0.251560 -0.496740 -0.030782
-0.104635 0.456359 -0.202578
0.133685 -0.156351 -0.474916
0.145092 -0.235584 -0.440609
0.199153 0.110597 -0.487862
0.146610 -0.081822 -0.493265
-0.097042 -0.487114 0.099569
-0.040084 0.349373 0.353306
-0.269634 -0.488947 -0.094248
-0.200560 -0.402482 -0.294788
0.047142 -0.386436 -0.315875
0.285236 -0.053664 -0.497159
0.259610 -0.497311 0.011544
0.001674 -0.454422 -0.204968
0.099190 -0.296538 -0.402060
-0.280974 0.347724 0.354999
-0.097997 -0.331409 -0.373365
-0.080050 0.143096 -0.479379
0.122010 -0.496597 -0.032538
0.088956 -0.047096 0.493536
-0.049835 0.034677 -0.498978
0.223872 -0.489235 -0.092870
0.172886 0.225223 0.442250
0.015674 0.469585 0.164971
0.027540 -0.083797 -0.492925
0.185659 0.392545 0.304963
-0.222723 -0.496704 0.025067
-0.082598 -0.493898 0.057298
-0.102571 0.274313 0.413967
-0.287669 0.495183 -0.059237
-0.212733 0.159579 0.469890
0.112620 0.237987 0.435529
-0.088494 0.319463 -0.384618
-0.170550 0.490230 0.088660
-0.020040 0.293586 0.400487
-0.076832 -0.374683 0.325321
0.028245 -0.353076 0.348527
-0.194697 -0.225898 -0.445708
0.106769 0.428256 0.252871
-0.032906 -0.488148 0.094262
-0.227962 -0.289765 -0.406796
-0.155620 -0.449253 0.211776
-0.082368 -0.139796 0.475653
0.231519 -0.497497 -0.002719
0.259193 -0.240814 -0.437855
-0.149655 -0.497494 -0.002880
0.172782 -0.450074 -0.214293
-0.034109 0.497651 0.027829
-0.046794 -0.476332 0.141230
0.064594 0.495647 0.052569
-0.187232 0.148368 -0.477905
0.002218 -0.041929 0.493954
0.170098 0.300287 0.395646
-0.265092 -0.339498 0.361746
0.216975 -0.147510 -0.477613
-0.204961 0.492051 0.077889
-0.004645 -0.019244 -0.499729
0.043751 0.005865 -0.500099
0.246956 0.498631 -0.007735
-0.258319 0.424690 0.259090
-0.046237 -0.294292 -0.403630
0.131285 -0.195388 0.455630
-0.093737 0.226827 0.441405
0.062934 0.067109 0.491464
0.181715 -0.428113 0.251333
-0.038492 -0.185693 -0.464145
-0.131212 -0.154197 -0.475573
-0.013118 0.497924 -0.025081
-0.048332 0.311452 0.386744
-0.226900 -0.413174 -0.279336
-0.113419 0.491761 0.079894
-0.021125 -0.410841 0.278473
-0.055534 -0.458635 -0.194861
-0.087082 0.061887 -0.496420
-0.279007 -0.277668 -0.415257
0.278211 0.497502 -0.034495
0.264751 0.486219 0.107804
-0.083276 -0.468052 0.166449
0.116531 0.497737 0.026762
0.275163 0.496626 -0.045889
-0.164890 0.489148 -0.098758
-0.029993 -0.006806 -0.500287
-0.185212 0.344614 0.357980
0.214890 0.043154 0.494052
-0.041289 0.368665 -0.337449
0.182258 -0.096651 -0.490713
-0.073226 -0.161365 0.468714
-0.093216 -0.482961 -0.122040
-0.101748 0.022872 0.495259
-0.253382 0.381133 -0.323526
-0.129405 -0.153686 0.471363
-0.015797 -0.451438 0.206906
-0.222515 0.283995 0.407195
0.003636 -0.463475 0.178649
0.098823 0.079421 0.489502
0.122529 -0.390634 0.305971
-0.276759 -0.268411 -0.421405
-0.160635 0.496675 -0.045435
0.088211 0.410096 -0.285357
0.187555 0.478965 0.135877
0.248329 -0.492336 -0.073188
-0.013346 -0.299749 -0.399612
0.108656 0.203554 -0.457006
0.158816 -0.496647 0.026357
0.094429 -0.108213 -0.488144
0.074181 -0.089964 0.487616
0.238843 0.028930 -0.499444
-0.265605 0.217258 -0.450482
0.172243 -0.387606 0.309769
0.170440 0.473664 0.153146
-0.048119 -0.154954 0.470926
0.032626 -0.464931 -0.179761
0.228108 0.291910 -0.406087
-0.023135 0.287340 -0.409480
-0.098548 -0.163625 -0.472426
-0.004573 0.426364 -0.260236
-0.028156 0.424580 -0.263163
-0.288096 -0.028854 0.495014
-0.165742 -0.379460 -0.324005
-0.210413 -0.492942 -0.069003
0.074707 0.476559 0.144592
-0.188793 0.382899 -0.321311
-0.127881 0.278256 0.411209
-0.106731 -0.057822 -0.496710
-0.080445 0.497194 -0.040632
-0.268437 -0.435642 -0.242558
-0.030562 0.316839 -0.386870
-0.259684 0.053862 -0.497424
-0.251178 0.060721 -0.496588
-0.211964 0.483718 0.118659
0.249247 -0.325199 0.374464
-0.217535 -0.391066 0.305429
0.162044 0.327483 -0.377737
-0.018840 -0.487560 -0.100869
0.103401 0.063606 -0.496171
0.268724 -0.442286 -0.230098
0.009832 0.469019 -0.170959
0.091041 -0.493107 0.064618
0.191612 -0.395513 -0.304024
-0.117997 -0.468754 -0.168764
-0.138888 -0.390615 -0.310517
0.203449 0.193672 0.456920
0.083662 -0.495200 0.045250
-0.019744 0.171260 0.465592
0.164557 0.463988 -0.184365
-0.166328 -0.473817 -0.154085
0.264049 -0.497273 -0.015155
-0.003861 0.252371 -0.431749
-0.078257 0.112988 0.482900
0.102409 -0.493536 0.060644
0.006767 -0.216709 -0.450475
0.001983 0.406363 -0.290694
-0.001673 -0.481964 0.121237
-0.104156 0.498339 0.008479
0.150596 0.323299 0.377285
0.169973 0.079376 -0.493889
0.159792 0.490217 -0.092549
0.231853 0.088541 -0.492483
-0.033866 0.181020 0.461930
-0.142981 0.464769 0.178254
-0.240305 0.037849 0.494587
-0.019678 0.485409 0.111672
-0.165571 -0.234043 -0.441420
-0.019871 0.492123 -0.081482
0.253430 -0.116990 -0.486059
-0.112112 0.363425 -0.343235
-0.052842 -0.492167 -0.074360
-0.138939 -0.486987 0.100101
0.106495 0.498323 0.009358
-0.141919 0.487274 -0.107561
-0.027753 0.437291 -0.241413
0.085331 0.376202 -0.329128
0.044399 0.373651 0.327616
-0.065303 0.172321 -0.469642
-0.109282 0.483578 -0.123112
0.198933 0.031437 -0.499241
-0.018970 0.466574 -0.177473
-0.279612 -0.300719 -0.398839
-0.258849 -0.492004 -0.075484
0.073162 -0.124005 -0.484391
-0.289675 0.427685 0.253867
-0.113668 -0.146848 0.473707
0.270139 -0.242462 -0.436987
-0.159580 -0.220084 0.444231
0.222638 -0.450772 0.208392
-0.091320 0.194835 0.456397
-0.243172 0.475417 -0.151943
-0.006889 0.483119 -0.125043
0.055825 -0.401728 -0.295787
0.075037 0.013505 -0.499962
-0.144343 -0.488668 -0.095579
0.004611 0.184885 0.460480
0.286870 -0.064509 -0.495987
0.043822 0.407780 0.284705
0.190773 0.289136 -0.408179
0.247426 0.268194 0.417809
0.047908 0.497071 0.034987
0.113767 0.413173 -0.280956
-0.062878 0.353205 0.349369
0.198191 0.265063 -0.424187
-0.206596 -0.494657 -0.056492
-0.152394 -0.354424 0.347215
-0.151713 -0.159840 0.469240
0.106158 -0.497471 -0.004171
-0.054135 0.373486 -0.332126
-0.051766 -0.434072 0.241227
-0.024916 0.257172 -0.428996
-0.214333 -0.251380 0.427376
-0.130533 -0.449924 0.210281
0.143544 0.330609 0.370664
0.215394 -0.488909 0.089844
0.197617 0.410943 -0.284146
-0.131628 0.166919 0.467221
-0.078538 -0.459027 -0.193920
0.103296 0.389195 -0.313414
0.152950 0.184746 0.460532
-0.122221 0.082282 -0.493469
-0.238143 0.264578 0.420013
0.190800 -0.159063 0.469508
-0.115858 -0.468330 0.165710
-0.137059 -0.141165 -0.479549
0.017109 0.336288 0.365520
-0.066670 -0.110638 -0.487568
-0.190000 0.483333 -0.124146
0.285999 0.253977 0.426476
-0.204520 0.451682 -0.213000
-0.070621 0.441318 0.229789
0.133907 -0.401581 -0.295982
0.161129 0.343759 -0.362949
-0.208453 -0.006973 0.495707
0.132754 -0.083855 0.488740
0.162112 -0.316242 0.382150
0.004430 0.458803 0.192564
-0.115040 0.095368 -0.491052
-0.290160 0.324420 0.376269
-0.160413 0.319443 -0.384635
0.054931 -0.176410 -0.467628
0.221569 -0.408832 -0.285912
-0.240948 0.116459 0.482075
-0.037797 -0.227502 -0.444864
-0.040373 0.004064 -0.500132
0.054589 0.215248 -0.451473
-0.013078 -0.478451 -0.138378
-0.005732 0.239883 -0.438910
-0.071592 -0.444772 0.220904
0.162492 0.254248 0.426311
0.112315 -0.340619 0.360655
0.273935 0.263280 0.420804
-0.132300 0.464399 -0.183270
0.139963 -0.377173 0.322571
0.088551 -0.449738 0.210696
0.031716 -0.460861 -0.189522
-0.139358 0.053750 -0.497433
0.038648 -0.196511 0.455162
0.263791 0.409646 0.281879
-0.111076 0.488713 0.095903
0.186029 -0.148448 -0.477327
-0.175871 0.498398 0.005229
-0.188952 -0.095876 0.486378
0.091901 -0.232427 0.438149
-0.041070 -0.051198 -0.497426
-0.018267 -0.197739 0.454650
-0.082284 0.391441 -0.310599
-0.256823 -0.477804 0.136405
-0.081725 -0.481185 -0.128476
0.209968 0.452165 -0.211925
0.149263 -0.110888 0.483233
-0.062815 -0.497436 -0.006096
0.112936 0.420654 0.265205
-0.192351 -0.228838 0.439918
0.147095 -0.497178 -0.020426
0.052260 0.478595 0.137217
0.221394 -0.319908 0.379004
-0.166409 -0.276832 0.411387
0.240784 0.112890 0.482923
-0.238318 -0.059717 0.492232
0.021018 -0.287759 -0.408200
-0.036065 0.478344 -0.142350
0.209861 -0.496313 -0.036050
0.262410 0.218744 -0.449750
0.015497 0.194503 -0.460780
0.275619 0.487632 0.101061
0.182662 0.380899 -0.323819
0.135865 0.148496 -0.477861
0.221939 0.470864 0.161265
0.239391 0.460467 -0.193424
0.168798 0.380401 0.319749
0.239639 -0.110266 0.483363
0.020720 -0.481739 -0.126470
0.084299 0.278807 0.410824
-0.250225 0.440808 0.230823
0.286429 -0.399924 0.294083
-0.132340 -0.373549 0.326572
0.188961 -0.497203 -0.018998
-0.255100 0.016761 0.495533
-0.217077 0.165463 -0.472007
0.082387 -0.346129 -0.359939
-0.248929 0.480890 -0.134004
0.106092 0.021504 0.495320
-0.262215 -0.047121 -0.497866
-0.222549 -0.487918 0.095601
0.021017 -0.476601 0.140351
0.009482 -0.116818 -0.486099
0.286605 0.429828 -0.254554
-0.269837 0.195484 0.456106
-0.047578 0.493575 -0.073044
0.164800 0.099907 0.485975
-0.245174 -0.119507 -0.485460
-0.005095 -0.363456 0.337716
0.202946 -0.068949 -0.495482
0.230366 0.484289 -0.120122
-0.124655 -0.353183 -0.352693
-0.064312 -0.496833 -0.029635
0.251489 -0.466382 0.170900
-0.149855 0.420237 0.265836
0.152017 0.361381 -0.345491
-0.058951 -0.254348 -0.429978
0.268525 -0.454359 0.200397
-0.223051 0.037157 -0.498777
-0.159989 0.333291 -0.372753
0.172111 0.063148 0.491892
0.103082 0.411229 -0.283737
0.232321 -0.447282 -0.219958
-0.079762 0.426981 -0.259224
0.192846 -0.261600 0.421443
-0.180843 0.497908 0.024655
-0.221183 -0.425762 0.255188
0.259131 -0.189943 0.457900
0.088218 0.286802 -0.409836
-0.126950 0.450782 0.210583
0.034558 0.474757 0.149980
0.204777 -0.464430 -0.180961
0.191745 -0.102350 0.485022
-0.083346 0.488403 0.097383
-0.056791 0.475374 0.148191
-0.187411 -0.233276 -0.441823
0.206314 -0.115675 -0.486371
-0.209344 0.055066 0.492765
-0.233649 -0.104728 0.484524
0.204759 -0.255652 -0.429183
-0.092487 -0.464297 0.176457
-0.092490 -0.277353 -0.415477
-0.170419 -0.471000 0.158595
-0.078310 0.046604 -0.498012
-0.193834 -0.488771 -0.095088
0.113648 -0.008328 -0.500219
-0.026581 0.392289 0.305303
0.022672 -0.496363 0.032681
0.018100 0.388203 -0.314660
0.192856 0.432091 0.246183
0.085873 0.403541 -0.294729
-0.268732 -0.340396 -0.365225
0.283558 -0.138833 -0.480261
-0.095094 -0.101013 -0.489855
-0.011989 0.493318 0.069130
-0.089911 0.400588 0.294303
0.047016 0.340007 -0.366602
-0.063723 -0.471425 0.157313
-0.087220 -0.208326 -0.454237
-0.106083 0.428495 -0.256740
-0.141668 0.003771 0.495901
0.023893 -0.441434 -0.231827
0.189792 0.475563 0.147642
0.208077 -0.380445 0.318750
-0.140971 -0.313651 -0.388527
-0.242952 -0.445566 -0.223442
-0.102126 0.401800 -0.297219
0.137648 0.361652 0.340693
-0.006482 -0.496787 0.023229
-0.199899 0.303380 -0.397433
-0.142266 0.029867 -0.499368
0.045051 0.395083 0.301600
0.159080 0.459528 -0.195515
-0.079576 -0.239489 0.434195
0.120148 0.398599 0.296940
0.246406 -0.479355 0.131324
-0.086284 0.138205 0.476412
0.097026 -0.160641 -0.473546
-0.105575 0.013090 0.495698
0.055739 0.077222 0.489880
0.149061 0.224595 0.442581
0.052061 0.306313 -0.395220
0.094139 0.495553 -0.055813
-0.127123 -0.463761 0.177886
-0.175603 -0.399500 -0.298741
-0.125735 0.475890 -0.150393
0.018417 0.291175 0.402173
0.117732 -0.413452 -0.278915
-0.149268 0.112759 -0.487409
-0.090273 0.218913 -0.449666
0.269126 0.072210 0.490743
-0.232372 -0.319965 -0.383492
-0.239656 0.429913 -0.254414
-0.254406 0.366585 -0.339746
-0.094615 0.368482 -0.337652
-0.282036 0.485542 -0.114849
-0.259243 -0.082771 0.488896
0.077608 0.117295 0.481876
0.029748 -0.254533 -0.429866
-0.283332 -0.494597 -0.057225
-0.005751 0.456083 0.199086
-0.240088 0.353568 0.348997
-0.036632 0.002717 0.495882
-0.175641 -0.375645 0.324259
-0.178581 -0.329022 -0.375527
0.110633 0.022259 -0.499804
-0.167115 0.278154 0.411280
-0.286909 0.126758 0.479627
-0.033120 0.281706 -0.413200
0.007599 0.237630 0.435718
0.018079 -0.300152 -0.399290
-0.198478 0.228807 -0.444791
-0.208189 0.018153 -0.499878
0.154013 -0.390048 0.306706
-0.176996 -0.128148 0.478869
0.203468 -0.414913 0.272651
-0.066051 -0.460885 -0.189464
-0.045750 0.347693 -0.359119
0.219404 0.307022 0.390277
-0.168288 0.133430 -0.482047
-0.094924 0.243024 -0.437109
0.053500 -0.430727 -0.251128
0.131824 0.422699 0.262108
0.140652 0.451227 -0.214014
0.091258 -0.461756 -0.187374
0.273110 -0.410961 -0.282689
0.052508 -0.051654 0.493166
-0.114267 -0.174654 -0.468287
0.054415 0.145352 -0.478756
-0.029284 -0.325888 -0.378366
-0.011293 0.353869 0.348687
0.277458 -0.440062 0.229851
-0.280150 0.399346 0.295949
0.196486 -0.457700 -0.197104
0.175815 0.397532 0.298353
-0.067521 -0.394035 0.301707
0.270353 -0.495229 0.044978
0.113024 0.184048 -0.465138
-0.212439 0.196074 -0.460125
-0.107938 0.365808 0.336424
-0.286883 0.164364 0.468180
0.023880 -0.465587 0.173019
-0.138237 -0.360959 0.340473
-0.254947 0.330786 -0.374902
-0.026565 0.492633 0.073871
0.042679 0.357084 -0.349977
-0.089208 -0.242304 -0.437070
-0.160886 -0.467337 -0.172872
0.170785 -0.426706 0.253640
-0.077390 -0.341816 -0.363939
-0.287906 0.298285 -0.401277
-0.281427 -0.421329 -0.266983
-0.026703 -0.481496 -0.127348
-0.192440 -0.457019 0.194469
-0.279875 0.134620 0.477505
0.283811 -0.495387 0.043515
0.064168 -0.487244 0.099019
-0.248410 0.184739 -0.464851
0.163703 -0.096622 0.486222
-0.034273 0.430339 -0.253716
0.010290 0.336369 -0.370112
0.159488 0.037003 0.494625
0.284789 0.097978 0.486307
0.104579 -0.442033 0.226106
-0.158827 -0.198635 0.454276
-0.242387 -0.496946 0.019669
0.245353 -0.341300 -0.364406
-0.224309 -0.350738 -0.355204
0.073481 -0.485129 -0.112473
0.231141 -0.370774 0.329636
0.153210 0.076588 -0.494293
0.059450 0.495833 -0.053225
0.179520 0.476135 0.145983
0.054641 -0.097474 -0.490571
-0.253589 0.044010 -0.498222
-0.043925 0.279933 -0.414370
0.121795 0.175118 0.464144
-0.014630 -0.084366 0.488666
0.094990 0.049242 0.493394
0.120961 -0.437470 -0.239370
0.173020 -0.044520 -0.498148
0.203040 -0.047722 0.493485
0.132908 -0.493444 -0.065533
-0.162888 -0.497390 -0.008631
0.257382 0.072810 -0.494839
0.163825 -0.227343 -0.444948
0.129027 -0.462975 -0.184450
0.201985 0.284974 -0.411042
-0.135996 0.474562 0.150545
0.017543 0.458748 -0.197255
-0.085336 0.104154 -0.489212
0.074834 0.025905 -0.499689
0.190898 0.195815 0.455958
-0.055912 0.462689 0.183242
0.123351 -0.348755 -0.357241
-0.190488 -0.320804 0.378235
0.214305 -0.182339 0.461070
0.269702 0.498211 0.015575
-0.009244 -0.173050 0.464683
-0.151676 0.426660 0.255655
0.064764 -0.101120 0.485279
0.178301 0.497574 -0.032882
0.272472 0.397511 -0.302985
-0.226727 -0.437569 -0.239197
0.188525 -0.076775 -0.494134
0.221512 0.019491 0.495411
0.119851 -0.138964 -0.480221
-0.159418 -0.495545 -0.045531
-0.125379 -0.432157 0.244698
0.233671 -0.194071 0.456179
0.000784 0.498631 -0.009315
0.187897 -0.420054 -0.268915
0.266439 -0.276623 -0.415987
0.210952 -0.291565 -0.405538
0.204546 0.433154 0.244330
0.102896 0.284066 0.407145
0.080677 0.498308 0.010222
0.225681 -0.310947 0.386597
-0.154838 -0.372945 -0.331598
-0.221202 -0.096847 0.486175
-0.017457 -0.000682 0.495821
-0.179577 -0.204811 -0.455815
0.199765 0.391500 -0.310525
-0.261750 -0.222062 0.443256
0.175441 -0.262112 -0.425245
0.068201 0.274093 0.414120
0.134243 -0.280953 0.408667
0.284165 -0.482740 -0.122841
-0.238238 -0.285220 0.405850
-0.261071 0.073453 -0.494746
-0.249809 0.496131 -0.050471
0.073453 0.233628 -0.442416
0.110852 -0.011395 0.495628
0.019798 0.311199 -0.391534
-0.037970 0.358808 -0.348298
-0.141100 0.450401 -0.215854
-0.094958 0.496599 -0.046132
-0.018649 -0.484107 0.112220
-0.085791 0.385726 0.313544
0.105025 0.477444 0.141385
-0.240291 0.446943 -0.223081
-0.181545 -0.204956 0.451641
0.281583 -0.490840 -0.083529
-0.210593 -0.466225 0.171320
-0.237550 -0.397098 0.297865
0.008817 -0.496726 0.024576
-0.243061 0.309179 0.388556
0.024004 -0.267499 0.417549
-0.217065 0.429458 -0.255160
-0.268460 -0.149720 0.472731
-0.289988 -0.489764 0.084874
0.104011 0.215165 -0.451513
-0.185291 -0.407244 0.283616
-0.009680 -0.207535 -0.454592
-0.172489 -0.039517 -0.498688
-0.156203 -0.293157 0.400019
-0.243052 0.416513 -0.276181
0.271250 -0.357015 -0.348757
-0.115145 0.491697 -0.083954
-0.075527 -0.263334 0.420298
0.085045 0.496623 0.040515
0.271528 0.148762 0.473190
0.103167 -0.195384 -0.460045
-0.243252 0.455364 0.200813
-0.071999 -0.197603 -0.459049
-0.040058 0.134497 0.477543
-0.078291 0.498164 0.018214
-0.247988 0.145291 -0.478773
0.256612 0.157459 -0.474769
0.238027 -0.050766 0.493238
0.179289 -0.464714 0.175346
0.139414 -0.015454 -0.499899
-0.270347 -0.495935 0.038441
0.032945 0.337034 0.364845
-0.039062 0.495169 0.056339
0.174215 -0.056520 -0.496851
-0.191419 0.459487 -0.195608
0.176595 0.498281 -0.017126
0.073073 -0.276110 0.411865
0.152419 0.448711 -0.219620
0.267973 -0.137367 -0.480708
0.260634 0.425034 0.258489
-0.288100 -0.043104 0.493859
0.199436 -0.125083 0.479715
0.045258 0.329877 0.371327
-0.072223 -0.440305 -0.234118
0.235099 -0.490115 -0.088540
-0.260298 0.161636 -0.473328
0.271908 0.324039 -0.380692
-0.119874 0.364619 0.337645
0.077810 0.267816 0.418039
-0.095954 -0.496374 0.032424
-0.200167 -0.466154 -0.176301
0.239173 -0.457628 0.193112
0.139304 0.457627 0.195383
-0.242882 -0.421712 0.261832
0.007943 -0.304855 0.391193
-0.133949 0.156848 0.470723
0.052560 0.485240 0.112481
-0.066056 -0.496196 0.036030
-0.153744 -0.272705 -0.418727
-0.239488 -0.471773 0.156173
-0.250575 -0.445571 0.219387
-0.043232 -0.463462 -0.183284
0.042498 0.131791 0.478368
0.226421 -0.237700 -0.439495
-0.045668 -0.040444 -0.498588
-0.081242 0.038405 0.494562
0.264488 0.325604 0.375197
-0.211001 -0.380689 0.318444
-0.067237 0.434230 0.242453
0.253577 0.057995 0.492449
0.268891 -0.459941 -0.191730
0.189320 0.223728 0.443037
-0.213973 -0.080403 0.489239
0.023809 -0.402839 -0.294314
-0.026760 -0.495656 0.041031
-0.267486 -0.198086 -0.458832
-0.241741 -0.496138 0.036565
-0.151375 0.233723 -0.442369
-0.079952 0.452066 0.207976
-0.046065 -0.335259 0.365832
0.247545 -0.303200 0.392442
0.203174 0.493623 0.067027
0.112785 0.439118 -0.237943
-0.118156 0.459966 0.189774
-0.174944 -0.497204 -0.018996
-0.110878 0.408295 -0.287931
0.224340 -0.496707 -0.031182
0.180758 0.186616 -0.464068
-0.274570 0.482829 -0.126265
0.000799 -0.424598 0.257099
0.059596 -0.321886 -0.381961
-0.287968 0.081228 0.489191
0.261748 -0.456633 -0.199663
-0.231136 -0.010693 -0.500113
-0.059717 0.239125 0.434930
-0.040324 -0.062038 0.491896
-0.219104 -0.049095 -0.497653
-0.107867 0.441446 -0.233521
0.263480 0.418364 0.268673
0.052674 0.108398 -0.488323
-0.043798 0.301337 0.394809
0.286577 0.215847 0.446969
-0.114082 -0.397185 0.297756
0.020845 -0.316371 -0.386358
0.286128 0.182167 -0.465923
-0.098563 -0.488293 -0.097367
-0.201597 -0.453567 0.202162
0.285023 0.466639 0.173513
-0.004254 -0.372029 -0.332665
0.124137 0.125693 0.479880
0.273840 -0.057840 -0.496708
-0.193640 -0.023030 -0.499560
-0.068642 -0.471218 -0.161622
-0.248871 0.218047 -0.450093
-0.081474 0.415172 -0.278099
-0.128023 -0.421798 -0.266273
-0.010123 -0.403931 -0.292866
-0.129961 -0.477005 -0.143617
0.095353 -0.483637 0.114201
-0.145690 -0.386556 0.311085
-0.072217 0.496001 -0.051669
-0.084732 -0.078529 -0.493832
-0.105791 0.371097 -0.334765
-0.198997 0.116261 0.482122
-0.042102 -0.497072 0.016867
-0.207798 0.226481 0.441588
0.152967 0.404089 -0.293945
-0.205206 -0.389394 0.307527
0.202992 0.399377 -0.300645
-0.126661 -0.007077 -0.500275
0.090737 0.231997 -0.443219
0.074669 -0.494942 -0.052970
0.089922 0.426216 -0.260479
0.206633 -0.495050 -0.051632
0.017814 0.472248 -0.162329
0.249477 0.443169 0.226033
-0.056454 0.194061 -0.460964
0.174383 -0.473021 0.152084
0.147176 -0.409571 -0.284793
0.098844 0.423159 0.261410
0.276863 -0.449272 -0.215920
0.037203 0.386467 -0.316837
-0.285352 -0.314506 0.383639
-0.020888 -0.160898 0.468875
0.032502 -0.397532 0.297320
0.189210 -0.480712 -0.130187
-0.262765 -0.232016 0.438351
-0.240930 -0.488596 -0.095923
-0.050431 -0.378170 -0.325509
0.029202 0.324158 -0.380590
-0.050009 0.359140 -0.347966
0.223149 0.349695 -0.357170
0.263969 0.019664 -0.499851
0.237282 0.272414 0.415236
0.151605 -0.286936 -0.408775
0.218875 -0.354322 0.347315
-0.062141 0.161164 0.469381
-0.165941 0.024610 0.495181
-0.214620 0.433819 0.243170
-0.050645 -0.179852 -0.466337
0.089004 -0.037396 -0.498915
0.257622 -0.336502 0.364663
-0.031797 -0.289680 -0.406856
0.118684 0.128189 -0.483494
0.106692 -0.383908 -0.318822
0.178541 -0.170237 -0.469945
0.269694 -0.013551 -0.499985
-0.119898 0.494183 0.063156
0.160400 -0.455777 0.197239
-0.228223 -0.393352 0.302563
-0.076823 0.079935 0.489413
0.105366 0.157169 0.470625
0.071577 -0.349786 -0.356182
0.050530 -0.473697 -0.154433
0.214909 -0.036197 -0.498969
0.105144 0.077774 -0.494121
0.047258 0.350657 0.351987
-0.209074 0.223735 -0.447291
-0.169161 0.119074 0.481453
0.233267 -0.472550 -0.157759
-0.135131 -0.100017 -0.490092
0.008292 -0.496146 -0.038113
0.283458 -0.494055 -0.061305
0.173214 -0.497379 -0.009249
0.102020 0.480910 -0.133940
-0.020448 0.442905 0.226568
0.286047 0.170266 -0.470351
0.081944 0.338853 -0.367725
0.119780 0.423902 -0.264274
-0.120185 0.225212 0.442256
0.106576 0.395723 -0.305228
-0.191559 0.291896 0.401670
0.023082 -0.493518 0.060810
0.031866 0.142943 -0.479421
-0.109543 -0.161152 0.468788
-0.083097 0.297822 -0.401626
0.064506 -0.466666 -0.174815
0.247497 0.417995 -0.273964
0.022007 0.265025 -0.424212
0.137720 -0.146426 -0.477944
-0.080766 0.342717 0.359697
-0.002571 0.160111 0.469727
-0.135542 0.382106 -0.322305
-0.108146 -0.266735 0.418053
-0.063166 0.333938 -0.372198
-0.270123 0.430237 -0.253883
0.028239 0.195129 -0.460519
0.255641 -0.073790 0.490196
0.098806 0.272693 -0.419150
0.179374 -0.158239 -0.474339
-0.234258 0.385861 -0.317596
-0.188711 0.493645 -0.072638
0.098130 0.024378 -0.499766
0.194332 0.207635 0.450654
-0.065230 0.143530 0.474787
-0.167041 -0.228819 0.439927
0.248409 0.494491 -0.065644
0.058799 0.296851 -0.402358
0.222758 0.394688 -0.306526
0.051474 0.163591 0.468470
-0.031824 -0.392687 -0.307771
0.115374 0.320090 -0.384080
0.116762 -0.320062 -0.383415
-0.096393 -0.066975 -0.495721
-0.194655 -0.154813 0.470974
0.113867 0.459549 0.190775
-0.229472 0.199799 -0.458572
0.058547 0.410193 -0.285218
-0.062748 -0.271258 0.415067
0.027619 0.390818 -0.311379
0.160175 0.317761 -0.386079
0.101679 -0.245548 -0.435343
0.183467 -0.052120 0.493129
0.165159 -0.496749 -0.030662
0.042486 -0.062854 -0.496166
-0.287624 0.051993 -0.497575
0.226232 -0.344614 0.356766
-0.262014 -0.103701 -0.489217
-0.089839 -0.490599 0.080026
-0.152596 -0.379435 0.320016
0.137336 0.064975 0.491694
0.235334 -0.028419 -0.499318
-0.239866 -0.175588 0.463808
-0.195390 -0.491343 0.075704
0.156450 -0.076923 0.489743
0.261053 0.498103 0.021573
-0.147661 0.276605 0.412364
0.152449 -0.433126 -0.246945
-0.081608 0.405771 0.287433
0.271449 0.453122 -0.209792
-0.159175 0.300555 -0.399564
-0.135821 -0.206904 0.450726
0.122537 -0.467624 0.167592
0.110448 -0.472373 0.154206
0.010554 -0.145563 -0.478207
-0.123231 -0.495852 0.039211
-0.274170 0.471290 0.160030
-0.225169 -0.229183 -0.443979
0.280673 -0.495606 -0.044773
-0.010165 0.312401 0.385988
-0.021237 -0.484538 -0.115291
-0.211058 -0.215665 0.446409
-0.094426 0.329966 0.371247
-0.232375 0.436057 -0.243757
0.281996 -0.497323 0.011269
-0.263965 -0.402408 0.290530
-0.069100 0.087917 0.488039
0.070500 0.009082 0.495878
-0.071658 0.498131 -0.020455
0.276025 0.042830 0.494087
0.099333 -0.497166 -0.021096
0.089084 0.444297 0.223744
-0.037572 -0.370908 0.329488
-0.105256 0.040142 -0.498536
0.226262 -0.020292 -0.499682
0.005194 -0.179026 0.462452
-0.120357 0.132655 -0.482261
0.285940 0.443970 -0.228728
-0.058294 -0.128392 -0.483349
-0.073342 -0.434559 -0.244447
0.048761 0.442405 -0.231701
0.147510 0.498493 -0.000074
0.271559 0.467409 0.171282
0.278852 -0.493855 0.057689
-0.179205 -0.496254 0.035108
0.205746 -0.429647 0.248816
-0.060322 -0.392784 -0.307642
0.241277 -0.272131 -0.419129
0.162298 0.452533 0.207029
0.126357 -0.489816 0.084572
-0.177908 0.430492 0.248972
-0.256912 -0.180105 0.462002
0.164460 -0.435676 0.238180
0.283691 -0.364080 -0.341500
0.241434 -0.168266 0.466334
-0.059874 0.423737 0.260535
-0.032180 0.145508 0.474183
-0.180906 0.275255 -0.417458
0.035821 -0.132692 -0.482134
-0.253337 0.119321 0.481395
-0.013404 -0.451111 -0.212188
0.234340 -0.487220 -0.102490
-0.020690 0.319113 0.380635
0.220513 -0.475868 0.142750
0.031724 -0.324661 0.374926
0.129542 0.415442 -0.277713
0.056021 0.482133 -0.129192
-0.186704 -0.401110 0.292387
-0.155495 0.340672 0.361550
-0.197603 -0.071454 -0.495050
0.094397 0.057142 -0.497106
-0.268192 -0.476980 0.139108
-0.142378 0.250564 -0.432785
-0.103136 0.461874 0.185196
0.161355 -0.140385 0.475491
0.258443 -0.218022 0.445247
-0.205770 -0.481516 -0.127276
-0.126001 0.318514 -0.385433
-0.186027 0.497898 -0.025653
0.094258 -0.226207 -0.445546
0.098719 -0.160695 0.468946
-0.248571 -0.056583 0.492685
-0.101289 -0.030245 -0.499236
-0.166670 -0.287173 0.404533
0.209151 0.410074 -0.285388
0.179369 -0.473859 -0.153966
-0.069635 0.232352 0.438497
0.235039 0.359618 0.342782
-0.188619 -0.060290 -0.496443
0.048276 -0.430161 0.247973
-0.131997 0.186174 -0.464252
-0.146001 -0.144291 0.474413
-0.268006 0.273609 -0.418545
-0.022362 -0.120276 0.481042
0.218054 0.393143 0.304171
-0.170230 -0.259391 0.422783
-0.090726 0.071064 0.490940
-0.166877 -0.075874 0.489894
0.109039 -0.355079 -0.350745
0.093420 -0.091617 -0.491579
0.006836 0.497945 -0.024608
0.285362 -0.478353 -0.138735
-0.039798 -0.453566 -0.207020
-0.111836 -0.491636 0.074002
-0.242256 0.253104 0.427008
-0.237243 0.183124 0.461140
-0.186774 -0.379267 0.320227
-0.080532 -0.359524 0.342057
-0.289963 -0.228907 0.439884
0.162705 0.171862 0.465366
0.010478 0.133552 -0.482013
-0.264679 0.494230 -0.068055
-0.085510 0.324052 0.376603
0.063921 0.237013 0.436042
0.005660 -0.397648 0.297175
0.262185 -0.231155 -0.442941
0.049693 -0.331537 0.369026
0.199159 0.060194 0.492211
0.208312 -0.157082 0.470192
0.170518 0.492031 0.078028
0.149095 0.482425 -0.127964
-0.171666 -0.493656 -0.064066
0.185812 0.439600 -0.237028
0.181267 0.459355 -0.195902
-0.107938 -0.493935 0.056953
0.204353 0.376784 -0.328485
-0.285437 -0.313640 -0.388536
0.090832 -0.008990 0.495671
-0.289256 -0.124219 0.479953
-0.170605 0.477483 0.141245
0.013161 -0.358620 0.343055
-0.159634 0.480230 -0.136168
-0.156218 -0.495737 0.040278
0.046287 0.184373 0.460671
-0.086197 -0.400096 -0.297951
0.065696 0.103641 0.485121
0.115955 0.476275 0.145577
0.063585 0.496806 0.038253
0.139424 0.126012 -0.484095
0.207472 0.488039 -0.104343
-0.185559 0.463743 -0.185018
0.033698 -0.479904 -0.133115
-0.257762 0.445391 0.221523
0.115925 0.490930 0.085317
0.243477 0.205739 0.451504
-0.030090 -0.439952 0.230059
-0.248924 0.496468 0.042432
-0.087870 -0.285995 -0.409433
-0.114602 0.495708 0.051816
-0.153091 -0.461599 0.183649
0.205197 0.007356 0.495955
-0.096607 -0.139046 -0.480196
-0.143624 0.106209 0.484511
0.217027 -0.026955 0.495168
0.152136 -0.014126 0.495578
-0.159626 0.367019 0.335180
-0.200833 -0.213316 -0.451998
-0.217803 -0.494915 -0.053306
-0.124724 0.234098 0.437577
0.202345 -0.386302 0.311405
0.172870 -0.426685 -0.258176
-0.168786 -0.040758 0.494049
0.284060 0.399796 -0.300085
-0.014124 0.392823 -0.308865
0.033471 0.425514 0.257652
0.090730 0.452292 -0.211641
-0.233000 0.483047 -0.125348
-0.102106 0.422981 -0.265784
-0.233313 -0.215366 0.446556
0.181842 0.351256 0.351371
0.016917 -0.497476 -0.003893
-0.053402 -0.049157 -0.497646
0.173945 -0.073285 -0.494735
-0.239075 0.338075 -0.368483
0.233577 -0.301814 0.393488
-0.222615 0.489598 -0.096144
0.257139 -0.369488 0.331056
-0.181835 -0.469980 -0.165209
-0.130992 -0.455464 -0.202468
-0.275050 0.390238 0.308021
0.243334 0.475559 -0.151477
-0.126217 0.037353 -0.498762
0.245320 0.377738 -0.327432
-0.075698 -0.113347 0.482718
-0.021537 0.113874 -0.487176
0.278572 -0.157306 -0.474624
-0.116611 -0.046334 -0.497951
0.062797 -0.160253 0.469098
-0.050597 0.350872 0.351765
0.230555 0.413968 0.275332
0.027449 0.466705 0.173322
-0.027720 -0.472065 0.155217
0.051773 -0.071866 0.490474
0.255799 -0.398696 -0.299806
0.277626 0.025993 -0.499682
0.280982 0.078100 -0.494074
0.144482 -0.059441 -0.496535
0.202652 0.498210 0.015674
-0.269597 -0.439505 0.230909
0.259099 0.442991 -0.230586
-0.209086 0.114658 -0.487011
-0.121197 -0.415896 -0.275214
-0.006236 -0.279924 -0.413679
-0.157757 -0.291978 -0.405249
-0.027365 -0.019328 -0.499726
0.005141 -0.435023 0.239420
-0.287853 0.477027 0.142897
0.278758 0.436501 0.238493
-0.048247 0.472757 0.155777
0.088733 0.037059 0.494623
-0.281825 -0.487264 -0.102278
0.195173 0.311894 0.386392
0.039466 -0.010671 0.495641
-0.272996 -0.482728 0.118026
0.136150 0.037331 0.494611
0.046135 -0.456086 -0.200974
0.144272 -0.073282 0.490269
-0.151222 0.495925 -0.052371
-0.008528 -0.079273 -0.493704
-0.289671 -0.407070 -0.288583
-0.034105 0.386329 0.312841
-0.168423 -0.121563 0.480686
0.194381 0.465377 0.176794
-0.279647 0.059266 0.492311
0.242049 0.485810 -0.113721
-0.041083 0.438033 -0.240003
0.004367 0.497486 -0.034833
0.202272 0.480334 0.130916
0.102184 -0.218048 0.445234
-0.024456 -0.400823 0.292797
-0.180738 0.265856 -0.423664
-0.148597 -0.493805 -0.063039
0.187350 -0.385034 -0.317509
-0.161939 0.442749 0.226884
-0.079773 0.494461 -0.065916
-0.030091 -0.443533 -0.227567
0.074837 0.414505 -0.279052
-0.085739 -0.134715 -0.481517
-0.173607 0.459670 0.190484
-0.219236 0.481030 0.128395
0.057184 -0.494943 0.047627
0.275218 0.124265 0.480220
0.059003 -0.279625 -0.413888
-0.256426 -0.110789 0.483254
0.103194 0.489606 -0.096098
0.085788 -0.480802 0.126130
-0.029253 -0.246282 -0.434896
0.207062 -0.242546 0.432442
-0.163162 -0.398763 -0.299717
-0.263702 -0.026371 -0.499410
-0.249300 0.449348 0.213493
0.158853 0.181159 -0.466343
0.172895 0.490748 -0.089464
0.023085 -0.448858 0.212656
-0.248700 -0.457165 -0.198387
-0.169481 -0.439679 -0.235389
0.122979 -0.074908 0.490034
-0.066553 0.369335 -0.336710
0.003958 0.079019 0.489571
-0.198984 0.306575 0.390632
0.194624 0.220209 -0.449028
-0.155923 0.498537 -0.002505
0.099973 -0.448341 0.213809
0.063503 0.423055 0.261567
-0.012301 0.454047 -0.207731
0.135138 -0.465967 0.172006
0.187077 -0.338185 -0.367228
0.111814 -0.234730 0.436924
-0.207806 0.350345 -0.356537
0.022218 -0.446291 -0.221969
-0.143739 0.068206 -0.495505
0.193811 -0.483722 -0.119187
-0.152010 -0.407286 0.283556
-0.198559 0.128627 0.479183
0.267757 -0.490897 -0.083136
-0.002495 -0.476097 0.142000
-0.246422 0.209734 0.449712
0.035929 0.449205 -0.218521
0.052748 -0.436364 -0.241299
0.244038 -0.336619 0.364549
0.087579 -0.490088 -0.088728
0.236111 0.360126 -0.346878
0.220655 -0.379052 0.320496
-0.146013 -0.492450 0.069276
0.131452 0.464930 0.177867
0.180452 0.493042 0.071041
0.274066 -0.330705 0.369739
-0.096088 -0.412541 -0.280295
0.149401 0.462800 -0.187533
-0.142586 -0.037939 -0.498859
-0.006030 0.491292 -0.086309
0.238055 0.284301 -0.411487
0.224506 0.402945 0.291178
-0.258110 -0.095587 0.486439
-0.147085 0.497689 0.027359
0.174011 -0.145735 -0.478155
-0.224834 -0.247500 -0.434153
0.006758 0.346082 -0.360688
0.214316 -0.272014 -0.419208
-0.045876 0.079353 -0.493893
0.054564 0.123101 -0.484898
0.158015 -0.371633 0.328687
0.158367 0.223574 -0.447370
0.284582 0.236931 -0.440603
0.219651 0.496259 0.045008
0.229286 0.456097 -0.203162
0.191046 0.184946 0.460457
0.269825 -0.339632 -0.365917
0.166928 -0.305804 -0.394784
0.036401 -0.078000 0.489587
-0.075894 -0.213794 -0.451784
-0.218157 -0.408505 -0.286409
-0.239847 0.248369 -0.434044
0.272833 -0.491930 0.072295
0.050095 0.308955 0.388735
-0.197798 -0.308758 0.388249
0.011587 0.154866 0.471328
0.225843 0.474801 0.149852
0.057300 0.340942 0.361305
0.204755 0.093358 -0.491474
-0.114072 0.216152 0.446832
0.257573 -0.122833 0.480336
0.283334 0.004611 0.495916
-0.199805 -0.492108 -0.074766
0.286669 0.438067 -0.239940
0.095789 0.190244 -0.462555
-0.031519 0.496451 0.042646
0.260521 0.099391 0.486064
-0.204727 -0.128477 0.478778
-0.072972 0.485019 0.113534
0.040767 0.426537 -0.259953
0.056838 -0.479349 0.131343
-0.101425 -0.493473 -0.065330
0.139439 0.465623 -0.180009
-0.246436 -0.478083 0.135492
0.013706 -0.224774 -0.446300
-0.188395 -0.258191 -0.427636
-0.089480 0.179432 0.462526
0.030803 -0.484332 0.111273
-0.038163 -0.494882 0.048193
-0.121431 0.467686 -0.174511
0.005988 -0.301175 -0.398475
-0.060681 0.429260 0.251121
0.043417 0.140725 -0.480033
-0.269370 0.471378 -0.164672
-0.213185 0.374760 0.326324
-0.280318 0.494032 0.064194
-0.122316 0.346151 -0.360621
-0.222600 -0.382904 0.315666
-0.246118 -0.091231 0.487351
0.252229 -0.415542 -0.275749
-0.258017 0.248549 0.429785
0.242895 -0.205163 0.451555
0.207907 0.448724 0.214759
0.281967 0.376148 0.324706
0.166236 0.206428 0.451195
-0.060359 0.297518 -0.401855
0.238443 0.405627 0.287624
-0.239985 -0.406022 0.285362
0.179279 0.210530 -0.453797
-0.233081 0.457162 0.196499
-0.038426 0.200782 0.453729
-0.205621 -0.429235 -0.253731
-0.022892 0.137667 0.476576
-0.246780 -0.006362 0.495718
-0.047261 0.494890 -0.061954
-0.203598 0.457203 0.196400
-0.260659 -0.494443 0.052248
0.135296 -0.426779 0.253521
-0.182557 0.239725 0.434615
-0.236697 0.297480 0.397764
0.076238 -0.213262 0.447592
-0.288186 -0.452177 -0.210025
-0.094418 -0.439971 -0.234796
-0.288846 0.307070 -0.394649
-0.181885 -0.313458 -0.388680
-0.222851 0.310616 -0.391974
-0.231702 0.239837 -0.438937
0.189701 0.457106 0.196634
0.146313 -0.097023 0.486138
0.065381 0.367158 0.335037
0.015923 0.492703 -0.078111
0.065100 0.450087 -0.216555
0.247136 0.353641 0.348921
0.188343 0.321275 0.378911
-0.131543 -0.396071 0.299153
-0.196185 -0.380589 -0.322689
-0.239491 0.345853 0.356857
0.051819 0.039261 0.494473
0.187226 0.166696 -0.471582
0.227464 -0.078776 0.489475
0.092980 0.296844 0.398209
-0.037467 -0.310847 -0.390762
-0.059498 -0.039580 -0.498681
0.002657 0.126242 -0.484031
0.121535 0.441936 0.228534
0.125729 -0.126550 -0.483787
-0.287437 -0.486832 0.100755
-0.036998 0.302103 -0.398396
-0.289442 -0.277024 0.411261
-0.070224 -0.121175 -0.485064
0.210592 0.428103 -0.257384
0.115968 0.496178 0.046005
-0.006598 -0.322666 -0.381283
0.254606 -0.390627 -0.310501
-0.237710 -0.493166 0.064068
-0.216823 0.463124 0.182199
0.274691 -0.284785 0.406137
0.002529 0.148731 0.473200
0.142277 0.478540 0.137416
0.165856 0.460740 0.187917
-0.051109 -0.266275 0.418357
-0.164457 0.281538 -0.413310
0.090685 -0.253539 -0.430472
0.027269 -0.489135 0.088532
0.265970 -0.054876 0.492905
0.051638 -0.002020 0.495797
0.144484 -0.149051 0.472962
0.219089 0.286977 0.405110
-0.151971 0.059705 -0.496735
0.121023 -0.228948 0.439863
-0.144556 0.034417 0.494741
-0.219503 -0.335105 -0.370017
0.266326 0.459182 -0.196286
0.013529 0.179523 -0.467025
0.211438 -0.189645 -0.462620
0.170404 0.269585 0.416961
0.218036 -0.473756 -0.154264
0.013141 -0.366987 0.333817
0.276155 -0.399963 0.294027
0.267094 -0.111117 0.483185
-0.015545 -0.386567 0.311072
-0.199301 0.148990 -0.477690
0.150855 0.156625 -0.475056
0.273910 0.470781 -0.166262
-0.241205 -0.015019 -0.499919
0.081856 0.305873 -0.395552
0.202323 0.044033 0.493957
-0.088908 0.085642 0.488431
-0.168916 -0.294286 -0.403634
0.050281 0.417794 0.269537
0.162111 -0.350162 0.351365
0.168124 0.453886 -0.208089
-0.142857 -0.393574 0.302285
0.269057 0.371810 0.329761
-0.259361 -0.208515 -0.454152
-0.221060 0.077747 -0.494125
-0.079446 -0.205216 0.451532
0.082986 -0.443942 0.222482
-0.117711 0.454467 0.202963
-0.164040 -0.265285 -0.423311
0.059783 -0.371198 -0.333634
0.273542 0.213820 -0.452176
-0.059400 -0.036016 0.494433
-0.227706 -0.402171 -0.295199
-0.213256 -0.497098 0.016284
-0.251501 -0.402804 0.289964
-0.215922 -0.239893 -0.438340
-0.169101 -0.493795 0.058249
-0.081373 0.440740 -0.234862
0.129326 0.184578 0.460595
0.035723 -0.430643 0.247183
0.038908 0.065947 0.491589
-0.216234 -0.344994 0.356395
-0.209273 -0.398525 -0.300032
-0.255345 -0.171257 -0.469562
0.226794 -0.182969 0.460808
-0.108588 0.492992 -0.076431
0.061037 0.225504 0.442102
0.095325 -0.057002 -0.496799
0.215405 -0.014032 -0.499963
0.249194 0.488179 -0.103752
-0.239008 -0.090318 -0.491803
0.243790 -0.072569 0.490372
-0.170567 -0.484902 -0.113556
0.223151 0.443663 -0.229312
0.172173 -0.359980 0.341554
0.193367 0.128075 -0.483525
-0.232042 0.420949 0.264758
-0.161263 0.412448 -0.281993
-0.141217 -0.446736 0.217174
0.131604 -0.365439 -0.340104
0.126965 0.046332 0.493709
-0.177306 0.026121 -0.499672
0.021026 0.485103 0.113132
0.021905 -0.495792 -0.042480
-0.259024 -0.367748 0.332977
-0.170662 0.262477 0.421294
0.194675 0.382794 -0.321442
0.092571 -0.480361 -0.131461
0.129113 0.356065 0.346432
-0.132839 0.042051 0.494172
0.014095 -0.403407 0.289103
0.057812 0.490311 -0.092006
-0.274616 -0.346293 0.355131
0.103145 -0.218929 -0.449378
0.126250 0.318475 -0.385467
0.151810 -0.199221 -0.458323
-0.200593 0.027610 -0.499551
-0.189943 0.177312 0.463321
-0.013868 -0.420877 -0.267668
0.001138 -0.355828 0.345848
-0.280050 0.496315 0.044317
-0.118649 -0.341108 -0.364580
-0.287402 -0.168011 -0.470780
0.032821 -0.368561 0.332079
-0.135148 -0.495547 0.042031
0.242043 -0.374106 0.325958
0.048198 0.295456 -0.403411
0.114202 0.065797 0.491605
0.069329 -0.221651 -0.447945
0.266051 0.297500 -0.401869
-0.193117 -0.135781 0.476762
0.185122 0.388107 -0.314779
-0.116876 0.002452 -0.500161
0.093517 -0.431146 -0.250397
-0.057026 0.147190 -0.478249
0.068573 0.402920 0.291212
0.044136 0.426543 0.255859
-0.098230 -0.497397 -0.008264
-0.273881 -0.172650 0.464822
-0.099507 0.497246 0.032822
0.005365 0.463115 0.182222
0.224776 0.488617 -0.101844
-0.077735 -0.012558 -0.500029
0.099628 0.239851 0.434548
0.090687 0.108491 0.483968
-0.237135 0.267231 -0.422756
-0.158858 0.488255 0.098090
-0.069715 -0.121992 0.480568
0.200699 -0.138678 -0.480308
-0.096395 0.474303 -0.155593
-0.112840 -0.386818 0.310758
0.011137 -0.108075 0.483822
-0.211045 0.383998 0.315557
-0.222831 0.483743 0.118567
-0.019829 -0.014358 0.495574
0.222492 0.261214 0.422064
-0.151276 0.437198 -0.241589
0.215221 0.426942 0.255163
-0.285949 -0.479134 -0.135904
-0.271187 -0.124648 0.479835
-0.116011 -0.062030 0.491897
-0.178947 0.027582 0.495048
-0.060550 -0.438194 -0.238108
-0.234532 0.028536 -0.499476
-0.121360 0.494608 -0.064561
-0.046618 0.238626 -0.439631
-0.226295 0.326252 0.374611
0.104312 0.111427 0.483270
0.218866 0.466995 0.172481
0.096059 0.147405 -0.478189
-0.169426 0.154640 -0.475741
0.136857 0.488361 -0.102989
0.208799 0.079941 -0.493808
-0.288313 0.490365 -0.091694
0.085663 0.017895 -0.499882
-0.012929 -0.479843 0.129725
-0.129697 0.326827 -0.378299
0.023297 0.338060 -0.368498
0.201605 0.482246 -0.128718
0.059188 -0.497192 -0.019651
-0.206355 0.238581 -0.439657
-0.014939 -0.481750 -0.126427
0.054939 -0.455574 0.197689
0.285111 -0.496377 0.032366
0.200906 0.352126 0.350478
0.142306 0.020500 -0.499836
-0.263388 0.459182 0.191655
-0.013609 0.038747 -0.498649
-0.191589 0.162536 0.468866
0.071619 0.296369 -0.402722
-0.042276 -0.018004 0.495509
0.200601 -0.189249 -0.462798
-0.243180 -0.401566 -0.296002
-0.055175 -0.387827 0.309492
-0.207894 0.186894 -0.463952
0.220108 -0.301128 -0.398512
0.074431 0.479575 0.133667
-0.169445 0.109237 -0.488147
0.284111 -0.422855 -0.264672
-0.010092 0.327269 -0.377920
0.193855 -0.060818 -0.496386
-0.186530 -0.408231 -0.286823
-0.280734 -0.253756 0.426014
0.243891 0.484693 0.115093
0.090606 0.117404 -0.486436
0.285822 -0.364329 0.336752
-0.006160 0.292864 0.400992
-0.284263 -0.210599 0.448905
-0.213942 0.171603 0.465464
0.134822 0.498502 -0.000555
-0.111959 0.485689 0.110337
-0.151255 0.430940 -0.252730
0.101702 -0.345896 0.355517
0.205088 0.119384 -0.485924
0.097143 0.084923 -0.493087
-0.289492 0.489732 0.091038
0.230196 -0.473244 0.151352
0.027630 -0.181673 -0.465653
-0.227174 0.001289 -0.500182
0.030289 0.464472 -0.183076
-0.181404 -0.491638 -0.078018
0.056563 -0.313878 -0.388346
0.045925 0.407736 -0.288730
-0.107599 -0.478482 -0.138268
0.194138 0.493030 -0.076213
-0.145734 0.316958 -0.386768
0.247994 0.486706 0.105480
