0.286960 0.162291 0.451948
0.286960 -0.324722 -0.365486
0.286960 0.127012 0.429481
0.286960 -0.221124 0.443406
0.286960 0.485194 -0.055500
0.286960 -0.345559 -0.327134
0.286960 0.456151 -0.015412
0.286960 -0.250184 0.414321
0.286960 -0.297437 0.358056
0.286960 0.467333 -0.123962
0.286960 0.414346 0.226410
0.286960 0.488626 -0.036045
0.286960 0.203165 0.434196
0.286960 -0.487403 0.009514
0.286960 -0.159176 -0.472781
0.286960 0.468977 -0.023191
0.286960 -0.199492 0.442616
0.286960 0.198779 -0.409069
0.286960 0.472796 -0.047410
0.286960 -0.413218 -0.244213
0.286960 0.391296 -0.217170
0.286960 -0.363024 -0.321570
0.286960 0.391060 0.274975
0.286960 -0.383625 -0.241391
0.286960 -0.466595 0.054108
0.286960 -0.396123 -0.233656
0.286960 -0.486654 -0.017410
0.286960 -0.468357 -0.117716
0.286960 0.407615 0.181043
0.286960 0.479902 0.061926
0.286960 0.326272 -0.373378
0.286960 -0.396554 -0.207693
0.286960 -0.330247 -0.344534
0.286960 0.416031 -0.276795
0.286960 -0.402017 0.291076
0.286960 0.153630 0.429767
0.286960 0.251711 -0.381597
0.286960 0.383545 -0.284494
0.286960 -0.054733 -0.491635
0.286960 0.492246 -0.014369
0.286960 -0.155864 0.456593
0.286960 0.060383 0.440069
0.286960 0.439566 -0.168158
0.286960 -0.359247 0.284314
0.286960 0.410811 -0.201464
0.286960 -0.321967 -0.381469
0.286960 0.442500 0.106763
0.286960 0.439515 0.226110
0.286960 -0.340909 0.316709
0.286960 -0.069036 -0.494872
0.286960 -0.254788 0.398064
0.286960 0.433348 -0.194828
0.286960 0.120484 0.458348
0.286960 -0.486343 0.044237
0.286960 0.040133 -0.477543
0.286960 0.220659 -0.446016
0.286960 -0.433045 -0.210316
0.286960 0.396785 0.250182
0.286960 0.288572 -0.382603
0.286960 0.151830 0.420371
0.286960 -0.335622 0.332102
0.286960 0.001268 -0.500080
0.286960 -0.079207 0.447270
0.286960 -0.056239 0.476897
0.286960 -0.232404 -0.400078
0.286960 -0.416014 -0.191765
0.286960 0.452895 0.133985
0.286960 -0.118865 -0.481114
0.286960 0.340053 0.312151
0.286960 0.443491 -0.221797
0.286960 -0.169095 0.412826
0.286960 0.102309 -0.436021
0.286960 0.454383 -0.186760
0.286960 0.063152 0.463684
0.286960 -0.145351 -0.451020
0.286960 -0.130161 0.423793
0.286960 -0.026752 -0.489188
0.286960 0.263080 0.375663
0.286960 -0.428291 -0.252076
0.286960 -0.450050 0.035292
0.286960 -0.399387 0.215392
0.286960 0.408103 -0.203937
0.286960 -0.109852 -0.477602
0.286960 -0.248068 0.422745
0.286960 -0.181685 0.408743
0.286960 -0.225076 -0.399804
0.286960 0.100241 0.440370
0.286960 0.356018 0.292486
0.286960 0.488341 -0.012139
0.286960 -0.471483 -0.126441
0.286960 -0.093507 -0.460345
0.286960 -0.411810 0.204268
0.286960 0.229281 -0.434416
0.286960 -0.462149 0.138820
0.286960 0.398383 -0.271393
0.286960 0.403492 0.279829
0.286960 -0.350938 -0.296826
0.286960 -0.477646 -0.127223
0.286960 -0.057232 -0.476952
0.286960 -0.105546 -0.471985
0.286960 -0.154541 0.427072
0.286960 0.457011 0.106146
0.286960 0.421312 0.205449
0.286960 0.130773 -0.428516
0.286960 -0.374980 0.285251
0.286960 0.391315 0.211980
0.286960 -0.461490 0.155294
0.286960 0.123329 0.434773
0.286960 0.053177 0.464652
0.286960 -0.142355 0.459647
0.286960 -0.279946 0.396770
0.286960 -0.407179 -0.209495
0.286960 -0.379669 0.275044
0.286960 0.062619 -0.486683
0.286960 0.237499 0.417502
0.286960 0.348106 -0.286403
0.286960 -0.020685 -0.457729
0.286960 0.426277 -0.168743
0.286960 0.453493 -0.192712
0.286960 0.131878 -0.443910
0.286960 -0.052611 -0.451740
0.286960 -0.093437 0.443272
0.286960 0.377341 -0.304942
0.286960 0.384156 -0.317943
0.286960 -0.137888 -0.478871
0.286960 -0.080428 0.489051
0.286960 0.461934 0.094901
0.286960 0.479206 0.047046
0.286960 0.426596 -0.140458
0.286960 0.456757 -0.063863
0.286960 -0.373356 0.294503
0.286960 -0.438845 -0.212977
0.286960 0.013868 -0.460691
0.286960 0.442055 0.205018
0.286960 -0.480994 0.100564
0.286960 -0.349504 0.290348
0.286960 0.117918 -0.439654
0.286960 -0.433127 -0.114739
0.286960 0.147246 0.430963
0.286960 -0.325011 0.309183
0.286960 -0.378194 -0.237209
0.286960 0.018802 0.481031
0.286960 -0.325940 -0.316819
0.286960 -0.344242 -0.332847
0.286960 0.177107 0.429655
0.286960 -0.337325 -0.367458
0.286960 -0.019236 -0.490481
0.286960 -0.489186 -0.002393
0.286960 -0.401744 0.252849
0.286960 0.462331 -0.061633
0.286960 -0.313333 -0.338508
0.286960 -0.159574 0.444365
0.286960 0.427464 -0.147606
0.286960 -0.257985 0.396577
0.286960 -0.347807 -0.333007
0.286960 0.278404 -0.409779
0.286960 -0.163181 0.458749
0.286960 -0.195221 -0.418879
0.286960 -0.458070 -0.141689
0.286960 -0.368148 -0.309127
0.286960 -0.119915 0.428792
0.286960 -0.313707 -0.361002
0.286960 -0.344136 -0.311657
0.286960 0.468003 -0.087895
0.286960 0.220169 -0.394677
0.286960 0.442910 -0.174605
0.286960 -0.457311 0.089400
0.286960 -0.414896 -0.216607
0.286960 -0.107669 -0.469020
0.286960 0.421296 -0.194933
0.286960 0.304106 -0.357987
0.286960 0.393876 0.254309
0.286960 0.212415 0.441309
0.286960 0.355163 0.288527
0.286960 0.409745 0.223316
0.286960 -0.381448 0.233381
0.286960 0.079045 -0.478009
0.286960 0.010231 0.491356
0.286960 -0.399983 0.245168
0.286960 0.459107 -0.031367
0.286960 0.151320 -0.421223
0.286960 -0.359574 -0.344713
0.286960 -0.203253 -0.426736
0.286960 0.273272 -0.377925
0.286960 -0.165420 -0.466681
0.286960 0.279741 -0.366692
0.286960 -0.423279 -0.234184
0.286960 -0.461305 0.082087
0.286960 -0.398976 0.272511
0.286960 -0.353482 -0.283392
0.286960 -0.258919 0.369713
0.286960 0.164491 0.434767
0.286960 0.081209 0.446759
0.286960 0.348411 -0.289611
0.286960 -0.005575 0.458187
0.286960 -0.184258 0.448516
0.286960 -0.225083 0.402818
0.286960 -0.242761 -0.383106
0.286960 0.377377 0.250186
0.286960 0.303007 0.336042
0.286960 -0.403860 -0.210380
0.286960 -0.445261 0.191236
0.286960 0.187648 -0.457436
0.286960 0.017096 -0.457346
0.286960 -0.368787 -0.257373
0.286960 -0.404236 0.270352
0.286960 0.088334 0.467026
0.286960 -0.016515 0.454645
0.286960 -0.308141 0.372532
0.286960 -0.456669 0.021891
0.286960 -0.475022 -0.066528
0.286960 0.045434 0.477191
0.286960 0.470216 -0.155179
0.286960 0.433246 -0.247648
0.286960 -0.260829 -0.397204
0.286960 -0.449192 0.180634
0.286960 -0.429176 0.114944
0.286960 -0.211285 0.389943
0.286960 -0.240391 0.389694
0.286960 -0.129284 0.449396
0.286960 -0.175258 -0.457733
0.286960 -0.034485 0.444536
0.286960 0.016796 -0.447652
0.286960 -0.011717 0.486934
0.286960 0.393746 -0.262459
0.286960 -0.454457 0.029903
0.286960 0.217961 0.445867
0.286960 -0.436221 0.086245
0.286960 -0.408540 -0.194561
0.286960 -0.425108 -0.177870
0.286960 0.399236 -0.227164
0.286960 0.397339 0.217389
0.286960 0.132630 -0.469668
0.286960 -0.089873 -0.491087
0.286960 -0.466092 -0.143571
0.286960 -0.491272 -0.006990
0.286960 -0.355816 0.283531
0.286960 -0.094522 -0.445516
0.286960 0.478895 0.084407
0.286960 -0.414208 -0.194593
0.286960 0.071367 -0.445240
0.286960 0.029174 -0.489110
0.286960 0.243083 0.421052
0.286960 -0.458003 -0.094215
0.286960 -0.158507 0.440939
0.286960 0.470395 -0.139006
0.286960 -0.048209 0.458836
0.286960 -0.205094 -0.420076
0.286960 -0.478027 0.098879
0.286960 0.218796 0.414114
0.286960 0.413637 0.203101
0.286960 -0.232226 0.385490
0.286960 -0.133965 0.465954
0.286960 0.426596 0.215711
0.286960 -0.376445 0.266809
0.286960 0.453879 -0.086351
0.286960 0.437545 0.085992
0.286960 -0.291873 0.366344
0.286960 -0.436219 -0.190913
0.286960 0.315827 -0.351560
0.286960 0.350936 0.335803
0.286960 0.255742 -0.414576
0.286960 0.405206 0.201898
0.286960 0.234183 -0.417736
0.286960 -0.065360 0.446017
0.286960 0.304839 -0.327964
0.286960 0.119118 0.451563
0.286960 -0.386227 -0.234076
0.286960 0.165101 -0.431236
0.286960 0.316023 -0.369076
0.286960 0.387337 -0.286862
0.286960 -0.311789 0.371341
0.286960 0.476836 0.090989
0.286960 -0.465048 0.069962
0.286960 0.209110 -0.438803
0.286960 -0.172755 -0.445838
0.286960 0.456608 -0.189359
0.286960 0.269438 0.367747
0.286960 0.082917 -0.466481
0.286960 -0.476694 -0.029020
0.286960 -0.159896 -0.468589
0.286960 0.427236 0.191933
0.286960 -0.017845 0.495229
0.286960 0.036211 0.446429
0.286960 -0.394527 0.241028
0.286960 -0.458660 0.175118
0.286960 0.350650 -0.317097
0.286960 -0.048690 0.483048
0.286960 -0.235632 0.399593
0.286960 -0.441674 0.177178
0.286960 0.204896 0.394557
0.286960 -0.438447 -0.163134
0.286960 0.313118 0.326288
0.286960 -0.275895 0.357821
0.286960 -0.042424 0.445424
0.286960 -0.475806 0.124745
0.286960 -0.218545 -0.430812
0.286960 -0.315022 -0.387121
0.286960 0.027156 -0.495942
0.286960 -0.237064 0.430293
0.286960 0.134947 0.429792
0.286960 0.478352 -0.031148
0.286960 -0.400108 -0.270167
0.286960 -0.206326 -0.431953
0.286960 0.419732 -0.228331
0.286960 0.467160 -0.019932
0.286960 -0.445179 -0.049359
0.286960 0.384275 0.313536
0.286960 -0.459398 0.079280
0.286960 0.441552 -0.074753
0.286960 -0.383838 0.297646
0.286960 0.284593 -0.387480
0.286960 -0.123614 0.450351
0.286960 -0.456976 -0.106087
0.286960 -0.406638 0.190630
0.286960 -0.069556 0.442174
0.286960 -0.120877 0.477784
0.286960 -0.287732 0.389690
0.286960 -0.381654 -0.257638
0.286960 -0.279031 0.386485
0.286960 0.285688 0.360156
0.286960 -0.459594 0.113747
0.286960 0.447336 0.045427
0.286960 0.366533 -0.264088
0.286960 0.463484 0.030227
0.286960 -0.469902 0.003943
0.286960 0.336288 0.352625
0.286960 -0.440936 -0.118884
0.286960 -0.145738 0.445411
0.286960 0.394051 0.231876
0.286960 -0.073818 0.455110
0.286960 0.264732 0.378924
0.286960 0.157688 0.417790
0.286960 -0.067039 0.488546
0.286960 -0.467145 -0.033178
0.286960 -0.215530 0.435736
0.286960 -0.463925 -0.072112
0.286960 -0.198679 -0.427626
0.286960 -0.381741 -0.261985
0.286960 -0.215907 0.443508
0.286960 -0.416796 -0.261448
0.286960 -0.383661 0.280642
0.286960 -0.090539 0.444559
0.286960 -0.192569 0.452152
0.286960 -0.434548 0.188504
0.286960 0.492140 0.071119
0.286960 0.333600 0.361606
0.286960 0.089480 0.483462
0.286960 -0.316969 -0.337321
0.286960 0.392801 0.220338
0.286960 0.126247 -0.462967
0.286960 0.134264 -0.462705
0.286960 -0.216416 -0.395997
0.286960 -0.287398 -0.408102
0.286960 -0.465009 0.026262
0.286960 -0.451065 0.086284
0.286960 0.226918 -0.418641
0.286960 -0.123695 -0.454013
0.286960 -0.146488 0.437678
0.286960 0.069005 0.483249
0.286960 0.444392 -0.183400
0.286960 0.430111 0.145861
0.286960 0.010338 0.458742
0.286960 -0.199370 0.437978
0.286960 -0.467324 -0.171875
0.286960 0.157793 -0.466441
0.286960 0.309174 0.338701
0.286960 -0.198908 0.402796
0.286960 0.248243 0.428096
0.286960 -0.083677 -0.463437
0.286960 -0.444895 -0.172303
0.286960 -0.414327 -0.221040
0.286960 -0.445718 0.181570
0.286960 0.412921 0.193065
0.286960 0.421256 -0.218647
0.286960 0.408390 -0.238910
0.286960 -0.019664 -0.454131
0.286960 0.172141 0.424183
0.286960 -0.433891 -0.193488
0.286960 -0.134922 0.476659
0.286960 -0.452781 0.158939
0.286960 0.338407 -0.321196
0.286960 0.449465 -0.081404
0.286960 0.361432 -0.308660
0.286960 -0.463217 -0.172592
-0.030304 0.496484 -0.047199
0.113434 0.265403 -0.423963
0.228159 0.336275 -0.370193
0.082950 0.448553 -0.219973
0.006937 -0.442276 0.225645
0.257473 0.109463 0.483737
0.166753 -0.080086 0.489285
0.038428 -0.007109 0.495705
0.279451 0.303077 -0.397661
0.184555 -0.219978 0.444283
-0.139445 0.467354 0.171440
0.161924 -0.210009 0.449196
-0.268906 -0.163131 -0.472611
0.003911 0.374561 0.326555
-0.118930 0.437276 0.237142
-0.116101 0.278248 -0.415483
-0.188004 0.493191 0.070009
-0.173384 0.378587 -0.326495
0.004312 0.354898 0.347630
-0.008373 -0.164874 -0.471957
0.090573 -0.011261 -0.500087
0.020907 0.270148 0.416618
0.275025 0.429058 0.251473
0.275316 0.405031 0.288414
-0.050844 0.266714 -0.423097
-0.194900 -0.476136 0.141873
-0.196291 -0.497274 -0.015078
-0.232256 -0.199025 -0.458411
0.020723 0.449847 -0.217090
0.186574 -0.497163 -0.021231
-0.178867 -0.358698 0.342969
-0.085586 0.491868 0.079152
-0.248065 0.225237 -0.446550
-0.133407 -0.472725 -0.157251
0.275800 -0.272946 0.413953
-0.286290 0.106693 0.484395
0.213433 -0.495943 0.038371
-0.208928 0.384895 0.314512
0.128661 -0.025170 -0.499464
0.267704 -0.015033 -0.499918
0.133990 0.218480 0.445787
-0.111898 -0.179444 -0.466490
0.048017 0.291223 0.402140
0.002502 0.318851 -0.385144
0.172301 0.184069 -0.465130
-0.049900 -0.130944 0.478097
0.141783 -0.085448 0.488509
-0.224231 0.493031 -0.076208
-0.109099 -0.025965 0.495248
0.268151 0.297838 -0.401614
0.201926 -0.450480 -0.213469
0.014277 0.102179 -0.489626
-0.259802 -0.154386 0.471122
0.022195 -0.485740 0.105349
-0.103679 0.290588 -0.407083
0.220052 -0.188816 0.458370
-0.125054 0.460089 -0.194265
0.260380 -0.491867 -0.076431
-0.197860 0.488861 -0.100429
0.213957 0.441709 -0.233021
-0.238217 0.449981 0.212207
0.064053 0.496455 0.042595
0.134148 0.020903 -0.499828
0.096238 -0.484382 -0.116036
0.016449 -0.496323 -0.035931
0.237347 0.492785 -0.077633
0.134834 0.249258 -0.433534
-0.184094 -0.290404 -0.406350
-0.004200 0.169750 0.466159
0.149516 -0.275252 0.412431
0.163710 -0.021703 -0.499619
0.117802 0.397454 -0.303058
-0.157676 -0.034214 -0.499058
-0.117702 -0.383998 0.314294
-0.269926 -0.229627 -0.443745
-0.056675 0.274983 0.413498
0.220314 0.183785 -0.465248
-0.238174 0.258866 0.423496
-0.043778 0.031237 -0.499257
-0.126524 0.476588 0.144489
-0.147965 -0.497603 0.003203
0.231424 0.226912 0.441361
-0.286237 -0.496963 0.019298
0.192344 -0.212443 -0.452390
-0.117628 0.497533 -0.033783
0.210519 -0.469983 -0.165201
-0.237532 0.275907 0.412852
0.264178 -0.434025 -0.245378
0.167852 -0.495593 -0.044935
0.274727 -0.478766 -0.137238
0.079270 0.465394 0.176753
-0.022682 0.327197 -0.377982
0.233195 -0.112080 -0.487225
0.053307 0.491068 -0.087610
-0.216440 -0.120937 -0.485121
0.072622 0.496886 -0.043478
-0.016953 -0.484104 0.112233
-0.189483 -0.407068 0.283868
0.041631 0.266769 -0.423061
-0.111177 -0.486164 0.103568
-0.116948 0.279017 0.410677
0.025713 0.421888 0.263335
0.246167 0.472255 -0.162304
-0.249755 0.054821 0.492792
-0.162178 0.144011 -0.479126
-0.090722 -0.467065 0.169080
0.176221 0.495802 0.050646
-0.029219 0.304391 -0.396671
0.024391 0.479781 -0.137640
0.099561 0.102606 0.485367
0.278520 0.145748 -0.478647
-0.243352 0.411130 0.279632
0.138791 0.200423 0.453890
-0.213402 -0.417278 0.269106
-0.203889 -0.480480 0.127486
-0.212003 0.498155 0.018705
-0.065106 0.498479 0.000742
-0.057447 0.409060 -0.286838
-0.222976 0.343395 0.359084
0.040408 -0.497407 -0.007715
-0.132514 -0.315620 -0.386957
-0.043237 -0.047750 -0.497798
-0.223997 0.486441 -0.111066
-0.288076 0.285051 0.406457
0.263680 0.196765 0.455532
0.265624 -0.493449 -0.065494
-0.280133 -0.496300 -0.036206
-0.274022 0.191721 0.457795
-0.267472 -0.416250 -0.274677
-0.156533 0.497933 0.024352
-0.265169 0.052723 -0.497516
0.211714 0.251209 -0.432416
0.255635 0.412868 0.276999
-0.068304 0.247647 -0.434458
0.095804 0.026961 0.495076
0.140438 -0.497000 0.018474
-0.175327 0.259630 -0.427586
0.139464 -0.389560 -0.311915
-0.017689 0.129228 -0.483207
0.228946 -0.417631 -0.272585
-0.028765 0.486255 0.107636
-0.010695 0.498284 -0.017042
0.014320 -0.281506 -0.412573
-0.119987 0.111846 0.483171
-0.250201 -0.425490 0.255635
-0.168163 -0.182224 -0.465447
0.010390 0.482703 -0.126795
0.134584 -0.101439 0.485213
0.166542 0.408698 -0.287355
-0.212918 0.346885 -0.359906
0.005149 -0.391006 -0.309998
-0.103255 -0.430395 -0.251707
-0.138612 -0.078528 0.489510
-0.156230 0.018526 -0.499871
-0.211611 0.142578 0.475077
0.269733 -0.417378 0.268942
-0.191369 0.239451 -0.439158
-0.014300 0.341034 -0.365602
0.003550 -0.485534 0.106216
0.074016 0.002241 0.495873
0.248599 0.366409 -0.339941
-0.221852 -0.453025 0.203371
0.263563 -0.267701 0.417416
-0.180759 0.498209 0.015717
-0.133871 0.474256 -0.155746
-0.039991 0.333540 -0.372540
-0.135523 0.400745 0.294095
-0.060651 0.133004 0.477998
-0.025346 -0.260174 0.422334
-0.273724 0.164638 0.468077
-0.185296 0.310687 0.387354
-0.174119 -0.496471 0.030271
0.073962 -0.469797 -0.165741
-0.017125 0.496695 -0.045246
0.023880 -0.040104 0.494102
0.077726 -0.216370 -0.450627
0.227573 0.441679 0.229057
-0.136204 0.445454 -0.225909
-0.081457 0.445897 -0.225068
0.191127 0.217630 -0.450298
-0.243745 -0.487871 0.095873
-0.225452 0.375791 -0.329581
0.237965 0.108561 -0.488288
0.087104 -0.458649 -0.194827
0.131421 0.111991 0.483137
-0.073210 0.220320 0.444831
-0.149375 0.353394 -0.353569
0.283786 -0.033767 -0.499078
0.130735 0.498099 0.021838
-0.290192 0.148061 0.473404
0.049828 -0.497027 -0.027234
0.046978 0.492976 0.071498
0.102569 -0.493434 0.061590
-0.191167 0.480256 0.131199
0.270571 0.449951 -0.216857
0.152983 -0.490022 -0.089113
0.103324 0.230001 0.439734
-0.053266 0.483402 0.119804
0.272060 0.491123 -0.087286
0.119176 0.350729 -0.356164
-0.031143 -0.481353 0.123809
0.258030 0.488251 -0.103449
-0.207233 -0.250369 -0.432404
0.005089 -0.158922 -0.474131
0.005749 -0.119984 0.481122
-0.009321 0.088706 0.487903
0.181601 -0.437052 -0.240099
0.019259 0.431413 0.247366
0.175474 0.326328 -0.378728
-0.220511 0.475243 0.148570
0.207264 0.330898 -0.374807
0.257234 0.452166 0.207773
-0.220121 0.149575 -0.477488
0.123060 0.013006 -0.499971
-0.274580 -0.361696 0.339659
-0.248881 0.118216 0.481657
0.111084 0.479902 0.132483
0.281253 0.484356 0.116348
-0.109303 -0.442919 0.224424
-0.288028 -0.491250 0.076246
0.153451 -0.481372 -0.127799
-0.174866 0.325295 0.375477
0.076886 0.213162 -0.452500
-0.107333 -0.097957 0.485942
-0.260938 0.459781 0.190216
0.163865 0.490218 0.088717
0.150957 0.442988 -0.230594
0.106476 -0.495901 -0.041138
-0.258064 0.004867 -0.500117
-0.148625 0.234289 -0.442090
0.045373 -0.323607 -0.380431
-0.121102 -0.487043 0.099867
-0.195313 0.398097 -0.302251
-0.206880 -0.071058 0.490591
-0.210463 -0.191612 0.457204
-0.053507 -0.216420 -0.450605
0.139467 -0.066986 -0.495720
-0.211748 0.050672 -0.497683
0.227734 -0.332090 0.368551
0.032924 0.414876 0.273956
-0.288856 0.498632 -0.009293
-0.061079 0.459816 -0.194873
0.201795 0.453214 -0.209586
-0.285079 -0.433993 0.241376
-0.056485 0.419020 0.267680
0.246244 0.005059 0.495924
-0.255430 0.324873 0.375860
0.056658 -0.482489 0.119031
0.212326 -0.370296 0.330164
-0.071626 -0.479737 -0.133722
-0.106881 0.226626 -0.445866
0.066146 0.310608 -0.391980
-0.237134 -0.196941 0.454982
-0.047176 -0.040806 0.494045
0.090109 0.103196 -0.489412
0.228050 0.144170 0.474591
-0.287329 0.162009 0.469063
-0.147596 0.417167 0.270486
0.159185 0.151778 0.472270
-0.067297 -0.473993 -0.153575
-0.249257 -0.388641 0.308471
-0.177911 -0.348633 0.352854
-0.200546 -0.387739 -0.314330
-0.277644 0.280424 0.409692
0.278222 -0.429576 0.248933
-0.054152 0.498598 -0.005890
0.264727 -0.043172 0.493854
-0.246229 0.011076 -0.500005
-0.249654 -0.497469 -0.004266
0.148668 0.475917 0.146616
0.092021 0.348431 0.354273
-0.213937 -0.495647 0.041112
-0.131189 -0.384664 0.313459
0.234121 -0.227137 -0.445056
-0.277412 0.496562 0.041270
-0.022126 -0.451042 0.207789
0.119333 -0.297221 0.396953
-0.031305 -0.148438 -0.477330
-0.164929 0.210359 0.449431
0.162262 -0.329382 0.370874
0.210989 -0.219708 0.444416
0.227573 -0.482045 -0.125360
0.158487 -0.232234 -0.442372
-0.088530 -0.419548 0.265381
0.036456 0.084003 -0.493220
0.255771 -0.375880 0.323998
0.083797 -0.483116 -0.121481
-0.273980 -0.426712 -0.258130
0.142996 -0.017242 -0.499819
0.166094 0.479491 -0.138589
0.123042 -0.497436 -0.006073
-0.124379 -0.404300 0.287826
0.126941 0.209641 0.449754
-0.005614 -0.483782 -0.118899
-0.268532 0.065847 -0.495847
0.132530 -0.388754 0.308329
0.203622 0.358517 0.343913
-0.261344 -0.496834 0.022187
0.060739 0.398595 -0.301626
0.066708 0.375951 -0.329405
0.215500 -0.359184 0.342433
0.186677 -0.129618 0.478463
0.065651 -0.358492 -0.347240
-0.245613 -0.480634 -0.130471
0.077503 -0.323925 -0.380143
-0.035704 -0.409601 -0.284749
0.023820 -0.417567 -0.272682
-0.151512 -0.028992 0.495003
-0.145494 -0.496736 -0.030831
-0.248625 -0.494040 -0.061410
-0.138527 0.215962 -0.451121
-0.242009 -0.446662 -0.221217
0.055049 0.497338 0.031693
0.286878 0.448704 -0.219636
-0.033064 0.498316 0.009749
0.108271 -0.175350 0.463890
-0.066241 0.495199 0.056130
0.242421 0.093608 -0.491421
-0.258748 -0.412938 -0.279694
-0.151182 -0.208679 0.449851
0.273557 -0.406583 0.284561
-0.238129 0.327236 0.373719
-0.232841 -0.256846 0.424242
-0.248957 0.416989 0.270757
-0.079020 -0.456332 0.196000
0.029934 -0.161883 -0.473079
-0.148757 -0.278911 0.410015
0.227263 0.460658 -0.192997
0.246230 0.268167 0.417825
-0.183195 -0.101860 0.485124
0.146240 0.320002 0.379926
-0.045114 0.003479 -0.500142
0.238992 0.143907 0.474672
-0.017458 -0.496025 -0.039609
0.015681 -0.459145 -0.193639
0.150667 0.468571 0.167913
0.021900 0.021896 0.495303
-0.245176 -0.422356 -0.265428
-0.052782 -0.372423 0.327815
-0.169402 0.089271 0.487806
0.279061 0.460109 -0.194221
0.251833 -0.356197 -0.349597
-0.092304 0.200408 0.453897
-0.223534 0.000605 -0.500194
-0.011463 0.429227 -0.255540
-0.165729 0.152964 0.471908
-0.083604 -0.431260 0.246170
0.150774 0.248061 0.430082
0.224288 0.436135 0.239131
-0.066809 0.222897 -0.447703
0.053592 0.126878 0.479599
0.071647 -0.263047 0.420488
-0.104853 0.301755 0.394476
-0.221032 -0.324858 -0.379298
0.066210 0.479529 0.133832
-0.059691 -0.227257 -0.444993
-0.063798 -0.124169 0.479967
-0.065144 0.498380 -0.014904
0.262232 -0.019743 0.495477
-0.130099 -0.056522 0.492694
-0.134849 0.432419 -0.250303
-0.139620 -0.497241 -0.016936
-0.226316 -0.144455 0.474367
0.056324 -0.488336 0.093174
-0.118424 0.044321 -0.498197
0.083545 0.496216 0.045545
-0.224029 0.256012 -0.429661
-0.021867 -0.488360 0.093032
0.183397 -0.451505 -0.211389
0.231216 -0.063730 0.491651
0.284147 0.445015 0.222285
0.051411 0.497139 -0.041137
0.273191 -0.475364 -0.149564
-0.250511 -0.497293 0.011947
0.249910 0.498586 -0.005218
-0.132055 0.304194 -0.396819
0.165564 -0.487495 -0.101175
-0.002468 -0.164885 0.467500
-0.141285 0.358964 -0.348147
0.128593 -0.335975 0.365176
0.042866 0.495343 0.055134
0.045390 -0.476158 -0.146685
0.202682 0.022217 -0.499805
0.008679 0.169807 0.466137
0.070987 0.472460 0.156639
-0.022190 0.473817 0.152705
0.020551 -0.445694 -0.223181
-0.144428 0.346722 0.356029
0.284341 0.112721 0.482963
0.061990 -0.461915 0.182806
-0.188159 0.197151 0.455358
-0.241440 0.286483 0.405455
-0.074196 -0.040732 0.494051
-0.148653 -0.049607 -0.497598
0.044223 0.275446 -0.417333
0.009538 0.392121 0.305526
0.097428 -0.496361 -0.035457
-0.174916 0.162724 0.468795
-0.225240 0.483455 -0.123632
-0.230351 0.094381 -0.491259
-0.012836 0.406130 -0.291027
0.166014 -0.495063 0.046516
0.198323 0.498331 0.008944
-0.203449 0.251707 -0.432130
-0.133701 0.377589 0.323026
-0.232827 -0.385710 -0.316721
0.181683 -0.492513 0.068908
0.060442 0.413000 0.276799
0.015826 0.057056 0.492550
0.191357 0.088468 -0.492498
-0.252537 -0.011002 0.495635
-0.049270 0.442093 0.228216
0.036795 -0.375985 0.323882
-0.222596 0.430155 0.249560
0.277185 -0.454136 -0.205653
-0.079256 0.408524 -0.287604
0.214513 0.435851 -0.244148
-0.139145 -0.469440 -0.166774
-0.116793 0.498406 0.004757
-0.165855 -0.479377 -0.135027
-0.274923 -0.114147 -0.486734
-0.051767 -0.347903 -0.358116
0.145449 0.154838 0.471336
-0.039886 0.387753 -0.315223
0.247440 0.278748 0.410865
0.236322 0.397886 0.297884
0.050888 -0.207105 -0.454785
-0.112302 0.217036 -0.450591
-0.164574 0.396275 0.300020
0.257127 0.229266 0.440121
0.164006 -0.497271 -0.015258
-0.222459 0.383726 -0.320274
0.281449 -0.256511 -0.428659
0.179121 0.204473 0.452073
-0.228134 -0.229634 -0.443741
0.232859 0.413777 0.275621
0.077600 -0.405634 -0.290609
0.158732 0.109531 -0.488085
-0.254538 0.435309 0.240572
-0.257568 0.436370 -0.243162
-0.104685 -0.130304 0.478274
0.101301 -0.217616 -0.450068
-0.080113 -0.488926 0.089741
-0.133684 -0.414122 0.273781
-0.040983 -0.387229 -0.314951
0.248912 -0.078181 0.489561
-0.083548 0.466100 0.175061
-0.266368 -0.215270 0.446603
0.199107 -0.487951 0.095406
-0.278947 -0.379481 0.319959
0.270544 0.283015 0.407881
0.093365 -0.355049 -0.350776
-0.190794 0.403591 -0.294658
0.234183 0.453859 -0.208149
0.078605 -0.443503 -0.227629
0.182108 0.168897 0.466479
0.200176 0.465467 -0.180423
-0.168590 -0.251285 -0.431846
-0.186322 0.401962 0.292482
-0.289248 -0.302945 0.392635
-0.077782 -0.444936 -0.224719
0.106728 -0.407638 0.283052
-0.122153 0.339354 -0.367238
0.207453 0.323216 -0.381398
0.203182 -0.398503 -0.300062
0.265407 -0.446186 0.218220
-0.234042 0.340801 -0.365829
0.279472 -0.475255 0.144761
0.222846 -0.072592 0.490369
0.059161 0.493456 -0.073735
-0.132575 -0.185174 0.459889
-0.014536 0.497612 0.028310
-0.107437 0.079682 -0.493845
0.097828 0.443446 0.225470
0.060065 -0.496601 0.027381
0.243888 -0.099311 0.485658
0.199365 0.483205 0.120517
0.130444 0.488193 0.098385
0.034971 -0.192498 0.456835
-0.078070 -0.366757 0.334072
-0.081423 0.449586 0.213009
-0.060442 0.087020 -0.492783
0.249912 -0.250322 -0.432432
0.118466 -0.405827 -0.290353
-0.102989 0.244531 -0.436245
0.219580 -0.325622 0.374101
-0.015803 -0.243101 -0.436650
0.161478 0.218828 0.445617
-0.062975 -0.057201 0.492596
-0.109347 -0.491232 0.076347
0.185760 0.136604 -0.481171
-0.263880 0.181475 -0.466211
0.285057 0.476435 -0.148606
-0.120714 -0.072266 -0.494911
-0.074627 0.497637 0.028007
0.219851 0.172788 -0.469481
-0.207806 -0.411635 0.277338
-0.062894 -0.386962 0.310576
0.087628 -0.062293 -0.496227
-0.259674 -0.403077 0.289574
-0.172169 -0.351104 -0.354828
-0.104420 0.198302 0.454842
0.269976 0.233311 0.437991
-0.068645 0.412719 -0.281605
0.134934 -0.456313 0.196043
-0.214385 -0.070944 -0.495138
-0.038130 0.091224 -0.491921
-0.046848 -0.435094 0.239286
0.160970 -0.484517 -0.115392
0.003783 -0.173884 0.464396
-0.107308 -0.154589 -0.475453
0.043612 -0.236039 -0.440369
0.210154 -0.490856 -0.083420
-0.178481 0.185705 0.460172
0.243847 -0.416805 -0.273837
0.103786 -0.380184 -0.323161
-0.262718 0.204691 -0.456532
-0.051986 -0.469770 -0.165818
0.080046 0.407848 0.284602
0.284183 -0.481731 0.122219
-0.086909 -0.497210 0.013790
-0.019399 0.326750 0.374159
-0.260381 0.064621 0.491732
-0.038650 -0.497152 0.015084
0.098927 -0.449047 -0.216376
0.042844 0.398314 0.297317
-0.242360 0.406600 -0.290355
0.243256 0.308280 -0.393736
0.188089 0.398255 -0.302052
0.167154 -0.374773 0.325221
0.011982 -0.489841 0.084432
0.079771 -0.070549 0.490665
-0.249735 0.289668 -0.407778
-0.232393 -0.110724 0.483267
0.007881 0.434186 -0.247310
-0.060714 -0.481628 -0.126871
-0.104653 0.497612 -0.032033
0.234572 0.339432 0.362673
0.147525 0.343778 -0.362931
-0.142648 -0.450964 -0.212486
-0.128377 0.481499 -0.131860
-0.182492 0.496887 -0.043473
0.231961 -0.361821 0.339521
0.261552 -0.385308 0.312651
0.045330 -0.221532 0.443517
-0.070742 0.360164 0.342221
0.183901 -0.010656 -0.500115
-0.029818 0.460663 0.188102
0.143608 -0.429888 0.248421
-0.132698 -0.406217 -0.289836
-0.110805 0.101506 0.485628
-0.076210 -0.358909 -0.346812
0.191453 -0.470851 -0.162683
-0.114368 0.469014 -0.170970
0.141191 0.490143 0.089078
0.021475 -0.482149 0.120460
0.016252 -0.188349 -0.463149
-0.213247 0.007222 0.495961
-0.007444 0.275454 -0.417328
0.115573 0.449919 0.212333
0.286006 0.205218 0.451738
0.237533 -0.470268 -0.164374
-0.276798 -0.043900 -0.498214
-0.244243 -0.001298 0.495810
0.231439 0.407396 0.285278
-0.157226 -0.127280 0.479108
-0.086865 0.313949 -0.389350
-0.194812 0.386079 -0.317323
-0.170978 -0.058052 0.492473
0.099407 -0.479841 -0.133344
0.286876 0.178837 -0.467311
-0.168308 0.129531 0.478968
-0.169999 -0.030234 0.494902
-0.041542 0.174067 0.464539
0.235563 -0.485245 0.107434
0.113212 0.135029 0.477380
-0.144133 -0.113070 0.482776
0.164249 -0.046499 -0.497934
-0.263889 0.391062 0.306929
-0.073370 -0.497545 -0.000037
0.237832 -0.496159 -0.037949
0.068900 0.035214 0.494706
-0.287387 -0.368440 0.332213
0.194172 -0.460847 0.185653
-0.009769 0.323809 0.376823
-0.176040 -0.165574 0.467263
0.183166 0.242649 0.433075
-0.194789 -0.479699 -0.133857
-0.240573 0.297870 0.397491
-0.213824 0.457790 -0.199389
-0.082368 0.497372 -0.037376
0.222558 -0.284364 0.406415
0.220839 0.481664 -0.131166
-0.270136 -0.352177 -0.353726
0.139685 -0.340227 0.361037
-0.116174 0.484742 -0.118214
-0.274164 0.498175 0.017573
0.131896 -0.496581 0.027812
-0.264205 -0.493001 0.065593
-0.147069 -0.467750 0.167254
0.055616 -0.243063 -0.436670
-0.178774 -0.252174 -0.431303
0.002244 -0.270186 -0.420323
0.231765 -0.417172 0.269279
-0.037735 0.497897 -0.025685
0.208007 -0.480957 -0.129301
0.058840 0.409999 -0.285495
-0.271610 -0.495585 0.041680
-0.271645 0.333109 0.368400
0.229681 -0.239328 -0.438637
-0.020835 0.163065 -0.472835
-0.042071 0.154227 0.471523
-0.070285 0.002107 0.495871
-0.066598 -0.415419 -0.275935
0.028521 0.342201 -0.364466
-0.176603 -0.284914 0.406052
-0.245892 -0.465982 0.171968
-0.229701 -0.072113 0.490438
0.046854 -0.098099 -0.490463
0.058625 0.484749 0.114825
0.096018 -0.415686 0.271546
-0.277274 0.074725 -0.494562
-0.198288 0.170125 -0.470400
0.285554 -0.465650 0.172851
0.153688 -0.056668 0.492673
-0.023541 0.494960 -0.061302
0.210686 0.427998 -0.257556
-0.288493 -0.033703 0.494621
-0.206446 -0.344879 0.356508
-0.194551 0.122791 -0.484984
0.032958 0.184623 -0.464899
0.041347 0.336192 0.365607
-0.203051 0.469682 0.164690
0.231755 -0.059179 -0.496563
-0.169963 0.428178 -0.257260
0.217588 0.118997 0.481472
-0.019603 0.493204 0.069924
0.000763 0.416840 0.270982
0.066892 -0.390630 0.305977
0.232691 0.018563 0.495452
0.024132 0.107596 -0.488491
0.047903 -0.050010 0.493300
0.110621 -0.282349 -0.411983
-0.287859 0.369343 0.332636
0.015299 -0.497223 -0.017904
-0.013699 0.385615 -0.317905
-0.268612 0.380557 -0.324248
-0.046840 -0.393391 0.302513
-0.241868 0.497425 0.030616
-0.061194 -0.005474 0.495734
0.154000 -0.493547 0.060546
-0.011621 0.121653 0.480840
-0.185217 -0.083818 0.488745
0.093741 0.077295 0.489868
-0.241411 0.412943 -0.281285
-0.098627 0.067039 -0.495674
-0.244503 -0.484014 -0.117795
-0.154912 0.007749 -0.500065
0.064813 0.367778 0.334401
-0.252513 0.065124 -0.495951
0.269239 0.156980 0.470683
-0.221995 0.496326 -0.048666
-0.190512 -0.262663 0.420742
-0.191444 0.057632 -0.497035
-0.196065 -0.143881 -0.478720
0.247845 -0.336679 0.364491
0.250670 0.457147 0.196535
-0.267684 -0.409302 0.280674
-0.114380 -0.497221 -0.018023
-0.046627 0.498309 0.010185
0.099943 0.133375 -0.482062
0.187659 0.114683 0.482497
-0.008190 -0.182117 0.461163
-0.150639 0.469631 0.164839
-0.153669 -0.475035 -0.150555
0.162091 0.404570 0.289025
0.242709 0.403381 0.290601
0.241001 -0.260327 0.422246
-0.235336 0.475846 0.146821
-0.113154 -0.470360 0.160300
0.054120 -0.255272 -0.429415
0.216628 0.042812 -0.498319
-0.000863 0.328885 0.372226
0.150610 -0.313310 -0.388799
-0.261152 -0.240378 -0.438084
0.257482 0.144776 -0.478915
-0.204888 -0.176687 0.463427
0.111220 -0.334292 0.366661
-0.010714 0.209407 0.449858
-0.244582 0.337798 -0.368752
-0.050042 -0.479918 -0.133064
-0.010045 -0.492973 0.065857
0.195600 -0.337191 0.363993
-0.273393 0.491762 -0.083579
0.189012 -0.071759 0.490490
0.131815 -0.481367 -0.127814
0.077522 0.454067 0.203916
-0.024382 0.419767 0.266549
-0.096596 0.438022 -0.240024
-0.267132 0.429734 0.250293
-0.228888 -0.303927 0.391893
0.152287 -0.491652 0.073909
0.272849 -0.430425 -0.251655
0.240077 -0.035759 0.494454
-0.020150 -0.330619 -0.374080
-0.115402 -0.037826 0.494287
0.281901 0.343330 -0.363367
0.007582 0.440209 -0.235872
0.035728 0.249145 0.429421
0.126665 0.481393 -0.132307
-0.028416 0.040714 -0.498489
0.078584 -0.338674 -0.366784
-0.225833 0.483759 0.118510
-0.110090 -0.311871 0.385900
0.116456 0.072951 0.490616
-0.152973 0.251193 -0.432425
-0.123587 -0.339256 0.361982
-0.073944 -0.392396 -0.308157
-0.210883 0.430453 -0.253529
-0.045475 -0.472859 -0.156865
0.194491 0.361751 0.340592
-0.270088 -0.115325 0.482304
-0.158455 0.411277 0.279408
-0.260692 -0.349118 -0.356868
-0.132581 0.472944 0.155233
-0.033624 -0.288791 0.403312
0.130401 0.017202 0.495513
0.146794 -0.449898 -0.214651
-0.008304 0.160522 0.469602
0.271082 0.097278 -0.490652
-0.105792 -0.253140 -0.430715
-0.137164 0.154204 -0.475892
0.242307 0.263216 -0.425406
0.223767 -0.106934 -0.488448
-0.058038 0.082538 0.488965
-0.266361 0.495155 -0.059496
-0.088054 -0.213958 -0.451710
0.068410 0.448652 0.214906
-0.090995 0.433140 -0.249122
0.196930 0.385116 -0.318530
-0.214284 0.496923 0.036817
0.130283 -0.229288 -0.443924
-0.085754 -0.496688 -0.031425
-0.119902 0.157106 0.470644
-0.050151 0.103348 -0.489381
-0.095897 -0.300274 0.394649
0.246209 -0.443043 0.224188
-0.047425 -0.406527 -0.289404
0.115137 0.143519 -0.479262
-0.163894 0.439445 0.233359
-0.175460 0.447786 0.216662
0.118438 -0.409916 0.279795
-0.124722 -0.352774 -0.353113
0.134051 -0.209213 -0.453839
-0.104702 0.115252 -0.486887
-0.230862 0.414743 -0.278712
-0.267311 0.370786 -0.335107
-0.284184 -0.454369 -0.205093
0.178735 -0.496627 -0.032171
0.256879 -0.400684 0.292996
-0.265430 0.489475 -0.096860
-0.190230 0.498284 0.011570
0.239199 0.279225 -0.414838
0.216037 -0.210461 0.448973
0.206750 -0.474796 0.146266
-0.170211 0.478974 -0.140284
0.205257 0.182611 -0.465738
-0.090896 -0.437333 -0.239609
-0.209730 -0.312660 0.385223
-0.065719 0.332603 0.368858
-0.073900 0.017097 -0.499897
0.085472 0.292283 0.401399
0.121851 0.427271 0.254589
-0.153467 0.047203 0.493615
0.120198 -0.455744 0.197312
-0.033036 -0.034256 -0.499056
0.217840 -0.369734 -0.335340
0.102993 0.386118 -0.317274
0.106814 -0.483564 -0.119858
-0.139227 -0.306631 -0.394124
-0.128659 0.419385 0.267127
0.278317 0.320339 0.379658
0.283586 -0.495054 -0.051594
0.206588 0.387776 -0.315195
0.262886 -0.489966 0.083701
-0.273021 0.273519 -0.418605
0.047307 -0.495414 -0.047148
0.140426 -0.483102 0.116451
-0.112867 -0.333908 -0.371102
0.039700 -0.493630 0.059775
0.112780 0.498454 0.002100
-0.233378 0.034024 -0.499031
-0.135333 0.495174 0.056305
-0.265575 -0.335028 0.366030
0.109256 -0.301550 -0.398176
0.018549 0.038967 0.494505
0.140095 0.383800 0.315788
0.076195 -0.108327 -0.488117
-0.104537 -0.458382 0.191432
-0.159995 0.008164 0.495919
-0.162570 -0.490177 -0.088111
-0.071593 -0.410406 0.279094
-0.004655 0.253251 -0.431245
0.014945 0.299629 -0.400263
0.262854 0.333410 0.368127
0.240941 -0.165699 0.467219
-0.152881 -0.261851 -0.425404
0.003648 0.353018 -0.353935
-0.153980 -0.055602 0.492827
-0.173854 0.208978 -0.454562
0.071752 -0.317255 0.381280
-0.164535 0.252429 -0.431716
0.135498 -0.434380 0.240641
0.263706 0.380791 -0.323954
-0.118829 -0.091922 0.487206
0.206652 0.047477 0.493585
0.219284 0.382160 -0.322237
-0.019196 -0.217991 -0.449872
0.248509 0.394223 -0.307109
-0.024295 0.427845 -0.257807
0.285298 0.372065 0.329464
0.194321 -0.497421 -0.006950
0.118268 0.090024 0.487676
0.168399 -0.391658 0.304687
0.271719 -0.494140 0.055053
0.061952 -0.414980 0.272554
-0.051406 0.381066 -0.323610
-0.262821 0.233436 0.437926
-0.235360 0.420710 -0.269511
-0.065418 -0.208034 0.450169
0.068685 0.437401 0.236923
0.252179 -0.451129 -0.212151
0.225459 -0.197173 0.454886
0.164485 -0.409804 0.279955
0.070733 0.409576 -0.286100
-0.235445 -0.279354 -0.414078
-0.078840 0.331834 0.369555
0.237062 0.497152 0.033988
-0.011835 -0.478302 -0.138920
-0.281312 -0.008866 -0.500195
-0.042192 -0.143443 0.474647
0.038181 0.215039 0.447331
0.278666 0.480170 0.131512
0.194641 -0.486599 -0.105456
0.110128 0.080957 -0.493661
-0.073244 -0.489238 -0.092855
-0.187451 0.443287 -0.230024
0.194838 -0.429719 0.248698
-0.135402 -0.221755 -0.447890
0.275730 -0.148666 0.473095
-0.014272 -0.122084 0.480543
0.129732 -0.326425 0.373411
0.142227 0.480512 -0.135243
-0.072569 -0.295565 -0.402740
-0.135793 -0.496329 0.033437
-0.245429 -0.385152 -0.317372
-0.290173 0.188807 -0.463154
-0.194577 0.216383 0.446728
-0.164376 0.448229 0.215764
-0.217623 -0.010256 0.495648
0.057333 -0.495706 -0.043536
0.033782 0.010193 -0.500021
-0.268825 0.416630 0.271300
-0.274650 0.007502 -0.500070
-0.176390 0.467009 -0.176316
-0.043671 0.312041 0.386275
-0.144572 -0.181182 0.461553
0.229969 -0.307910 0.388889
-0.261251 0.440503 0.231443
-0.073767 0.322318 0.378080
0.199772 -0.213597 0.447427
0.025177 -0.273210 0.413779
0.286605 -0.161571 -0.473197
-0.110812 0.426960 0.255132
0.043532 0.002781 -0.500155
-0.124225 0.498230 0.014557
0.134512 0.261973 0.421601
0.272664 0.145247 0.474263
-0.269662 -0.468579 -0.169270
0.167544 -0.490178 -0.088103
0.090775 0.434088 0.242700
0.003847 -0.488770 -0.095091
0.033750 -0.483172 0.116157
-0.259953 0.455230 -0.205093
0.134950 0.280476 0.409656
-0.190950 -0.471668 -0.160317
-0.121664 -0.084981 -0.492722
0.104892 -0.132208 0.477748
-0.156383 -0.210213 -0.453391
-0.182214 -0.369495 -0.335619
-0.059378 -0.364292 0.336792
-0.005494 0.046296 0.493713
0.227576 -0.169029 0.466071
0.169813 -0.369011 -0.336182
0.227814 0.171353 0.465557
-0.095006 -0.492428 0.069403
0.222292 -0.462598 0.180986
0.046819 0.488720 -0.101245
0.188985 0.045421 0.493807
0.023898 0.103924 0.485054
0.216604 -0.496731 0.024478
-0.147056 -0.405091 0.286694
0.143446 -0.253418 0.426208
0.078450 -0.448488 0.213480
-0.288676 0.276561 -0.416596
0.242572 0.335637 -0.370740
-0.033872 -0.478347 0.134627
-0.124659 -0.254563 0.425551
0.285716 0.477542 0.141032
-0.004870 -0.429720 -0.252884
-0.134326 -0.483575 -0.119818
-0.109553 0.152564 -0.476457
-0.186998 0.285509 0.406137
0.168895 0.494171 -0.068606
-0.166136 0.362150 0.340182
-0.025153 0.001832 0.495866
-0.164269 -0.264532 -0.423770
-0.028391 -0.440489 -0.233744
0.239046 0.359450 -0.347624
0.272949 -0.015154 0.495560
0.269380 -0.434456 0.240498
-0.148221 0.413018 -0.281179
-0.224476 -0.497503 -0.002389
-0.042138 -0.488389 0.092864
0.112951 0.173047 -0.469391
0.240217 0.198671 -0.459042
-0.112543 -0.415777 -0.275393
0.024954 0.497284 0.032357
-0.222403 0.350495 -0.356391
0.081738 0.110406 -0.487902
-0.071075 -0.112570 -0.487109
0.008039 -0.180623 -0.466047
-0.149615 -0.082532 -0.493143
-0.259542 0.325593 -0.379359
-0.136681 -0.493149 0.064222
0.107918 -0.445302 -0.223978
0.200172 0.466984 0.172513
-0.201765 -0.167009 0.466767
-0.085515 0.461851 0.185252
-0.075320 -0.320548 -0.383027
0.211980 -0.276232 0.411784
0.240637 -0.444326 -0.225958
0.124725 -0.351712 0.349856
0.035231 0.204091 0.452244
0.114961 0.477438 -0.145317
0.286432 0.003067 0.495888
-0.098260 -0.325065 0.374579
-0.142243 0.498150 0.018973
0.150643 -0.240540 0.433593
-0.188660 -0.355181 0.346478
-0.202203 0.294198 -0.404360
-0.247139 0.420765 -0.269419
-0.103877 0.455961 -0.203465
-0.044474 0.324919 -0.379937
-0.203302 -0.370965 -0.333905
0.280169 -0.209658 0.449369
0.229533 0.210105 0.449545
-0.053575 0.410160 0.281100
0.024764 0.454465 -0.206800
-0.198645 -0.276518 -0.416061
0.089496 0.064371 -0.496060
-0.276826 0.243632 -0.436760
-0.037164 0.481583 -0.131509
0.123450 0.493783 0.065915
-0.029601 -0.071653 -0.495016
0.105577 -0.486151 -0.107593
-0.007644 0.137058 0.476762
-0.048669 -0.183527 0.460575
-0.263347 0.445187 -0.226417
0.090836 -0.492398 0.069577
-0.260355 -0.121187 -0.485061
-0.205251 -0.395298 -0.304309
0.115494 0.275937 -0.417009
0.059600 0.310490 0.387511
-0.217487 0.403930 0.289873
0.239643 0.480468 0.130432
0.086864 0.482691 -0.126847
-0.199883 0.390090 0.308218
0.083650 -0.462937 0.180082
-0.179327 -0.397248 0.297677
0.145501 0.420414 -0.269996
-0.042342 0.397617 0.298241
0.262946 -0.150427 -0.476723
0.125987 -0.314711 -0.387682
-0.233433 -0.312650 0.385232
0.040126 -0.409117 -0.285482
-0.000408 -0.037666 -0.498888
-0.244696 -0.412865 -0.279805
-0.290231 0.494640 -0.064264
-0.079752 0.425731 0.257274
-0.217540 0.078531 0.489655
-0.151777 0.298281 -0.401280
0.160334 0.401607 -0.297494
0.129276 -0.160008 0.469182
-0.238988 -0.072747 -0.494828
0.165604 -0.362900 0.338330
-0.199961 -0.075056 -0.494430
-0.109202 -0.358754 -0.346970
0.127067 0.195855 0.455940
0.202116 -0.495914 0.038637
-0.118827 -0.163354 -0.472527
-0.031770 -0.327240 -0.377141
-0.116217 0.030357 0.494923
-0.196411 0.271420 0.415842
0.063284 0.462071 -0.189473
0.136873 0.144151 -0.479087
0.095976 -0.475658 0.143441
-0.000451 -0.496073 0.037170
-0.152014 -0.461658 0.183491
-0.237141 0.008335 0.495911
-0.051974 -0.497378 -0.009305
0.019667 -0.360472 -0.345206
-0.134865 0.485799 0.109811
-0.161575 -0.484991 -0.113129
0.110870 0.040097 0.494383
-0.031711 0.282164 0.408476
0.034771 -0.144398 -0.478563
-0.075925 -0.226253 0.441191
-0.148586 0.037631 0.494597
-0.220269 0.416847 0.270971
-0.289928 -0.421809 0.261673
0.189646 -0.019511 -0.499717
-0.237694 0.246769 -0.434962
0.260085 -0.078127 0.489568
0.163415 0.174099 -0.469028
-0.141730 0.009083 -0.500041
0.249691 0.298551 -0.401076
0.165936 0.379206 -0.325812
0.263196 -0.292825 -0.404656
0.075914 0.488272 0.098008
0.286403 -0.471861 0.155885
-0.090374 0.225762 0.441966
-0.166170 -0.416206 -0.274744
0.058769 0.469439 0.165394
-0.056692 0.056181 0.492645
-0.239857 -0.427421 -0.256894
0.117390 0.381852 -0.322624
0.251810 -0.257856 0.423663
0.212099 -0.440553 0.228917
0.040943 0.057751 0.492475
0.070048 -0.240497 0.433617
0.085344 -0.424496 -0.261994
0.222811 -0.407960 0.282591
-0.136562 0.410987 -0.284083
0.246651 0.452156 -0.211943
-0.199915 -0.026172 0.495231
-0.014964 0.003239 -0.500147
0.282690 -0.361678 -0.343967
0.030672 0.047284 0.493606
0.085509 -0.430543 -0.251450
0.251280 -0.462941 -0.184534
0.051838 -0.497262 -0.015766
0.039780 0.297553 0.397713
-0.180031 0.025296 -0.499738
0.191524 -0.263709 -0.424271
0.111948 0.376178 0.324671
-0.119127 0.238977 -0.439430
0.101057 0.498468 0.001312
0.224204 0.249964 0.428922
-0.054601 -0.496198 -0.037474
0.027819 0.462560 0.183552
-0.206002 0.260344 0.422594
0.110351 -0.255292 0.425133
-0.099198 -0.097616 -0.490547
-0.150300 0.315652 -0.387889
0.075172 0.331021 0.370291
-0.248374 0.498147 0.019158
0.055675 0.387065 0.311983
-0.184449 -0.497306 -0.013297
0.034212 -0.458497 0.191176
-0.192837 -0.465459 -0.178315
-0.133208 -0.457409 -0.197803
-0.259872 -0.383397 0.315047
-0.141115 -0.212611 0.447914
0.182241 -0.285402 0.405730
0.188381 -0.306257 0.390136
0.155576 -0.293953 0.399418
-0.189862 -0.489579 0.085950
0.057521 -0.400799 -0.297018
0.268158 -0.468902 -0.168335
-0.040331 0.487437 0.101994
0.072357 0.156371 0.470869
-0.247916 0.366200 -0.340171
0.241522 -0.310479 0.386951
-0.204776 -0.439840 -0.235062
-0.110591 0.314200 0.384553
0.105846 -0.334860 -0.370239
0.001360 -0.063201 -0.496129
0.022789 -0.080483 -0.493496
-0.055768 0.011832 0.495754
0.032779 0.475582 -0.151400
-0.124460 -0.461718 0.183330
0.118732 0.484419 0.116120
0.281540 0.437448 -0.241115
0.261611 -0.236657 0.435820
-0.088500 -0.292960 -0.404562
0.139043 -0.211124 0.448646
-0.214759 0.423808 -0.264429
0.079250 0.423906 0.260278
-0.232467 -0.482669 -0.123098
-0.051570 0.102254 0.485450
0.028497 -0.484532 -0.115323
-0.007655 -0.496994 0.018619
0.169824 0.116210 -0.486686
0.086443 0.020387 0.495371
0.045765 -0.168584 -0.470565
0.047757 -0.350339 0.351192
0.248038 0.028950 0.494987
0.075593 -0.496248 -0.036849
-0.004957 -0.208073 0.450150
-0.160817 0.425328 0.257977
-0.244804 -0.290455 -0.406314
0.241701 -0.098366 -0.490417
0.094442 -0.431649 0.245532
0.175751 -0.230625 0.439037
0.206903 -0.303205 -0.396856
0.219038 -0.433332 -0.246585
0.181391 -0.131965 -0.482356
0.089626 -0.325652 0.374075
0.241665 -0.306487 -0.394239
-0.214311 0.498607 -0.006365
-0.182014 0.430985 -0.252656
0.123953 -0.466641 -0.174890
-0.023136 -0.428929 -0.254264
-0.185966 0.330452 -0.375189
-0.130763 -0.345842 0.355570
0.152775 -0.168467 0.466264
0.148896 0.328775 -0.376628
0.047655 -0.416134 0.270904
0.267160 0.463074 0.182318
-0.222379 0.177921 0.463093
-0.003976 -0.483505 0.114753
0.081640 0.290445 -0.407191
0.239120 0.323863 0.376775
0.047145 -0.456165 -0.200787
0.184245 -0.274223 0.413110
0.160625 0.207110 0.450889
0.153745 0.183257 0.461090
-0.096343 0.296979 -0.402262
0.218045 0.494857 -0.062257
0.113795 0.343906 -0.362806
0.076729 0.062104 -0.496388
-0.108654 0.409385 0.282275
0.001959 0.085601 0.488438
0.186545 0.340192 0.361984
-0.129987 -0.063745 -0.496070
0.256528 -0.200142 0.453648
-0.172552 0.269791 -0.421066
0.179774 0.222775 -0.447763
0.078720 0.491480 -0.085214
0.182499 -0.497485 -0.003394
0.173781 0.002586 -0.500158
-0.257327 -0.434977 0.239507
-0.223771 0.116096 0.482161
0.117103 -0.327228 -0.377151
0.134649 0.304050 0.392647
-0.045782 0.431009 0.248071
0.130691 0.497947 -0.024567
0.275729 -0.085701 0.488473
0.155869 -0.496671 0.025811
-0.016924 0.303083 -0.397657
-0.230291 -0.331059 0.369435
0.237060 0.130375 0.478768
-0.215664 -0.352408 0.349178
-0.145746 0.484109 0.117241
0.067348 0.466409 0.174179
0.257089 -0.496599 -0.032521
0.104333 0.304542 0.392254
0.186417 -0.209805 0.449296
-0.133547 0.318007 -0.385868
-0.049455 0.494145 -0.068849
0.173129 0.274024 0.414169
-0.122417 0.158111 -0.474544
-0.007929 0.497832 -0.027117
0.141226 0.067411 -0.495620
0.002745 0.457111 0.196621
0.149103 -0.457873 -0.196690
0.202973 -0.465865 0.172280
0.286435 0.408419 -0.287754
-0.169275 -0.497205 -0.018903
-0.153199 -0.497116 -0.023861
0.284520 -0.495624 0.041320
-0.030727 -0.016143 0.495542
-0.276624 0.497762 -0.028682
-0.280612 -0.256616 -0.428596
0.200344 -0.455398 0.198082
0.083132 0.051435 0.493157
-0.271263 0.390843 -0.311348
-0.206378 0.485502 0.111230
0.246163 0.122254 -0.485132
-0.232337 -0.085867 0.488449
0.229881 -0.338497 -0.366945
0.005987 -0.260242 0.422295
-0.160553 -0.402737 -0.294450
-0.125304 -0.041564 -0.498467
0.019448 0.398093 -0.302256
0.235833 0.489728 -0.095389
-0.232937 -0.479591 0.130551
0.005004 -0.488141 0.094304
-0.080599 0.291555 -0.406354
-0.068944 -0.193779 -0.460765
-0.133411 0.497288 -0.039262
0.190494 -0.423102 -0.264297
0.183844 -0.117960 0.481681
0.202862 0.479317 0.134602
0.070536 -0.306762 0.389755
-0.151925 0.457279 0.196219
-0.120570 -0.221155 -0.448206
0.062017 -0.330153 0.370213
0.285937 0.117167 -0.486486
-0.230944 -0.476881 -0.144067
0.129283 0.457949 -0.199034
-0.237142 0.114613 -0.487021
0.104132 -0.234910 -0.440963
-0.063903 -0.077495 0.489660
-0.240709 -0.496286 0.034386
0.008314 -0.317407 -0.385532
-0.007353 -0.196472 0.455178
0.158055 0.496501 0.042019
-0.201521 0.373655 0.327612
0.041864 -0.490492 -0.085938
0.106890 0.190698 -0.462366
0.258569 0.496830 0.037963
0.252250 0.380422 -0.324417
0.119140 -0.215969 -0.450807
0.077528 0.138120 -0.480752
0.061871 0.084721 -0.493116
-0.176898 -0.259006 0.423003
-0.175156 -0.109925 -0.487738
-0.180928 0.497007 0.035772
0.000160 0.211352 0.448986
-0.168921 0.447186 -0.222620
0.281168 -0.119326 0.481304
-0.160083 -0.357386 -0.348375
0.231348 0.434344 -0.247010
-0.188455 -0.400584 -0.297304
0.285856 0.004856 -0.500117
-0.052352 0.190538 0.458326
0.000374 -0.439972 -0.234794
0.258182 -0.202435 -0.456881
-0.085825 -0.091368 -0.491622
-0.115272 0.253714 0.426636
0.039680 -0.484125 -0.117265
-0.264399 0.079248 -0.493908
-0.163314 0.478955 0.135913
0.044034 -0.487077 0.099725
0.211834 -0.301510 0.393717
0.108248 -0.443497 0.223326
0.130394 0.343405 0.359074
0.257348 -0.466054 0.171774
-0.219466 0.497710 0.027102
0.283353 -0.488044 0.094866
-0.030539 -0.497258 -0.015963
-0.064850 -0.483661 0.114099
-0.093006 -0.052520 0.493096
-0.191093 -0.216485 -0.450576
0.195044 0.213890 0.447847
-0.034798 -0.392949 0.303069
0.067022 0.490080 -0.093347
0.073922 0.496853 0.037679
-0.061802 0.459993 0.189708
0.044985 0.059810 -0.496720
0.024895 -0.147437 -0.477635
-0.061788 -0.466590 -0.175038
-0.133464 0.338269 -0.368294
0.098106 0.484334 -0.119931
-0.000758 -0.412725 -0.280016
0.286169 -0.360100 0.341421
-0.017112 0.173583 0.464720
-0.279839 0.262401 0.421340
0.052277 -0.472682 -0.157378
-0.043972 -0.306221 0.390163
0.020745 0.498054 -0.022188
-0.276465 -0.217935 -0.449901
0.071221 -0.344506 0.356871
-0.194134 -0.234974 -0.440930
0.105864 -0.485839 0.104933
-0.092764 -0.481430 -0.127588
-0.070525 -0.089703 0.487671
0.273697 -0.350002 0.351520
-0.117850 0.493809 0.065739
-0.099870 -0.497054 0.017277
-0.137893 0.404987 -0.292661
0.250720 0.485527 -0.114911
0.187385 -0.495241 -0.049286
-0.199399 -0.485508 -0.110660
0.243056 -0.494441 0.052266
-0.225048 -0.419773 0.265012
0.034777 -0.221726 0.443422
0.213541 -0.485656 0.105703
0.221876 -0.244168 0.431512
-0.097076 0.124338 -0.484557
0.285478 0.152668 0.471999
-0.201308 0.414323 -0.279312
0.030560 -0.472811 -0.157002
0.197982 0.496219 -0.049655
-0.058959 0.073790 -0.494697
0.230548 0.380075 -0.324852
-0.047111 -0.470059 0.161102
0.155453 -0.280784 -0.413077
-0.178958 -0.480297 -0.131691
-0.142789 -0.197796 0.454626
0.201715 -0.374694 0.325308
-0.035486 0.228523 -0.444931
0.118305 0.105515 -0.488927
