0.286960 -0.453289 -0.203586
0.286960 -0.264851 0.361686
0.286960 -0.450986 -0.159349
0.286960 -0.420617 0.233237
0.286960 0.368471 -0.289756
0.286960 -0.419343 0.251837
0.286960 0.000413 0.477067
0.286960 -0.468261 0.150083
0.286960 0.154098 0.471170
0.286960 0.086831 0.464801
0.286960 0.060875 -0.448834
0.286960 0.477451 0.085115
0.286960 -0.315709 0.311622
0.286960 -0.269602 -0.360732
0.286960 -0.493026 -0.009699
0.286960 -0.464473 0.040958
0.286960 0.302191 -0.380469
0.286960 0.424879 -0.237043
0.286960 -0.450911 -0.176885
0.286960 0.309570 -0.383588
0.286960 0.371235 -0.266118
0.286960 -0.175144 0.460901
0.286960 0.345113 0.296953
0.286960 -0.266776 -0.378750
0.286960 -0.270465 -0.365446
0.286960 0.270801 -0.396402
0.286960 -0.214474 0.446768
0.286960 -0.425044 -0.217727
0.286960 0.490053 -0.083433
0.286960 -0.474232 0.024604
0.286960 0.092696 -0.480903
0.286960 -0.295368 0.337864
0.286960 -0.356467 0.325699
0.286960 -0.101948 0.465322
0.286960 -0.056157 -0.487851
0.286960 0.235613 -0.422672
0.286960 -0.253640 0.375158
0.286960 -0.236823 -0.433983
0.286960 0.300889 -0.364483
0.286960 -0.378184 -0.304532
0.286960 -0.074410 -0.455687
0.286960 -0.433509 -0.173385
0.286960 -0.400065 0.278347
0.286960 -0.328778 -0.335450
0.286960 0.285059 -0.363162
0.286960 -0.297290 0.368217
0.286960 -0.417696 0.197819
0.286960 0.398900 0.279227
0.286960 0.164389 0.463636
0.286960 -0.479057 -0.032820
0.286960 0.449416 0.130698
0.286960 -0.387239 0.291047
0.286960 0.428868 0.120330
0.286960 0.451469 -0.200960
0.286960 -0.405814 -0.202352
0.286960 -0.393004 -0.287427
0.286960 -0.298850 -0.332585
0.286960 -0.430878 0.123262
0.286960 -0.394190 0.250369
0.286960 0.419349 -0.239406
0.286960 0.430095 0.193598
0.286960 0.438181 -0.144806
0.286960 0.203172 -0.412163
0.286960 -0.360373 -0.324585
0.286960 0.475754 -0.145690
0.286960 -0.245129 0.421230
0.286960 0.462547 0.041666
0.286960 0.246481 0.384681
0.286960 0.006872 -0.467242
0.286960 0.484984 -0.086794
0.286960 -0.120888 0.474337
0.286960 0.449163 -0.003294
0.286960 0.300325 -0.376406
0.286960 -0.390316 0.227753
0.286960 -0.423911 0.145065
0.286960 -0.487758 0.057146
0.286960 0.007015 0.485634
0.286960 -0.493359 0.059883
0.286960 0.311945 0.385060
0.286960 0.174667 -0.440770
0.286960 -0.442140 0.109489
0.286960 0.438375 -0.148356
0.286960 0.175450 0.427453
0.286960 0.280915 -0.356550
0.286960 -0.409084 -0.227895
0.286960 0.423174 -0.256263
0.286960 0.457154 -0.008635
0.286960 -0.197669 -0.412571
0.286960 0.343096 -0.309089
0.286960 -0.399835 0.228602
0.286960 0.316761 0.338403
0.286960 0.373360 -0.308975
0.286960 0.443127 0.074911
0.286960 -0.330569 0.343600
0.286960 -0.415895 -0.241332
0.286960 -0.011497 0.453369
0.286960 0.108354 -0.482018
0.286960 -0.111991 0.457731
0.286960 -0.370433 0.256027
0.286960 -0.494251 -0.028247
0.286960 -0.299550 -0.366837
0.286960 -0.372142 -0.255305
0.286960 0.420980 -0.210344
0.286960 -0.260919 -0.383805
0.286960 -0.446054 -0.216188
0.286960 0.375903 0.259865
0.286960 0.335532 -0.325749
0.286960 0.112004 -0.446262
0.286960 -0.170387 0.452053
0.286960 -0.048088 -0.446800
0.286960 -0.465212 0.075308
0.286960 0.434459 0.175063
0.286960 0.334839 -0.370910
0.286960 -0.087999 -0.484990
0.286960 -0.443948 0.082173
0.286960 0.349119 -0.316118
0.286960 0.408316 0.215638
0.286960 -0.343809 -0.335015
0.286960 0.419317 -0.271695
0.286960 0.475733 -0.012542
0.286960 0.374140 -0.330167
0.286960 0.036482 0.455094
0.286960 -0.252857 -0.400949
0.286960 -0.199472 0.433321
0.286960 0.294768 -0.364339
0.286960 0.261168 -0.407969
0.286960 0.472405 -0.154302
0.286960 -0.292196 0.344149
0.286960 0.417550 0.223342
0.286960 0.474859 -0.097235
0.286960 -0.300347 -0.381671
0.286960 -0.358343 0.289978
0.286960 -0.415982 -0.199222
0.286960 0.452157 -0.037920
0.286960 -0.321390 -0.348652
0.286960 -0.077351 0.440092
0.286960 0.273953 -0.387938
0.286960 0.329503 0.369739
0.286960 -0.325023 0.369159
0.286960 0.094298 -0.476636
0.286960 -0.227316 -0.411522
0.286960 -0.221684 0.383977
0.286960 0.206983 -0.454487
0.286960 -0.356449 -0.322946
0.286960 0.368348 0.307488
0.286960 0.421798 0.182469
0.286960 -0.434679 0.099330
0.286960 -0.474568 -0.006294
0.286960 -0.482737 -0.103862
0.286960 -0.364202 0.313383
0.286960 0.297976 0.382545
0.286960 -0.401067 -0.202078
0.286960 0.157381 0.451038
0.286960 -0.247653 0.409193
0.286960 0.141152 -0.464708
0.286960 0.053474 -0.476860
0.286960 0.024577 -0.464180
0.286960 -0.457338 -0.060902
0.286960 -0.403360 -0.293176
0.286960 -0.215500 0.395887
0.286960 0.388365 0.246077
0.286960 0.490879 -0.014211
0.286960 0.494146 0.004321
0.286960 0.371681 -0.323818
0.286960 -0.126217 -0.478367
0.286960 0.232428 0.407624
0.286960 0.435253 0.168693
0.286960 0.409313 0.260195
0.286960 0.155788 -0.420742
0.286960 0.446803 0.207016
0.286960 -0.124880 -0.469890
0.286960 -0.406553 -0.278592
0.286960 -0.102727 0.430984
0.286960 -0.308031 -0.392336
0.286960 -0.221629 -0.417736
0.286960 -0.083661 0.480402
0.286960 0.328029 -0.305872
0.286960 0.427330 0.249238
0.286960 -0.456394 0.056151
0.286960 -0.390635 -0.278849
0.286960 0.187195 0.421334
0.286960 -0.461789 -0.145726
0.286960 -0.270863 0.376955
0.286960 0.466313 -0.161243
0.286960 0.479379 0.063412
0.286960 0.432899 -0.215311
0.286960 0.393658 0.273571
0.286960 -0.360617 -0.287879
0.286960 -0.442766 0.044860
0.286960 -0.442320 0.142469
0.286960 0.261826 0.421504
0.286960 -0.413877 -0.277414
0.286960 -0.414087 -0.262209
0.286960 0.341420 0.298837
0.286960 0.469441 0.043908
0.286960 0.440202 -0.085872
0.286960 0.260090 -0.367936
0.286960 -0.454370 -0.064540
0.286960 -0.310225 0.328851
0.286960 0.309545 -0.391555
0.286960 0.103001 -0.474571
0.286960 0.373600 -0.251440
0.286960 -0.360246 -0.291829
0.286960 0.390169 0.274330
0.286960 -0.174514 0.424181
0.286960 0.014802 -0.459501
0.286960 0.375442 0.256720
0.286960 0.191671 0.457004
0.286960 0.184083 0.420037
0.286960 0.245561 0.420050
0.286960 0.075654 -0.441125
0.286960 0.311863 0.329829
0.286960 0.420646 0.150773
0.286960 0.398598 0.230202
0.286960 0.251562 -0.370088
0.286960 -0.461444 -0.042594
0.286960 0.491490 0.052939
0.286960 0.423061 -0.143905
0.286960 -0.434366 0.210080
0.286960 0.294394 0.392119
0.286960 0.496016 0.042867
0.286960 0.320534 0.308528
0.286960 0.183683 0.429042
0.286960 0.199888 0.400187
0.286960 -0.367629 -0.270184
0.286960 -0.136458 -0.444023
0.286960 -0.434145 -0.161119
0.286960 -0.043906 0.441553
0.286960 0.265355 0.418191
0.286960 0.320105 -0.329786
0.286960 0.475699 -0.003706
0.286960 0.407097 0.200580
0.286960 -0.470957 0.142614
0.286960 0.198416 0.436532
0.286960 0.289729 -0.387948
0.286960 0.450811 -0.172673
0.286960 -0.267652 0.376090
0.286960 0.431423 0.205841
0.286960 -0.287475 -0.404727
0.286960 -0.480476 -0.035833
0.286960 -0.418589 -0.269438
0.286960 -0.408520 0.259390
0.286960 -0.486034 -0.021293
0.286960 0.065946 -0.482253
0.286960 -0.250469 0.424789
0.286960 0.041250 -0.471547
0.286960 -0.349483 -0.314582
0.286960 0.384175 -0.229962
0.286960 0.267864 0.394767
0.286960 -0.390506 -0.215898
0.286960 -0.366676 -0.337343
0.286960 -0.315675 -0.360636
0.286960 0.494314 -0.026795
0.286960 0.480454 0.105566
0.286960 0.456454 0.097011
0.286960 -0.062235 0.487361
0.286960 -0.140311 0.437556
0.286960 -0.339659 0.295948
0.286960 -0.104038 0.462799
0.286960 0.205918 0.436571
0.286960 -0.407095 0.222889
0.286960 0.476002 0.141449
0.286960 0.055763 -0.479158
0.286960 -0.082488 0.484310
0.286960 -0.440018 0.209353
0.286960 0.399478 0.287616
0.286960 -0.103563 -0.466814
0.286960 -0.100358 0.479877
0.286960 0.425870 0.212343
0.286960 -0.009393 -0.475992
0.286960 -0.334780 -0.341426
0.286960 -0.060455 0.475947
0.286960 -0.372529 0.320974
0.286960 0.414224 -0.278402
0.286960 -0.183042 0.460641
0.286960 -0.311056 0.385496
0.286960 -0.420870 -0.214009
0.286960 -0.413480 0.163512
0.286960 0.492780 -0.051670
0.286960 -0.375564 -0.282109
0.286960 0.490095 0.039783
0.286960 0.344636 -0.343074
0.286960 -0.453131 -0.173738
0.286960 0.429127 0.212185
0.286960 0.479104 0.030809
0.286960 -0.328808 0.304300
0.286960 0.349620 0.295566
0.286960 -0.126397 0.445122
0.286960 0.352844 0.321226
0.286960 0.451166 -0.042908
0.286960 0.046518 -0.473147
0.286960 -0.465325 -0.025625
0.286960 0.085032 0.456108
0.286960 0.463382 0.005728
0.286960 0.292155 0.355815
0.286960 0.212215 0.422758
0.286960 0.433369 0.145824
0.286960 0.307359 -0.394393
0.286960 0.478003 -0.054462
0.286960 -0.478315 0.052158
0.286960 0.269338 0.362665
0.286960 0.440064 -0.110422
0.286960 0.313656 -0.384960
0.286960 -0.451072 0.017056
0.286960 -0.307225 0.320724
0.286960 -0.311364 0.358831
0.286960 0.116882 -0.485179
0.286960 0.167854 0.420122
0.286960 0.186766 0.403455
0.286960 0.221282 -0.422569
0.286960 0.050335 -0.482215
0.286960 -0.129462 -0.476218
0.286960 0.482154 -0.104839
0.286960 -0.245636 0.392386
0.286960 -0.395596 -0.207343
0.286960 0.436811 -0.151622
0.286960 -0.386365 0.226851
0.286960 0.292726 0.379579
0.286960 -0.366830 -0.299187
0.286960 -0.473147 0.033750
0.286960 -0.409614 0.189654
0.286960 -0.447756 -0.074032
0.286960 0.379931 -0.246280
0.286960 -0.455541 -0.169091
0.286960 -0.432748 -0.165318
0.286960 -0.485347 -0.066710
0.286960 0.045106 0.484197
0.286960 0.067121 -0.476118
0.286960 -0.368942 -0.264696
0.286960 0.481989 0.012373
0.286960 -0.391128 -0.289957
0.286960 -0.358482 0.339731
0.286960 -0.051844 -0.455712
0.286960 -0.450048 0.000760
0.286960 0.022925 -0.499250
0.286960 -0.317892 0.374492
0.286960 0.187414 -0.420361
0.286960 -0.083832 -0.456393
0.286960 -0.274714 0.410619
0.286960 0.316761 -0.369307
0.286960 0.478260 -0.074197
0.286960 0.125768 -0.446536
0.286960 0.110191 -0.477928
0.286960 0.382663 0.277827
0.286960 -0.476347 0.120008
0.286960 -0.246134 0.413158
0.286960 0.232575 -0.423341
0.286960 -0.126284 -0.444749
0.286960 0.439515 -0.141273
0.286960 0.365046 0.323830
0.286960 0.049428 -0.461846
0.286960 0.293011 -0.338424
0.286960 0.373274 -0.312044
0.286960 0.395394 0.288320
0.286960 -0.325510 0.329519
0.286960 0.439268 0.083023
0.286960 -0.211373 -0.415711
0.286960 0.037637 -0.482895
0.286960 0.398500 -0.246999
0.286960 -0.137915 0.427180
0.286960 0.427714 -0.215994
0.286960 0.387867 0.263730
0.286960 -0.395561 -0.256176
0.286960 0.086261 -0.443645
0.286960 -0.073334 -0.469181
0.286960 0.413687 -0.236216
0.286960 -0.432967 0.203208
0.286960 0.454075 -0.125647
0.286960 0.470780 -0.076557
0.286960 0.490530 -0.070340
0.286960 0.440478 0.090043
0.286960 0.447157 0.043795
0.286960 0.494155 0.025228
0.286960 0.028647 0.479020
0.286960 0.146710 -0.440824
0.286960 -0.483304 0.021291
0.286960 0.333691 0.294332
0.286960 -0.453648 0.025160
0.286960 -0.378204 0.296612
0.286960 0.245027 -0.397860
0.286960 0.183871 0.412075
0.286960 0.446664 0.051932
0.286960 -0.225946 -0.403232
0.286960 -0.149483 -0.445664
0.286960 -0.025066 0.484096
0.286960 0.369128 -0.302201
0.286960 -0.175818 -0.425979
0.286960 -0.428464 0.194130
0.286960 0.197271 -0.423388
0.286960 0.324072 0.323940
0.286960 -0.136675 0.430908
0.286960 -0.153286 -0.441183
0.286960 0.003015 -0.469414
0.286960 0.433079 0.184380
0.286960 0.324207 0.356848
0.286960 -0.370458 -0.282537
0.286960 0.193368 -0.421320
0.286960 -0.338068 -0.349798
0.286960 0.361760 0.316655
0.286960 0.333904 0.316812
0.286960 0.257450 -0.393566
0.286960 0.236715 -0.438398
0.286960 0.311787 -0.388149
0.286960 -0.477323 0.059515
0.286960 -0.487037 0.075455
0.286960 -0.472171 -0.012284
0.286960 0.375602 -0.314860
0.286960 0.203284 0.422865
0.286960 0.026537 0.485836
0.286960 0.247811 -0.392935
0.286960 0.066732 0.447492
0.286960 -0.344184 -0.317616
0.286960 -0.430843 0.176300
0.286960 0.378048 0.291937
0.286960 0.457059 -0.079376
0.286960 0.110373 0.483426
0.286960 0.278487 0.402971
0.286960 -0.466799 -0.088688
0.286960 -0.093613 -0.440146
0.286960 -0.243663 -0.393217
0.286960 -0.434325 -0.219471
0.286960 -0.166117 -0.435918
0.286960 0.237205 0.422592
0.286960 0.096060 0.458601
0.286960 0.163942 -0.428667
0.286960 -0.312490 0.332262
0.286960 -0.442804 0.041410
0.286960 -0.051983 0.492782
0.286960 0.192196 -0.429569
0.286960 -0.199871 0.395773
0.286960 -0.438535 -0.140709
0.286960 0.224568 -0.417092
0.286960 -0.262845 0.383414
0.286960 -0.385381 0.247669
0.286960 -0.440249 -0.206547
0.286960 -0.371311 0.259424
0.286960 -0.157379 -0.444845
0.286960 0.175045 0.431706
0.286960 0.060405 -0.493684
0.286960 -0.481348 0.100746
0.286960 0.106918 0.465790
0.286960 -0.438428 -0.219926
0.286960 -0.105909 0.449932
0.286960 0.372789 0.249907
0.286960 -0.370865 -0.247953
0.286960 0.012649 -0.450829
0.286960 -0.392701 0.242199
0.286960 -0.130756 -0.455651
0.286960 0.166295 -0.416243
0.286960 0.421165 0.164391
0.286960 0.121651 -0.463811
0.286960 -0.015407 0.491379
0.286960 0.201842 0.438206
0.286960 0.436438 0.090115
0.286960 0.418853 0.169928
0.286960 -0.481848 -0.065072
0.286960 0.308527 0.365523
0.286960 0.412898 0.266020
0.286960 0.053968 -0.447089
0.286960 -0.300238 0.340131
0.286960 0.480576 0.093643
0.286960 0.296696 -0.356244
0.286960 0.200190 0.416737
0.286960 -0.229464 -0.387374
0.286960 0.180240 -0.446975
0.286960 -0.005652 -0.468461
0.286960 -0.117658 0.463279
0.286960 0.150332 -0.463401
0.286960 0.092888 0.484507
0.286960 0.113107 0.453644
0.286960 -0.437399 -0.089881
0.286960 -0.220904 -0.439952
0.286960 -0.175259 -0.435251
0.286960 0.373470 -0.320786
0.286960 0.443107 0.110816
0.286960 -0.431215 0.126830
0.286960 0.021224 0.475803
0.286960 0.484127 -0.069008
0.286960 0.391081 -0.239345
0.286960 0.114777 -0.440749
0.286960 -0.479647 -0.115808
0.286960 0.056171 0.444091
0.286960 0.227656 0.405954
0.286960 0.123284 0.463448
0.286960 0.206938 -0.413470
0.286960 -0.338770 -0.365891
0.286960 -0.476347 -0.095706
0.286960 0.241856 0.407187
0.286960 -0.361783 0.290059
0.286960 0.219760 -0.398471
0.286960 0.473194 -0.065700
0.286960 0.294681 -0.353429
0.286960 0.034058 0.462530
0.286960 -0.228574 0.391935
0.286960 0.253489 -0.383789
0.286960 0.176770 0.420006
0.286960 0.079231 -0.473158
0.286960 -0.450951 -0.066179
0.286960 0.444620 0.155072
0.286960 -0.171799 0.449319
0.286960 -0.182779 0.418354
0.286960 -0.476367 0.078290
0.286960 0.260128 -0.401712
0.286960 -0.194903 0.437033
0.286960 0.467033 0.030628
0.286960 -0.465324 0.017589
0.286960 -0.164367 -0.421315
0.286960 -0.232353 -0.398314
0.286960 0.332367 0.343132
0.286960 -0.083454 0.476823
0.286960 0.252973 0.379858
0.286960 -0.467900 -0.091494
0.286960 -0.351736 -0.350214
0.286960 -0.465735 -0.065337
0.286960 0.053724 0.474748
0.286960 0.263101 0.398042
0.286960 0.437091 0.152245
0.286960 0.444509 0.032172
0.286960 0.079326 0.460306
0.286960 -0.042269 -0.481537
0.286960 0.403464 -0.214991
0.286960 0.390273 -0.308990
0.286960 0.478498 -0.124610
0.286960 0.380570 0.240464
0.286960 0.446845 -0.091868
0.286960 0.172678 0.446759
0.286960 0.322508 -0.333309
0.286960 0.476478 -0.035819
0.286960 0.409953 -0.280861
0.286960 -0.167562 -0.426916
0.286960 0.474358 0.055604
0.286960 -0.445037 -0.160925
0.286960 0.358288 -0.267573
0.286960 0.118069 0.445109
0.286960 -0.091551 0.445446
0.286960 0.215443 -0.442638
0.286960 -0.339180 0.338443
0.286960 -0.415628 0.175645
0.286960 -0.389226 0.238510
0.286960 -0.259326 0.404758
0.286960 -0.435347 0.089002
0.286960 0.462150 0.071523
0.286960 0.455892 0.060263
0.286960 0.256601 -0.407061
0.286960 -0.312492 0.322965
0.286960 0.425671 0.181688
0.286960 0.315554 -0.344828
0.286960 -0.157385 -0.462049
0.286960 -0.452394 0.089409
0.286960 0.167558 0.411085
0.286960 0.441686 0.157614
0.286960 0.452064 0.132554
0.286960 0.310388 0.369196
0.286960 -0.186560 0.429130
0.286960 0.082149 0.488631
0.286960 0.171014 -0.433791
0.286960 -0.478042 -0.123785
0.286960 -0.448051 0.186228
0.286960 -0.090722 0.475188
0.286960 -0.493524 -0.013043
0.286960 0.440429 0.127871
0.286960 0.176094 0.413533
0.286960 -0.313105 -0.335498
0.286960 -0.480327 0.060048
0.286960 -0.281324 0.403313
0.286960 0.330373 -0.302637
0.286960 0.017749 0.484344
0.286960 0.243602 0.416669
0.286960 0.032400 -0.497709
0.286960 -0.027577 -0.482680
0.286960 -0.018304 0.442675
0.286960 0.449931 0.091124
0.286960 0.435101 -0.197452
0.286960 -0.424438 -0.180590
0.286960 0.124385 -0.451697
0.286960 -0.440605 -0.201511
0.286960 -0.438572 -0.112848
0.286960 -0.399662 -0.206018
0.286960 -0.397389 -0.212662
0.286960 -0.479395 -0.119458
0.286960 -0.491164 0.036316
0.286960 -0.407582 -0.238239
0.286960 -0.381537 -0.280102
0.286960 -0.305021 -0.362158
0.286960 0.189006 0.443771
0.286960 -0.435482 0.186212
0.286960 0.486456 -0.084060
0.286960 -0.239073 -0.385866
0.286960 -0.450711 0.107143
0.286960 -0.428193 -0.134657
0.286960 0.461456 0.050499
0.286960 0.447145 0.118519
0.286960 -0.485884 0.009663
0.286960 0.434527 -0.119518
0.286960 0.227071 0.388784
0.286960 -0.332675 -0.308271
0.286960 0.278173 -0.408820
0.286960 -0.469571 -0.068014
0.286960 -0.331823 -0.314632
0.286960 0.414990 -0.263983
0.286960 -0.144565 0.452599
0.286960 -0.087614 -0.456153
0.286960 -0.479483 -0.103886
0.286960 0.288110 0.389325
0.286960 0.220607 0.428084
0.286960 -0.377821 -0.266261
0.286960 0.399030 0.204567
0.286960 0.471349 -0.104982
0.286960 -0.422143 -0.207686
0.286960 0.452250 0.056753
0.286960 0.201887 -0.430501
0.286960 0.159832 -0.452662
0.286960 0.313909 -0.325933
0.286960 0.008051 -0.478675
0.286960 -0.207153 0.444522
0.286960 0.365891 0.281466
0.286960 0.365537 0.263952
0.286960 0.237531 0.412916
0.286960 -0.387708 -0.236933
0.286960 -0.067026 -0.453357
0.286960 0.381433 -0.310549
0.286960 0.027111 0.489293
0.286960 -0.114399 -0.441522
0.286960 0.466929 -0.004009
0.286960 0.364004 -0.337890
0.286960 -0.175207 -0.419141
0.286960 -0.180122 -0.446376
0.286960 0.398552 -0.225431
0.286960 -0.483672 -0.107100
0.286960 0.295711 -0.348465
0.286960 0.442939 0.113921
0.286960 0.102959 0.453389
0.286960 -0.380237 0.235885
0.286960 -0.245160 -0.435540
0.286960 0.449954 0.197444
0.286960 0.400807 -0.244070
0.286960 -0.459548 0.042536
0.286960 -0.455364 0.029542
0.286960 0.468093 0.107377
0.286960 -0.121730 -0.477327
0.286960 -0.356296 -0.279378
0.286960 0.311151 0.362282
0.286960 -0.133121 0.426082
0.286960 0.474499 -0.049165
0.286960 0.309415 0.319946
0.286960 -0.491270 -0.044965
0.286960 -0.087032 0.457469
0.286960 0.479804 0.087485
0.286960 0.415156 0.196571
0.286960 -0.223360 0.429350
0.286960 0.139030 0.447972
0.286960 -0.025862 -0.472906
0.286960 0.488359 -0.101458
0.286960 -0.457892 -0.148584
0.286960 -0.314620 0.345721
0.286960 0.239857 0.379807
0.286960 -0.477021 -0.135483
0.286960 -0.391706 0.275012
0.286960 0.399417 0.265194
0.286960 -0.464878 0.066929
0.286960 0.404707 -0.291923
0.286960 0.399073 0.215204
0.286960 -0.433709 -0.115930
0.286960 0.435872 0.217962
0.286960 -0.102513 -0.475464
0.286960 -0.172350 0.429459
0.286960 0.395921 -0.278730
0.286960 0.192603 0.410910
0.286960 0.451207 -0.123277
0.286960 -0.208946 0.392808
0.286960 -0.429196 -0.198305
0.286960 0.452421 0.106973
0.286960 0.412461 0.205650
0.286960 0.205944 -0.403354
0.286960 -0.444021 0.102652
0.286960 -0.266712 -0.375432
0.286960 -0.221600 -0.447038
0.286960 -0.261657 -0.370481
0.286960 -0.096078 -0.443133
0.286960 -0.424821 -0.152845
0.286960 -0.451906 0.172620
0.286960 0.448308 -0.036466
0.286960 0.125771 0.459447
0.286960 -0.298515 -0.358204
0.286960 -0.417665 0.241759
0.286960 -0.429725 0.164506
0.286960 -0.252674 -0.375112
0.286960 0.443561 0.163930
0.286960 -0.097716 0.450202
0.286960 0.430929 -0.145929
0.286960 -0.058040 0.492175
0.286960 -0.074774 0.482744
0.286960 0.437152 -0.220981
0.286960 -0.490865 -0.076991
0.286960 -0.217324 -0.425276
0.286960 -0.374620 -0.322764
0.286960 -0.276956 -0.380015
0.286960 0.405291 0.217906
0.286960 0.370993 0.314090
0.286960 0.338555 -0.358133
0.286960 0.445168 -0.050731
0.286960 -0.252745 0.417290
0.286960 -0.370866 0.303440
0.286960 -0.473666 0.146596
0.286960 -0.032749 0.480050
0.286960 -0.323369 -0.360502
0.286960 0.123535 0.471367
0.286960 -0.276304 -0.384398
0.286960 -0.360246 -0.263849
0.286960 -0.446028 -0.108540
0.286960 0.221221 -0.418696
0.286960 -0.135867 0.447642
0.286960 0.074432 0.469544
0.286960 0.358209 -0.332005
0.286960 0.143870 -0.470716
0.286960 -0.429931 0.220359
0.286960 0.200089 -0.458270
0.286960 -0.252859 0.406271
0.286960 -0.380816 0.247678
0.286960 -0.464067 -0.079284
0.286960 -0.131140 0.439855
0.286960 -0.179815 -0.422974
0.286960 -0.220313 0.430333
0.286960 -0.354876 0.275723
0.286960 -0.386105 -0.315453
0.286960 0.180136 -0.466237
0.286960 0.427951 -0.193129
0.286960 0.293661 -0.386176
0.286960 0.411123 -0.197436
0.286960 0.415409 0.171476
0.286960 0.397168 -0.213190
0.286960 0.161433 -0.465678
0.286960 0.372907 0.307016
0.286960 0.461188 -0.183175
0.286960 -0.101572 0.469474
0.286960 -0.066880 0.466763
0.286960 -0.198864 -0.402435
0.286960 0.067347 0.487073
0.286960 0.169987 0.426235
0.286960 0.452482 0.191004
0.286960 -0.455104 -0.119736
0.286960 0.186135 -0.452446
0.286960 0.173666 -0.453295
0.286960 -0.404100 -0.190942
0.286960 -0.046546 -0.466588
0.286960 0.309285 -0.338401
0.286960 0.357088 0.325609
0.286960 0.193727 0.419127
0.286960 0.299241 0.345396
0.286960 -0.449017 0.091259
0.286960 -0.285034 -0.390328
0.286960 -0.434701 -0.112637
0.286960 -0.300992 0.333261
0.286960 -0.451367 0.022948
0.286960 -0.096858 -0.476537
0.286960 -0.188191 -0.405985
0.286960 -0.240999 -0.427127
0.286960 0.042967 -0.497720
0.286960 0.161197 0.449507
0.286960 -0.443107 -0.122210
0.286960 0.440551 0.230195
0.286960 -0.315596 0.380543
0.286960 0.406187 -0.199450
0.286960 0.178496 -0.454057
0.286960 -0.129728 0.447419
0.286960 0.435067 -0.159080
0.286960 -0.336208 0.291594
0.286960 -0.294920 0.351262
0.286960 0.064818 -0.459717
0.286960 -0.333065 -0.351753
0.286960 -0.194137 -0.430251
0.286960 -0.168733 0.433223
0.286960 -0.320065 -0.324071
0.286960 0.438070 -0.214131
0.286960 -0.372139 0.269946
0.286960 0.286395 -0.344311
0.286960 -0.090469 -0.470916
0.286960 0.472445 0.079876
0.286960 -0.188187 -0.443387
0.286960 0.318215 -0.321641
0.286960 0.337197 0.348113
0.286960 -0.176577 -0.444165
0.286960 0.020076 -0.449571
0.286960 -0.113970 0.428557
0.286960 -0.458644 0.046132
0.286960 0.326927 0.302768
0.286960 -0.312005 -0.385108
0.286960 0.010061 0.470665
0.286960 0.215709 -0.404445
0.286960 -0.221586 -0.410636
0.286960 -0.484526 -0.062670
0.286960 -0.432845 -0.149823
0.286960 0.022861 -0.447450
0.286960 0.183918 0.450687
0.286960 0.116969 0.454633
0.286960 0.064760 0.458362
0.286960 0.052181 0.444936
0.286960 -0.134156 0.471363
0.286960 0.329829 -0.335357
0.286960 0.275926 0.391531
0.286960 -0.423467 -0.202619
0.286960 -0.089979 -0.464846
0.286960 -0.361430 0.303948
0.286960 -0.465607 0.090233
0.286960 -0.243674 0.394909
0.286960 0.482730 0.100150
0.286960 0.331183 0.329932
0.286960 0.322467 0.353566
0.286960 0.281013 -0.348520
0.286960 0.380656 0.314011
0.286960 0.035875 0.442874
0.286960 -0.175933 -0.429424
0.286960 0.444042 -0.221411
0.286960 -0.464350 0.104490
0.286960 -0.463855 -0.029434
0.286960 -0.012685 -0.457317
0.286960 0.288949 0.358590
0.286960 -0.295467 -0.338650
0.286960 -0.464052 -0.100765
0.286960 -0.394084 0.266678
0.286960 -0.497054 -0.009235
0.286960 -0.459320 0.108525
0.286960 -0.415645 0.216895
0.286960 0.243560 0.426653
0.286960 -0.365889 0.274787
0.286960 -0.190923 -0.416664
0.286960 -0.447033 -0.097371
0.286960 -0.468878 -0.094811
0.286960 0.076021 0.459375
0.286960 0.346818 0.336197
0.286960 0.450351 0.019747
0.286960 -0.460811 -0.110914
0.286960 0.104572 0.443394
0.286960 0.441980 -0.182897
0.286960 0.381700 0.281455
0.286960 -0.027810 0.442365
0.286960 0.354986 -0.295473
0.286960 0.425720 0.130246
0.286960 0.244879 -0.433270
0.286960 0.438884 -0.126180
0.286960 -0.399901 0.194760
0.286960 -0.355117 -0.345993
0.286960 0.453342 -0.164928
0.286960 0.268889 -0.357939
0.286960 -0.388742 -0.294896
0.286960 0.113414 0.434147
0.286960 0.030587 -0.481310
0.286960 0.443959 -0.046101
0.286960 0.276229 0.400840
0.286960 0.063849 -0.464802
0.286960 0.125806 -0.464172
0.286960 -0.480017 -0.081082
0.286960 -0.115744 -0.477333
0.286960 -0.468577 0.022973
0.286960 -0.456754 0.123437
0.286960 0.340644 0.339013
0.286960 0.071877 0.451567
0.286960 0.000455 -0.479770
0.286960 -0.253728 -0.426175
0.286960 -0.285408 -0.407347
0.286960 0.347923 0.282404
0.286960 -0.056911 0.471101
0.286960 0.307827 -0.345614
0.286960 -0.270177 -0.376636
0.286960 -0.469987 0.123120
0.286960 -0.153749 0.462233
0.286960 -0.378094 -0.292781
0.286960 -0.409727 0.275808
0.286960 0.474643 0.089355
0.286960 -0.388722 -0.219191
0.286960 0.466601 0.081990
0.286960 0.124495 0.450116
0.286960 0.228888 -0.424104
0.286960 -0.218553 -0.419834
0.286960 -0.036306 -0.476287
0.286960 0.453760 0.138262
0.286960 -0.208056 -0.400428
0.286960 -0.333374 -0.356349
0.286960 -0.037847 0.488440
0.286960 0.469199 -0.151665
0.286960 0.346169 0.321581
0.286960 0.248240 -0.409087
0.286960 0.366259 -0.303949
0.286960 -0.202417 0.435752
0.286960 0.255952 -0.396345
0.286960 -0.445395 -0.061071
0.286960 0.466899 0.037862
0.286960 -0.104666 0.467892
0.286960 0.419602 0.215317
0.286960 -0.182536 0.434861
0.286960 0.324080 0.304396
0.286960 0.406467 -0.263077
0.286960 0.011248 0.480690
0.286960 -0.349990 0.317791
0.286960 -0.459027 0.184520
0.286960 -0.453579 0.111680
0.286960 -0.002289 -0.451727
0.286960 0.373560 -0.294594
0.286960 0.049839 0.448536
0.286960 -0.483891 -0.071537
0.286960 0.258511 0.362554
0.286960 0.083581 -0.446590
0.286960 0.029177 -0.447234
0.286960 -0.133533 -0.452924
0.286960 -0.470081 -0.039110
0.286960 -0.129769 -0.460360
0.286960 -0.425060 -0.251016
0.286960 0.404043 -0.231531
0.286960 -0.379806 -0.318521
0.286960 -0.243704 -0.396806
0.286960 0.172324 -0.429948
0.286960 -0.446005 -0.157265
0.286960 -0.486888 0.005446
0.286960 0.455102 -0.091334
0.286960 0.392719 -0.254423
0.286960 0.001134 0.471356
0.286960 -0.143790 -0.428574
0.286960 -0.480989 0.094380
0.286960 -0.470148 -0.158479
0.286960 0.490421 0.047532
0.286960 0.392707 0.304217
0.286960 0.247599 -0.389751
0.286960 0.317210 0.322451
0.286960 0.458464 -0.127516
0.286960 0.409624 -0.221302
0.286960 -0.371452 -0.274317
0.286960 -0.145335 0.428207
0.286960 -0.488402 -0.023942
0.286960 -0.405236 -0.240871
0.286960 -0.232896 0.435677
0.286960 -0.453676 0.105870
0.286960 0.403187 0.212427
0.286960 0.485187 -0.058045
0.286960 -0.109205 0.482973
0.286960 -0.369393 -0.285677
0.286960 -0.307025 0.326476
0.286960 -0.012634 -0.478976
0.286960 -0.258677 -0.378996
0.286960 -0.246677 -0.418852
0.286960 -0.201599 0.422012
0.286960 0.108199 -0.467518
0.286960 0.243187 0.378407
0.286960 -0.091249 0.438315
0.286960 0.470292 -0.001937
0.286960 -0.356361 0.310176
0.286960 0.288322 -0.375697
0.286960 0.444621 0.039269
0.286960 0.443466 0.044382
0.286960 0.331711 -0.351867
0.286960 -0.449268 0.140423
0.286960 -0.051081 -0.468491
0.286960 -0.286100 0.347565
0.286960 0.404281 -0.273824
0.286960 0.106623 -0.485610
0.286960 0.131931 -0.482390
0.286960 -0.298921 0.378675
0.286960 -0.457340 0.154141
0.286960 -0.433733 0.133925
0.286960 0.453773 0.121411
0.286960 -0.336062 -0.324840
0.286960 -0.459328 -0.189338
0.286960 -0.079523 0.475528
0.286960 0.341359 0.304190
0.286960 -0.100843 -0.459753
0.286960 -0.020232 -0.482420
0.286960 -0.465476 -0.136693
0.286960 0.481326 0.002067
0.286960 0.458029 0.050644
0.286960 -0.291033 0.369795
0.286960 -0.478063 -0.004377
0.286960 0.351080 -0.345126
0.286960 -0.472324 0.000480
0.286960 -0.217485 0.445417
0.286960 -0.469136 -0.064564
0.286960 0.486449 0.015566
0.286960 -0.246304 0.429972
0.286960 0.199320 -0.411856
0.286960 -0.277988 0.378814
0.286960 -0.304152 -0.371019
0.286960 -0.476703 0.074794
0.286960 -0.207462 -0.413272
0.286960 0.063886 -0.479431
0.286960 0.470671 -0.053145
0.286960 -0.143266 0.446303
0.286960 0.447852 -0.186806
0.286960 -0.241005 -0.413966
0.286960 -0.456825 0.176925
0.286960 -0.259389 -0.422209
0.286960 -0.447596 -0.089682
0.286960 -0.479878 0.055712
0.286960 0.469027 -0.020664
0.286960 0.320614 0.332550
0.286960 -0.454843 -0.152913
0.286960 0.378025 -0.304247
0.286960 0.481604 -0.032591
0.286960 0.055418 -0.486914
0.286960 -0.447918 0.132983
0.286960 -0.153628 0.445920
0.286960 -0.252570 0.368989
0.286960 0.443175 -0.074152
0.286960 -0.179883 -0.429028
0.286960 -0.431258 0.116412
0.286960 0.135858 0.422207
0.286960 0.142403 -0.479478
0.286960 0.467737 -0.125041
0.286960 0.057935 0.473535
0.286960 -0.441133 -0.137913
0.286960 0.002357 0.462784
0.286960 0.282183 -0.374438
0.286960 -0.264070 0.377506
0.286960 0.417361 -0.181725
0.286960 -0.242866 -0.423852
0.286960 0.163042 0.413507
0.286960 -0.127623 0.461403
0.286960 0.106107 -0.449086
0.286960 -0.400890 -0.237706
0.286960 -0.283020 0.393930
0.286960 -0.446862 0.189757
0.286960 0.194157 -0.414416
0.286960 0.286169 0.379962
0.286960 -0.247868 0.367427
0.286960 0.229005 -0.438320
0.286960 0.082536 -0.462989
0.286960 0.388938 -0.283360
0.286960 0.419447 -0.229581
0.286960 -0.274247 -0.367226
0.286960 -0.160894 0.457316
0.286960 -0.282207 0.369711
0.286960 0.046853 0.443133
0.286960 0.449901 0.155184
0.286960 -0.106453 -0.485360
0.286960 -0.261516 0.386917
0.286960 0.467495 0.125505
0.286960 -0.386573 0.236825
0.286960 0.497849 0.002841
0.286960 -0.477858 -0.053462
0.286960 -0.435884 0.179098
0.286960 0.484052 -0.010707
0.286960 -0.479475 0.091014
0.286960 0.166736 0.432169
0.286960 -0.064246 -0.467041
0.286960 -0.278578 -0.360439
0.286960 0.122196 0.442738
0.286960 -0.173692 0.434078
0.286960 0.250333 0.370388
0.286960 0.075870 -0.484356
0.286960 -0.376358 -0.285622
0.286960 0.461602 0.152487
0.286960 -0.495489 0.027643
0.286960 0.412161 -0.179767
0.286960 0.484090 0.087500
0.286960 -0.401888 -0.276482
0.286960 -0.483445 0.077055
0.286960 0.101273 0.478073
0.286960 -0.473003 -0.093988
0.286960 -0.339317 0.323153
0.286960 -0.012138 0.478614
0.286960 -0.382373 0.310159
0.286960 -0.351988 0.338293
0.286960 -0.476666 -0.092474
0.286960 -0.175266 0.414674
0.286960 -0.208904 -0.453327
0.286960 0.448962 -0.094874
0.286960 0.068856 -0.452423
0.286960 0.240766 0.422019
0.286960 -0.346140 0.342032
0.286960 0.315003 -0.317449
0.286960 -0.161980 0.412827
0.286960 -0.441333 -0.152993
0.286960 0.350227 0.298932
0.286960 -0.154724 0.454041
0.286960 -0.435148 -0.241316
0.286960 0.127183 0.434556
0.286960 -0.109838 -0.481629
0.286960 -0.322480 0.360960
0.286960 0.442789 -0.133225
0.286960 -0.412552 -0.267040
0.286960 -0.130264 0.478101
0.286960 -0.462233 0.169401
0.286960 0.189472 0.425587
0.286960 0.301879 -0.368574
0.286960 -0.454974 0.087058
0.286960 0.170026 0.453239
0.286960 -0.239298 -0.397870
0.286960 -0.152856 -0.425447
0.286960 0.478359 0.090868
0.286960 0.349594 0.332998
0.286960 -0.367506 -0.302606
0.286960 0.139368 0.436509
0.286960 0.008250 0.451942
0.286960 -0.227381 0.417500
0.286960 0.228165 -0.413371
0.286960 -0.040926 -0.445966
0.286960 -0.311750 -0.330582
0.286960 -0.481888 0.012491
0.286960 -0.389301 0.247835
0.286960 0.388271 0.260006
0.286960 0.052734 -0.467804
0.286960 0.364039 0.277176
0.286960 0.359053 0.314821
0.286960 0.399618 0.233936
0.286960 0.350933 0.336259
0.286960 0.439215 -0.185616
0.286960 -0.155704 0.470378
0.286960 0.492425 0.020423
0.286960 0.042599 0.471163
0.286960 -0.397299 0.248456
0.286960 -0.362199 0.322850
0.286960 0.247897 -0.433685
0.286960 0.395833 -0.303586
0.286960 -0.448672 0.182955
0.286960 -0.410781 0.265737
0.286960 0.164639 0.452645
0.286960 -0.124165 0.472996
0.286960 -0.373149 -0.301972
0.286960 -0.108377 0.456665
0.286960 -0.061226 -0.465145
0.286960 0.287011 0.400014
0.286960 0.408361 -0.253433
0.286960 -0.465176 0.011385
0.286960 0.443011 0.198743
0.286960 -0.160116 0.426213
0.286960 -0.027483 -0.463860
0.286960 0.280033 0.355898
0.286960 0.452644 -0.048175
0.286960 -0.307040 0.367594
0.286960 0.402908 -0.288161
0.286960 0.240810 0.433176
0.286960 -0.257154 0.377120
0.286960 0.441194 -0.069869
0.286960 0.478862 -0.099006
0.286960 -0.448821 0.088212
0.286960 -0.438497 0.075735
0.286960 0.031515 -0.457901
0.286960 -0.487667 0.065443
0.286960 -0.053908 0.473709
0.286960 -0.458720 -0.117453
0.286960 -0.046966 -0.469730
0.286960 0.241463 -0.428950
0.286960 -0.154638 -0.454897
0.286960 0.070533 0.458404
0.286960 -0.465387 -0.113393
0.286960 -0.458785 0.144291
0.286960 -0.281343 -0.369490
0.286960 -0.034452 0.489835
0.286960 -0.412416 0.177958
0.286960 0.443969 0.049284
0.286960 -0.018905 -0.478026
0.286960 -0.059915 -0.493989
0.286960 0.099955 0.474539
0.286960 -0.312413 -0.354600
0.286960 0.015307 0.448586
0.286960 0.088767 0.479747
0.286960 0.306214 0.380658
0.286960 0.198635 -0.415038
0.286960 0.344037 0.334017
0.286960 -0.002324 0.473744
0.286960 0.330584 -0.358017
0.286960 0.394800 -0.227170
0.286960 0.450242 0.109348
0.286960 -0.497150 0.001297
0.286960 0.328114 0.348287
0.286960 0.300463 0.362571
0.286960 0.225181 -0.393854
0.286960 -0.178906 0.405514
0.286960 0.265477 -0.376208
0.286960 0.184958 0.454641
0.286960 0.466718 0.100321
0.286960 0.370609 0.304176
0.286960 0.375787 -0.327057
0.286960 -0.424482 -0.138916
0.286960 0.081724 0.485104
0.286960 0.467929 0.136200
0.286960 -0.180895 -0.456982
0.286960 0.430920 0.115051
0.286960 -0.406484 -0.263017
0.286960 -0.058250 0.467708
0.286960 -0.390111 -0.282614
0.286960 0.459610 0.110227
0.286960 -0.453013 0.141917
0.286960 0.298123 0.329376
0.286960 -0.474241 -0.060536
0.286960 0.457923 0.125159
0.286960 -0.429193 0.245632
0.286960 0.443575 0.125627
0.286960 -0.161654 -0.459833
0.286960 -0.202351 -0.420592
0.286960 0.478778 -0.094600
0.286960 -0.034381 -0.470531
0.286960 0.186440 -0.407402
0.286960 0.438582 0.207383
0.286960 -0.269147 0.390034
0.286960 -0.068866 -0.466756
0.286960 0.305004 0.366280
0.286960 -0.197480 0.443727
0.286960 0.492875 -0.017278
0.286960 0.392302 -0.242671
0.286960 0.419678 -0.218075
0.286960 -0.459307 -0.143081
0.286960 -0.013972 0.481735
0.286960 0.430613 -0.118560
0.286960 0.061080 0.440655
0.286960 0.447398 0.175131
0.286960 0.044095 0.455617
0.286960 0.396928 0.293649
0.286960 -0.051454 0.451352
0.286960 0.363280 -0.278220
0.286960 -0.117736 0.427960
0.286960 -0.336106 -0.335495
0.286960 0.336365 0.344753
0.286960 0.001993 0.456925
0.286960 -0.472667 -0.064033
0.286960 0.194811 0.400117
0.286960 -0.461015 0.089175
0.286960 -0.453020 0.137632
0.286960 0.178998 0.415710
0.286960 -0.299125 -0.340633
0.286960 0.072143 0.478625
0.286960 0.472291 -0.070214
0.286960 -0.334298 -0.305458
0.286960 -0.367158 0.324819
0.286960 -0.152163 0.467175
0.286960 -0.142214 -0.478315
0.286960 -0.226655 0.413975
0.286960 -0.256571 0.423911
0.286960 0.031551 -0.466356
0.286960 -0.170333 -0.446386
0.286960 -0.437155 0.133007
0.286960 -0.170267 0.445019
0.286960 -0.170821 0.462068
0.286960 0.033882 -0.476586
0.286960 -0.060489 0.447076
0.286960 -0.433467 0.139327
0.286960 -0.318816 -0.352102
0.286960 0.138129 -0.433381
0.286960 0.477801 0.138323
0.286960 -0.052187 0.447627
0.286960 0.383189 -0.244436
0.286960 0.207212 -0.431495
0.286960 0.482901 -0.109540
0.286960 0.470932 0.108953
0.286960 -0.490989 0.043961
0.286960 -0.454168 0.063079
0.286960 0.044814 0.445676
0.286960 -0.104157 -0.444245
0.286960 0.478517 0.102467
0.286960 0.203174 0.429911
0.286960 -0.115248 0.476982
0.286960 0.485988 -0.015701
0.286960 0.059577 0.490470
0.286960 -0.101899 0.436324
0.286960 -0.415009 0.160564
0.286960 -0.409435 0.278926
0.286960 -0.449407 -0.151440
0.286960 -0.367705 0.258826
0.286960 0.284511 -0.404824
0.286960 0.470794 0.082888
0.286960 -0.131288 0.459617
0.286960 0.448439 -0.103594
0.286960 0.297694 0.388985
0.286960 0.284671 -0.409523
0.286960 0.246118 0.411576
0.286960 0.037641 0.462532
0.286960 -0.196632 -0.405169
0.286960 0.437950 0.086259
0.286960 0.349735 0.314780
0.286960 -0.001488 -0.486822
0.286960 -0.000096 -0.499304
0.286960 -0.065796 -0.492944
0.286960 0.327600 0.355012
0.286960 0.345527 0.339872
0.286960 -0.218350 -0.408915
0.286960 -0.169376 0.415639
0.286960 -0.173168 -0.427536
0.286960 0.471869 0.115219
0.286960 -0.496948 -0.023532
0.286960 0.435436 0.107820
0.286960 -0.436579 0.140037
0.286960 -0.263388 0.413318
0.286960 -0.102655 0.457513
0.286960 0.475487 0.067531
0.286960 0.388049 -0.247551
0.286960 0.016159 0.453071
0.286960 0.463782 -0.096026
0.286960 -0.459569 0.160978
0.286960 -0.436529 -0.206933
0.286960 0.470529 0.097896
0.286960 -0.118804 -0.470739
0.286960 0.416588 -0.200454
0.286960 -0.479677 0.066555
0.286960 0.488078 -0.093624
0.286960 -0.122200 -0.472158
0.286960 -0.428564 -0.189649
0.286960 0.111452 -0.474456
0.286960 0.096640 0.432655
0.286960 0.162223 -0.449507
0.286960 -0.475922 -0.001358
0.286960 -0.158799 -0.465725
0.286960 -0.053791 0.481084
0.286960 0.322917 0.343254
0.286960 -0.228176 0.434836
0.286960 -0.409205 -0.285034
0.286960 -0.049022 0.447694
0.286960 -0.276050 0.348033
0.286960 -0.459123 -0.178033
0.286960 0.360754 -0.300775
0.286960 -0.448998 -0.052946
0.286960 0.486023 0.012326
0.286960 0.419768 -0.199091
0.286960 0.213219 -0.415912
0.286960 0.376983 0.308501
0.286960 -0.399084 0.260249
0.286960 0.098828 -0.486794
0.286960 -0.357537 -0.282448
0.286960 -0.306810 0.330068
0.286960 0.078039 0.475210
0.286960 0.292728 0.376190
0.286960 -0.444089 -0.203222
0.286960 0.219484 -0.441140
0.286960 -0.056145 -0.481059
0.286960 0.401190 -0.276545
0.286960 0.257462 0.368965
0.286960 -0.381198 0.317716
0.286960 -0.185067 0.426147
0.286960 0.439216 0.112655
0.286960 0.138894 -0.471256
0.286960 -0.409603 -0.217629
0.286960 0.454244 0.094460
0.286960 0.375137 0.279161
0.286960 0.345838 -0.314103
0.286960 -0.085878 -0.441623
0.286960 -0.247226 -0.422693
0.286960 0.119917 -0.484992
0.286960 0.317173 -0.382950
0.286960 0.134595 -0.427253
0.286960 0.401947 -0.234730
0.286960 0.338567 0.288354
0.286960 -0.468684 -0.149432
0.286960 -0.261463 -0.418223
0.286960 0.202093 0.404123
0.286960 0.373246 -0.263173
0.286960 -0.255687 -0.377128
0.286960 0.175045 -0.412351
0.286960 -0.444849 0.019536
0.286960 -0.458285 -0.025656
0.286960 0.402428 -0.264405
0.286960 -0.458189 0.064348
0.286960 -0.077538 -0.454903
0.286960 0.333444 -0.348616
0.286960 0.194501 -0.442184
0.286960 0.448306 -0.147520
0.286960 0.159251 -0.441083
0.286960 -0.349968 0.283017
0.286960 0.452170 0.158265
0.286960 0.276781 -0.355051
0.286960 0.333338 0.349790
0.286960 -0.003592 -0.463121
0.286960 0.079254 -0.477134
0.286960 0.406746 -0.191011
0.286960 -0.266435 -0.393690
0.286960 -0.439581 -0.198510
0.286960 -0.216141 0.416655
0.286960 0.229403 -0.385126
0.286960 -0.439003 -0.177745
0.286960 -0.292342 -0.373204
0.286960 -0.006115 -0.450803
0.286960 -0.473219 -0.035779
0.286960 -0.414732 0.213315
0.286960 -0.087666 0.465078
0.286960 -0.216409 -0.433517
0.286960 -0.369924 0.288946
0.286960 0.082542 -0.475980
0.286960 0.054504 -0.494639
0.286960 0.400561 -0.285700
0.286960 -0.013123 -0.486957
0.286960 -0.287955 0.355884
0.286960 -0.390470 -0.239772
0.286960 0.479649 -0.110910
0.286960 0.494645 -0.057032
0.286960 0.359356 0.283107
0.286960 -0.477388 0.130163
0.286960 0.420948 -0.149473
0.286960 -0.387336 0.304023
0.286960 0.045784 -0.445473
0.286960 -0.005195 0.472490
0.286960 0.303612 0.330632
0.286960 0.413574 0.213038
0.286960 0.481768 0.045749
0.286960 0.278891 -0.405419
0.286960 -0.382029 0.294666
0.286960 0.495982 0.034081
0.286960 0.446285 0.072363
0.286960 0.044329 -0.454175
0.286960 0.149762 0.443910
0.286960 -0.472146 -0.072543
0.286960 0.033073 -0.454373
0.286960 -0.442755 0.188064
0.286960 -0.450489 -0.116066
0.286960 -0.453939 -0.197039
0.286960 0.362643 0.280710
0.286960 -0.033623 -0.483230
0.286960 -0.400246 0.292841
0.286960 -0.108889 -0.475927
0.286960 -0.221653 0.442786
0.286960 -0.261291 0.400616
0.286960 -0.375474 0.312702
0.286960 -0.369465 -0.334911
0.286960 -0.477673 -0.039728
0.286960 0.278061 0.385990
0.286960 -0.126064 0.457757
0.286960 -0.314220 -0.328236
0.286960 -0.413516 -0.177726
0.286960 0.365924 -0.328363
0.286960 -0.461417 -0.045705
0.286960 -0.070419 0.490452
0.286960 0.203686 -0.447327
0.286960 -0.449048 -0.215775
0.286960 0.450513 0.186059
0.286960 -0.414217 0.196507
0.286960 -0.492196 -0.072990
0.286960 0.385187 -0.256032
0.286960 -0.267376 0.404296
0.286960 0.262839 0.373051
0.286960 -0.474396 0.140813
0.286960 -0.104834 -0.436480
0.286960 0.484059 -0.029998
0.286960 0.284922 -0.392521
0.286960 0.157563 0.426554
0.286960 0.320459 0.364479
0.286960 0.413669 -0.273484
0.286960 -0.041077 -0.486124
0.286960 -0.160833 0.419331
0.286960 0.471623 0.053056
0.286960 -0.476988 -0.143078
0.286960 0.204861 0.420116
0.286960 0.466972 -0.048517
0.286960 -0.414602 0.259816
0.286960 -0.072289 0.452162
0.286960 0.062800 -0.475633
0.286960 0.091539 -0.461441
0.286960 -0.226587 -0.426038
0.286960 -0.450851 -0.058650
0.286960 0.160864 0.434756
0.286960 0.283393 -0.360150
0.286960 0.333789 0.353473
0.286960 -0.484330 0.071020
0.286960 0.453901 -0.159450
0.286960 -0.274867 -0.408230
0.286960 0.480551 -0.017610
0.286960 0.402363 0.221161
0.286960 0.220478 0.409137
0.286960 0.395992 -0.216351
0.286960 0.429630 0.240853
0.286960 -0.131371 -0.478907
0.286960 -0.356024 -0.270565
0.286960 -0.351589 -0.301251
0.286960 0.399294 -0.215912
0.286960 0.081721 -0.489668
0.286960 -0.010607 -0.489791
0.286960 0.405877 0.278514
0.286960 0.375074 -0.299883
0.286960 -0.181829 -0.461282
0.286960 0.462204 0.084019
0.286960 -0.347576 -0.328788
0.286960 0.453179 -0.063263
0.286960 0.328889 -0.309029
0.286960 -0.353265 0.280694
0.286960 0.033932 0.492011
0.286960 0.070264 0.472144
0.286960 0.280649 0.382772
0.286960 -0.422504 -0.242221
0.286960 0.427123 0.208878
0.286960 -0.349334 0.342176
0.286960 -0.363260 -0.300985
0.286960 -0.440992 0.085845
0.286960 0.317933 0.311207
0.286960 0.180396 -0.435023
0.286960 0.464740 0.161108
0.286960 -0.273563 -0.389010
0.286960 -0.438169 -0.232222
0.286960 -0.443357 -0.048124
0.286960 -0.332832 0.359018
0.286960 -0.342796 -0.295822
0.286960 -0.207563 -0.408871
0.286960 0.412548 0.226878
0.286960 0.435569 -0.212211
0.286960 0.267923 -0.367239
0.286960 0.478220 0.120134
0.286960 -0.118223 -0.474576
0.286960 -0.477566 0.094989
0.286960 0.434230 0.141669
0.286960 -0.355001 -0.319912
0.286960 -0.032071 0.471565
0.286960 0.485851 0.052666
0.286960 0.156806 -0.458567
0.286960 -0.315741 -0.342568
0.286960 0.466234 -0.131606
0.286960 0.101739 -0.435787
0.286960 0.450162 -0.000299
0.286960 0.275310 -0.392358
0.286960 -0.200885 0.412202
0.286960 0.427831 -0.156582
0.286960 0.355714 -0.273464
0.286960 0.025304 -0.479087
0.286960 0.241800 0.413032
0.286960 0.443243 0.206722
0.286960 -0.282524 -0.361683
0.286960 -0.005984 0.484706
0.286960 -0.196665 -0.442277
0.286960 -0.476333 -0.078007
0.286960 0.354551 0.327369
0.286960 0.452585 -0.052347
0.286960 0.208470 0.402637
0.286960 0.276801 -0.400390
0.286960 -0.459952 -0.173832
0.286960 0.474850 0.016639
0.286960 -0.266897 0.369943
0.286960 0.433911 0.133015
0.286960 -0.211916 -0.396345
0.286960 -0.045826 0.475907
0.286960 -0.249082 -0.371877
0.286960 0.102552 -0.478829
0.286960 0.301129 0.366463
0.286960 0.358847 0.288392
0.286960 -0.056734 0.488519
0.286960 0.261588 0.412424
0.286960 -0.441698 -0.209449
0.286960 0.026883 -0.494155
0.286960 0.332639 -0.305410
0.286960 -0.436961 0.108190
0.286960 0.440682 0.186822
0.286960 -0.449585 0.167625
0.286960 0.149559 -0.460391
0.286960 -0.343913 -0.303739
0.286960 -0.458060 0.164612
0.286960 -0.455152 0.197762
0.286960 0.468414 0.089854
0.286960 -0.325742 -0.356061
0.286960 0.429492 -0.160501
0.286960 -0.265627 -0.368729
0.286960 -0.477611 0.085662
0.286960 0.279452 0.360424
0.286960 -0.447007 0.104230
0.286960 0.229274 0.425305
0.286960 0.242538 -0.424606
0.286960 -0.256905 0.388464
0.286960 -0.238006 0.391137
0.286960 -0.412691 0.229493
0.286960 0.121575 0.439049
0.286960 -0.280929 -0.358261
0.286960 0.472968 0.058645
0.286960 0.089904 0.440476
0.286960 -0.427687 -0.154998
0.286960 -0.464063 -0.172407
0.286960 0.361400 0.259979
0.286960 -0.442434 -0.067642
0.286960 0.084394 0.470943
0.286960 0.267520 -0.380449
0.286960 -0.051893 0.459679
0.286960 -0.442281 0.069137
0.286960 -0.253755 0.400411
0.286960 -0.393938 0.206389
0.286960 0.267678 0.357854
0.286960 0.309912 0.372386
0.286960 0.479347 -0.026852
0.286960 0.457947 0.030020
0.286960 0.402985 0.262756
0.286960 0.145715 -0.434028
0.286960 -0.397331 0.224791
0.286960 0.102028 -0.461765
0.286960 -0.165207 -0.456052
0.286960 -0.466275 -0.158163
0.286960 -0.455816 0.049294
0.286960 0.478015 0.074238
0.286960 -0.447302 -0.168645
0.286960 0.060143 -0.451943
0.286960 0.309796 -0.333847
0.286960 0.438601 -0.188873
0.286960 -0.146322 -0.431349
0.286960 -0.424756 -0.261454
0.286960 -0.208908 0.422634
0.286960 -0.284902 -0.366171
0.286960 0.031445 -0.490134
0.286960 -0.339410 -0.309598
0.286960 -0.251447 -0.397103
0.286960 0.419909 -0.155642
0.286960 -0.108058 -0.460012
0.286960 0.054486 0.460394
0.286960 -0.427046 0.200077
0.286960 -0.244311 0.372834
0.286960 -0.135963 0.423638
0.286960 -0.007693 -0.473163
0.286960 -0.121154 -0.462910
0.286960 -0.033408 -0.479901
0.286960 0.062330 0.487427
0.286960 -0.448692 0.024952
0.286960 -0.122842 -0.435719
0.286960 -0.171579 0.425901
0.286960 0.406127 -0.233853
0.286960 0.137145 0.456156
0.286960 0.465130 -0.088750
0.286960 -0.030777 0.477603
0.286960 -0.376219 0.309137
0.286960 0.291299 0.352355
0.286960 0.237886 -0.412795
0.286960 0.376986 0.268953
0.286960 0.431502 0.226485
0.286960 -0.326328 0.362881
0.286960 -0.370245 0.252474
0.286960 0.325032 -0.329860
0.286960 -0.369902 0.245696
0.286960 0.013324 0.471491
0.286960 0.123153 0.452969
0.286960 0.286809 -0.356866
0.286960 0.479203 0.129682
0.286960 -0.457484 -0.038650
0.286960 -0.437677 0.125312
0.286960 -0.056531 -0.470398
0.286960 -0.306155 0.363968
0.286960 0.143496 -0.458205
0.286960 -0.432595 -0.247456
0.286960 0.478037 -0.135795
0.286960 -0.469188 0.062556
0.286960 -0.390242 0.251064
0.286960 0.213512 0.434902
0.286960 0.195199 -0.429350
0.286960 0.466698 -0.011056
0.286960 -0.450787 -0.105317
0.286960 -0.304899 -0.366351
0.286960 0.446121 -0.164501
0.286960 -0.223774 -0.394971
0.286960 -0.184446 -0.463492
0.286960 -0.437320 -0.160613
0.286960 -0.306534 -0.347815
0.286960 -0.177362 0.447890
0.286960 -0.204515 -0.398333
0.286960 0.134973 -0.437293
0.286960 0.120262 0.468720
0.286960 -0.378846 -0.240639
0.286960 0.441744 -0.190688
0.286960 -0.415189 0.184776
0.286960 0.152309 -0.440539
0.286960 0.462446 0.103022
0.286960 -0.383360 -0.294206
0.286960 -0.159753 0.433571
0.286960 -0.248077 -0.428713
0.286960 0.019951 -0.454573
0.286960 0.350425 -0.338752
0.286960 -0.443970 -0.057871
0.286960 0.071586 -0.476562
0.286960 -0.449118 0.136716
0.286960 -0.358565 -0.300347
0.286960 -0.129266 -0.481903
0.286960 -0.423141 0.137252
0.286960 0.255561 -0.380355
0.286960 0.402248 -0.281754
0.286960 -0.426121 -0.164695
0.286960 0.262398 0.415341
0.286960 0.117754 0.480701
0.286960 -0.446542 0.173131
0.286960 -0.179624 0.416123
0.286960 -0.275282 0.407074
0.286960 0.146162 0.472396
0.286960 0.308389 -0.373398
0.286960 -0.352870 0.343297
0.286960 0.308687 0.326227
0.286960 0.463966 0.008947
0.286960 -0.446169 0.126806
0.286960 0.293428 -0.381572
0.286960 -0.158592 -0.458491
0.286960 0.190214 0.419846
0.286960 -0.038566 0.463006
0.286960 -0.202347 -0.403126
0.286960 0.369357 0.310463
0.286960 0.475416 0.009115
0.286960 -0.440814 -0.092956
0.286960 0.191845 -0.412317
0.286960 -0.405988 0.230556
0.286960 0.430592 0.248162
0.286960 0.458015 -0.014220
0.286960 0.425303 -0.181355
0.286960 0.474026 -0.052768
0.286960 -0.221379 -0.389485
0.286960 0.146302 0.437722
0.286960 -0.025212 -0.479547
0.286960 0.003148 -0.455917
0.286960 0.403169 -0.254221
0.286960 -0.196623 0.431089
0.286960 0.070698 0.466981
0.286960 -0.000994 -0.490768
0.286960 0.181524 -0.452942
0.286960 0.142949 -0.428132
0.286960 -0.422417 0.259959
0.286960 -0.429193 0.119484
0.286960 -0.454817 0.133732
0.286960 -0.278938 -0.395102
0.286960 -0.217120 -0.402951
0.286960 -0.127930 0.439253
0.286960 -0.379703 0.284257
0.286960 -0.201260 0.452158
0.286960 -0.202567 -0.448932
0.286960 -0.385616 0.310941
0.286960 0.470165 0.138612
0.286960 0.423710 0.140372
0.286960 -0.446530 0.166512
0.286960 0.241312 -0.437064
0.286960 0.393388 -0.247679
0.286960 0.245934 0.402715
0.286960 -0.172323 0.412519
0.286960 0.281229 0.343696
0.286960 0.064908 0.481495
0.286960 -0.273438 -0.354908
0.286960 0.192497 0.453274
0.286960 -0.366267 -0.312747
