0.129825 -0.205783 0.451278
-0.188509 -0.083364 -0.493000
0.031227 -0.266847 0.417979
0.035764 0.496650 0.040187
-0.015410 0.486823 0.104922
-0.287156 0.332614 0.368849
0.232464 -0.384999 -0.317550
-0.092770 0.311623 0.386607
0.267475 -0.446496 -0.221554
-0.164403 0.341398 0.360892
-0.037845 0.450920 0.210302
-0.220980 -0.489808 0.084621
-0.124211 0.316012 0.383108
0.244608 -0.093708 -0.491219
0.250646 -0.497575 0.001654
0.090647 0.045822 -0.498075
-0.274680 0.491716 -0.083845
-0.141509 0.444493 -0.227735
0.176454 0.361500 -0.345360
0.229310 -0.364855 0.336171
0.279023 -0.496403 0.031786
0.027913 -0.497357 -0.010475
0.026618 -0.491477 -0.079126
-0.056105 0.471538 -0.164246
0.149540 0.375849 0.325055
0.054548 -0.494682 -0.056184
0.032261 -0.494758 -0.055247
0.082021 -0.448882 -0.216711
-0.081596 0.345109 0.357531
-0.124495 -0.431426 -0.249910
0.265794 -0.447304 0.216096
0.229240 -0.121154 -0.485069
0.222276 0.440903 0.230631
-0.222227 -0.445082 -0.224424
-0.068397 -0.334871 -0.370229
-0.201975 0.204381 0.452114
-0.181338 -0.322982 0.376367
-0.036787 0.076904 0.489935
0.243379 0.444112 0.224119
0.211339 0.430783 0.248465
-0.211462 0.498532 -0.002230
-0.185281 -0.255158 0.425210
-0.106872 -0.201245 0.453188
-0.255810 0.497661 -0.030948
0.120102 -0.404448 0.287613
0.205888 0.498326 0.009200
-0.279571 -0.260970 -0.425942
0.144552 0.316195 0.382962
-0.273355 -0.494670 -0.056333
0.169278 -0.295056 -0.403096
-0.061934 -0.153123 0.471557
0.120658 -0.490582 0.080125
-0.210521 -0.488963 0.089529
-0.153239 0.496728 0.039221
0.230618 0.455204 0.201197
-0.003410 0.035010 0.494715
0.175510 0.488293 0.097906
-0.289678 0.473858 -0.157051
-0.064886 0.025180 0.495156
-0.176512 -0.485758 -0.109467
-0.055463 0.100444 0.485880
0.215802 -0.308993 -0.392241
-0.040985 -0.207837 -0.454457
-0.244613 -0.487063 0.099784
-0.284378 0.084956 0.488549
-0.027867 0.463977 -0.184396
0.053482 -0.171418 0.465247
-0.059181 -0.474656 0.146724
0.016837 -0.470190 0.160752
0.056544 0.498250 0.013413
-0.171059 -0.387834 0.309483
-0.220407 0.498645 -0.008992
-0.030904 -0.455402 -0.202616
0.216776 0.166201 0.467490
-0.171859 -0.348276 0.353201
-0.177951 0.493986 0.064518
0.201894 -0.447113 0.216460
0.039168 0.328140 0.372900
-0.003864 0.297215 0.397950
-0.172731 -0.395043 0.300443
0.153505 -0.486247 -0.107133
0.269949 0.248249 0.429968
-0.096952 -0.403116 0.289517
-0.255318 0.170672 0.465813
0.145517 0.029263 -0.499417
-0.134687 0.109338 0.483767
0.185622 -0.320514 0.378484
0.203427 -0.013570 -0.499984
-0.162251 -0.273853 0.413354
-0.288409 -0.090722 -0.491733
0.182441 -0.078362 0.489534
-0.127570 -0.460161 0.187469
-0.003107 -0.285922 0.405386
0.041662 0.488552 0.096669
-0.207996 0.337648 -0.368899
-0.285494 -0.391122 0.305360
0.065815 0.342610 -0.364068
-0.270476 0.434086 0.242705
-0.230257 -0.141229 0.475258
0.010103 0.484680 -0.118475
0.177029 0.268779 -0.421734
-0.189078 0.392848 0.304562
-0.287777 -0.164309 -0.472169
0.159900 -0.204782 0.451713
0.061912 -0.403924 0.288363
-0.000659 -0.314356 -0.387965
-0.121519 -0.469030 0.163845
-0.153579 -0.497463 -0.004617
0.137554 -0.421104 -0.267325
0.044792 0.244082 0.432321
0.124268 0.095334 -0.491060
-0.056080 -0.170337 -0.469907
0.198331 0.427789 -0.257898
0.236216 0.360594 0.341780
0.251731 0.316132 -0.387476
-0.059699 0.428186 -0.257247
-0.176458 0.418402 0.268617
-0.114308 0.494704 0.059552
0.040107 0.492040 -0.081962
0.066661 -0.351053 -0.354881
-0.200807 -0.468155 -0.170499
0.016175 0.239228 -0.439286
0.110831 0.399349 -0.300681
-0.062936 0.119748 0.481293
-0.075276 -0.322708 0.376601
-0.121010 -0.349595 0.351916
-0.146859 0.447143 0.217966
-0.244636 -0.408454 -0.286485
0.062656 0.422017 -0.267366
0.154948 -0.218962 -0.449360
-0.042086 -0.023834 0.495404
0.282437 0.051193 -0.497640
0.068535 -0.036967 -0.498934
-0.051711 0.040922 -0.498472
-0.096924 -0.140169 -0.479853
0.018944 -0.125535 0.479590
-0.105869 0.141325 0.475459
0.004784 0.322339 0.378063
-0.219924 -0.014006 -0.499964
-0.053665 0.040484 0.494341
-0.128127 0.378101 0.322430
-0.192052 0.210621 0.449314
-0.104543 0.458494 -0.197820
-0.196563 0.321278 0.378909
0.137603 -0.456137 0.196436
-0.003041 0.045106 0.493841
-0.190259 0.219043 -0.449603
0.062690 -0.486242 -0.107159
-0.211061 0.353661 -0.353309
-0.075566 -0.274728 -0.417313
0.285174 -0.086029 0.488425
-0.018199 0.087392 -0.492723
-0.004443 -0.338242 0.362969
-0.277174 0.417577 -0.274649
0.089183 0.453020 -0.210018
0.257252 -0.490673 0.079598
-0.092080 0.498303 0.010515
-0.288048 0.246428 -0.435157
0.082367 -0.425899 0.254964
-0.153371 0.495107 -0.059942
0.100102 -0.492084 -0.074931
-0.150532 -0.284073 0.406607
-0.237989 0.425366 0.257912
0.136382 -0.148298 -0.477373
-0.244719 -0.468737 0.164624
-0.038142 -0.174769 0.464091
0.233521 -0.325001 -0.379169
0.040016 -0.435402 0.238701
-0.118194 0.012504 0.495724
-0.060863 -0.049252 -0.497636
-0.257941 -0.483029 -0.121796
-0.044593 0.418899 -0.272481
-0.193672 -0.460071 0.187669
-0.196328 0.473006 -0.159844
0.281527 0.484523 -0.119136
0.229902 0.216351 0.446742
0.104343 0.050350 0.493275
0.130746 0.494501 0.060957
-0.097594 0.324270 -0.380494
0.167512 0.004060 -0.500132
-0.126446 -0.440367 0.229271
0.241068 0.411456 -0.283412
-0.285124 0.490135 -0.093026
-0.055994 0.347205 -0.359595
0.149951 -0.383015 0.315527
0.124479 0.408232 0.284021
-0.155581 -0.480789 -0.129911
0.175151 -0.494845 -0.054168
0.022021 0.169464 -0.470628
0.246653 0.040320 -0.498521
-0.225111 0.042467 0.494127
0.189222 -0.232996 0.437869
0.109237 -0.488428 0.092639
0.024008 0.156657 -0.475045
-0.015670 0.189609 0.458707
-0.209428 -0.339882 0.361373
-0.124193 0.100164 0.485931
0.170586 -0.484593 -0.115031
0.275004 0.281922 0.408645
-0.053358 -0.339890 -0.365684
-0.106439 0.180675 -0.466545
0.058192 0.474256 -0.155748
0.193261 0.089895 -0.492199
-0.194503 0.163039 -0.472844
-0.205560 -0.142841 0.474813
0.165528 -0.324712 0.374882
0.245780 -0.418118 0.267727
0.128817 -0.426777 -0.258016
-0.019394 -0.393202 -0.307089
-0.178901 -0.084019 0.488716
-0.272327 0.245926 -0.435445
-0.101942 0.090559 -0.492060
-0.026490 0.433228 -0.248977
0.257128 0.292222 0.401441
0.225457 -0.061475 0.491977
0.168364 -0.373998 -0.330371
0.210902 -0.265026 -0.423469
-0.126230 0.350378 0.352273
0.157998 -0.192399 0.456876
-0.039274 -0.444022 0.222329
-0.122750 0.030063 0.494937
-0.113888 0.498454 -0.013258
0.286942 0.278952 0.410722
-0.023563 0.146214 -0.478518
-0.008302 -0.496998 0.018510
0.103552 0.488280 -0.103326
-0.222082 0.234387 0.437425
-0.261399 -0.497545 -0.000040
0.000638 0.114642 0.482506
-0.055349 0.492532 -0.079103
0.016086 0.497193 0.033481
0.116406 0.427046 0.254981
-0.208671 0.006076 0.495942
-0.005486 0.132556 -0.482288
0.022509 -0.255443 -0.429311
-0.245316 0.318453 0.381162
0.061691 0.146127 -0.478542
0.268509 0.485323 0.112085
-0.132015 -0.447695 -0.219120
-0.290255 0.309821 0.388045
-0.181100 -0.436455 0.236700
0.193644 0.488676 -0.101500
0.022071 -0.340724 -0.364927
0.286316 -0.433621 0.242083
-0.088534 0.357706 -0.349372
-0.260819 0.321213 -0.383117
0.057554 -0.035841 0.494448
-0.051568 -0.040035 -0.498632
0.000470 -0.157723 0.469971
0.106928 0.494923 0.058039
0.254796 0.498279 0.011817
0.218091 -0.213894 -0.451738
-0.048965 0.302915 0.393551
0.266056 0.044707 0.493885
0.024317 0.280497 -0.413998
-0.228882 0.474062 0.151993
0.067616 -0.494989 -0.052387
0.033573 0.019143 -0.499860
-0.128415 0.366212 0.336009
-0.247087 -0.481635 -0.126844
0.147357 0.049467 -0.497780
0.057382 0.496833 0.037931
-0.197500 0.453897 0.204260
-0.241900 0.362172 -0.344619
0.284970 0.487241 -0.107700
0.152700 -0.179023 -0.466648
0.282696 0.356403 -0.350639
-0.017794 0.218727 -0.449758
-0.129030 -0.408920 0.281219
-0.136176 0.332693 0.368776
0.075159 -0.381835 -0.321237
0.237328 -0.447858 -0.218790
0.215515 0.437454 -0.241104
-0.097666 -0.497546 0.006311
-0.263083 0.483049 0.121082
-0.069272 0.380937 0.319125
-0.106570 0.435473 0.240286
-0.019955 0.075789 0.490127
0.110500 0.012079 0.495743
-0.229683 0.320903 0.379208
-0.171299 -0.484314 0.111350
0.078956 -0.464551 0.175781
-0.101832 -0.208326 -0.454237
0.035154 0.498474 -0.012801
0.194325 -0.415028 -0.276528
0.077442 0.429375 0.250920
0.226363 -0.192608 -0.461290
-0.172887 -0.027818 -0.499345
-0.081319 0.476818 -0.147351
-0.065878 -0.378504 -0.325119
0.041439 0.065786 -0.495855
0.063369 0.491640 -0.084285
-0.241930 -0.249653 -0.432841
0.060706 0.092343 -0.491686
0.032868 -0.488468 0.092406
0.245807 0.052241 0.493070
-0.215715 -0.263329 -0.424503
0.151923 0.277229 0.411927
0.274233 0.473785 -0.157289
-0.151394 -0.044848 0.493718
-0.056409 0.486508 0.106426
-0.207352 -0.479710 -0.133817
0.196711 -0.113654 -0.486851
0.121693 -0.149703 0.472737
-0.075436 -0.473023 -0.156389
0.172304 -0.370034 0.330453
-0.264514 0.487708 -0.105734
0.069016 0.251258 0.428134
0.285460 -0.041760 -0.498446
-0.029803 -0.202006 -0.457073
0.033408 0.230222 0.439618
-0.144636 0.455997 0.199292
-0.197956 0.443791 0.224771
0.274147 -0.155897 -0.475054
0.070495 -0.466645 0.170200
0.274028 -0.069410 -0.495402
-0.266606 0.197303 0.455290
0.267235 -0.235007 0.436765
0.260826 0.401382 -0.297816
0.260969 0.092541 -0.491645
0.189659 0.495486 -0.056437
-0.122060 0.493374 0.068744
-0.227307 0.098813 0.486163
0.217567 0.275323 0.413260
0.027582 0.310126 -0.392344
-0.046572 -0.330940 -0.373789
-0.233405 0.392459 -0.309321
-0.288003 -0.347922 0.353545
0.130863 0.491806 0.079583
0.182718 -0.221884 0.443344
0.150176 -0.383972 -0.318747
-0.117425 -0.127751 0.478978
0.102095 -0.315970 -0.386677
0.007265 0.034610 -0.498984
0.165924 0.351022 0.351612
0.166218 0.208433 -0.454831
0.111508 -0.495194 -0.049863
-0.274559 -0.168718 0.466178
-0.197081 -0.279876 0.409378
-0.250997 0.279072 -0.414939
0.143919 -0.056894 -0.496810
0.181697 0.472295 0.157116
-0.203816 -0.244054 -0.436149
-0.071179 -0.487724 -0.100085
-0.058918 0.377825 0.322751
-0.160618 -0.464884 0.174892
0.026400 0.472212 -0.162447
-0.233297 -0.322143 -0.381755
0.161968 -0.439169 0.231545
0.032957 -0.447502 -0.219513
-0.112715 0.268204 0.417803
-0.036107 0.251986 0.427690
-0.047722 -0.187033 0.459113
0.064601 -0.453698 0.201870
0.286608 0.497458 -0.035473
0.116312 0.325341 -0.379574
-0.106961 0.207218 0.450841
-0.165085 0.404573 -0.293254
0.258820 -0.300157 0.394738
-0.234838 -0.339491 -0.366045
0.024158 -0.427623 0.252136
0.275959 -0.492096 0.071329
-0.278410 -0.447145 -0.220237
0.022276 -0.426661 -0.258219
0.176541 -0.464975 -0.179654
0.281526 0.373269 -0.332366
0.127798 0.498182 0.017206
-0.210354 0.382403 0.317416
-0.014236 0.467825 0.170074
-0.009376 0.171135 0.465639
-0.070885 0.000923 -0.500188
0.165934 0.167355 0.467057
0.181461 -0.139359 -0.480100
-0.120656 0.137858 0.476517
0.092568 0.393686 0.303452
0.180709 -0.416789 -0.273861
0.061453 -0.339645 0.361604
0.048608 0.112569 0.482999
-0.256031 -0.403699 -0.293175
-0.093416 -0.088049 -0.492193
-0.210535 -0.381206 -0.321971
0.093319 -0.440942 0.228180
-0.055470 -0.232458 0.438134
-0.256679 -0.492765 -0.070222
-0.125932 -0.281931 0.408021
0.051355 -0.139300 -0.480118
-0.049477 -0.028092 -0.499333
0.101554 -0.010901 -0.500104
-0.259573 -0.214056 0.447201
-0.112417 0.430782 0.248467
-0.132797 -0.485734 -0.109584
0.219981 0.324737 -0.380093
-0.036933 0.403948 -0.294148
0.099685 -0.496480 0.030067
0.025774 0.441481 0.229458
0.217502 -0.083592 0.488778
0.036265 -0.380931 0.318140
0.147771 -0.495631 0.041260
0.151886 -0.494406 -0.058882
0.170543 -0.441339 -0.232021
0.272209 -0.379728 -0.323693
0.235135 -0.449676 0.210833
0.260516 0.496367 -0.048288
-0.238393 -0.447108 0.216468
-0.139799 0.010998 0.495792
-0.009723 -0.410060 0.279590
0.261870 -0.046690 -0.497913
0.217354 0.284141 0.407093
0.029775 -0.475275 0.144694
0.232172 0.498033 -0.022641
-0.125438 -0.472904 -0.156732
-0.086406 0.429341 0.250979
-0.067419 0.423629 0.260698
-0.124209 -0.301301 -0.398375
0.202303 0.065934 0.491591
0.068143 -0.048574 -0.497709
-0.088993 -0.182370 0.461057
-0.259612 -0.496683 0.025546
-0.190397 0.481908 0.125215
-0.224502 -0.007412 0.495699
0.157415 -0.378285 -0.325374
-0.247545 -0.457276 0.193896
0.154095 -0.435943 0.237673
-0.197896 0.207605 -0.455238
0.055846 -0.050341 -0.497518
-0.095656 -0.390711 -0.310390
0.209845 -0.424767 -0.261521
-0.091774 0.041067 0.494278
0.074069 0.451954 0.208203
-0.199660 0.483900 0.117998
-0.040494 -0.357075 -0.348695
0.130715 -0.426431 0.254091
-0.019472 0.139746 0.475941
-0.171417 -0.326166 -0.378114
0.018077 0.188255 0.459215
-0.087709 0.484643 0.115308
0.115506 -0.010749 0.495639
0.203795 -0.383433 -0.319375
-0.004141 -0.187370 0.458973
-0.034847 -0.469485 0.162632
-0.250796 0.090831 -0.492003
0.062466 0.195985 0.455882
-0.060312 -0.296024 0.397856
-0.276163 0.091884 0.487356
-0.130008 0.040286 -0.498524
0.263714 0.487218 0.103036
-0.274300 0.441786 -0.232877
0.074131 -0.389454 0.307452
-0.204586 -0.055868 0.492789
-0.203923 0.048809 -0.497833
0.284079 0.126986 -0.483826
0.182513 -0.461236 0.184616
-0.083051 0.313155 -0.390032
0.059425 0.496895 -0.043401
0.166269 -0.333324 0.367492
-0.059072 0.392691 0.304770
0.017407 0.149774 0.472881
0.052774 0.419933 0.266298
0.261512 0.434343 -0.247012
-0.241051 -0.496115 -0.038491
-0.214723 -0.323758 -0.380294
0.068881 -0.308531 0.388420
-0.038117 0.480390 -0.135644
-0.040907 0.277940 -0.415686
0.284425 0.422781 0.261983
-0.126298 -0.307394 0.389278
0.286939 -0.367049 0.333749
-0.141649 0.352953 0.349628
0.028595 -0.156881 -0.474754
0.023285 0.304685 0.392140
-0.109405 0.230390 0.439529
0.055419 0.172032 -0.469741
-0.036389 -0.425778 0.255162
0.000376 -0.347699 0.353762
-0.056227 -0.488111 -0.098237
0.006233 0.079376 -0.493889
-0.118385 -0.103457 0.484790
0.174557 0.174057 -0.469043
0.173183 -0.281885 -0.412307
-0.246245 -0.460460 -0.190483
-0.276062 -0.211966 -0.452604
-0.139051 -0.372206 -0.332459
-0.253841 -0.041544 0.493986
-0.067293 0.474654 -0.154443
0.152797 0.024048 0.495206
0.121105 0.426583 -0.259877
0.007359 0.051093 0.493194
0.019790 0.356249 0.346243
0.099145 0.084768 -0.493109
-0.077778 0.157783 -0.474657
0.050916 -0.348898 -0.357094
-0.276525 0.455594 -0.204283
0.202119 0.252635 0.427294
0.045723 -0.057966 -0.496694
-0.089225 -0.472728 -0.157244
0.089365 -0.336172 0.364985
-0.287664 -0.319391 0.379448
0.183246 0.497055 0.035189
-0.254358 -0.248310 -0.433659
-0.044171 0.095546 0.486726
0.261848 -0.473214 -0.155834
-0.031273 0.487616 0.101140
0.220768 0.327423 0.373550
-0.160824 -0.496836 0.022135
0.046134 -0.294953 0.398664
-0.250134 0.011951 -0.499990
-0.289679 0.050272 -0.497715
-0.278791 -0.359265 0.342343
-0.197186 -0.476860 0.139500
-0.088927 0.277769 0.411549
-0.120632 0.079323 -0.493897
0.046768 -0.025120 -0.499466
0.213947 0.464113 -0.184033
0.191594 0.358353 0.344082
0.168903 -0.084327 -0.492834
0.257624 0.470707 -0.166459
-0.276596 0.424326 -0.263579
0.030659 0.435076 -0.245620
-0.165168 0.280392 0.409715
-0.196737 0.385232 0.314119
0.126795 -0.012450 -0.500034
-0.076223 -0.116554 -0.486162
0.231877 -0.442399 0.225411
0.011814 -0.497083 -0.025695
-0.231542 -0.461988 0.182611
0.125035 0.085205 -0.493046
0.101203 -0.296401 -0.402155
-0.061659 0.225856 -0.446245
0.236279 -0.241481 0.433053
-0.231106 0.052819 0.493008
0.151721 -0.235909 -0.440437
0.250835 -0.318819 0.379938
0.103765 0.071316 0.490897
-0.230914 0.234567 -0.441953
0.169882 0.459765 -0.194987
-0.249716 0.437647 -0.240736
-0.189698 0.254139 0.426377
0.258108 0.133605 0.477815
-0.064551 0.269383 -0.421335
-0.032691 0.201949 -0.457676
-0.043022 0.219165 0.445440
0.091426 0.419246 -0.271912
0.100426 -0.497490 0.007558
-0.056120 -0.322784 -0.381177
-0.134239 0.405368 0.287966
-0.148461 0.484921 0.114004
0.065656 -0.497226 -0.017754
0.084595 0.491984 -0.082288
0.172108 -0.230858 -0.443097
-0.219065 -0.288743 0.403349
-0.199292 -0.484068 -0.117534
-0.255158 0.387288 0.311723
-0.131134 -0.415957 0.271157
-0.127215 0.427782 -0.257910
-0.184115 -0.027502 0.495123
0.234980 0.126652 -0.483918
0.224860 0.260713 -0.426966
-0.110495 -0.363099 0.338110
-0.278631 -0.039110 0.494183
-0.287549 -0.496112 -0.038524
-0.029287 0.368080 0.334091
0.049169 -0.488991 0.089367
0.228334 0.091495 -0.491864
0.069226 -0.101833 0.485130
-0.049776 -0.341852 0.359455
0.086870 0.399035 0.296362
-0.043304 0.046207 0.493722
0.037511 0.255743 -0.429815
-0.084152 -0.311397 0.386258
0.183116 -0.228815 -0.444173
-0.018393 0.286153 0.405686
0.076709 0.456252 -0.202816
-0.024357 -0.180546 0.461818
-0.256826 -0.362665 0.338589
-0.088734 -0.413406 0.274805
0.115538 -0.089278 -0.491982
0.009568 0.035031 0.494714
0.065200 0.460842 0.187673
0.075927 0.421576 -0.268089
-0.018953 -0.002765 0.495783
-0.092180 -0.475794 0.142993
0.259770 0.498091 0.022247
0.261491 -0.442403 -0.229861
0.086538 0.496525 -0.046825
-0.271384 0.388229 0.310627
-0.183673 0.246281 0.431163
-0.168219 -0.319191 0.379619
0.165793 -0.417554 -0.272702
-0.168188 0.084287 0.488664
-0.210282 0.498297 0.010838
0.220029 0.481195 0.127797
-0.106712 -0.447718 -0.219073
0.131851 0.238076 -0.439947
-0.117904 0.155048 -0.475600
-0.195614 0.490734 0.086255
0.269809 -0.325530 -0.378690
0.286376 -0.056127 0.492751
0.204178 0.378378 0.322107
-0.220203 0.275880 -0.417046
0.263077 -0.341585 -0.364148
-0.261371 -0.375582 -0.328524
0.269226 -0.263188 -0.424589
0.230482 -0.236580 -0.440084
-0.214953 -0.496147 0.036480
0.053426 -0.235435 0.436520
0.065909 0.165051 -0.472150
-0.008187 0.268905 0.417375
0.075061 0.373638 0.327632
0.146532 0.156753 0.470752
-0.276194 0.132480 0.478158
0.246848 -0.410899 0.278390
-0.014914 -0.489567 -0.091288
0.212186 -0.395033 -0.304661
0.180598 0.419524 0.266916
0.181743 0.394164 0.302817
0.088993 0.150705 -0.477098
0.131921 -0.045272 -0.498066
-0.091235 0.481931 0.125133
-0.145112 -0.496271 -0.036568
0.262745 -0.484759 -0.114239
-0.112040 -0.077087 -0.494081
-0.285743 0.072713 0.490657
0.012082 -0.235235 0.436635
-0.142402 0.072528 -0.494880
-0.286588 -0.135567 -0.481257
0.231847 0.329788 0.371408
0.124681 0.020959 -0.499827
-0.029204 -0.462254 0.181903
0.086881 -0.310440 -0.391087
0.178363 -0.496846 0.021914
0.082524 -0.322027 0.377186
-0.044703 -0.224828 0.441894
-0.084124 -0.374150 0.325908
0.054392 0.008911 -0.500044
-0.214605 0.072433 -0.494894
-0.150447 0.479424 0.134214
-0.113585 -0.228936 -0.444109
0.273196 -0.001370 0.495808
-0.272586 -0.145495 0.474080
-0.060829 0.252482 0.427388
-0.161246 0.179898 -0.466868
-0.075476 0.490211 -0.092585
-0.150846 0.319736 -0.384385
0.005550 -0.493217 0.063597
-0.208284 0.414713 -0.278755
0.063612 0.359429 -0.347646
-0.279323 -0.492127 0.071153
-0.206238 0.474378 -0.155347
0.237460 0.393465 -0.308059
-0.138296 -0.206521 -0.455047
-0.165969 0.073115 -0.494795
-0.238558 0.079132 0.489552
-0.011759 -0.425513 0.255597
-0.203184 0.170724 -0.470193
-0.182660 -0.491753 -0.077218
0.209937 0.394742 -0.306458
0.001181 0.426255 -0.260415
0.051984 -0.183117 0.460746
-0.117315 0.090310 -0.492112
0.090912 -0.412246 -0.280742
-0.021145 -0.473213 0.151452
-0.284427 -0.190317 -0.462319
0.169134 -0.433751 0.241836
0.228750 0.298735 -0.400938
-0.127873 -0.233602 0.437570
0.226444 -0.310852 0.386669
-0.214904 0.059723 -0.496733
0.266254 -0.180133 -0.466231
-0.265745 0.219858 -0.449201
0.265569 -0.045109 0.493697
-0.137855 -0.456305 0.196062
-0.210717 0.438798 -0.238550
0.189321 0.449624 0.212932
-0.011489 -0.361534 0.339838
0.254356 0.224815 0.442465
-0.013643 -0.276181 -0.416297
0.257192 0.266159 -0.423464
-0.033599 -0.181505 -0.465717
0.163733 0.155107 0.471254
-0.077495 0.417713 0.269659
0.000112 -0.203720 -0.456304
-0.252310 0.435405 0.240404
-0.211805 0.269594 -0.421196
0.269247 0.202277 0.453058
-0.151471 0.430130 -0.254059
0.062814 -0.086730 0.488294
0.146760 -0.471954 0.155581
-0.273183 0.496330 0.044140
0.030366 -0.194998 -0.460218
0.084246 0.022367 0.495282
0.113405 0.468601 0.167826
0.004759 -0.049477 0.493343
0.036915 -0.472421 0.154048
0.260904 0.352948 0.349634
0.083039 -0.493714 -0.063667
-0.223158 0.498325 0.009261
-0.068722 0.440637 0.231171
0.165271 -0.200060 -0.457947
-0.170091 -0.492242 0.070480
-0.176027 -0.358197 -0.347543
0.149442 -0.497479 0.007802
-0.013147 -0.147902 0.473358
0.266160 -0.391266 0.305179
0.037988 0.395177 -0.305912
-0.046065 0.172171 -0.469694
0.241372 -0.144124 0.474459
-0.110213 -0.307737 -0.393243
0.224914 -0.434639 0.240150
0.157102 0.497920 0.024512
-0.186433 0.243591 -0.436784
-0.127547 0.491910 0.078867
-0.015520 0.234254 -0.442107
-0.153823 -0.208748 -0.454048
0.258284 0.450638 0.210874
0.217647 0.077270 0.489872
-0.223163 -0.019276 0.495486
-0.244591 0.169755 -0.470527
-0.189321 0.188244 0.459219
0.259135 -0.431699 -0.249433
0.194347 0.174188 0.464493
-0.169476 -0.488289 0.093441
-0.092774 0.216508 -0.450851
0.142314 -0.034841 -0.499030
-0.150956 -0.180268 0.461934
-0.067114 -0.450805 -0.212809
0.018296 -0.032057 0.494754
0.252728 -0.218030 -0.449851
0.183200 -0.448840 -0.216797
-0.028070 -0.450419 0.209177
-0.011545 0.318035 0.381495
0.201546 0.172147 -0.469702
-0.238287 -0.350451 0.351083
-0.217414 0.271104 0.416035
0.007314 0.265889 0.419214
0.264750 0.237452 0.435811
-0.203331 -0.091431 0.487309
0.215432 0.437056 0.237526
-0.133585 0.416342 0.271736
-0.223696 0.468995 0.166681
0.178560 -0.370685 -0.334231
0.089705 -0.494979 0.047294
-0.217267 0.494428 0.061462
-0.268591 0.412427 0.277666
-0.234946 -0.338774 0.362451
0.192768 0.272934 -0.418991
0.150880 -0.479340 0.131372
-0.111615 0.024990 -0.499755
-0.094875 -0.308077 0.388763
-0.097156 0.489548 -0.096438
0.257055 0.397977 0.297763
0.038154 0.327862 -0.377412
0.198009 -0.474112 0.148508
0.016431 -0.490294 -0.087307
0.271499 0.385439 0.313879
-0.172167 -0.103005 -0.489382
-0.194032 0.243123 0.432825
-0.019890 0.165927 0.467593
0.136272 -0.485930 -0.108647
0.219965 0.306139 0.390980
0.120340 0.258819 0.423524
-0.208109 0.483561 -0.123184
0.044264 0.175359 -0.468594
-0.274125 -0.296969 -0.401758
-0.248762 0.389127 -0.313501
-0.048586 0.482096 -0.129350
0.075511 0.115253 0.482361
0.268184 0.271495 0.415796
-0.188464 0.445409 -0.225995
-0.038155 0.494998 0.057522
-0.149809 -0.461619 0.183595
-0.213386 0.497008 0.035767
-0.072157 -0.445176 0.220139
-0.147356 0.257612 -0.428744
-0.072464 -0.373982 0.326094
0.226172 0.473361 0.154025
-0.208365 0.443354 0.225656
-0.042521 0.335110 -0.371192
-0.262643 0.155869 -0.475317
-0.176461 0.399078 -0.301020
0.206329 -0.496797 0.022995
-0.200161 -0.268430 -0.421393
0.080119 0.492052 0.077882
0.115290 -0.216164 -0.450720
-0.102676 0.333426 0.368113
-0.000077 0.349524 0.353150
-0.197631 -0.170235 0.465654
0.070100 0.495927 0.049104
-0.235408 0.490576 -0.090465
0.052019 0.234373 -0.442048
0.170935 0.368675 -0.337438
-0.158164 -0.325046 0.374595
0.215953 -0.477735 -0.140973
-0.136503 0.370255 0.331573
0.068867 -0.263109 -0.424637
0.275723 0.233424 -0.442516
0.103591 -0.276010 -0.416416
0.206065 0.417944 -0.274047
-0.185653 0.314803 -0.388617
0.099918 -0.482783 0.117792
0.238510 -0.308111 0.388737
0.119037 0.194782 0.456421
0.145826 0.438562 0.234899
0.249028 0.491596 0.081038
0.243178 0.379492 -0.325496
-0.018184 0.471725 -0.163746
-0.060199 -0.477819 0.136358
-0.035991 -0.327928 -0.376517
-0.025684 -0.140105 0.475568
0.254280 -0.245029 -0.435635
-0.262093 0.365212 0.337036
0.139189 -0.300960 0.394132
0.004540 0.361478 -0.345384
0.286167 0.179337 0.462561
-0.097081 0.315109 -0.388354
-0.143797 -0.183017 -0.465149
-0.208449 0.424434 0.259479
-0.007215 0.496135 0.046536
0.126481 0.040485 -0.498508
-0.016073 0.238410 0.435307
0.167000 -0.460533 0.186489
0.042985 -0.495402 -0.047296
0.119242 -0.243880 -0.436240
0.220971 -0.027670 0.495110
-0.081322 -0.400547 -0.297353
-0.259827 0.495989 0.048344
-0.108599 -0.160638 -0.473547
0.059338 0.483696 0.118739
0.107816 -0.244113 -0.436118
-0.086546 0.473372 -0.158644
-0.143198 -0.277771 -0.415185
0.197384 0.301937 0.394331
-0.136686 0.250116 -0.433042
-0.190558 0.491900 -0.082777
-0.163574 0.115335 -0.486870
-0.124197 0.433644 0.243476
0.060814 0.279564 -0.414614
-0.216102 -0.147341 0.473552
-0.131085 0.494459 -0.065941
-0.050493 0.124995 -0.484376
-0.210176 0.279073 -0.414938
0.113489 0.271717 0.415661
-0.204285 -0.442641 -0.229377
-0.032489 -0.251218 -0.431887
0.227141 0.247977 -0.434269
-0.075755 0.396234 0.300074
-0.172236 -0.478481 0.134189
0.146015 0.478109 0.138978
-0.013624 0.481070 0.128252
-0.167482 -0.426108 0.254621
-0.112970 -0.293394 -0.404259
-0.274621 -0.179990 -0.466285
0.257659 -0.187577 -0.463438
-0.065620 -0.315106 0.383125
0.256408 -0.467698 0.167394
0.210841 0.487633 0.101055
-0.190227 0.498131 0.020053
0.129919 -0.033616 -0.499085
-0.140638 0.442867 0.226645
-0.064663 0.214561 -0.451811
-0.233535 -0.252505 0.426731
0.014132 0.008602 0.495899
-0.174207 -0.496700 0.025168
-0.239024 -0.213653 0.447400
-0.050941 0.492028 0.078047
-0.226156 -0.495017 0.046938
-0.286819 0.031125 0.494889
0.042441 -0.468014 0.166552
0.128505 -0.168855 0.466131
0.218027 0.416894 0.270900
-0.081452 0.284801 0.406631
-0.208683 -0.424136 0.257857
-0.091669 0.406814 0.286051
0.145886 -0.477522 -0.141746
-0.288398 -0.246973 -0.434475
0.238481 0.255089 0.425798
0.091022 -0.421320 0.262476
0.148137 0.496597 -0.046157
-0.142243 0.285544 -0.410666
-0.275165 -0.471920 0.155690
0.277728 -0.110162 0.483385
0.131179 -0.489721 0.085126
-0.080155 -0.466093 -0.176478
0.110367 0.088764 -0.492436
0.220537 0.342998 0.359443
0.129661 -0.496878 -0.029081
0.169138 0.414289 0.274846
-0.232388 0.483774 -0.122287
-0.046558 0.026108 0.495114
-0.196926 0.023357 -0.499784
0.102981 -0.284769 -0.410291
-0.010569 0.229064 0.440228
-0.080458 -0.016598 -0.499848
0.155064 -0.274032 0.413236
0.249420 -0.464141 -0.181656
-0.084221 0.173864 0.464615
-0.210724 0.431887 0.246540
0.230749 0.160957 -0.473562
0.069927 0.399014 -0.301101
-0.264886 0.485110 -0.116666
0.135961 0.406009 0.287118
-0.160395 -0.482616 0.118493
0.203102 -0.018258 0.495504
-0.133846 0.424683 0.259102
-0.201124 0.391459 0.306404
-0.072217 -0.283184 -0.411399
0.271910 -0.496736 -0.030829
-0.005334 -0.450642 -0.213141
0.081053 -0.244083 -0.436133
0.012110 -0.325642 0.374084
-0.183418 0.370269 0.331558
-0.120353 0.467789 0.170178
0.202713 0.378838 -0.326218
0.165348 0.384245 0.315269
-0.232824 0.409592 -0.286078
0.221197 0.312901 -0.390249
0.075078 0.005350 0.495929
-0.274935 0.020389 0.495371
0.216370 0.242159 0.433333
0.064873 -0.189015 0.458287
0.124077 0.489856 0.090446
-0.076282 0.492830 -0.077372
0.253477 -0.254421 0.425632
-0.171540 0.383432 -0.320643
-0.144574 -0.340285 -0.365325
-0.171252 0.272689 0.415069
0.140317 0.397736 0.298083
0.224886 -0.473831 0.149429
0.259822 -0.057627 -0.496731
0.119037 0.353039 -0.353915
0.179601 0.111978 0.483140
0.188194 0.100159 -0.490049
-0.278442 0.491305 0.083044
0.003569 0.492254 -0.080722
0.068368 0.369298 -0.336751
0.220671 -0.253619 -0.430423
-0.259309 0.494523 -0.065345
0.134286 -0.003404 0.495772
0.183625 -0.038905 0.494199
-0.282736 0.476802 -0.147403
0.079593 -0.496058 0.037306
0.194183 0.468842 -0.171430
-0.158219 0.418042 -0.273886
-0.251521 -0.497487 -0.003244
0.193371 -0.208433 -0.454189
0.135655 0.176572 0.463599
-0.277543 0.429683 0.250382
0.001264 -0.475470 0.144056
0.149677 -0.404726 -0.291813
-0.273888 -0.065777 0.491355
0.204116 -0.245887 0.430526
0.246450 0.489678 0.091293
-0.062667 0.334358 0.367268
0.272512 -0.058838 -0.496600
-0.231549 -0.190156 0.457811
0.229169 -0.486933 0.100329
-0.116207 -0.393197 -0.307095
0.081641 -0.352292 -0.353608
0.113969 -0.497325 -0.012247
-0.175436 0.446045 -0.224786
0.255887 0.346448 0.356310
0.246919 -0.116608 -0.486149
-0.091172 -0.483772 0.113629
-0.051492 0.074797 0.490298
0.256328 0.284965 -0.411048
0.096933 -0.493892 -0.062433
0.190423 -0.492651 -0.071010
-0.019993 -0.495217 0.045086
0.126536 -0.033849 0.494609
-0.245574 0.217130 0.446393
0.153483 -0.204760 -0.455837
0.236808 0.207585 0.450676
-0.089038 -0.395814 0.299475
0.007313 0.292601 0.401176
0.034102 0.136299 -0.481255
-0.230213 -0.480719 0.126480
-0.075726 0.466572 0.173707
-0.128133 -0.151719 -0.476329
-0.249536 0.464901 -0.181933
0.064874 -0.497275 0.012335
-0.072728 0.320923 0.379192
-0.183520 -0.406782 -0.289018
0.254921 -0.264620 -0.423716
0.123001 -0.143638 -0.478795
0.217708 0.498260 0.012894
-0.179184 -0.152101 -0.476212
-0.210352 -0.417545 0.268667
0.140835 -0.230049 0.439321
0.106185 0.353132 -0.353824
-0.229810 0.349517 -0.357343
0.185308 0.498590 -0.010224
-0.162416 -0.292631 0.400415
0.269711 -0.355846 -0.349957
0.061585 0.118765 -0.486095
0.020985 -0.273321 0.413706
0.191616 0.433409 -0.248681
-0.024760 -0.492750 0.067534
0.233569 -0.096013 -0.490822
0.158605 -0.296987 -0.401746
0.067333 0.465424 -0.180538
0.041665 -0.432864 -0.247402
0.115592 0.335536 0.366201
0.034269 -0.004714 0.495748
0.163047 0.498628 -0.009386
-0.227971 -0.347284 0.354166
-0.290226 0.424040 0.260076
-0.184506 -0.386962 0.310576
-0.103579 0.478080 -0.143214
0.037629 0.458429 -0.197966
-0.171197 0.415312 -0.277899
-0.129824 0.448102 -0.220881
-0.158075 -0.371302 0.329053
0.228786 0.123245 0.480462
0.162457 -0.487879 0.095829
-0.099083 0.426839 -0.259457
-0.211157 -0.482698 -0.122993
-0.215982 0.184025 -0.465148
-0.177314 0.193879 0.456827
0.096044 0.089025 0.487848
-0.138973 0.248974 0.429526
-0.017270 0.021231 -0.499822
-0.216509 -0.319845 0.379058
-0.268798 -0.471806 -0.159917
0.003735 -0.133469 -0.481897
0.246598 -0.342797 -0.363051
0.037398 -0.496360 -0.035475
0.167672 -0.495127 0.045918
0.211860 -0.232407 -0.442281
0.202412 -0.462667 0.180802
-0.095021 0.497917 -0.025223
0.175849 -0.125876 0.479496
-0.235988 -0.457308 -0.198044
-0.243460 -0.323543 0.375884
0.103657 0.141342 -0.479863
-0.200039 0.479380 0.134373
0.077981 0.155794 -0.475343
0.186787 0.002467 -0.500160
0.018780 0.096453 -0.490825
0.209365 -0.494349 0.053119
0.172525 0.488821 -0.100660
0.166714 -0.487602 -0.100666
0.265448 0.112243 -0.487517
-0.207817 -0.008870 0.495673
0.001607 -0.359483 0.342103
-0.178080 0.492199 -0.081040
0.077990 0.330866 0.370431
-0.044378 0.407953 0.284444
-0.167113 -0.446174 -0.222207
0.103143 0.344806 0.357805
-0.119402 0.452325 -0.211567
0.029796 0.101452 -0.489778
0.145652 0.490321 0.088224
0.003984 0.459986 -0.194497
-0.208113 -0.313270 0.384700
0.283526 -0.497105 -0.024486
0.284686 0.031709 0.494863
-0.108229 -0.312720 0.385171
-0.024055 -0.484615 0.110082
-0.091081 -0.386067 0.311700
-0.076748 -0.390558 0.306067
0.223479 0.482290 -0.128535
0.059347 -0.019065 -0.499737
-0.087136 -0.329612 0.370677
0.100757 -0.012030 0.495616
0.143748 0.484227 0.116815
0.145983 -0.463080 -0.184199
-0.030800 -0.495679 0.040810
0.240009 -0.459623 -0.192492
-0.068455 -0.484111 0.112203
-0.136529 -0.495427 -0.046985
0.183512 0.198734 0.454648
-0.190261 0.048774 -0.497836
-0.181905 0.452375 -0.211456
0.195190 -0.195666 -0.459918
-0.028648 0.472964 -0.159980
-0.221765 0.356179 -0.350858
0.219260 -0.152475 0.471781
-0.270124 -0.319414 0.379427
0.174917 0.339622 0.362501
-0.198431 -0.489184 0.088245
-0.268686 0.495678 -0.054663
-0.182590 0.487901 0.099780
0.160347 -0.471681 0.156475
-0.261327 -0.259436 0.422757
0.274441 -0.263948 0.419894
-0.212599 0.150331 -0.477228
-0.117508 -0.482508 0.118952
-0.102753 -0.443359 -0.227920
-0.074024 0.497373 -0.037366
0.134039 0.053490 -0.497454
-0.146334 0.001311 0.495857
0.011245 -0.491957 -0.075813
0.284366 0.235684 0.436742
0.239386 0.424975 -0.262514
0.065049 -0.495296 0.044357
-0.074581 0.472602 -0.161169
-0.241568 0.498279 0.011820
0.041628 -0.389629 0.307233
-0.182329 0.347219 0.355518
-0.058869 -0.407296 -0.288240
0.133631 -0.486314 0.102933
-0.107673 0.099762 -0.490132
-0.095363 -0.488565 -0.096069
0.143392 -0.435856 0.237839
0.109319 -0.486237 0.103259
0.181147 -0.344992 -0.361062
-0.233606 0.400568 -0.298980
0.112765 -0.198428 0.454363
0.189443 -0.483603 0.114342
-0.125593 -0.170815 -0.469728
0.220774 -0.334474 -0.370588
0.112366 -0.464578 -0.180607
-0.158606 -0.229530 -0.443796
0.172546 -0.251959 -0.431434
-0.259947 0.431714 0.246840
0.098943 -0.139674 0.475687
-0.094103 0.484482 -0.119309
0.226540 0.487720 0.100644
-0.288025 0.378151 0.322371
0.174779 0.410788 -0.284368
-0.017274 -0.461447 0.184054
0.268238 0.368081 -0.338094
-0.205802 0.158808 -0.474303
-0.119485 -0.474859 0.146058
0.065660 -0.273433 0.413631
-0.120338 0.496829 0.037978
0.128412 -0.400782 0.292856
-0.168375 -0.496299 0.034112
-0.230523 0.496544 0.041495
-0.117183 0.498495 -0.000191
-0.101006 0.121179 0.480953
-0.226623 0.471466 -0.164436
0.240171 0.495223 -0.058868
-0.050722 -0.031806 0.494775
-0.109571 -0.239817 -0.438380
0.221256 -0.491795 0.073078
0.041574 -0.337490 0.363701
-0.042334 0.274226 0.414028
-0.034307 -0.136168 -0.481074
0.257031 0.138848 -0.480551
-0.112601 -0.004203 0.495757
0.152540 -0.009580 0.495660
0.224081 0.385847 0.313403
0.244863 0.466395 0.174221
0.193784 -0.497573 0.001527
-0.031953 0.044544 0.493902
0.213946 0.306841 -0.394822
-0.250080 -0.239128 0.434402
0.205738 -0.076266 0.489838
-0.254874 -0.402765 0.290019
0.112665 0.411737 0.278712
0.255433 0.273654 0.414427
-0.208764 0.313826 0.384851
-0.028790 -0.489855 0.084350
0.276516 0.396370 -0.304417
0.072030 0.474895 -0.153653
-0.235567 -0.413240 -0.279236
0.092260 0.488386 -0.102880
-0.178947 0.407502 0.285127
0.086921 -0.202187 0.452796
-0.254960 0.228186 0.440690
-0.034348 -0.401662 0.291597
0.245923 0.230897 0.439262
-0.013235 -0.466763 -0.174535
0.192672 0.448759 -0.219515
-0.000785 -0.496767 -0.030450
-0.193497 -0.212488 -0.452370
0.285264 0.473338 -0.158754
-0.246245 0.254939 -0.430277
0.175001 0.161125 0.469395
0.119158 0.466130 -0.178658
-0.271448 0.067166 0.491457
0.047916 0.482469 0.123182
-0.234488 -0.477902 -0.140369
0.002892 -0.049176 -0.497644
-0.081311 -0.485088 0.108093
0.035258 0.404938 -0.292732
0.138812 -0.181360 0.461478
0.080520 -0.319633 -0.383757
-0.114291 -0.493867 -0.062610
0.055606 -0.497602 0.005060
-0.168801 0.111115 0.483345
-0.085168 0.187566 0.459473
-0.200378 -0.291058 0.401602
-0.141271 -0.435286 0.238921
-0.194262 0.424592 -0.263143
0.035418 0.244393 -0.436324
0.150038 0.113700 0.482730
0.063682 -0.073275 0.490270
0.175970 -0.360569 0.340903
-0.125380 -0.073322 -0.494729
0.193024 -0.288209 0.403752
-0.286476 -0.346834 -0.359215
-0.066642 0.035617 0.494687
-0.197511 0.369876 0.332015
-0.059081 0.446723 0.218820
-0.169946 -0.491359 -0.079946
0.274242 0.456028 -0.203316
-0.023091 0.227524 -0.445423
-0.237599 0.426666 -0.259740
0.271184 0.420533 0.265388
-0.113482 0.461759 0.185472
0.203009 0.435106 -0.245563
0.127786 0.487146 -0.108100
-0.079814 0.231562 0.438912
-0.226573 -0.440732 0.228579
-0.146833 -0.380950 -0.322269
-0.155389 0.296025 0.398782
0.221951 -0.403771 0.288581
0.229377 0.349233 -0.357620
0.002013 0.477863 0.139869
0.023513 -0.284445 -0.410517
0.023134 0.259576 -0.427618
0.042692 0.320495 0.379533
0.172759 -0.165055 0.467441
-0.053152 0.055604 0.492707
0.173570 -0.352204 0.349376
0.134499 -0.262147 -0.425223
-0.277196 -0.117128 -0.486026
0.107642 -0.026883 0.495173
0.230033 -0.403709 -0.293160
-0.203454 -0.130044 -0.482942
0.176462 -0.497121 -0.023572
0.126013 -0.101054 -0.489846
-0.229608 -0.451758 -0.210876
0.172838 0.175441 0.464023
0.046552 0.291548 -0.406359
-0.121898 0.423497 0.260898
-0.239323 0.101779 0.485563
-0.165185 -0.202527 -0.456839
-0.227770 0.488463 -0.102558
0.200016 -0.119668 0.481210
-0.235368 0.456167 -0.203006
0.234018 0.233732 0.437770
0.245731 0.023989 -0.499773
0.191240 -0.406657 0.284455
0.016059 -0.195232 -0.460113
0.082265 0.447932 -0.221203
-0.270831 0.450086 0.211996
-0.243591 0.030917 0.494898
0.077456 -0.479551 -0.134393
0.150057 -0.008012 -0.500233
-0.087015 0.248468 0.429834
-0.133585 0.452890 -0.210308
-0.010913 0.423345 -0.265187
0.212195 -0.460250 -0.190987
0.196607 -0.271657 0.414804
-0.013138 0.491415 0.082290
-0.044547 0.108252 0.484025
0.007092 -0.495659 0.040997
0.150685 0.215138 -0.451527
-0.106151 0.447240 -0.222517
-0.109623 0.315523 -0.388000
-0.176141 -0.263264 -0.424543
0.013258 0.376213 -0.329116
-0.115548 -0.494994 -0.052323
-0.065355 -0.184576 -0.464564
0.075244 -0.298723 0.395820
0.115044 -0.415494 -0.275823
0.215824 0.492016 -0.082101
0.273482 -0.312429 -0.389501
0.107028 0.321283 0.378905
0.000844 0.481524 -0.131756
0.207229 0.220946 -0.448665
0.119812 0.320243 0.379734
0.008737 -0.228985 -0.444083
-0.161303 0.446506 -0.223912
0.251506 -0.458507 0.191154
0.213820 0.407560 -0.288983
0.183237 -0.490715 -0.084397
-0.068476 -0.497625 0.004535
-0.106283 0.018232 0.495467
-0.129760 -0.478031 0.135664
-0.106296 -0.381955 -0.321097
0.189381 -0.486399 -0.106408
-0.184351 -0.051491 -0.497394
-0.109742 0.492668 -0.078312
-0.003116 -0.496099 0.036925
-0.205720 0.472642 0.156111
0.103861 -0.201530 -0.457287
0.109110 -0.019163 -0.499733
0.007482 0.337976 -0.368580
-0.286001 -0.391145 -0.309815
-0.091411 0.203940 -0.456845
-0.093350 -0.193707 0.456331
0.236740 0.402989 0.291121
-0.023494 0.466197 0.174793
-0.204828 -0.451936 0.205797
0.166040 0.005285 0.495928
-0.275858 0.486339 -0.111495
-0.288272 0.230647 0.439394
-0.023328 -0.426510 -0.258483
-0.214789 -0.103550 -0.489252
0.126422 0.226840 0.441398
-0.236093 -0.262297 -0.425132
0.115793 0.479294 -0.139235
-0.217633 0.318361 0.381235
0.080002 0.244650 0.432021
-0.237567 -0.489945 -0.089484
-0.234910 -0.030398 -0.499229
-0.226570 0.181427 -0.466231
-0.160543 -0.437051 0.235569
-0.287424 0.347537 -0.359271
0.045141 0.187080 0.459656
-0.066483 -0.306003 0.390327
-0.028626 -0.434611 -0.244355
0.220378 0.445065 -0.226647
-0.170674 -0.236119 0.436128
-0.033436 0.350193 -0.356686
-0.006976 -0.253821 -0.430300
0.017257 0.324837 0.375892
-0.106896 -0.387124 0.310373
0.030748 -0.230233 -0.443426
-0.101840 -0.248448 -0.433575
0.082735 0.483810 0.118323
0.109530 -0.292023 0.400874
0.144066 -0.067089 0.491165
0.113887 -0.233408 0.437665
-0.101100 0.126621 -0.483927
0.141600 0.357451 0.345008
-0.289522 0.498039 -0.022504
0.119383 -0.482087 -0.125209
-0.242374 -0.293941 0.399428
0.003982 0.366970 0.335231
0.018300 -0.136796 -0.480882
-0.245319 -0.125887 -0.483944
-0.230237 -0.166582 -0.471316
0.187883 0.413848 -0.279992
0.200936 -0.497164 -0.021210
-0.143367 -0.262921 0.420571
0.186595 -0.126352 0.479365
0.182004 0.286708 -0.409898
0.177435 0.454231 -0.207320
0.169708 0.484158 0.117064
0.178506 0.426001 0.256803
-0.084870 -0.009107 0.495669
0.256869 0.261403 0.421949
0.065712 -0.394757 -0.305027
-0.187278 0.113000 -0.487359
0.081927 0.440992 -0.234384
0.120304 -0.486283 0.103065
-0.125290 0.012005 -0.499989
-0.037389 -0.226669 -0.445302
0.219506 -0.488732 -0.095274
0.233279 -0.307319 -0.393575
0.262194 -0.334685 0.366324
0.171162 -0.450051 0.209997
0.279180 -0.275345 0.412369
-0.044087 0.388775 -0.313941
0.095327 0.466385 0.174250
-0.093260 -0.170913 0.465421
-0.279639 0.443040 0.226294
0.203829 0.109829 -0.488023
0.036992 0.196167 0.455800
-0.181517 0.487416 -0.106965
-0.005648 0.444254 0.223830
-0.025149 -0.209719 0.449339
-0.094355 -0.003647 0.495767
0.033721 -0.396311 0.298851
0.084718 -0.407799 0.282822
-0.202403 -0.141156 -0.479552
-0.125420 -0.011011 0.495635
0.180750 -0.152876 -0.475976
-0.052641 -0.428148 0.251275
-0.008298 0.384260 -0.319604
-0.221158 0.424345 0.259615
0.088728 -0.037302 0.494329
0.211482 0.017236 -0.499894
-0.067318 0.205207 -0.456317
0.201983 -0.479506 0.130829
-0.242793 -0.436949 -0.240278
-0.063451 -0.437347 -0.239585
-0.005409 0.279081 0.410632
-0.078123 0.031239 -0.499257
-0.205905 -0.114717 -0.486599
0.142685 0.309108 -0.393112
-0.001546 -0.445408 0.219698
-0.026982 0.438275 0.235399
-0.139310 -0.160887 0.468879
0.232961 0.113974 -0.487155
-0.145324 -0.482089 0.120713
0.054310 0.145950 0.474048
0.061234 -0.130325 0.478268
0.248139 0.365064 -0.341425
0.236962 0.080187 -0.493772
0.203447 0.443364 0.225637
0.076620 0.237744 -0.440137
0.014347 -0.470533 -0.163605
-0.041358 -0.375294 -0.328860
0.214604 0.180062 -0.466800
0.130016 0.193029 -0.461394
0.170634 0.287896 -0.409113
0.057327 -0.311873 -0.389945
-0.226594 0.364192 -0.342388
0.197593 -0.469015 0.163883
-0.074579 0.447341 -0.222326
0.009544 -0.394583 -0.305258
-0.035257 -0.458859 0.190371
0.041264 0.213058 -0.452552
0.090278 0.407054 0.285732
-0.213776 -0.392613 0.303490
-0.257828 0.444526 -0.227672
-0.150983 0.173002 0.464938
0.144193 0.393937 -0.307468
-0.240446 -0.491121 0.076993
0.099033 -0.394476 0.301153
-0.028254 0.023689 -0.499778
0.272907 0.289477 -0.407922
0.246395 -0.139225 -0.480141
-0.034356 0.229899 0.439788
-0.096849 -0.497269 -0.015353
0.127078 -0.457006 0.194500
-0.078120 0.377922 -0.327229
0.129569 -0.328281 0.371820
-0.043005 0.195543 -0.460346
-0.222953 0.496280 -0.049092
-0.167218 0.451365 -0.213706
0.117442 -0.386362 0.311329
0.215967 -0.344566 0.356813
0.202773 -0.390382 -0.310825
-0.094815 -0.063986 0.491614
0.169706 0.137724 -0.480861
0.259052 0.223312 -0.447499
0.003393 0.496644 0.040253
-0.125053 -0.488390 0.092857
-0.250428 -0.231661 -0.442674
0.097864 -0.407427 -0.288041
0.260600 0.409729 0.281754
0.027987 0.466150 0.174929
-0.118923 -0.402545 -0.294704
-0.213404 0.431353 -0.252052
-0.243632 0.419292 0.267268
-0.151016 0.377388 0.323261
-0.034366 -0.291602 0.401192
-0.195448 0.181984 -0.465999
-0.281068 0.234531 -0.441970
0.202900 -0.159494 0.469360
0.208947 -0.241560 -0.437462
0.059780 -0.303335 -0.396752
-0.082757 0.269196 0.417198
0.204488 -0.291812 0.401034
0.240451 0.271704 -0.419803
0.044517 -0.044728 -0.498125
-0.018315 0.136919 -0.481084
-0.265955 0.175340 0.464061
0.096996 -0.375190 -0.328982
-0.213025 -0.437156 -0.239917
-0.237457 0.460798 -0.192687
-0.216653 -0.404442 -0.292190
0.286079 0.349910 0.352754
-0.170600 0.230349 0.439551
0.220091 -0.462534 0.181155
-0.038369 0.359682 -0.347368
-0.256916 0.461585 -0.190770
0.266132 -0.302396 -0.397502
-0.065183 0.048918 0.493429
-0.289694 -0.497063 -0.026769
0.077395 0.429765 -0.254657
-0.162509 -0.031081 -0.499198
0.071377 0.481660 0.126115
0.055974 0.018851 0.495439
0.272090 0.432374 0.245689
-0.254510 -0.062516 0.491827
-0.197846 0.421215 0.264354
-0.259078 -0.120478 -0.485230
0.147791 -0.208752 0.449815
-0.244960 0.002111 -0.500167
-0.274095 0.487110 0.103555
0.041135 0.104475 0.484923
0.183349 0.262929 0.421019
-0.038875 -0.102464 0.484998
-0.245887 -0.454229 -0.205429
0.111548 0.433539 0.243658
0.136005 0.476894 0.143379
0.201488 -0.458354 -0.195536
0.267846 0.281447 -0.413371
-0.253658 0.252831 0.427175
0.189401 0.487663 0.100914
-0.265324 -0.495688 -0.043769
0.028848 0.277388 0.411816
0.235378 0.464054 -0.184189
-0.205111 -0.181486 0.461426
0.075965 0.149112 0.473083
0.222027 -0.483562 -0.119866
0.223995 0.494673 0.059766
0.214542 -0.065412 -0.495890
-0.278479 0.479808 -0.137551
-0.209947 0.305671 0.391354
0.131075 -0.468669 -0.169009
0.144873 -0.256340 0.424532
0.020830 -0.487620 -0.100581
-0.256291 0.465185 0.177255
-0.257442 -0.449690 0.210802
0.027817 0.320079 -0.384090
-0.004992 -0.013551 -0.499985
0.208745 -0.302225 0.393178
-0.092140 -0.493547 0.060540
-0.103700 -0.340530 -0.365104
0.279355 -0.170627 0.465519
-0.110817 -0.497153 0.015075
-0.109787 -0.379811 0.319545
-0.241647 -0.421100 0.262835
-0.280550 0.058802 -0.496866
0.034890 0.477774 0.140190
0.001233 0.498298 0.010747
0.237951 0.069572 0.491197
0.040480 0.489306 -0.097841
0.103611 -0.340081 -0.365510
0.280119 0.424140 -0.263884
-0.125869 -0.369085 0.331501
0.032761 0.055219 -0.497314
-0.112433 0.278582 -0.415262
-0.036760 -0.000128 0.495831
-0.054060 0.341814 0.360516
0.046968 -0.014050 -0.499962
-0.171421 -0.124476 -0.484280
-0.203170 0.038381 0.494563
0.043875 -0.128239 -0.483385
-0.059431 0.116403 -0.486646
0.283342 0.491673 -0.084094
-0.110019 0.306821 -0.394837
-0.228712 0.477550 0.141002
-0.009036 -0.271350 0.415007
0.135376 -0.149150 0.472928
-0.201570 -0.200644 -0.457684
-0.016748 -0.462160 -0.186406
0.084761 -0.465907 -0.177018
0.130185 0.228190 -0.445095
-0.245256 0.148658 -0.477805
-0.061775 0.497828 -0.027216
0.183629 -0.414664 0.273007
-0.283677 0.449361 0.213467
0.202893 0.497815 0.025811
0.016256 -0.438116 -0.238244
0.127134 -0.448942 -0.216590
-0.195750 0.448872 -0.219263
-0.257888 -0.363614 -0.341978
-0.162579 0.028981 0.494985
0.256617 -0.455331 -0.202786
-0.120657 0.412911 0.276934
0.249896 -0.102065 0.485081
0.237927 -0.368990 -0.336207
-0.276511 0.273569 0.414487
-0.023468 -0.451932 -0.210522
0.180941 0.385376 -0.318204
0.039712 0.401007 0.293747
0.131380 0.249325 0.429312
-0.164014 -0.171085 0.465361
-0.081322 0.399787 -0.300098
-0.290217 -0.254735 0.425453
0.098431 0.436638 0.238255
-0.254002 -0.074538 -0.494519
0.009454 -0.317465 -0.385485
-0.165563 -0.466665 -0.174821
0.201628 -0.456103 0.196511
0.225510 -0.349392 -0.356587
0.286184 -0.135190 0.476925
-0.143778 0.313239 -0.389959
-0.028327 0.235781 -0.441263
-0.047791 0.496978 0.036136
0.204779 0.270010 0.416702
0.214487 0.101707 0.485580
-0.039825 0.235442 -0.441457
-0.095948 -0.143867 0.474530
-0.186674 -0.347539 0.353918
-0.142289 0.166871 -0.471522
0.259210 0.283428 0.407592
-0.161253 0.002266 0.495874
-0.100388 -0.475389 -0.149472
0.215584 0.029303 0.494971
0.169373 0.467688 -0.174505
0.100370 -0.230548 -0.443260
0.008489 0.443056 0.226262
-0.278466 0.046486 -0.498022
-0.067717 0.465326 -0.180800
0.016106 0.285848 -0.410466
0.001281 0.400763 -0.298701
0.129578 -0.227640 -0.444791
-0.102038 0.417535 0.269930
-0.053983 -0.383664 -0.319105
0.149005 -0.482633 0.118424
-0.126664 -0.497469 -0.004275
0.081175 0.498243 0.013808
0.057250 -0.214774 -0.451343
-0.245268 0.481736 0.125837
0.135143 -0.072993 0.490311
0.001540 -0.384984 0.313057
-0.201743 0.444239 -0.228217
0.008645 -0.206004 0.451169
0.249656 -0.307724 0.389029
0.137477 0.485466 -0.115168
-0.286108 -0.422193 0.261044
-0.007423 -0.104572 -0.489010
-0.020852 -0.156076 0.470539
-0.213434 0.194784 -0.460662
0.057757 0.046193 -0.498045
0.104464 -0.051200 0.493203
0.062593 0.135508 0.477234
-0.176556 -0.476841 -0.144212
0.243961 0.084380 0.488648
0.269760 0.494622 -0.064434
-0.218442 0.015620 0.495584
0.164778 0.026198 0.495110
-0.043024 -0.463363 0.178947
-0.103080 0.375488 0.325475
-0.212268 -0.490633 -0.084962
-0.229671 -0.347148 -0.358891
0.205819 -0.128899 -0.483228
0.024012 -0.404847 -0.291652
-0.146268 0.342781 -0.363901
-0.133251 0.286403 0.405511
0.175158 -0.489310 -0.092515
-0.250675 -0.489370 0.087166
-0.027452 0.495212 0.056044
-0.095685 -0.496403 0.031789
0.210274 0.246705 -0.434998
-0.137094 -0.082841 -0.493090
0.085918 0.495320 -0.057970
0.142532 -0.435923 -0.242067
-0.012484 -0.481105 0.124855
0.249837 0.242572 0.433115
-0.286915 0.183342 0.461059
0.017838 -0.496093 -0.038767
-0.189256 0.471817 0.158501
-0.188877 0.352706 0.349882
0.168041 0.038213 -0.498692
-0.176830 -0.496742 -0.030754
0.125071 -0.462464 0.181342
0.126281 0.274245 0.414014
0.206430 0.455668 0.200082
0.170301 0.301485 0.394691
0.003808 -0.411104 -0.282472
-0.255139 0.047532 -0.497937
0.249175 -0.482915 -0.122207
0.058944 0.085088 0.488526
0.218560 -0.287864 0.404012
0.185891 0.370192 0.331647
-0.254284 -0.410476 0.278995
-0.121077 -0.497167 -0.021042
-0.286759 -0.073385 0.490254
0.188961 0.443897 -0.228866
-0.019717 -0.229835 0.439426
0.191270 0.145521 -0.478709
-0.183673 0.478475 -0.141919
0.237001 -0.430488 -0.251545
-0.211823 -0.372649 -0.331942
-0.108534 -0.033515 -0.499089
0.212426 -0.372780 0.327421
0.054290 -0.493104 0.064637
-0.008214 -0.069344 0.490839
0.003217 -0.488473 0.092375
0.047129 -0.130339 0.478264
-0.032739 0.166097 -0.471789
0.269698 -0.279659 -0.413864
-0.208752 -0.339626 -0.365923
-0.266428 -0.492257 0.070392
0.135099 0.432084 0.246196
-0.168078 0.489499 -0.096723
0.054155 -0.264747 0.419366
-0.160737 0.018115 -0.499878
0.218502 -0.486548 -0.105696
-0.163635 -0.431984 -0.248936
0.012962 -0.282047 0.407945
0.106560 -0.481987 -0.125569
0.046028 0.406153 0.286926
0.211913 -0.348465 -0.357539
0.108465 -0.308895 -0.392320
-0.288998 -0.098624 0.485802
-0.139692 0.421952 -0.267472
-0.154937 0.430970 0.248138
-0.122566 0.273790 -0.418426
0.164929 -0.275247 -0.416950
-0.021171 -0.496346 0.033051
0.010398 -0.448149 -0.218199
-0.006528 -0.003340 0.495773
0.148110 0.152694 -0.476412
0.047451 -0.304384 -0.395916
-0.104649 0.257469 0.424347
0.247054 0.377187 0.323495
-0.210937 0.098428 -0.490411
-0.160585 0.436489 -0.242936
0.031706 -0.015723 0.495550
0.028516 -0.362725 -0.342891
0.208425 -0.256486 0.424448
-0.036084 -0.217792 0.445361
-0.279331 0.114142 -0.487119
