0.271928 -0.268190 0.417093
-0.203749 -0.180910 0.461666
0.022954 0.496589 0.040940
-0.199671 0.118581 -0.486146
0.107743 0.475442 0.147993
-0.286876 0.490694 0.086447
0.129659 0.154994 -0.475619
-0.188493 -0.485052 -0.112837
-0.252445 -0.163735 0.467897
0.150412 0.410054 -0.285416
0.133468 0.102422 0.485411
-0.287017 -0.027293 -0.499368
-0.175696 0.498614 -0.009694
0.108643 -0.377691 0.321999
0.188385 -0.130970 -0.482660
-0.211274 -0.469389 -0.166922
-0.161895 0.206727 -0.455671
-0.290236 0.367890 0.334286
-0.263183 -0.283005 0.407312
-0.152216 -0.163647 0.467927
-0.143507 -0.493252 -0.066855
0.049830 -0.464737 0.175284
0.284849 -0.479537 0.130726
0.072846 -0.497111 0.016001
0.066433 0.351900 0.350709
0.072296 0.498616 -0.006870
0.177700 -0.463719 -0.182667
0.227540 -0.164575 -0.472069
-0.047117 -0.288234 -0.407867
0.025995 -0.025158 0.495313
0.252096 0.385150 -0.318487
0.002233 0.377350 0.323305
-0.199045 0.488494 0.096947
0.274892 -0.227093 0.440778
-0.044580 0.498485 0.000398
-0.197774 0.164489 0.468133
0.177946 0.084467 0.488633
0.022303 -0.463904 -0.182223
0.027512 -0.145424 -0.478250
-0.101426 -0.401310 -0.296341
-0.229329 0.165004 0.467940
-0.114985 0.005756 -0.500101
0.264621 0.386029 0.313190
0.012739 0.193099 0.457177
-0.092872 0.426532 0.255878
0.269784 0.259603 -0.427602
-0.033171 0.349539 0.353135
0.135642 -0.459400 0.189165
0.057536 0.431664 0.246928
0.283316 0.136006 -0.481336
-0.122838 -0.118138 0.481632
-0.080592 0.124708 0.480115
0.174500 0.493649 0.066845
-0.231596 -0.100295 0.485452
-0.206293 0.316656 0.382595
0.181628 0.319483 0.380340
-0.014379 0.438527 0.234960
0.137187 -0.484884 0.108953
-0.186243 -0.357762 -0.347990
-0.132279 0.098945 -0.490303
0.257827 -0.066802 -0.495739
-0.169150 -0.464793 -0.180090
0.189030 0.173769 0.464651
-0.218636 0.493791 -0.071788
-0.265546 0.350733 -0.356159
0.106826 -0.390598 -0.310540
0.233518 0.276519 -0.416624
0.184426 0.228538 -0.444923
-0.253552 0.099650 0.486019
0.073248 -0.012223 0.495613
-0.290052 0.497693 0.027312
0.161721 -0.454993 -0.203597
0.185006 0.020362 0.495372
0.089020 -0.306177 0.390197
-0.255040 -0.450496 -0.213436
0.185129 -0.203055 0.452433
0.021711 -0.165459 0.467302
0.281566 0.343908 0.358618
0.134310 -0.491703 -0.077563
0.012371 -0.444756 -0.225084
-0.214560 0.485946 -0.113148
-0.202874 -0.494074 -0.061176
-0.272071 -0.123858 0.480053
0.282249 0.335477 -0.370878
-0.273181 0.495786 0.050843
-0.256331 0.486693 0.105545
-0.036443 -0.490313 0.081686
-0.089883 0.002707 0.495882
-0.231761 0.467691 -0.174497
-0.081047 0.130748 -0.482787
-0.200227 -0.039112 0.494183
-0.112876 0.422993 -0.265766
0.180470 0.272366 0.415265
-0.261477 0.253036 -0.431368
-0.278610 -0.340849 -0.364814
0.152090 -0.321891 -0.381956
-0.140174 -0.275873 -0.416512
-0.020547 -0.496275 -0.036516
0.049085 0.071792 0.437299
-0.032299 -0.292270 -0.337587
0.023997 -0.391503 0.209121
-0.047329 0.037768 -0.445855
0.090499 -0.405226 0.181249
-0.027635 0.048741 0.440464
0.023772 -0.409614 0.171109
0.224284 -0.358899 0.260872
-0.187910 -0.329211 -0.301409
-0.066798 0.407210 -0.183386
-0.108393 0.318681 -0.313637
0.243988 0.405892 -0.186431
0.116489 -0.257939 0.360477
0.180988 0.443662 -0.045021
0.233266 -0.037804 0.441401
-0.055191 0.433876 -0.104352
0.083762 -0.269011 -0.356566
0.085017 -0.052744 0.439989
0.035381 0.445827 -0.005997
-0.195105 -0.326866 0.299715
0.262866 -0.045072 -0.445068
0.098150 0.367107 0.250476
-0.031815 0.145575 -0.423141
0.065656 -0.316687 -0.314607
0.237575 -0.051755 0.440083
-0.134285 -0.098797 -0.436180
0.224481 -0.433999 -0.099214
0.286791 0.352145 -0.275254
0.247447 0.442512 0.052838
0.259561 0.432459 0.106337
0.071136 0.420560 0.145432
0.032619 -0.441578 -0.056235
-0.211074 -0.372998 0.240299
-0.081634 0.054362 -0.444286
0.116700 -0.443214 -0.038928
0.029851 -0.393582 -0.209394
0.261069 -0.377892 -0.236945
0.025407 -0.062694 0.438577
0.050592 -0.344331 -0.284006
-0.289400 -0.441601 -0.055985
0.155427 0.445855 0.000763
0.197060 -0.382297 -0.229496
-0.178102 -0.001710 -0.447542
-0.279208 0.121685 0.426243
-0.110697 0.329699 -0.302018
0.193726 -0.363036 0.254958
0.264515 -0.381354 0.226738
-0.174452 0.276803 0.346964
0.180563 0.313690 0.314275
0.165511 -0.431604 0.105576
-0.050863 -0.325693 0.301046
-0.261661 0.038767 -0.445761
0.235412 -0.385276 -0.224459
-0.009576 0.388878 0.215748
0.221984 0.016591 0.442753
-0.121211 -0.441704 0.050546
-0.053640 0.414371 -0.166836
0.164250 -0.321635 -0.309659
0.277385 0.426712 -0.130993
0.283565 0.299060 0.328151
0.104497 0.290966 -0.339640
0.158587 -0.379558 -0.234128
0.077862 -0.302412 0.324292
0.180882 -0.106837 0.430030
0.011691 -0.098474 -0.436253
0.102857 -0.268685 -0.356818
-0.016544 0.086393 0.434829
0.001128 0.433751 -0.104909
0.282433 -0.001235 0.443203
0.003348 0.426667 -0.131148
-0.188020 0.445682 -0.010628
0.053681 0.445612 -0.012839
-0.285996 -0.386134 -0.223009
-0.159891 -0.330038 0.296117
0.078011 -0.285062 0.339588
0.143991 0.336302 0.290176
-0.186554 -0.216900 -0.390845
-0.028612 0.239735 -0.377898
0.076653 0.356530 -0.269601
-0.036360 0.224411 -0.387009
0.104562 -0.044423 0.440776
-0.138554 -0.168356 0.409861
0.167534 -0.364635 0.252606
-0.001025 -0.140179 0.420361
-0.095879 -0.441678 0.050821
-0.200011 -0.414624 0.159073
0.081691 -0.162902 -0.416534
0.021567 -0.370277 -0.248658
0.161562 -0.369660 0.245211
0.267304 0.402414 0.189718
0.176178 0.072131 0.437245
0.127289 0.401422 -0.196018
-0.044693 0.036133 0.441656
-0.225725 0.445884 -0.004202
-0.233284 -0.276166 -0.351016
-0.054228 0.445107 -0.028922
0.120907 0.395094 -0.208437
0.144707 0.128134 0.424370
-0.112579 0.379726 0.231223
0.071037 0.156357 0.414906
-0.026742 0.096203 -0.436989
-0.071749 -0.402687 -0.191469
-0.225665 0.392433 -0.213660
0.112679 0.155787 0.415111
-0.274912 -0.335549 0.289867
-0.121398 0.074970 -0.441149
0.074966 0.020039 -0.446998
0.104613 0.265351 0.355846
-0.045455 -0.273617 0.348640
0.275955 -0.023638 0.442499
-0.104770 0.445852 -0.005219
-0.134223 0.443301 -0.048844
0.192798 0.112059 -0.433394
-0.096074 -0.152768 -0.420182
0.042148 0.302050 -0.329868
-0.016927 -0.001129 -0.447560
0.262906 0.352956 -0.274209
-0.148520 0.043811 0.440930
0.135866 0.283247 0.341965
-0.026880 0.390479 -0.217394
0.017463 -0.441677 -0.055187
0.031729 -0.252962 0.363860
-0.098266 -0.073364 0.436887
-0.172631 -0.356833 0.263536
0.092443 0.411381 -0.173746
0.286399 0.445315 -0.022301
-0.089059 -0.048531 0.440387
0.094169 -0.437503 0.078318
-0.007746 0.006837 0.443060
-0.157837 -0.142047 -0.424042
0.249129 -0.320499 0.306441
0.102508 -0.365332 -0.255933
0.094633 -0.270054 0.351403
-0.128986 -0.242239 0.371147
0.156971 0.393698 -0.211178
-0.160549 -0.250515 0.365523
-0.068308 -0.040765 -0.445475
-0.189872 0.399184 0.196057
0.096529 0.373240 -0.245805
-0.038079 -0.004899 -0.447442
0.156789 -0.402915 -0.190943
0.111723 -0.309747 0.317193
-0.251347 -0.444770 0.002680
-0.067215 -0.169827 0.409225
0.226504 -0.165240 0.411209
0.005010 0.366637 0.251167
0.183822 -0.424224 -0.136030
-0.038916 0.170504 0.409375
-0.046213 0.299486 0.327775
-0.231071 0.287624 -0.342586
0.116273 -0.117675 0.427111
-0.251326 -0.426293 0.124554
-0.262084 -0.376356 -0.239542
0.128122 -0.049233 -0.444674
-0.154933 0.342806 -0.287152
-0.082380 -0.284818 -0.344156
-0.000355 -0.439065 0.068461
0.026010 0.041634 0.441136
0.097332 -0.376655 -0.239036
-0.147407 0.023339 0.442541
-0.267179 -0.444455 -0.017049
0.146622 0.396586 -0.205509
-0.119813 0.078723 0.436201
0.048449 0.445475 0.012853
0.069769 0.371570 -0.248262
-0.131399 0.116430 0.427770
-0.116635 0.441135 -0.066216
0.265370 -0.438354 -0.077300
-0.229378 0.403016 0.188536
-0.266831 -0.371240 -0.247240
-0.063635 0.426559 0.127165
0.129595 0.444360 -0.037643
-0.249835 -0.138580 -0.425290
-0.262227 -0.043400 0.440872
0.240623 -0.333252 0.292472
0.160713 -0.133293 0.422573
0.125081 0.330822 0.296391
0.026003 0.445225 0.020801
-0.055899 -0.256864 0.361208
0.259511 -0.369393 0.245604
-0.092123 -0.444428 -0.017922
-0.136972 0.443795 0.039265
-0.146385 0.395119 0.204036
0.118565 -0.338517 -0.290853
0.279913 -0.210198 0.390138
0.205020 0.411087 0.170072
-0.133580 -0.033883 0.441772
-0.120793 0.167606 0.410629
-0.199582 -0.439966 0.062767
0.054131 0.332258 0.294762
0.238515 -0.191529 0.399650
-0.072066 0.306019 0.321946
-0.193128 0.440564 -0.069815
-0.008028 -0.304973 0.321967
-0.201620 0.323198 -0.309120
-0.202723 -0.298609 -0.331998
-0.015483 -0.057261 0.439438
-0.269151 0.310414 0.317551
-0.240071 0.263391 -0.361720
0.156616 0.356798 0.264902
0.229174 -0.226091 0.381056
0.045360 -0.187724 -0.405833
-0.152767 0.274455 0.348785
-0.044945 0.182741 -0.408433
0.189490 0.432847 -0.108953
-0.017755 0.103533 0.430998
-0.288284 -0.444349 -0.020442
0.159396 -0.398530 -0.199683
0.153475 -0.117093 -0.431633
0.109749 0.377019 0.235801
-0.177979 0.079020 -0.440507
0.015167 0.085204 -0.439448
0.286704 0.380703 -0.233924
0.201673 -0.260807 -0.362882
-0.128269 0.262120 0.358332
0.259117 -0.440762 0.057741
-0.025157 -0.435350 0.088816
-0.218780 -0.442064 0.046732
-0.028387 -0.438534 -0.076165
-0.228829 0.092535 -0.437809
0.128396 -0.433015 0.099263
0.198890 -0.342091 0.282447
0.058739 -0.125818 0.424745
0.254329 0.300216 -0.331485
0.110546 -0.287776 0.337195
0.145374 -0.083977 0.435140
0.272515 -0.052909 0.439973
-0.151823 0.366502 -0.255720
-0.204158 -0.437108 0.080815
0.116460 -0.196645 -0.401396
0.124302 -0.253572 -0.367798
-0.170370 0.434627 -0.100989
0.022393 0.293725 0.332854
-0.214794 -0.334986 0.290506
0.114038 -0.278882 0.344556
-0.139920 -0.111306 -0.433315
0.184205 -0.052946 0.439970
-0.044185 -0.345312 -0.282742
0.227761 -0.258364 -0.364542
-0.138812 0.320769 0.307196
0.229907 -0.265654 0.354817
0.137268 -0.329812 0.296375
-0.069703 0.433899 0.099894
-0.023202 -0.341933 0.282626
0.140296 -0.308895 0.318046
0.175970 -0.225218 -0.385926
0.039754 -0.220254 -0.388861
0.063415 -0.205822 -0.396721
-0.203529 -0.371588 -0.246728
0.236538 0.068870 0.437761
-0.078595 0.414940 0.161042
-0.182601 -0.424116 -0.136402
-0.054230 0.444014 0.036945
0.196927 -0.436170 -0.089503
0.059837 -0.416298 0.154424
-0.150711 -0.356343 0.264167
-0.199057 0.021511 0.442598
0.054060 0.395147 0.203980
-0.118233 0.443217 0.045381
-0.174749 0.226684 -0.385665
0.189261 0.160864 -0.417636
-0.272450 0.101215 0.431516
0.126805 -0.429504 -0.117856
-0.045992 -0.421121 0.141028
0.009670 -0.057372 0.439420
-0.102405 0.393568 0.207080
-0.273835 -0.444829 -0.005167
0.256291 -0.181355 0.404236
-0.040158 -0.338230 0.286826
0.072187 -0.017270 0.442699
-0.168447 0.283320 -0.346261
0.069237 -0.394800 -0.207004
-0.128976 0.283707 0.341608
-0.182360 0.107456 0.430121
-0.051296 -0.202037 -0.398649
-0.203148 0.006782 -0.447415
-0.071718 0.417214 -0.159079
0.017508 -0.290237 -0.339379
0.285278 -0.302694 0.324043
0.119558 -0.428583 0.116672
0.010318 -0.025573 0.442439
-0.185029 -0.279560 0.344030
0.105275 -0.168088 -0.414330
0.274643 0.172911 0.408333
0.157237 -0.444188 0.021214
-0.284130 -0.074339 0.436733
0.266291 0.400865 -0.197110
0.064206 0.235824 0.375906
0.222407 -0.212656 -0.393239
-0.262870 0.441515 -0.063815
0.263939 -0.443899 0.027324
0.200456 -0.331465 -0.298853
0.034237 0.175270 -0.411666
0.244982 0.353152 0.269602
0.138910 0.445040 -0.030449
0.214275 0.097860 -0.436619
-0.238592 0.373484 0.241092
-0.071389 0.325463 -0.306824
0.068442 -0.028965 0.442237
-0.060193 0.335048 0.291598
0.040513 -0.313114 0.313826
0.235297 0.402611 0.189330
0.139409 -0.442481 -0.046678
0.202733 0.030309 0.442207
0.105602 -0.195627 -0.401916
-0.030938 -0.182147 0.403893
-0.090748 -0.006575 0.443036
-0.251346 0.433663 -0.105304
0.179848 0.366719 0.251048
0.276421 0.408068 -0.181402
0.033003 0.264762 -0.360657
0.262883 0.419006 0.149749
-0.012812 0.436538 -0.092439
0.016753 -0.444180 -0.025810
0.099097 -0.402501 0.187536
0.215004 0.440943 0.063070
-0.176130 -0.303462 -0.327719
0.205109 -0.420896 0.141652
-0.273190 0.014371 0.442823
-0.275407 -0.292267 -0.337590
0.057517 -0.443131 -0.039802
0.253308 -0.400965 0.190551
-0.244987 0.239676 -0.377938
-0.193217 0.410294 0.171906
0.255203 -0.306331 0.320609
-0.289141 -0.429174 -0.118992
0.171810 -0.097598 0.432095
-0.258037 0.445731 -0.009052
0.233124 0.445483 0.012609
-0.224057 -0.190975 -0.404286
0.267101 0.164178 -0.416443
0.119033 0.445359 0.016551
0.186140 -0.040811 -0.445470
-0.175167 -0.390006 0.212059
-0.235714 0.200829 0.395434
0.062846 -0.092376 -0.437616
0.054420 -0.284225 -0.344679
0.010626 0.413170 -0.169613
-0.085580 -0.411157 -0.171896
0.274786 -0.385013 -0.224903
0.143038 0.145163 0.418936
-0.146600 0.444559 0.031186
-0.073099 -0.268563 0.352560
-0.260336 -0.274463 -0.352337
0.026938 0.425104 -0.136528
0.269316 -0.374676 0.237831
0.030212 0.073381 0.437047
-0.258236 0.421645 0.142418
-0.248367 0.321591 -0.310727
0.241523 -0.117414 0.427187
-0.171195 0.086218 0.434868
0.123430 -0.424445 -0.135267
-0.115861 -0.338220 0.286837
-0.179610 0.374186 0.240060
0.079550 0.035753 0.441692
-0.259507 -0.238622 -0.377959
0.013185 0.159093 -0.418274
-0.000192 0.340136 0.285826
-0.032719 -0.097036 0.432221
0.236605 0.020984 -0.446968
-0.268325 0.037740 0.441504
-0.106352 0.443354 0.043930
-0.106619 0.093034 0.433344
0.098675 0.440532 -0.070021
-0.191215 0.438977 -0.079838
-0.169411 0.215984 -0.391993
-0.115000 0.396984 -0.204729
-0.125658 -0.285290 -0.343740
-0.052277 -0.361427 0.257326
-0.221469 -0.296186 -0.334134
-0.165322 -0.333291 -0.296782
0.217226 -0.013056 0.442832
-0.027789 0.206037 -0.397133
0.112727 0.187646 -0.406310
0.124634 -0.400790 -0.195247
0.122425 0.316404 0.311561
0.122271 -0.039184 -0.445624
0.238147 0.383986 0.224020
-0.103300 -0.085622 0.434772
0.176625 0.229956 0.379376
-0.077963 0.243425 0.371037
0.000149 0.351317 -0.276321
-0.250006 -0.264366 -0.360169
-0.114097 -0.390619 0.210855
0.130718 0.409086 -0.179049
0.133363 -0.423875 0.132877
0.092223 -0.443491 0.031637
-0.185453 0.444872 0.027871
0.175010 -0.047300 0.440504
0.186633 0.190197 0.400851
0.167426 -0.278968 -0.348843
0.284285 0.444723 -0.033802
-0.074602 -0.436240 0.084835
-0.233543 0.191265 0.400307
-0.229657 -0.134210 0.422307
-0.205417 -0.367785 0.247970
-0.063044 -0.387980 -0.219887
-0.048558 -0.411987 0.165626
0.020401 -0.421470 0.140058
-0.278281 -0.199264 -0.400063
-0.149121 -0.430005 0.111778
0.230092 0.081751 0.435721
-0.235591 -0.069955 -0.441781
-0.289138 0.139435 0.420998
0.259319 0.443400 0.043439
0.219166 0.345351 -0.284012
0.087903 -0.389694 -0.216989
0.011079 0.439846 -0.074352
-0.177620 -0.036236 0.441550
-0.278350 -0.220659 -0.388622
0.204045 -0.279338 -0.348555
-0.078455 0.409551 -0.177975
-0.248341 -0.430946 -0.112874
0.207365 -0.050775 0.440175
-0.175527 -0.439739 0.064205
-0.027035 -0.002162 -0.447528
-0.248132 0.332896 -0.298392
0.026863 -0.192766 -0.403373
-0.076033 0.443578 -0.045909
-0.165971 0.057118 0.439623
-0.158770 0.377424 -0.239468
-0.138901 -0.415971 0.155331
0.143694 -0.444819 -0.005489
-0.237396 0.228086 -0.384836
-0.018100 0.442576 -0.056511
0.161105 0.263796 0.357053
-0.194882 0.131939 -0.427618
-0.234302 0.344067 0.281314
-0.206644 -0.073557 0.436857
0.039551 -0.068157 0.437712
-0.177727 0.010087 -0.447311
0.144044 -0.223336 -0.387039
-0.128994 -0.014115 0.442799
-0.031727 -0.198898 -0.400249
-0.115663 0.120101 0.426703
0.237982 -0.437491 0.078398
-0.254751 0.385790 0.220969
0.183739 0.256502 0.362150
0.236100 0.033319 -0.446276
-0.153121 0.195591 0.398103
0.253938 -0.444455 -0.017042
0.226496 -0.287200 -0.342056
-0.062933 -0.363312 0.254553
-0.081975 -0.382071 -0.229878
-0.130145 0.443049 0.047161
0.181425 0.137050 0.421779
-0.193319 0.250087 0.366510
0.152663 -0.373529 0.239518
-0.258118 0.220924 -0.389072
0.051497 0.396015 -0.206631
0.108200 -0.268337 0.352735
0.176962 -0.421340 -0.144773
-0.021862 -0.426080 0.125288
0.171197 -0.158434 0.413789
0.053243 -0.188213 0.401268
0.151371 -0.001120 0.443207
0.023914 -0.440369 -0.064577
0.089852 0.419647 -0.152321
-0.248944 0.196418 -0.402034
-0.218837 0.172818 -0.412727
0.248365 0.443434 0.043080
-0.248585 -0.360425 -0.263153
-0.020906 -0.134893 0.422108
0.283667 -0.418207 0.149120
-0.024253 0.193508 0.399164
0.253821 -0.204686 0.392946
-0.108088 0.142596 0.419860
0.247967 -0.430122 0.111376
0.251244 0.443702 -0.044599
0.187583 0.399956 -0.198895
-0.063381 0.412124 -0.172031
0.014007 0.272234 -0.354861
-0.032723 -0.108601 -0.433989
0.066294 -0.324766 0.302098
0.142491 0.408426 -0.180576
-0.191488 0.300893 0.326535
-0.252042 -0.351908 0.269885
0.128210 -0.099088 0.431762
-0.205513 -0.012172 0.442860
-0.189024 0.024770 0.442496
-0.183813 0.242198 0.371871
0.192544 0.445466 0.013148
-0.138198 -0.331828 0.294088
-0.055845 -0.429433 -0.118100
-0.181481 0.131847 -0.427645
-0.032113 0.235194 0.376279
0.030175 -0.442086 0.046501
0.108006 0.357341 0.264202
-0.185974 -0.406812 0.177583
0.082302 -0.115337 -0.432143
0.161180 0.029549 0.442278
-0.207283 0.340827 0.285043
0.105777 -0.053958 -0.444228
0.201255 0.246661 0.368838
-0.001286 0.220128 0.385189
-0.065892 0.099911 0.431807
0.080556 0.141683 0.420189
0.171084 -0.110142 0.429291
-0.078790 0.226984 -0.385488
0.080375 -0.388886 0.214002
-0.140353 0.319488 -0.312830
-0.097667 0.074955 -0.441151
-0.177203 -0.157334 -0.418538
0.132085 -0.375119 0.237179
-0.060985 -0.362629 -0.259911
-0.156819 -0.275430 0.347234
0.025393 0.445192 -0.026216
0.174104 0.420819 -0.149066
-0.261046 -0.194521 0.398125
0.076340 0.367382 0.250071
0.106736 -0.347634 0.275395
-0.242654 -0.443991 0.026353
-0.121240 0.366179 0.251842
0.209948 0.267967 -0.358171
0.112088 -0.124922 -0.429359
0.150210 0.443980 -0.041659
-0.078903 -0.390281 0.211518
-0.219087 0.023534 0.442535
-0.113373 -0.418745 0.147627
-0.002426 0.312499 -0.319820
0.030295 0.293214 -0.337658
-0.068355 0.441362 -0.064783
0.070441 -0.310147 -0.321147
-0.067247 0.013891 0.442838
-0.284127 -0.442488 0.042253
-0.226324 -0.253852 -0.367608
-0.195802 -0.444541 0.009969
0.148319 0.154290 0.415650
-0.118667 -0.263265 0.356670
0.060440 -0.340953 -0.288091
0.201140 0.342788 -0.287171
0.007839 -0.402353 0.187826
-0.126426 0.441970 -0.060942
0.192811 -0.322724 -0.308570
0.100648 -0.000867 -0.447568
0.103887 -0.444608 0.007831
-0.068699 0.157244 -0.418940
0.240525 0.266037 -0.359668
0.200714 0.437054 0.085777
-0.191490 0.177780 -0.410580
-0.272610 -0.442031 -0.051439
-0.185333 -0.238217 0.373881
0.178742 -0.216119 -0.391307
-0.207495 -0.442768 -0.043639
0.018670 0.313815 0.314150
-0.058788 0.153535 -0.420275
0.284639 -0.443965 0.026623
-0.207291 0.407322 0.178772
0.215081 -0.282263 -0.346286
-0.013709 0.072087 -0.441605
0.176966 -0.443320 0.033449
0.108087 0.374918 -0.243336
0.286026 -0.180075 0.404790
-0.120315 0.344512 0.280741
-0.022086 0.435317 -0.097905
0.154118 -0.105962 0.430225
0.265952 0.085486 -0.439385
-0.227453 -0.054121 -0.444212
0.199673 0.177051 0.406542
-0.013736 0.422233 0.140785
-0.194392 0.088524 -0.438706
-0.040102 0.423572 -0.141420
-0.197738 -0.172578 0.408034
-0.238844 -0.444481 -0.016217
0.090515 0.442013 -0.060671
-0.177447 -0.142172 0.419644
0.273727 0.114400 -0.432713
-0.161235 -0.031528 0.441995
0.210170 0.443245 0.045080
0.254414 -0.280079 0.343628
-0.163261 0.225965 0.381737
0.282140 0.123708 -0.430009
-0.116342 0.323853 -0.308465
0.228518 0.439354 -0.077460
-0.063650 0.280582 0.344032
0.088016 0.425729 -0.134377
-0.249545 0.373555 0.240988
-0.195098 -0.346863 0.276389
-0.204349 0.283256 -0.346311
0.035044 0.438689 0.077301
0.011472 -0.443010 0.036727
0.031817 0.037505 -0.445880
0.272270 -0.006305 -0.447398
-0.274042 -0.292520 0.333013
-0.004779 -0.316924 0.310017
-0.193884 0.166220 -0.415582
0.282811 -0.440919 0.056750
0.038734 0.021670 -0.446947
-0.287230 0.235494 -0.380455
-0.233832 -0.386917 -0.221685
0.286552 0.384164 0.223720
0.134078 0.397753 0.198865
0.081468 0.219304 -0.390030
-0.131766 -0.441842 0.049088
0.123754 0.078541 -0.440583
-0.191237 -0.145782 -0.422698
-0.084026 0.145475 0.418823
-0.213038 -0.243842 0.370058
0.124323 -0.149260 0.417092
-0.266619 0.369676 0.246697
-0.193707 0.138009 0.421501
0.232183 -0.201307 0.394668
0.265897 0.345022 -0.284436
0.205374 -0.348885 0.273782
0.042605 -0.362638 -0.259897
0.125019 0.294463 -0.336557
-0.037047 0.021052 -0.446966
0.277216 0.286890 -0.343233
-0.059331 -0.031289 -0.446371
-0.214271 0.009095 -0.447342
0.145094 -0.235519 0.375481
0.274472 0.435961 -0.095020
0.172988 0.429014 -0.123069
0.277831 -0.441945 -0.052349
-0.214986 -0.443694 -0.033845
0.157744 0.339396 -0.291019
0.243138 -0.047265 -0.444860
-0.093513 0.280503 0.344093
-0.202375 0.439559 0.071808
0.214440 0.323434 0.304531
-0.004606 0.363038 0.256464
0.284887 0.435520 -0.096994
-0.241525 0.443068 0.046960
0.181227 0.308208 -0.324111
-0.090817 -0.301730 0.324893
0.091954 0.360560 -0.264405
0.256184 0.408056 0.177076
-0.277910 -0.316034 -0.315260
-0.181311 -0.262048 -0.361967
-0.275981 0.266104 -0.359616
-0.204474 -0.307315 -0.323979
-0.030515 -0.410721 0.168549
-0.087169 0.127310 0.424609
0.019401 0.001847 -0.447570
-0.074350 0.234430 0.376731
-0.117583 0.366394 -0.255879
-0.125310 -0.402162 0.188201
0.174175 -0.437008 0.081401
-0.004951 0.087038 0.434685
-0.131646 0.333965 0.292826
0.139412 0.265100 -0.360395
0.121028 -0.436044 0.085713
-0.289343 0.376689 -0.240711
0.224786 -0.059799 -0.443389
0.026086 -0.049022 0.440341
0.231883 0.126895 -0.429083
0.016386 0.213204 -0.393482
-0.030984 0.426065 0.128867
0.241854 -0.322299 -0.308994
0.178552 0.377673 0.234695
-0.169244 -0.444909 -0.002616
0.196453 0.162469 0.412705
0.263069 0.434878 -0.099868
0.270379 0.182363 0.404243
0.180434 -0.156176 -0.418955
0.125575 -0.220549 -0.388687
-0.072706 -0.122444 -0.430079
0.252271 0.132938 -0.427328
0.114989 0.438741 -0.081326
-0.166110 -0.439242 0.067343
-0.278148 0.210806 0.390350
-0.095958 -0.293334 0.332296
0.182882 -0.119758 -0.430859
-0.196113 0.114159 -0.432783
-0.097501 -0.393216 -0.210112
-0.208941 -0.294009 0.331700
-0.106108 -0.346713 -0.280935
0.020065 -0.277881 0.345332
0.249666 0.412024 0.167909
0.217495 0.059039 -0.443672
-0.136082 -0.411545 0.166646
0.203513 0.186453 0.402473
-0.046013 0.434851 0.095636
0.157796 -0.415347 0.157064
-0.263337 -0.119461 0.426592
-0.213319 0.267494 0.354184
0.107867 -0.089735 -0.438206
-0.123417 0.445927 -0.002817
0.194606 0.056442 -0.444083
0.105837 0.111052 -0.433670
0.231385 -0.178420 0.405506
0.180392 -0.437213 -0.084504
0.197074 0.360188 -0.264884
0.160081 0.157549 0.414477
-0.139723 0.399104 -0.200567
-0.197493 0.255810 -0.366974
-0.043142 0.069566 -0.442005
0.286827 0.410633 -0.175474
-0.262890 -0.226410 -0.385221
-0.212395 0.435145 0.094320
-0.026348 0.248899 0.367317
-0.121257 0.317589 -0.314730
-0.171928 0.433379 0.102221
0.179598 -0.321627 0.305313
0.147592 0.329496 0.297895
-0.230067 -0.313552 -0.317741
-0.105575 -0.439027 0.068696
-0.136346 -0.202070 -0.398632
-0.249696 -0.223179 0.382778
0.040246 -0.240707 -0.376541
-0.000403 0.243339 -0.375449
-0.191352 0.350633 -0.277204
-0.123233 0.267491 -0.358540
-0.112410 0.311595 0.316370
0.239658 -0.325484 0.301283
0.202839 -0.022886 -0.446876
0.189757 0.445868 0.000352
-0.083503 -0.182406 -0.408135
0.215406 0.151331 0.416715
0.179080 -0.286292 -0.342857
-0.128604 -0.436019 -0.090179
-0.245757 -0.279995 0.343693
0.257536 -0.162573 0.412299
-0.225244 -0.418459 -0.152774
-0.250744 -0.127239 -0.428686
0.255964 0.270341 0.351976
0.178951 0.274163 -0.353365
-0.061221 -0.050303 -0.444573
-0.003841 0.379822 0.231060
-0.125438 0.276132 -0.351837
-0.236980 -0.029963 0.442142
-0.154690 0.445576 0.009636
0.026824 -0.431285 0.107003
-0.097934 -0.363313 -0.258905
-0.156949 0.263965 0.356921
0.215764 0.049582 0.440385
0.230774 0.409410 0.173949
-0.093089 0.237797 0.374739
-0.144674 0.077062 -0.440817
0.121424 -0.444172 -0.026055
-0.001403 -0.272179 -0.354108
-0.055115 0.016471 0.442757
-0.198810 0.157526 -0.418838
-0.017836 -0.262403 0.357338
0.249672 -0.397931 -0.200859
-0.276990 0.445715 -0.009584
-0.263755 0.216348 0.387424
-0.240983 -0.135870 0.421825
0.106249 -0.428727 -0.120530
-0.289501 0.436348 -0.093292
-0.248661 0.428027 0.122114
0.274862 0.151151 0.416780
-0.246591 0.291491 -0.339177
-0.100612 -0.370463 -0.248384
-0.287108 0.230901 0.378818
-0.035013 -0.345556 0.278074
0.047046 0.048122 0.440523
-0.183984 -0.436095 0.085485
-0.036694 -0.023779 0.442495
0.012350 0.298388 -0.333097
-0.064096 -0.079594 0.435901
-0.102655 0.445012 -0.030740
-0.148916 -0.171896 0.408329
0.009714 0.401524 0.191464
0.038628 -0.396276 -0.204106
-0.258760 -0.413807 0.161341
0.139522 -0.163560 -0.416290
0.134298 -0.435845 0.086605
-0.046383 0.220087 0.385213
0.232596 0.340901 0.284959
0.240979 -0.379651 -0.233970
0.237843 -0.119412 -0.430960
-0.040750 -0.145806 -0.422689
0.004883 0.390774 0.212541
-0.085414 0.154671 0.415513
0.030659 -0.423259 0.134995
-0.049220 0.357980 0.263378
-0.235356 -0.411302 0.167207
0.275009 -0.081058 -0.440022
-0.083964 -0.433247 -0.102578
0.195979 -0.429010 -0.119556
0.157329 -0.236776 -0.379090
-0.244364 0.345939 0.278902
-0.229592 -0.377467 0.233309
-0.143616 -0.122009 -0.430205
0.159108 -0.304524 0.322417
-0.203064 0.301908 0.325639
-0.243667 0.152574 0.416268
-0.273756 0.412632 -0.170857
0.091212 -0.444650 -0.010850
0.285591 -0.059374 0.439103
0.007631 0.441344 0.060541
-0.256793 -0.368142 -0.251799
0.140829 -0.065965 -0.442413
-0.220838 0.377757 0.234552
0.236177 0.095985 0.432685
0.065655 0.181495 -0.408972
0.159592 -0.280191 0.343540
-0.068000 0.067345 0.438003
0.075282 -0.153616 -0.419877
0.041466 -0.288326 0.336711
0.062656 0.052151 0.440142
0.140165 -0.432898 -0.104139
0.136193 -0.389894 0.212279
0.130056 0.361455 0.258792
-0.234212 -0.157860 -0.418349
0.113719 0.232163 0.378071
0.074715 0.343777 -0.286041
-0.102852 -0.356323 0.264194
-0.090096 -0.393407 0.205384
-0.289829 0.155782 0.415113
0.214455 -0.399300 0.193817
-0.181040 -0.394867 0.202518
0.022961 0.412967 -0.170081
-0.286876 0.080963 -0.440200
0.155253 -0.324916 -0.306281
-0.283358 -0.357780 -0.266669
0.271811 0.192461 0.399697
0.214139 0.445482 0.012648
0.087872 -0.033664 -0.446146
0.019177 -0.308431 0.318509
0.191858 0.012654 0.442877
0.224513 -0.051317 0.440124
0.233373 -0.348614 -0.278485
0.212988 0.159874 -0.417993
-0.073627 0.080408 0.435934
-0.063057 -0.337993 0.287094
0.251070 -0.420445 -0.147259
-0.008799 0.438883 0.076077
0.218520 -0.158316 0.413831
0.257274 0.426594 -0.131399
0.066250 0.319722 0.308243
0.009310 -0.377861 0.232643
0.244502 -0.078274 -0.440463
-0.006083 0.445091 0.025081
-0.132375 0.403218 -0.192494
-0.012998 -0.273642 -0.352974
-0.093920 0.098710 0.432076
0.199678 0.014048 -0.447186
-0.148591 -0.131403 0.423122
-0.007955 -0.424774 -0.134137
-0.243633 -0.057163 0.439453
-0.051248 0.301604 -0.330261
-0.208784 0.395706 0.202882
-0.016234 -0.332539 -0.297634
-0.225522 -0.323458 0.303482
0.261039 0.224005 0.382896
-0.163020 -0.443506 0.031477
-0.246221 0.413801 0.163800
-0.124472 0.290614 0.335597
-0.270871 0.217711 -0.390971
-0.112482 -0.358120 -0.266230
-0.047311 0.408029 0.177139
-0.194054 -0.404422 0.183107
0.194645 -0.434482 0.092700
-0.207521 -0.237752 -0.378513
-0.273947 -0.142489 0.419529
-0.121679 0.327701 0.299931
-0.258828 -0.093758 -0.437307
-0.245775 -0.045054 -0.445069
-0.044544 -0.060256 -0.443317
-0.067342 0.398122 0.198142
-0.149640 0.066084 0.438203
-0.056830 0.347919 -0.280701
-0.025827 0.107897 -0.434375
0.229912 0.136993 -0.426150
0.248954 0.285124 0.340437
0.252453 -0.410841 0.168272
-0.077207 -0.440329 0.060477
-0.199388 -0.400426 -0.195963
0.061127 0.408324 -0.180810
-0.048318 -0.383413 0.223257
0.236852 -0.174284 -0.411649
0.133043 -0.069932 0.437431
0.136891 0.441958 -0.061019
-0.096843 0.445843 0.001133
0.224197 0.044279 0.440886
-0.001486 -0.083351 -0.439633
0.110444 0.212959 -0.393607
0.223204 -0.324673 0.302204
0.258678 0.444317 -0.038097
-0.176984 -0.181983 -0.408318
-0.006474 -0.385269 0.220118
-0.196142 -0.390541 0.211009
0.190056 -0.380883 0.227534
-0.210465 -0.379234 -0.234676
0.103592 -0.443016 0.036660
0.044252 -0.401173 -0.194495
0.261094 0.041321 -0.445519
-0.282200 0.313173 0.314792
-0.020090 0.361910 -0.262477
-0.219988 0.404728 0.184767
-0.280696 -0.441331 0.054151
0.193510 -0.320010 0.306930
0.008861 -0.106327 0.430144
0.154620 -0.430876 0.108779
-0.228582 -0.368505 -0.251265
-0.065380 0.445210 -0.025651
0.276045 0.353651 -0.273312
0.083218 -0.017125 0.442704
0.176316 -0.356033 -0.268920
0.113901 0.016143 0.442767
0.045452 -0.430966 0.108431
0.281513 -0.236732 0.374763
-0.255340 -0.418053 0.149549
-0.265963 -0.069053 0.437570
-0.193607 -0.197042 0.396841
0.210523 -0.141621 0.419842
-0.218158 0.253401 -0.368611
-0.035019 -0.428125 0.118250
-0.263439 -0.412959 -0.167731
-0.204025 0.361396 0.258880
-0.148697 0.326139 0.301703
0.166632 -0.053181 0.439948
0.150287 0.432019 -0.112656
-0.115854 -0.080887 -0.440049
-0.256005 -0.312731 -0.318562
-0.270032 -0.264677 0.355575
0.184209 0.053847 -0.444335
0.025917 0.436127 0.089926
0.004963 0.387993 -0.221598
-0.203118 -0.312940 0.314001
0.008500 -0.246071 0.368543
0.173381 -0.376839 0.234371
0.218223 0.354010 0.268496
-0.084430 0.071937 0.437276
-0.014724 0.045524 0.440768
-0.180476 -0.086533 0.434568
0.120903 -0.047320 0.440502
-0.031452 -0.444242 -0.023845
0.028402 0.442071 0.055952
0.201255 -0.010629 -0.447262
-0.179858 0.048987 -0.444794
-0.164340 0.443687 0.040408
-0.066408 -0.288083 -0.341278
-0.109082 -0.371392 0.242663
-0.200681 -0.400243 0.191968
0.037937 -0.440197 -0.065667
-0.277075 0.377912 -0.238644
-0.256241 -0.173756 -0.411877
0.021029 0.169904 -0.413988
-0.022313 -0.384530 0.221367
-0.243153 -0.336871 0.288367
-0.121691 0.374525 -0.243914
-0.207766 -0.314460 -0.316834
-0.045414 0.250550 -0.370549
-0.288811 0.269455 0.352663
-0.123626 0.405913 -0.186383
0.192670 0.105533 0.430550
0.057071 0.440202 -0.072101
0.201505 0.441956 0.056678
-0.186692 -0.292556 0.332982
0.149052 0.445088 -0.029515
-0.015317 -0.402344 0.187843
0.165189 0.418084 0.152309
-0.212597 -0.362132 -0.260643
-0.210403 0.367174 0.250378
-0.013077 -0.305998 -0.325296
-0.024243 0.372708 0.242235
-0.139082 0.432097 -0.112307
0.207979 0.164087 0.412123
0.187913 0.226326 0.381523
-0.001302 0.120268 -0.431009
0.060953 -0.332995 -0.297117
-0.023206 0.354944 -0.271645
0.074259 0.054753 0.439896
0.281774 -0.365216 0.251750
-0.147503 0.380476 0.229956
0.186843 -0.444340 -0.020712
-0.215147 0.437957 0.081737
0.029105 0.406725 -0.184507
-0.114363 0.199613 0.396053
0.241047 -0.148449 0.417384
0.052621 0.358304 0.262961
0.159919 -0.017243 -0.447054
-0.153442 -0.442770 0.039268
0.144587 0.219406 0.385616
0.085097 0.408742 -0.179845
-0.193460 0.105087 0.430650
-0.095352 0.237058 -0.379530
0.101659 0.445046 -0.030387
0.249554 0.410623 -0.175497
0.194801 0.419460 0.148486
-0.246347 -0.234390 -0.380502
0.051744 -0.011743 0.442873
-0.041840 -0.444653 0.006404
0.242706 0.192279 0.399790
0.132014 -0.444358 -0.020130
-0.272060 -0.254983 0.362486
0.010278 -0.200050 0.395308
0.017575 -0.437710 -0.081370
0.183949 0.441705 0.058262
0.020895 0.369364 0.247156
-0.101916 -0.411283 -0.171606
-0.271407 -0.443294 -0.038073
0.067370 0.378742 -0.237240
0.015541 0.388906 0.215701
0.063239 -0.274296 0.348113
-0.166451 -0.154582 -0.419529
-0.178320 -0.306426 0.320514
-0.104726 0.234772 0.376528
0.139492 0.442759 0.050224
0.253287 0.351336 -0.276297
0.108094 -0.436510 -0.087983
-0.234633 -0.431581 -0.110032
-0.219579 -0.325763 -0.305320
-0.101846 -0.390736 0.210625
-0.272425 0.147846 -0.422323
0.181969 0.285593 0.340023
0.134430 -0.129944 -0.427900
-0.185683 0.221422 -0.388777
-0.014465 0.440149 0.068082
-0.015625 -0.227872 0.380003
-0.078477 0.325050 0.302915
-0.248081 0.248549 -0.371908
0.168644 0.354285 0.268141
-0.235698 -0.395263 -0.206094
-0.223083 -0.442875 -0.042507
-0.065845 -0.125113 0.424950
0.049112 -0.117660 -0.431468
0.097762 0.241662 -0.376589
0.159507 -0.436017 0.085835
-0.276127 -0.057619 -0.443734
0.135300 -0.201044 0.394802
-0.001588 -0.277311 0.345775
0.178631 0.429321 0.117660
0.126630 0.388079 0.217099
0.031213 0.372086 0.243149
-0.052379 0.310642 0.317323
-0.235313 -0.407077 -0.181326
-0.122343 0.336100 -0.294757
0.192564 -0.203377 -0.397967
0.259447 0.442860 -0.053506
-0.272854 0.431974 0.108504
0.163338 0.440855 -0.067983
0.223421 0.428551 0.120311
0.234405 -0.379076 0.230589
-0.245359 -0.308558 -0.322736
0.248509 0.173015 0.408288
-0.238111 0.433179 0.103115
-0.250579 0.326895 0.300846
-0.151513 0.370055 0.246138
0.217258 -0.191247 -0.404147
-0.183937 0.435828 0.091263
0.172855 -0.393914 -0.208743
-0.249083 -0.360362 0.258893
-0.256447 -0.272344 0.349627
0.024635 0.417606 0.153637
-0.023845 -0.315958 -0.315335
0.067716 -0.364236 -0.257546
-0.117318 0.343009 -0.286921
-0.187403 0.204085 -0.398128
-0.129501 -0.444627 -0.011585
0.285378 0.419531 0.148288
-0.096978 -0.105998 -0.434571
0.271239 0.124112 -0.429892
0.243445 0.239526 -0.378040
-0.146781 0.150042 -0.421533
0.208490 0.142469 0.419906
0.167189 -0.443728 0.029128
-0.149107 -0.043297 -0.445235
-0.034899 0.008040 -0.447375
-0.031439 -0.321567 -0.309727
0.146168 -0.350677 0.271472
0.217705 -0.356984 -0.267694
0.086072 -0.062526 -0.442957
0.144807 -0.138757 0.420873
0.260326 -0.277994 -0.349598
-0.089884 -0.099480 -0.436028
-0.027992 0.289967 -0.340520
-0.277634 0.186255 -0.406912
-0.155774 0.300821 0.326598
-0.248448 0.352627 0.270279
0.141178 0.320539 -0.311780
-0.131733 0.062246 0.438811
-0.199370 -0.278639 -0.349098
0.007833 -0.437731 -0.081232
-0.233512 -0.340479 0.284275
-0.076886 -0.243370 -0.374732
0.284213 0.429162 -0.122561
0.197308 -0.017793 0.442683
-0.105326 -0.027051 0.442392
0.193528 0.426129 -0.132998
-0.177427 0.401528 0.191456
-0.137134 0.445138 -0.027936
0.087690 -0.223791 0.382417
-0.258575 0.342227 0.283455
-0.083707 -0.238903 0.373414
0.036173 -0.429243 0.114399
0.237647 0.286582 0.339151
0.259636 0.439033 -0.079486
-0.064733 0.137917 0.421528
0.164611 -0.254238 -0.367346
-0.006694 -0.264950 -0.359716
0.076751 -0.419520 0.145474
0.053722 0.441903 -0.061363
0.102473 0.210055 0.390733
0.070182 -0.149716 0.416927
0.116800 0.425007 0.132509
0.029776 -0.444259 -0.023293
0.202121 0.445376 0.015999
-0.069083 0.312643 0.315322
-0.217777 0.105453 0.430568
0.042445 -0.419122 -0.150933
-0.128843 -0.260838 -0.362860
-0.031362 -0.035721 0.441598
-0.017477 0.201673 0.395004
-0.184758 -0.390124 0.211827
0.172812 0.094457 0.433026
-0.192161 -0.384622 0.221211
0.082361 -0.346993 -0.280575
0.108785 -0.325653 -0.305446
0.097297 0.307013 -0.325306
0.168802 -0.155581 -0.419169
-0.091942 -0.435771 -0.091289
-0.199115 0.436613 0.087752
-0.226483 -0.425601 0.126934
-0.182667 -0.317316 -0.313977
-0.060428 0.374296 -0.244251
-0.189275 0.220766 0.384811
0.209650 0.175250 0.407321
0.160971 0.399527 -0.199738
-0.025010 -0.023668 0.442498
-0.119094 -0.056114 0.439619
0.003530 -0.304328 0.322603
-0.270968 -0.301343 0.325234
0.276480 -0.378621 0.231358
-0.215276 0.416038 0.157992
-0.040721 -0.207299 -0.395968
0.086900 0.027601 0.442407
-0.067965 -0.173289 -0.412080
0.135483 0.357277 -0.268638
-0.095199 0.277215 -0.350997
0.282932 -0.367648 -0.252526
0.148311 0.331189 -0.300329
-0.060476 0.445594 -0.013414
-0.267405 0.258376 -0.365230
-0.024366 0.445856 -0.005074
-0.247821 0.445655 -0.011491
0.286598 -0.314709 0.312231
0.183014 0.270412 0.351920
0.193449 0.428681 0.119861
-0.258614 0.433369 0.102263
-0.050281 0.436013 -0.094788
0.043674 -0.439661 0.064695
-0.076609 0.335750 -0.295154
0.039313 0.007054 -0.447406
-0.216154 -0.061590 -0.443106
-0.018896 -0.361923 -0.260949
-0.123297 0.068997 0.437741
0.059023 0.261415 0.358811
-0.224528 -0.081861 0.435542
-0.206838 0.442593 0.051980
0.056933 0.118826 0.427074
-0.198179 -0.340714 0.284009
-0.021986 0.440163 -0.072347
0.116373 0.442471 -0.057629
0.090118 0.431271 -0.115300
0.218596 0.445386 -0.020031
0.270270 -0.098694 -0.436203
0.097304 -0.207605 0.391459
0.209676 0.368257 0.248783
0.169733 -0.399810 -0.197170
0.200827 -0.438088 -0.078977
0.211494 -0.132989 -0.427015
0.230216 -0.442843 0.038493
0.181186 0.008649 0.443003
-0.195332 0.210841 -0.394686
0.156334 -0.364935 0.252164
-0.149706 0.403436 -0.192065
0.030791 -0.419207 0.146343
0.212352 0.445137 0.023613
-0.114739 -0.424522 -0.135002
0.104749 0.414776 -0.165851
-0.001666 0.072508 0.437185
0.084002 0.432896 0.104380
0.034935 0.264458 0.356539
0.159265 -0.258033 0.360413
-0.172759 -0.364356 0.253016
0.011588 -0.419473 0.145604
-0.079480 0.315536 -0.316783
-0.289588 0.140872 -0.424834
0.125015 -0.236926 0.374649
0.066844 -0.180603 0.404561
0.195839 0.261040 -0.363420
-0.131317 0.312299 -0.320020
-0.086551 0.211913 0.389786
-0.073207 -0.438307 0.073247
-0.156062 0.062851 -0.443068
0.108280 0.240973 -0.377057
-0.036905 -0.431557 -0.110141
-0.235941 -0.189581 -0.404996
0.070210 -0.410259 -0.173971
-0.131103 -0.370727 -0.247995
-0.201938 0.209551 0.390990
0.187166 0.380314 -0.234583
-0.048711 -0.381480 -0.230878
0.094388 0.156369 0.414902
0.034249 0.340720 0.285163
-0.061310 -0.399708 -0.197371
0.104357 -0.444274 -0.022805
0.164494 -0.422515 -0.141507
0.019643 0.110327 -0.433832
0.233155 -0.444882 -0.003464
0.285559 0.442012 0.056325
0.242784 0.210690 0.390409
0.259348 -0.407185 -0.181076
0.030078 -0.437131 -0.085021
-0.168022 0.399839 -0.199124
-0.203561 -0.156283 0.414563
0.253184 0.217929 0.386489
-0.043388 0.445767 0.003577
0.160865 0.328137 0.299436
-0.071577 0.388490 -0.220758
0.114951 -0.365807 -0.255234
-0.287336 -0.313952 0.312988
-0.113404 -0.415175 -0.161895
0.043265 -0.024097 0.442485
0.001872 0.409168 0.174507
0.105027 -0.198862 0.395914
-0.199140 -0.208988 0.390754
0.097065 0.040288 -0.445617
0.264362 0.274865 0.348467
-0.239724 -0.442558 0.041514
0.239750 0.035853 0.441683
0.064796 -0.292076 0.333405
0.205290 0.031636 -0.446435
-0.101222 0.427768 0.123004
0.013938 0.197263 0.397250
-0.240394 -0.116440 -0.431823
-0.247690 -0.403697 -0.189135
-0.198869 0.197619 -0.401423
-0.153569 0.301819 -0.330072
0.136660 -0.107856 0.429802
0.033101 0.403251 0.188074
-0.217672 0.435311 -0.097931
-0.097237 0.123411 -0.430096
-0.113003 -0.026338 -0.446768
-0.049833 0.069505 0.437661
-0.087608 0.220819 0.384780
-0.151877 0.431477 0.110236
-0.288180 -0.238660 -0.377933
0.027051 -0.104891 -0.434818
0.162817 0.445613 0.008479
0.285715 -0.184991 -0.407016
0.152033 -0.002066 -0.447531
-0.047520 -0.444121 0.023325
0.060403 -0.236382 -0.379324
0.021653 0.076305 -0.440937
-0.115522 -0.287441 0.337491
0.182831 -0.403934 0.184233
0.088313 -0.237877 -0.378439
0.164236 -0.444324 -0.021231
-0.137627 0.393252 0.207700
-0.032809 -0.418451 0.148444
0.118191 -0.297305 0.328794
-0.001813 -0.443253 0.034161
-0.263148 0.403104 -0.192717
-0.264035 -0.444797 0.001827
-0.165195 -0.119216 0.426663
-0.109817 0.082516 -0.439954
0.266564 -0.444600 -0.012442
0.024931 -0.444480 0.011905
-0.014553 -0.444574 0.008908
0.090301 -0.333838 -0.296162
-0.049530 0.421657 0.142384
0.127737 -0.122928 0.425584
0.016277 -0.056242 -0.443953
-0.196198 -0.177866 -0.410099
0.278795 0.084764 -0.439546
0.047771 -0.423920 0.132723
0.000223 0.159347 -0.418183
-0.107962 0.234525 -0.381028
0.124688 -0.439042 0.068602
0.017647 0.392744 -0.213050
-0.075300 0.386660 0.219499
0.224626 -0.392283 0.207589
-0.119734 0.218982 0.385867
-0.053683 -0.386376 -0.222600
-0.242970 -0.214287 0.388037
0.241588 -0.250101 -0.370157
0.115258 -0.327323 0.299197
-0.289969 -0.174527 -0.411544
0.255746 0.286522 -0.343558
-0.173630 -0.437382 0.079086
0.134556 0.406129 0.181529
-0.057935 0.101633 -0.435776
0.010715 0.374523 -0.243917
0.232958 0.444210 0.034876
0.239732 0.133948 -0.427034
0.130387 -0.437128 -0.085041
0.119230 0.444126 -0.040112
-0.119229 -0.167166 -0.414729
-0.128742 0.214595 0.388419
-0.013780 0.445893 -0.000449
-0.223395 0.096020 0.432677
0.195288 0.127381 0.424589
-0.187639 0.369601 -0.251160
0.091611 -0.432886 0.099841
0.037680 0.217490 0.386749
-0.217340 -0.202473 -0.398427
-0.009822 0.428176 0.121600
0.014021 -0.315946 0.310994
0.008317 -0.090742 0.433628
0.070937 -0.433973 0.094980
0.105382 0.385665 0.221181
0.034356 -0.036661 -0.445863
-0.211034 0.366441 -0.255810
0.286865 0.362718 0.256934
-0.102247 0.423093 0.138396
0.074247 -0.286410 -0.342753
-0.001010 -0.344233 0.279780
0.247649 -0.347023 -0.280536
0.074756 0.388226 -0.221205
0.211920 -0.163039 -0.416484
-0.189239 0.445627 0.008034
-0.087069 -0.205930 -0.396666
-0.041004 0.271092 0.351394
-0.186171 -0.429855 0.112293
-0.043903 -0.075145 0.436605
0.192059 0.211348 -0.394427
-0.026944 0.093565 0.433226
-0.000303 -0.046004 0.440626
0.101629 -0.134043 0.422355
0.173493 0.343964 0.281448
0.113745 -0.442565 0.041438
-0.139260 0.375182 -0.242947
-0.091958 -0.111690 0.428849
-0.287323 -0.375595 -0.240829
0.200704 0.304140 -0.328025
-0.056102 -0.376830 0.234387
0.089050 0.396704 0.200925
0.197055 -0.439672 -0.068977
-0.066336 0.196759 0.397508
0.109881 -0.226303 0.380931
0.108994 0.043878 -0.445277
0.070721 0.343361 0.282168
-0.259856 -0.403350 -0.189938
-0.133401 0.241648 0.372245
0.114225 0.231149 -0.383025
0.246499 0.363518 -0.260111
0.081040 0.100123 -0.436113
0.027668 -0.254793 -0.366969
-0.112753 -0.216712 0.386603
-0.164801 0.431488 0.110199
-0.061294 -0.120091 -0.430762
-0.099803 0.432088 -0.112351
0.172146 -0.404895 0.182014
-0.031736 -0.374035 0.238774
-0.170929 0.157258 -0.418935
-0.043429 -0.236543 0.374875
-0.088475 0.152819 -0.420533
0.020022 0.430430 -0.118196
0.054430 0.179842 -0.409688
-0.116488 0.354732 0.267565
0.190148 0.200649 0.395526
-0.240983 -0.045155 0.440706
-0.002993 0.148595 0.417700
-0.289273 0.426210 -0.132721
0.239144 -0.212072 -0.393536
-0.288002 0.123690 -0.430014
-0.137485 0.415687 -0.163319
-0.235050 0.394662 -0.209286
-0.013378 0.152430 0.416319
-0.194025 0.416410 0.156959
0.168613 -0.247858 0.367328
-0.216508 -0.014761 0.442778
0.224430 -0.308162 -0.323132
-0.099451 0.364328 -0.258918
-0.013591 -0.408324 -0.178442
0.225008 0.445143 0.023421
0.157482 0.294856 -0.336210
0.286735 -0.199437 0.395621
0.016470 0.188475 -0.405951
0.209318 0.346187 -0.282935
0.013371 -0.296341 0.329644
0.218082 0.295613 0.331189
0.129346 0.402379 0.189786
0.177759 -0.011115 0.442893
-0.026441 -0.173371 -0.412044
0.009371 -0.341272 0.283376
-0.032728 -0.083820 0.435175
0.239930 -0.420655 0.142322
-0.066294 0.429806 -0.120343
0.073660 0.108665 -0.434204
-0.252063 -0.162591 -0.416646
-0.256948 0.308818 0.319147
-0.035137 0.337121 0.289246
0.227094 -0.275093 0.347495
0.243210 0.444496 0.031851
-0.111333 0.340545 0.285362
0.240168 0.390860 0.212394
0.239432 0.364510 0.254297
-0.151694 0.310567 -0.321751
0.170816 0.445187 -0.026386
0.051298 0.038165 -0.445817
-0.118580 0.227064 -0.385440
-0.144890 0.442966 -0.052386
0.178837 0.304399 0.323444
-0.039509 0.112489 0.428915
0.010865 -0.386717 -0.222022
0.022553 -0.080969 -0.440036
0.087318 0.439002 0.075327
0.028416 -0.331052 -0.299321
0.190506 0.415929 -0.162649
-0.257520 0.287657 -0.342557
-0.193433 0.445063 -0.030206
0.151351 0.166675 0.411032
0.168355 0.350867 -0.276902
0.080045 -0.421854 -0.143344
0.247270 0.379725 0.231225
-0.204433 0.414354 -0.166877
-0.200790 0.264823 0.356256
-0.275195 -0.007903 0.442994
0.089800 -0.443649 -0.034318
0.274629 -0.301212 -0.329703
0.217584 0.386502 -0.224119
-0.274825 0.442296 -0.058884
-0.149547 -0.408075 -0.179018
0.225158 0.381207 -0.233072
0.069374 -0.341026 0.283654
0.103284 -0.277307 -0.350131
-0.176610 0.337396 0.288935
-0.008854 0.111864 -0.433450
-0.244079 -0.409775 -0.175089
-0.087096 -0.365282 0.251653
-0.144698 0.211244 0.390127
0.167305 0.402837 -0.193242
0.022779 -0.199956 0.395356
-0.103449 0.290513 0.335686
-0.057030 -0.399172 0.194069
0.136657 0.330351 0.296925
0.268915 0.014327 0.442824
0.079610 -0.100596 -0.435778
0.109463 -0.232454 -0.381647
-0.101286 -0.433251 0.098210
-0.124460 -0.093784 -0.437301
-0.100299 -0.430481 -0.114491
-0.086183 -0.444222 0.020120
-0.191298 0.291617 0.334713
-0.142171 -0.326183 -0.304843
0.036284 0.225789 -0.386194
-0.247354 -0.249691 -0.370436
0.117841 -0.437947 0.075516
-0.251283 -0.054504 -0.444176
-0.250877 0.403155 0.188263
-0.250439 -0.442948 0.037380
-0.241939 -0.435636 0.087539
-0.256720 -0.398675 0.195045
0.026062 -0.112960 0.428480
-0.047369 0.232807 0.377690
0.041210 0.428616 0.120086
0.135401 0.397903 -0.202924
0.235845 0.164216 -0.416430
-0.022933 -0.064124 -0.442704
-0.035069 0.060233 -0.443483
0.008197 0.435682 -0.096270
-0.284909 -0.359467 0.260140
0.221105 0.321497 -0.310821
-0.113041 0.432381 -0.111040
-0.092082 -0.388400 0.214822
-0.056118 0.181419 -0.409005
0.011669 0.443628 0.041035
-0.285403 -0.288038 0.336965
0.107441 -0.333531 0.292156
-0.217420 0.395321 -0.207991
-0.224957 0.386765 -0.223675
-0.266124 -0.028795 -0.446606
-0.280044 -0.384320 0.221723
-0.116981 -0.200660 -0.399351
-0.178117 0.440081 -0.072867
0.261681 -0.300041 0.326382
-0.111534 -0.117369 -0.431553
0.240160 -0.403795 0.184556
0.232174 -0.339458 0.285433
0.166751 -0.383193 -0.227981
0.023322 0.183375 0.403805
-0.221823 -0.318130 -0.313164
-0.003103 -0.444612 0.007694
0.275023 -0.173005 0.407849
-0.098742 0.257756 0.361298
0.107035 -0.422247 0.137900
0.088511 -0.295935 -0.334356
-0.108458 0.442236 0.054909
0.266118 -0.336310 -0.293357
-0.053683 -0.066322 -0.442356
0.281365 0.003960 -0.447503
0.275957 -0.069157 -0.441907
0.176392 0.247633 0.368178
0.067562 -0.402323 0.187885
0.258048 0.404237 -0.190255
-0.020766 -0.348087 0.274811
-0.157568 0.115526 -0.432386
-0.050933 0.276664 0.347071
-0.048236 -0.046527 0.440577
-0.026595 -0.433000 0.099329
0.255449 0.330989 -0.300555
-0.039593 0.424018 0.135827
-0.205409 -0.388838 -0.218436
0.183565 -0.376067 0.235677
0.193051 -0.350325 0.271926
-0.113166 -0.358900 0.260871
0.144870 -0.267968 -0.357375
-0.101769 -0.227732 -0.384439
-0.000516 -0.026042 0.442424
0.208710 0.398098 0.198189
0.082841 -0.205160 0.392705
-0.273915 0.405911 -0.186388
0.222177 -0.294269 0.331471
0.074880 -0.379697 -0.233892
0.273089 0.080644 0.435897
-0.180419 0.432890 -0.108763
0.052998 -0.095577 -0.436900
-0.276425 -0.241685 -0.375877
0.213122 0.305732 0.322233
0.213250 -0.350551 -0.275988
-0.289652 0.065776 -0.442605
0.020273 0.324570 -0.307748
0.150630 -0.438257 0.073558
0.198836 0.443238 0.045155
0.098359 0.016964 0.442741
0.052519 0.167072 -0.415213
-0.111614 -0.442202 0.045271
-0.189593 -0.439347 -0.071031
-0.096128 -0.118211 -0.431308
0.085038 -0.410939 -0.172401
0.201614 0.430149 -0.119164
0.044245 0.427668 -0.127701
-0.259728 0.444736 -0.033659
-0.272620 -0.360611 0.258527
-0.052701 0.393213 0.207777
0.244012 0.224497 0.382605
0.107581 -0.288270 -0.341113
-0.041396 0.307147 -0.325172
-0.118261 0.300971 -0.330819
-0.281460 -0.442849 -0.042785
-0.011148 0.302232 0.325354
-0.163832 -0.392382 0.207394
-0.171074 -0.151694 0.416216
-0.278296 0.421979 0.141491
-0.278905 0.304958 0.322951
0.054818 0.436176 0.089708
0.065297 -0.195748 -0.401854
0.067081 -0.442079 -0.050930
0.129529 0.387848 -0.221843
0.159216 0.170631 -0.413673
-0.049468 -0.152925 0.415772
0.151103 -0.296608 0.329409
0.276954 -0.250167 0.365759
-0.074792 -0.444459 0.012572
-0.223300 -0.340557 0.284186
0.140099 0.271647 0.350963
-0.162673 0.445797 -0.006973
0.065271 0.331337 0.295807
0.118698 0.420722 -0.149334
0.018953 0.435525 -0.096973
-0.023678 -0.408281 -0.178542
0.056291 -0.136354 0.421684
-0.279079 -0.078046 -0.440499
0.210744 0.345825 0.279048
0.174294 0.391531 0.211076
-0.080805 0.310209 0.317756
0.252279 -0.234184 -0.380623
0.082688 -0.234238 0.376238
0.089276 0.293060 -0.337794
-0.120994 -0.072207 0.437071
-0.027727 -0.208211 -0.395503
-0.220344 0.276507 0.347193
-0.231730 0.391724 0.210699
-0.089641 0.265086 -0.360406
0.221518 0.445727 -0.009188
0.192770 0.242431 -0.376066
0.275585 0.206582 -0.396856
0.059756 -0.444583 0.008617
-0.141316 0.285476 -0.344480
-0.145762 -0.232869 -0.381401
-0.262226 -0.433676 -0.100659
0.117568 -0.434019 0.094774
0.286699 0.163325 -0.416750
-0.048495 0.171718 -0.413203
-0.234976 0.436327 -0.093384
0.110310 0.258640 -0.365051
-0.235634 -0.428267 -0.122114
0.085048 0.300147 -0.331546
0.155420 -0.053531 0.439915
0.096755 0.308415 0.319550
-0.156931 0.445467 -0.017451
0.170173 -0.436414 -0.088410
0.142775 0.359011 0.262048
-0.222960 0.445129 -0.028221
-0.029888 -0.250623 -0.369803
-0.252170 -0.319706 -0.311587
0.058339 0.261925 -0.362818
-0.274643 0.043387 -0.445324
-0.002656 0.444610 -0.034994
0.037701 -0.410037 -0.174484
0.245394 -0.244555 0.369573
