0.286960 0.035955 -0.474330
0.286960 -0.153575 -0.444269
0.286960 -0.453157 0.170032
0.286960 0.456919 -0.041369
0.286960 0.448537 -0.135762
0.286960 -0.407291 -0.242100
0.286960 -0.421224 -0.234698
0.286960 -0.348044 0.287637
0.286960 0.108077 -0.446346
0.286960 0.134030 0.437372
0.286960 0.342129 0.303462
0.286960 0.358631 0.304894
0.286960 -0.478009 -0.131678
0.286960 -0.121766 -0.440867
0.286960 0.439270 -0.151920
0.286960 0.445763 -0.018477
0.286960 0.410423 0.194019
0.286960 0.276771 -0.371380
0.286960 0.147326 -0.459091
0.286960 0.164641 -0.466885
0.286960 0.425107 0.178350
0.286960 0.259988 0.404703
0.286960 -0.245161 0.381647
0.286960 0.492119 0.075697
0.286960 -0.451370 -0.141539
0.286960 0.225031 -0.429263
0.286960 0.114146 -0.486854
0.286960 -0.086425 -0.447422
0.286960 0.459365 -0.094580
0.286960 0.201401 -0.431661
0.286960 -0.143226 0.459182
0.286960 -0.475865 -0.143239
0.286960 0.453109 -0.167822
0.286960 -0.144468 0.419783
0.286960 -0.455487 0.087420
0.286960 -0.463107 0.045259
0.286960 0.430052 -0.210550
0.286960 -0.093212 -0.484211
0.286960 0.467993 0.093729
0.286960 0.366236 0.311488
0.286960 -0.449684 -0.163842
0.286960 -0.041125 -0.498152
0.286960 0.013906 -0.453336
0.286960 0.221294 -0.448193
0.286960 -0.428730 0.118398
0.286960 -0.444304 -0.108346
0.286960 0.322197 -0.368130
0.286960 -0.460276 0.111043
0.286960 0.054845 -0.466113
0.286960 -0.412056 0.237963
0.286960 0.349207 -0.305530
0.286960 -0.430084 -0.187763
0.286960 0.374052 0.254159
0.286960 -0.415635 -0.212080
0.286960 0.439912 -0.087296
0.286960 -0.482627 -0.119844
0.286960 0.469034 0.101009
0.286960 -0.464558 0.036048
0.286960 -0.172092 0.433203
0.286960 0.291440 0.371055
0.286960 0.462383 0.069086
0.286960 0.023542 0.482405
0.286960 -0.323835 -0.333967
0.286960 -0.477285 0.087105
0.286960 -0.404296 0.228541
0.286960 0.423449 -0.159241
0.286960 -0.467597 -0.119001
0.286960 0.199094 0.441452
0.286960 0.471664 -0.064553
0.286960 0.058853 -0.457990
0.286960 -0.450895 -0.067702
0.286960 -0.493474 -0.028949
0.286960 -0.055134 -0.468426
0.286960 0.343427 -0.350298
0.286960 -0.421102 -0.238254
0.286960 -0.470286 0.084217
0.286960 0.018101 -0.466724
0.286960 -0.412699 -0.261162
0.286960 0.470517 -0.132394
0.286960 0.496904 -0.032052
0.286960 0.471359 -0.085306
0.286960 -0.248305 0.397442
0.286960 0.221237 -0.439706
0.286960 -0.425441 0.200771
0.286960 -0.317197 0.309982
0.286960 -0.342117 -0.287787
0.286960 0.181807 0.457560
0.286960 0.017881 -0.487367
0.286960 0.195575 0.411446
0.286960 -0.242010 0.385548
0.286960 -0.439234 0.073735
0.286960 -0.489025 -0.045252
0.286960 -0.378598 -0.254879
0.286960 0.227494 0.425837
0.286960 -0.365543 0.321931
0.286960 0.495515 -0.053508
0.286960 -0.173752 0.439817
0.286960 0.400853 -0.198999
0.286960 -0.010662 0.464212
0.286960 0.433471 0.162270
0.286960 0.143059 0.460029
0.286960 -0.328818 -0.365145
0.286960 0.443904 0.209521
0.286960 0.392433 -0.268248
0.286960 0.239564 0.424810
0.286960 0.496787 -0.039239
0.286960 0.451333 0.159904
0.286960 0.489212 -0.001551
0.286960 -0.462108 0.087553
0.286960 0.484946 -0.084445
0.286960 -0.170463 -0.436996
0.286960 -0.398321 -0.232203
0.286960 -0.309072 -0.354392
0.286960 -0.388219 -0.232100
0.286960 -0.492895 -0.066010
0.286960 0.466561 0.029030
0.286960 0.018915 0.490929
0.286960 -0.412973 -0.235250
0.286960 -0.355403 -0.330569
0.286960 -0.408228 0.184706
0.286960 -0.079380 0.465059
0.286960 0.060646 0.473447
0.286960 0.229710 0.385709
0.286960 0.261919 0.394661
0.286960 -0.333824 -0.341548
0.286960 0.151716 0.453332
0.286960 -0.168587 0.420274
0.286960 -0.491415 0.033687
0.286960 -0.314376 -0.378424
0.286960 0.422786 -0.147094
0.286960 -0.295609 0.392954
0.286960 0.048265 -0.466945
0.286960 0.326231 -0.349559
0.286960 -0.281450 -0.360254
0.286960 0.448798 -0.043178
0.286960 -0.321917 0.356314
0.286960 0.151963 0.471238
0.286960 -0.445416 0.138249
0.286960 -0.195944 0.455182
0.286960 -0.393140 0.261322
0.286960 0.302827 0.378639
0.286960 -0.301178 -0.332273
0.286960 0.353156 0.309192
0.286960 -0.087036 -0.450844
0.286960 -0.189557 0.414893
0.286960 -0.482681 -0.011712
0.286960 -0.318987 0.313258
0.286960 -0.372259 0.290656
0.286960 0.346882 0.328798
0.286960 0.490400 -0.088902
0.286960 -0.473555 -0.056128
0.286960 -0.048775 0.480267
0.286960 -0.469342 -0.004971
0.286960 0.294572 0.334444
0.286960 -0.475766 0.053645
0.286960 -0.203424 -0.436864
0.286960 0.374286 0.247781
0.286960 -0.385486 -0.267917
0.286960 0.464480 -0.102715
0.286960 -0.316179 0.342976
0.286960 0.429285 -0.169266
0.286960 -0.280828 -0.402217
0.286960 -0.002461 -0.492921
0.286960 0.122197 0.429191
0.286960 0.080886 0.468456
0.286960 -0.463320 0.081142
0.286960 0.368211 0.259788
0.286960 0.330153 0.337197
0.286960 0.325891 0.356062
0.286960 0.436375 -0.094990
0.286960 0.068294 0.489984
0.286960 0.465615 0.075189
0.286960 -0.278698 -0.408147
0.286960 -0.446308 0.109343
0.286960 -0.127537 -0.470620
0.286960 -0.105423 -0.474552
0.286960 -0.320085 -0.312708
0.286960 -0.450345 -0.194885
0.286960 0.311477 -0.367287
0.286960 0.091832 -0.478281
0.286960 -0.140559 -0.451107
0.286960 0.129893 -0.474396
0.286960 -0.303123 0.385722
0.286960 -0.187592 -0.410083
0.286960 -0.474085 0.007516
0.286960 -0.045207 0.486350
0.286960 0.449309 0.069761
0.286960 0.314682 -0.388496
0.286960 -0.119638 -0.484081
0.286960 -0.207964 0.415256
0.286960 -0.452378 0.101369
0.286960 -0.156114 0.458558
0.286960 0.265025 0.395684
0.286960 -0.102786 -0.454281
0.286960 0.102013 0.464704
0.286960 0.164974 -0.459133
0.286960 0.193595 -0.415079
0.286960 -0.416233 -0.232950
0.286960 -0.062342 -0.491704
0.286960 -0.486197 0.013740
0.286960 0.413069 -0.256228
0.286960 0.029239 -0.472565
0.286960 0.437936 -0.225734
0.286960 0.443773 0.043141
0.286960 0.161241 -0.469498
0.286960 -0.299797 0.347124
0.286960 -0.162251 0.417888
0.286960 -0.486949 0.068980
0.286960 0.258896 0.377229
0.286960 -0.180083 0.414769
0.286960 -0.166181 -0.427457
0.286960 -0.321923 0.332117
0.286960 -0.477731 0.074444
0.286960 -0.257029 -0.424323
0.286960 0.296968 0.397234
0.286960 -0.132869 0.457400
0.286960 -0.379895 -0.258982
0.286960 -0.259430 0.371790
0.286960 0.438546 0.193931
0.286960 -0.280902 -0.348193
0.286960 -0.308431 -0.324595
0.286960 0.491121 -0.036660
0.286960 -0.260339 -0.396434
0.286960 -0.003853 0.481378
0.286960 -0.447829 0.187638
0.286960 0.380889 0.253688
0.286960 -0.401327 -0.234497
0.286960 -0.439020 -0.186050
0.286960 0.126906 -0.449737
0.286960 0.076807 -0.457073
0.286960 0.178278 0.450722
0.286960 -0.068905 0.466786
0.286960 -0.015684 0.453591
0.286960 0.434788 0.140475
0.286960 0.373665 -0.259378
0.286960 0.412336 -0.200941
0.286960 0.350698 -0.278439
0.286960 0.479771 -0.069818
0.286960 -0.396030 -0.222738
0.286960 -0.074037 -0.461081
0.286960 0.043936 0.492667
0.286960 -0.353154 0.324474
0.286960 0.259760 -0.422098
0.286960 -0.418599 -0.263553
0.286960 -0.357796 0.337836
0.286960 -0.466707 -0.128606
0.286960 -0.214257 0.393533
0.286960 -0.114351 -0.471443
0.286960 0.428421 0.205529
0.286960 0.212287 0.393350
0.286960 0.325515 -0.335517
0.286960 -0.170261 0.444260
0.286960 -0.302504 0.369082
0.286960 0.474241 0.046669
0.286960 -0.219600 -0.396969
0.286960 -0.350827 -0.355062
0.286960 0.393833 -0.284509
0.286960 -0.237901 -0.409726
0.286960 0.301438 -0.336191
0.286960 -0.140848 0.428410
0.286960 -0.402777 0.188112
0.286960 -0.452045 -0.174158
0.286960 0.069203 -0.486925
0.286960 0.425983 0.232478
0.286960 -0.326844 -0.318187
0.286960 -0.207835 -0.427022
0.286960 -0.299744 -0.361165
0.286960 -0.404763 0.249187
0.286960 -0.373193 0.282847
0.286960 -0.466695 0.089211
0.286960 -0.198794 -0.413175
0.286960 0.121244 -0.449626
0.286960 -0.439189 -0.162073
0.286960 -0.232266 0.404413
0.286960 0.141379 0.439163
0.286960 -0.450029 0.106020
0.286960 -0.462511 -0.094824
0.286960 0.163298 -0.436599
0.286960 0.465518 -0.028526
0.286960 0.472625 -0.098361
0.286960 0.054745 -0.461915
0.286960 -0.336902 0.311083
0.286960 0.475153 0.063321
0.286960 -0.439152 0.208230
0.286960 0.177854 -0.454500
0.286960 -0.458517 -0.055848
0.286960 0.272514 -0.398438
0.286960 -0.330803 0.329685
0.286960 0.304640 0.374721
0.286960 -0.266280 -0.363154
0.286960 -0.373266 -0.273090
0.286960 -0.110431 -0.481562
0.286960 -0.482003 -0.043849
0.286960 -0.216478 0.408068
0.286960 -0.461868 0.076083
0.286960 -0.387095 0.293733
0.286960 0.470905 0.136202
0.286960 -0.329522 0.361287
0.286960 0.413554 -0.236529
0.286960 0.205410 -0.421596
0.286960 -0.446277 0.023695
0.286960 0.159949 -0.472244
0.286960 -0.309778 0.326598
0.286960 -0.269608 -0.387178
0.286960 0.380895 -0.249298
0.286960 -0.316325 -0.338629
0.286960 0.312190 0.359425
0.286960 -0.444480 0.134937
0.286960 -0.231433 -0.409112
0.286960 0.459862 -0.047653
0.286960 0.496714 -0.028064
0.286960 -0.184493 0.415661
0.286960 -0.159915 -0.473126
0.286960 0.100165 -0.451689
0.286960 -0.265953 0.371383
0.286960 -0.445611 -0.062566
0.286960 -0.433614 0.155896
0.286960 -0.253966 -0.397162
0.286960 0.446201 0.030434
0.286960 0.421698 -0.254071
0.286960 -0.402993 -0.237421
0.286960 0.308573 0.388334
0.286960 -0.401180 -0.294095
0.286960 0.217165 0.388514
0.286960 -0.057374 0.467335
0.286960 -0.443020 0.093592
0.286960 -0.495439 -0.004958
0.286960 0.370628 0.289893
0.286960 0.087342 0.457727
0.286960 -0.022191 -0.462970
0.286960 0.190199 -0.438955
0.286960 -0.370038 0.272160
0.286960 0.315567 0.375572
0.286960 0.215943 -0.411859
0.286960 -0.112394 0.455055
0.286960 -0.246162 0.416750
0.286960 0.379100 -0.264941
0.286960 0.372336 0.298348
0.286960 -0.289778 0.355188
0.286960 0.243520 -0.405983
0.286960 -0.311711 -0.363887
0.286960 -0.485466 0.073690
0.286960 -0.469997 -0.014914
0.286960 0.332786 0.309348
0.286960 -0.273900 0.396696
0.286960 -0.123959 -0.464653
0.286960 0.227378 -0.443938
0.286960 0.054869 -0.472317
0.286960 -0.146785 0.439036
0.286960 -0.458189 0.008361
0.286960 0.488867 -0.071861
0.286960 0.083346 0.459328
0.286960 -0.372392 -0.263853
0.286960 -0.314828 0.368191
0.286960 -0.065200 0.438985
0.286960 -0.204444 0.415004
0.286960 -0.235932 -0.423025
0.286960 -0.412777 -0.172207
0.286960 -0.292527 -0.391747
0.286960 0.067251 -0.463100
0.286960 -0.447823 -0.108884
0.286960 0.417825 0.258437
0.286960 0.443826 -0.095110
0.286960 -0.333083 -0.318841
0.286960 0.216624 -0.431744
0.286960 -0.007506 0.447655
0.286960 -0.297401 -0.383389
0.286960 -0.470156 -0.096803
0.286960 -0.316600 0.328112
0.286960 0.462871 -0.113726
0.286960 -0.421592 -0.175966
0.286960 -0.392679 -0.290426
0.286960 0.015836 0.482418
0.286960 0.170973 -0.465678
0.286960 0.239624 0.427868
0.286960 0.416292 -0.274336
0.286960 0.478897 -0.041424
0.286960 -0.121917 -0.449365
0.286960 0.384681 -0.270318
0.286960 0.471367 0.084912
0.286960 0.400928 0.267225
0.286960 -0.098506 0.462343
0.286960 0.280499 -0.381799
0.286960 0.352666 -0.274784
0.286960 -0.050892 0.486876
0.286960 0.131600 0.474186
0.286960 -0.199281 0.411802
0.286960 -0.176299 0.457286
0.286960 0.424477 -0.221014
0.286960 -0.242167 -0.380243
0.286960 0.045052 0.441242
0.286960 0.286513 0.340930
0.286960 0.251730 -0.425299
0.286960 0.443236 0.049392
0.286960 0.002242 -0.459419
0.286960 -0.299699 -0.390164
0.286960 -0.031479 0.470645
0.286960 -0.329114 -0.369552
0.286960 -0.100645 0.484924
0.286960 -0.320486 0.370241
0.286960 0.094437 -0.476254
0.286960 -0.457317 -0.178315
0.286960 0.127973 0.432614
0.286960 0.209207 -0.405707
0.286960 -0.436877 0.105890
0.286960 -0.053704 -0.486712
0.286960 0.016364 -0.447395
0.286960 0.409193 0.197502
0.286960 -0.359217 0.325718
0.286960 -0.090172 0.457118
0.286960 -0.285816 -0.378095
0.286960 0.326991 -0.317451
0.286960 -0.458862 -0.102986
0.286960 0.463830 -0.025779
0.286960 0.254729 -0.369847
0.286960 -0.374626 -0.316805
0.286960 -0.226222 0.401824
0.286960 -0.303609 -0.370415
0.286960 -0.423483 -0.255674
0.286960 -0.283982 0.368740
0.286960 0.308080 -0.325082
0.286960 0.468691 -0.104806
0.286960 -0.075572 0.472921
0.286960 -0.280418 -0.351304
0.286960 0.445389 0.174497
0.286960 0.204382 0.427426
0.286960 -0.443655 -0.036606
0.286960 0.235104 -0.424281
0.286960 0.261455 0.398575
0.286960 0.001100 0.465668
0.286960 -0.436984 0.083436
0.286960 0.473840 -0.082581
0.286960 -0.426446 0.140170
0.286960 -0.307227 -0.389838
0.286960 0.474954 -0.105206
0.286960 0.423134 -0.143823
0.286960 0.170908 0.463864
0.286960 0.380112 -0.296742
0.286960 0.072317 0.473681
0.286960 -0.012394 0.486941
0.286960 -0.262791 0.393825
0.286960 -0.407136 0.204303
0.286960 -0.028692 -0.464345
0.286960 -0.449239 -0.100513
0.286960 0.074997 -0.477051
0.286960 0.435090 0.154598
0.286960 0.473620 -0.134421
0.286960 -0.480002 0.027286
0.286960 0.121750 0.474074
0.286960 0.058576 0.451760
0.286960 -0.472827 -0.083668
0.286960 -0.080306 -0.458627
0.286960 -0.384649 -0.232625
0.286960 -0.460040 0.133874
0.286960 0.211815 -0.438379
0.286960 -0.052018 -0.470002
0.286960 -0.035817 -0.460195
0.286960 0.113954 0.459314
0.286960 -0.017196 0.480175
0.286960 0.377419 -0.294225
0.286960 0.411496 0.211161
0.286960 0.442982 0.079726
0.286960 0.081968 -0.485486
0.286960 -0.458456 -0.064708
0.286960 0.004299 0.491303
0.286960 -0.340878 -0.364441
0.286960 0.299683 0.394504
0.286960 0.024739 0.495042
0.286960 -0.433435 0.193550
0.286960 0.296216 -0.364387
0.286960 -0.466165 0.014998
0.286960 -0.294868 0.383428
0.286960 0.279051 -0.378746
0.286960 -0.184215 -0.426626
0.286960 -0.315122 -0.351280
0.286960 0.272083 -0.410426
0.286960 -0.367024 -0.318444
0.286960 -0.161933 0.463485
0.286960 0.450804 0.013166
0.286960 0.393728 -0.254675
0.286960 0.376220 0.306800
0.286960 -0.367540 -0.312874
0.286960 0.463035 0.096301
0.286960 -0.241288 0.423673
0.286960 -0.384808 0.296776
0.286960 -0.127215 -0.458826
0.286960 -0.169811 -0.443795
0.286960 -0.472432 0.021888
0.286960 -0.428165 0.122632
0.286960 0.348099 -0.337303
0.286960 -0.256428 -0.386897
0.286960 0.433046 -0.224033
0.286960 0.055792 -0.495670
0.286960 0.095149 0.438680
0.286960 -0.421052 -0.179367
0.286960 0.332768 0.358178
0.286960 -0.293371 -0.361618
0.286960 0.335638 -0.313438
0.286960 -0.489147 0.011863
0.286960 0.125787 0.430356
0.286960 -0.295687 -0.364904
0.286960 0.480190 -0.022525
0.286960 0.393191 -0.273960
0.286960 -0.356564 -0.300282
0.286960 -0.027548 0.454869
0.286960 -0.004620 0.450732
0.286960 -0.165011 0.440311
0.286960 -0.161106 0.430631
0.286960 -0.099728 -0.473820
0.286960 -0.411801 0.252980
0.286960 0.216037 0.428104
0.286960 0.331222 0.323335
0.286960 0.229107 0.388752
0.286960 0.291244 0.350342
0.286960 0.438894 -0.196126
0.286960 0.328902 0.367410
0.286960 0.383885 0.237768
0.286960 -0.432162 -0.184121
0.286960 -0.444414 -0.121401
0.286960 -0.206259 -0.410620
0.286960 -0.099021 0.477912
0.286960 -0.316878 0.319521
0.286960 0.146696 -0.450724
0.286960 0.470887 -0.072505
0.286960 0.244838 -0.424266
0.286960 -0.230494 0.438129
0.286960 0.184791 0.433458
0.286960 0.404387 0.288287
0.286960 0.298616 0.380814
0.286960 -0.477706 -0.025800
0.286960 0.123022 -0.434479
0.286960 0.018211 0.470126
0.286960 -0.438977 -0.073456
0.286960 -0.268393 -0.371698
0.286960 0.382706 -0.307780
0.286960 -0.304053 0.328727
0.286960 -0.042837 -0.473625
0.286960 -0.245670 0.369569
0.286960 0.332341 -0.299751
0.286960 0.268435 -0.374703
0.286960 0.493490 0.061918
0.286960 -0.270591 -0.358107
0.286960 0.481402 0.076721
0.286960 -0.360637 0.301201
0.286960 -0.034743 0.476879
0.286960 -0.023287 -0.498943
0.286960 -0.251975 -0.415555
0.286960 0.478914 0.069828
0.286960 0.192975 -0.455584
0.286960 -0.480230 -0.027616
0.286960 -0.414941 -0.175066
0.286960 -0.355081 0.335460
0.286960 -0.220218 0.412920
0.286960 -0.411300 -0.257875
0.286960 -0.125732 -0.479541
0.286960 -0.275527 -0.360721
0.286960 -0.382150 -0.256363
0.286960 0.370535 -0.269360
0.286960 0.375224 0.270772
0.286960 0.362258 -0.274778
0.286960 -0.256353 0.404643
0.286960 0.436007 0.091679
0.286960 0.193122 0.442356
0.286960 -0.344376 0.280907
0.286960 0.297041 -0.376050
0.286960 -0.382877 0.255894
0.286960 -0.166793 -0.435897
0.286960 0.439825 0.232281
0.286960 -0.368263 -0.258859
0.286960 -0.261674 0.375282
0.286960 0.271550 0.407616
0.286960 -0.138267 0.471262
0.286960 -0.478909 -0.009180
0.286960 -0.051284 0.492931
0.286960 -0.427909 -0.232587
0.286960 -0.086503 -0.467020
0.286960 -0.426407 -0.181210
0.286960 0.386581 0.291732
0.286960 -0.197029 -0.435108
0.286960 -0.465874 -0.154334
0.286960 0.035546 -0.493739
0.286960 -0.365128 -0.289802
0.286960 0.441944 -0.208417
0.286960 0.341134 -0.354094
0.286960 -0.496786 0.009926
0.286960 -0.301819 0.342046
0.286960 0.371586 0.328803
0.286960 0.096437 -0.471513
0.286960 -0.150865 0.418492
0.286960 -0.395102 -0.254511
0.286960 -0.053771 0.444601
0.286960 0.322356 0.326117
0.286960 -0.025639 0.485279
0.286960 0.236957 0.382362
0.286960 0.450113 0.128976
0.286960 -0.279571 0.383053
0.286960 0.327282 -0.352528
0.286960 0.197932 0.407914
0.286960 -0.451924 -0.063454
0.286960 -0.411403 0.225120
0.286960 0.356383 0.327801
0.286960 0.201051 -0.404927
0.286960 0.399642 0.197775
0.286960 -0.174451 -0.446028
0.286960 0.476359 0.123587
0.286960 0.206917 0.450180
0.286960 0.298262 0.372501
0.286960 -0.477299 -0.021864
0.286960 -0.142910 -0.458467
0.286960 0.405924 0.244766
0.286960 0.207553 0.439942
0.286960 -0.431793 0.209314
0.286960 -0.371050 -0.301150
0.286960 -0.080495 -0.472142
0.286960 -0.470190 -0.161778
0.286960 -0.493718 -0.017176
0.286960 -0.206739 -0.440892
0.286960 0.469285 -0.029285
0.286960 -0.291286 -0.369089
0.286960 0.284165 -0.347025
0.286960 -0.446821 -0.059433
0.286960 -0.026234 0.447485
0.286960 -0.023157 0.449244
0.286960 -0.491020 -0.023468
0.286960 0.078930 -0.468667
0.286960 -0.107742 0.468330
0.286960 -0.232205 -0.382331
0.286960 -0.472856 -0.079549
0.286960 0.044416 -0.457767
0.286960 -0.198011 -0.431460
0.286960 -0.108776 0.449130
0.286960 0.444271 0.039521
0.286960 0.344462 0.301468
0.286960 -0.461450 0.031075
0.286960 0.149696 0.455774
0.286960 0.053223 0.474196
0.286960 0.233746 0.391898
0.286960 -0.440510 0.060862
0.286960 -0.451305 -0.199622
0.286960 0.344635 -0.298374
0.286960 -0.451401 -0.145616
0.286960 0.117676 -0.449273
0.286960 -0.101837 -0.459055
0.286960 0.317199 0.319706
0.286960 -0.343146 -0.316575
0.286960 -0.284527 -0.386080
0.286960 0.356922 0.290512
0.286960 -0.464569 0.057325
0.286960 0.199537 -0.425423
0.286960 -0.464599 -0.088233
0.286960 -0.324264 0.313585
0.286960 0.435390 0.109982
0.286960 -0.455594 -0.062098
0.286960 -0.341209 0.294875
0.286960 -0.414885 0.158635
0.286960 0.459318 0.068281
0.286960 0.450109 -0.016524
0.286960 -0.366482 -0.274273
0.286960 -0.024169 0.456407
0.286960 0.023494 0.452907
0.286960 -0.006138 -0.470147
0.286960 0.341777 0.294431
0.286960 0.451499 -0.027911
0.286960 -0.436494 0.090974
0.286960 0.483268 0.068374
0.286960 0.453685 -0.146076
0.286960 -0.080587 -0.492755
0.286960 -0.473003 -0.106319
0.286960 -0.216041 -0.424667
0.286960 0.366736 -0.330669
0.286960 -0.010259 0.445122
0.286960 0.469386 -0.167950
0.286960 0.113333 0.482189
0.286960 0.359893 -0.296445
0.286960 0.233766 0.382335
0.286960 0.436093 -0.138697
0.286960 0.191263 -0.417763
0.286960 0.299379 -0.349699
0.286960 0.480735 0.086532
0.286960 0.072110 0.480689
0.286960 -0.471090 0.136439
0.286960 -0.486364 0.006183
0.286960 -0.375954 -0.264621
0.286960 -0.285730 0.339554
0.286960 0.129580 -0.477814
0.286960 0.443358 0.169466
0.286960 0.377233 -0.247755
0.286960 -0.455393 -0.107690
0.286960 -0.362014 -0.280212
0.286960 0.218464 0.403158
0.286960 -0.036678 0.483999
0.286960 0.165369 0.467390
0.286960 -0.444609 -0.017748
0.286960 -0.239606 0.412732
0.286960 -0.013593 0.483233
0.286960 0.444384 -0.112586
0.286960 -0.449883 0.133850
0.286960 0.439422 -0.184765
0.286960 -0.461988 -0.161761
0.286960 0.230304 -0.398532
0.286960 -0.122142 0.442881
0.286960 -0.335753 0.343566
0.286960 -0.435391 -0.157981
0.286960 0.450439 -0.203694
0.286960 0.422186 0.245379
0.286960 0.308171 0.360137
0.286960 0.410060 0.243871
0.286960 0.132694 0.440626
0.286960 -0.159912 0.457348
0.286960 0.379981 -0.244219
0.286960 -0.414558 0.174965
0.286960 -0.428603 -0.158037
0.286960 -0.298379 0.373724
0.286960 -0.487827 -0.029264
0.286960 -0.443587 -0.172738
0.286960 0.273297 -0.358851
0.286960 -0.175790 0.409882
0.286960 -0.101425 0.450649
0.286960 -0.302119 -0.328930
0.286960 0.483110 0.018848
0.286960 -0.445682 0.204544
0.286960 0.448679 0.041288
0.286960 -0.091054 -0.472786
0.286960 -0.404123 0.281879
0.286960 -0.464670 0.142264
0.286960 0.404514 0.189118
0.286960 -0.094256 0.444164
0.286960 0.483605 -0.063329
0.286960 0.427736 -0.178611
0.286960 0.435215 0.123316
0.286960 0.491403 -0.048321
0.286960 0.263637 0.410485
0.286960 -0.411089 -0.275538
0.286960 0.385426 -0.240755
0.286960 0.168837 -0.427729
0.286960 -0.157543 0.429549
0.286960 -0.119445 -0.479596
0.286960 0.472412 -0.103244
0.286960 -0.346898 0.309370
0.286960 -0.023218 0.474239
0.286960 0.043639 -0.480270
0.286960 0.113298 0.467933
0.286960 -0.486456 0.054681
0.286960 -0.452177 0.061432
0.286960 -0.096233 -0.458483
0.286960 0.160800 0.416173
0.286960 -0.346627 0.318765
0.286960 0.302477 -0.361377
0.286960 0.033617 -0.490969
0.286960 0.222494 -0.427164
0.286960 0.164334 0.446838
0.286960 0.229560 -0.437013
0.286960 -0.021803 0.487399
0.286960 -0.405000 0.253303
0.286960 -0.124481 0.434396
0.286960 0.233391 0.418498
0.286960 0.126401 0.463049
0.286960 0.329136 -0.303988
0.286960 -0.184028 -0.455671
0.286960 0.037117 -0.460564
0.286960 -0.405910 -0.283076
0.286960 -0.472379 0.068969
0.286960 0.238356 0.417113
0.286960 -0.286631 0.350242
0.286960 -0.090843 0.466384
0.286960 -0.220069 0.433697
0.286960 -0.349134 -0.341016
0.286960 0.294520 0.338186
0.286960 -0.295579 0.396030
0.286960 0.459649 0.023157
0.286960 0.307128 0.383548
0.286960 0.203015 0.395487
0.286960 0.317974 0.332247
0.286960 0.265724 0.366083
0.286960 0.417451 -0.177938
0.286960 -0.349990 -0.350948
0.286960 0.159813 -0.430306
0.286960 -0.414789 -0.241470
0.286960 -0.413361 -0.187635
0.286960 0.411832 -0.259552
0.286960 0.378204 -0.250999
0.286960 -0.435922 -0.111527
0.286960 -0.076041 -0.450832
0.286960 -0.227264 0.381180
0.286960 0.388263 -0.287314
0.286960 -0.303487 -0.391547
0.286960 0.013579 -0.492886
0.286960 0.374729 0.295760
0.286960 0.028382 0.464334
0.286960 0.323889 -0.380376
0.286960 -0.216893 -0.393029
0.286960 -0.043309 0.477421
0.286960 0.435969 -0.129301
0.286960 0.089968 -0.461769
0.286960 0.102409 0.469463
0.286960 0.442971 -0.169946
0.286960 0.208454 0.413803
0.286960 0.244905 0.387282
0.286960 0.251455 0.397326
0.286960 0.220097 -0.431624
0.286960 0.097842 0.443396
0.286960 -0.361661 -0.289482
0.286960 0.366135 0.271706
0.286960 0.370665 0.267790
0.286960 0.346143 0.290629
0.286960 0.476080 -0.012505
0.286960 0.326632 0.340758
0.286960 0.492444 -0.023603
0.286960 -0.093798 0.433816
0.286960 -0.305378 -0.366830
0.286960 -0.455728 -0.171220
0.286960 0.307223 0.321553
0.286960 -0.440336 -0.097056
0.286960 0.455803 0.030951
0.286960 -0.140034 -0.431191
0.286960 0.022231 -0.494211
0.286960 -0.286044 0.347182
0.286960 -0.465441 -0.170025
0.286960 0.156404 -0.430013
0.286960 -0.324329 0.318709
0.286960 -0.033745 0.461929
0.286960 -0.461082 0.099326
0.286960 0.219026 0.425467
0.286960 -0.279205 0.403056
0.286960 -0.200443 0.405306
0.286960 -0.352831 0.320069
0.286960 -0.407922 0.237995
0.286960 -0.428056 0.150872
0.286960 -0.178030 -0.447270
0.286960 0.006827 -0.458755
0.286960 0.244809 0.405438
0.286960 0.480703 0.053929
0.286960 0.338337 0.301845
0.286960 -0.433482 -0.125639
0.286960 -0.151357 -0.441285
0.286960 -0.458440 -0.117904
0.286960 -0.471736 -0.031163
0.286960 0.375606 0.313162
0.286960 -0.467700 0.134404
0.286960 0.072542 0.467858
0.286960 0.362082 -0.279340
0.286960 0.467721 -0.031990
0.286960 0.288605 -0.361875
0.286960 0.460513 -0.115857
0.286960 -0.015768 -0.483909
0.286960 0.447493 0.100871
0.286960 0.385995 -0.245697
0.286960 0.113502 0.449496
0.286960 0.464820 -0.035052
0.286960 0.156261 0.444797
0.286960 -0.241943 0.397742
0.286960 -0.313608 0.355544
0.286960 -0.448558 0.174672
0.286960 0.434733 -0.194761
0.286960 0.434770 -0.245308
0.286960 0.478798 0.011214
0.286960 0.006661 0.495076
0.286960 -0.035784 -0.494043
0.286960 -0.288415 -0.367294
0.286960 0.458795 -0.155585
0.286960 0.141648 0.452728
0.286960 0.409627 0.226420
0.286960 0.036316 0.487407
0.286960 0.357586 -0.305600
0.286960 -0.368960 0.252321
0.286960 -0.273860 -0.357699
0.286960 0.413623 0.246569
0.286960 -0.393057 -0.249551
0.286960 -0.256873 -0.428435
0.286960 -0.071115 -0.456686
0.286960 -0.442999 0.193351
0.286960 -0.221683 0.442693
0.286960 0.218028 0.422034
0.286960 -0.261118 -0.405068
0.286960 -0.134627 0.454183
0.286960 0.428468 0.176100
0.286960 -0.322351 0.305958
0.286960 -0.469829 0.047922
0.286960 -0.202406 -0.405105
0.286960 0.188639 0.427259
0.286960 -0.279062 0.349172
0.286960 -0.022469 0.478109
0.286960 0.441181 -0.068598
0.286960 -0.452182 0.056648
0.286960 0.121212 -0.455247
0.286960 -0.400438 0.205941
0.286960 -0.378906 0.308523
0.286960 -0.003055 0.468433
0.286960 0.478844 -0.108120
0.286960 -0.016323 -0.452353
0.286960 -0.352469 -0.299368
0.286960 0.298689 -0.369276
0.286960 0.338125 -0.348259
0.286960 0.040087 -0.454965
0.286960 -0.235550 0.407495
0.286960 0.011274 -0.490669
0.286960 -0.418379 -0.198406
0.286960 0.480925 -0.113052
0.286960 0.312157 -0.385801
0.286960 0.395557 0.298932
0.286960 0.316278 0.346079
0.286960 0.404177 -0.190881
0.286960 -0.164005 0.446865
0.286960 0.465780 0.057058
0.286960 0.160066 -0.437398
0.286960 -0.139302 0.449247
0.286960 -0.464368 -0.026155
0.286960 0.202496 0.441719
0.286960 -0.384473 0.245652
0.286960 -0.227554 0.414214
0.286960 -0.040917 0.473389
0.286960 -0.070566 -0.468940
0.286960 -0.262853 0.397601
0.286960 0.478049 0.046754
0.286960 -0.423683 0.147103
0.286960 0.075862 -0.454109
0.286960 0.129976 -0.446291
0.286960 -0.278982 0.390678
0.286960 -0.167726 0.465950
0.286960 0.369073 -0.254734
0.286960 -0.060407 0.469180
0.286960 0.244822 -0.386012
0.286960 -0.448614 -0.089025
0.286960 -0.302571 0.389468
0.286960 0.228634 -0.394652
0.286960 -0.442815 -0.201426
0.286960 -0.079298 0.481050
0.286960 0.477874 0.024306
0.286960 -0.393539 -0.269312
0.286960 0.211241 -0.446790
0.286960 -0.457238 -0.153165
0.286960 0.046401 -0.476417
0.286960 -0.194668 0.449745
0.286960 -0.255845 0.372567
0.286960 -0.149755 0.466058
0.286960 0.176199 -0.425177
0.286960 0.073690 -0.461589
0.286960 0.448374 0.164664
0.286960 -0.331054 -0.306663
0.286960 -0.097498 -0.475954
0.286960 0.438951 -0.217863
0.286960 0.329965 -0.371037
0.286960 -0.167395 -0.439928
0.286960 0.492056 0.040489
0.286960 -0.129632 0.475831
0.286960 -0.479921 -0.018581
0.286960 0.318219 0.311741
0.286960 -0.479951 0.042591
0.286960 0.454351 -0.137384
0.286960 0.286920 0.370807
0.286960 0.195054 -0.446487
0.286960 -0.493732 0.051520
0.286960 -0.135588 -0.431229
0.286960 0.128247 0.459301
0.286960 0.231998 -0.409719
0.286960 0.459061 0.182754
0.286960 -0.435601 -0.242183
0.286960 -0.424685 -0.198052
0.286960 -0.287149 0.343995
0.286960 -0.121208 0.471549
0.286960 0.436153 -0.109358
0.286960 0.051219 -0.476973
0.286960 0.077807 0.470722
0.286960 0.148721 0.470320
0.286960 -0.194406 -0.437753
0.286960 -0.322156 0.321751
0.286960 0.105118 -0.472784
0.286960 0.241573 -0.395906
0.286960 0.427995 -0.172394
0.286960 0.332694 0.331011
0.286960 0.119884 -0.464662
0.286960 0.018005 -0.453700
0.286960 0.229445 -0.411710
0.286960 0.422471 0.221973
0.286960 -0.210920 0.435689
0.286960 -0.312131 0.378965
0.286960 -0.263046 -0.363800
0.286960 0.427527 -0.227918
0.286960 0.424413 -0.179624
0.286960 0.477004 0.057007
0.286960 -0.360094 0.330641
0.286960 0.437761 -0.091135
0.286960 -0.377740 -0.273523
0.286960 0.111543 -0.473378
0.286960 -0.034435 0.465322
0.286960 -0.466864 -0.102864
0.286960 0.467981 0.097299
0.286960 0.447003 -0.086303
0.286960 0.326272 -0.360512
0.286960 0.155497 -0.472236
0.286960 -0.465884 -0.012386
0.286960 0.313371 0.334093
0.286960 -0.427189 0.237292
0.286960 -0.120863 0.476232
0.286960 0.255495 -0.428269
0.286960 0.481144 -0.082773
0.286960 -0.035712 -0.451562
0.286960 -0.399856 0.195022
0.286960 -0.083857 0.457312
0.286960 0.340072 -0.311135
0.286960 0.044729 0.454818
0.286960 0.072536 0.487255
0.286960 0.076994 0.478524
0.286960 -0.455430 0.005841
0.286960 -0.488775 0.075477
0.286960 -0.087045 0.459227
0.286960 -0.320705 -0.347836
0.286960 0.478363 -0.133491
0.286960 0.466065 0.089908
0.286960 0.364250 0.297241
0.286960 0.429933 0.224014
0.286960 -0.394914 0.203090
0.286960 0.257687 0.373289
0.286960 0.346093 0.279611
0.286960 -0.246601 -0.383559
0.286960 0.346735 0.317526
0.286960 -0.179458 -0.418979
0.286960 0.497186 0.013593
0.286960 0.081875 0.446036
0.286960 0.022701 0.491211
0.286960 -0.153473 -0.436907
0.286960 0.034337 -0.466147
0.286960 0.461461 -0.180146
0.286960 0.420413 0.240205
0.286960 -0.036286 0.492273
0.286960 0.404349 0.221961
0.286960 0.253196 -0.394620
0.286960 0.289540 0.385406
0.286960 -0.444657 -0.132918
0.286960 0.164872 0.426597
0.286960 0.315624 0.360847
0.286960 -0.062743 0.464426
0.286960 0.439730 -0.142187
0.286960 0.377433 0.254114
0.286960 0.273328 -0.377536
0.286960 0.474563 -0.028435
0.286960 -0.254406 0.407513
0.286960 0.406956 0.179760
0.286960 -0.235355 0.378200
0.286960 -0.224419 -0.398784
0.286960 -0.076059 0.441332
0.286960 0.483736 0.025526
0.286960 -0.213886 -0.451593
0.286960 0.473863 0.107346
0.286960 -0.395770 -0.266188
0.286960 0.017291 0.446411
0.286960 0.467331 0.068370
0.286960 0.389932 -0.256224
0.286960 -0.431025 -0.217726
0.286960 -0.439659 0.132965
0.286960 -0.204233 0.437448
0.286960 0.273456 0.389588
0.286960 0.486255 0.085680
0.286960 0.451905 0.040810
0.286960 -0.435176 0.176373
0.286960 0.449311 0.146639
0.286960 0.448181 -0.127458
0.286960 0.318364 0.325493
0.286960 -0.048264 -0.450144
0.286960 -0.484608 0.061062
0.286960 0.360558 0.312627
0.286960 0.447397 -0.012195
0.286960 0.275200 0.360371
0.286960 0.462670 -0.096452
0.286960 0.429389 -0.143018
0.286960 0.408432 0.268389
0.286960 0.101553 -0.471442
0.286960 -0.457446 -0.098627
0.286960 -0.473344 0.085385
0.286960 0.456574 -0.166942
0.286960 0.403976 0.208948
0.286960 0.406141 -0.256944
0.286960 -0.453255 0.190906
0.286960 -0.193168 -0.410259
0.286960 -0.217727 -0.436989
0.286960 -0.309799 0.323312
0.286960 0.268856 0.396038
0.286960 -0.119827 -0.471972
0.286960 -0.103175 -0.488120
0.286960 -0.428513 0.193375
0.286960 0.433508 -0.112088
0.286960 -0.399320 -0.216466
0.286960 0.481563 -0.026775
0.286960 -0.406007 -0.218856
0.286960 -0.451048 -0.209657
0.286960 0.071393 -0.447144
0.286960 0.275943 -0.366648
0.286960 -0.446358 0.191046
0.286960 -0.155395 0.435058
0.286960 -0.249695 0.400391
0.286960 0.302800 -0.353944
0.286960 0.146236 -0.443024
0.286960 -0.349853 0.291094
0.286960 -0.127972 -0.450290
0.286960 0.153276 -0.453666
0.286960 -0.379795 -0.290295
0.286960 -0.174530 -0.430938
0.286960 -0.393665 -0.285391
0.286960 -0.444268 0.166755
0.286960 0.395724 0.214106
0.286960 -0.122328 0.459225
0.286960 -0.125163 -0.451934
0.286960 0.395177 -0.244910
0.286960 -0.459671 -0.090455
0.286960 0.233405 0.410852
0.286960 -0.045602 -0.490268
0.286960 -0.406931 0.242223
0.286960 0.093186 0.485780
0.286960 -0.479161 -0.092067
0.286960 -0.350134 0.318192
0.286960 0.303450 -0.380508
0.286960 0.299604 -0.374373
0.286960 0.143684 -0.468803
0.286960 -0.035957 0.446890
0.286960 0.092938 0.472828
0.286960 0.435579 0.115322
0.286960 0.247362 0.418280
0.286960 0.461936 0.143039
0.286960 -0.478211 -0.088567
0.286960 0.148812 -0.477217
0.286960 0.165789 0.435732
0.286960 0.137840 0.435500
0.286960 -0.390289 -0.304479
0.286960 -0.494219 -0.025439
0.286960 0.350765 0.304009
0.286960 -0.218879 0.416701
0.286960 -0.238882 -0.434012
0.286960 0.220219 0.432233
0.286960 0.478179 0.091144
0.286960 -0.481596 -0.089830
0.286960 -0.168867 0.414135
0.286960 0.377059 -0.256922
0.286960 -0.200667 -0.433203
0.286960 -0.400232 0.279955
0.286960 0.019206 0.480712
0.286960 0.329148 0.342927
0.286960 0.459772 -0.038663
0.286960 0.167570 0.438474
0.286960 0.432901 0.179225
0.286960 0.217979 0.413049
0.286960 0.459507 -0.013174
0.286960 -0.182296 -0.441257
0.286960 0.208150 0.420828
0.286960 0.264091 -0.369892
0.286960 -0.444697 0.015453
0.286960 0.474964 -0.150310
0.286960 -0.435431 0.150305
0.286960 -0.119773 0.461436
0.286960 -0.372573 -0.298417
0.286960 -0.252170 -0.381839
0.286960 0.363204 -0.314195
0.286960 0.203002 -0.424406
0.286960 -0.487049 -0.034280
0.286960 -0.422848 0.253284
0.286960 0.255433 -0.373256
0.286960 -0.082638 -0.484585
0.286960 0.199995 0.404427
0.286960 -0.332202 -0.338383
0.286960 -0.419473 0.200640
0.286960 0.211363 0.444354
0.286960 0.457707 -0.003854
0.286960 -0.410597 0.204363
0.286960 0.001381 -0.473164
0.286960 -0.000630 0.443789
0.286960 -0.399749 -0.248154
0.286960 -0.483355 0.029408
0.286960 -0.385920 -0.307383
0.286960 -0.335866 0.302789
0.286960 0.445495 -0.023022
0.286960 0.429310 -0.139058
0.286960 0.228946 -0.401914
0.286960 0.098589 -0.475201
0.286960 -0.324153 -0.338355
0.286960 -0.280027 0.352791
0.286960 -0.196887 -0.451603
0.286960 -0.411780 -0.280803
0.286960 -0.446036 0.122311
0.286960 0.084878 -0.463517
0.286960 -0.369155 0.269071
0.286960 -0.338941 0.318075
0.286960 0.347385 -0.289143
0.286960 -0.255006 -0.393457
0.286960 0.115402 -0.462441
0.286960 -0.478291 -0.138619
0.286960 -0.343562 -0.333420
0.286960 -0.357021 0.331856
0.286960 0.442344 -0.091709
0.286960 -0.451628 0.112053
0.286960 -0.477649 -0.061415
0.286960 -0.345869 0.300344
0.286960 -0.373213 -0.331217
0.286960 0.452311 0.086859
0.286960 0.446950 0.177467
0.286960 -0.103214 0.447113
0.286960 0.094915 0.461797
0.286960 -0.189838 -0.432943
0.286960 0.484750 -0.033006
0.286960 -0.323876 -0.320015
0.286960 -0.202417 0.411786
0.286960 -0.337526 -0.322633
0.286960 -0.223396 -0.418877
0.286960 -0.371170 -0.310141
0.286960 -0.054185 0.488033
0.286960 0.319001 -0.313945
0.286960 0.247870 -0.395033
0.286960 0.136699 -0.427558
0.286960 0.437001 0.215654
0.286960 0.397086 -0.281012
0.286960 0.003007 0.470443
0.286960 0.401630 -0.295656
0.286960 -0.181910 -0.463829
0.286960 0.092091 -0.470877
0.286960 -0.389429 0.218301
0.286960 0.422731 -0.208357
0.286960 0.302213 -0.347278
0.286960 -0.379632 -0.262845
0.286960 -0.334286 -0.312695
0.286960 -0.310493 0.351088
0.286960 -0.428671 -0.122332
0.286960 -0.112475 -0.466337
0.286960 0.119985 0.426780
0.286960 0.228675 0.408017
0.286960 -0.482405 0.036541
0.286960 0.322134 -0.332218
0.286960 -0.032712 -0.460590
0.286960 0.189031 -0.462639
0.286960 -0.257433 0.396210
0.286960 -0.441214 -0.145217
0.286960 -0.301383 0.372558
0.286960 -0.419251 0.253433
0.286960 -0.252398 0.397830
0.286960 -0.127484 0.463608
0.286960 0.206600 -0.403404
0.286960 0.321411 -0.357054
0.286960 0.165802 -0.450330
0.286960 0.228081 -0.431170
0.286960 0.439862 -0.230949
0.286960 -0.455407 -0.163062
0.286960 0.309443 0.356243
0.286960 -0.185270 -0.446091
0.286960 0.348278 -0.355743
0.286960 -0.448446 -0.139512
0.286960 -0.434913 0.200650
0.286960 -0.054929 -0.464106
0.286960 -0.455671 0.168107
0.286960 0.079226 0.484625
0.286960 0.330196 -0.350689
0.286960 -0.085196 -0.443941
0.286960 -0.454444 -0.130195
0.286960 -0.118523 0.452722
0.286960 -0.396137 -0.282617
0.286960 -0.005165 0.464217
0.286960 0.108999 -0.476147
0.286960 -0.022942 -0.472130
0.286960 -0.093392 0.470490
0.286960 0.470313 -0.054829
0.286960 -0.460976 -0.072368
0.286960 0.064248 0.485792
0.286960 0.286634 -0.394568
0.286960 0.345740 -0.308499
0.286960 -0.246495 -0.394146
0.286960 -0.347284 -0.343935
0.286960 0.363306 -0.299009
0.286960 -0.300203 0.358738
0.286960 -0.312273 0.337145
0.286960 -0.444370 -0.023046
0.286960 0.002953 -0.476210
0.286960 0.097593 -0.488760
0.286960 0.429155 -0.218844
0.286960 0.405636 0.184286
0.286960 0.006050 -0.475329
0.286960 -0.411463 0.248199
0.286960 -0.481759 -0.076067
0.286960 -0.195880 -0.402368
0.286960 0.452731 -0.093121
0.286960 -0.474968 -0.012581
0.286960 -0.353501 -0.350550
0.286960 -0.412593 0.268617
0.286960 -0.444059 0.200984
0.286960 0.170064 0.413857
0.286960 0.467268 -0.130084
0.286960 -0.059593 -0.463461
0.286960 -0.484085 0.107698
0.286960 0.415168 -0.169023
0.286960 -0.002040 -0.499618
0.286960 0.011951 0.475382
0.286960 0.212198 -0.414821
0.286960 -0.449122 -0.129249
0.286960 0.422357 0.228665
0.286960 -0.272233 -0.396189
0.286960 -0.475362 -0.000508
0.286960 0.240493 0.378516
0.286960 -0.427167 0.147680
0.286960 0.112132 -0.446092
0.286960 -0.263624 0.387013
0.286960 -0.115932 -0.440651
0.286960 -0.475702 0.094463
0.286960 -0.473788 0.114251
0.286960 -0.420328 -0.153323
0.286960 -0.258461 0.399191
0.286960 0.386533 0.243040
0.286960 -0.426489 0.253945
0.286960 0.217377 -0.396230
0.286960 0.427508 0.253939
0.286960 0.272402 0.397376
0.286960 0.278534 0.374941
0.286960 -0.082010 -0.446393
0.286960 0.150763 -0.421297
0.286960 0.453585 0.169288
0.286960 0.474175 0.073522
0.286960 0.497676 -0.004499
0.286960 0.079091 0.480959
0.286960 -0.474248 -0.126304
0.286960 -0.481238 0.062444
0.286960 -0.484543 -0.000595
0.286960 -0.263577 -0.402310
0.286960 0.447006 0.015332
0.286960 -0.329855 0.324096
0.286960 -0.455953 -0.102022
0.286960 -0.353152 -0.308550
0.286960 -0.034829 -0.476715
0.286960 0.475128 0.068947
0.286960 0.053886 -0.447752
0.286960 -0.374000 -0.303303
0.286960 -0.021735 -0.454538
0.286960 0.132664 0.457580
0.286960 0.438317 -0.199149
0.286960 -0.391084 0.225905
0.286960 0.476797 -0.032563
0.286960 0.394916 -0.239996
0.286960 -0.299139 0.339623
0.286960 0.369630 -0.333370
0.286960 0.127655 0.436084
0.286960 -0.474212 0.100244
0.286960 0.366506 0.294925
0.286960 -0.391654 0.211974
0.286960 0.254492 -0.414150
0.286960 0.463539 0.116780
0.286960 0.124683 -0.479344
0.286960 0.245858 0.373318
0.286960 -0.470889 -0.060830
0.286960 -0.123220 0.426423
0.286960 0.133412 0.430769
0.286960 0.311964 0.328159
0.286960 -0.368323 0.290145
0.286960 -0.196143 0.406103
0.286960 0.427801 -0.161912
0.286960 -0.119092 0.427187
0.286960 -0.389493 0.265201
0.286960 -0.357398 0.294087
0.286960 0.084228 -0.468219
0.286960 0.380931 0.231213
0.286960 -0.473431 0.065476
0.286960 -0.469518 -0.115832
0.286960 -0.420392 0.161562
0.286960 -0.358305 -0.282660
0.286960 -0.398554 0.283776
0.286960 0.015085 -0.457939
0.286960 0.474832 0.085101
0.286960 0.262678 0.389848
0.286960 -0.397119 0.268421
0.286960 -0.464279 -0.136293
0.286960 -0.081161 -0.440209
0.286960 -0.433922 -0.100173
0.286960 0.312964 -0.378271
0.286960 0.312730 0.355475
0.286960 0.225103 -0.395832
0.286960 -0.470526 -0.065484
0.286960 -0.111145 0.432360
0.286960 0.270400 -0.402241
0.286960 -0.212020 -0.396340
0.286960 -0.313834 0.340347
0.286960 0.176225 -0.412957
0.286960 0.240432 0.401700
0.286960 0.451846 0.186649
0.286960 0.315339 -0.364368
0.286960 -0.005414 0.485262
0.286960 -0.418282 -0.243173
0.286960 -0.284327 0.390744
0.286960 -0.457483 0.044124
0.286960 -0.320734 -0.382703
0.286960 0.402713 0.196370
0.286960 -0.337191 -0.339354
0.286960 -0.203494 -0.445363
0.286960 0.433690 -0.209626
0.286960 0.355080 -0.283183
0.286960 0.496862 -0.024586
0.286960 0.220176 -0.401934
0.286960 -0.454952 0.198302
0.286960 0.355448 0.317614
0.286960 -0.276663 -0.415804
0.286960 0.418172 -0.197355
0.286960 -0.087270 0.466389
0.286960 0.005282 -0.447581
0.286960 0.477758 0.101418
0.286960 0.478277 -0.015216
0.286960 -0.317611 -0.385147
0.286960 -0.421272 0.223951
0.286960 0.143528 0.444966
0.286960 0.253979 0.406965
0.286960 -0.430754 0.233786
0.286960 0.479411 0.130646
0.286960 0.118955 0.430928
0.286960 0.415174 0.183181
0.286960 -0.436721 0.138883
0.286960 -0.326258 -0.329850
0.286960 0.389179 -0.295509
0.286960 0.434559 0.197221
0.286960 0.454757 0.190245
0.286960 0.467663 0.124320
0.286960 -0.080266 -0.465056
0.286960 0.389189 -0.230308
0.286960 0.060794 0.443525
0.286960 -0.375357 0.266527
0.286960 -0.286092 0.387309
0.286960 0.081901 0.437731
0.286960 -0.254264 0.418626
0.286960 -0.481403 0.046068
0.286960 -0.364672 -0.336840
0.286960 -0.217246 0.431577
0.286960 0.039528 0.444567
0.286960 0.029542 -0.464835
0.286960 0.432197 -0.200392
0.286960 -0.046595 0.457680
0.286960 0.454506 -0.126676
0.286960 0.284520 -0.351056
0.286960 -0.392621 0.292529
0.286960 -0.162235 -0.426163
0.286960 0.470312 -0.111119
0.286960 -0.463597 0.158263
0.286960 -0.113435 0.458357
0.286960 -0.417200 0.218258
0.286960 -0.431815 -0.211560
0.286960 0.197233 -0.440540
0.286960 0.117120 0.468064
0.286960 0.469133 0.047882
0.286960 -0.392508 0.229114
0.286960 -0.321140 -0.330377
0.286960 -0.457064 0.141316
0.286960 0.407010 -0.280540
0.286960 0.100284 -0.485341
0.286960 -0.402147 -0.193454
0.286960 0.300754 0.375546
0.286960 0.174154 -0.455018
0.286960 -0.153084 -0.433285
0.286960 -0.455401 0.194022
0.286960 -0.267256 -0.375233
0.286960 0.466091 0.060791
0.286960 -0.393260 -0.293522
0.286960 0.216197 0.405844
0.286960 0.346059 0.346445
0.286960 0.209487 -0.401295
0.286960 -0.419101 0.221525
0.286960 -0.399187 0.246191
0.286960 0.369143 -0.298935
0.286960 0.446476 -0.104303
0.286960 0.354138 0.285669
0.286960 0.286532 0.386880
0.286960 -0.103379 0.467868
0.286960 0.212271 -0.427044
0.286960 0.204008 0.406915
0.286960 0.161065 -0.460762
0.286960 0.146812 0.450842
0.286960 -0.433540 0.099910
0.286960 -0.418953 -0.254819
0.286960 -0.461764 -0.058286
0.286960 -0.196154 -0.456681
0.286960 -0.090249 0.474733
0.286960 -0.387990 0.268530
0.286960 -0.474874 0.089617
0.286960 -0.235833 0.403681
0.286960 0.266806 0.360245
0.286960 -0.461675 0.084198
0.286960 0.219491 -0.390281
0.286960 0.372200 -0.250153
0.286960 -0.469542 -0.085120
0.286960 0.442787 -0.065530
0.286960 -0.426330 -0.187521
0.286960 0.454144 0.079419
0.286960 -0.466235 0.009799
0.286960 -0.403158 -0.221070
0.286960 -0.404408 -0.233870
0.286960 -0.106499 0.479478
0.286960 -0.488822 -0.007403
0.286960 0.113167 0.442129
0.286960 -0.464106 0.002528
0.286960 -0.467423 0.030699
0.286960 -0.410743 -0.183334
0.286960 0.268914 0.401361
0.286960 -0.363458 0.264529
0.286960 -0.274516 -0.405370
0.286960 -0.303182 -0.335224
0.286960 0.441611 0.105134
0.286960 -0.427910 -0.167065
0.286960 -0.430289 0.199198
0.286960 0.372298 0.307112
0.286960 0.407667 -0.273899
0.286960 -0.460982 -0.134348
0.286960 -0.365737 0.318569
0.286960 0.307529 -0.371763
0.286960 0.277259 -0.406416
0.286960 0.306315 -0.333011
0.286960 0.397912 0.252134
0.286960 0.141956 0.456072
0.286960 -0.469330 0.026283
0.286960 0.235602 0.427866
0.286960 -0.162977 0.456907
0.286960 -0.328588 0.350899
0.286960 -0.288434 -0.349639
0.286960 -0.436353 -0.103185
0.286960 0.215232 -0.440842
0.286960 -0.468915 -0.136245
0.286960 0.020352 0.495316
0.286960 -0.218550 -0.419497
0.286960 -0.140441 0.457900
0.286960 0.038980 -0.474593
0.286960 0.354874 -0.300717
0.286960 -0.323328 -0.380438
0.286960 0.291070 -0.405099
0.286960 -0.025943 -0.470180
0.286960 0.017369 0.463122
0.286960 0.437674 0.105929
0.286960 -0.318280 0.367889
0.286960 -0.476260 0.107013
0.286960 0.392976 0.271740
0.286960 0.482484 -0.000119
0.286960 0.081874 -0.461588
0.286960 -0.283797 -0.389913
0.286960 0.207504 -0.434117
0.286960 0.469505 -0.116718
0.286960 -0.131038 -0.427817
0.286960 0.210999 -0.418032
0.286960 -0.468048 0.098640
0.286960 -0.389921 0.234214
0.286960 0.099292 0.481442
0.286960 0.478115 -0.142779
0.286960 0.335844 0.308271
0.286960 0.466349 0.045694
0.286960 0.279137 0.384805
0.286960 -0.416483 0.191327
0.286960 0.431196 0.129816
0.286960 -0.421709 -0.162178
0.286960 0.342440 -0.324195
0.286960 0.465760 -0.048538
0.286960 -0.489574 -0.015251
0.286960 0.446452 -0.141804
0.286960 -0.411741 -0.267389
0.286960 0.495148 -0.007715
0.286960 -0.283965 0.398104
0.286960 0.135979 0.465436
0.286960 0.399362 -0.288226
0.286960 -0.435320 0.096397
0.286960 0.234857 -0.420837
0.286960 0.009404 0.488781
0.286960 0.369032 -0.295322
0.286960 0.249687 0.415938
0.286960 0.216140 0.431758
0.286960 -0.450524 0.011246
0.286960 0.255493 0.395187
0.286960 0.451906 -0.023598
0.286960 0.006527 -0.498923
0.286960 0.448378 0.161037
0.286960 -0.286403 0.353693
0.286960 -0.422563 -0.219083
0.286960 0.229241 0.436072
0.286960 0.431803 -0.175671
0.286960 0.347328 -0.345108
0.286960 0.331601 0.314634
0.286960 0.463819 -0.121983
0.286960 0.376815 -0.298131
0.286960 -0.038336 -0.474431
0.286960 -0.147046 -0.447846
0.286960 -0.453158 -0.112027
0.286960 0.171848 -0.445793
0.286960 0.213661 0.390207
0.286960 -0.061823 0.445318
0.286960 0.031194 0.482936
0.286960 0.463120 0.045872
0.286960 -0.417053 -0.203870
0.286960 0.246822 0.425459
0.286960 0.157981 0.469854
0.286960 0.297622 0.336543
0.286960 -0.030237 -0.498686
0.286960 0.208688 -0.409330
0.286960 -0.160615 0.426913
0.286960 -0.128390 -0.438783
0.286960 0.012561 0.455051
0.286960 -0.035143 0.488194
0.286960 0.207736 0.392439
0.286960 0.282268 -0.403300
0.286960 -0.248157 -0.400856
0.286960 0.258714 -0.410569
0.286960 0.256946 -0.366544
0.286960 -0.240747 -0.408169
0.286960 -0.443964 -0.088788
0.286960 0.485362 0.059666
0.286960 -0.164489 0.432567
0.286960 0.425159 0.257401
0.286960 0.134350 0.452345
0.286960 0.492345 -0.012161
0.286960 -0.339441 0.356537
0.286960 -0.261902 -0.382373
0.286960 -0.342825 -0.313344
0.286960 -0.099070 0.481635
0.286960 0.302699 -0.370277
0.286960 0.046281 -0.452486
0.286960 0.414421 0.187388
0.286960 -0.318335 0.346431
0.286960 0.358670 -0.272958
0.286960 0.442330 -0.216275
0.286960 -0.037389 0.479802
0.286960 0.132437 -0.480467
0.286960 -0.430046 0.211940
0.286960 -0.179674 0.460099
0.286960 -0.261673 -0.367320
0.286960 0.294596 0.347066
0.286960 -0.419505 -0.189811
0.286960 -0.210001 -0.452640
0.286960 0.121849 0.461083
0.286960 -0.221869 -0.413015
0.286960 0.120394 0.469529
0.286960 -0.034281 -0.463763
0.286960 -0.492024 -0.020069
0.286960 0.426670 -0.251023
0.286960 -0.244716 0.374806
0.286960 -0.483657 -0.093384
0.286960 -0.087784 -0.487231
0.286960 0.306415 -0.352819
0.286960 -0.341836 0.346094
0.286960 -0.482274 0.110826
0.286960 -0.002252 0.455404
0.286960 -0.463064 -0.013956
0.286960 0.155073 0.431186
0.286960 0.452553 0.069670
0.286960 -0.199351 0.402473
0.286960 -0.252801 0.411885
0.286960 0.320886 0.352516
0.286960 0.283257 -0.375048
0.286960 0.176820 -0.431403
0.286960 0.338165 -0.357931
0.286960 -0.278279 0.355630
0.286960 0.459724 0.096053
0.286960 0.432162 -0.191763
0.286960 0.126098 -0.466962
0.286960 -0.138049 0.463851
0.286960 -0.468647 -0.110738
0.286960 -0.454187 0.150167
0.286960 0.444511 0.138811
0.286960 0.402795 0.291329
0.286960 -0.450579 0.036123
0.286960 0.436981 -0.113169
0.286960 -0.246521 0.402258
0.286960 -0.227828 -0.397801
0.286960 0.019504 0.454991
0.286960 0.096836 0.458060
0.286960 0.332055 0.349606
0.286960 0.395922 0.244968
0.286960 0.411805 -0.233330
0.286960 0.027589 -0.495227
0.286960 -0.052754 -0.483473
0.286960 -0.059506 -0.489264
0.286960 0.445802 0.076917
0.286960 -0.249883 0.370112
0.286960 -0.440477 -0.166039
0.286960 0.088890 -0.469645
0.286960 -0.482172 -0.037459
0.286960 -0.376986 -0.278154
0.286960 -0.382816 -0.282564
0.286960 -0.007913 0.461678
0.286960 -0.157072 0.455618
0.286960 0.292914 -0.390733
0.286960 -0.387892 0.303713
0.286960 0.299477 -0.360478
0.286960 -0.316668 -0.314802
0.286960 -0.326555 -0.371703
0.286960 0.492536 -0.064448
0.286960 0.122435 -0.441699
0.286960 -0.140556 0.468978
0.286960 -0.403286 0.270268
0.286960 -0.000803 0.488190
0.286960 -0.441487 -0.181293
0.286960 -0.150070 0.445328
0.286960 -0.160154 -0.469241
0.286960 -0.307505 0.339856
0.286960 0.449388 0.211327
0.286960 -0.244447 0.404648
0.286960 -0.254495 -0.374735
0.286960 0.453727 -0.004498
0.286960 0.493282 0.069267
0.286960 -0.272744 -0.384917
0.286960 -0.065627 0.443691
0.286960 0.318123 0.316250
0.286960 -0.481655 -0.126170
0.286960 0.429483 0.211295
0.286960 -0.495473 0.039248
0.286960 0.223408 -0.432003
0.286960 0.042403 -0.460292
0.286960 -0.263860 -0.379161
0.286960 -0.039169 -0.450650
0.286960 -0.010272 -0.479428
0.286960 0.030990 0.466149
0.286960 0.412415 0.215833
0.286960 0.011258 -0.497030
0.286960 0.058442 -0.447302
0.286960 0.029365 0.456642
0.286960 0.383796 -0.317749
0.286960 0.444934 -0.036921
0.286960 -0.426087 -0.131781
0.286960 0.185770 0.411373
0.286960 -0.282928 -0.381339
0.286960 -0.487956 -0.021074
0.286960 0.244113 -0.379067
