-0.218594 0.497319 -0.038563
0.278183 -0.420734 -0.267884
0.256196 -0.411423 0.277640
-0.249940 -0.024004 -0.499516
0.042429 -0.113767 0.482630
-0.071950 -0.336545 0.364622
-0.006757 -0.220955 0.443802
0.263734 -0.223300 -0.447076
-0.228412 -0.261480 0.421523
-0.169343 -0.339255 -0.366258
-0.289409 -0.211406 0.448507
0.002740 -0.226092 0.441271
-0.140194 -0.041699 -0.498452
-0.017635 -0.325153 0.374503
-0.179906 -0.158120 -0.474376
0.222157 0.252659 -0.431584
-0.170812 0.251450 -0.432277
-0.046443 0.293817 -0.404647
-0.247484 -0.495616 -0.044650
0.105698 -0.482173 -0.124895
-0.104502 -0.404736 0.287202
-0.198375 0.173308 0.464824
-0.271231 0.128138 0.479299
0.213489 0.392336 0.305241
-0.041365 0.477347 -0.145615
-0.123958 0.464306 0.179363
0.203395 -0.349930 -0.356034
0.224259 -0.409889 0.279834
-0.166335 0.498053 -0.022203
0.175485 -0.378708 -0.324882
-0.133433 -0.486887 -0.104078
0.021589 0.360278 -0.346710
0.232117 -0.018548 0.495499
0.123794 0.133230 -0.482102
0.229422 0.198213 -0.459233
-0.103528 0.396586 0.299607
-0.264391 -0.465832 0.172365
-0.086409 -0.260261 -0.426373
0.203533 -0.456069 0.196588
-0.181340 0.454281 -0.207209
0.031431 -0.489729 0.085081
0.066990 -0.271488 -0.419529
0.074753 -0.383257 -0.319581
0.272472 -0.490487 -0.085970
-0.096331 -0.152996 0.471601
-0.148320 -0.406801 0.284249
-0.110221 -0.333965 0.366942
0.205830 0.282538 -0.412650
-0.134971 -0.081420 -0.493335
0.260148 0.482309 0.123764
0.071200 -0.197599 -0.459051
-0.205872 0.444793 -0.227165
-0.230842 0.035624 0.494687
0.075639 -0.169008 0.466078
-0.105149 -0.001328 -0.500229
-0.043820 0.498148 -0.020083
0.153570 0.215260 -0.451466
0.286219 -0.248124 -0.433772
0.196980 0.008243 -0.500056
0.008855 -0.454833 -0.203980
0.172783 -0.108048 -0.488184
0.004240 0.199294 0.454396
-0.199847 0.381633 0.318314
-0.208763 -0.461273 -0.188534
0.273096 0.492588 0.074179
-0.020637 -0.126679 -0.483756
-0.243896 0.217079 0.446416
-0.208999 0.493875 -0.071304
0.097597 0.037239 -0.498771
-0.013909 -0.476354 0.141157
-0.002115 -0.133176 -0.481987
-0.199926 0.281378 -0.413417
-0.284378 0.234760 0.437229
0.170292 0.362686 -0.344051
0.056532 0.186062 0.460038
-0.191864 -0.409260 -0.285265
0.154580 -0.157627 0.470004
-0.126416 -0.196045 0.455356
0.069685 0.333776 -0.372337
0.177749 0.471906 -0.163264
0.048083 -0.497530 -0.000882
0.258223 -0.111905 0.483020
0.169959 -0.123156 0.480247
0.070034 0.360609 0.341764
-0.119409 0.347110 -0.359686
-0.156522 0.175296 0.464077
-0.221361 -0.177702 0.463003
-0.026342 -0.239039 -0.438789
-0.175650 -0.311164 -0.390510
-0.290230 0.463961 -0.184438
-0.055008 0.459046 0.191980
-0.055424 0.085537 0.488449
-0.000750 0.392548 0.304959
0.169407 -0.012196 -0.500045
-0.007102 -0.385080 0.312936
-0.060706 -0.479858 -0.133281
-0.231659 0.496422 -0.047776
-0.105249 -0.321156 0.377933
-0.123055 -0.372816 0.327382
0.093951 0.494145 0.063417
0.118662 -0.476483 0.140737
0.285256 -0.476463 0.140801
-0.123736 -0.476378 -0.145889
0.255657 0.106421 -0.488737
0.186913 0.498186 -0.019229
-0.285457 0.066441 0.491536
0.246767 0.309444 0.388345
0.266889 -0.384605 -0.318010
-0.113119 0.418907 -0.272468
-0.088696 0.156844 -0.474981
-0.220260 0.270807 0.416216
-0.114548 0.305333 -0.395960
-0.242391 -0.220418 0.444067
0.044992 -0.455623 0.197580
-0.195598 0.209398 0.449863
-0.075959 -0.113969 0.482588
-0.051915 -0.497581 0.001972
0.267595 0.237315 0.435883
-0.209763 0.420797 0.264988
-0.029784 -0.294335 0.399130
-0.250660 0.457802 -0.199363
0.044928 -0.481758 -0.126400
-0.137391 0.446124 0.220035
-0.271059 0.386784 0.312310
0.142299 -0.488443 -0.096653
0.104836 0.397605 0.298257
-0.183524 -0.350792 0.350751
0.185258 0.488591 -0.101994
0.022836 -0.156621 -0.474833
-0.176263 -0.364605 -0.340961
-0.004493 0.114564 -0.487031
-0.048746 0.038482 -0.498670
0.249346 0.370777 -0.335118
-0.019349 -0.397592 0.297245
0.281147 -0.225783 0.441423
0.032108 -0.030624 0.494870
-0.029973 0.496946 -0.042922
-0.116108 0.093873 0.487014
0.171166 0.063062 -0.496250
-0.183346 0.285616 0.406061
-0.181507 0.437598 -0.240830
-0.040073 -0.026382 0.495214
0.206661 0.245686 0.431476
-0.022832 0.065508 -0.495896
0.201024 0.207887 -0.455099
-0.168791 -0.137388 -0.480702
0.077920 0.270707 0.416276
-0.049678 -0.205286 0.451504
0.254449 -0.482095 0.120689
-0.212319 -0.443944 -0.226732
-0.079887 0.409201 -0.286636
0.180797 -0.144161 0.474448
0.024612 0.342535 -0.364141
0.254067 0.021700 -0.499814
-0.221957 0.428504 -0.256726
0.016106 -0.128676 0.478723
-0.118886 -0.273350 -0.418276
-0.277708 0.479000 0.135749
0.034850 0.056463 -0.497204
0.279351 -0.224142 -0.446633
0.058192 -0.472815 0.152759
0.148321 0.468241 0.168867
-0.096650 0.494858 -0.062246
-0.000677 -0.272660 -0.418759
0.105095 -0.346938 0.354503
-0.288368 -0.174111 0.464317
0.229070 0.294618 0.399766
0.270364 -0.294056 0.399341
0.258145 0.486731 0.105365
0.046777 -0.047004 0.493543
-0.236781 0.071339 0.490893
0.028623 -0.205220 -0.455631
0.116523 0.485758 -0.113941
0.159675 0.389256 0.309324
0.164116 0.462944 0.182630
-0.213370 0.496225 -0.049598
-0.286796 0.486839 -0.109390
-0.149921 -0.084057 -0.492881
-0.176272 0.294059 0.400156
-0.035187 -0.213659 -0.451844
-0.167757 -0.384807 -0.317774
-0.162869 -0.452146 0.205330
-0.041326 -0.419825 -0.269262
-0.019342 -0.371913 -0.332801
0.152064 0.133186 -0.482114
0.271054 -0.370294 -0.334687
0.061012 0.426246 -0.260429
0.257992 0.455694 -0.204060
-0.274903 0.175752 0.463906
-0.033824 -0.488908 -0.094433
0.120155 -0.127551 -0.483549
-0.211781 0.321579 0.378669
0.266597 -0.419344 -0.269990
0.098428 -0.163495 -0.472474
0.280914 0.292886 0.400977
0.135847 -0.492387 -0.072839
-0.072101 -0.013886 -0.499970
-0.149003 0.333551 0.367999
-0.012665 0.374776 -0.330703
0.286336 0.142106 -0.479652
0.146713 0.322548 0.377896
0.104095 -0.185176 0.459888
0.117910 -0.423087 0.259576
0.223137 0.459398 -0.195807
-0.226338 0.104013 0.485032
0.137087 0.430973 -0.252675
-0.174450 0.487725 0.100616
0.090641 0.133942 -0.481906
-0.138673 -0.237937 0.435085
-0.226301 -0.458711 0.190700
0.081385 -0.243547 0.431868
0.263066 0.087829 0.488054
0.111466 -0.114998 0.482372
0.234675 0.498475 0.000938
-0.249381 -0.043002 -0.498312
-0.159229 -0.487073 -0.103191
-0.117516 0.478039 0.139232
-0.250938 0.489771 -0.095140
0.230980 0.391433 -0.310608
-0.071105 -0.368393 0.332265
-0.271531 -0.214681 -0.451386
-0.019939 -0.424757 -0.261539
0.258739 -0.403136 -0.293920
0.186001 0.339097 -0.367488
0.213489 -0.496930 0.020046
0.272406 0.498048 -0.022320
0.073661 0.466014 0.175267
-0.271085 0.443991 0.224364
0.146176 -0.388958 -0.312714
0.189809 0.249996 -0.433111
-0.069219 0.387256 -0.315846
-0.075209 -0.484059 0.112423
-0.179523 0.481756 0.125767
0.090949 -0.488092 -0.098327
0.145543 0.353103 0.349474
0.069647 -0.097025 -0.490648
-0.216972 0.498574 -0.004542
-0.129644 -0.474791 0.146280
0.245826 -0.484322 0.111315
-0.160045 -0.123806 0.480067
0.149275 -0.282228 -0.412068
-0.193820 0.298783 -0.400901
0.039439 -0.497410 0.009326
0.128402 0.498088 0.022413
0.201740 0.263691 0.420554
0.286325 -0.354399 -0.351444
0.144715 -0.263349 -0.424491
0.225419 -0.487602 0.097433
0.212022 0.320109 0.379841
0.269990 0.497604 -0.032220
-0.273425 0.347381 0.355352
0.222467 0.104042 -0.489235
-0.046863 -0.307215 -0.393659
0.154554 0.474851 -0.153797
0.071473 0.469182 -0.170524
-0.045719 0.468393 -0.172625
0.098168 0.408757 0.283225
-0.215547 -0.098410 0.485847
0.212726 -0.004913 -0.500293
-0.030044 0.476505 -0.148376
-0.082973 -0.104572 -0.489010
0.198505 0.488969 -0.099799
0.036893 -0.406015 0.285373
-0.067861 0.434627 -0.246473
-0.018290 -0.080486 -0.493495
-0.118650 0.446852 -0.223254
-0.118244 0.159450 0.469929
-0.190898 -0.061274 -0.496337
0.283276 -0.309900 -0.391518
-0.164785 -0.497600 0.003017
-0.159427 0.131440 0.478476
0.050017 -0.401556 0.291749
-0.206623 0.497083 0.034836
0.141613 -0.343656 0.357698
0.135311 0.020823 0.495351
0.117370 -0.442101 -0.230473
-0.218592 0.178581 0.462845
0.110977 0.466640 -0.177297
-0.040314 -0.334881 -0.370220
-0.040695 0.102569 0.485375
0.155595 -0.041382 -0.498487
-0.013813 -0.056387 0.492714
-0.112852 -0.195670 0.455512
-0.276837 0.496279 0.044766
-0.058946 0.146009 -0.478575
-0.138608 0.224697 0.442527
0.197640 0.481582 -0.131511
-0.090231 0.057917 0.492457
-0.206160 -0.002312 -0.500247
-0.005941 -0.117250 -0.485997
0.088223 0.154647 -0.475739
-0.110028 -0.485262 -0.111835
0.233272 -0.495548 -0.045496
-0.072764 -0.386936 0.310609
-0.166740 -0.490321 -0.087119
-0.027897 -0.330699 0.369745
-0.247051 0.479864 0.132621
0.136156 0.233868 0.437698
0.133306 0.086381 -0.492876
-0.086783 0.068454 0.491318
0.012358 -0.137763 -0.480587
0.258753 0.181434 -0.466228
-0.206044 0.493171 0.070146
0.128996 -0.286758 0.404834
-0.271731 0.335689 -0.370695
-0.069905 0.421747 0.263550
-0.203703 -0.414907 -0.276711
-0.042945 0.486182 -0.112155
-0.231374 0.231209 -0.443608
0.018118 0.442009 -0.232453
-0.059262 -0.003436 0.495771
0.123327 -0.497036 -0.027121
0.140130 -0.321378 -0.382365
-0.087963 -0.422427 0.260659
0.262362 0.012941 0.495705
0.064162 -0.497505 0.007219
-0.084066 -0.426797 -0.257982
-0.113665 -0.044424 -0.498158
-0.164786 0.140967 0.475569
0.194673 0.437993 -0.240080
-0.230719 0.155972 0.470991
0.257639 -0.442257 0.225682
-0.095585 -0.339235 -0.366277
0.052569 0.363746 -0.342881
0.014862 -0.215220 -0.451144
0.264527 0.460414 0.188699
0.172086 0.498106 0.021434
0.223150 -0.415850 -0.275283
-0.263980 -0.202211 -0.456981
-0.217933 -0.486681 -0.105064
0.078387 -0.053013 -0.497230
0.285085 -0.095312 0.486496
-0.140126 0.483039 0.121118
0.213498 0.309823 0.388043
-0.065398 0.065976 -0.495828
0.246815 0.044941 0.493859
-0.278040 0.277512 -0.415968
-0.105630 0.415684 0.272733
0.010455 0.492597 -0.078728
-0.158617 0.435954 0.239447
-0.032845 0.190646 0.458277
-0.261049 -0.488380 -0.096952
0.268688 0.481850 -0.130386
-0.271156 -0.491279 0.076076
0.235713 0.303639 -0.397237
-0.094399 -0.071677 0.490501
0.262573 0.488786 0.095554
-0.193359 -0.262614 0.420774
-0.256577 0.470519 -0.166961
0.213775 0.061599 0.492059
-0.212948 0.188679 0.459056
-0.230226 -0.290710 0.401865
0.242309 0.206696 -0.455687
0.195351 -0.493558 0.060437
0.069693 0.419753 0.266570
0.207632 -0.342260 0.359057
-0.238748 -0.491752 -0.077229
0.244684 -0.491146 -0.081419
0.085945 -0.471024 -0.162184
0.186003 0.228294 -0.445044
-0.069644 0.237954 0.435547
0.212395 0.265193 0.419638
-0.223345 0.058378 -0.496927
-0.016030 -0.432458 -0.248110
-0.131134 0.493861 -0.071387
-0.118756 -0.024267 0.495385
0.037322 -0.450682 0.208592
0.001569 -0.194048 -0.460644
-0.158100 0.493917 -0.070954
-0.015652 0.009658 0.495852
0.212367 -0.428492 0.250710
0.147379 -0.241088 0.433279
-0.195254 -0.315462 0.382819
0.087391 0.477961 0.139512
-0.002697 0.251481 -0.432260
0.242519 -0.469333 -0.167084
-0.251033 -0.492859 -0.069574
0.222366 0.255495 0.425550
-0.189943 -0.345816 -0.360260
0.034749 0.480274 0.131135
0.256026 0.117772 0.481763
0.141986 -0.232002 0.438358
-0.240556 0.098002 -0.490501
-0.098659 -0.320932 -0.382721
0.009268 0.498443 -0.013511
0.087440 -0.346418 0.355009
0.024738 -0.314383 0.383744
0.136400 0.215271 0.447227
0.158781 -0.151944 -0.476260
0.076455 0.156432 0.470850
0.109466 0.314829 0.384052
-0.044355 0.481903 0.125233
0.254852 0.495119 0.056684
-0.189787 -0.156240 0.470482
0.004337 -0.325360 0.374326
0.040494 0.444394 0.223546
-0.133398 0.497891 0.024862
0.211729 -0.488859 0.090131
0.095215 -0.473475 0.150593
-0.218701 0.287746 0.404572
0.106493 -0.497244 0.013042
-0.022912 0.326337 0.374534
0.200550 -0.371066 0.329313
0.159775 -0.372780 0.327421
0.201067 -0.362639 0.338618
0.140150 0.476788 0.143764
-0.135217 0.339919 -0.366688
-0.190825 0.472617 0.156183
-0.208700 0.498347 -0.015641
-0.147594 0.467835 -0.174112
0.054367 -0.021963 -0.499607
0.054268 0.493029 -0.076218
-0.264526 0.063683 -0.496160
0.220422 -0.199126 0.454072
-0.044027 0.444096 -0.228489
-0.148338 -0.490259 0.082003
-0.143655 -0.288546 0.403498
-0.140343 -0.047199 0.493527
0.126430 0.358618 -0.348483
0.030809 -0.454722 0.199588
0.246942 -0.455194 -0.203115
0.085914 -0.253699 0.426047
0.188126 -0.171211 0.465318
0.078404 0.484158 -0.120672
0.186182 0.302220 0.394106
0.244588 -0.485043 -0.112880
0.161721 0.492498 0.074800
0.126347 0.209161 -0.454472
-0.277576 0.489687 -0.095630
-0.107173 0.322778 -0.381774
-0.029560 0.162402 -0.473063
0.021167 0.431097 0.247917
-0.100611 -0.062281 0.491861
-0.090137 -0.034219 -0.499058
0.256240 0.192474 -0.461626
0.004859 0.477708 0.140428
-0.138314 -0.182644 -0.465289
0.132582 -0.355917 -0.349884
-0.131336 -0.473960 -0.153673
0.033868 0.354177 0.348371
0.264800 0.449811 -0.217171
0.217286 0.116917 0.481966
0.239627 -0.042530 -0.498363
0.259024 -0.065747 0.491360
-0.192008 0.453358 -0.209265
0.027048 0.003916 -0.500134
0.084839 -0.242312 -0.437066
-0.221933 -0.189158 0.458227
-0.122508 -0.373440 -0.331021
0.102694 -0.095061 0.486549
-0.030114 -0.030763 0.494859
-0.050830 0.496701 0.039552
0.254322 0.462045 0.184788
-0.133022 0.183533 0.460987
0.130436 -0.189221 0.458201
-0.285112 0.352066 -0.354862
0.118664 -0.115008 -0.486529
0.188061 0.131925 -0.482462
-0.083013 0.498590 -0.005456
0.099765 -0.451997 0.205660
0.039357 -0.422943 0.259812
-0.002319 0.191632 0.457835
0.264193 -0.076566 -0.494170
0.286035 0.208358 0.450329
-0.213869 0.484542 0.115672
-0.238710 -0.003305 0.495773
-0.172268 -0.163329 0.468037
-0.026942 0.101995 0.485512
-0.268470 0.438275 0.235400
-0.001910 0.399176 -0.300898
-0.037400 0.173606 0.464712
0.010202 0.361285 0.341069
0.124560 -0.205032 0.451609
0.001114 -0.299862 0.394961
0.047997 -0.476435 -0.145683
-0.276874 0.244291 0.432210
0.101870 -0.286712 -0.408932
0.054061 0.486162 0.108079
0.220225 -0.439775 0.230396
0.060436 -0.316356 0.382052
0.183805 0.498272 0.012194
-0.146796 0.336057 -0.370380
-0.145953 0.250240 0.428754
0.079741 -0.301841 0.393467
-0.187980 -0.319805 -0.383620
-0.231070 0.318120 0.381427
-0.152272 -0.451449 0.206882
0.032734 0.498598 -0.005871
0.242337 0.488067 0.098985
0.206101 0.459429 -0.195737
0.105559 -0.154859 -0.475371
-0.242013 -0.407975 0.282570
-0.114574 0.161030 -0.473537
0.066604 0.274018 -0.418275
0.082182 0.417752 0.269600
-0.214857 0.165878 0.467612
0.176445 -0.398589 -0.299948
0.196279 0.191503 -0.462030
0.176025 -0.351917 -0.353993
-0.075076 -0.241554 -0.437465
0.059668 -0.381561 -0.321557
0.030724 0.015756 0.495578
-0.190602 0.126441 -0.483976
-0.127399 -0.487532 0.097810
-0.115559 -0.367189 -0.338306
0.099277 -0.154039 0.471241
0.174397 -0.405768 -0.290432
0.023320 0.234901 -0.441767
0.060751 -0.048257 0.493442
-0.279177 0.038013 0.494580
-0.281590 -0.130427 -0.482825
-0.167159 -0.148974 0.472989
0.225204 -0.242911 0.432233
-0.179088 -0.214353 -0.451533
-0.219129 -0.193736 -0.460785
0.007903 -0.396126 -0.303212
-0.013028 -0.135285 -0.481343
-0.272896 -0.496956 -0.028107
0.220235 -0.025176 0.495312
-0.091476 0.279284 -0.414799
-0.273292 -0.005043 -0.500296
0.244224 0.122846 0.480557
0.150768 -0.216792 0.445853
0.186389 0.189193 0.458863
0.046698 0.427662 -0.258107
-0.172861 -0.495458 -0.046607
-0.220913 -0.422527 -0.265169
-0.073645 -0.432648 0.243893
0.214743 -0.244288 0.431443
-0.129965 0.495341 -0.057779
0.029752 0.323089 -0.381507
-0.046871 0.496855 -0.043763
0.118026 -0.489735 0.085045
-0.202797 -0.444621 0.221191
-0.055598 0.386263 0.312917
0.271306 -0.495157 -0.050317
0.206107 -0.261736 -0.425474
0.023325 0.481155 0.127943
-0.108811 0.497980 -0.023818
-0.050075 0.497782 -0.028241
0.094751 0.412370 -0.282104
0.204094 0.272787 0.415009
0.122719 -0.484833 0.109166
-0.226285 0.311083 -0.391621
0.280169 -0.481609 0.122733
0.087324 -0.427317 0.252638
-0.074122 -0.327391 0.372583
-0.246522 -0.425282 -0.260624
-0.021727 0.493539 0.067607
0.224680 0.273691 0.414401
0.207809 -0.472252 0.154604
0.098768 -0.307332 0.389325
-0.003244 -0.167064 -0.471135
-0.154987 -0.067262 0.491140
-0.226205 0.492846 0.072398
0.068108 -0.291466 0.401295
0.141078 0.496339 0.044018
0.165943 0.293304 0.400685
-0.127035 -0.353313 -0.352559
-0.077415 0.100839 -0.489906
-0.199307 0.355433 -0.351584
-0.072532 0.436854 0.237877
0.240187 -0.486720 0.101226
0.022819 -0.092615 -0.491407
-0.085424 -0.205414 0.451450
-0.156626 0.323248 0.377332
0.219991 0.008097 0.495922
0.200188 0.234771 -0.441842
0.145272 -0.278545 0.410257
-0.008211 0.484363 -0.119811
0.052182 0.000637 -0.500193
-0.223505 0.001811 0.495866
-0.143348 0.272966 0.414900
0.051535 -0.468294 0.165806
0.211606 0.463036 -0.186902
0.275797 0.497044 0.035325
-0.180612 0.331576 0.369788
0.008379 -0.093954 -0.491177
0.024299 0.273939 -0.418327
-0.113350 -0.385705 0.312153
0.148767 0.491401 -0.085672
-0.138442 0.148278 0.473338
-0.000174 0.087418 0.488125
0.192154 -0.480940 -0.129363
-0.147833 -0.341349 -0.364362
0.200849 0.492099 0.077556
-0.127059 0.262902 -0.425614
-0.212639 0.425724 -0.261285
0.064205 -0.477303 -0.142540
-0.210393 -0.289596 0.402705
-0.178703 0.469670 0.164725
0.107286 -0.411064 0.278153
0.201360 -0.032427 -0.499138
0.040335 0.089542 -0.492273
0.134269 -0.485652 0.105722
-0.002591 0.366092 0.336132
0.240204 -0.422415 0.260679
0.088565 0.220175 0.444908
0.174834 0.497925 -0.025046
-0.078502 0.078372 -0.494035
-0.014127 -0.496779 -0.030294
0.130161 -0.282141 -0.412128
-0.243206 0.467992 -0.173695
-0.164691 0.101036 0.485740
-0.272767 0.006976 -0.500079
-0.159412 0.488323 -0.103146
0.124013 0.312370 0.386012
-0.040922 -0.295277 0.398420
0.111029 -0.391182 -0.309766
-0.085959 -0.188630 -0.463043
0.081342 0.293310 -0.405030
0.080847 -0.024579 0.495360
0.151287 -0.096858 -0.490677
-0.124669 0.302716 0.393710
-0.118180 0.196361 0.455713
-0.127156 -0.491319 -0.080217
-0.199738 0.274231 0.414024
0.133615 -0.406984 -0.288713
-0.123436 0.498009 -0.023174
0.283044 -0.414479 -0.277360
0.221651 -0.012668 0.495605
-0.181010 0.465289 0.177005
0.039594 0.423372 -0.265144
-0.233682 -0.492313 0.070071
-0.002506 -0.346893 0.354547
0.224080 0.343291 0.359178
0.146463 0.153777 -0.476039
0.165529 0.343868 -0.362843
0.093185 -0.153334 -0.475836
0.050615 -0.354548 -0.351291
0.285760 0.161681 -0.473312
0.274016 -0.200302 0.453581
-0.059129 -0.453274 0.202815
0.193242 -0.470144 0.160875
0.047370 0.410690 0.280298
0.193161 -0.132119 -0.482309
-0.021136 -0.166076 0.467089
0.231723 -0.442952 -0.228746
0.048414 -0.426007 -0.259359
-0.124233 -0.470589 -0.163444
0.240509 -0.073671 -0.494669
0.235757 0.021829 0.495306
-0.287398 0.385350 0.313982
-0.026875 -0.204904 -0.455773
0.027092 0.498429 0.003513
-0.000425 0.472318 -0.162099
0.268690 0.379918 -0.325025
-0.029473 0.495600 0.053145
-0.034990 0.472182 -0.162530
-0.041120 -0.445681 -0.223209
0.035874 -0.265516 -0.423170
-0.107748 -0.384620 -0.317991
-0.049782 -0.497350 -0.010872
-0.283556 -0.211094 -0.452995
-0.030025 -0.493407 0.061836
-0.266423 -0.490748 -0.084169
0.182115 0.476283 -0.149103
0.044888 0.124435 -0.484530
0.179118 0.414944 -0.278425
-0.174266 0.321195 -0.383133
0.065614 0.496114 -0.050629
-0.017471 0.155068 0.471266
-0.219618 0.473387 0.153950
-0.256521 0.492941 0.071739
0.151982 0.497610 -0.032070
0.047526 -0.071653 -0.495016
-0.237282 -0.238523 0.434749
-0.176620 -0.387680 0.309676
0.161234 -0.113540 0.482677
0.076155 -0.493172 0.064011
-0.090722 -0.479242 -0.135514
-0.091476 -0.461990 0.182607
0.078653 0.166806 -0.471544
0.086488 0.495950 -0.052140
-0.263560 -0.010132 0.495650
-0.212269 0.255246 -0.430100
0.171851 0.230774 -0.443822
-0.056847 0.303776 -0.397134
0.047828 0.491188 0.083855
0.056748 -0.117424 -0.485955
-0.239958 0.368869 -0.337224
-0.270227 -0.105278 0.484408
0.033810 -0.340801 -0.364858
-0.125682 0.109886 0.483637
-0.150316 0.280483 0.409651
-0.143186 0.469472 0.165301
0.245517 -0.391178 -0.309771
-0.078182 -0.488910 0.089837
0.063913 0.251892 -0.432024
0.145159 0.048692 0.493454
-0.005855 -0.000077 -0.500206
-0.203156 0.219212 -0.449519
-0.143195 -0.315792 0.382536
0.249926 -0.490703 0.079419
-0.091375 0.498459 -0.013142
0.022379 -0.433021 0.243222
-0.277121 -0.295341 0.398371
-0.280445 -0.167416 0.466627
-0.037353 0.479441 0.134152
0.188594 -0.487309 -0.102065
0.163421 0.017005 0.495522
0.205140 0.493658 0.066783
-0.273112 -0.266039 -0.422851
-0.193511 0.497413 0.030771
0.285246 -0.276967 0.411299
0.045694 0.383588 -0.320447
0.228576 -0.142954 0.474782
-0.180185 -0.240818 -0.437852
0.048273 -0.492328 0.069985
0.028865 -0.481024 -0.129060
0.148457 0.495692 0.052010
-0.072152 0.133981 -0.481895
-0.184597 0.492812 0.072631
0.056734 0.126279 0.479741
-0.224852 0.371674 -0.334128
0.206872 0.195297 0.456191
0.148002 -0.496515 0.029288
0.193683 0.364430 0.337839
-0.039042 -0.497220 -0.018088
0.036532 -0.015801 0.495548
0.102643 0.421259 0.264288
-0.140076 -0.461717 0.183334
0.082393 0.471949 -0.163150
-0.171100 -0.197007 -0.459317
-0.074522 -0.440573 -0.233575
-0.055296 0.071453 -0.495036
0.029501 -0.484344 0.111223
-0.019541 0.266835 -0.423017
0.121291 0.107468 -0.488517
-0.266884 -0.123589 0.480127
0.057976 0.401595 0.292968
-0.135303 0.018548 -0.499871
-0.113589 -0.378244 0.321389
-0.085816 0.254436 0.426196
-0.026597 -0.353815 0.347808
-0.001906 0.089101 -0.492365
-0.195533 0.354657 0.347878
0.219145 -0.304784 -0.395597
0.028459 0.116095 0.482161
-0.141764 0.439302 0.233608
0.283635 0.090951 -0.491978
0.171225 0.424532 0.259331
0.128360 0.484216 -0.120428
0.091351 0.430034 0.249771
-0.183182 0.175902 -0.468407
-0.066100 -0.448650 0.213119
0.037212 0.242282 -0.437535
-0.164083 -0.048469 -0.497721
0.163336 0.034024 -0.499031
0.124148 -0.145367 -0.478267
-0.257393 0.490177 0.088913
-0.056105 -0.343360 0.357987
-0.012242 -0.397079 -0.301949
0.010270 0.480452 0.130489
0.286287 -0.187221 0.459035
-0.116257 0.017124 0.495517
-0.007053 -0.492704 -0.070646
-0.011367 0.258175 -0.428421
-0.272448 0.355525 0.346987
0.149675 0.301290 0.394847
0.214380 -0.119793 -0.485392
0.062725 -0.484052 -0.117613
-0.213864 -0.041062 -0.498521
-0.076788 -0.045892 0.493633
-0.286909 0.328783 -0.376621
-0.267071 0.379638 0.320638
-0.158009 0.173338 -0.469291
-0.077855 0.045340 0.493816
0.240646 -0.123100 -0.484607
0.216485 0.219938 -0.449161
0.163328 -0.492773 -0.070167
-0.117882 -0.135364 -0.481319
0.041728 -0.024218 -0.499506
0.212835 -0.366560 0.334289
-0.217568 -0.049942 0.493305
-0.040705 0.498647 -0.008945
-0.135749 0.467392 -0.175293
-0.224505 -0.374086 0.325979
-0.002767 0.022101 -0.499807
-0.172428 -0.485655 0.105708
0.063744 -0.488577 0.091773
-0.074788 0.078030 0.489741
0.066114 0.096524 0.486557
0.095631 0.144924 0.474361
-0.170642 0.370334 0.331482
-0.171909 0.378343 -0.326764
-0.146567 -0.349598 -0.356375
0.223629 -0.153619 0.471386
0.020410 -0.495868 -0.041538
-0.271881 -0.132882 0.477562
0.016133 -0.378094 0.321554
-0.089190 -0.388171 -0.313756
-0.111943 0.187093 -0.463869
0.224110 -0.479246 -0.135501
0.218197 0.072299 -0.494913
-0.066566 0.459845 0.190064
-0.251855 -0.077506 -0.494009
0.234851 -0.032242 0.494739
0.021234 0.492913 -0.076888
-0.183754 0.457083 0.196688
0.028925 -0.494357 -0.059221
-0.258634 0.375018 0.326022
-0.156215 0.279793 -0.414463
0.258726 -0.474271 -0.152769
-0.264276 -0.470869 -0.162634
-0.265156 -0.416729 -0.273951
-0.146570 0.165861 0.467618
-0.066534 -0.248903 -0.433298
-0.083944 0.471626 0.159056
-0.162750 -0.059598 -0.496518
-0.000506 0.316043 0.383083
-0.141268 0.326227 -0.378815
-0.105182 -0.110507 -0.487599
0.123463 0.032686 -0.499140
-0.004020 0.200021 -0.458479
0.190260 0.355211 -0.351800
0.285892 -0.465742 0.172607
0.038483 0.363697 0.338593
-0.199089 0.498311 0.010039
0.182960 -0.436957 0.235747
0.228386 -0.475276 -0.149856
0.226941 0.486500 -0.110818
0.044320 -0.481794 0.121953
-0.027343 0.463565 -0.185493
-0.253911 0.388420 -0.314387
-0.213460 0.153008 -0.476304
0.199790 0.307378 -0.394417
-0.221134 -0.023046 -0.499559
-0.126814 0.223928 0.442932
-0.176162 0.134219 -0.481829
-0.225537 0.489001 0.094528
0.239265 -0.230329 0.439183
0.143601 -0.067501 0.491106
-0.012702 -0.276848 -0.415830
-0.241737 -0.109330 0.483559
-0.234873 0.442675 -0.231187
-0.033808 -0.343680 -0.362250
-0.228940 0.497836 0.025543
0.244947 0.310933 -0.391735
0.175527 -0.437025 -0.240146
-0.094004 -0.468246 -0.170237
-0.242366 0.465028 0.177632
-0.089676 0.476217 0.145746
0.073465 -0.041144 -0.498512
0.122846 0.438876 0.234352
-0.077454 0.361255 -0.345631
-0.172707 -0.494445 0.052232
-0.181249 -0.380840 0.318255
0.017501 -0.110866 -0.487514
0.015700 -0.013235 0.495595
-0.006799 0.036389 -0.498840
0.125227 -0.438596 -0.237406
0.243958 0.446807 0.218650
0.244239 0.484699 0.115062
-0.030366 -0.495913 -0.040982
0.117782 0.101485 0.485633
-0.262443 -0.117106 -0.486031
-0.149022 0.389648 0.308804
-0.073715 0.445839 0.220614
-0.059159 -0.466561 -0.175121
-0.057408 0.378710 0.321720
0.254151 -0.101431 0.485214
-0.216516 0.364585 -0.341954
-0.194509 -0.443404 -0.227829
-0.205252 0.481439 -0.132112
0.011329 -0.462986 -0.184425
-0.284692 0.496599 -0.046134
-0.186945 0.055628 0.492704
-0.197656 -0.263028 -0.424687
0.282515 -0.483439 -0.120310
-0.018684 0.412287 0.277878
-0.288881 -0.452060 0.205521
0.057822 -0.260229 0.422302
-0.213662 0.306416 -0.395143
0.043208 -0.216452 0.446021
0.210599 -0.468484 0.165299
-0.217786 0.038155 -0.498697
0.075730 0.065347 -0.495919
-0.171978 0.337285 -0.369252
0.064677 -0.125408 -0.484058
0.286787 -0.025366 0.495296
-0.094943 0.485302 0.112185
-0.286861 0.476612 0.144400
-0.072966 0.498646 -0.008526
-0.277845 0.491791 0.079687
-0.010410 -0.269192 0.416431
-0.268457 -0.395963 -0.303429
0.014656 -0.428958 0.249947
-0.125665 0.483653 -0.122799
-0.134516 -0.334759 0.366261
0.132802 -0.487138 -0.102879
0.137285 0.369034 0.332997
-0.265166 -0.089849 0.487641
0.271542 -0.442162 0.225862
-0.248397 -0.466860 -0.174253
0.060028 0.344295 0.358268
0.272657 -0.398948 -0.299472
-0.233910 0.387259 0.311757
-0.116020 -0.475939 0.142519
-0.208642 -0.017975 -0.499786
0.033661 -0.394448 -0.305437
0.169871 -0.466218 0.171338
0.071178 0.229467 0.440016
0.078246 -0.454960 -0.203676
-0.085600 0.113641 -0.487224
-0.155323 0.006200 0.495945
-0.007378 -0.474754 -0.151371
0.057083 -0.480359 0.127992
-0.192965 -0.089709 -0.491908
0.236156 -0.497246 -0.016653
0.039880 -0.388222 -0.313688
0.038305 0.456422 0.198274
0.276189 -0.252169 0.426924
-0.263938 -0.368289 -0.337023
0.286032 0.031409 0.494876
-0.066011 -0.492657 -0.070972
0.046990 0.257706 0.424203
-0.273922 0.493864 -0.071364
-0.096855 -0.401037 -0.296702
-0.028944 0.492411 -0.079808
0.104779 -0.190056 -0.462435
0.209045 -0.361237 -0.344419
-0.202867 0.231791 -0.443321
0.058765 0.231872 0.438749
-0.143275 -0.295815 -0.402565
-0.167780 0.498487 0.000277
0.195526 0.443245 -0.230106
0.178267 -0.492313 -0.073352
-0.036118 0.404903 -0.292781
-0.084673 -0.142996 -0.478990
0.143657 0.426224 0.256415
-0.166529 -0.426505 0.253971
-0.015135 0.441625 0.229165
0.096537 -0.489003 0.089295
0.004236 -0.460668 0.186129
0.136997 0.297404 0.397818
-0.106170 -0.482288 0.119875
0.226564 -0.342944 0.358392
0.120128 -0.072667 -0.494841
-0.071362 -0.494975 0.047332
-0.247952 0.036846 0.494632
-0.191736 -0.362750 0.338495
0.083228 -0.159791 -0.473864
-0.032911 -0.424524 -0.261946
-0.219759 0.493096 -0.075829
0.206986 -0.131231 0.478018
-0.041219 0.053150 -0.497482
0.161132 0.459971 -0.194528
-0.102067 0.448884 -0.219236
-0.074352 -0.371415 -0.333380
0.175283 0.491550 0.081351
-0.152609 -0.312152 0.385659
-0.049991 0.490021 -0.093692
0.255888 -0.395391 -0.304186
0.035661 0.498303 -0.016615
-0.162799 -0.184800 -0.464480
0.183310 -0.461881 0.182897
-0.016229 0.331378 -0.374394
0.276903 -0.035777 0.494453
-0.178883 -0.477797 0.136430
-0.118230 -0.405359 -0.290974
0.204702 -0.196686 -0.459460
0.050308 0.365116 0.337134
-0.067557 0.187589 -0.463662
0.060363 0.212454 -0.452849
-0.033345 0.444992 -0.226787
0.169130 -0.481073 -0.128881
-0.163041 0.452274 0.207555
-0.185744 -0.453655 -0.206807
0.184053 -0.495452 0.042917
-0.195540 -0.497372 -0.009620
-0.221179 0.219855 -0.449202
-0.175630 -0.373507 0.326618
0.061642 -0.037241 -0.498922
-0.185910 0.095045 -0.491120
-0.126109 0.405250 0.288123
-0.267809 0.272224 0.415352
0.019862 0.287359 0.404842
0.215211 -0.227252 -0.444996
0.187801 -0.337600 0.363594
0.248335 0.487518 -0.106532
-0.247662 0.458533 0.193210
0.254694 0.457503 0.195680
-0.268746 -0.407788 0.282838
0.270372 -0.492094 0.071342
0.075939 0.396197 0.300124
-0.018430 0.206782 -0.455644
-0.184117 -0.442079 -0.230519
-0.169541 -0.224359 0.442124
0.062931 0.353332 0.349239
0.085201 -0.313791 0.384252
0.202881 -0.081754 -0.493277
-0.005000 0.492784 0.072821
0.242842 -0.135708 0.476782
0.084613 -0.050059 0.493296
-0.038107 0.497394 -0.036891
-0.277315 0.430770 -0.253009
0.015521 -0.087391 0.488155
-0.265072 -0.302752 -0.397218
-0.244660 -0.492850 0.066952
-0.166297 -0.433427 0.242451
-0.053892 -0.446414 0.217787
0.087194 -0.469602 0.162319
-0.289315 0.068058 -0.495527
0.190417 0.497129 -0.041228
-0.249696 0.344016 0.358521
0.028136 0.390433 0.307763
-0.095261 0.269356 0.417101
0.117580 -0.409034 0.281057
0.008009 -0.065103 0.491453
-0.101955 -0.340918 0.360364
-0.020173 -0.282791 0.407454
-0.283131 -0.442169 -0.230336
-0.160702 0.201876 0.453238
-0.214263 -0.318827 -0.384399
-0.241150 0.498347 0.008059
-0.222761 0.398923 -0.301215
0.096530 -0.323063 -0.380924
0.284936 0.487685 0.100809
-0.000151 0.416097 -0.276776
0.201299 0.463327 -0.186128
0.015262 -0.272861 0.414009
-0.249378 0.440876 -0.234604
-0.040030 -0.492076 -0.074986
0.131172 0.485688 0.110342
0.223703 0.207746 0.450604
-0.204437 -0.158568 -0.474239
-0.042701 0.148644 -0.477809
-0.124792 0.111208 -0.487734
0.230841 -0.060780 0.492078
-0.072261 0.482035 -0.129606
0.061866 0.470436 0.162505
-0.276100 0.230632 -0.443892
-0.179989 0.156195 -0.475205
0.067447 -0.455811 -0.201635
-0.205278 -0.409346 0.280610
0.049584 0.047962 -0.497902
-0.053309 0.352023 -0.354904
0.098856 0.030056 0.494937
-0.253389 -0.380112 0.319168
0.266777 -0.483000 0.116878
0.020617 -0.144858 -0.478422
-0.198764 -0.496283 0.034451
-0.289659 -0.078079 0.489575
-0.179704 -0.240328 0.433714
0.019552 -0.264879 0.419279
-0.013197 0.383733 -0.320265
-0.279189 0.241087 -0.438220
0.120009 0.493056 -0.076062
-0.284400 0.147282 -0.478223
-0.066324 0.451834 0.208448
0.107586 -0.404028 -0.292739
0.283165 -0.377945 -0.325771
0.111553 0.272622 0.415109
-0.199293 -0.325528 0.374182
0.283345 0.343669 0.358835
0.236860 -0.480686 0.126616
0.190755 -0.240058 -0.438253
0.103090 0.154983 0.471292
-0.202856 -0.246161 0.430369
-0.143439 0.492594 -0.078741
-0.238799 0.361487 -0.345375
-0.012158 -0.343632 -0.362294
0.185161 -0.282894 0.407385
-0.083410 0.494537 0.060709
-0.096783 0.170463 -0.470283
0.076785 0.255832 -0.429764
-0.094869 0.335387 -0.370954
-0.256636 -0.255409 0.425066
0.262181 -0.479520 0.130781
-0.272179 -0.487487 -0.101216
-0.081659 0.146448 -0.478453
0.079114 0.321128 -0.383190
0.109124 0.258277 0.423855
0.105436 0.494530 -0.065285
0.049457 -0.448169 0.214192
0.239043 0.063813 0.491820
0.030781 0.448404 0.215409
0.058484 -0.245691 -0.435256
-0.259731 -0.448273 -0.217949
0.075731 0.243543 -0.436812
-0.235526 0.460310 0.188948
0.118116 0.294695 0.399712
-0.025978 -0.153309 -0.475844
-0.228990 -0.131708 -0.482435
0.032971 -0.070549 0.490665
0.276800 0.155223 0.471219
-0.249838 -0.364599 -0.340966
-0.232926 0.450095 0.211977
-0.052291 -0.233461 -0.441726
0.215676 0.495808 -0.053457
0.101859 -0.292945 0.400179
-0.201034 -0.456970 0.194579
-0.062145 0.482106 -0.129307
-0.235241 0.025905 0.495123
0.111006 0.482957 0.121414
-0.053997 -0.333586 0.367268
0.233566 0.043391 0.494027
0.067400 0.491975 0.078415
0.137469 -0.456009 -0.201160
0.071660 0.480080 -0.136658
-0.122283 0.494577 0.060430
0.103746 -0.267976 -0.421670
-0.232807 0.477013 -0.146711
0.098186 0.370519 -0.335403
-0.272153 0.458087 -0.198726
0.006461 -0.317260 -0.385649
-0.030497 0.277664 0.411623
0.190819 -0.366133 0.334760
0.093282 -0.424244 -0.262434
-0.139662 -0.495364 -0.047761
0.099833 0.490842 -0.088921
0.195576 -0.291522 0.401252
-0.172635 0.313064 -0.390110
-0.000757 -0.287561 0.404241
-0.235321 0.110599 0.483467
-0.166572 0.361420 0.340931
-0.003878 0.335777 -0.370620
0.230362 0.209841 -0.454137
0.220816 0.401021 -0.298332
-0.166898 -0.480847 0.125941
0.275751 0.477764 0.140229
0.061655 0.043922 0.493969
-0.206032 0.207690 -0.455197
0.241334 0.431005 0.248078
-0.218341 0.486284 -0.111727
-0.040359 -0.203921 -0.456214
0.143409 0.457406 0.195913
0.086033 0.497797 -0.027899
0.141534 0.374380 -0.331140
0.010298 -0.403061 -0.294020
-0.195670 0.497413 -0.036461
0.162301 0.447553 -0.221923
-0.117858 -0.090883 0.487424
0.184243 -0.478834 -0.136991
0.186016 0.286949 -0.409738
0.066132 -0.120712 0.480921
-0.183239 -0.459438 -0.192935
-0.158221 -0.355404 -0.350412
-0.245297 0.194546 -0.460762
0.120641 0.343445 -0.363255
-0.257792 0.487698 -0.105776
0.143741 -0.017807 0.495512
-0.197308 -0.453178 -0.207951
0.187411 0.002568 -0.500159
-0.195500 0.060370 -0.496639
0.014394 0.492413 0.075390
0.273001 -0.461908 -0.187012
-0.261767 -0.383749 -0.319006
-0.287938 -0.344740 -0.361290
-0.099783 -0.035890 0.494444
0.103694 0.469322 -0.170151
-0.069907 0.495355 0.055054
0.167455 0.152713 -0.476406
0.114412 0.032713 0.494818
-0.241652 -0.151667 -0.476345
0.065816 0.343362 -0.363336
0.015605 -0.482517 0.118913
0.248655 0.433038 -0.249288
0.132878 -0.464436 -0.180946
0.172239 -0.434119 0.241137
-0.007146 0.037429 0.494606
-0.197614 0.018760 -0.499867
-0.127534 -0.410231 -0.283793
-0.056199 0.337474 -0.369068
-0.021527 0.323909 -0.380804
0.101874 0.063459 0.491858
0.040204 -0.162199 -0.472961
0.225684 -0.494667 -0.056363
-0.026016 0.498419 0.004052
0.215830 0.234092 -0.442187
-0.134472 -0.359759 0.341798
0.138317 -0.328682 0.371475
-0.195425 0.491898 0.078951
-0.204470 -0.276597 -0.416006
0.271923 0.424393 0.259542
0.154382 -0.230110 0.439291
0.074893 0.447129 0.217995
-0.265625 0.015558 0.495587
0.224451 -0.218939 0.444795
0.095662 -0.457475 0.193454
0.187869 0.338670 0.363363
-0.178891 -0.416659 0.270122
0.027561 0.310982 0.387119
-0.198405 0.086166 0.488341
-0.118383 -0.448545 0.213353
-0.219307 0.497283 0.032378
-0.250353 -0.245667 0.430652
0.079631 0.397539 -0.302951
-0.016669 0.317510 0.381914
0.147641 -0.351373 0.350186
-0.276135 0.325040 0.375709
-0.241343 0.287663 -0.409267
-0.003721 -0.432569 -0.247916
-0.070501 -0.375929 0.323944
0.255289 0.264568 -0.424514
-0.030898 -0.387444 -0.314700
-0.024610 0.487163 0.103299
-0.001714 -0.238319 -0.439169
-0.169704 -0.420552 0.263735
-0.192496 0.375517 0.325442
0.123855 -0.421524 -0.266688
-0.189113 -0.167549 0.466581
0.216273 0.427688 0.253862
0.071675 -0.416658 0.270123
-0.242465 -0.288892 0.403237
0.236833 0.493860 -0.071391
0.033081 -0.118952 0.481407
-0.268466 -0.452317 0.204947
-0.068487 0.490078 -0.093360
-0.261858 -0.440790 -0.233133
0.009991 -0.034033 0.494594
0.286020 -0.494054 -0.061316
0.142402 -0.464293 0.176467
-0.013950 0.064390 0.491757
-0.220287 -0.492735 0.067618
0.083345 -0.401975 -0.295459
-0.112903 0.082769 0.488925
0.203370 0.472161 -0.162585
-0.252191 -0.339598 0.361649
0.182827 0.409437 0.282195
-0.090807 0.443637 -0.229360
0.029104 0.421852 -0.267637
0.266980 0.428105 -0.257379
-0.237456 -0.497283 0.012174
-0.089291 -0.325709 0.374026
0.253024 -0.373796 0.326300
-0.059318 -0.080644 0.489204
-0.210459 0.323315 -0.381314
-0.143494 -0.485629 -0.110082
0.110562 0.419003 -0.272311
-0.009099 -0.071685 0.490500
0.235564 0.268005 -0.422245
-0.115299 0.495749 0.051301
-0.143514 0.366273 0.335946
-0.243395 0.359342 0.343065
-0.194668 0.383630 -0.320394
0.016384 0.395312 0.301296
-0.063963 0.472512 -0.161463
0.090451 -0.445889 0.218784
-0.079567 0.299347 0.396397
-0.236519 -0.478654 -0.137644
-0.198297 0.431468 -0.251864
0.285538 0.458183 -0.198513
-0.086028 -0.363129 -0.342476
0.069247 -0.114758 -0.486589
0.234876 0.173982 0.464571
-0.269388 -0.497462 -0.004622
0.008152 0.392598 -0.309147
0.266133 -0.476255 0.141484
0.038693 -0.255931 0.424767
-0.288335 -0.464845 -0.179967
-0.223326 0.268214 -0.422107
-0.290130 0.430393 -0.253627
-0.043644 -0.413712 0.274368
-0.281339 -0.350709 -0.355234
0.270380 -0.392026 -0.308646
-0.061984 -0.483350 -0.120631
-0.162408 0.133405 -0.482054
-0.235048 -0.448474 0.213513
0.075908 -0.369458 -0.335662
-0.125254 -0.061462 -0.496317
-0.209903 -0.362812 -0.342803
-0.022219 -0.489712 -0.090596
-0.262139 -0.453511 -0.207151
0.033286 0.147748 -0.478094
-0.166138 0.474368 -0.155381
-0.012400 0.092999 0.487164
0.089603 0.067782 0.491391
-0.000571 0.177872 -0.467713
0.156163 -0.179453 -0.466487
-0.243409 0.303504 0.393082
0.164114 0.377978 -0.327168
0.075089 -0.208585 0.449897
-0.271983 0.486706 -0.109950
0.129174 0.005158 -0.500112
-0.101912 0.384012 0.315541
-0.115389 -0.490860 -0.083391
-0.185472 0.498428 -0.013836
0.259079 0.386468 0.312679
0.205509 -0.136350 -0.481018
0.106604 -0.093618 -0.491235
0.178705 0.045769 -0.498080
-0.289877 -0.468775 -0.168702
0.108856 -0.433652 0.242024
0.159095 -0.386327 0.311373
-0.286187 0.471119 -0.165361
-0.270819 -0.456959 0.194603
-0.069112 -0.496882 -0.029028
0.187411 0.483902 -0.121750
0.117141 0.316338 -0.387300
-0.037240 -0.322282 0.376967
-0.225576 0.046495 0.493691
0.192692 -0.251465 -0.431736
0.017181 -0.236373 0.435982
-0.220813 -0.466591 0.170344
-0.006383 -0.322464 0.376811
-0.082529 -0.466152 -0.176306
-0.135480 0.070301 0.491072
-0.237910 -0.479920 0.129472
-0.268600 0.075462 0.490183
-0.227118 -0.392142 0.304080
0.285112 -0.199568 0.453887
0.273161 -0.346819 -0.359229
0.143879 0.394926 -0.306227
-0.177501 0.038970 0.494505
0.245961 0.186156 -0.464259
0.078072 0.377635 0.322973
0.078366 -0.254674 -0.429779
0.161379 0.146088 0.474006
-0.268589 -0.164697 0.467565
0.167363 -0.317208 0.381320
0.063239 -0.178626 0.462618
-0.122110 0.001091 0.495853
-0.267433 0.180686 -0.466540
0.004054 -0.078078 -0.493910
-0.213064 0.062076 -0.496392
0.146935 0.494086 0.063821
-0.265696 -0.344775 0.356609
-0.091446 0.390432 -0.311864
0.013943 0.056297 -0.497227
0.078766 0.498210 -0.018700
-0.038265 0.411149 -0.283850
-0.217027 0.082635 0.488949
-0.207616 -0.224459 0.442075
0.087485 0.154599 0.471409
-0.116455 0.463742 -0.185021
0.282951 0.007353 -0.500072
0.190208 -0.355369 0.346295
0.064187 -0.202867 0.452512
0.096932 0.498270 0.012334
-0.275249 0.123579 -0.484766
0.139774 -0.494819 -0.054488
-0.289121 -0.222666 0.442959
0.273504 -0.025608 0.495277
0.021562 -0.119803 0.481172
0.156837 0.365354 -0.341105
0.202153 -0.069598 -0.495370
0.045939 0.029996 0.494940
-0.116005 -0.022077 -0.499602
-0.135451 -0.403722 -0.293144
0.276302 0.360286 -0.346701
-0.117810 -0.448252 -0.217991
0.214774 -0.129972 -0.482964
-0.286608 -0.493435 -0.065597
0.126124 -0.401400 -0.296221
-0.099446 0.489297 -0.097896
0.182418 -0.081901 -0.493252
-0.214120 -0.368641 0.331992
-0.127452 -0.379524 -0.323931
-0.216413 0.496084 0.047169
0.123484 -0.022182 0.495433
0.282927 -0.438878 -0.236915
-0.202921 0.184998 0.460437
-0.052407 0.495891 -0.052690
0.070955 -0.347246 -0.358791
-0.124273 -0.491691 0.073684
0.281112 0.304577 -0.396530
-0.104713 0.355370 0.347146
0.049387 0.348228 -0.358599
0.149327 0.488311 0.097822
-0.056297 -0.343543 -0.362375
-0.222640 -0.477907 -0.140351
0.150964 0.456368 -0.202558
-0.040174 0.250229 -0.432978
0.200441 0.455326 -0.204879
-0.064133 -0.289210 -0.407185
-0.123230 -0.222204 -0.447653
0.128486 0.479047 -0.140044
0.051033 0.026920 -0.499607
0.184790 0.179797 -0.466911
0.104726 0.227490 0.441056
0.183688 0.423532 0.260845
-0.029932 0.387161 0.311871
-0.211049 -0.491287 0.076031
-0.119486 -0.238448 -0.439100
-0.067573 0.050472 0.493262
-0.061206 0.466048 -0.178876
-0.225175 -0.090220 0.487563
-0.034470 -0.313298 -0.388808
-0.124193 0.492369 0.075695
0.093563 0.497845 0.025434
0.285028 -0.426595 -0.258335
0.264028 0.208835 0.450115
-0.022905 -0.497136 -0.022727
-0.209200 -0.143992 -0.478687
-0.273730 -0.476750 -0.144540
-0.194367 0.038638 -0.498657
-0.287758 0.492688 0.073485
-0.251276 0.248367 0.429896
0.283246 0.387010 -0.316155
0.285829 0.456217 0.198765
0.189058 -0.186193 -0.463957
-0.276476 -0.374159 -0.330184
-0.033135 0.302704 -0.397943
-0.210083 0.365420 0.336823
-0.060817 -0.231436 0.438637
0.128492 0.073613 -0.494723
0.209756 0.120783 -0.485538
-0.054708 -0.019782 -0.499705
-0.178188 0.473512 -0.158184
0.210452 0.142629 -0.479508
0.072358 0.432241 -0.250596
0.215894 0.188886 0.458978
-0.025800 0.245005 0.431834
0.136130 0.317422 0.381983
-0.144516 -0.420239 -0.268635
-0.171873 0.288604 -0.408580
0.197825 0.427986 0.253342
0.040866 0.496323 0.044217
-0.171870 -0.077542 -0.494002
0.103016 -0.076326 -0.494212
0.187623 0.157846 0.470419
-0.182552 0.446567 0.219136
-0.248116 -0.436093 -0.241771
0.190669 0.261435 0.421930
0.241423 0.075134 0.490240
-0.040058 0.397979 0.297762
0.087174 0.463902 0.180334
0.031690 -0.447314 -0.219894
-0.289690 -0.281153 -0.412820
-0.260529 -0.326731 0.373149
-0.089303 -0.412888 0.275545
0.213532 -0.270869 -0.419906
-0.186596 0.415607 -0.277476
-0.192558 0.375042 -0.330409
-0.227730 -0.365272 0.335711
0.102968 0.450356 0.211447
-0.201660 -0.394806 -0.304962
0.146781 -0.093323 0.486913
0.279329 0.219587 -0.449335
0.238427 0.158737 -0.474328
-0.111482 0.344484 0.358098
-0.065003 0.498501 -0.000506
-0.264312 0.241608 -0.437921
0.200863 0.139181 0.476114
0.084781 -0.329019 0.371186
-0.288361 0.436521 -0.242875
0.194143 -0.433328 0.242639
-0.118098 0.139078 0.476145
0.212389 0.320777 -0.383491
0.245835 -0.470093 0.161011
-0.174480 0.219326 -0.449463
0.051523 -0.206182 0.451081
0.009660 0.405225 -0.292321
-0.017863 -0.253150 0.426362
-0.263419 -0.471824 0.156005
-0.107439 -0.126440 0.479340
0.167550 -0.337018 -0.368284
0.257927 -0.454861 -0.203913
0.259487 0.032725 -0.499137
-0.017571 0.389169 0.309438
0.066906 -0.473611 -0.154685
0.021671 -0.460837 -0.189581
0.179820 0.346536 -0.360246
-0.175472 0.460972 0.187361
0.052064 0.261830 -0.426322
-0.118245 -0.492758 -0.070271
0.099290 0.492354 0.075796
-0.027245 -0.108023 0.483833
0.096947 0.209964 0.449608
-0.108874 -0.460000 0.187827
-0.138865 -0.388490 0.308660
0.262478 -0.496353 0.032901
-0.003236 0.064161 0.491782
-0.052784 -0.317855 0.380766
0.222883 -0.462312 0.181748
0.260870 0.470778 -0.166270
0.039571 0.309515 0.388289
-0.041059 -0.371112 -0.333734
-0.159448 0.037006 -0.498790
0.204032 0.016714 0.495535
-0.144565 -0.000611 -0.500216
0.113637 -0.384115 -0.318580
0.265769 -0.429660 0.248794
0.045508 0.067156 -0.495657
0.162397 -0.274273 0.413077
-0.188219 -0.331016 0.369473
0.123002 0.047670 0.493564
-0.140314 -0.013076 0.495597
-0.206232 0.386304 -0.317041
-0.071495 0.118806 0.481517
0.188966 -0.496533 0.028896
0.249188 0.325533 0.375262
0.102631 0.133124 0.477962
-0.168950 -0.380702 0.318427
0.115193 -0.193714 0.456328
-0.084090 0.492250 -0.080740
0.234755 0.479329 -0.139120
0.115997 -0.497429 0.008902
-0.133498 0.498554 -0.003451
0.112621 -0.398287 -0.300347
-0.104012 0.441027 0.230379
0.054705 -0.019355 0.495484
-0.245721 0.314753 0.384112
0.125627 -0.021824 -0.499614
0.081738 -0.419937 -0.269092
0.262154 -0.485766 0.105242
0.169440 0.272837 0.414978
-0.128341 -0.380657 0.318484
0.286061 -0.295234 0.398452
0.166943 -0.363187 0.338013
0.185688 0.259913 -0.427424
0.082076 0.457805 0.194956
0.131610 0.159222 0.469999
-0.206255 -0.276478 0.411621
-0.123145 0.402196 -0.296652
-0.090284 -0.496795 0.023047
-0.098881 -0.485677 -0.109853
0.007610 0.096839 -0.490744
0.129420 0.303878 0.392784
-0.085248 0.315002 0.383913
-0.181586 -0.252718 0.426609
-0.023227 0.472075 -0.162813
0.162830 0.124320 -0.484562
0.111971 -0.468092 0.166344
-0.202834 0.453770 -0.208348
-0.255287 -0.095977 -0.490829
0.014770 -0.122922 -0.484649
0.237674 -0.492587 0.068481
-0.195917 0.306901 0.390373
-0.048180 0.404652 -0.293141
0.261432 -0.317490 -0.385466
-0.174641 0.451766 0.208585
-0.231408 0.403414 -0.294911
0.269471 -0.109707 0.483481
-0.290121 -0.052697 -0.497264
0.244413 -0.114197 0.482540
-0.125186 -0.049235 -0.497638
-0.152087 0.477151 -0.146260
-0.167991 -0.470905 -0.162527
-0.207022 -0.038744 0.494212
0.102327 -0.215893 -0.450841
-0.210932 0.426924 0.255195
-0.202806 0.363914 -0.342695
0.106423 0.082025 -0.493506
-0.237412 -0.158766 0.469611
-0.097134 -0.273803 -0.417960
0.143095 0.110667 -0.487847
0.179526 0.486824 0.104916
0.227939 0.416576 -0.276091
0.050119 -0.327445 -0.376955
0.185020 -0.404587 -0.291997
-0.201321 0.459391 0.191153
0.014970 -0.280369 -0.413368
0.274317 -0.456650 -0.199624
0.143504 0.319921 -0.384226
-0.260877 -0.270724 -0.419995
0.170526 0.493869 0.065327
-0.121660 0.040139 -0.498536
0.127638 -0.494994 -0.052323
0.166061 0.382227 0.317621
-0.070957 0.176068 0.463788
0.034654 -0.234831 -0.441005
-0.000034 0.482665 -0.126956
-0.063937 0.144431 0.474512
-0.070675 0.194762 0.456430
-0.210407 -0.186247 -0.463937
0.176571 -0.489809 -0.090129
-0.278948 0.398380 -0.301896
-0.035270 0.136577 -0.481178
0.109874 0.032097 -0.499187
0.000271 0.431691 -0.251498
-0.157894 0.341613 -0.365038
0.234685 0.498584 -0.010365
0.168021 -0.491762 0.073268
-0.062853 0.465937 0.175451
0.203210 0.455641 0.200146
-0.036429 -0.096286 -0.490775
0.042078 -0.047166 -0.497861
-0.131376 -0.053556 0.493012
-0.244207 -0.451959 0.205746
-0.044325 -0.325517 -0.378701
-0.193401 -0.496775 0.023498
0.082190 -0.413865 -0.278289
-0.187854 0.276678 0.412312
-0.062667 -0.404396 0.287687
-0.239804 -0.233950 -0.441469
0.213108 -0.247248 -0.434307
-0.232620 0.456774 -0.201653
0.027903 -0.278784 0.410099
0.241258 0.469709 -0.169119
0.140210 0.409888 -0.285654
0.012281 -0.496668 0.025873
0.210183 -0.321253 0.377850
0.234067 -0.441342 0.227419
0.078785 0.191995 0.457672
0.233227 -0.450762 0.208412
0.099129 -0.392130 0.304095
0.066899 -0.454809 0.199396
-0.193359 0.292053 0.401560
-0.085940 -0.495895 -0.041207
-0.251752 0.498394 0.005460
-0.155240 -0.455549 0.197746
0.140605 -0.052701 -0.497263
-0.237277 -0.343436 -0.362472
-0.237554 -0.490142 -0.088353
-0.236841 -0.457461 0.193485
0.190697 -0.278898 -0.414396
-0.151039 0.390459 -0.311830
0.040182 0.326293 0.374573
-0.222017 -0.307426 -0.393491
-0.190714 0.408972 0.282901
0.284532 -0.241392 0.433104
-0.018359 0.477129 0.142526
0.034299 0.084053 0.488704
-0.146048 0.460124 0.189395
-0.244514 0.452620 0.206852
-0.027151 0.234386 -0.442042
-0.190026 0.485351 0.111951
0.010281 0.459934 -0.194611
0.232259 0.319714 0.380157
0.189620 -0.013164 -0.500002
-0.146295 -0.013659 -0.499980
0.274309 0.174281 0.464459
-0.213067 0.048956 -0.497822
0.193133 -0.328007 0.372054
-0.091850 0.493603 0.067164
-0.139579 0.393685 -0.307784
0.234929 -0.401879 -0.295587
0.105804 0.476635 -0.147951
0.133010 0.200739 0.453748
-0.192800 0.254772 -0.430372
-0.287849 -0.235825 -0.440482
-0.036262 0.110175 -0.487950
0.282047 0.004576 0.495915
0.010309 -0.468885 0.164232
-0.213401 -0.416677 0.270091
-0.020571 -0.449366 0.211524
-0.006688 -0.478196 -0.139304
0.195327 0.318322 -0.385598
0.005427 -0.478513 0.134084
0.283365 0.498129 -0.020510
-0.269888 0.138976 0.476176
-0.051340 0.313239 -0.389959
-0.216170 -0.163956 -0.472302
0.206930 0.383367 -0.320724
-0.249198 0.464612 -0.182704
0.236790 -0.288892 -0.407407
0.139436 -0.455564 0.197713
0.041935 -0.078465 0.489520
0.064604 -0.015741 0.495549
-0.098851 -0.044220 -0.498180
-0.188077 0.427290 -0.258717
0.203540 0.120466 0.481123
0.233529 -0.456060 0.196606
-0.062299 -0.170925 0.465417
-0.161885 -0.081000 0.489153
-0.149092 0.262548 0.421251
-0.145784 0.442692 -0.231156
-0.233294 -0.309740 -0.391645
-0.282289 -0.108853 0.483659
-0.022373 0.215354 0.447190
0.177523 -0.397179 0.297763
0.152740 -0.444939 0.220587
0.115657 0.479880 0.132561
-0.233595 0.191718 -0.461941
-0.259833 0.357310 0.345153
-0.059304 0.498170 -0.019593
0.221934 -0.453556 -0.207043
0.085158 0.374872 -0.330596
0.103056 0.167596 -0.471272
0.112512 -0.030718 -0.499215
-0.127636 0.165515 -0.471990
-0.141923 -0.137620 -0.480631
0.247913 0.476759 0.143868
0.091836 0.423009 0.261637
-0.131719 0.441412 0.229598
-0.136798 -0.223828 0.442386
-0.274470 0.455860 0.199622
0.078571 -0.486117 0.103763
-0.154309 0.004452 -0.500125
-0.032383 0.258042 -0.428497
0.090325 -0.141238 -0.479527
-0.158372 -0.403213 -0.293818
-0.031044 -0.457131 0.194221
0.246131 0.100842 0.485786
0.032580 -0.488765 -0.095114
0.264326 -0.496040 -0.039420
-0.263095 0.223823 -0.447247
-0.136593 0.489350 0.092862
0.225411 -0.397203 -0.301785
-0.147183 -0.496631 0.026706
