-0.247772 0.442001 0.056390
-0.279225 0.196485 -0.402000
-0.120953 -0.341258 0.283391
-0.255760 0.160919 -0.417617
-0.124570 0.294056 -0.336916
-0.072756 0.322682 -0.309637
0.219664 -0.223775 -0.386780
-0.055105 -0.444360 -0.020078
0.114289 0.258774 -0.364960
0.131899 0.063141 0.438669
-0.140038 0.382231 0.226987
0.228875 -0.442720 0.039801
-0.118301 0.403231 -0.192467
-0.265774 0.419107 -0.153821
0.144022 -0.315598 -0.315696
0.261545 0.359250 0.261741
0.066323 -0.375070 0.237251
-0.172272 0.443214 -0.049766
0.041664 -0.422594 -0.141290
-0.230837 -0.174459 0.407220
-0.081303 0.416684 -0.160552
-0.186427 0.428598 -0.124500
-0.221402 0.401994 0.190541
0.187769 0.442697 -0.055229
-0.221719 -0.397201 0.197937
0.160294 0.395471 -0.207699
-0.241669 0.222642 -0.388056
-0.014274 -0.444119 0.023387
0.077386 -0.324527 0.302369
-0.051664 -0.103904 0.430686
-0.280114 0.390550 0.212920
0.033604 -0.437890 0.075876
0.169261 -0.417226 -0.156198
0.010722 0.122565 0.425988
0.027528 0.247493 -0.372626
0.244456 -0.437961 -0.079782
0.148989 -0.145120 0.418582
-0.106224 0.309830 -0.322488
-0.250372 0.042023 0.441099
-0.205587 0.045092 0.440809
-0.141156 -0.340753 -0.288317
0.194346 0.173945 0.407886
0.047895 -0.444734 -0.008188
0.112609 0.045866 0.440736
-0.241241 0.416013 -0.162414
0.178144 -0.247933 0.367277
-0.000495 0.041857 -0.445468
-0.164769 0.373208 0.241498
0.117697 -0.198889 -0.400253
0.192244 0.115693 -0.432338
0.087475 0.430715 -0.117213
-0.084017 0.074949 0.436799
-0.272499 -0.298542 -0.332057
-0.112746 -0.436199 0.085020
0.158505 -0.271181 0.350529
-0.217597 0.121665 0.426249
-0.287979 0.445347 -0.021275
0.281997 -0.387156 0.216927
0.172386 -0.328068 0.298353
0.168202 -0.261688 0.357893
-0.145900 -0.372041 0.241708
0.099585 -0.100577 0.431429
-0.148753 -0.421510 0.139945
0.243900 -0.312936 -0.318358
0.042238 -0.424652 0.130202
-0.031838 -0.282389 0.341836
-0.099481 -0.401505 -0.193843
-0.147455 -0.216591 -0.391028
-0.209064 -0.230874 0.378228
0.117646 0.284838 -0.345042
0.035243 0.356393 -0.269777
-0.095856 0.368059 -0.253428
-0.106082 -0.115432 0.427762
0.185393 0.445759 -0.008187
0.090595 0.084488 -0.439608
-0.106563 0.438341 0.079497
-0.126053 0.048046 0.440530
0.210116 -0.258422 -0.364503
-0.287288 -0.384598 -0.225606
0.181715 0.416069 0.157906
0.134321 -0.424524 -0.134996
0.026834 -0.055820 -0.444019
0.036314 0.214257 -0.392945
0.104858 0.418326 -0.155990
-0.022042 0.005891 -0.447443
0.118634 -0.167615 -0.414535
0.135073 -0.019720 -0.446976
0.121733 -0.099778 0.431608
-0.085535 -0.435475 -0.092610
0.021174 -0.222959 -0.387262
0.082023 0.093451 0.433251
0.066907 0.440174 -0.072281
0.019272 -0.365109 0.251908
-0.004775 -0.441537 0.052310
0.081440 0.404743 -0.189086
-0.097357 0.140377 -0.425012
0.084170 0.003685 0.443159
-0.087050 0.224842 -0.386755
-0.272230 0.401722 0.191077
-0.224083 -0.037916 -0.445744
0.162464 0.188884 -0.405775
-0.150071 0.416776 -0.160294
-0.043951 0.047757 -0.444911
0.247010 -0.440682 0.058251
-0.276652 0.258119 0.361051
0.057289 -0.430746 0.109228
-0.033928 0.430153 -0.119148
-0.225352 -0.047353 0.440499
-0.123805 0.129713 -0.428265
-0.085086 0.104819 0.430710
-0.043849 0.253727 0.364036
0.237284 0.405874 -0.186473
-0.243353 -0.398774 0.194851
-0.263589 0.201022 -0.399689
0.101012 0.355717 -0.270648
0.144042 -0.405353 0.180955
-0.158405 -0.348272 0.274573
-0.250096 0.071916 -0.441632
-0.208875 0.432076 -0.112403
-0.067221 0.377170 0.235545
-0.030753 -0.444371 -0.019734
0.169606 -0.365954 -0.255019
0.111090 -0.427572 0.120150
0.148396 0.268799 0.353172
0.019950 -0.295756 -0.334514
0.082860 -0.287625 -0.341682
-0.176873 0.143346 0.419590
-0.052103 0.422169 -0.145317
0.093818 0.442292 0.054551
-0.290212 0.340580 -0.289676
0.150540 0.411624 0.168831
0.007975 0.441511 0.059488
0.071850 0.352770 -0.274449
0.216897 0.425120 -0.136471
-0.248496 0.379627 -0.235743
-0.052368 0.036497 -0.445975
0.223877 0.417498 0.153938
0.122999 -0.442897 -0.042274
-0.112818 0.445442 0.013915
-0.205211 -0.409206 -0.176404
0.176632 -0.140385 -0.424640
0.063885 0.442346 -0.058568
0.090760 -0.441905 -0.052772
0.151600 -0.155900 -0.419055
-0.275150 -0.324871 0.301978
-0.080762 -0.203837 -0.397732
-0.162618 0.443478 -0.046970
0.182971 0.149807 -0.421617
-0.056375 0.373417 0.241192
-0.175447 0.417269 -0.158927
0.068984 0.445940 -0.002401
-0.130118 -0.161631 0.412638
0.168955 -0.258274 -0.364603
0.102521 -0.429291 0.114237
-0.222033 0.414874 0.161225
0.159882 0.430334 -0.118525
-0.069327 -0.294997 0.330829
-0.067120 0.445335 -0.021674
0.206158 -0.086295 -0.438975
-0.125448 0.339626 -0.290758
0.035729 -0.221820 -0.387936
-0.194928 -0.425835 0.126132
-0.172558 0.444369 -0.037544
0.264779 0.309465 -0.322853
-0.071126 0.329725 0.297635
-0.271663 -0.369163 0.245942
0.137963 0.121753 0.426224
-0.265221 -0.444659 -0.010568
-0.015483 -0.161954 0.412522
0.144177 -0.429303 -0.118547
-0.264904 0.117333 0.427508
-0.162834 -0.439882 0.063301
-0.237738 0.445702 0.005617
0.219586 -0.444060 0.025288
0.081614 0.076872 -0.440847
0.257522 -0.117761 -0.431439
0.146289 0.132426 0.423123
-0.086747 0.270070 0.352186
0.183489 -0.086897 0.434487
0.163496 0.209348 -0.395447
-0.239584 0.122336 -0.430408
0.130082 -0.437449 -0.083014
-0.032147 0.228663 0.380141
0.199771 -0.160153 -0.417524
-0.243316 0.201910 -0.399236
-0.226477 -0.266252 0.354353
-0.265047 0.403395 -0.192147
-0.279036 -0.421954 0.138713
-0.129012 -0.247616 0.367493
-0.002920 0.438734 0.077016
-0.264436 -0.343355 -0.285265
-0.212994 0.266856 -0.359033
-0.134893 0.433928 0.099764
-0.017387 -0.198983 0.395852
0.038612 -0.415930 0.155445
0.077307 0.241040 0.372659
0.284713 -0.402103 -0.192671
0.166865 0.445600 0.008882
-0.116125 0.115075 -0.432517
0.039875 0.008358 -0.447365
0.126446 -0.073400 0.436882
-0.289600 0.085927 0.434933
-0.054031 -0.358133 -0.266213
0.036466 0.034471 -0.446167
0.284339 0.226885 -0.385546
-0.289235 -0.444565 -0.013548
0.226121 0.363994 -0.259409
0.177927 0.391983 0.210190
0.187563 -0.369176 -0.250277
0.030604 -0.443265 -0.038387
-0.157744 -0.026906 0.442397
0.053317 0.132877 0.422992
-0.178811 -0.168306 -0.414236
-0.046005 0.408534 -0.180326
-0.017741 0.361159 -0.263581
0.162894 -0.060611 0.438907
-0.245917 0.082592 -0.439942
-0.228468 -0.351455 0.270469
-0.134809 -0.097621 -0.436443
0.136848 0.272739 -0.354469
0.067938 0.409512 -0.178067
0.208288 0.029021 0.442328
-0.214640 0.123550 -0.430055
0.229015 -0.181598 0.404131
0.082418 0.444895 0.027631
-0.224281 0.265145 0.356006
-0.189243 0.403956 -0.190904
-0.250579 0.087517 0.434577
-0.126575 -0.328782 -0.301896
0.161203 0.423741 -0.140948
-0.111143 -0.437524 -0.082540
-0.072976 -0.303252 0.323551
-0.201016 0.432888 0.104418
0.139268 0.427513 0.123882
0.225295 -0.036317 0.441542
-0.134780 -0.037053 -0.445826
-0.093706 -0.383137 -0.228076
0.026456 0.378309 -0.237972
-0.198134 -0.295434 0.330444
-0.153463 -0.356428 0.264058
-0.246117 -0.439239 -0.071713
0.213716 -0.403168 0.186003
0.195343 0.256805 -0.366298
-0.144865 -0.094588 0.432768
-0.155678 0.307687 0.320278
-0.134736 -0.323354 0.303586
-0.178892 -0.440226 0.061128
-0.111863 0.224894 0.382370
0.229079 0.336805 0.289605
0.211979 -0.152139 0.416055
-0.149856 0.388576 -0.220612
0.244734 0.409294 -0.178569
0.082633 0.432893 0.104395
0.057871 0.391577 0.210987
0.085402 -0.437699 -0.081435
0.098818 0.061383 -0.443301
0.142518 -0.207719 0.391401
-0.150555 -0.444834 0.000630
0.226608 -0.191403 0.399714
0.012944 0.222046 -0.388408
-0.218539 -0.050691 -0.444536
0.286380 -0.236097 -0.379492
-0.203509 -0.378837 -0.235347
0.168630 -0.391444 -0.213591
0.056097 0.337358 0.288978
-0.184792 0.276852 0.346925
-0.026708 0.374210 0.240024
-0.186883 -0.062708 0.438575
-0.018999 0.076242 -0.440947
-0.166416 0.073134 0.437086
0.207851 -0.380099 -0.233214
0.228041 0.204166 -0.398087
-0.088727 0.356796 -0.269257
0.135184 0.131277 0.423457
-0.132069 -0.435701 -0.091601
-0.042705 0.381519 -0.232544
-0.210368 0.272267 0.350482
0.188450 0.427262 -0.129099
-0.256071 0.408625 0.175763
-0.274415 0.309603 0.318362
-0.045886 -0.113590 0.428297
0.209228 -0.287880 0.337104
0.035414 -0.283890 -0.344975
-0.054775 0.308780 0.319185
0.073860 0.265271 0.355908
0.160645 0.167927 0.410490
0.041725 -0.176155 0.406486
0.114742 -0.296513 -0.333846
0.060771 0.027522 0.442410
0.265772 0.046506 0.440676
0.034299 -0.083600 -0.439577
-0.059954 -0.287559 -0.341740
0.185165 0.237597 -0.379211
-0.247655 0.322939 0.305026
0.216432 -0.022009 -0.446904
0.044126 -0.231406 -0.382266
0.064487 0.436493 0.088290
0.207843 -0.443017 -0.041003
0.161114 -0.347525 -0.279889
0.077901 -0.424694 0.130057
0.045963 -0.444788 0.002116
0.165309 0.436813 0.086859
0.009734 0.393719 -0.211137
-0.099518 -0.002221 -0.447526
0.051456 0.206498 -0.396899
0.136631 -0.353746 0.267515
-0.165035 0.271078 -0.355758
-0.025162 -0.435233 0.089343
0.168957 0.125643 0.425094
0.113693 0.433924 -0.104136
-0.115455 0.346390 -0.282673
-0.211149 0.390591 0.212852
-0.156797 0.445841 0.001195
-0.095997 -0.110621 -0.433513
0.081340 0.443622 -0.045450
0.084334 0.427803 -0.127236
0.219255 0.210026 -0.395101
-0.159820 0.036286 -0.445995
0.236895 -0.318048 0.308892
-0.020682 0.258807 -0.364937
-0.270927 0.295124 0.331620
0.263341 -0.226753 -0.385018
0.234365 0.425901 -0.133783
-0.090206 -0.072491 -0.441379
-0.249722 0.016089 -0.447122
0.111267 0.368351 -0.252999
-0.053323 -0.121363 -0.430393
0.172747 -0.109912 -0.433696
0.087656 -0.364813 -0.256697
-0.057954 0.359470 -0.265810
0.245118 -0.354605 -0.270761
-0.150661 -0.366667 0.249616
0.204707 0.436820 0.086828
0.177762 0.445069 -0.030142
0.187239 0.077383 -0.440767
-0.125673 0.437930 -0.086216
0.157513 -0.185093 0.402618
0.084724 -0.410302 0.169520
0.171271 0.399947 -0.198912
-0.087247 0.309481 0.318484
-0.106843 -0.235646 -0.379759
0.139471 -0.409826 -0.174972
-0.191077 0.435555 0.092486
-0.139597 -0.401972 -0.192927
-0.090213 -0.416757 -0.157502
0.118336 -0.333354 -0.296710
-0.247788 0.440917 -0.067589
-0.232977 -0.299661 -0.331071
0.037044 0.372458 -0.246955
-0.032515 -0.381246 0.226921
-0.145245 0.435072 -0.098999
-0.157606 0.294935 0.331787
0.033309 -0.444740 -0.007980
0.157388 -0.073492 0.436867
-0.002345 -0.443545 0.031070
-0.126802 -0.392713 0.206747
0.228657 0.382134 -0.231504
-0.114234 -0.237445 0.374341
0.182090 0.359151 0.261869
-0.098618 0.387268 0.218471
0.231435 -0.202287 -0.398522
0.177810 0.044391 0.440876
0.271324 -0.066767 -0.442285
0.142180 0.445385 -0.020081
0.064052 -0.152369 -0.420326
-0.287289 -0.429837 0.112357
-0.266006 0.443980 -0.041657
-0.054631 0.425278 0.131575
-0.227333 -0.027733 -0.446707
-0.250199 -0.035629 -0.445960
-0.010459 -0.226816 -0.384981
0.175232 -0.316582 0.310359
0.010035 -0.105413 0.430348
-0.288911 -0.241510 -0.375996
-0.124871 -0.380938 0.227441
0.146513 -0.024452 0.442474
-0.053888 -0.214523 -0.392251
0.240538 0.103106 -0.435446
-0.059674 -0.443940 0.026885
-0.041602 0.171202 -0.413426
0.106043 0.301114 0.326339
0.206759 0.392109 -0.214296
-0.044414 0.225656 -0.386273
-0.111827 -0.429243 -0.118753
-0.055091 0.402117 -0.194655
-0.104186 0.340142 -0.290173
-0.280719 0.163679 0.412270
0.056188 -0.125982 0.424697
-0.099288 -0.217775 0.385974
0.130086 -0.433214 0.098373
-0.289807 -0.294089 -0.335983
-0.198804 -0.371350 -0.247078
-0.124542 -0.127250 -0.428682
-0.047228 0.144142 0.419303
-0.233146 -0.397984 0.196402
0.180889 0.311283 -0.321035
0.026825 0.227273 0.380963
-0.266091 0.385736 -0.225414
-0.053463 -0.327840 -0.302965
-0.242589 -0.432321 -0.106722
-0.177258 0.404657 -0.189285
0.268729 0.334756 -0.296283
-0.220305 0.407513 -0.182686
0.231549 0.050425 -0.444658
-0.066273 0.308552 -0.323767
-0.079325 -0.259532 -0.363748
0.120409 0.394446 0.205356
-0.122302 -0.427332 -0.125332
0.130494 0.412090 -0.172108
-0.025119 0.421454 0.142948
0.132278 0.338810 -0.291684
-0.160466 0.239518 -0.378046
-0.133158 -0.395958 -0.204730
0.122698 0.209070 -0.395588
-0.090726 0.439138 0.074471
0.065229 0.144206 -0.423634
-0.289625 0.392576 -0.213380
-0.287423 0.156986 0.414679
0.037647 -0.438810 -0.074424
-0.274521 0.381073 0.228945
-0.269169 0.304575 -0.327642
-0.263620 0.238472 0.374340
0.030051 0.442904 0.048693
-0.144529 -0.203954 0.393319
-0.278773 -0.403008 0.186375
-0.093188 0.242058 0.371966
0.177136 -0.432576 -0.105579
-0.026635 0.347056 0.277461
0.003721 0.071728 0.437309
-0.190250 0.365502 0.252837
-0.153311 -0.443524 -0.035641
-0.003703 0.051072 -0.444597
-0.138044 0.350825 0.272603
-0.166306 -0.193924 -0.402783
0.109716 -0.321060 -0.310234
0.064987 -0.210716 -0.394227
-0.273770 -0.413685 0.161682
-0.106647 0.444338 -0.037873
-0.161507 0.435371 0.093307
0.164386 -0.338214 -0.291197
0.111889 -0.317985 0.308956
0.092982 0.273255 0.349715
-0.033215 -0.097704 0.432071
0.045985 0.097360 -0.436731
0.141636 0.086008 -0.439268
-0.228444 0.317046 -0.315273
0.026511 -0.262994 0.356880
0.269961 0.443089 0.046728
0.149816 -0.322216 -0.309078
0.276975 -0.212902 0.388760
0.110332 -0.416096 -0.159338
-0.180902 0.408348 0.176402
-0.161892 0.402993 0.188582
0.277324 0.411631 0.168817
0.214564 -0.244332 0.369725
-0.200493 -0.331814 0.294103
0.206597 0.037565 -0.445874
-0.283658 -0.185201 0.402571
0.042259 -0.203651 0.393474
0.221990 -0.205651 -0.396808
0.181346 -0.306832 0.320108
0.176955 0.077387 -0.440766
0.245301 0.347273 0.277182
0.258335 0.381928 0.227500
0.117560 0.444799 0.028642
-0.249134 -0.376123 -0.239936
-0.147611 0.423365 -0.141994
-0.074611 -0.039742 -0.445571
0.249861 0.082216 0.435648
-0.102226 -0.444420 0.013828
-0.040107 0.036512 -0.445974
-0.211899 -0.276118 0.346699
0.142588 0.115498 -0.432394
-0.257128 -0.218703 -0.389779
-0.066148 -0.431530 -0.110260
-0.216424 -0.401436 0.189626
0.117508 -0.026694 0.442403
-0.069124 0.427375 0.124356
0.054745 0.014503 0.442819
-0.289389 0.280898 -0.348141
0.221636 0.263713 -0.361471
-0.284934 0.084026 -0.439711
-0.029695 0.311712 -0.320606
0.211256 -0.047920 0.440445
0.093672 0.443956 -0.041909
-0.289644 0.242617 -0.375940
0.269423 0.174657 0.407578
0.011907 -0.253143 -0.368090
0.223493 0.444727 0.029405
-0.182441 -0.308975 -0.322319
-0.265435 -0.113705 -0.432617
0.262432 -0.162140 0.412455
-0.147606 0.166018 -0.415669
0.118322 -0.441027 0.056069
-0.122686 0.170152 0.409527
0.206500 0.067209 -0.442378
0.179357 -0.053983 -0.444225
-0.036704 0.406900 0.179749
-0.061866 0.442214 -0.059401
-0.021244 -0.066967 0.437900
-0.179616 -0.198125 0.396289
-0.099345 0.166095 -0.415636
0.108558 0.064045 0.438526
-0.169224 0.414441 -0.166676
0.008750 -0.340415 0.284347
0.245533 0.225027 0.382292
0.206407 0.240896 0.372756
0.071699 0.129215 -0.428409
-0.169633 -0.023768 0.442495
0.286220 0.139884 0.420836
0.182975 -0.033042 0.441851
-0.156362 0.069267 0.437699
-0.287040 0.255945 0.362529
-0.206669 -0.403633 0.184931
-0.234885 -0.099220 0.431733
-0.083038 0.417885 0.152861
-0.271440 0.445722 -0.009339
-0.038717 -0.212380 -0.393379
-0.091338 0.383132 0.225464
0.273771 0.131037 0.423526
0.211351 -0.354713 0.266269
-0.286115 0.226078 -0.386023
0.127530 -0.300130 0.326303
0.057552 0.440611 0.065165
-0.250637 0.236722 0.375375
-0.010214 -0.417023 0.152409
-0.155857 0.252803 -0.369017
0.166193 -0.375829 -0.240432
0.178268 0.096399 0.432592
0.114784 -0.357830 0.262250
-0.134671 0.087422 0.434599
0.017573 0.239615 -0.377980
-0.129226 0.355838 0.266139
-0.157689 0.423681 -0.141117
-0.096584 0.023176 0.442546
-0.191036 -0.181514 0.404167
0.119808 0.015526 0.442787
-0.242111 -0.012871 0.442838
-0.068938 0.200101 -0.400158
0.220571 -0.285635 -0.343436
-0.280142 0.291388 -0.339268
0.156079 -0.379526 -0.234182
0.050304 0.277533 -0.350751
-0.022085 0.381553 0.228134
-0.106387 0.393049 -0.212451
-0.115782 0.032155 -0.446386
0.214044 -0.421000 0.141363
0.127415 -0.368654 -0.251046
-0.229526 -0.074699 -0.441029
0.060618 0.417642 0.153538
-0.155307 -0.073172 -0.441271
0.018570 -0.035956 0.441576
0.005090 -0.442507 0.042050
0.106518 -0.290918 0.334425
-0.147720 0.174936 -0.411810
0.105337 0.086499 0.434805
-0.208382 0.257345 -0.365931
0.181922 0.445482 0.012639
0.018501 0.362774 0.256852
0.212662 0.102203 -0.435648
-0.226900 -0.310965 -0.320329
-0.046951 0.154370 0.415621
-0.067120 -0.272880 -0.353565
-0.187908 -0.085599 -0.439131
-0.087935 0.232852 0.377664
-0.193550 0.187324 -0.406450
0.076338 0.362913 -0.261001
0.177465 0.245978 -0.373656
-0.015849 0.375124 0.238680
0.132822 -0.427874 -0.123464
0.207730 -0.440942 0.056606
0.022028 -0.423332 0.134745
-0.167346 0.109475 -0.434023
0.030922 0.283944 -0.345778
0.190253 -0.417944 0.149852
0.007011 -0.179636 0.404980
-0.148523 0.034566 0.441804
0.103261 0.274030 -0.353467
-0.238483 -0.239504 0.373006
-0.137479 0.300402 0.326968
0.184311 0.439564 -0.076129
0.217785 0.390362 -0.217593
-0.094947 0.101977 -0.435699
-0.255505 -0.200943 0.394853
-0.083614 -0.437628 -0.081884
-0.148293 -0.405880 -0.184090
-0.029226 0.440374 0.066664
0.145205 0.280164 -0.348710
-0.237252 0.445364 0.016392
-0.114292 -0.073381 -0.441238
0.167997 -0.359923 -0.263892
-0.201266 -0.181133 0.404332
-0.034198 -0.112178 0.428708
-0.183718 0.347090 0.277418
0.169578 0.239200 -0.378262
-0.080480 0.401878 0.190769
0.062957 -0.443721 -0.033557
0.265934 0.271937 0.350738
-0.202813 -0.428326 0.117557
-0.020078 0.151771 0.416557
0.228399 0.388647 0.216139
0.034313 0.204528 -0.397902
-0.048102 0.004206 0.443142
-0.181203 0.426620 0.126956
-0.232334 -0.432928 -0.104008
0.141697 0.443366 0.043797
0.091973 -0.414892 0.158328
-0.032753 0.419533 -0.152638
0.134340 0.106938 -0.434590
-0.289125 0.258975 -0.364823
-0.004556 0.441781 0.057781
0.173746 0.108223 0.429949
0.072296 0.250331 0.366344
-0.113723 -0.395864 -0.204916
0.096484 -0.283835 0.340670
0.001417 0.255085 0.363113
0.096406 0.412127 -0.172022
-0.127824 0.310467 0.317498
0.085034 -0.372722 -0.245060
-0.156337 0.439011 -0.079626
0.104847 0.391710 -0.215080
0.168110 0.331807 -0.299627
-0.106757 0.062413 -0.443137
-0.073578 -0.372837 0.240537
-0.253498 -0.306854 0.320086
-0.065362 0.424431 0.134490
0.151195 -0.103557 -0.435117
-0.161012 -0.319303 -0.311990
0.210067 -0.301155 -0.329754
-0.159609 0.185854 -0.407086
-0.272547 0.007915 -0.447379
-0.092880 -0.336020 -0.293685
-0.277571 0.442080 0.055893
0.243238 -0.415754 0.155934
-0.270625 -0.269436 0.351883
0.276681 0.069553 0.437653
0.213404 -0.426757 0.122955
-0.240735 0.436309 0.089114
0.141379 0.140766 -0.424872
-0.180383 -0.018154 -0.447025
0.029372 0.114108 -0.432798
0.087793 0.324633 0.303332
0.102573 0.444012 0.036967
-0.127740 0.440621 -0.069461
0.068788 0.434495 0.097228
-0.241926 -0.384005 0.222255
-0.271541 -0.168276 0.409896
-0.283041 -0.435030 0.090248
-0.096262 -0.442677 -0.044607
-0.247784 -0.267716 -0.357571
0.229049 -0.089954 -0.438157
0.124411 0.285500 0.340106
-0.221618 0.272697 -0.354502
-0.114563 -0.205324 0.392621
-0.263482 -0.310233 0.316707
-0.020191 -0.410935 0.168055
0.025225 0.295706 0.331107
-0.222366 0.372087 0.243148
-0.020765 -0.357913 0.262143
0.101437 0.370760 -0.249455
0.279633 0.428417 -0.125125
-0.075001 0.000634 -0.447608
0.197943 -0.202666 -0.398329
0.157751 0.089639 0.434103
0.251060 0.006179 -0.447434
0.274974 -0.405265 0.181159
0.049447 0.226915 -0.385528
0.252019 -0.290284 0.334984
0.283930 0.349671 -0.278444
-0.211336 0.034629 0.441798
0.023042 0.442343 -0.058586
-0.141625 0.354306 -0.272468
0.068559 0.444046 -0.040960
0.123818 -0.057968 0.439326
0.005662 0.424665 -0.138040
-0.045453 -0.010799 0.442903
0.053163 0.445256 0.019824
-0.130879 0.147984 0.417920
-0.189321 0.085586 -0.439363
-0.289964 -0.051800 -0.444432
-0.038246 0.340055 -0.290271
0.059298 -0.426635 0.123378
-0.077549 -0.061771 0.438723
-0.235880 -0.022247 0.442543
-0.125970 -0.166699 -0.414932
0.134140 -0.442859 -0.042681
-0.180997 0.434913 0.095358
-0.235954 0.342134 0.283560
0.088791 -0.023612 0.442500
0.135062 -0.106297 0.430151
0.220978 -0.341424 -0.287556
0.170114 -0.089784 0.433842
0.244106 0.432555 -0.110261
0.256994 0.300664 -0.331090
0.055439 0.199316 0.396205
0.034007 0.098088 -0.436568
0.169043 0.442914 0.048580
-0.025153 -0.036286 0.441545
0.101758 0.265012 -0.360463
-0.050653 0.366523 0.251336
-0.166026 0.445721 0.005015
-0.125823 0.422941 0.138817
0.056493 0.439106 -0.079026
0.159172 0.041227 0.441175
0.201488 -0.432522 0.101471
-0.241242 -0.333471 -0.296578
0.116121 0.445679 0.006374
0.253494 -0.417814 0.150212
0.019256 -0.406308 -0.183101
-0.168564 0.365965 -0.256510
-0.273202 0.415986 0.158137
-0.030730 0.199264 0.396231
0.125273 -0.444513 -0.015205
0.257162 -0.210446 -0.394365
0.286233 0.413262 -0.169401
-0.092166 0.406705 -0.184551
0.161747 -0.371502 0.242501
-0.052994 -0.370801 0.243533
0.137077 0.445524 0.011297
-0.190026 -0.369631 0.245254
-0.080541 -0.395301 -0.206020
-0.281243 -0.131113 -0.427560
0.073611 -0.174463 0.407218
0.012674 0.385690 0.221138
0.251140 0.161672 0.412992
0.118198 -0.429755 -0.116990
-0.180492 -0.159093 -0.417905
0.120175 0.413709 -0.168367
0.140212 -0.444686 -0.009692
-0.048240 0.281721 0.343149
-0.230836 -0.344457 0.279491
0.166715 0.106733 -0.434636
-0.186490 -0.317120 -0.314174
-0.109140 0.063437 0.438622
-0.032460 0.171603 0.408899
-0.164131 0.005271 -0.447462
-0.290085 -0.008443 0.442977
0.211000 0.118962 -0.431388
0.034402 -0.441461 0.053117
0.273866 -0.425587 -0.131338
0.212016 0.231798 0.378287
-0.278236 -0.416486 -0.158254
-0.243187 0.005534 -0.447454
-0.031201 0.445442 0.013915
-0.289274 0.341548 0.284225
0.071851 0.445177 0.022324
-0.041944 -0.394380 -0.207828
0.119669 -0.341257 -0.287745
0.030008 0.438834 -0.080744
-0.058834 -0.234850 -0.380229
0.163389 0.439727 -0.075104
0.220945 0.113081 -0.433096
0.257913 -0.235010 -0.380135
0.237501 -0.339768 -0.289435
0.160439 0.258230 -0.365329
0.010179 -0.110482 -0.433554
0.255463 0.416543 -0.160942
0.050976 0.367791 0.249469
-0.039836 -0.084159 -0.439453
0.229523 -0.345947 -0.281923
-0.174016 0.082483 -0.439959
-0.114100 0.023932 0.442522
-0.010147 0.386961 -0.223343
-0.076547 0.388412 0.216536
0.237045 -0.444850 0.000126
0.080888 -0.033530 -0.446159
-0.168360 0.334269 -0.296834
0.069609 0.355252 0.266895
0.112246 0.442454 -0.057802
0.085908 0.321389 -0.310930
0.128834 -0.374129 0.238635
0.239583 0.381842 -0.231999
0.004403 -0.370156 0.244481
-0.186754 -0.225935 0.381149
-0.063348 -0.183323 0.403384
-0.152805 0.075901 -0.441001
-0.260351 0.182471 0.404196
0.285306 -0.426854 0.122622
0.077222 0.138024 -0.425850
-0.004817 0.263641 0.357173
0.235238 0.417143 -0.159277
-0.101614 -0.317298 0.309642
0.062553 -0.252140 0.364418
-0.071169 -0.264108 0.356016
0.105923 0.441540 0.059300
0.047657 -0.081178 -0.440003
0.247544 0.313952 -0.318366
-0.210208 -0.274378 -0.352403
-0.206882 0.160394 -0.417805
0.264655 0.431424 0.110421
0.269828 -0.436657 0.082971
-0.253037 -0.441244 0.054703
0.186310 0.318550 -0.313769
0.094891 0.440155 -0.072402
-0.254612 0.445279 -0.023459
-0.070805 -0.003528 0.443131
0.276117 -0.382831 -0.228594
0.002962 -0.006042 -0.447406
-0.065423 -0.203517 0.393542
0.241428 -0.271576 0.350223
-0.259646 -0.337167 -0.292385
-0.137953 0.438007 0.081516
-0.225781 -0.444598 -0.012502
0.226955 -0.256522 -0.365794
-0.256603 0.429935 0.115545
-0.005705 0.292288 0.334121
-0.263104 -0.364043 0.253477
0.223743 0.355043 0.267164
0.254491 0.283130 -0.346409
0.238220 -0.360125 -0.263595
0.228056 0.393804 -0.210969
-0.078578 -0.350801 0.271312
-0.122963 -0.436843 0.082138
-0.241472 0.051992 0.440157
-0.199159 0.419825 0.147474
0.196578 0.237041 -0.379540
0.226120 -0.240369 0.372418
-0.250290 -0.323979 0.302961
-0.228076 -0.418224 -0.153427
-0.004675 -0.244869 -0.373713
-0.226447 -0.092297 -0.437634
0.031553 -0.028560 -0.446629
0.033708 -0.093320 -0.437405
-0.153686 -0.183568 0.403278
0.078690 0.364682 0.254044
0.066976 -0.096929 0.432245
-0.206359 0.437092 -0.089961
0.245527 -0.312048 0.314892
-0.124715 0.026798 0.442432
-0.186132 -0.432858 0.099968
0.274290 0.081628 0.435741
0.092485 -0.321304 -0.309990
0.196374 -0.260827 0.358514
0.239380 -0.081814 0.435549
0.181633 0.434826 -0.100099
0.110643 -0.275887 -0.351232
-0.221023 0.443181 -0.050117
-0.251984 -0.440739 -0.062246
0.222684 -0.107716 -0.434187
0.022991 0.445076 0.025546
0.062938 -0.225127 0.381627
-0.153971 0.250925 0.365941
0.103204 0.433764 -0.104849
-0.015769 -0.326260 0.300404
-0.271827 -0.356924 -0.267772
0.154150 0.283334 0.341898
-0.050321 0.439636 0.071326
-0.188329 -0.397874 0.196617
0.221936 -0.403409 -0.189801
-0.077822 -0.426808 -0.127134
-0.040519 -0.371911 -0.246253
-0.042658 0.129247 -0.428400
0.094648 0.250146 0.366470
0.184695 0.423201 0.138096
0.141758 0.023965 -0.446875
-0.097988 -0.422952 0.135941
0.075119 0.436648 -0.091947
-0.143357 0.419570 0.148181
0.085641 0.424286 -0.139342
0.274086 -0.441963 0.047804
-0.095029 -0.288302 0.336732
-0.082084 0.213266 0.389096
0.152671 0.439056 0.074984
0.216654 -0.130473 -0.427746
-0.281096 0.246052 -0.373606
-0.280124 -0.444877 -0.003642
0.221779 0.340951 -0.289256
0.018454 -0.444641 -0.011151
-0.148285 -0.407644 0.175660
-0.010776 0.040673 -0.445580
-0.086710 -0.401429 -0.193993
-0.102500 -0.397051 -0.202585
-0.021327 0.429098 -0.122779
-0.089049 0.233920 -0.381386
-0.267607 -0.434279 0.093608
-0.170242 0.388186 0.216917
-0.287944 0.014995 0.442803
0.033938 -0.347908 -0.279395
0.212822 0.408355 0.176386
-0.063978 -0.399916 -0.196962
-0.128808 0.258196 -0.365352
0.104728 -0.444246 0.019370
0.020224 -0.376761 -0.238857
-0.263961 0.374910 0.238995
0.185655 -0.437814 0.076356
-0.101861 -0.329683 0.296520
-0.204445 -0.239886 0.372746
-0.029675 0.054235 0.439945
-0.055941 -0.031114 -0.446387
-0.027815 0.331596 0.295513
0.128333 0.276783 0.346979
0.156089 -0.437877 -0.080313
-0.011657 -0.327837 -0.302968
0.150924 -0.339317 -0.289946
0.103786 -0.110266 -0.433617
0.034331 -0.063666 -0.442777
0.195737 -0.364603 -0.257006
0.023102 0.436817 0.086839
0.082265 -0.169891 0.409197
0.052916 0.428121 0.121790
-0.212883 0.154577 0.415547
0.222475 0.435922 -0.095197
0.184312 0.077711 0.436361
0.037048 0.141935 -0.424451
0.285465 0.152935 -0.420491
-0.071172 -0.314627 0.312313
-0.201485 -0.393741 -0.209082
-0.016460 0.430199 0.114636
-0.253606 0.430893 -0.116601
-0.127803 0.256753 0.361979
-0.185678 -0.075295 0.436581
0.041226 -0.391265 -0.213941
0.279136 0.235313 -0.380562
0.166683 0.094577 0.432999
0.014070 0.445771 -0.007794
-0.091700 0.393743 0.206735
-0.171275 -0.313104 0.313837
0.265782 -0.320385 0.306555
0.097422 -0.421522 0.139913
0.148534 0.358913 0.262175
0.180058 -0.255316 -0.366613
-0.114809 0.222696 -0.388023
0.275913 -0.275801 0.346946
-0.097327 -0.087101 0.434441
0.190123 -0.441466 -0.057416
0.032414 0.083510 0.435443
-0.057116 -0.325736 0.300997
-0.179396 -0.442100 0.046350
0.158642 -0.247119 0.367830
0.215182 -0.357712 -0.266756
0.213955 0.210457 0.390528
-0.133679 -0.425896 -0.130274
-0.290056 -0.229383 -0.383463
-0.175186 0.334095 0.292678
-0.034953 -0.198884 0.395902
-0.087857 -0.058342 -0.443620
0.250010 -0.351631 0.270242
-0.115039 -0.214419 -0.392313
-0.164916 -0.398462 -0.199816
0.050385 0.029002 0.442330
0.040137 -0.163318 0.412031
0.239584 0.337003 0.289380
-0.106332 -0.179502 -0.409391
0.022061 -0.444819 0.001132
0.054099 -0.444586 0.008531
0.186685 -0.444756 -0.007482
-0.196841 0.339072 -0.291386
0.187294 -0.100285 0.431495
-0.179994 0.325619 0.302293
0.056308 0.076625 0.436533
-0.174545 0.445631 -0.012237
0.205320 -0.366729 -0.253877
0.109276 0.336152 -0.294698
-0.205069 -0.147272 -0.422161
-0.227475 0.445871 0.000267
-0.099466 -0.374702 -0.242145
-0.253778 -0.159310 -0.417827
-0.167920 -0.077114 -0.440647
-0.029808 0.139497 -0.425329
0.197723 -0.366518 0.249835
-0.083071 -0.409790 0.170702
0.027860 0.015431 -0.447143
0.114247 -0.419264 -0.150537
0.042876 0.111046 -0.433672
-0.238380 -0.403112 0.186135
0.184867 -0.265043 0.355290
-0.270052 0.022376 0.442571
-0.194954 -0.266170 0.354416
0.161188 0.298038 0.329052
0.120174 0.364939 0.253667
0.028514 0.429458 -0.121540
-0.110307 -0.444465 -0.016748
0.276110 -0.350379 -0.276209
0.198005 -0.066020 -0.442404
-0.227654 -0.192539 -0.403489
-0.246433 -0.165636 0.411038
-0.134093 -0.330055 0.296098
0.018513 -0.281327 -0.347013
-0.058887 -0.379785 0.229391
-0.119974 -0.263903 0.356175
-0.113616 -0.357173 0.263097
0.152337 0.426697 0.126689
-0.147521 -0.028303 0.442299
-0.073653 -0.340440 -0.288672
-0.211460 0.417177 -0.159181
-0.063574 -0.424075 -0.136541
-0.241811 0.237078 -0.379518
-0.037957 -0.285068 -0.343936
0.283976 -0.021581 0.442564
0.254722 0.182676 -0.408461
0.241635 0.435866 0.091095
-0.243733 -0.305633 -0.325661
0.032395 0.414577 0.162008
-0.070181 -0.441482 0.052887
-0.015179 0.398742 -0.201278
0.128839 -0.102457 -0.435362
-0.207748 0.441103 -0.066413
0.206934 -0.151790 -0.420534
0.112239 0.409622 0.173458
-0.045709 0.141021 -0.424781
0.285655 0.365776 -0.256788
-0.073639 0.300956 0.326479
0.170352 -0.247136 -0.372172
-0.089760 0.422127 -0.145431
-0.002716 -0.071167 -0.441589
-0.101635 0.294771 -0.336285
-0.102678 0.418560 0.150986
-0.040498 -0.443173 -0.039357
-0.055808 -0.400222 0.192008
-0.200821 -0.268738 -0.356778
0.094040 -0.400420 0.191621
-0.278150 -0.353842 0.267392
0.005202 -0.087800 0.434285
-0.237496 -0.056753 0.439518
-0.145310 -0.094202 -0.437208
0.103832 -0.417903 0.149964
0.183331 -0.256284 0.361602
-0.090045 -0.211746 0.389349
-0.232507 -0.427586 0.120104
-0.274928 -0.067533 0.437811
0.073539 0.178074 0.406099
-0.054996 0.426252 -0.132574
0.077995 0.279178 -0.349475
0.174745 -0.330158 -0.300335
-0.145936 -0.418103 0.149409
-0.185349 0.444745 -0.033571
-0.191797 0.384854 0.222552
-0.110010 0.205353 -0.397482
-0.216351 -0.285108 0.339547
-0.110102 -0.149620 0.416962
-0.142319 -0.385906 -0.223394
-0.046744 -0.147084 0.417875
0.118183 0.413496 0.164507
0.224620 0.348065 0.276161
-0.286519 0.419624 0.148032
-0.020860 -0.286088 -0.343037
0.025758 0.104569 -0.435119
-0.153208 0.400871 0.192746
0.184901 -0.443416 -0.036790
0.116996 -0.224593 0.381942
-0.125936 -0.178009 -0.410037
0.055767 -0.063318 0.438479
0.149704 -0.439269 -0.071526
0.154681 -0.246214 -0.372799
0.142818 0.376447 -0.241086
0.144441 -0.437269 -0.084151
0.103843 0.445836 0.001362
0.127639 -0.327484 0.299015
-0.183867 0.034926 -0.446124
0.196021 0.360601 -0.264353
-0.160193 0.275941 0.347632
-0.161299 0.131665 0.423344
-0.033739 0.442363 -0.058460
-0.229355 0.055081 -0.444218
-0.187096 -0.176950 -0.410495
-0.099019 -0.438548 0.071724
0.248483 0.121473 -0.430658
-0.263341 0.404190 0.186010
-0.101054 -0.200518 -0.399423
0.186785 0.353002 0.269796
-0.198976 -0.207294 -0.395971
0.155847 -0.200901 -0.399228
-0.019891 0.445370 0.016208
-0.276332 -0.276348 0.346521
0.179185 0.369557 0.246872
-0.003483 -0.394764 -0.207075
-0.108330 0.398809 0.196794
-0.037623 0.445668 -0.011059
-0.007930 -0.190638 0.400104
0.117196 0.234910 -0.380800
-0.015528 0.160303 -0.417838
0.022624 -0.260680 -0.362968
0.222289 0.205038 0.393289
-0.023796 0.444646 0.030265
0.126177 -0.082558 -0.439785
-0.212684 0.362419 -0.261728
-0.243864 0.064716 0.438419
0.124397 -0.320771 0.306169
0.008778 0.343656 0.281834
-0.133880 0.325692 0.302210
0.268338 0.281450 0.343359
-0.220638 -0.302531 0.324187
-0.022029 0.432298 -0.111411
-0.197062 -0.164508 0.411526
0.237792 0.436984 -0.090447
-0.001089 -0.444713 0.004509
0.072061 0.440523 0.065721
0.286212 0.265636 -0.359979
-0.210105 -0.443793 0.028448
0.036109 0.121935 0.426171
0.222408 0.188870 0.401427
0.248774 0.111157 -0.433647
-0.199055 0.390704 -0.217014
-0.210741 -0.169769 -0.413603
-0.224523 -0.284659 -0.344297
-0.233689 0.042585 0.441046
-0.094044 -0.181316 -0.408606
-0.196892 0.278703 0.345489
0.187507 0.125231 -0.429567
0.286395 -0.414311 -0.164296
-0.222522 -0.421613 -0.144014
0.227654 -0.295619 -0.334634
0.048376 0.433769 0.100474
-0.016816 -0.345430 0.278236
0.129394 -0.001402 -0.447552
0.241957 -0.239268 -0.377519
0.027930 -0.434099 0.094415
-0.173679 0.093442 0.433253
-0.286202 0.291258 0.335029
0.037282 0.328537 -0.303336
0.261546 0.419859 0.147379
0.073427 0.442074 0.055931
-0.074556 -0.383802 0.222598
-0.182160 0.071922 0.437278
0.099444 0.105752 0.430502
0.153516 -0.431392 0.106524
0.264154 -0.419051 0.146776
-0.163879 0.222268 0.383924
-0.161633 0.130324 -0.428087
-0.134053 -0.405788 0.179949
0.071065 -0.442271 0.044550
-0.201919 -0.308844 0.318096
0.026853 0.275343 -0.352449
-0.155060 -0.073651 0.436842
0.105095 -0.283008 -0.345709
-0.229598 0.220439 0.385005
-0.109844 0.380023 -0.235075
-0.175370 -0.401620 0.189266
-0.073425 0.238333 0.374423
0.276587 -0.029604 0.442176
-0.211415 -0.422002 -0.142933
-0.261921 0.026127 -0.446807
0.049698 0.220587 0.384918
0.009851 0.414988 0.160907
0.208407 0.213002 -0.393585
0.045690 -0.215076 -0.391924
-0.057764 -0.088757 -0.438425
0.107963 -0.442084 0.046520
-0.020845 -0.342040 -0.286857
-0.131930 0.280149 0.344368
0.215793 0.331852 -0.299576
0.211408 0.443307 -0.048778
-0.172118 0.231234 -0.382974
0.144696 0.143437 0.419557
0.283998 0.243061 0.371285
-0.135912 0.445691 0.005981
0.252564 0.428649 0.119972
0.059091 -0.333681 0.291986
0.278374 0.409564 -0.177945
0.093257 0.198691 -0.400876
-0.276703 0.427791 -0.127279
0.158763 -0.415162 -0.161931
-0.024999 0.259976 0.359790
-0.245858 -0.444545 -0.014203
0.248251 -0.397966 0.196436
-0.075894 -0.392011 0.208123
0.285372 -0.263026 -0.361208
-0.251013 0.122210 -0.430444
0.120770 -0.386987 -0.221567
0.056954 -0.444181 0.021422
0.142624 0.382154 -0.231471
0.071580 0.427051 -0.129824
0.285110 0.177698 0.406262
0.108800 -0.093061 0.433109
-0.181877 -0.147281 -0.422158
-0.203525 0.409537 0.173654
-0.254735 0.123057 0.425845
-0.197558 -0.340400 0.284365
-0.072825 -0.438876 -0.074002
0.015547 -0.374829 0.237606
-0.089598 -0.437701 0.077068
0.285601 -0.157927 -0.418325
-0.215078 -0.193956 -0.402767
-0.127696 -0.292851 0.332721
-0.251932 -0.358161 -0.266177
-0.215735 -0.437359 -0.083584
0.252595 -0.359549 0.260034
0.018074 -0.415884 -0.159925
0.199792 0.443056 0.047084
-0.006614 -0.179524 -0.409381
-0.114055 -0.202388 -0.398470
0.162448 -0.302982 0.323790
-0.113879 -0.305609 0.321331
-0.222385 -0.066407 -0.442343
-0.134764 0.445592 -0.013478
-0.280229 -0.375475 -0.241009
0.100905 0.427393 0.124297
-0.197190 -0.444627 0.007225
0.162070 0.307600 -0.324719
0.241765 0.321687 -0.310632
-0.060493 -0.394434 -0.207721
0.241740 -0.444239 -0.023926
-0.005601 0.243756 -0.375166
0.252939 -0.019208 0.442639
-0.264127 -0.266807 -0.358276
-0.151798 0.316935 -0.315384
0.177093 0.196773 0.397500
0.193846 0.395758 -0.207135
0.230946 -0.225575 -0.385715
-0.094798 -0.444858 -0.004234
-0.224598 -0.441239 0.054732
0.202697 0.330772 0.296447
-0.196676 -0.421817 -0.143448
0.001496 -0.140668 0.420185
-0.140027 0.347283 -0.281522
0.274689 -0.431853 0.104463
0.000501 0.203031 -0.398665
-0.080922 0.243742 0.370822
0.245628 0.205716 -0.397297
-0.267288 -0.365665 -0.255444
0.196328 -0.313522 -0.317772
-0.034922 0.369166 0.247446
-0.238500 -0.444436 0.013301
-0.085586 -0.349846 -0.276897
0.095562 0.440705 0.064574
0.109297 -0.211034 -0.394065
-0.097602 -0.437180 -0.084713
-0.226628 0.440998 0.062723
0.151688 -0.091994 -0.437701
0.147218 0.351263 0.272038
0.274767 -0.189386 -0.405095
0.216707 0.245311 0.369755
-0.247711 0.051119 -0.444593
0.069534 0.438470 -0.083041
0.113400 -0.427028 -0.126377
0.270317 -0.099046 0.431771
-0.133060 0.375029 0.238819
0.275841 0.091717 0.433639
0.160580 0.445443 -0.018243
0.082974 0.445336 0.017286
-0.064076 -0.256803 -0.365603
0.069482 0.384886 -0.226852
0.273134 0.320164 0.307801
0.170546 0.438800 0.076603
-0.006117 -0.393975 0.204269
0.083760 -0.146131 0.418218
0.204413 -0.434972 0.090509
-0.232721 -0.254734 -0.367009
-0.250068 0.038558 -0.445780
-0.020412 0.298522 -0.332978
-0.177520 0.246607 -0.373228
0.093540 0.338415 -0.292132
-0.017072 0.238718 -0.378548
-0.087527 0.445032 0.026179
-0.070217 0.275848 0.347704
-0.279327 -0.026916 0.442396
-0.131621 -0.250297 -0.370024
0.231357 0.039156 0.441370
-0.084922 0.442431 -0.058031
-0.115915 -0.424954 -0.133518
-0.261859 0.367181 -0.254721
-0.227215 -0.282590 0.341680
-0.033396 -0.387146 0.216944
0.224544 -0.402392 0.187749
-0.174300 0.005745 0.443094
-0.085395 0.390385 -0.217554
-0.242772 0.029666 -0.446621
0.073605 0.401931 -0.195020
-0.238178 0.349280 0.274595
-0.025072 -0.341457 0.283165
-0.211409 -0.363451 0.254348
0.066462 0.419246 -0.153434
-0.156091 -0.437627 -0.081894
0.286342 -0.009113 -0.447309
0.030410 -0.354254 -0.271214
-0.256612 0.394765 0.204729
-0.190917 -0.134937 0.422096
-0.185419 0.075919 -0.440998
0.225808 0.313084 0.314881
0.190833 0.217067 0.386999
0.267160 0.266354 -0.359422
-0.115019 0.413562 -0.168707
-0.115133 0.445134 0.023718
0.020007 -0.132482 -0.427162
0.179179 -0.432331 0.102326
-0.197603 0.094960 -0.437267
0.139538 -0.281307 0.342675
-0.068678 0.090854 0.433832
-0.230245 0.152787 0.416191
0.132863 0.445646 -0.011774
0.224748 -0.186376 -0.406416
-0.240092 -0.070047 -0.441766
0.235947 0.430087 -0.119377
0.101767 0.441218 -0.065688
0.012017 0.419084 0.149533
0.046706 0.398834 -0.201098
0.001416 0.322585 -0.309734
-0.150902 0.081665 0.435735
-0.018865 -0.111215 -0.433341
0.248256 0.421463 0.142923
0.099575 -0.246102 0.368522
-0.095540 -0.133439 -0.426884
0.221598 -0.430706 -0.113717
-0.040836 0.237539 0.374892
-0.268085 -0.329323 0.296929
0.147798 -0.322609 0.304332
0.079130 -0.237610 0.374244
-0.156974 -0.442523 -0.046231
0.216627 0.294379 -0.336631
0.178904 -0.288653 -0.340775
-0.216214 0.411142 -0.174300
0.043940 0.405653 0.182629
0.269597 -0.425925 0.125822
0.187123 -0.033181 -0.446192
0.097824 -0.395564 0.201151
-0.229580 0.164506 0.411971
0.199800 0.025492 -0.446827
-0.160707 -0.050630 0.440189
0.063427 -0.418005 0.149682
-0.216995 0.440699 -0.068963
-0.026667 -0.430433 0.110305
-0.059221 0.286163 -0.343874
-0.094315 -0.270649 -0.355296
-0.216153 0.437999 0.081552
-0.193873 -0.406108 -0.183564
-0.140821 0.006462 0.443071
-0.213455 -0.119156 0.426680
-0.195260 0.012756 -0.447227
-0.157266 0.338665 -0.291849
-0.278848 0.307824 -0.324495
0.189780 -0.323876 0.303065
0.179384 -0.000052 -0.447594
-0.017534 0.147160 -0.422570
-0.119873 -0.401675 -0.193511
-0.079832 0.216671 -0.391587
0.077681 -0.188979 -0.405290
0.047207 -0.437581 0.077829
0.270252 0.260379 0.359515
-0.189847 0.294225 0.332413
0.113552 0.440698 -0.068971
0.217504 -0.398159 0.196058
0.177031 0.163024 -0.416859
-0.282305 -0.299629 -0.331099
-0.172704 0.045000 -0.445171
0.206503 0.430691 0.112943
0.244207 0.048993 -0.444794
-0.254855 0.244081 -0.374945
-0.267732 -0.440497 0.059418
0.078750 -0.045234 -0.445052
0.206863 -0.028807 0.442252
0.143619 -0.223515 -0.386933
-0.247125 0.256159 -0.366736
-0.244481 -0.444904 -0.001599
0.038999 -0.357330 0.262895
-0.178538 -0.443357 0.033061
0.160920 0.291865 -0.338847
-0.095682 -0.444141 0.022687
-0.037917 0.315418 0.312547
0.116589 -0.296818 0.329224
-0.017060 -0.054993 0.439776
0.065047 0.412726 0.166284
-0.182373 0.437408 0.084197
0.121993 -0.440961 -0.060842
-0.149024 0.126062 0.424972
0.073360 0.378479 0.233331
-0.105411 -0.383980 0.222297
-0.181609 0.199411 0.396156
-0.262980 0.286844 0.338920
0.282188 -0.436085 -0.089882
0.283352 -0.227042 -0.384847
-0.185041 0.371104 0.244595
0.074269 0.329386 0.298020
0.180188 0.367857 -0.253727
0.191280 -0.045397 0.440684
-0.117481 0.204447 0.393590
0.173410 0.051172 -0.444588
0.018979 -0.151398 -0.420675
-0.108862 -0.346169 0.277284
0.226761 -0.080182 -0.440161
0.083928 -0.344408 0.279554
0.154183 -0.281026 0.342892
0.286905 0.069248 -0.442055
0.053877 0.239153 -0.378291
0.259663 0.424412 -0.138910
-0.110179 0.434303 -0.102442
-0.124150 0.127124 0.424663
0.125870 0.399999 0.194458
0.163622 0.443650 -0.045153
-0.140380 0.406182 -0.185762
-0.144085 -0.053808 0.439888
-0.174671 -0.424423 0.130990
0.172844 -0.221441 0.383806
0.015811 0.266843 0.354689
0.163913 -0.380436 0.228290
-0.001903 -0.424981 -0.133423
-0.004878 -0.084313 0.435065
0.210431 0.175181 0.407351
0.234324 0.120026 0.426726
-0.243363 0.092449 -0.437829
0.239881 0.079506 0.436077
-0.010350 0.026289 0.442448
-0.232869 0.350278 -0.277661
-0.141858 0.413234 -0.169465
0.023833 -0.431004 -0.112615
0.185595 -0.443638 0.030087
-0.096311 0.189759 0.401043
-0.044555 0.317182 -0.315136
0.055696 0.187667 -0.406301
0.000538 0.024566 -0.446856
-0.010784 -0.358205 -0.266120
-0.095035 0.006682 -0.447418
0.065203 0.071746 0.437306
-0.168912 -0.149369 -0.421406
-0.132277 -0.198501 0.396098
-0.101246 -0.426977 0.122200
-0.098776 0.077595 -0.440733
0.141379 -0.443500 -0.035896
-0.248167 0.139378 -0.425372
0.228412 0.445245 -0.024519
0.152132 -0.408205 0.174364
0.116677 -0.262813 0.357020
-0.162761 0.149190 -0.421839
0.042703 0.210368 0.390573
-0.080254 -0.377550 0.233169
-0.098007 -0.080665 -0.440084
0.142096 -0.432555 -0.105676
-0.234562 -0.440530 0.059207
-0.140588 -0.427720 0.119642
-0.081138 -0.389584 -0.217174
0.191818 0.112989 0.428770
-0.164220 -0.415744 -0.160314
0.115025 0.111685 -0.433502
0.098455 0.095218 0.432856
0.217344 -0.362688 0.255471
-0.245160 0.433668 0.100928
0.246873 0.260991 -0.363453
0.271106 -0.110276 -0.433614
0.226060 -0.229855 0.378830
0.217882 0.127297 -0.428966
0.054204 0.185417 0.402921
-0.147916 0.436804 0.086898
-0.174059 0.321280 -0.311039
-0.066405 0.444883 0.027750
-0.248093 0.292825 0.333647
0.002230 -0.165614 -0.415401
-0.175937 -0.078104 0.436137
0.254630 0.328923 0.298545
-0.079236 -0.443499 -0.035906
0.057926 0.100439 0.431689
0.173491 0.115667 -0.432345
0.085629 -0.420166 -0.148033
0.138363 0.332811 0.294135
-0.271179 0.434933 -0.099622
0.101161 -0.300647 0.325848
0.199869 -0.404107 -0.188188
-0.187334 0.445564 -0.014365
0.052602 -0.203055 0.393778
-0.147878 -0.350742 0.271388
-0.150759 -0.444437 0.013267
0.174750 -0.438093 0.074595
-0.070357 -0.426343 0.124382
-0.012102 -0.268836 0.352348
-0.113296 0.231271 -0.382952
-0.127101 0.442857 -0.053545
0.225047 -0.007536 -0.447359
-0.244241 0.303561 -0.328536
-0.260518 -0.008852 -0.447318
0.174120 0.276624 0.347102
0.272772 0.432979 0.104011
0.272125 0.441466 0.059767
0.273289 0.445278 -0.023488
0.181063 0.324303 0.303662
0.087448 0.343594 -0.286257
0.154174 -0.118109 -0.431338
0.170785 -0.437258 -0.084219
-0.165839 0.359261 0.261727
0.251158 -0.108370 0.429687
0.140122 -0.357218 -0.267393
-0.181522 -0.100235 -0.435859
-0.074087 0.267644 -0.358421
0.232598 0.437525 0.083673
0.200421 0.445504 0.011929
-0.059220 0.401323 0.191859
0.050419 -0.159485 -0.417764
0.098869 -0.438272 0.073464
-0.083437 -0.420840 -0.146160
0.200971 0.275382 0.348066
0.084671 0.438810 -0.080890
0.116756 0.402085 0.190364
-0.042956 0.094409 -0.437390
0.094189 -0.296923 -0.333485
0.284774 0.082441 0.435612
0.121319 0.346633 -0.282360
0.256273 0.437212 -0.089424
-0.055619 0.220916 -0.389076
-0.082652 -0.384107 -0.226436
-0.041302 -0.237694 -0.378548
0.259189 0.434589 0.096808
0.175780 -0.356507 0.263956
0.263172 0.060685 -0.443411
0.256376 0.165957 -0.415696
-0.018251 -0.238676 0.373568
-0.021720 -0.064268 -0.442681
-0.231412 -0.208518 0.390994
0.159114 0.019594 -0.447012
0.059774 0.309423 0.318542
0.065165 -0.361272 -0.261907
0.079651 0.438261 0.080004
-0.191391 0.340320 0.285618
-0.268212 -0.179296 0.405127
-0.076038 0.434950 -0.099544
-0.258945 0.335432 -0.295515
0.079141 -0.151996 -0.420460
-0.147124 0.333378 -0.297845
0.115675 0.445341 0.017130
-0.005067 0.043352 0.440974
-0.277489 -0.228300 0.379750
0.118956 -0.315326 -0.315968
0.286087 0.043628 -0.445301
0.128439 0.320085 0.307880
-0.154631 0.359447 0.261487
0.274471 -0.431740 -0.109323
-0.135601 0.420657 -0.149514
-0.173730 0.436361 0.088880
-0.044137 -0.050437 -0.444560
-0.163873 -0.433171 0.098566
0.176080 -0.321258 -0.310036
-0.186246 -0.410384 -0.173683
-0.285378 0.103152 0.431083
0.143868 0.287540 0.338307
-0.248959 -0.429584 -0.117579
-0.112417 0.075198 0.436759
0.064611 -0.391692 -0.213102
0.045709 0.416268 -0.161707
0.232050 -0.430469 -0.114534
0.116077 -0.375959 -0.240213
0.035273 0.388837 0.215818
-0.102101 0.420556 -0.149796
-0.240666 -0.285349 -0.343688
-0.262953 -0.034208 0.441741
0.083057 -0.240330 -0.376798
-0.086437 0.407624 0.178075
-0.265255 0.099757 -0.436195
0.217366 0.154750 -0.419838
0.030846 0.445412 0.014876
0.096983 0.129369 0.424011
-0.025459 0.095930 -0.437051
0.006566 0.362163 0.257751
-0.181820 0.357444 -0.268423
-0.029174 -0.313455 -0.317839
0.265934 -0.386901 -0.221712
-0.175586 -0.413275 -0.167003
-0.042638 -0.179510 -0.409387
-0.020589 0.418358 0.151549
-0.217196 0.319398 -0.312920
0.013386 0.142338 0.419953
0.097895 0.445763 -0.008031
-0.250684 -0.315033 0.311908
-0.172638 0.379477 -0.235998
-0.056183 0.435981 0.090580
-0.084562 0.434627 0.096636
0.277812 -0.428636 -0.120843
-0.072095 0.137013 -0.426144
-0.220939 0.285237 -0.344691
-0.093288 -0.423069 -0.139968
-0.224216 -0.291921 -0.337895
0.028386 0.211231 0.390133
-0.079817 0.253632 0.364100
-0.014967 -0.394617 -0.207363
-0.288103 -0.387361 0.216580
0.208210 0.404140 -0.190480
0.184066 0.171922 0.408762
0.223587 0.415725 -0.163214
0.223586 0.101284 -0.435854
0.087145 0.142067 -0.424404
-0.217237 0.303640 0.324113
-0.140615 0.085092 -0.439473
0.201180 0.205111 -0.397605
0.166496 -0.238921 -0.377755
0.005922 0.177370 -0.410757
-0.224251 0.255744 0.362665
0.275018 0.192565 0.399644
0.040325 0.072908 0.437122
0.212914 0.445841 0.001195
0.257239 -0.383944 -0.226712
-0.100732 0.359381 -0.265926
0.243592 0.406163 0.181451
-0.190739 -0.441709 -0.054843
-0.062865 0.314973 0.312992
0.285030 0.013387 0.442854
-0.015154 -0.100407 -0.435821
0.138426 -0.228720 0.379501
0.179633 -0.436223 0.084913
-0.206579 -0.093299 -0.437409
0.041970 -0.123320 0.425471
-0.052465 -0.423683 0.133537
-0.194883 -0.245016 0.369260
0.004650 -0.036728 -0.445856
-0.275796 0.438443 -0.083212
-0.142870 0.240071 -0.377670
-0.048315 -0.167682 -0.414506
-0.206242 -0.222480 0.383192
-0.194739 0.127843 0.424454
0.208465 -0.046895 -0.444895
0.286309 0.020874 -0.446972
0.150764 0.027127 0.442422
0.107034 0.414289 -0.167026
0.149274 -0.421276 -0.144950
0.025862 -0.315420 0.311521
0.269169 0.057341 0.439587
-0.249942 -0.426460 0.123980
0.286030 -0.444282 0.018210
0.092801 0.445592 0.009147
-0.037889 0.394089 0.206057
-0.198429 0.203020 0.394317
0.170849 -0.289759 0.335447
-0.161533 -0.385011 -0.224907
-0.212599 0.398877 0.196660
-0.203919 -0.161649 -0.416985
0.205104 0.377304 0.235319
-0.045663 0.262617 -0.362321
-0.053763 0.445345 -0.021346
-0.001507 -0.413702 0.161635
0.199880 -0.444870 -0.000507
0.195199 0.218497 -0.390507
0.197512 -0.407474 0.176055
-0.062291 0.334791 -0.296243
-0.286898 0.246513 0.368939
-0.066263 -0.135817 0.421840
0.003247 -0.230451 0.378478
-0.006516 0.440318 0.067017
0.113969 -0.231376 -0.382284
0.074704 -0.334347 0.291230
0.038297 -0.364775 0.252400
-0.124191 -0.357462 0.262725
-0.067828 0.018353 0.442698
-0.279028 -0.439080 -0.072716
-0.125986 -0.064987 -0.442568
-0.090268 -0.125664 0.424790
-0.288859 -0.436795 0.082356
0.200147 0.228150 0.380445
0.105167 0.128797 -0.428531
-0.170993 0.057181 -0.443966
-0.149094 0.443733 0.039916
-0.135606 -0.221453 -0.388153
0.167798 0.253336 0.364302
-0.116714 0.162138 0.412825
0.159299 -0.403880 0.184360
0.246983 -0.189690 -0.404940
0.073821 -0.394490 -0.207611
-0.228437 0.126714 0.424782
0.128420 0.415897 -0.162738
-0.218056 -0.444786 -0.006517
0.078982 -0.023324 -0.446863
0.204077 -0.359263 -0.264756
-0.286666 0.352031 0.271048
-0.194567 0.106778 -0.434626
-0.218811 -0.383368 -0.227686
-0.119374 -0.403084 0.186198
0.030970 0.314404 -0.317915
-0.071880 0.419054 0.149615
-0.151319 0.406647 -0.184686
-0.041515 -0.354883 -0.270404
0.219858 -0.113458 0.428336
0.073897 -0.408854 -0.177217
-0.071458 0.441218 0.061336
-0.289738 -0.271829 -0.354380
-0.124462 -0.416518 0.153813
0.090924 0.407204 -0.183398
0.244078 0.383245 0.225273
0.082653 -0.295365 -0.334858
0.149200 0.313346 0.314619
-0.076738 -0.314620 -0.316674
0.041554 -0.292381 0.333135
0.115751 0.014923 -0.447159
0.110795 0.286954 0.338823
-0.014598 -0.444274 -0.022826
-0.287632 -0.038486 0.441337
-0.060360 0.209343 -0.395449
-0.113608 0.043771 0.440934
-0.004101 0.406196 -0.185729
-0.232369 0.343228 -0.286672
-0.013409 -0.423907 0.132765
-0.245225 -0.168417 -0.414188
0.263590 -0.018489 0.442661
-0.094532 -0.384775 0.220953
-0.273291 -0.316463 -0.314831
-0.005450 0.445678 -0.010755
0.233978 -0.089949 0.433805
-0.277092 -0.417180 0.151973
0.187425 -0.293342 -0.336641
0.080337 0.021776 0.442590
-0.226988 0.212710 -0.393734
-0.120232 -0.418713 -0.152069
