-0.290288 0.185481 0.406187
-0.290288 0.094732 0.469100
-0.290288 0.045627 -0.459234
-0.290288 0.443667 -0.104114
-0.290288 -0.444276 -0.032141
-0.290288 0.147005 0.431254
-0.290288 -0.131980 -0.433989
-0.290288 0.227631 -0.437618
-0.290288 -0.293644 -0.397928
-0.290288 0.425362 0.149631
-0.290288 -0.464070 0.078700
-0.290288 0.452803 -0.146293
-0.290288 0.285561 -0.356374
-0.290288 0.449189 0.163648
-0.290288 0.166476 0.447385
-0.290288 0.315313 0.341248
-0.290288 0.457527 0.000419
-0.290288 -0.374147 -0.293798
-0.290288 0.343945 -0.321127
-0.290288 -0.488561 -0.053493
-0.290288 0.450828 -0.134746
-0.290288 -0.312572 0.314543
-0.290288 0.412815 0.180325
-0.290288 -0.178525 0.422627
-0.290288 0.451107 -0.096950
-0.290288 0.474195 -0.105476
-0.290288 -0.214041 -0.392592
-0.290288 0.049518 -0.454391
-0.290288 -0.475507 -0.004508
-0.290288 0.453887 0.120612
-0.290288 -0.460477 0.121686
-0.290288 0.019914 0.460917
-0.290288 0.458947 -0.005124
-0.290288 -0.208047 0.441355
-0.290288 -0.163921 -0.435548
-0.290288 -0.462632 0.001920
-0.290288 0.158374 0.422999
-0.290288 -0.448356 0.041158
-0.290288 -0.123051 0.435625
-0.290288 0.287743 -0.364332
-0.290288 -0.316496 0.327386
-0.290288 -0.324658 0.319033
-0.290288 0.353929 -0.313969
-0.290288 0.395836 0.270427
-0.290288 0.404018 -0.272944
-0.290288 -0.100713 0.478797
-0.290288 -0.443201 0.176275
-0.290288 0.437958 -0.222888
-0.290288 0.407994 0.278233
-0.290288 -0.200681 -0.447132
-0.290288 -0.180875 0.461132
-0.290288 0.447253 -0.024414
-0.290288 -0.388098 0.308843
-0.290288 -0.437543 -0.114215
-0.290288 0.233130 0.432700
-0.290288 0.460312 0.078610
-0.290288 0.053824 -0.491512
-0.290288 -0.444421 -0.022516
-0.290288 0.307291 0.328996
-0.290288 0.285662 -0.376941
-0.290288 0.298943 0.354506
-0.290288 0.407404 -0.216546
-0.290288 -0.482502 -0.122533
-0.290288 -0.163335 0.456005
-0.290288 0.412413 -0.181520
-0.290288 -0.342796 -0.287009
-0.290288 0.181338 -0.423830
-0.290288 0.001219 -0.464492
-0.290288 -0.441178 0.145744
-0.290288 -0.385920 -0.287198
-0.290288 0.040471 0.484027
-0.290288 -0.225965 -0.409822
-0.290288 0.353260 0.276604
-0.290288 -0.486059 -0.008196
-0.290288 -0.439445 -0.192856
-0.290288 -0.444987 -0.002867
-0.290288 -0.337166 0.337327
-0.290288 -0.075419 0.453636
-0.290288 -0.371715 -0.268577
-0.290288 0.314988 0.320153
-0.290288 0.487833 0.034670
-0.290288 -0.264660 -0.378280
-0.290288 -0.396341 -0.244623
-0.290288 0.086703 -0.457868
-0.290288 0.297146 0.380487
-0.290288 -0.428697 -0.253723
-0.290288 0.308036 -0.386437
-0.290288 0.349817 -0.299378
-0.290288 -0.438121 -0.200149
-0.290288 0.460408 0.185813
-0.290288 0.422500 -0.254204
-0.290288 0.147709 -0.431420
-0.290288 0.324109 0.332948
-0.290288 -0.088468 0.483609
-0.290288 -0.437068 0.112438
-0.290288 -0.240011 0.424220
-0.290288 -0.453070 0.035357
-0.290288 0.023976 -0.464786
-0.290288 0.088758 0.450009
-0.290288 -0.444642 0.146875
-0.290288 0.417257 -0.236560
-0.290288 0.316923 0.344925
-0.290288 0.369065 -0.255550
-0.290288 0.467767 0.077893
-0.290288 -0.389196 0.213514
-0.290288 0.200192 0.439658
-0.290288 -0.363162 0.268523
-0.290288 0.451771 0.085444
-0.290288 0.128826 0.426549
-0.290288 0.389960 0.300233
-0.290288 -0.224172 -0.417044
-0.290288 0.441221 -0.096426
-0.290288 -0.268348 -0.391855
-0.290288 -0.198724 -0.422751
-0.290288 0.480938 -0.119992
-0.290288 0.373918 -0.317082
-0.290288 0.161533 -0.439652
-0.290288 -0.162733 -0.449379
-0.290288 0.288833 0.377528
-0.290288 -0.073303 0.469170
-0.290288 -0.413820 0.250144
-0.290288 0.021220 -0.453266
-0.290288 0.062626 0.468156
-0.290288 0.295424 0.343096
-0.290288 -0.112864 -0.450412
-0.290288 -0.329226 0.340205
-0.290288 -0.174609 0.448274
-0.290288 -0.406665 0.178879
-0.290288 -0.120183 0.465070
-0.290288 0.043659 -0.464432
-0.290288 0.165671 0.417153
-0.290288 -0.415109 0.191063
-0.290288 -0.023602 -0.459915
-0.290288 -0.228382 -0.419296
-0.290288 0.360219 -0.321553
-0.290288 -0.280305 -0.402959
-0.290288 0.375834 -0.278058
-0.290288 0.042768 -0.477167
-0.290288 -0.426586 0.237298
-0.290288 0.339956 0.356087
-0.290288 0.357817 -0.301382
-0.290288 0.441476 0.219335
-0.290288 -0.371661 0.253750
-0.290288 -0.308893 -0.338461
-0.290288 0.226953 -0.403329
-0.290288 -0.414214 0.161352
-0.290288 -0.421938 0.170004
-0.290288 0.030488 -0.462178
-0.290288 0.239953 -0.416770
-0.290288 -0.478203 0.026865
-0.290288 -0.303940 0.386670
-0.290288 0.128116 0.444814
-0.290288 0.330832 -0.317423
-0.290288 0.173301 -0.436641
-0.290288 -0.123554 0.465715
-0.290288 -0.105668 -0.442172
-0.290288 -0.207608 0.428537
-0.290288 -0.116510 -0.459672
-0.290288 -0.432628 0.155691
-0.290288 0.435206 -0.201738
-0.290288 0.456245 0.020035
-0.290288 0.283661 0.349292
-0.290288 0.017493 -0.454402
-0.290288 0.044018 -0.490915
-0.290288 0.176268 0.460532
-0.290288 0.457065 0.004908
-0.290288 0.145310 0.436352
-0.290288 0.459878 -0.154288
-0.290288 0.262527 0.359229
-0.290288 -0.359796 0.270266
-0.290288 -0.145603 0.433456
-0.290288 -0.434421 -0.160545
-0.290288 0.390753 -0.293942
-0.290288 0.000614 -0.447700
-0.290288 -0.141139 0.440703
-0.290288 -0.213583 0.446308
-0.290288 0.051435 -0.485581
-0.290288 0.086261 -0.481677
-0.290288 -0.491411 0.072457
-0.290288 -0.149446 -0.437957
-0.290288 0.343074 0.321959
-0.290288 0.493126 0.068523
-0.290288 0.049680 -0.463305
-0.290288 0.127720 -0.454987
-0.290288 0.341197 0.295669
-0.290288 -0.355512 0.310256
-0.290288 -0.194554 0.433457
-0.290288 -0.386193 0.255221
-0.290288 -0.048657 -0.487634
-0.290288 -0.244903 -0.377693
-0.290288 -0.460544 -0.134116
-0.290288 0.324637 0.336982
-0.290288 -0.446214 0.194305
-0.290288 0.342092 -0.342953
-0.290288 0.186177 0.458100
-0.290288 -0.317325 -0.328071
-0.290288 -0.479562 0.020137
-0.290288 -0.068304 0.457234
-0.290288 0.269916 -0.392812
-0.290288 0.051961 -0.466500
-0.290288 0.323131 -0.344709
-0.290288 0.452102 -0.163115
-0.290288 -0.388788 -0.232657
-0.290288 0.445569 0.021317
-0.290288 0.291632 0.351787
-0.290288 0.374713 -0.302996
-0.290288 0.346765 -0.312821
-0.290288 0.442055 0.152382
-0.290288 -0.086990 0.437536
-0.290288 0.285474 0.378699
-0.290288 0.062108 -0.459842
-0.290288 -0.332095 -0.354314
-0.290288 -0.409004 -0.263550
-0.290288 -0.274377 -0.406247
-0.290288 0.328178 0.319370
-0.290288 -0.481650 -0.059951
-0.290288 -0.336612 0.347995
-0.290288 0.049249 0.448875
-0.290288 -0.481297 0.056495
-0.290288 0.248808 -0.405605
-0.290288 -0.178888 -0.413928
-0.290288 -0.366329 -0.334702
-0.290288 -0.335780 0.321757
-0.290288 -0.346266 0.299456
-0.290288 0.302662 -0.372847
-0.290288 -0.169403 -0.466468
-0.290288 0.443475 -0.052398
-0.290288 0.063344 0.446883
-0.290288 -0.424485 -0.150368
-0.290288 0.296722 -0.349888
-0.290288 -0.480583 -0.040932
-0.290288 -0.085045 0.468887
-0.290288 0.426247 0.167073
-0.290288 0.124853 0.478312
-0.290288 0.139508 0.438298
-0.290288 0.426082 -0.230630
-0.290288 -0.448519 -0.127671
-0.290288 0.417997 0.247382
-0.290288 0.397610 0.282676
-0.290288 -0.017147 -0.483536
-0.290288 0.345418 -0.337896
-0.290288 0.470246 -0.132115
-0.290288 -0.221152 0.443222
-0.290288 0.309674 -0.335588
-0.290288 -0.206713 -0.441450
-0.290288 -0.079088 0.489382
-0.290288 -0.050974 -0.445065
-0.290288 0.169816 -0.453402
-0.290288 0.116376 0.453797
-0.290288 0.350618 -0.355475
-0.290288 0.454556 0.001901
-0.290288 0.378044 -0.299339
-0.290288 0.473287 -0.027204
-0.290288 -0.138599 -0.470981
-0.290288 0.057809 -0.482411
-0.290288 0.456633 -0.154797
-0.290288 0.036884 0.445734
-0.290288 -0.413009 -0.182464
-0.290288 0.111668 0.439906
-0.290288 0.009167 -0.475771
-0.290288 -0.465457 -0.003162
-0.290288 0.282140 0.363583
-0.290288 0.014819 -0.480469
-0.290288 -0.447653 -0.088298
-0.290288 -0.426154 -0.191560
-0.290288 -0.377732 0.256834
-0.290288 -0.013759 -0.484182
-0.290288 -0.438180 -0.094583
-0.290288 0.395525 0.244082
-0.290288 0.463706 -0.044220
-0.290288 0.259813 -0.411902
-0.290288 0.403499 -0.228638
-0.290288 -0.018004 -0.468790
-0.290288 0.056042 0.459938
-0.290288 -0.283118 0.403153
-0.290288 0.349890 -0.331548
-0.290288 -0.046976 -0.470500
-0.290288 0.463457 -0.062270
-0.290288 0.300387 -0.362261
-0.290288 0.380558 0.290235
-0.290288 0.386534 -0.239075
-0.290288 -0.386861 -0.240755
-0.290288 -0.420080 -0.185813
-0.290288 0.431019 0.115824
-0.290288 -0.353976 0.292947
-0.290288 0.051365 -0.493717
-0.290288 -0.227829 -0.400438
-0.290288 0.280477 -0.392029
-0.290288 -0.037339 -0.464377
-0.290288 -0.171911 0.427497
-0.290288 -0.428197 0.250649
-0.290288 -0.158991 -0.418279
-0.290288 -0.151563 -0.472474
-0.290288 -0.245814 0.391204
-0.290288 0.432569 0.243251
-0.290288 0.297083 -0.386575
-0.290288 -0.091978 -0.455216
-0.290288 0.445068 0.122179
-0.290288 0.176924 0.435975
-0.290288 -0.459328 0.189030
-0.290288 -0.390764 0.305463
-0.290288 -0.001513 -0.482572
-0.290288 -0.421825 0.173299
-0.290288 -0.397356 -0.235059
-0.290288 -0.005491 0.445111
-0.290288 0.307754 -0.354276
-0.290288 0.083831 -0.484704
-0.290288 0.289652 0.371188
-0.290288 -0.092016 0.484853
-0.290288 0.060790 0.491609
-0.290288 -0.431734 0.199733
-0.290288 -0.394674 -0.207847
-0.290288 0.055152 -0.485139
-0.290288 0.435210 -0.178865
-0.290288 -0.445786 -0.104465
-0.290288 -0.184123 -0.435477
-0.290288 -0.246815 0.385604
-0.290288 -0.483389 -0.022225
-0.290288 0.406979 -0.227741
-0.290288 0.132129 -0.466474
-0.290288 -0.242229 -0.404058
-0.290288 0.017983 0.486975
-0.290288 0.393306 0.301292
-0.290288 0.444993 0.033509
-0.290288 0.439140 -0.117047
-0.290288 0.469637 0.092923
-0.290288 0.464293 0.039109
-0.290288 0.016498 0.490521
-0.290288 -0.067290 -0.495192
-0.290288 0.311346 0.321253
-0.290288 -0.100252 0.464225
-0.290288 0.042868 0.442759
-0.290288 0.471358 -0.163239
-0.290288 -0.478824 -0.136006
-0.290288 -0.457185 -0.071600
-0.290288 -0.334059 0.304526
-0.290288 0.227842 -0.413197
-0.290288 0.254953 -0.401975
-0.290288 -0.277817 0.382694
-0.290288 0.456941 -0.068509
-0.290288 -0.483135 0.069842
-0.290288 -0.264076 0.414371
-0.290288 -0.319867 0.333055
-0.290288 -0.352813 -0.305417
-0.290288 0.248713 -0.417079
-0.290288 -0.096545 0.437848
-0.290288 0.438404 -0.159772
-0.290288 -0.374107 0.287889
-0.290288 0.147303 0.427224
-0.290288 -0.193812 0.453667
-0.290288 -0.347958 0.351596
-0.290288 0.425854 0.246013
-0.290288 -0.458100 -0.054775
-0.290288 0.292304 -0.392935
-0.290288 0.013914 0.459990
-0.290288 0.053112 0.475178
-0.290288 -0.357128 -0.277662
-0.290288 0.437652 0.111952
-0.290288 -0.446297 -0.110733
-0.290288 0.437899 -0.146533
-0.290288 0.244788 -0.390838
-0.290288 0.209308 0.446024
-0.290288 0.432621 -0.144580
-0.290288 -0.437991 -0.082849
-0.290288 0.124353 -0.445116
-0.290288 -0.024839 -0.481530
-0.290288 -0.148276 -0.476792
-0.290288 0.471291 0.059073
-0.290288 -0.129972 0.436003
-0.290288 0.064444 0.479240
-0.290288 0.225832 0.439223
-0.290288 -0.154929 -0.421186
-0.290288 0.135714 0.463062
-0.290288 0.213000 0.434024
-0.290288 0.436592 -0.141618
-0.290288 -0.465946 0.129032
-0.290288 0.211818 -0.419834
-0.290288 -0.038912 0.450441
-0.290288 0.392474 0.234955
-0.290288 0.454848 0.185686
-0.290288 0.155335 0.458211
-0.290288 0.408375 -0.182696
-0.290288 -0.286166 -0.383580
-0.290288 0.444696 -0.125381
-0.290288 0.455233 -0.057884
-0.290288 -0.156595 -0.445118
-0.290288 0.271081 -0.418789
-0.290288 0.454552 0.006727
-0.290288 -0.433525 0.152383
-0.290288 0.456577 -0.169835
-0.290288 -0.473175 0.094041
-0.290288 0.106542 0.455701
-0.290288 -0.185998 0.437631
-0.290288 -0.291990 -0.362125
-0.290288 0.090080 0.475379
-0.290288 -0.448697 0.141839
-0.290288 -0.328479 0.349483
-0.290288 0.128620 0.476812
-0.290288 -0.364314 0.278746
-0.290288 -0.353239 0.321149
-0.290288 0.439337 0.159134
-0.290288 0.250519 0.414883
-0.290288 -0.350578 0.293892
-0.290288 0.475305 0.131196
-0.290288 0.234075 -0.440631
-0.290288 0.289039 -0.350729
-0.290288 -0.259197 0.366040
-0.290288 0.459945 0.168639
-0.290288 -0.448696 -0.151771
-0.290288 0.013061 -0.483833
-0.290288 -0.283093 -0.376972
-0.290288 -0.452907 -0.103328
-0.290288 -0.427908 0.159936
-0.290288 -0.079468 0.463405
-0.290288 -0.303124 -0.330717
-0.290288 -0.462239 -0.130199
-0.290288 -0.065584 -0.478265
-0.290288 0.378622 0.303914
-0.290288 0.464948 -0.137443
-0.290288 -0.368681 0.323858
-0.290288 0.452001 -0.070335
-0.290288 0.232245 -0.396995
-0.290288 -0.312877 0.376784
-0.290288 0.448213 -0.132178
-0.290288 -0.443205 -0.218726
-0.290288 -0.200849 0.418427
-0.290288 0.284765 0.369114
-0.290288 0.337691 -0.362863
-0.290288 0.164247 0.430267
-0.290288 -0.197530 0.439369
-0.290288 0.024424 -0.491404
-0.290288 0.350452 -0.316605
-0.290288 -0.454195 0.181193
-0.290288 -0.079309 -0.480471
-0.290288 -0.347933 0.335387
-0.290288 -0.293173 -0.366043
-0.290288 -0.408806 -0.235977
-0.290288 -0.451082 0.003433
-0.290288 -0.259251 0.418613
-0.290288 0.330704 -0.302258
-0.290288 -0.023241 -0.473074
-0.290288 0.185374 0.451911
-0.290288 0.486546 0.009709
-0.290288 -0.060254 0.439311
-0.290288 -0.074791 0.475834
-0.290288 -0.187955 0.414374
-0.290288 0.389958 0.231928
-0.290288 0.130126 -0.452450
-0.290288 0.346417 0.320948
-0.290288 -0.259074 0.387495
-0.290288 -0.430224 -0.156352
-0.290288 -0.466935 0.084105
-0.290288 -0.016232 -0.480044
-0.290288 -0.446404 0.144233
-0.290288 -0.330101 0.325295
-0.290288 -0.034333 -0.476619
-0.290288 -0.350525 -0.332133
-0.290288 -0.444324 0.078476
-0.290288 -0.333537 0.338490
-0.290288 0.482856 0.064823
-0.290288 0.120075 -0.445077
-0.290288 -0.345918 -0.285652
-0.290288 0.086717 -0.445969
-0.290288 -0.399167 -0.283836
-0.290288 0.323377 0.353259
-0.290288 -0.111630 -0.455559
-0.290288 0.121539 0.454898
-0.290288 0.207682 0.434572
-0.290288 -0.344568 -0.344611
-0.290288 -0.427423 -0.140107
-0.290288 0.191452 -0.444717
-0.290288 0.439100 -0.164442
-0.290288 0.359718 0.299005
-0.290288 0.361986 -0.308015
-0.290288 0.405684 0.227174
-0.290288 0.061255 0.486539
-0.290288 -0.013793 0.450947
-0.290288 -0.160759 0.435776
-0.290288 -0.280102 0.400842
-0.290288 0.441674 -0.124240
-0.290288 0.182024 0.420485
-0.290288 0.454326 -0.061129
-0.290288 -0.466461 -0.123674
-0.290288 0.475097 -0.080475
-0.290288 0.346309 0.345019
-0.290288 -0.320970 0.318355
-0.290288 -0.358089 0.323602
-0.290288 -0.473698 0.102386
-0.290288 -0.341755 -0.307821
-0.290288 -0.181977 0.452057
-0.290288 -0.393030 0.279137
-0.290288 -0.088147 0.459122
-0.290288 -0.040980 -0.461541
-0.290288 0.066798 0.468587
-0.290288 -0.399624 -0.198502
-0.290288 -0.124449 0.462657
-0.290288 -0.366536 0.308231
-0.290288 -0.394378 0.270139
-0.290288 0.342199 0.307229
-0.290288 -0.357444 -0.281599
-0.290288 0.020216 -0.489593
-0.290288 -0.449221 -0.070984
-0.290288 0.435879 0.193622
-0.290288 0.254831 0.384235
-0.290288 0.444072 0.180813
-0.290288 0.125260 -0.438250
-0.290288 0.477276 -0.098876
-0.290288 -0.207052 0.399822
-0.290288 0.396951 0.241143
-0.290288 -0.452342 0.118888
-0.290288 -0.371886 0.257883
-0.290288 -0.488555 0.029259
-0.290288 0.192992 -0.454172
-0.290288 -0.331705 -0.299027
-0.290288 -0.112284 0.434688
-0.290288 0.249533 0.399032
-0.290288 0.036916 0.465653
-0.290288 -0.012205 -0.470327
-0.290288 0.466886 0.045543
-0.290288 -0.463224 0.175875
-0.290288 0.332930 -0.327568
-0.290288 0.167773 0.450818
-0.290288 -0.260905 0.359727
-0.290288 0.112947 0.429762
-0.290288 -0.093179 0.462687
-0.290288 -0.384796 0.221171
-0.290288 -0.163262 0.418967
-0.290288 -0.419439 0.147545
-0.290288 -0.078916 -0.487973
-0.290288 0.069274 0.445088
-0.290288 -0.257513 -0.414491
-0.290288 0.379129 0.233216
-0.290288 0.394092 -0.232441
-0.290288 0.321101 0.363383
-0.290288 -0.269320 -0.403289
-0.290288 0.267159 0.391957
-0.290288 -0.437943 0.077533
-0.290288 -0.364770 -0.293432
-0.290288 -0.242866 0.378852
-0.290288 0.297915 -0.334884
-0.290288 -0.283361 -0.369405
-0.290288 0.241288 0.412270
-0.290288 -0.284359 -0.388382
-0.290288 -0.369001 -0.297298
-0.290288 0.457129 0.034625
-0.290288 0.181206 -0.435220
-0.290288 -0.170375 -0.427691
-0.290288 0.372299 -0.305520
-0.290288 0.319635 -0.359792
-0.290288 0.148390 -0.476627
-0.290288 -0.136894 -0.454603
-0.290288 -0.045873 -0.464022
-0.290288 0.363466 -0.268586
-0.290288 -0.399437 0.258243
-0.290288 -0.000623 0.477847
-0.290288 0.127412 0.435191
-0.290288 0.304696 -0.364415
-0.290288 0.470414 -0.088503
-0.290288 -0.451839 0.041190
-0.290288 0.468550 0.002704
-0.290288 -0.320920 0.325823
-0.290288 0.427193 -0.191204
-0.290288 -0.151392 0.468527
-0.290288 -0.098088 0.472402
-0.290288 -0.417999 0.163528
-0.290288 0.491892 0.078982
-0.290288 0.258297 -0.377910
-0.290288 -0.424017 -0.247395
-0.290288 -0.472771 0.041740
-0.290288 -0.403903 -0.291080
-0.290288 -0.416233 0.157123
-0.290288 0.333857 0.302720
-0.290288 0.394616 -0.209563
-0.290288 -0.092005 -0.487440
-0.290288 -0.441990 0.117075
-0.290288 0.448438 -0.169774
-0.290288 -0.043620 0.469180
-0.290288 0.058783 0.474663
-0.290288 0.114350 0.481208
-0.290288 0.239660 -0.403232
-0.290288 0.344018 0.300932
-0.290288 -0.490170 0.041000
-0.290288 -0.434249 0.240573
-0.290288 -0.477286 -0.092113
-0.290288 0.324353 0.310412
-0.290288 -0.446859 0.097926
-0.290288 0.453799 -0.033170
-0.290288 0.331976 0.335998
-0.290288 -0.450917 -0.086455
-0.290288 -0.291729 0.363356
-0.290288 -0.251758 0.386481
-0.290288 0.339557 0.337413
-0.290288 0.361925 -0.318345
-0.290288 -0.308294 -0.380906
-0.290288 -0.430686 -0.226446
-0.290288 0.425735 0.226238
-0.290288 0.447098 -0.136086
-0.290288 0.072303 0.487166
-0.290288 -0.200458 0.452864
-0.290288 -0.322564 0.314445
-0.290288 -0.055956 -0.449931
-0.290288 0.411803 -0.197108
-0.290288 0.409607 -0.257529
-0.290288 0.448675 0.040972
-0.290288 0.098373 -0.482970
-0.290288 0.370131 -0.252571
-0.290288 0.454583 -0.018187
-0.290288 0.324936 -0.313614
-0.290288 0.344701 0.313993
-0.290288 0.350948 -0.312052
-0.290288 -0.150635 -0.468097
-0.290288 -0.311418 0.323421
-0.290288 -0.157624 -0.449960
-0.290288 0.442120 -0.185395
-0.290288 -0.373387 0.265843
-0.290288 0.441852 -0.063529
-0.290288 0.348154 -0.323187
-0.290288 -0.450226 -0.196287
-0.290288 0.434847 -0.193020
-0.290288 0.462376 0.119421
-0.290288 0.017444 0.450055
-0.290288 0.447076 0.134766
-0.290288 -0.455995 0.027602
-0.290288 0.075171 0.454895
-0.290288 -0.391644 0.285395
-0.290288 0.393959 -0.239489
-0.290288 0.371873 -0.256937
-0.290288 -0.152815 0.446753
-0.290288 0.477891 0.092064
-0.290288 0.446522 -0.049645
-0.290288 0.401953 -0.205267
-0.290288 0.272784 0.392612
-0.290288 0.300583 0.358743
-0.290288 -0.084381 -0.443376
-0.290288 -0.257043 0.384747
-0.290288 -0.438293 0.211725
-0.290288 0.249028 -0.413702
-0.290288 -0.315351 0.348659
-0.290288 -0.236906 -0.426392
-0.290288 0.074035 0.444779
-0.290288 -0.340533 0.360067
-0.290288 0.120598 -0.466786
-0.290288 0.404626 -0.257359
-0.290288 0.188297 -0.442813
-0.290288 0.104053 0.439034
-0.290288 -0.484237 0.042857
-0.290288 0.029133 0.447737
-0.290288 0.180004 -0.442580
-0.290288 0.472903 0.004934
-0.290288 0.492145 0.042363
-0.290288 -0.466437 -0.083228
-0.290288 -0.447359 -0.198696
-0.290288 -0.037913 -0.460221
-0.290288 0.460863 0.129091
-0.290288 0.408968 -0.220585
-0.290288 0.257996 -0.387064
-0.290288 -0.250139 0.415333
-0.290288 0.127912 0.454979
-0.290288 -0.474044 -0.063369
-0.290288 0.293702 0.345919
-0.290288 -0.259056 0.392277
-0.290288 -0.325378 0.347080
-0.290288 0.386797 0.235921
-0.290288 -0.061947 -0.445373
-0.290288 -0.059109 0.477457
-0.290288 0.487652 -0.070896
-0.290288 -0.448941 0.062424
-0.290288 0.167771 0.425366
-0.290288 -0.372669 -0.320072
-0.290288 -0.090082 -0.445991
-0.290288 0.489065 0.071597
-0.290288 0.405762 -0.244530
-0.290288 0.346572 -0.357901
-0.290288 -0.461054 -0.052554
-0.290288 0.127477 -0.441582
-0.290288 -0.489967 -0.086417
-0.290288 -0.092361 -0.466233
-0.290288 0.480853 0.053747
-0.290288 0.313728 0.364589
-0.290288 0.007898 -0.463380
-0.290288 -0.437189 0.117440
-0.290288 -0.478577 -0.003981
-0.290288 -0.409069 0.176038
-0.290288 0.481542 0.070363
-0.290288 -0.450739 -0.141052
-0.290288 -0.433108 -0.241328
-0.290288 0.413123 0.214635
-0.290288 -0.282358 -0.352745
-0.290288 -0.121411 0.474234
-0.290288 -0.095628 0.477576
-0.290288 0.450226 -0.026816
-0.290288 0.462137 -0.090315
-0.290288 0.367740 -0.305238
-0.290288 0.389507 0.273842
-0.290288 -0.482732 -0.073771
-0.290288 -0.416569 -0.260588
-0.290288 -0.353635 0.316887
-0.290288 0.235198 -0.422287
-0.290288 -0.067713 0.478418
-0.290288 0.439781 -0.107062
-0.290288 0.265942 -0.361994
-0.290288 -0.377219 -0.325375
-0.290288 0.414836 -0.166682
-0.290288 -0.282537 -0.382955
-0.290288 0.251427 0.365728
-0.290288 -0.136073 -0.480508
-0.290288 0.437739 0.222374
-0.290288 -0.202119 -0.435581
-0.290288 -0.440662 -0.134920
-0.290288 -0.163355 -0.422393
-0.290288 0.165636 0.438975
-0.290288 -0.267926 0.384893
-0.290288 0.080913 0.485062
-0.290288 0.159919 -0.426687
-0.290288 0.197838 -0.417426
-0.290288 0.255797 -0.395010
-0.290288 -0.431364 -0.197833
-0.290288 -0.125373 -0.469498
-0.290288 0.417940 -0.218131
-0.290288 0.442934 0.187124
-0.290288 -0.165288 0.453215
-0.290288 0.372754 -0.311271
-0.290288 -0.426750 -0.128651
-0.290288 0.284052 -0.383195
-0.290288 -0.440192 -0.196440
-0.290288 -0.220670 -0.404935
-0.290288 0.154144 0.440632
-0.290288 0.108728 0.483710
-0.290288 -0.213317 -0.399898
-0.290288 -0.452862 0.196397
-0.290288 0.215932 -0.444999
-0.290288 0.490373 -0.012776
-0.290288 -0.296745 0.369195
-0.290288 0.371140 -0.319214
-0.290288 0.462978 -0.184915
-0.290288 -0.470745 -0.132528
-0.290288 -0.275343 0.388537
-0.290288 0.437224 0.207939
-0.290288 0.142846 0.456559
-0.290288 0.435921 -0.149947
-0.290288 -0.436726 0.218168
-0.290288 -0.234151 0.415164
-0.290288 0.381231 0.246444
-0.290288 0.424335 0.240649
-0.290288 0.490592 -0.084312
-0.290288 -0.073693 -0.447419
-0.290288 -0.388165 0.260264
-0.290288 -0.002517 0.456810
-0.290288 -0.477032 -0.101645
-0.290288 -0.460922 -0.008104
-0.290288 0.426572 -0.161204
-0.290288 0.340894 0.315053
-0.290288 0.189114 -0.437906
-0.290288 -0.042896 0.472895
-0.290288 0.108321 -0.462876
-0.290288 -0.487486 0.035744
-0.290288 0.481775 -0.098849
-0.290288 -0.358356 -0.288316
-0.290288 0.305086 -0.394562
-0.290288 0.407596 0.243570
-0.290288 0.342107 -0.288929
-0.290288 -0.422502 0.164082
-0.290288 -0.027877 0.487757
-0.290288 -0.272002 0.385394
-0.290288 0.457193 -0.130052
-0.290288 -0.347566 -0.349456
-0.290288 -0.018662 -0.472295
-0.290288 -0.237011 0.425973
-0.290288 -0.342699 0.306684
-0.290288 0.305787 0.378864
-0.290288 -0.224839 -0.399525
-0.290288 0.481866 0.082929
-0.290288 -0.471789 -0.072600
-0.290288 -0.375923 -0.307381
-0.290288 -0.386029 0.289074
-0.290288 0.460705 0.053444
-0.290288 -0.016854 0.476153
-0.290288 -0.382761 0.263308
-0.290288 -0.379137 -0.238481
-0.290288 -0.350332 0.272664
-0.290288 0.201627 0.451690
-0.290288 0.256280 0.379266
-0.290288 -0.272841 0.403701
-0.290288 -0.216959 0.431436
-0.290288 0.453001 -0.046191
-0.290288 0.391157 0.297447
-0.290288 0.462905 0.158475
-0.290288 -0.336080 -0.322774
-0.290288 -0.142268 -0.446490
-0.290288 0.456413 0.048719
-0.290288 -0.343070 0.319177
-0.290288 0.482364 0.043266
-0.290288 0.457483 0.136659
-0.290288 0.470233 0.139923
-0.290288 0.087511 -0.442604
-0.290288 -0.393206 0.208083
-0.290288 -0.490689 0.037342
-0.290288 -0.422753 -0.193292
-0.290288 -0.383667 -0.313517
-0.290288 0.309642 0.373718
-0.290288 0.274801 0.355328
-0.290288 0.476343 0.035597
-0.290288 0.228817 0.438213
-0.290288 0.187392 -0.426363
-0.290288 0.409624 0.225074
-0.290288 -0.324557 0.311338
-0.290288 -0.145051 0.437843
-0.290288 -0.446984 -0.179549
-0.290288 -0.462601 -0.110179
-0.290288 -0.241754 0.408592
-0.290288 0.422151 0.150945
-0.290288 -0.198719 0.449861
-0.290288 -0.447156 0.202517
-0.290288 -0.020633 0.470855
-0.290288 0.399421 -0.265208
-0.290288 -0.475058 -0.054517
-0.290288 0.488642 0.067593
-0.290288 0.205092 0.394460
-0.290288 0.043981 0.451890
-0.290288 0.403136 0.191003
-0.290288 0.226600 0.413698
-0.290288 0.040976 -0.485580
-0.290288 0.447280 -0.182965
-0.290288 0.360469 0.311300
-0.290288 0.434066 0.114645
-0.290288 -0.421145 0.206497
-0.290288 -0.468308 0.051811
-0.290288 0.084101 0.483474
-0.290288 0.331037 0.321165
-0.290288 -0.394922 0.260113
-0.290288 -0.469376 0.030066
-0.290288 -0.356627 -0.344967
-0.290288 -0.424666 -0.229815
-0.290288 0.422779 -0.230444
-0.290288 -0.424262 0.240198
-0.290288 0.355650 -0.325346
-0.290288 0.033105 0.485420
-0.290288 0.312587 0.367540
-0.290288 -0.449458 -0.050837
-0.290288 -0.236799 -0.389206
-0.290288 -0.423905 0.204970
-0.290288 0.338659 0.346530
-0.290288 0.388564 -0.261211
-0.290288 -0.092977 -0.491050
-0.290288 0.424912 -0.188571
-0.290288 -0.180266 -0.450390
-0.290288 -0.199203 -0.457922
-0.290288 0.079216 -0.459511
-0.290288 -0.439141 0.153993
-0.290288 -0.460822 -0.043702
-0.290288 0.485379 0.110366
-0.290288 0.041311 -0.461214
-0.290288 0.222089 0.433044
-0.290288 0.464372 0.178563
-0.290288 -0.180293 -0.461601
-0.290288 -0.364688 0.329933
-0.290288 -0.037421 0.472976
-0.290288 0.486628 -0.090518
-0.290288 0.278554 0.370352
-0.290288 -0.397677 -0.290464
-0.290288 0.055532 -0.468572
-0.290288 0.184155 -0.430826
-0.290288 0.163036 0.413560
-0.290288 0.414935 0.270064
-0.290288 -0.035346 -0.494057
-0.290288 0.308105 -0.357316
-0.290288 -0.110517 -0.468674
-0.290288 -0.053590 -0.453536
-0.290288 0.456417 0.027577
-0.290288 0.435414 0.215983
-0.290288 -0.288182 0.403487
-0.290288 -0.205750 -0.406061
-0.290288 -0.232138 0.385188
-0.290288 0.373105 -0.251197
-0.290288 0.284911 0.375128
-0.290288 0.215948 0.437886
-0.290288 -0.031565 -0.484106
-0.290288 0.338105 -0.338247
-0.290288 0.325037 -0.340203
-0.290288 0.362224 -0.295725
-0.290288 -0.474357 -0.149295
-0.290288 0.255867 -0.429423
-0.290288 0.121875 0.429085
-0.290288 -0.070106 0.482276
-0.290288 -0.036391 0.441641
-0.290288 -0.372219 0.249005
-0.290288 0.112902 -0.471875
-0.290288 -0.040332 0.470818
-0.290288 -0.119859 0.443864
-0.290288 -0.383210 -0.237909
-0.290288 -0.145226 -0.458085
-0.290288 0.457529 0.130980
-0.290288 0.449884 -0.103742
-0.290288 -0.310385 0.335190
-0.290288 0.466784 -0.104726
-0.290288 -0.174407 0.420891
-0.290288 -0.332681 0.349591
-0.290288 0.395324 -0.217079
-0.290288 -0.339731 0.322173
-0.290288 -0.072212 -0.465642
-0.290288 -0.430779 -0.160164
-0.290288 -0.206381 0.396579
-0.290288 0.411748 -0.209060
-0.290288 0.255570 -0.375415
-0.290288 -0.253196 -0.417765
-0.290288 0.496172 0.041133
-0.290288 -0.475202 0.029420
-0.290288 -0.381686 -0.267815
-0.290288 0.254448 -0.368775
-0.290288 0.477254 0.064209
-0.290288 0.202818 -0.437112
-0.290288 -0.160368 0.439444
-0.290288 -0.258359 0.374804
-0.290288 0.451960 0.057770
-0.290288 -0.250912 -0.431631
-0.290288 0.486328 -0.038784
-0.290288 0.481158 -0.066204
-0.290288 -0.431222 -0.112805
-0.290288 -0.104951 -0.476569
-0.290288 -0.432899 0.189889
-0.290288 -0.389110 0.244690
-0.290288 -0.472516 -0.039707
-0.290288 0.220014 -0.399625
-0.290288 -0.029115 -0.498100
-0.290288 -0.474591 0.016917
-0.290288 0.486215 -0.049911
-0.290288 0.443102 0.055556
-0.290288 0.152620 -0.465036
-0.290288 0.122116 0.480466
-0.290288 0.432292 -0.152290
-0.290288 -0.405231 -0.189237
-0.290288 0.352400 -0.349479
-0.290288 -0.446253 0.124673
-0.290288 -0.178966 -0.431679
-0.290288 0.472950 0.099789
-0.290288 -0.269728 -0.357254
-0.290288 -0.128611 0.439766
-0.290288 0.046210 -0.445440
-0.290288 -0.031306 -0.470624
-0.290288 -0.411737 -0.256856
-0.290288 0.421002 -0.151439
-0.290288 -0.386067 -0.271974
-0.290288 0.172125 0.451003
-0.290288 -0.060409 -0.463720
-0.290288 -0.451427 -0.158409
-0.290288 0.281866 0.379535
-0.290288 -0.468516 -0.121209
-0.290288 -0.386933 0.241396
-0.290288 -0.483411 0.022013
-0.290288 0.395675 -0.260433
-0.290288 0.460360 -0.043190
-0.290288 0.076001 0.473622
-0.290288 0.118554 0.427328
-0.290288 0.145779 0.423398
-0.290288 0.138366 0.426416
-0.290288 -0.213245 0.437232
-0.290288 0.325783 0.304694
-0.290288 0.462788 -0.119064
-0.290288 -0.076443 -0.451986
-0.290288 0.436304 -0.196625
-0.290288 -0.135760 -0.469766
-0.290288 -0.446453 0.057997
-0.290288 0.464121 0.079371
-0.290288 0.423722 -0.220956
-0.290288 -0.309360 0.376210
-0.290288 0.133491 0.450698
-0.290288 0.240287 0.424952
-0.290288 0.371676 -0.332503
-0.290288 0.231676 0.401636
-0.290288 0.389894 -0.264728
-0.290288 -0.458666 0.175563
-0.290288 -0.224081 0.391781
-0.290288 -0.197381 0.414076
-0.290288 0.002899 0.443409
-0.290288 -0.325893 0.371064
-0.290288 0.008855 0.445257
-0.290288 -0.249311 -0.382555
-0.290288 -0.341937 0.292084
-0.290288 0.467860 0.019317
-0.290288 -0.431658 0.230483
-0.290288 0.455545 -0.119868
-0.290288 0.444962 0.077340
-0.290288 0.065764 0.473732
-0.290288 0.343359 -0.308032
-0.290288 -0.013397 0.464272
-0.290288 -0.185334 0.453695
-0.290288 0.173930 0.448465
-0.290288 0.436665 0.095178
-0.290288 0.465444 -0.128952
-0.290288 0.190866 0.449800
-0.290288 0.405896 -0.189969
-0.290288 -0.379891 0.286717
-0.290288 -0.163929 0.450011
-0.290288 0.438168 0.188821
-0.290288 0.488620 0.050619
-0.290288 0.070433 0.459358
-0.290288 0.490647 -0.025180
-0.290288 0.401409 -0.212028
-0.290288 0.372410 0.288683
-0.290288 -0.170480 0.462433
-0.290288 0.122971 -0.441863
-0.290288 -0.368446 0.280415
-0.290288 0.105848 -0.451921
-0.290288 -0.472149 -0.017906
-0.290288 -0.147682 0.444970
-0.290288 -0.490340 -0.007180
-0.290288 0.086232 -0.487009
-0.290288 0.196354 -0.448045
-0.290288 -0.115530 -0.436299
-0.290288 0.440641 -0.148516
-0.290288 0.410407 0.265605
-0.290288 -0.091584 0.466456
-0.290288 -0.477723 0.084896
-0.290288 -0.225595 -0.436697
-0.290288 -0.436400 -0.234633
-0.290288 0.420724 0.169961
-0.290288 -0.022381 -0.489263
-0.290288 0.352128 -0.319893
-0.290288 -0.159394 -0.428370
-0.290288 0.461788 -0.151379
-0.290288 -0.113517 0.428555
-0.290288 -0.465221 0.030293
-0.290288 0.432376 0.225714
-0.290288 0.352859 0.338733
-0.290288 -0.457856 0.022397
-0.290288 0.413251 0.194317
-0.290288 0.321814 -0.349973
-0.290288 0.263215 0.375278
-0.290288 -0.082076 -0.465831
-0.290288 0.418775 0.193025
-0.290288 0.347102 0.290450
-0.290288 0.422212 -0.217765
-0.290288 0.164531 -0.471925
-0.290288 -0.417415 0.153237
-0.290288 0.306920 0.371878
-0.290288 0.465229 -0.093934
-0.290288 0.465165 0.095116
-0.290288 0.391627 -0.309351
-0.290288 0.095843 0.455150
-0.290288 -0.361681 -0.301167
-0.290288 0.462071 -0.032889
-0.290288 -0.202559 -0.417172
-0.290288 0.402930 0.275081
-0.290288 -0.376144 -0.312562
-0.290288 -0.124773 -0.466251
-0.290288 0.073501 -0.483854
-0.290288 0.175424 -0.420746
-0.290288 -0.190835 0.409158
-0.290288 -0.405301 -0.267034
-0.290288 -0.065033 -0.471452
-0.290288 -0.383571 -0.302275
-0.290288 -0.406577 -0.286779
-0.290288 0.343519 0.304202
-0.290288 -0.436661 -0.196145
-0.290288 0.030657 -0.456377
-0.290288 0.464082 -0.036843
-0.290288 0.301650 -0.339076
-0.290288 0.206259 -0.397990
-0.290288 -0.038456 0.454653
-0.290288 0.121286 -0.455795
-0.290288 -0.493551 -0.061343
-0.290288 0.409782 0.250330
-0.290288 -0.187728 -0.442729
-0.290288 0.331579 -0.305742
-0.290288 -0.496192 0.014628
-0.290288 0.015312 -0.499027
-0.290288 0.373153 -0.292820
-0.290288 0.373141 0.271809
-0.290288 0.407649 -0.224585
-0.290288 -0.241644 0.389631
-0.290288 0.054062 -0.471451
-0.290288 -0.455145 -0.105490
-0.290288 -0.017636 -0.463977
-0.290288 0.383048 -0.277439
-0.290288 -0.148885 -0.444364
-0.290288 0.453940 0.136394
-0.290288 -0.437378 0.214784
-0.290288 0.163817 -0.426349
-0.290288 -0.356871 0.317464
-0.290288 0.150709 0.419665
-0.290288 -0.118613 -0.450853
-0.290288 0.117381 0.446078
-0.290288 0.219642 0.385628
-0.290288 0.347865 -0.319556
-0.290288 0.474908 0.138499
-0.290288 -0.264059 0.386981
-0.290288 0.395604 0.230833
-0.290288 0.077844 0.443614
-0.290288 0.416493 0.261805
-0.290288 0.264619 0.409392
-0.290288 0.443559 -0.121284
-0.290288 -0.447665 -0.091890
-0.290288 -0.296743 0.390051
-0.290288 0.401967 -0.249362
-0.290288 -0.248589 -0.378330
-0.290288 0.422938 0.167846
-0.290288 0.246003 0.380901
-0.290288 0.404177 0.244163
-0.290288 -0.361291 0.329602
-0.290288 0.414275 -0.243946
-0.290288 -0.454713 -0.077636
-0.290288 -0.272570 -0.394280
-0.290288 0.160862 0.445518
-0.290288 0.259727 -0.366866
-0.290288 0.356645 0.297553
-0.290288 -0.293747 0.355042
-0.290288 0.395722 0.204926
-0.290288 -0.456079 0.189880
-0.290288 0.337812 0.343507
-0.290288 0.449168 0.169942
-0.290288 -0.294641 0.379771
-0.290288 0.003936 0.491817
-0.290288 0.236509 -0.402553
-0.290288 -0.105782 0.438775
-0.290288 -0.388787 0.218359
-0.290288 0.397615 0.221307
-0.290288 -0.493375 -0.019219
-0.290288 -0.103883 0.452575
-0.290288 0.460136 -0.171590
-0.290288 -0.354031 0.306053
-0.290288 -0.435662 0.187603
-0.290288 0.422425 -0.257638
-0.290288 -0.443835 -0.145869
-0.290288 0.117229 0.430509
-0.290288 -0.380037 -0.295507
-0.290288 -0.321884 0.322819
-0.290288 -0.156178 -0.434871
-0.290288 0.209579 -0.432407
-0.290288 -0.080880 -0.443612
-0.290288 0.429284 0.166356
-0.290288 -0.056306 -0.456567
-0.290288 -0.326241 0.333889
-0.290288 0.029027 0.469732
-0.290288 0.456147 0.061395
-0.290288 -0.437232 -0.117900
-0.290288 -0.124457 0.451548
-0.290288 -0.466289 0.005617
-0.290288 -0.456654 0.138541
-0.290288 0.204880 -0.447022
-0.290288 0.445157 -0.153562
-0.290288 0.058641 -0.490783
-0.290288 0.352488 0.312304
-0.290288 -0.325033 -0.322953
-0.290288 -0.256552 -0.426489
-0.290288 -0.242606 0.371360
-0.290288 0.308500 -0.392945
-0.290288 0.388776 0.238607
-0.290288 -0.487798 0.001296
-0.290288 0.140979 -0.435681
-0.290288 0.115874 -0.443471
-0.290288 0.136708 -0.443185
-0.290288 -0.478556 0.119456
-0.290288 -0.426603 -0.199638
-0.290288 0.469589 0.007035
-0.290288 -0.471441 -0.014084
-0.290288 0.117714 0.439291
-0.290288 0.462017 -0.144709
-0.290288 0.139681 0.455643
-0.290288 -0.306004 -0.385781
-0.290288 0.227000 -0.425137
-0.290288 0.362253 0.324140
-0.290288 -0.075448 0.461602
-0.290288 0.212083 0.411757
-0.290288 0.482584 0.079108
-0.290288 -0.264097 -0.360814
-0.290288 -0.375435 0.242505
-0.290288 -0.061198 0.467522
-0.290288 -0.300965 -0.373148
-0.290288 -0.483556 -0.011176
-0.290288 -0.390203 -0.216790
-0.290288 -0.460156 0.038911
-0.290288 -0.395034 -0.250374
-0.290288 -0.449257 0.189465
-0.290288 0.428544 -0.154615
-0.290288 0.251801 -0.390538
-0.290288 -0.447440 -0.139947
-0.290288 0.340268 -0.308305
-0.290288 0.364451 -0.313129
-0.290288 -0.467929 0.081005
-0.290288 -0.482708 0.012169
-0.290288 -0.437264 -0.222280
-0.290288 -0.439426 -0.091208
-0.290288 -0.133071 0.437327
-0.290288 0.074827 0.441251
-0.290288 0.068431 -0.485171
-0.290288 0.146684 0.456582
-0.290288 -0.261539 -0.409859
-0.290288 0.336272 0.337529
-0.290288 0.490108 -0.079978
-0.290288 0.392988 -0.225050
-0.290288 0.317983 -0.338929
-0.290288 -0.451824 0.186692
-0.290288 0.030667 -0.446541
-0.290288 0.297201 -0.363938
-0.290288 -0.193122 -0.430771
-0.290288 0.243489 0.415343
-0.290288 0.321140 0.336793
-0.290288 -0.440203 -0.123780
-0.290288 0.054559 -0.453249
-0.290288 -0.227621 0.393906
-0.290288 0.144044 0.428606
-0.290288 0.366486 0.313226
-0.290288 0.089684 0.439108
-0.290288 0.153791 0.450801
-0.290288 0.370564 0.279770
-0.290288 0.411860 -0.260713
-0.290288 -0.086241 -0.476054
-0.290288 0.330579 0.338977
-0.290288 -0.211385 0.431320
-0.290288 0.287546 -0.380594
-0.290288 0.179598 -0.431173
-0.290288 -0.320001 0.361176
-0.290288 -0.052833 0.459254
-0.290288 -0.338485 -0.304441
-0.290288 0.336438 -0.345402
-0.290288 -0.392051 0.282403
-0.290288 0.111468 -0.439952
-0.290288 0.483084 0.031531
-0.290288 -0.433057 0.217697
-0.290288 -0.020308 -0.486380
-0.290288 -0.486988 0.038981
-0.290288 0.064183 -0.444354
-0.290288 0.454992 -0.191790
-0.290288 -0.446710 0.049730
-0.290288 0.455757 -0.148522
-0.290288 0.231622 -0.442437
-0.290288 -0.327752 0.320103
-0.290288 -0.384846 0.292527
-0.290288 0.426553 -0.240925
-0.290288 -0.442180 0.220684
-0.290288 0.072722 -0.450712
-0.290288 -0.180785 0.413809
-0.290288 -0.292662 0.358518
-0.290288 0.414672 0.190932
-0.290288 0.135276 -0.430591
-0.290288 -0.457854 0.181354
-0.290288 -0.243194 -0.417940
-0.290288 -0.066186 -0.467616
-0.290288 0.170146 -0.421842
-0.290288 0.157933 -0.440029
-0.290288 -0.388804 -0.286138
-0.290288 0.151925 -0.434913
-0.290288 0.380660 0.301013
-0.290288 -0.095477 -0.441363
-0.290288 -0.465692 -0.117152
-0.290288 0.214969 0.421850
-0.290288 -0.000074 -0.479252
-0.290288 0.470897 0.063215
-0.290288 -0.424153 0.175867
-0.290288 -0.407317 0.234194
-0.290288 -0.280094 -0.385167
-0.290288 0.150203 0.440610
-0.290288 0.439042 -0.198590
-0.290288 0.002269 0.458393
-0.290288 -0.278003 0.351494
-0.290288 0.132416 0.438885
-0.290288 -0.223647 0.430399
-0.290288 -0.090131 0.444293
-0.290288 0.057397 0.463637
-0.290288 -0.378696 0.252181
-0.290288 0.036231 -0.478178
-0.290288 -0.461584 0.031548
-0.290288 0.414840 0.229758
-0.290288 0.162856 0.419181
-0.290288 -0.480831 0.042386
-0.290288 -0.252413 0.396345
-0.290288 -0.443870 -0.066949
-0.290288 -0.446891 0.093224
-0.290288 -0.497113 0.002750
-0.290288 0.169883 -0.448137
-0.290288 0.138911 -0.454832
-0.290288 -0.462391 0.128324
-0.290288 -0.259826 -0.379149
-0.290288 0.457938 -0.162461
-0.290288 0.236782 -0.392601
-0.290288 0.302358 0.368175
-0.290288 0.466330 0.174190
-0.290288 -0.432127 -0.168024
-0.290288 -0.220984 -0.436088
-0.290288 -0.148396 0.450790
-0.290288 0.097570 0.448727
-0.290288 -0.336228 -0.294489
-0.290288 -0.233254 0.437393
-0.290288 -0.182163 -0.464671
-0.290288 -0.178527 0.419423
-0.290288 -0.388145 -0.244767
-0.290288 0.290114 0.354893
-0.290288 0.157680 -0.434296
-0.290288 -0.434157 0.233309
-0.290288 -0.272029 0.361682
-0.290288 0.316808 -0.353566
-0.290288 0.442230 0.164392
-0.290288 0.432070 -0.194433
-0.290288 0.493063 -0.065707
-0.290288 0.310429 0.360941
-0.290288 0.311870 -0.332537
-0.290288 -0.268656 0.355333
-0.290288 -0.347688 0.290185
-0.290288 -0.408932 -0.260121
-0.290288 -0.060154 0.455898
-0.290288 0.495717 -0.052345
-0.290288 -0.470876 -0.119043
-0.290288 0.284501 -0.363531
-0.290288 -0.274585 -0.366133
-0.290288 -0.155578 0.435290
-0.290288 0.308977 0.355967
-0.290288 0.314303 0.375222
-0.290288 -0.188381 0.457554
-0.290288 -0.339779 -0.327814
-0.290288 -0.364932 -0.269283
-0.290288 -0.457942 0.153348
-0.290288 0.202173 0.447815
-0.290288 0.447087 0.113418
-0.290288 -0.229835 -0.424593
-0.290288 -0.230350 0.420678
-0.290288 0.040573 -0.468853
-0.290288 -0.389121 -0.308991
-0.290288 0.465809 0.146570
-0.290288 0.156085 -0.430826
-0.290288 -0.288913 0.373791
-0.290288 0.460080 -0.010979
-0.290288 0.062752 0.441634
-0.290288 0.066670 0.481425
-0.290288 -0.225867 0.419601
-0.290288 -0.330185 -0.367322
-0.290288 -0.398412 -0.222602
-0.290288 0.428629 0.238178
-0.290288 0.100555 0.439221
-0.290288 -0.137148 0.452482
-0.290288 0.381320 -0.259234
-0.290288 -0.312921 -0.345197
-0.290288 0.365149 0.306113
-0.290288 0.232630 0.420535
-0.290288 0.040653 0.446677
-0.290288 0.108635 -0.480006
-0.290288 -0.216356 0.413945
-0.290288 -0.042403 -0.488648
-0.290288 -0.041943 0.460162
-0.290288 0.481982 0.000398
-0.290288 0.463432 0.140089
-0.290288 -0.350126 -0.298066
-0.290288 -0.387756 0.223578
-0.290288 0.175049 0.408294
-0.290288 0.264821 -0.380848
-0.290288 0.221483 0.417659
-0.290288 0.437794 -0.172421
-0.290288 0.160127 0.440146
-0.290288 -0.449259 0.167939
-0.290288 -0.171178 0.445110
-0.290288 -0.403775 -0.216775
-0.290288 -0.415322 0.269182
-0.290288 0.458495 0.074502
-0.290288 -0.105942 -0.462879
-0.290288 0.210612 0.442098
-0.290288 0.101667 0.473663
-0.290288 0.113349 0.474033
-0.290288 0.318210 0.311331
-0.290288 0.463950 -0.040051
-0.290288 -0.448635 0.079023
-0.290288 0.429037 0.176118
-0.290288 0.076272 -0.463918
-0.290288 -0.458095 0.088835
-0.290288 -0.386305 0.296012
-0.290288 0.322930 0.305784
-0.290288 0.045611 -0.449365
-0.290288 -0.068858 -0.475543
-0.290288 -0.478099 0.057527
-0.290288 -0.340281 -0.341992
-0.290288 -0.051036 -0.468009
-0.290288 0.429249 0.159378
-0.290288 -0.292901 0.350704
-0.290288 -0.076822 -0.494051
-0.290288 0.409456 -0.178438
-0.290288 0.158002 -0.447359
-0.290288 -0.208647 -0.418844
-0.290288 -0.461717 0.056765
-0.290288 -0.412163 0.246507
-0.290288 -0.342436 0.356773
-0.290288 0.056102 0.481949
-0.290288 0.327434 0.301108
-0.290288 0.387547 0.286983
-0.290288 -0.071538 0.450617
-0.290288 0.396068 0.299348
-0.290288 -0.439120 0.177378
-0.290288 -0.490315 0.044629
-0.290288 -0.483420 0.039762
-0.290288 0.414368 -0.265129
-0.290288 0.006986 0.460104
-0.290288 -0.442680 0.170681
-0.290288 -0.323218 0.368624
-0.290288 0.324505 -0.335179
-0.290288 -0.136619 -0.474519
-0.290288 0.407234 -0.285590
-0.290288 0.415058 -0.212149
-0.290288 -0.399615 -0.210127
-0.290288 0.385009 0.291201
-0.290288 -0.384555 -0.246832
-0.290288 -0.239540 -0.432371
-0.290288 0.250483 -0.408823
-0.290288 0.009288 -0.483923
-0.290288 -0.412055 0.228187
-0.290288 -0.100570 -0.486319
-0.290288 -0.348674 0.344099
-0.290288 -0.336491 -0.367920
-0.290288 0.330574 0.296804
-0.290288 -0.473123 -0.142660
-0.290288 -0.336328 -0.313496
-0.290288 0.469204 -0.078719
-0.290288 0.178987 -0.453953
-0.290288 -0.127904 -0.466729
-0.290288 -0.162434 -0.429454
-0.290288 0.425274 -0.199996
-0.290288 -0.344907 -0.302739
-0.290288 -0.273652 0.381485
-0.290288 0.458564 -0.115866
-0.290288 -0.266638 0.417223
-0.290288 0.008386 0.464037
-0.290288 -0.256575 0.370816
-0.290288 -0.220408 0.411719
-0.290288 -0.458299 -0.041064
-0.290288 0.348120 -0.290292
-0.290288 -0.314726 -0.329982
-0.290288 -0.455220 -0.089079
-0.290288 -0.472507 0.035124
-0.290288 -0.351459 0.279371
-0.290288 -0.163698 0.428291
-0.290288 0.365614 0.330539
-0.290288 0.331635 -0.362585
-0.290288 0.093712 -0.483878
-0.290288 0.479247 -0.112517
-0.290288 0.262295 -0.413742
-0.290288 -0.089696 0.456321
-0.290288 -0.328812 0.303043
-0.290288 0.341326 0.349333
-0.290288 0.433838 -0.170203
-0.290288 -0.380085 -0.292131
-0.290288 -0.490505 -0.043886
-0.290288 0.099642 0.485929
-0.290288 -0.369490 0.245519
-0.290288 -0.021045 -0.462025
-0.290288 0.108412 -0.476260
-0.290288 -0.462260 -0.077007
-0.290288 -0.286266 -0.395115
-0.290288 -0.480134 -0.131967
-0.290288 -0.076692 -0.444734
-0.290288 0.382328 -0.285844
-0.290288 -0.363251 0.302601
-0.290288 0.414414 0.174845
-0.290288 0.291477 -0.402354
-0.290288 -0.160874 0.464814
-0.290288 0.448544 -0.081621
-0.290288 0.370303 0.311225
-0.290288 0.371238 0.276019
-0.290288 0.286690 0.344332
-0.290288 -0.361302 0.299841
-0.290288 -0.211778 0.422319
-0.290288 -0.469321 -0.105662
-0.290288 -0.415092 0.176162
-0.290288 0.004181 -0.449205
-0.290288 -0.056619 0.489864
-0.290288 0.299637 0.328310
-0.290288 0.086514 -0.439186
-0.290288 0.146696 0.441240
-0.290288 0.415691 -0.223193
-0.290288 0.442739 0.207722
-0.290288 -0.488852 -0.033948
-0.290288 0.153052 0.447292
-0.290288 -0.039211 -0.470139
-0.290288 -0.215337 0.416818
-0.290288 -0.361382 -0.293374
-0.290288 -0.456852 0.042764
-0.290288 -0.130571 0.428265
-0.290288 0.381431 0.293832
-0.290288 0.266051 0.372163
-0.290288 -0.478166 -0.016636
-0.290288 -0.276453 -0.402173
-0.290288 -0.181585 0.441480
-0.290288 -0.051295 0.482956
-0.290288 0.382716 -0.316900
-0.290288 -0.193830 0.411388
-0.290288 0.466125 -0.009957
-0.290288 0.287069 -0.360985
-0.290288 0.106818 -0.434768
-0.290288 -0.322047 -0.328545
-0.290288 0.180036 0.451483
-0.290288 0.482458 0.087035
-0.290288 0.470127 0.088090
-0.290288 -0.029203 0.452055
-0.290288 0.484161 -0.017768
-0.290288 0.407658 0.182117
-0.290288 0.407909 0.272892
-0.290288 0.497234 -0.025013
-0.290288 -0.471860 -0.004381
-0.290288 -0.178971 0.446838
-0.290288 0.476102 0.025339
-0.290288 -0.470225 0.112412
-0.290288 0.463713 0.060998
-0.290288 -0.372010 0.293673
-0.290288 -0.401478 0.191539
-0.290288 0.415770 0.251707
-0.290288 0.090694 -0.491041
-0.290288 0.156625 0.415334
-0.290288 -0.465466 -0.079071
-0.290288 0.493432 -0.023205
-0.290288 -0.080436 0.473854
-0.290288 0.243335 -0.410986
-0.290288 0.318427 0.314804
-0.290288 0.035190 -0.460702
-0.290288 -0.479977 -0.013258
-0.290288 0.221386 -0.419758
-0.290288 0.375727 0.274339
-0.290288 -0.300870 -0.358781
-0.290288 -0.400699 0.215421
-0.290288 0.087149 0.471536
-0.290288 0.014362 0.467870
-0.290288 -0.408747 -0.242063
-0.290288 -0.423564 -0.184167
-0.290288 -0.027526 0.471948
-0.290288 0.407896 0.247365
-0.290288 0.258416 -0.404742
-0.290288 0.449740 -0.173865
-0.290288 0.267686 -0.390225
-0.290288 0.445781 -0.059113
-0.290288 0.245949 0.426804
-0.290288 0.179708 0.444830
-0.290288 -0.459103 -0.089745
-0.290288 -0.478238 0.045359
-0.290288 0.438790 -0.113574
-0.290288 -0.398726 -0.231567
-0.290288 0.485506 0.022376
-0.290288 -0.331202 -0.341378
-0.290288 -0.156832 0.463393
-0.290288 -0.393773 -0.253350
-0.290288 0.423450 -0.204384
-0.290288 0.406068 -0.263962
-0.290288 -0.441026 0.128354
-0.290288 -0.448514 0.088964
-0.290288 0.026609 0.452888
-0.290288 -0.405015 0.223684
-0.290288 0.228213 -0.442135
-0.290288 -0.103902 -0.483930
-0.290288 -0.046416 0.489339
-0.290288 0.377588 -0.265299
-0.290288 -0.488663 0.057233
-0.290288 -0.019968 0.488984
-0.290288 0.297877 0.331264
-0.290288 -0.397737 0.201363
-0.290288 0.088597 0.434839
-0.290288 -0.372045 0.301775
-0.290288 0.108524 0.451665
-0.290288 0.439652 -0.236512
-0.290288 0.416179 -0.170180
-0.290288 -0.395397 -0.285741
-0.290288 0.198238 0.434152
-0.290288 0.130977 -0.457932
-0.290288 0.150639 -0.441593
-0.290288 0.480956 0.096038
-0.290288 0.448057 0.075771
-0.290288 0.356689 -0.320533
-0.290288 0.251510 -0.429950
-0.290288 -0.245311 -0.373418
-0.290288 0.066121 0.462082
-0.290288 0.467260 -0.161401
-0.290288 -0.410130 0.183518
-0.290288 0.429219 -0.183496
-0.290288 -0.478851 -0.096569
-0.290288 0.401817 0.280039
-0.290288 -0.145919 -0.446253
-0.290288 -0.486255 0.099318
-0.290288 0.083125 0.472969
-0.290288 -0.482526 -0.030475
-0.290288 0.171996 -0.467690
-0.290288 -0.146431 -0.467681
-0.290288 0.001279 0.484691
-0.290288 -0.306434 0.383379
-0.290288 -0.454741 -0.136599
-0.290288 0.367639 0.299596
-0.290288 0.414716 0.184696
-0.290288 0.438197 0.131277
-0.290288 -0.412211 -0.176592
-0.290288 -0.117630 -0.474659
-0.290288 0.089693 0.483206
-0.290288 -0.392453 -0.212699
-0.290288 -0.261353 0.384713
-0.290288 -0.455823 0.169022
-0.290288 -0.043051 0.444731
-0.290288 -0.462046 0.107254
-0.290288 -0.441430 0.198599
-0.290288 0.469024 -0.070332
-0.290288 -0.086508 -0.455938
-0.290288 0.325315 -0.349363
-0.290288 -0.382656 -0.259218
-0.290288 -0.333154 0.346306
-0.290288 -0.033013 -0.481290
-0.290288 -0.302240 0.383266
-0.290288 0.456952 -0.176778
-0.290288 -0.316770 -0.333648
-0.290288 0.494923 0.056094
-0.290288 0.194445 -0.433199
-0.290288 -0.070375 0.466174
-0.290288 -0.048295 0.475518
-0.290288 -0.448248 0.071193
-0.290288 -0.451201 0.082529
-0.290288 -0.263809 -0.404230
-0.290288 0.389412 -0.258135
-0.290288 -0.477692 0.033864
-0.290288 -0.439758 0.227341
-0.290288 0.273627 -0.401317
-0.290288 -0.201733 0.414497
-0.290288 -0.248108 0.376100
-0.290288 -0.290595 0.366380
-0.290288 -0.458433 -0.174760
-0.290288 0.187050 -0.417834
-0.290288 -0.462579 0.028287
-0.290288 0.080954 -0.463003
-0.290288 -0.427344 -0.131650
-0.290288 -0.140561 -0.431461
-0.290288 0.218058 -0.405575
-0.290288 -0.492993 -0.013009
-0.290288 0.425213 0.189585
-0.290288 0.030528 0.473948
-0.290288 -0.472076 -0.157096
-0.290288 -0.142577 0.428869
-0.290288 0.446246 -0.033697
-0.290288 -0.254217 -0.382832
-0.290288 -0.455991 0.112063
-0.290288 0.430802 0.144344
-0.290288 0.296802 -0.392914
-0.290288 0.263486 0.399248
-0.290288 -0.339441 -0.294915
-0.290288 -0.467555 0.088195
-0.290288 -0.369280 0.330820
-0.290288 0.274607 -0.408137
-0.290288 -0.453076 -0.027058
-0.290288 -0.441166 -0.170469
-0.290288 0.366700 0.255816
-0.290288 0.419254 0.216185
-0.290288 0.287211 -0.402017
-0.290288 0.405486 0.265671
-0.290288 0.310718 0.348310
-0.290288 -0.315261 -0.350753
-0.290288 0.411711 0.218788
-0.290288 0.066657 -0.477471
-0.290288 0.417165 -0.207908
-0.290288 0.386606 0.298177
-0.290288 -0.345486 -0.333611
-0.290288 0.453582 0.096726
-0.290288 0.430453 -0.118201
-0.290288 0.014884 0.493522
-0.290288 -0.393191 -0.232127
-0.290288 -0.183546 0.434126
-0.290288 -0.422950 0.200158
-0.290288 -0.089223 0.486577
-0.290288 0.468796 -0.113691
-0.290288 -0.228523 -0.394011
-0.290288 0.165462 -0.437102
