-0.021304 -0.024593 0.442469
-0.017401 -0.443981 -0.030807
0.242039 0.437033 -0.090226
-0.226774 0.325254 0.302706
0.076800 0.445274 0.019246
-0.269335 0.370820 -0.249366
-0.060822 -0.188075 0.401328
0.232930 -0.205394 -0.396939
0.143526 0.202893 -0.398735
-0.127163 0.187813 -0.406238
0.096957 0.316808 -0.315510
-0.255905 0.443970 0.037412
0.260669 -0.128443 0.423982
-0.193008 -0.330773 -0.299638
0.204924 -0.080488 -0.440112
0.202237 0.445714 0.005251
0.000655 -0.203009 -0.398154
-0.277752 0.444367 -0.037571
0.134115 -0.142609 -0.423840
-0.268725 0.047025 -0.444980
0.042028 0.196871 -0.401804
0.228061 -0.172674 -0.412346
-0.273408 0.318592 -0.313727
0.234631 0.433254 0.102778
0.027939 0.442423 -0.058083
-0.059683 -0.435940 -0.090533
0.063292 0.392325 0.209519
-0.181720 -0.335863 -0.293865
0.222490 -0.419391 -0.150186
-0.002979 0.089793 -0.438422
0.217998 0.359804 0.261026
0.151419 -0.114225 0.428113
0.069098 -0.360288 0.259001
-0.266842 0.423793 0.136451
-0.041973 0.323438 0.304527
0.285783 -0.443160 0.035144
0.066619 0.443607 0.041252
0.011165 -0.423638 -0.138046
0.028154 0.236882 -0.379634
0.215655 0.348539 0.275550
0.044176 -0.284420 0.340154
-0.097668 -0.324070 0.302870
0.218832 0.391726 -0.215048
0.026656 -0.411617 0.166480
-0.235777 -0.216499 0.386729
0.030475 0.227035 -0.385458
0.247369 -0.421275 -0.144953
-0.191433 0.438539 0.078248
0.261070 0.348558 0.275525
0.053494 -0.256749 0.361286
-0.240796 0.443900 0.038152
-0.159937 0.432018 -0.112661
0.254442 -0.234876 0.375861
0.243020 -0.318807 -0.312487
-0.168454 -0.434308 -0.097833
-0.048443 0.399619 -0.199558
0.054704 -0.410635 -0.173102
0.186172 0.362407 -0.261746
-0.105366 -0.437019 0.081350
0.184181 -0.390649 0.210798
0.082041 -0.174912 -0.411377
0.080141 0.238308 0.374437
-0.009865 0.445736 -0.008895
-0.024832 0.008370 -0.447365
0.099758 -0.383356 0.223353
-0.024565 -0.321272 -0.310022
0.241262 -0.235787 -0.379676
-0.010371 -0.110451 -0.433563
-0.216140 -0.165600 0.411053
0.225815 0.437798 0.082451
0.135552 0.148044 -0.422252
0.011667 0.324680 -0.307639
0.285937 -0.411056 0.167775
-0.145043 -0.086319 -0.438970
0.172189 -0.258681 -0.364326
0.188344 -0.437204 0.080210
0.282025 0.023017 -0.446905
0.042708 -0.101614 -0.435551
-0.141353 0.342812 -0.287144
-0.133921 0.424531 0.134147
0.094303 0.326557 0.301229
0.112746 0.372410 -0.247026
-0.089623 -0.409313 0.171803
-0.061596 -0.284624 0.339974
0.056753 -0.035117 0.441655
0.053378 0.240535 -0.377355
-0.050839 -0.199534 -0.399925
0.046771 -0.365810 -0.255230
0.051542 0.327761 -0.304216
-0.134477 -0.428267 0.117760
-0.146672 -0.442415 0.043025
0.043108 -0.251549 -0.369173
0.124761 -0.246955 -0.372296
-0.239790 -0.042092 0.440996
-0.017510 -0.028363 -0.446647
0.136316 -0.002629 0.443160
-0.063507 -0.250727 -0.369732
0.209500 -0.179549 0.405017
-0.225475 0.312735 -0.319584
0.237635 -0.346945 -0.280636
0.010746 -0.205112 -0.397083
-0.215536 0.432955 0.104116
0.236149 0.384141 0.223758
0.286818 0.380558 -0.234169
-0.163816 -0.352274 -0.273767
-0.220086 0.329786 -0.301920
0.188461 0.199747 -0.400338
-0.079654 0.368839 0.247927
-0.229342 -0.191100 0.399869
-0.054485 0.201001 -0.399699
0.225213 0.075209 0.436757
-0.245159 0.158973 -0.418317
-0.206973 -0.067298 -0.442202
-0.022148 -0.235678 -0.379740
0.070133 -0.441202 0.054968
-0.069752 0.151217 -0.421110
0.249585 -0.271921 -0.354309
-0.100949 0.168567 0.410213
-0.093865 0.430950 0.112051
0.153924 0.431797 -0.113490
0.128097 -0.177066 0.406092
0.167250 0.133178 -0.427258
0.104059 0.382984 -0.230067
0.156473 0.438237 0.080158
-0.088576 0.298913 -0.332633
0.107955 -0.359553 0.260029
0.007315 0.233455 0.377307
0.194727 0.443992 0.037181
0.124143 0.266156 -0.359575
0.236567 -0.167311 -0.414667
0.179781 0.412431 -0.171320
-0.280493 -0.395918 0.200456
-0.215854 -0.249013 0.366544
-0.009787 -0.186189 0.402144
-0.013337 -0.421884 -0.143260
-0.051980 -0.372342 -0.245619
-0.119851 -0.129008 0.423818
0.046915 0.056171 -0.444115
0.264142 0.164494 0.411976
-0.036065 -0.168910 -0.413974
0.253110 -0.433337 0.097821
-0.134650 0.279083 0.345195
-0.087298 0.197231 -0.401620
-0.095568 -0.036782 -0.445851
0.117010 -0.122056 -0.430191
0.158935 0.398353 0.197688
-0.272494 -0.207335 0.391597
-0.228602 -0.325555 -0.305556
0.179757 -0.015756 -0.447101
0.059778 -0.441412 0.053632
-0.193131 -0.213449 0.388481
-0.174974 -0.273388 -0.353171
-0.129760 0.363839 0.255284
0.058421 0.302483 -0.329487
0.146348 -0.227360 -0.384659
0.193033 0.387912 0.217381
0.145412 0.430616 0.113201
0.059062 -0.329951 0.296216
-0.067818 -0.075689 0.436519
-0.226760 -0.221995 0.383479
0.262084 -0.420465 0.142850
-0.157926 -0.406823 -0.181911
-0.264552 0.046286 0.440696
0.269274 -0.198877 -0.400260
0.250827 -0.281263 0.342709
0.118303 0.382442 -0.230984
0.014543 0.045454 -0.445128
-0.061021 0.324392 0.303574
0.071637 -0.051952 -0.444417
-0.180133 0.402060 -0.194766
0.212975 0.443880 -0.042720
-0.191692 -0.282456 -0.346137
0.002630 -0.129608 0.423644
-0.178111 -0.425140 0.128521
-0.176222 0.217904 -0.390857
-0.125370 -0.135886 -0.426173
-0.045512 -0.223837 0.382389
0.074235 -0.433581 -0.101086
0.002542 0.017659 0.442719
0.048759 0.162685 -0.416981
0.012559 0.443125 0.046352
0.060434 -0.316729 0.310211
0.166990 -0.323006 -0.308288
0.264606 -0.232670 -0.381519
0.187399 0.305335 0.322618
0.195837 0.390747 -0.216941
0.117574 0.172187 0.408646
0.148293 0.327050 0.300669
0.117529 0.246394 0.369020
-0.252787 0.380259 -0.234676
-0.287517 0.347200 -0.281629
0.151606 -0.310914 0.316027
0.203951 -0.422631 -0.141186
-0.047438 0.311035 0.316930
-0.008961 0.300099 -0.331588
-0.137515 -0.275836 0.346918
0.016896 -0.374020 0.238795
0.257904 0.436421 -0.092965
-0.125174 0.379853 0.231009
0.268674 -0.401755 -0.193354
-0.123123 0.398696 -0.201369
-0.262896 0.399334 -0.200116
-0.171146 0.151411 0.416686
-0.089235 -0.415355 -0.161395
0.104000 0.198629 -0.400908
-0.080937 -0.045253 0.440697
0.132571 0.280970 -0.348084
0.157888 -0.049332 -0.444665
-0.236356 0.433793 -0.104720
-0.053937 -0.083613 -0.439575
-0.060489 -0.439612 -0.069360
0.023660 0.342798 0.282807
0.267216 -0.291516 -0.338251
0.272095 0.383149 0.225435
-0.039916 -0.245955 0.368622
0.207659 0.408668 0.175662
-0.152796 0.421571 0.142622
0.005580 0.306889 0.321077
-0.226025 0.399719 0.195008
0.089437 -0.415288 0.157229
-0.036329 -0.199175 0.395754
-0.002344 0.442026 -0.060590
0.187085 -0.444700 0.004900
-0.118195 -0.253156 -0.368081
-0.026615 -0.138652 -0.425264
0.211987 -0.255188 0.362347
0.241172 -0.268583 0.352544
-0.048697 0.217184 0.386930
0.211337 0.146821 0.418339
-0.170921 0.173950 0.407884
-0.073999 -0.057052 -0.443824
0.251837 0.067813 -0.442282
-0.097855 0.275105 0.348280
-0.002015 0.244836 -0.374432
0.096208 0.180352 0.405113
0.237640 -0.432140 -0.107531
0.139566 -0.274818 -0.352061
0.056090 0.216300 0.387453
-0.054253 -0.441675 -0.055199
-0.092681 0.160426 -0.417794
-0.104899 -0.152070 -0.420434
0.215051 -0.118259 -0.431295
-0.044810 0.432284 0.107121
0.148201 -0.435290 0.089087
-0.192145 -0.438499 -0.076387
0.253429 -0.241947 -0.375699
0.179114 -0.332630 0.293177
0.044139 -0.424373 0.131163
0.271088 -0.081998 -0.439873
-0.259625 0.445873 0.000177
0.063177 -0.325382 -0.305753
-0.264329 -0.437153 0.080530
-0.196012 -0.444746 0.003433
0.245713 0.204572 -0.397880
-0.018267 -0.439791 0.063873
-0.195867 0.008519 0.443007
-0.206307 -0.093619 0.432984
-0.185284 -0.376660 -0.239028
-0.231936 0.366259 0.251724
0.018326 -0.405754 -0.184382
-0.007888 -0.216713 0.386602
-0.263072 0.393057 -0.212435
-0.201019 0.326821 0.300929
-0.133826 -0.444529 0.010342
-0.261331 0.426133 0.128633
-0.165350 0.417910 0.152792
0.162382 0.365255 0.253202
0.106568 0.097894 0.432258
-0.088241 -0.211024 -0.394070
-0.128814 0.402182 0.190173
-0.163528 -0.123397 0.425448
-0.175726 -0.342895 0.281505
-0.183274 -0.085426 0.434816
0.090079 -0.168150 -0.414303
0.058479 -0.345789 -0.282127
0.027048 -0.067397 -0.442186
-0.172501 -0.297952 -0.332578
0.036067 -0.086091 -0.439021
-0.164785 0.198427 0.396658
-0.086548 0.445013 0.026376
-0.003742 0.283805 0.341532
-0.272005 0.417256 0.154610
-0.200862 0.319450 -0.312869
-0.257042 0.046868 -0.444995
0.260043 -0.029723 0.442165
0.147244 0.440258 0.067394
0.159705 -0.398702 -0.199345
0.093283 0.369680 -0.251043
0.184648 0.147346 0.418150
0.024266 0.410237 -0.176390
0.285785 -0.434638 -0.096359
0.155862 0.411689 -0.173034
-0.077735 -0.175437 -0.411150
-0.102140 0.421881 -0.146115
-0.099475 0.437248 -0.089265
-0.096346 0.262524 -0.362393
0.283952 -0.219030 -0.389586
0.148049 0.373169 -0.245909
-0.058598 0.339334 0.286737
0.235917 -0.356921 -0.267776
-0.287122 -0.403741 -0.189033
-0.254441 -0.325913 0.300797
0.053251 -0.195347 -0.402058
0.007925 0.403171 -0.192586
0.052658 0.445727 -0.009192
-0.256190 0.325125 -0.307194
-0.179500 -0.431899 -0.108611
-0.059619 -0.378759 -0.235478
0.070483 0.130459 0.423694
-0.213979 0.093507 0.433239
0.016928 -0.354131 -0.271373
0.005246 0.143206 0.419640
-0.246206 -0.408789 0.173016
0.080570 -0.444861 -0.000205
-0.278296 -0.199031 0.395828
0.047590 0.150189 -0.421480
-0.043150 -0.059305 0.439114
-0.164578 0.151639 -0.420958
0.055786 0.351930 -0.275531
0.180656 -0.415911 -0.159850
0.133438 0.005275 -0.447462
-0.185545 -0.293569 0.332088
-0.276314 0.245834 -0.373754
0.055182 -0.213201 -0.392961
-0.135612 0.444398 0.032885
-0.211567 0.020871 -0.446972
-0.030576 0.374224 -0.244358
-0.183097 0.442748 -0.054691
-0.075822 0.322741 0.305224
0.276961 -0.420943 -0.145875
-0.157781 0.115550 -0.432379
-0.247054 0.437645 0.083136
-0.198292 -0.330427 0.295676
-0.213092 -0.366432 0.249961
0.182325 -0.055695 0.439686
0.011894 -0.055420 0.439729
0.182916 -0.082872 -0.439735
-0.125533 0.407320 0.178777
-0.155069 0.441930 -0.061195
-0.273204 0.220058 -0.389584
0.268620 0.107400 0.430133
0.017917 0.400164 -0.198487
-0.132853 -0.313289 -0.318004
0.125654 -0.333549 -0.296488
-0.199677 0.415483 -0.163888
-0.210829 -0.416945 0.152625
-0.202675 -0.368180 0.247390
-0.003797 0.230459 0.379079
-0.264963 0.017433 -0.447080
-0.274333 0.364384 -0.258837
-0.083330 -0.433889 0.095354
-0.105855 0.091772 -0.437980
0.063644 -0.125702 -0.429132
0.194329 -0.426938 0.122334
0.122873 -0.444343 0.016271
-0.167530 -0.333925 0.291708
0.236856 0.445408 0.014993
0.194318 -0.444528 -0.014731
0.167154 -0.159801 -0.417650
0.274329 -0.363332 0.254523
0.067055 -0.372979 0.240328
0.228691 -0.282961 -0.345745
-0.288504 0.133048 -0.427296
0.193490 -0.281382 -0.346970
-0.228388 -0.314869 0.312071
0.264266 0.272361 0.350409
0.025545 -0.055279 -0.444103
-0.067561 -0.363832 0.253787
-0.024944 -0.430712 -0.113697
0.221312 -0.218197 0.385725
0.246223 0.439969 -0.073577
0.232033 -0.381006 -0.231679
-0.187817 0.330425 0.296841
-0.246068 0.331014 0.296173
-0.068784 -0.424072 0.132198
0.253998 0.362286 -0.261923
0.046948 0.036682 0.441604
0.168040 0.050965 0.440254
-0.116398 0.180522 0.405040
-0.008576 0.066786 0.438091
-0.192988 -0.139338 -0.425017
0.236491 -0.276852 0.346131
0.187834 -0.170703 -0.413199
0.285453 -0.049803 0.440267
-0.144920 0.442139 -0.059876
-0.235097 -0.435652 -0.091818
-0.168952 0.267158 -0.358798
-0.011272 -0.131213 0.423177
-0.180667 -0.438002 -0.079524
0.015705 -0.226788 -0.384998
-0.208004 0.436270 -0.093641
-0.289979 0.338513 -0.292021
0.224605 -0.141802 -0.424130
0.084209 -0.054799 0.439795
-0.267276 0.444168 -0.039670
0.154757 -0.322270 -0.309024
0.080842 0.291322 -0.339326
-0.244134 -0.340681 0.284046
0.103720 -0.440233 -0.065440
0.269003 0.407494 -0.182728
-0.052744 0.395744 0.202809
0.261701 0.419222 -0.153502
-0.218426 0.444102 -0.040371
0.207919 0.425925 -0.133702
0.249028 0.437046 0.085814
-0.287322 -0.382417 0.224940
-0.218986 0.440215 0.067669
-0.107260 -0.362366 -0.260298
-0.056916 0.264654 -0.360741
0.040658 0.283716 -0.345955
-0.169962 0.344585 0.280646
-0.039305 -0.276143 -0.351034
-0.058821 -0.152181 0.416040
0.096263 -0.394295 -0.207994
-0.138873 0.380352 -0.234518
0.173494 0.389700 0.214357
0.247611 -0.317982 0.308959
0.038248 0.234952 -0.380776
-0.187068 0.400072 0.194315
-0.002341 0.236360 -0.379943
0.032276 0.249472 -0.371282
-0.087654 -0.205051 0.392760
0.191104 0.327834 -0.304134
0.086074 -0.292112 0.333372
-0.040763 -0.145023 0.418617
-0.171175 -0.365283 -0.256006
-0.109318 0.348801 -0.279565
-0.070319 0.385913 -0.225115
-0.079883 0.239788 0.373509
-0.087676 -0.296700 -0.333681
0.159923 0.411100 0.170043
-0.079488 -0.229673 0.378938
0.023765 0.390879 0.212357
-0.130287 -0.434599 0.092176
0.148944 0.300897 0.326531
0.116492 -0.426402 0.124178
-0.047394 -0.374743 0.237731
-0.054724 -0.418459 0.148422
0.097768 -0.240755 0.372156
-0.138734 0.392084 0.209992
-0.159065 -0.423840 -0.137352
0.279107 -0.174988 -0.411344
0.164066 -0.246100 -0.372876
-0.006192 -0.235872 -0.379625
-0.282384 0.154898 0.415431
0.208076 -0.213278 -0.392922
-0.059904 0.371203 -0.248803
-0.241350 -0.268273 -0.357138
-0.245179 0.388080 -0.221451
0.124936 0.444368 0.033202
0.211072 -0.396848 -0.202983
0.255728 0.401018 -0.196811
0.138813 0.072514 0.437184
-0.202009 0.053996 -0.444321
-0.068594 -0.262206 -0.361844
-0.117479 -0.000199 0.443236
0.212482 0.438576 -0.082370
0.231230 -0.418136 0.149318
0.027659 0.188534 0.401573
-0.253082 -0.442073 0.046638
0.108843 0.286349 0.339357
-0.120681 -0.312063 0.314877
0.194539 -0.400687 -0.195449
0.162933 -0.239831 0.372784
-0.250892 -0.248848 -0.371009
0.282617 -0.367400 0.248537
-0.136085 0.184322 -0.407749
0.231627 0.291630 0.334701
0.164585 -0.423228 0.135105
0.141748 0.094061 -0.437468
-0.082697 0.363214 -0.260557
0.245124 -0.435497 0.088161
0.176744 0.034241 -0.446188
-0.030047 0.137689 0.421594
0.024100 -0.317386 0.309555
-0.210365 0.258416 0.360849
0.085510 -0.304645 0.322296
-0.239209 0.031739 -0.446425
-0.017862 -0.211297 0.389578
0.030252 0.437019 0.085936
0.115489 0.135320 -0.426635
0.136025 0.445288 -0.023153
0.011332 -0.176211 -0.410815
0.246603 -0.114004 -0.432530
0.103896 0.414278 -0.167053
-0.009929 -0.162130 0.412458
-0.275344 -0.282434 0.341800
-0.094403 0.239029 0.374011
0.143215 -0.031286 0.442017
-0.272770 -0.419356 0.145931
0.081019 -0.356204 -0.268700
-0.258719 0.107093 -0.434555
0.141062 -0.182107 0.403910
-0.063652 0.405908 -0.186394
-0.179323 0.136377 0.421975
-0.134071 0.191890 0.399988
0.091518 0.409366 -0.178404
0.248802 0.211215 0.390142
-0.007439 -0.345865 0.277676
0.077830 -0.394616 0.203012
-0.213932 0.415852 0.158507
-0.079265 -0.407054 0.177024
0.123801 0.223163 -0.387747
0.198523 0.440913 -0.067616
0.016728 -0.159092 -0.417905
-0.011524 0.393866 0.206495
0.225475 -0.193205 0.398796
-0.088159 -0.327197 0.299340
-0.206850 -0.404799 0.182236
-0.189673 0.347330 0.277108
-0.154941 0.353588 -0.273394
0.283451 0.316891 0.311074
-0.231655 0.388996 0.215548
0.266796 -0.444701 0.004871
-0.287394 -0.442820 0.038739
-0.136368 0.397946 0.198487
-0.280921 -0.289675 -0.339874
0.180219 0.102365 -0.435612
0.001902 0.366045 -0.256393
0.283648 0.415589 -0.163591
0.066223 -0.155112 -0.419338
0.109264 0.432492 -0.110540
0.090600 -0.246166 -0.372831
0.212400 -0.431361 0.106664
-0.021927 -0.182878 -0.407930
-0.224740 -0.205342 -0.396965
0.273954 -0.303853 0.323022
-0.069164 -0.324197 -0.307097
0.264109 0.356095 0.265808
-0.225035 0.431070 0.111640
-0.273232 0.406166 0.181445
0.046130 0.006127 -0.447435
-0.136532 0.292159 -0.338588
0.056016 0.218779 -0.390340
-0.202503 0.382359 0.226770
-0.031240 -0.276420 0.346466
0.193311 -0.418406 0.148569
0.188844 0.021845 0.442588
-0.099265 -0.336163 0.289170
-0.235962 -0.248913 0.366611
0.177684 0.008447 -0.447362
-0.220455 -0.262857 -0.361340
-0.043970 -0.420797 -0.146281
0.161796 0.406200 0.181366
-0.244450 -0.434460 -0.097153
0.232232 0.434042 -0.103605
0.099441 0.435398 -0.097542
-0.012976 -0.299230 -0.331451
0.073661 -0.330462 0.295637
0.113759 -0.441861 -0.053239
-0.086278 0.108274 -0.434291
0.136146 -0.424430 -0.135319
-0.126239 -0.325625 0.301123
0.079046 0.442899 -0.053094
-0.288170 0.424223 -0.139561
0.146838 -0.432895 0.099799
0.184277 -0.134659 -0.426530
0.271887 -0.114885 0.427921
-0.141726 -0.304482 0.322459
0.048286 0.282989 0.342165
0.225958 0.102622 0.431201
-0.281198 -0.157893 0.413984
-0.154973 -0.344710 0.279165
0.126709 -0.439947 0.062889
-0.156311 0.439782 0.070400
-0.190842 0.445434 -0.018516
0.115641 0.182320 -0.408615
0.035320 0.445135 0.023686
0.106786 0.199628 0.396046
-0.098831 -0.420637 0.142371
0.266971 -0.422659 -0.141109
-0.201075 0.260644 -0.363689
0.116186 -0.349042 0.273580
0.014608 0.363058 -0.260788
-0.034569 -0.325037 0.301790
0.250068 -0.146176 0.418202
-0.089730 -0.444261 0.018890
-0.210939 -0.256907 0.361179
-0.119710 -0.207808 -0.395709
-0.217872 -0.335562 -0.294205
-0.064651 -0.310529 -0.320765
0.046647 0.106976 0.430228
0.082163 0.270667 0.351723
-0.188739 0.156289 -0.419284
0.237194 -0.109279 0.429484
0.053584 0.019130 0.442673
0.243740 -0.119605 0.426550
-0.150595 -0.443435 0.032227
0.089581 0.119432 -0.431251
-0.171263 0.302378 0.325226
-0.140867 0.346293 0.278445
-0.050870 0.440106 0.068355
-0.139776 0.286079 0.339595
0.160985 -0.056916 0.439493
0.079232 0.115570 -0.432373
-0.202443 0.066044 0.438209
0.138132 0.320133 -0.312185
-0.263472 0.036416 -0.445983
-0.006025 -0.415148 0.157619
-0.027203 -0.375711 0.236279
0.210058 -0.021602 0.442563
-0.169759 0.235882 -0.380226
0.239139 -0.258821 0.359878
-0.248108 -0.441383 -0.058174
-0.088210 0.122389 0.426039
0.015450 -0.221032 0.384048
-0.263023 -0.245712 -0.373140
0.274391 0.445825 -0.006085
-0.017934 -0.442695 -0.044410
0.229919 -0.363168 -0.259117
-0.144898 0.277660 -0.350652
-0.235542 -0.094217 0.432851
-0.133827 -0.250753 0.365361
0.128499 -0.332965 0.292798
-0.201855 0.279372 -0.349324
-0.018221 0.445908 -0.000916
-0.250394 -0.289854 -0.339717
-0.054668 0.445867 0.000394
-0.275361 -0.387370 -0.220918
-0.253247 0.055820 -0.444148
0.005963 -0.218110 0.385776
-0.199792 0.428912 0.119066
-0.275105 -0.377041 -0.238383
0.047878 -0.437425 -0.083168
0.025873 0.378709 0.232943
-0.128322 0.176622 -0.411081
-0.004418 -0.439263 -0.071565
-0.073325 0.384005 0.223988
0.117171 0.343203 0.282347
0.146244 -0.045411 -0.445036
-0.059493 -0.412305 -0.169242
-0.074382 0.353065 0.269715
0.282255 -0.215485 0.387329
0.040107 0.267148 -0.358806
-0.097251 0.433942 -0.104053
0.007667 0.424391 0.134626
-0.193674 0.407262 0.178912
0.145018 0.134242 0.422595
0.245651 0.146272 -0.422890
-0.036923 0.409461 0.173831
-0.042915 -0.286887 0.337979
-0.000613 -0.124150 -0.429583
0.135650 -0.080117 0.435818
0.062470 0.379850 -0.235367
-0.124481 0.198659 0.396539
0.100706 -0.294088 0.331631
0.221170 -0.187109 -0.406099
-0.055767 0.356670 -0.269420
-0.287576 -0.181419 -0.408561
0.083472 -0.440036 -0.066682
0.000758 -0.350123 0.272186
-0.070315 -0.431849 0.104480
-0.177100 0.316023 0.311942
-0.042980 0.438579 -0.082348
0.064988 0.355891 0.266071
-0.169112 -0.133874 -0.426758
0.148548 -0.442702 0.039990
0.139648 -0.022908 -0.446876
-0.073823 -0.436342 -0.088734
-0.112880 -0.130473 -0.427746
0.110925 -0.432820 -0.104490
-0.195910 0.217545 0.386716
0.025906 0.158433 0.414158
-0.284494 0.063269 -0.443002
-0.282827 0.445136 0.023633
-0.051209 0.319384 0.308581
0.284669 -0.235295 0.375613
-0.163197 0.428806 -0.123786
0.199073 0.373097 -0.246016
0.272281 0.278267 0.345828
-0.248943 0.445712 0.005328
-0.124790 0.371026 0.244709
0.108762 0.402722 -0.193467
0.286172 -0.076267 -0.440781
0.067037 -0.277783 0.345408
-0.035555 0.053209 -0.444395
0.008110 0.197671 0.397043
0.211246 0.080949 -0.440202
-0.160540 -0.397087 -0.202515
0.020616 0.243469 0.371007
-0.093417 0.036120 -0.446011
0.185959 0.397160 -0.204384
-0.231228 -0.444809 0.001452
0.129495 0.096038 -0.437026
-0.147044 0.114322 0.428382
-0.086094 0.414636 -0.166224
0.277027 -0.010460 0.442914
-0.183600 0.444259 0.034355
-0.279643 0.402246 0.190047
0.281643 -0.061214 -0.443165
0.146520 0.068401 -0.442189
-0.100807 0.407363 0.178679
-0.194229 0.292579 0.333865
0.021152 -0.273083 -0.353407
0.100755 0.445482 -0.016997
-0.170737 0.277629 -0.350676
-0.183419 0.439912 0.069582
0.134968 0.402214 -0.194463
-0.284487 -0.444170 -0.026130
0.016973 0.226014 -0.386061
-0.051509 -0.189473 -0.405051
-0.154605 0.359695 -0.265520
0.166257 0.395544 0.203201
0.002989 0.128343 -0.428663
-0.254297 0.436600 -0.092166
-0.046651 -0.359453 0.260158
0.144962 0.263652 -0.361517
-0.024165 -0.195424 -0.402019
0.272940 -0.354264 0.266848
0.022626 -0.422955 -0.140287
-0.168821 -0.345299 -0.282759
0.092582 0.445851 -0.005232
0.127694 0.135402 0.422258
-0.254964 -0.071639 -0.441514
-0.098366 -0.412514 0.164406
0.198265 0.332795 -0.298507
-0.049084 -0.399381 0.193659
-0.084711 -0.000269 0.443234
-0.258501 -0.444674 -0.010080
-0.116426 -0.413528 0.162064
-0.140574 0.161234 0.413150
0.114394 0.434612 -0.101055
0.272821 -0.253513 0.363485
0.258997 0.209453 -0.395393
0.088818 0.247030 -0.372941
0.199797 -0.104709 -0.434859
0.204092 -0.425145 0.128505
0.145493 0.358022 -0.267677
0.025189 0.013598 -0.447201
0.162472 0.109336 0.429700
0.243990 0.307913 -0.324405
0.003164 -0.212649 -0.393242
0.201949 -0.280752 0.343105
-0.007369 -0.444379 -0.019468
-0.227295 -0.114747 -0.432315
0.207786 -0.144237 0.418900
-0.188395 0.166981 -0.415253
-0.048848 -0.427672 -0.124161
-0.087044 0.355529 -0.270891
0.178574 -0.313378 0.313562
0.286161 -0.147926 -0.421926
0.024620 -0.285860 0.338885
0.246890 0.068958 0.437748
0.058355 0.287597 -0.342610
0.191315 0.262390 0.358143
0.048831 -0.181033 -0.408729
-0.042924 -0.427799 0.119372
0.092541 0.089291 0.434181
0.264921 0.011747 0.442905
0.213608 0.323947 -0.308371
0.249263 0.002597 -0.447546
-0.079071 0.134814 0.422429
-0.063377 0.440672 0.064781
-0.212665 0.113925 0.428498
-0.123916 -0.373382 0.239735
0.073539 -0.260161 -0.363321
0.153868 -0.092343 -0.437623
-0.216176 0.377151 0.235576
-0.042479 -0.436275 0.084679
0.111517 -0.142753 0.419434
0.144619 -0.444177 0.021561
-0.152126 0.236409 -0.379914
0.004530 -0.248202 -0.371448
-0.126072 0.065879 -0.442589
0.189491 -0.238648 0.373587
0.218853 -0.415756 -0.160281
0.027516 0.445220 -0.025330
0.215853 -0.008002 -0.447344
0.023530 0.182891 -0.408368
0.034754 -0.269134 -0.356471
-0.268233 -0.004647 0.443096
0.011624 0.284265 0.341175
0.187099 0.373971 -0.244729
-0.265584 0.326887 -0.305208
0.231496 0.325922 0.301949
-0.196159 -0.227043 0.380493
-0.105758 0.093069 0.433336
-0.084870 0.187612 -0.406325
-0.037634 0.347377 0.277048
0.171447 -0.293916 -0.336135
-0.148613 -0.361853 0.256700
0.076560 0.005243 -0.447463
-0.070504 0.175933 0.407026
-0.113829 0.445769 -0.007854
-0.268302 -0.438990 0.068934
-0.214843 0.433752 -0.104903
0.069205 0.349477 -0.278694
0.101187 -0.188959 0.400945
0.256259 -0.209886 -0.394650
-0.271055 -0.290359 -0.339271
-0.183697 -0.180663 0.404535
0.285324 0.411358 -0.173799
0.120401 0.247233 -0.372803
-0.272125 -0.300586 -0.330255
-0.220813 -0.081951 0.435527
-0.252207 0.286366 0.339342
-0.056396 0.331280 0.295872
-0.276270 0.092414 0.433483
0.197075 0.186034 0.402654
-0.288747 -0.431227 0.107261
-0.048228 0.393863 -0.210853
-0.097163 -0.442691 -0.044453
-0.098130 0.443686 0.040422
-0.285963 0.381722 -0.232201
0.080590 -0.444519 -0.015026
0.097459 -0.412087 0.165393
0.072082 0.425781 0.129844
-0.239485 -0.352803 0.268731
0.013493 -0.018265 -0.447022
0.235329 -0.437516 0.078237
-0.156171 0.168676 0.410166
0.099151 0.335147 -0.295839
0.169158 0.432986 0.103978
-0.134704 0.005206 0.443111
0.154048 -0.441381 -0.058188
-0.097494 -0.063514 0.438447
0.286392 0.037442 0.441532
-0.050357 0.012098 -0.447248
-0.093936 0.342718 0.282897
-0.249677 -0.311818 0.315122
0.132392 -0.085256 -0.439207
0.047554 -0.195769 0.397490
0.152522 -0.206311 0.392118
-0.095726 0.129215 -0.428409
-0.273180 0.334590 0.292117
-0.276807 0.181507 0.404614
-0.072629 0.443100 0.046617
0.209599 -0.391537 0.209053
-0.201339 -0.065058 0.438203
0.155430 -0.200818 -0.399270
-0.123325 -0.444772 0.002630
-0.025084 0.445657 -0.011425
0.090471 -0.444644 -0.011043
-0.041196 0.257810 -0.365615
-0.280433 -0.361532 -0.261524
0.168714 0.208631 -0.395812
0.220619 -0.429092 0.114921
-0.289021 0.428490 -0.124872
-0.098110 -0.406377 0.178589
0.111181 0.120498 0.426588
0.147492 0.396340 0.201638
-0.256683 -0.444688 0.005277
0.055369 -0.430476 -0.114510
0.201764 -0.360716 -0.262726
-0.184538 0.419478 0.148437
0.202230 0.077495 0.436395
-0.242992 -0.394008 -0.208558
0.129982 -0.435711 -0.091557
0.024580 -0.229042 0.379311
-0.114875 -0.435097 0.089950
0.225665 0.423534 -0.141524
0.130182 -0.426787 0.122853
0.229610 -0.385830 -0.223522
0.013449 0.064402 0.438469
-0.217326 0.252191 0.365080
-0.092069 0.225257 -0.386509
-0.187513 0.392726 0.208731
-0.288447 -0.203638 0.393480
-0.237319 0.194423 0.398698
-0.239928 0.102854 0.431149
0.065971 -0.292069 0.333410
-0.010374 0.125394 0.425166
0.192735 -0.288887 -0.340569
0.113383 -0.325372 0.301410
-0.035265 0.419985 -0.151383
-0.036212 0.018782 -0.447038
0.023188 0.424109 -0.139926
-0.025205 0.445342 -0.021454
-0.152643 0.445489 0.012416
-0.171445 -0.186286 0.402102
0.177518 0.444624 0.030493
-0.085403 -0.085533 0.434792
0.162005 -0.178384 0.405521
0.210648 -0.215284 0.387448
0.050463 -0.374444 0.238172
-0.166726 -0.232813 -0.381434
-0.275322 -0.223341 0.382683
0.131235 -0.101063 0.431321
-0.287788 0.182046 -0.408734
-0.267094 -0.438348 -0.077336
0.246977 -0.063601 0.438434
0.105999 0.443937 0.037764
-0.094027 0.306604 -0.325715
-0.118644 0.250397 0.366299
0.232258 0.440058 0.068657
0.100237 0.238097 -0.378915
-0.272364 0.130052 0.423813
0.002402 -0.381218 0.226967
0.149842 0.320553 -0.311766
-0.042561 0.445284 -0.023302
0.203287 -0.318976 -0.312317
0.140550 -0.244480 -0.373977
0.072480 -0.329717 -0.300836
0.067216 0.208660 -0.395797
0.262993 0.432928 -0.108593
-0.271118 0.152382 -0.420690
-0.259478 0.373886 0.240501
-0.060222 0.420816 -0.149073
0.031695 0.053355 -0.444381
-0.192388 0.384327 -0.227796
-0.196088 -0.352359 0.269303
0.246244 0.114020 -0.432824
0.056435 -0.169084 0.409546
0.111654 -0.233878 0.376451
-0.201306 -0.193223 -0.403140
-0.154948 0.419236 -0.153462
0.123545 -0.442182 -0.049838
0.177600 -0.135709 0.421871
0.158980 -0.437179 -0.084720
0.245397 -0.428300 -0.121999
-0.070123 0.370330 0.245734
0.051490 0.445124 0.024022
0.099194 0.122469 -0.430369
0.057081 0.040727 0.441222
-0.151616 -0.146814 0.417973
-0.099017 0.334713 0.291977
0.259209 -0.298381 0.327846
0.123307 0.376049 -0.241672
0.252871 0.434859 0.095600
-0.037957 0.012755 0.442874
-0.127211 -0.401141 0.190204
-0.282368 -0.363212 0.254699
-0.086868 -0.324236 -0.307052
-0.178436 -0.416184 -0.159094
0.275219 0.430291 -0.118672
-0.280990 -0.263534 -0.360814
0.122201 0.043932 0.440919
0.281279 0.423130 -0.142647
0.209922 0.444601 0.030735
-0.156598 -0.438779 -0.074616
0.199000 -0.306468 0.320472
-0.115696 -0.146474 -0.422448
0.228600 0.271523 0.351059
-0.260530 0.442101 -0.060115
-0.063966 0.410979 0.170323
0.047451 -0.439212 -0.071884
0.108123 -0.395669 0.200944
0.042764 0.439401 0.072808
0.233218 0.445417 -0.019051
0.286726 0.300919 -0.330865
-0.251346 -0.380435 0.228291
-0.119844 0.444345 -0.037799
-0.123608 0.307064 -0.325254
-0.068423 -0.218338 -0.389995
0.006078 -0.426152 -0.129393
0.082534 -0.256600 0.361387
-0.159565 -0.268332 0.352740
0.116545 -0.390962 0.210183
-0.001712 -0.048387 -0.444754
-0.066032 -0.140753 0.420155
0.215018 -0.305217 -0.326076
-0.135721 -0.363017 -0.259340
0.134510 0.025343 -0.446831
0.244201 -0.394365 0.203503
-0.122810 -0.376182 -0.239836
-0.064097 0.434217 -0.102824
0.040421 -0.039982 0.441195
-0.206649 0.357320 -0.268582
0.205752 0.157885 0.414356
-0.163042 -0.443044 -0.040725
0.024288 0.445189 0.021960
0.040875 0.399168 -0.200441
0.170513 -0.337397 0.287771
-0.257699 0.230265 0.379194
-0.166157 0.140998 0.420435
-0.253823 -0.240402 -0.376748
0.006549 0.156141 -0.419337
0.257583 -0.390224 0.211630
-0.288298 -0.002910 -0.447504
-0.201827 -0.400038 -0.196723
-0.275411 -0.426642 0.123352
-0.089862 0.391562 -0.215370
0.285536 -0.405746 0.180047
0.053563 0.344586 0.280646
0.089567 -0.367567 0.248291
0.202729 -0.437439 -0.083080
0.221659 -0.441828 -0.053589
-0.278501 0.414578 -0.166359
0.044631 -0.417702 -0.154878
-0.224095 0.027832 -0.446753
-0.127974 0.328403 -0.303488
0.282743 0.248462 0.367614
0.072416 0.151974 -0.420837
0.175935 0.437211 -0.089429
0.065205 -0.440253 -0.065312
0.069014 0.404110 0.186195
0.051381 -0.398732 0.194932
0.225455 0.081063 -0.440184
-0.195700 -0.310754 -0.320540
-0.067145 0.375649 0.237907
-0.014469 0.409325 0.174144
-0.158334 0.148263 0.417820
-0.207988 -0.323653 0.303288
-0.009173 -0.365277 0.251661
0.035564 0.110673 0.429401
0.059389 0.374673 -0.243696
0.116213 0.064095 -0.442871
0.090915 0.376898 -0.240358
0.232054 -0.066747 -0.442289
-0.083066 -0.440461 0.059644
-0.162003 0.347460 -0.281294
0.275651 0.443083 -0.051148
-0.177858 0.287943 -0.342305
-0.166966 0.126435 -0.429217
-0.113494 -0.444094 0.024193
0.124359 0.232648 0.377785
-0.071866 -0.197060 0.396832
-0.232053 0.104399 -0.435157
0.171629 0.020350 -0.446988
0.167163 0.299627 -0.332004
-0.012227 -0.431094 0.107860
-0.031706 -0.313623 -0.317670
-0.206198 0.338728 0.287423
0.279773 -0.107999 0.429770
0.003259 -0.181552 0.404150
0.032673 0.117199 -0.431900
-0.186171 -0.432812 0.100173
-0.095799 -0.200214 0.395225
0.092861 -0.357810 -0.266630
-0.185503 0.083990 0.435366
0.177795 0.281439 -0.347720
-0.134835 -0.172261 0.408171
-0.000315 0.006426 -0.447426
-0.250259 0.442896 0.048774
-0.038148 0.166094 -0.415636
0.251569 0.410313 0.171862
-0.006664 0.311413 -0.320905
-0.196945 0.127696 -0.428850
0.233796 0.301690 -0.330185
-0.285604 0.324187 0.303778
-0.016481 -0.373943 -0.243263
0.123784 -0.320444 0.306496
0.193715 -0.315439 -0.315854
-0.278348 -0.443366 0.032960
-0.289506 -0.443557 -0.035292
-0.034021 0.156920 -0.419056
0.102959 -0.365753 0.250961
-0.232713 -0.431313 0.106878
0.227479 0.086715 0.434757
-0.124171 -0.423899 0.132793
-0.083766 -0.406885 -0.181769
-0.006316 -0.333137 -0.296957
-0.058723 -0.038353 -0.445703
-0.277937 -0.438041 0.074922
0.101466 -0.437696 0.077102
0.017963 0.102717 -0.435533
-0.242330 -0.339459 -0.289785
-0.109997 0.443932 -0.042172
0.229635 0.389954 -0.218282
-0.273884 0.086586 -0.439139
-0.197754 -0.388375 -0.219219
-0.286741 -0.137105 0.421466
0.118548 -0.440559 -0.063380
-0.149160 -0.017206 -0.447055
0.127810 -0.169077 -0.413902
0.153224 0.061172 -0.443334
0.203514 0.014918 -0.447159
-0.234893 0.445369 -0.020596
-0.208590 -0.035314 0.441637
-0.140882 0.066045 -0.442562
-0.087763 0.218126 0.386373
-0.193548 0.385870 0.220834
0.286805 -0.443202 -0.039046
-0.210942 0.399457 0.195522
-0.021894 -0.427533 -0.124639
0.118515 -0.430500 0.110075
-0.191696 0.197253 -0.401609
0.043426 -0.169963 -0.413519
-0.187479 0.229072 -0.384253
0.253000 0.039161 0.441370
-0.083968 0.265804 -0.359849
0.036990 0.428854 0.119265
-0.278769 -0.022044 0.442549
0.097470 0.424162 0.135416
0.011402 -0.074884 0.436647
0.189632 0.443686 -0.044765
-0.244852 0.348605 0.275464
0.220192 -0.356279 0.264250
-0.063789 0.041930 -0.445461
-0.155184 -0.415003 0.158020
-0.187299 -0.209742 -0.394723
0.071199 0.277614 0.346334
-0.262628 0.127958 0.424421
-0.148067 -0.376959 0.234168
-0.101091 0.389255 -0.219464
0.008500 0.286510 -0.343568
0.016533 -0.298858 0.327426
0.234054 0.095119 0.432878
-0.254028 0.068873 0.437761
0.159549 0.238044 -0.378947
0.077898 0.410179 0.172172
0.212268 0.356987 -0.269011
0.044091 -0.206683 0.391928
0.167019 0.267719 0.354010
0.026068 0.444532 -0.035819
-0.091684 0.264382 0.356598
-0.281597 0.435893 0.090972
-0.207572 -0.230950 -0.382536
0.281359 -0.382583 0.224659
0.106988 0.169120 0.409974
0.142676 -0.401129 -0.194581
-0.215223 0.445181 -0.026551
-0.135743 -0.158671 -0.418057
-0.172948 0.444690 0.029795
-0.168898 -0.402987 -0.190775
-0.065373 0.186804 -0.406674
-0.098229 0.152096 0.416440
-0.192014 -0.367620 0.248214
0.108330 0.349285 0.274588
-0.014572 0.226100 -0.386010
0.121727 0.304475 -0.327730
0.060534 -0.444529 -0.014715
-0.219905 -0.023770 0.442495
-0.125062 -0.137294 0.421400
0.222692 -0.289838 -0.339731
-0.026416 -0.343615 -0.284930
0.267763 0.443573 0.041613
0.033337 -0.305896 -0.325397
0.215355 0.231126 0.378684
-0.031817 -0.006780 -0.447383
-0.165693 -0.073459 0.436872
0.128220 -0.406337 0.178681
0.247941 0.442255 -0.059143
0.122486 0.376734 0.236283
-0.033495 -0.397396 0.197556
-0.236814 0.114496 -0.432685
-0.021511 -0.414680 0.158916
-0.153561 0.016444 -0.447111
0.109149 0.374362 0.239800
-0.035118 0.379970 0.230810
-0.230736 -0.023849 0.442493
0.262075 -0.192226 -0.403648
0.029961 -0.343451 0.280788
0.136246 0.445680 0.006318
0.283037 -0.269246 0.352030
0.062959 -0.406685 -0.182231
-0.045359 -0.435552 -0.092267
0.132587 0.380306 -0.234595
0.011864 -0.320191 0.306749
-0.036975 -0.369033 -0.250487
-0.137580 -0.439878 0.063325
-0.111090 -0.213342 -0.392889
-0.109210 -0.298607 0.327647
-0.019107 -0.002953 -0.447503
0.186333 0.406941 0.179653
0.198954 0.297154 -0.334184
0.168396 -0.405309 -0.185410
0.193530 0.381456 0.228298
0.180517 -0.281138 0.342806
-0.062954 -0.205096 0.392737
-0.022621 -0.434895 -0.095205
-0.206359 -0.409352 0.171713
-0.239733 0.286551 -0.343532
0.146746 0.050117 0.440334
0.173949 -0.042225 -0.445337
-0.132337 0.385958 0.220685
0.063712 -0.381114 -0.231497
0.248375 0.149180 0.417490
-0.062652 0.355168 0.267003
0.103666 0.218199 0.386329
0.058748 -0.386127 0.218667
0.047508 -0.426024 -0.129832
0.226751 0.226294 -0.385895
0.123567 -0.433712 -0.100497
-0.126177 -0.430838 0.108909
-0.261112 -0.409332 -0.176115
0.050391 -0.062496 -0.442962
-0.232228 -0.409777 0.170731
0.115786 -0.405498 0.180620
0.004280 0.338158 0.288070
-0.220759 -0.112139 0.428719
-0.018095 -0.286596 0.338236
0.232016 -0.440881 -0.061344
0.132167 0.308534 -0.323785
0.283956 -0.437881 0.075931
-0.243358 0.103472 -0.435365
0.113287 0.272246 0.350498
0.012229 0.295501 -0.335642
0.069856 -0.444360 -0.020089
-0.132884 -0.416291 0.154444
0.264438 0.059027 0.439320
-0.284342 -0.072798 -0.441330
0.236846 -0.289344 -0.340166
0.056423 -0.014115 -0.447152
-0.034806 0.211198 -0.394504
-0.064834 -0.235295 0.375613
0.233735 -0.121658 0.425954
0.117022 0.216508 0.387330
0.238736 -0.249563 0.366170
-0.286844 -0.345993 0.277511
0.013871 -0.186783 -0.406240
0.168886 0.442275 -0.059016
-0.013187 0.363171 0.256268
0.181811 -0.097077 -0.436565
-0.020577 0.262927 0.357727
-0.088157 0.121842 -0.430551
-0.092696 0.387669 0.217792
0.075332 0.162194 -0.417158
0.134067 -0.444167 0.021857
-0.057444 -0.220272 0.384498
0.233613 0.435677 0.091938
0.249889 -0.145833 -0.422679
-0.229226 0.037257 -0.445903
-0.268610 -0.412405 0.164658
-0.265511 0.386395 0.219947
-0.038388 0.391742 -0.215017
0.035948 0.417817 -0.157405
0.269727 0.195271 -0.402619
-0.169292 -0.407211 -0.181015
0.016823 -0.387788 -0.220211
-0.201163 -0.104135 0.430634
0.029921 0.267815 -0.358288
-0.156720 0.407230 -0.183340
0.160443 0.186509 -0.406802
-0.006027 -0.278967 0.344490
0.222625 -0.298588 -0.332016
0.070978 -0.273138 -0.353365
0.237045 0.264199 0.356740
0.047192 0.404896 0.184379
0.093956 -0.439848 0.063513
-0.060218 0.098122 -0.436560
0.024131 0.298375 -0.333108
-0.177474 0.437782 0.082521
0.101964 -0.151418 0.416315
0.266414 -0.339127 0.285809
-0.090671 0.055143 0.439859
-0.186916 -0.331721 0.294209
0.005514 -0.433259 -0.102527
-0.290288 -0.024961 -0.464966
-0.290288 -0.268936 0.364950
-0.290288 0.063436 -0.473375
-0.290288 -0.461542 -0.045026
-0.290288 -0.232552 -0.420935
-0.290288 -0.205784 -0.410084
-0.290288 -0.093636 -0.477955
-0.290288 0.394436 0.221546
-0.290288 0.303655 -0.357353
-0.290288 0.219405 0.410589
-0.290288 -0.127973 0.425708
-0.290288 -0.447789 -0.025188
-0.290288 0.471771 -0.024417
-0.290288 0.421576 -0.150199
-0.290288 0.362034 -0.263966
-0.290288 -0.413726 -0.238376
-0.290288 0.365505 -0.302205
-0.290288 0.453501 -0.157462
-0.290288 0.064827 -0.464793
-0.290288 -0.399326 -0.222973
-0.290288 0.462122 -0.025896
-0.290288 0.210436 0.424400
-0.290288 -0.342850 0.345760
-0.290288 0.433138 -0.140001
-0.290288 0.404033 0.241115
-0.290288 -0.444458 -0.076831
-0.290288 -0.247986 -0.390664
-0.290288 -0.455774 -0.070556
-0.290288 -0.479506 0.016052
-0.290288 0.408150 -0.250546
-0.290288 0.260453 0.379394
-0.290288 0.383057 -0.303197
-0.290288 0.181345 0.440423
-0.290288 -0.488019 0.067942
-0.290288 0.370501 -0.250051
-0.290288 -0.301399 0.331134
-0.290288 0.303717 -0.354167
-0.290288 -0.104312 -0.438664
-0.290288 0.332720 -0.344744
-0.290288 0.484206 0.049215
-0.290288 0.471216 0.052668
-0.290288 -0.484430 0.104872
-0.290288 0.233685 -0.441929
-0.290288 0.217593 -0.402549
-0.290288 -0.148745 -0.450406
-0.290288 0.124425 0.427957
-0.290288 -0.438720 0.072852
-0.290288 0.287113 -0.348578
-0.290288 -0.437742 0.214092
-0.290288 0.448828 0.066085
-0.290288 0.213379 0.447879
-0.290288 -0.199823 -0.425591
-0.290288 0.197820 0.444369
-0.290288 0.462751 -0.122758
-0.290288 0.318302 0.345925
-0.290288 0.271189 -0.368549
-0.290288 -0.456975 -0.175687
-0.290288 0.398627 0.261051
-0.290288 0.449682 -0.196288
-0.290288 -0.126494 0.429228
-0.290288 -0.336655 0.354969
-0.290288 -0.461169 0.016782
-0.290288 -0.486605 -0.049677
-0.290288 -0.164162 0.462487
-0.290288 0.314567 -0.334361
-0.290288 -0.149113 -0.445353
-0.290288 -0.423483 -0.184377
-0.290288 0.415162 0.169689
-0.290288 -0.316110 0.352189
-0.290288 -0.422006 0.170990
-0.290288 0.426081 -0.227227
-0.290288 0.330409 -0.318387
-0.290288 -0.072527 -0.485226
-0.290288 -0.009683 0.465534
-0.290288 0.393222 0.213912
-0.290288 0.433522 0.182648
-0.290288 -0.281365 -0.347360
-0.290288 0.408844 -0.261794
-0.290288 0.270411 0.405029
-0.290288 0.151047 -0.430324
-0.290288 0.311737 -0.362674
-0.290288 0.283822 0.346598
-0.290288 0.357853 -0.313352
-0.290288 0.441848 0.228243
-0.290288 -0.363958 0.335492
-0.290288 -0.180039 0.461929
-0.290288 -0.091903 0.472589
-0.290288 -0.050145 0.493231
-0.290288 -0.460752 -0.130607
-0.290288 0.468822 0.152865
-0.290288 0.420034 0.150964
-0.290288 0.282494 -0.357820
-0.290288 0.418407 -0.210512
-0.290288 0.046312 0.455913
-0.290288 0.122838 0.433697
-0.290288 0.188903 -0.420096
-0.290288 0.089144 0.434831
-0.290288 -0.418176 -0.270945
-0.290288 -0.342644 0.358274
-0.290288 -0.334000 0.328244
-0.290288 0.139873 0.435605
-0.290288 -0.177216 0.459420
-0.290288 -0.318131 -0.374870
-0.290288 -0.430641 0.111420
-0.290288 0.310263 0.378705
-0.290288 0.297349 -0.366625
-0.290288 -0.416685 0.237314
-0.290288 -0.444323 -0.213812
-0.290288 0.052234 -0.444828
-0.290288 -0.457625 -0.182573
-0.290288 -0.065161 -0.495268
-0.290288 -0.422813 -0.249329
-0.290288 0.439188 -0.147361
-0.290288 0.221853 -0.401164
-0.290288 -0.460959 -0.008062
-0.290288 -0.241696 0.409676
-0.290288 -0.476684 -0.141757
-0.290288 -0.400923 0.252551
-0.290288 0.474291 -0.045364
-0.290288 0.357543 -0.286003
-0.290288 -0.457290 0.016992
-0.290288 0.105305 0.472224
-0.290288 0.436397 0.189551
-0.290288 -0.441652 -0.230045
-0.290288 -0.415014 0.176160
-0.290288 -0.431437 0.121819
-0.290288 -0.271711 0.396346
-0.290288 -0.303445 0.361577
-0.290288 -0.394605 0.244995
-0.290288 -0.438111 -0.096535
-0.290288 -0.440895 0.157700
-0.290288 0.060364 -0.453658
-0.290288 0.170893 0.442907
-0.290288 0.339906 0.330114
-0.290288 0.397411 -0.215018
-0.290288 0.473538 -0.090398
-0.290288 -0.061324 -0.448697
-0.290288 -0.477777 0.094695
-0.290288 0.283826 -0.375697
-0.290288 -0.368134 -0.310923
-0.290288 0.009253 -0.484051
-0.290288 0.422852 -0.222490
-0.290288 0.117982 -0.439744
-0.290288 0.201372 0.408552
-0.290288 0.360555 0.321236
-0.290288 -0.323035 -0.363153
-0.290288 -0.040536 -0.483786
-0.290288 -0.071398 -0.455626
-0.290288 0.047600 0.470569
-0.290288 -0.269504 -0.366067
-0.290288 -0.190538 -0.439152
-0.290288 -0.309198 0.355203
-0.290288 -0.483913 0.032796
-0.290288 0.078131 0.470099
-0.290288 0.250308 0.404637
-0.290288 0.121054 0.463028
-0.290288 0.418744 0.237881
-0.290288 0.327314 -0.313212
-0.290288 -0.473390 0.150517
-0.290288 -0.362762 0.281753
-0.290288 0.363783 -0.296345
-0.290288 -0.294353 -0.390310
-0.290288 -0.352869 0.322244
-0.290288 -0.342709 -0.361155
-0.290288 -0.230529 -0.423336
-0.290288 0.443884 -0.046717
-0.290288 -0.074362 0.465201
-0.290288 -0.023735 0.483680
-0.290288 -0.381495 0.308976
-0.290288 0.463393 -0.040462
-0.290288 0.446854 -0.061140
-0.290288 -0.118414 0.481412
-0.290288 0.051243 -0.496412
-0.290288 -0.467406 0.058378
-0.290288 -0.186001 -0.458352
-0.290288 0.422274 0.208048
-0.290288 0.346352 -0.345821
-0.290288 0.016786 0.470917
-0.290288 0.325501 -0.335569
-0.290288 0.347933 -0.341064
-0.290288 -0.162812 -0.422461
-0.290288 -0.385848 0.235560
-0.290288 0.206143 0.442593
-0.290288 0.268416 0.392246
-0.290288 0.431150 0.179887
-0.290288 -0.347536 0.315945
-0.290288 0.267103 0.418157
-0.290288 -0.441406 0.065802
-0.290288 -0.403474 0.210260
-0.290288 0.152141 0.456792
-0.290288 -0.301639 -0.372241
-0.290288 -0.431239 0.135203
-0.290288 -0.109256 0.457921
-0.290288 -0.147188 -0.439356
-0.290288 0.361912 -0.291522
-0.290288 -0.254052 -0.384786
-0.290288 -0.489658 0.031084
-0.290288 -0.270374 0.370841
-0.290288 0.380418 -0.311791
-0.290288 0.269489 -0.384244
-0.290288 -0.428825 -0.223473
-0.290288 0.402215 -0.237104
-0.290288 0.301202 0.394647
-0.290288 -0.456853 0.031779
-0.290288 0.480916 0.126590
-0.290288 0.398978 0.293884
-0.290288 0.042585 -0.476335
-0.290288 0.398214 -0.225035
-0.290288 -0.161218 0.442177
-0.290288 0.432786 -0.145600
-0.290288 0.457216 0.007164
-0.290288 0.366988 -0.317019
-0.290288 -0.444718 -0.161475
-0.290288 0.450452 0.181413
-0.290288 -0.233311 -0.411887
-0.290288 0.322331 -0.357921
-0.290288 0.452425 0.026124
-0.290288 0.208870 0.440572
-0.290288 0.258758 -0.418859
-0.290288 0.458656 0.068010
-0.290288 -0.232051 -0.406060
-0.290288 0.351349 -0.328818
-0.290288 -0.264086 -0.415839
-0.290288 -0.412602 0.265636
-0.290288 -0.414449 -0.261921
-0.290288 0.413299 -0.259449
-0.290288 0.132519 -0.439353
-0.290288 0.368461 0.333507
-0.290288 0.377013 -0.270576
-0.290288 0.306719 0.349824
-0.290288 -0.332953 0.351470
-0.290288 -0.410954 0.238858
-0.290288 0.188227 -0.416322
-0.290288 0.245674 0.379635
-0.290288 0.161816 -0.446949
-0.290288 0.218517 -0.430884
-0.290288 0.358975 -0.306398
-0.290288 -0.449942 0.151755
-0.290288 0.171921 -0.435900
-0.290288 0.344976 0.314660
-0.290288 0.466089 -0.020520
-0.290288 -0.050866 -0.447751
-0.290288 -0.088738 0.434890
-0.290288 0.476115 -0.056155
-0.290288 -0.431673 0.199271
-0.290288 -0.193417 0.425618
-0.290288 -0.380288 0.299453
-0.290288 0.298022 -0.391074
-0.290288 0.243386 0.404529
-0.290288 0.369951 -0.289738
-0.290288 0.412848 0.231212
-0.290288 0.425563 -0.185727
-0.290288 -0.309536 -0.338784
-0.290288 0.462125 0.165661
-0.290288 0.447570 0.178282
-0.290288 0.317779 0.380758
-0.290288 0.170795 0.429634
-0.290288 -0.403883 0.240944
-0.290288 0.464929 -0.156912
-0.290288 0.269122 -0.377183
-0.290288 0.371250 0.265664
-0.290288 -0.183074 -0.456361
-0.290288 -0.309414 0.321788
-0.290288 0.325969 0.302563
-0.290288 0.237207 -0.423635
-0.290288 -0.127137 -0.464821
-0.290288 0.429009 -0.255856
-0.290288 -0.380703 -0.279762
-0.290288 -0.359828 -0.274014
-0.290288 -0.361233 0.304913
-0.290288 0.380436 0.306526
-0.290288 0.109659 -0.440129
-0.290288 0.102195 0.471339
-0.290288 0.307797 -0.345479
-0.290288 -0.370962 0.293537
-0.290288 -0.230382 0.400301
-0.290288 -0.091311 -0.470153
-0.290288 -0.127792 0.455891
-0.290288 -0.476395 0.045283
-0.290288 0.151740 -0.451392
-0.290288 0.448747 -0.025947
-0.290288 0.256787 0.373731
-0.290288 -0.389405 -0.269769
-0.290288 0.011702 0.481930
-0.290288 0.478013 0.082193
-0.290288 -0.137991 0.474365
-0.290288 -0.107054 -0.476119
-0.290288 -0.278337 -0.393810
-0.290288 -0.439286 0.069112
-0.290288 0.261796 0.397682
-0.290288 0.452136 0.097472
-0.290288 0.430697 -0.119897
-0.290288 -0.208225 0.442737
-0.290288 -0.377480 -0.247853
-0.290288 -0.087766 0.457390
-0.290288 0.113048 -0.433653
-0.290288 -0.448276 0.144762
-0.290288 -0.240253 -0.378771
-0.290288 0.369746 -0.304691
-0.290288 0.013980 -0.449361
-0.290288 -0.157641 -0.459170
-0.290288 -0.412549 0.205889
-0.290288 -0.385093 -0.308094
-0.290288 -0.009718 0.457747
-0.290288 0.129515 0.470511
-0.290288 -0.211795 0.425963
-0.290288 0.447827 0.018429
-0.290288 0.449687 0.136500
-0.290288 -0.021856 0.458602
-0.290288 0.206900 -0.421554
-0.290288 -0.354247 0.330285
-0.290288 -0.142027 0.431496
-0.290288 -0.052096 0.466737
-0.290288 0.437104 0.087661
-0.290288 0.449353 -0.064027
-0.290288 -0.279933 0.399876
-0.290288 -0.383770 0.282561
-0.290288 0.452873 0.173010
-0.290288 -0.327098 0.336047
-0.290288 0.411722 -0.235579
-0.290288 -0.496193 -0.004924
-0.290288 -0.271537 0.350449
-0.290288 -0.234203 0.392628
-0.290288 0.440964 -0.227615
-0.290288 -0.488027 0.046541
-0.290288 0.451162 0.077896
-0.290288 0.016543 -0.482988
-0.290288 -0.207751 -0.439389
-0.290288 0.101654 0.451234
-0.290288 -0.179536 0.425875
-0.290288 -0.093693 0.462752
-0.290288 -0.173645 0.442387
-0.290288 -0.174447 0.458205
-0.290288 0.224499 0.433067
-0.290288 0.005369 0.455999
-0.290288 0.440153 -0.211320
-0.290288 0.134768 0.435909
-0.290288 -0.452168 -0.093867
-0.290288 0.323447 -0.381112
-0.290288 0.470503 0.063608
-0.290288 0.434089 -0.166265
-0.290288 0.339498 -0.311436
-0.290288 0.367657 -0.330114
-0.290288 -0.388832 0.304259
-0.290288 0.405719 -0.272552
-0.290288 -0.444990 -0.100028
-0.290288 -0.473444 -0.094701
-0.290288 0.168351 0.412604
-0.290288 0.420114 -0.199019
-0.290288 -0.454517 -0.009293
-0.290288 0.063228 0.486837
-0.290288 0.196229 -0.443232
-0.290288 -0.359907 -0.265371
-0.290288 -0.215718 0.425736
-0.290288 0.401946 -0.197235
-0.290288 -0.284209 -0.399679
-0.290288 -0.119557 -0.471483
-0.290288 0.469388 0.055911
-0.290288 -0.482524 -0.016768
-0.290288 0.438772 -0.121205
-0.290288 0.409360 -0.204618
-0.290288 0.132486 0.452700
-0.290288 -0.156910 0.440089
-0.290288 0.430730 0.234034
-0.290288 -0.394453 -0.215817
-0.290288 -0.482991 0.088648
-0.290288 0.453837 0.131505
-0.290288 0.163266 -0.433650
-0.290288 -0.305208 0.387714
-0.290288 -0.488637 0.090424
-0.290288 -0.347710 -0.336653
-0.290288 -0.463752 0.079024
-0.290288 -0.309604 -0.324741
-0.290288 0.042697 -0.496406
-0.290288 -0.073865 0.458376
-0.290288 -0.264922 -0.375327
-0.290288 0.283741 -0.360935
-0.290288 0.497600 0.003731
-0.290288 -0.244975 -0.420563
-0.290288 -0.362590 -0.324990
-0.290288 0.346946 0.338997
-0.290288 0.098363 0.472964
-0.290288 0.395057 0.267912
-0.290288 0.428981 0.153549
-0.290288 0.089673 -0.448991
-0.290288 -0.044994 0.449954
-0.290288 0.459304 -0.093463
-0.290288 -0.041839 0.463933
-0.290288 0.440487 -0.185044
-0.290288 0.225457 -0.410901
-0.290288 -0.332331 0.342271
-0.290288 -0.437557 0.092420
-0.290288 0.265481 0.389646
-0.290288 0.297437 0.386359
-0.290288 0.152819 -0.443629
-0.290288 0.349071 0.346535
-0.290288 -0.295100 0.377156
-0.290288 0.461783 0.174863
-0.290288 -0.161555 0.451027
-0.290288 -0.345897 -0.334046
-0.290288 -0.457330 0.013228
-0.290288 -0.284034 -0.394173
-0.290288 0.476345 0.001296
-0.290288 0.238097 0.399852
-0.290288 -0.447882 -0.149868
-0.290288 -0.096037 -0.444378
-0.290288 0.436182 -0.186931
-0.290288 -0.467953 -0.035011
-0.290288 0.344315 -0.323207
-0.290288 -0.312501 -0.337045
-0.290288 0.376373 0.319631
-0.290288 -0.109847 0.454895
-0.290288 -0.470203 -0.049118
-0.290288 -0.063775 -0.474780
-0.290288 0.102557 -0.466814
-0.290288 -0.032068 0.471490
-0.290288 0.382850 0.226100
-0.290288 0.341313 -0.351446
-0.290288 0.411141 -0.176463
-0.290288 0.129144 0.437158
-0.290288 0.101040 -0.479686
-0.290288 -0.339447 0.320586
-0.290288 0.380110 -0.248582
-0.290288 -0.017915 -0.473744
-0.290288 0.482951 -0.125570
-0.290288 -0.454478 0.129871
-0.290288 0.440919 0.088710
-0.290288 -0.452179 -0.032643
-0.290288 -0.421602 0.203965
-0.290288 -0.322616 -0.319566
-0.290288 -0.014447 -0.465315
-0.290288 -0.234629 -0.385041
-0.290288 -0.234396 0.396692
-0.290288 -0.346540 0.347019
-0.290288 -0.433186 0.242771
-0.290288 -0.214029 -0.419820
-0.290288 0.236366 0.383982
-0.290288 -0.431003 -0.167901
-0.290288 0.287535 0.348430
-0.290288 0.436693 -0.163979
-0.290288 -0.001633 0.466008
-0.290288 -0.469480 0.137112
-0.290288 0.455390 -0.077942
-0.290288 -0.419533 0.234750
-0.290288 -0.205846 0.434863
-0.290288 0.257567 -0.415737
-0.290288 0.211040 0.404589
-0.290288 -0.322020 0.319102
