0.257082 0.485746 0.110064
0.146229 0.474702 -0.154284
0.021081 0.167914 0.466848
-0.288806 -0.131862 0.477843
-0.002261 0.034831 0.494723
-0.098721 0.045913 -0.498068
-0.163470 -0.395679 0.299645
0.115813 -0.097039 -0.490646
-0.104835 -0.226192 -0.445554
0.115389 -0.167376 0.466641
-0.057203 0.462343 -0.188749
0.159259 -0.494596 0.050838
0.195306 0.458827 0.192506
-0.006212 0.427033 0.255005
-0.193079 -0.234096 -0.441392
0.094634 0.095355 0.486759
0.112901 -0.437378 -0.239531
0.068894 0.372480 0.328980
0.275005 0.443722 0.224910
-0.141616 -0.451005 0.207871
-0.259102 -0.201415 -0.457338
-0.098847 0.408135 0.284168
0.188456 0.359551 -0.347512
-0.256200 -0.367592 -0.337836
0.197103 -0.211637 0.448393
0.167776 -0.194034 0.456195
0.056471 -0.459199 0.189613
-0.106839 0.431081 -0.252498
0.177127 -0.409795 -0.284455
0.227020 -0.354779 0.346870
0.059230 -0.125215 -0.484104
-0.220903 0.462762 -0.187633
-0.273505 0.191312 -0.462110
-0.135886 -0.085484 -0.492635
-0.161495 -0.456726 -0.199440
0.227291 0.364017 0.338264
-0.262569 -0.320837 -0.382797
0.199683 -0.371705 -0.333043
0.029237 -0.174613 0.464144
0.123125 0.002968 0.495886
0.282288 0.342837 -0.363847
-0.090329 0.495965 0.048644
-0.189425 0.205163 0.451763
-0.276844 0.377441 0.323199
0.267055 0.208737 0.450159
-0.203610 -0.138680 -0.480307
0.150204 -0.324063 0.375438
0.159043 -0.158364 -0.474301
0.088204 0.347361 0.355372
-0.204730 -0.014655 -0.499935
0.224184 0.398216 -0.302102
-0.051624 -0.212972 -0.452152
0.120756 -0.491753 0.073321
0.155851 -0.494934 -0.053074
-0.050442 -0.457408 -0.197804
0.219643 0.354107 -0.352875
0.215233 0.207107 -0.455484
-0.144966 -0.464238 -0.181422
-0.055291 0.376845 0.323894
0.035368 0.021203 0.495334
0.004684 0.423253 -0.265339
-0.288809 0.496367 0.043678
0.097259 -0.446964 -0.220605
-0.215540 0.435475 -0.244862
-0.111503 0.015272 -0.499930
-0.029074 -0.434146 -0.245166
-0.231095 -0.450780 -0.212859
-0.275244 -0.400455 -0.297474
0.075861 -0.495702 -0.043594
0.041239 0.473610 -0.157864
0.112229 -0.454896 -0.203830
-0.153406 0.444546 -0.227635
0.139627 -0.406122 0.285221
-0.230424 0.484668 -0.118527
0.139631 0.402339 -0.296447
0.045587 -0.494440 -0.058646
0.148910 -0.490211 0.082279
-0.289043 0.133351 -0.482069
-0.124459 0.472583 -0.161231
0.026211 0.216307 -0.450951
-0.004653 -0.492737 0.067608
0.093653 0.495268 -0.058450
0.266945 0.460193 -0.194035
-0.139789 -0.429929 0.248354
0.186366 -0.396763 -0.302368
0.014699 0.217205 -0.450508
0.082329 -0.476681 0.140087
-0.136911 -0.376805 0.322977
-0.271830 -0.103043 0.484876
0.285614 -0.474043 -0.153430
-0.023784 -0.494338 0.053227
0.183893 0.313437 -0.389789
-0.053056 -0.471652 -0.160363
-0.162083 0.009119 0.495876
-0.114918 -0.366561 0.334288
-0.165424 -0.160792 -0.473489
0.143799 -0.439512 0.230895
-0.003743 -0.216452 -0.450591
-0.255403 -0.375934 -0.328115
-0.151258 0.478557 0.137355
0.183745 -0.474348 0.147734
-0.090085 -0.427088 0.253014
0.167102 0.165518 0.467747
0.106312 -0.138607 0.475982
-0.106464 -0.493198 0.063775
0.037860 -0.495636 0.041210
0.039373 -0.492904 -0.069266
0.001078 -0.416944 0.269653
0.174637 0.123420 0.480420
0.158809 -0.350352 -0.355600
0.020868 0.432737 -0.249782
0.013534 0.449540 -0.217773
0.208520 -0.111248 -0.487423
0.140872 0.496164 0.046184
-0.164998 0.320216 -0.383973
0.060584 -0.451500 0.206769
0.231196 -0.480895 -0.129527
0.043174 0.375754 0.325165
0.149547 -0.470544 -0.163574
-0.186586 0.498516 -0.001346
0.215010 -0.424997 -0.261121
-0.013021 0.058081 -0.496970
-0.042443 -0.402981 0.289711
0.154224 -0.195523 0.455574
-0.032969 0.324924 0.375813
-0.096893 -0.313305 -0.388803
-0.197026 0.389773 0.308638
-0.032076 -0.284089 0.406597
0.148335 -0.494617 0.050642
-0.204119 -0.424916 -0.261261
0.158831 0.498613 -0.006688
0.251700 -0.091531 -0.491594
0.075217 -0.259194 -0.427024
0.004148 -0.206358 0.450995
0.258028 0.436009 -0.243849
0.065898 -0.497145 -0.022256
-0.037210 0.189662 -0.462798
-0.106608 0.286706 0.405299
0.222615 0.246749 -0.434973
-0.145106 -0.228197 0.440233
-0.217569 -0.345526 0.355877
-0.274133 0.310882 0.387198
0.241080 -0.359880 0.341664
-0.050313 0.329197 0.371943
-0.180107 0.253330 -0.431199
0.119865 -0.189349 -0.462753
-0.003179 0.490400 0.087849
-0.165714 -0.214675 0.446896
-0.116596 0.139984 -0.480238
-0.276318 -0.341558 -0.364172
0.215837 0.494356 0.061957
0.080694 0.379842 0.320401
0.115524 -0.346939 -0.359106
0.111526 0.497569 -0.032986
-0.024449 0.138559 0.476304
0.017500 0.151674 -0.476764
-0.100513 -0.457252 -0.198179
-0.067458 -0.495188 -0.049930
0.153905 -0.121538 0.480694
0.286064 0.374802 -0.330674
-0.235977 0.261052 0.422162
0.196388 0.175349 0.464058
-0.062544 -0.410080 0.279560
-0.160196 -0.244951 0.431063
0.033593 0.498112 0.021096
-0.113118 -0.453897 -0.206225
0.161536 0.121773 -0.485265
-0.079675 -0.082871 0.488882
-0.025644 0.184672 0.460560
-0.238996 -0.108447 -0.488089
0.180541 -0.048410 0.493429
0.159881 -0.137769 -0.480585
0.075623 0.248183 -0.434151
-0.119494 0.233059 -0.442696
-0.091765 -0.213908 -0.451732
0.238130 -0.491505 0.074761
0.227798 0.205248 -0.456300
0.110676 0.140411 0.475739
0.046537 -0.431727 -0.249385
-0.192379 -0.493096 -0.067940
0.007737 0.496168 -0.050128
0.184168 -0.079972 -0.493584
0.181262 -0.472831 -0.156946
0.274091 -0.377874 -0.325854
0.098508 -0.045306 0.493681
-0.036623 0.498290 0.011241
0.078085 -0.133150 0.477488
0.265965 0.319033 -0.384988
0.150123 0.443753 -0.229139
0.060430 -0.421902 0.261521
0.271222 -0.447681 0.215280
-0.175032 0.481849 -0.130387
0.100808 -0.006564 -0.500298
-0.017957 0.498134 0.019865
-0.271517 0.451530 0.209064
-0.079477 -0.488599 -0.095905
-0.214921 0.497669 0.027602
-0.078497 0.493476 0.068043
-0.285242 -0.416821 -0.273813
-0.096225 -0.036885 -0.498938
0.183131 0.133390 -0.482058
0.187198 -0.224996 0.441811
0.284341 0.477461 0.141325
-0.251769 0.165970 -0.471833
0.216114 -0.268573 0.416840
-0.114728 0.332216 0.369209
-0.197250 -0.437897 -0.238626
0.002645 -0.329635 0.370657
0.092915 -0.441711 -0.231265
0.079919 0.145669 -0.478668
-0.022759 -0.472488 0.153831
-0.171597 0.456966 -0.201224
-0.238869 0.338316 -0.368248
-0.268727 -0.387616 0.309756
-0.183032 0.018867 -0.499865
0.022174 -0.363593 0.337564
-0.030321 -0.104551 -0.489015
0.193569 0.147339 0.473624
0.195878 0.292078 -0.405959
-0.247686 0.446668 -0.223605
0.029864 -0.477934 0.135980
-0.160052 0.161514 0.469249
0.205657 -0.019028 -0.499739
-0.177857 -0.073399 -0.494715
-0.160371 -0.198632 -0.458587
0.282055 0.216067 -0.451069
-0.212049 0.292039 0.401570
0.154713 -0.453280 -0.207707
-0.270611 -0.481212 -0.128378
-0.180306 0.330327 -0.375296
0.111771 -0.375672 -0.328419
0.010749 0.417990 0.269240
-0.235682 -0.421971 0.261407
-0.144931 0.455897 0.199534
0.206613 -0.229899 -0.443602
0.234455 -0.462035 -0.186707
0.020727 0.495650 -0.054914
0.163812 -0.381775 0.317081
-0.099148 -0.348006 -0.358011
-0.076562 0.033578 0.494779
-0.219550 -0.023031 -0.499559
-0.223947 -0.041462 -0.498478
0.213548 0.405051 0.288387
0.048961 -0.317006 0.381494
0.199841 0.009525 -0.500033
-0.068565 0.222734 0.443560
0.240653 -0.468732 0.164638
0.137022 -0.469997 0.161267
0.069861 -0.103704 0.484738
-0.231815 -0.484991 -0.113130
0.052280 -0.417457 -0.272849
0.277486 -0.072211 -0.494920
-0.002324 0.003297 -0.500145
0.149188 0.239030 0.434980
-0.055745 0.492602 -0.078700
0.126524 0.485507 0.111207
-0.075810 0.016891 0.495527
-0.068889 -0.442447 0.225320
-0.247941 0.360601 -0.346353
0.141947 0.013585 -0.499960
0.001937 -0.419725 -0.269413
-0.057635 -0.310076 0.387255
-0.183432 0.495676 -0.054675
0.202112 0.405610 0.287646
0.157618 0.293811 -0.404652
-0.082581 -0.418635 -0.271064
0.190105 -0.162546 0.468307
-0.287496 -0.018314 -0.499771
-0.286132 0.498193 0.016579
0.194963 0.299166 0.396541
0.163979 -0.496754 -0.030602
-0.098493 0.085947 -0.492939
0.013434 0.402857 -0.295707
0.078891 -0.431905 -0.249073
0.134926 0.277470 0.411759
0.079568 -0.457002 -0.198778
-0.217430 -0.006888 -0.500284
-0.229126 0.435659 -0.244513
-0.287798 -0.285408 0.405726
-0.179997 0.218568 -0.449836
0.249200 -0.203278 -0.456502
0.237179 -0.457349 -0.197946
-0.082209 -0.008587 -0.500207
-0.101407 0.373350 0.327967
-0.138615 -0.324345 0.375196
0.107699 0.413683 -0.280227
-0.252826 0.180679 0.462058
-0.157955 0.327396 -0.377811
-0.136092 -0.248149 0.429229
0.073597 0.348337 -0.358492
0.277481 -0.169238 -0.470320
0.112516 -0.494784 -0.054917
-0.207172 -0.117110 -0.486030
0.085771 -0.255619 -0.429203
-0.217566 0.368184 -0.337981
0.153542 -0.126307 -0.483844
0.099610 -0.437654 0.234423
0.158226 -0.474286 0.147937
-0.151024 0.007252 0.495960
0.219125 -0.337718 -0.367650
0.037062 0.476782 0.143786
-0.226566 -0.495296 0.044358
-0.175144 -0.196030 -0.459755
0.137830 0.421157 0.264443
0.281435 0.077215 -0.494202
0.007700 0.278163 -0.415539
0.193334 0.083552 -0.493285
0.122963 -0.485460 -0.110894
-0.236514 0.494645 -0.064217
-0.153999 0.110565 0.483475
0.184034 -0.455497 0.197861
0.217234 -0.142475 0.474914
-0.140615 -0.122140 0.480527
0.082767 -0.027876 0.495093
0.256242 0.339040 0.363028
-0.169951 0.498310 0.010088
0.180089 -0.491924 0.072327
-0.290144 -0.286755 -0.408902
0.062825 0.477438 -0.145317
0.256843 0.498290 0.011194
0.183175 0.301363 0.394789
0.258550 -0.497562 0.005945
0.272869 0.451551 -0.213292
-0.076549 0.399470 0.295785
-0.254429 -0.255994 0.424731
0.120477 0.309215 -0.393031
0.008752 -0.349896 0.351624
-0.068272 0.486873 0.104686
0.226441 -0.468358 -0.169911
0.201118 -0.167942 -0.470806
-0.261631 -0.359638 -0.346063
0.067687 0.467869 -0.174024
0.029968 0.336788 0.365068
0.057790 -0.472319 -0.158429
0.133395 -0.188682 -0.463024
-0.032310 0.390903 0.307141
0.182128 -0.378424 -0.325212
0.004748 0.491729 0.080114
0.150441 -0.496486 0.029927
0.017386 0.338795 -0.367782
0.018373 -0.423399 0.259064
0.061210 0.444269 0.223799
0.133961 -0.301412 -0.398286
0.173694 0.138784 -0.480569
0.041230 -0.172119 0.465005
0.184451 -0.133936 0.477271
0.280390 0.175225 0.464104
-0.097494 0.201821 -0.457729
-0.109545 -0.496593 0.027544
-0.045888 0.497304 -0.038905
0.111492 -0.067299 -0.495686
-0.112220 0.270588 0.416349
0.173824 0.309790 0.388069
0.144214 -0.152861 -0.475980
-0.073901 -0.336700 0.364471
0.286606 -0.008019 -0.500233
-0.158741 0.365315 -0.341148
-0.083864 0.193987 0.456778
-0.246469 -0.165631 -0.471673
0.215797 0.332602 0.368859
-0.023718 0.311404 -0.391379
-0.248094 0.087306 0.488144
-0.229335 0.017313 0.495508
-0.289500 -0.433016 -0.247136
0.211666 -0.468420 -0.169731
-0.158410 0.172621 -0.469538
-0.131550 -0.200512 0.453494
-0.283053 0.467795 -0.174219
-0.236658 -0.016641 0.495533
-0.253339 0.498137 -0.020318
0.001823 0.333084 -0.372931
0.033111 -0.297829 0.396494
0.007058 -0.322134 -0.381763
0.021068 -0.398580 -0.299960
-0.060246 0.346398 0.356362
-0.159958 -0.268127 -0.421578
-0.120535 -0.166065 0.467093
-0.034276 0.057172 0.492537
0.045286 0.031956 -0.499199
0.170040 0.484006 -0.121311
0.047837 -0.044730 0.493727
0.170381 0.498474 0.000990
0.017813 -0.385438 0.312487
0.194472 0.384666 0.314779
-0.273744 0.078937 -0.493953
-0.123607 -0.356104 -0.349692
-0.118152 -0.416596 0.270225
-0.283999 -0.267598 -0.421900
-0.067926 -0.088635 -0.492093
0.224973 0.199560 0.454278
-0.229436 0.343124 -0.363568
0.285411 0.353149 -0.353808
-0.011459 -0.006373 -0.500307
0.115302 0.093536 -0.491436
-0.042155 -0.497320 -0.012539
0.263145 0.253182 0.426960
0.104433 -0.128926 -0.483222
0.221012 -0.492626 -0.071184
0.259770 0.384281 -0.319578
-0.115569 0.434220 -0.247246
0.072348 -0.494482 0.051894
0.037858 -0.306033 -0.394601
0.032555 -0.214633 -0.451407
-0.128808 0.468020 0.169509
0.265037 0.243974 0.432377
0.000700 -0.497624 0.004573
-0.234319 0.496560 0.041299
-0.215936 0.451502 0.209121
-0.189133 -0.414440 -0.277419
-0.008731 -0.056988 0.492627
-0.088273 -0.228385 0.440141
0.189142 -0.007158 0.495704
0.086974 -0.497571 0.001383
-0.126157 -0.391290 0.305149
0.060491 -0.086943 0.488249
-0.116546 -0.458985 -0.194021
-0.068557 -0.342071 -0.363708
-0.195329 -0.067553 -0.495658
0.138942 0.067065 0.491468
-0.014625 -0.418004 -0.272020
-0.117949 0.352164 -0.354767
-0.076081 0.048577 -0.497852
0.137526 -0.101011 0.485302
0.259152 -0.467445 0.168068
-0.099544 0.199941 0.454106
-0.271417 -0.366815 0.334007
-0.096781 0.346924 -0.359868
0.135952 0.090639 0.487571
0.283718 -0.398441 -0.300144
-0.072055 -0.189213 -0.462814
-0.260866 -0.054609 -0.497057
-0.025434 0.490017 0.089678
0.172179 0.361134 -0.345764
0.021398 0.225902 0.441892
-0.055783 0.316420 -0.387230
0.025025 0.384241 -0.319628
0.178595 0.142881 0.474985
-0.168532 0.028044 -0.499516
0.282373 -0.234015 -0.441435
-0.272519 0.426541 -0.259945
0.203231 -0.424366 -0.262221
-0.045689 -0.223728 0.442435
0.121500 -0.384404 0.313784
-0.191458 -0.371275 0.329083
0.019192 -0.028358 -0.499321
0.281801 0.242814 -0.437230
0.193036 -0.472575 0.153546
0.054080 0.380921 -0.323792
-0.210196 0.467031 0.172375
-0.105619 0.380407 -0.324436
0.036199 -0.224897 -0.446236
0.113423 0.479400 0.134300
0.002834 -0.053961 0.492980
-0.023086 -0.471753 -0.160068
0.194577 0.248939 0.429547
0.127017 -0.486416 0.102506
0.084884 0.393096 -0.308522
0.194371 0.139996 -0.480235
-0.020163 -0.423655 -0.263460
0.113147 0.479336 -0.139097
-0.072917 -0.353045 0.348558
0.039286 0.018855 -0.499865
-0.226914 -0.342773 -0.363072
-0.166035 0.074721 -0.494563
-0.168126 0.130306 -0.482909
-0.111289 -0.337438 -0.367904
0.195586 -0.486733 -0.104816
0.182399 0.485245 0.112455
-0.145099 -0.478362 0.134576
-0.230328 0.490765 0.086106
-0.181016 -0.494643 0.050400
-0.173005 0.459639 0.190557
0.010715 -0.142300 -0.479203
0.148316 0.425461 -0.261717
0.106711 0.317300 -0.386474
-0.192614 0.413064 0.276701
-0.115536 -0.230302 0.439196
0.259629 -0.495746 0.040192
-0.264021 0.434272 0.242381
0.186412 0.005456 0.495931
0.186381 0.019073 0.495430
0.237898 0.411958 -0.282694
0.235330 -0.497347 -0.011033
0.055563 -0.405286 -0.291071
0.178720 -0.495707 -0.043524
0.270782 -0.419247 -0.270138
0.036432 -0.497416 0.009201
-0.214055 -0.311326 0.386311
0.276372 0.454024 0.204002
-0.290222 -0.497421 0.009090
-0.171991 -0.495066 -0.051444
0.012350 -0.444496 0.221430
0.012154 -0.242900 0.432239
-0.174214 0.275660 -0.417191
0.105515 -0.025597 -0.499444
-0.154088 -0.392602 -0.307884
-0.046777 -0.243929 -0.436215
-0.049044 0.483608 -0.122988
0.079480 0.451245 0.209643
0.099818 0.384045 0.315503
-0.165563 0.444233 0.223872
0.032279 0.196072 -0.460125
-0.276690 0.491422 0.082240
0.042959 0.447300 -0.222403
-0.250928 -0.475684 0.143355
-0.206000 0.051690 0.493130
0.283015 0.488006 -0.104481
0.286920 0.266928 -0.422956
-0.149190 0.498137 0.019709
-0.168971 -0.496204 -0.037391
-0.237292 0.007473 0.495950
-0.273627 0.427491 0.254205
0.209057 -0.250196 -0.432510
-0.054116 -0.471068 0.158414
0.188106 -0.202762 0.452556
0.110684 -0.492727 0.067663
-0.032734 0.358926 -0.348184
0.286830 -0.464190 0.176743
0.013573 0.494269 0.062556
0.222080 -0.294772 0.398800
0.165503 0.408212 0.284051
0.104414 -0.477774 0.136504
0.115157 0.350758 -0.356135
-0.044918 0.447614 -0.221806
0.115628 -0.404407 -0.292235
-0.109588 -0.315856 -0.386769
-0.159762 -0.376628 0.323173
-0.285611 -0.390774 0.305796
-0.228069 -0.383174 -0.319677
0.239607 -0.212923 -0.452174
0.033141 -0.483736 -0.119118
-0.135009 -0.360350 0.341145
-0.289500 -0.384942 -0.317616
0.258090 0.240594 -0.438503
0.271978 -0.465286 -0.178816
0.109663 -0.459214 -0.193474
-0.180625 -0.443963 0.222441
0.014785 -0.396504 0.298610
0.067079 0.125017 -0.484369
-0.211507 0.172685 -0.469516
0.138225 -0.045360 0.493676
-0.236042 -0.161861 -0.473088
0.038612 0.493363 0.068820
-0.052180 -0.488394 -0.096886
0.043531 0.393595 -0.307897
0.173372 0.100458 0.485877
0.234360 0.408856 0.283076
0.241237 0.490978 -0.088131
-0.032536 -0.282024 -0.412211
0.227574 0.143844 0.474691
0.203107 0.484456 -0.119421
-0.202125 0.453569 0.204926
0.281116 0.130795 0.478668
-0.088182 0.095283 -0.491070
0.280652 0.413652 -0.280272
0.143501 0.450862 0.210421
-0.151929 -0.453570 -0.207010
0.036399 0.134341 0.477590
-0.095771 -0.235723 0.436355
-0.225934 -0.265910 0.418598
-0.210351 -0.235124 -0.440851
0.256962 -0.321642 -0.382155
0.173187 0.345781 -0.360980
-0.152635 0.246551 0.431003
-0.130395 -0.119002 0.481394
0.171067 0.423555 0.260811
-0.234912 0.166935 -0.471500
-0.014252 0.406732 0.286159
-0.169859 0.168021 0.466807
0.166914 -0.118084 0.481647
-0.138337 -0.153848 -0.475679
-0.011651 -0.180543 0.461819
-0.251139 0.494710 0.059510
0.262255 0.366012 0.336215
-0.173146 -0.091553 0.487284
-0.169413 -0.255950 0.424756
0.129034 0.311484 0.386718
0.192209 -0.478603 0.133788
0.187326 0.368696 -0.337416
-0.159408 0.394156 -0.307194
0.285489 -0.155874 -0.475061
0.126540 -0.140493 -0.479754
-0.041681 -0.077520 0.489656
-0.157044 0.448796 0.214613
-0.004459 0.496355 -0.048390
0.252914 -0.114055 -0.486756
0.201395 0.473771 -0.157337
0.229570 -0.491301 -0.080346
0.001057 -0.338376 0.362839
-0.014293 0.479791 0.132885
-0.036465 0.142725 0.475032
-0.181608 -0.121536 -0.484978
0.152137 -0.484163 0.111984
0.195235 0.454614 0.202610
0.231312 0.447031 0.218194
-0.196079 0.089079 -0.492370
0.125730 0.086259 -0.492893
-0.149253 -0.472139 -0.158951
0.127459 0.489163 0.093756
-0.116371 0.323601 0.377011
-0.138622 -0.497501 -0.002455
-0.072420 -0.399197 0.295122
-0.160710 -0.285440 -0.409822
-0.049066 0.496124 0.046680
0.077070 0.480527 0.130218
0.269367 0.003002 -0.500151
-0.053032 -0.351082 0.350468
0.160145 -0.447774 0.215071
0.002816 0.377334 0.323324
0.066722 0.362461 -0.344299
0.233552 0.491986 0.078338
0.206598 -0.346171 0.355250
-0.079800 -0.067807 0.491061
0.185912 -0.476391 -0.145841
0.200657 0.344096 -0.362621
-0.135604 0.123583 -0.484765
-0.069068 0.398222 -0.302095
0.011791 0.313956 -0.389344
-0.275255 -0.311332 0.386307
-0.268663 0.421325 0.264188
-0.167229 -0.116934 0.481964
0.193604 -0.054570 -0.497061
0.121507 0.438781 0.234517
0.058045 -0.384146 0.314109
0.044055 -0.339928 -0.365649
-0.234211 -0.437321 0.235056
-0.021708 -0.370677 -0.334242
-0.065789 -0.237937 0.435085
0.026626 0.493705 0.066459
0.180305 0.460424 0.188676
-0.175561 0.495122 0.056666
0.207519 0.174731 0.464290
0.072105 -0.471244 -0.161544
-0.270031 0.342804 -0.363879
-0.213800 -0.427229 0.252782
0.107955 -0.464788 0.175149
0.055900 -0.368372 0.332288
0.228843 0.180374 0.462172
-0.108621 -0.277407 0.411008
0.193979 0.462775 -0.187597
-0.266798 0.489501 0.092139
-0.283700 0.139013 0.476165
0.055195 0.369662 0.332264
0.191810 -0.290029 -0.406611
0.134585 -0.298336 0.396112
-0.035492 0.370309 0.331511
0.120139 -0.422282 -0.265540
0.149429 -0.021678 0.495442
0.246270 0.313265 0.385298
0.021077 -0.129885 0.478389
0.247893 -0.497270 -0.015302
0.098284 0.345113 0.357528
-0.042986 -0.318301 -0.384819
0.247248 -0.003408 -0.500266
0.012142 -0.373455 -0.331004
0.157362 -0.493500 -0.065147
-0.241276 0.434050 -0.247567
0.255973 0.492728 0.073207
0.119765 -0.471212 -0.161638
0.047892 -0.113927 -0.486786
-0.221763 0.393540 -0.307966
0.228321 0.334204 0.367408
0.268617 0.290329 -0.407279
0.260170 -0.200197 -0.457885
-0.205721 0.487892 -0.104958
0.029894 0.336075 -0.370364
-0.223051 0.229676 -0.444363
-0.173957 -0.246350 0.430261
-0.214991 -0.036913 0.494361
-0.069008 0.434252 0.242414
0.285819 -0.480740 0.126391
0.046846 -0.199356 -0.458262
0.035634 -0.092227 -0.491474
-0.236607 -0.495793 0.039761
0.247121 -0.393851 -0.306228
-0.050736 -0.107556 0.483931
0.227225 -0.295361 -0.402883
-0.222266 0.252746 -0.431534
-0.050574 -0.497275 0.012343
0.093476 0.480653 -0.134780
-0.152995 -0.099975 -0.490102
-0.074653 -0.297023 0.397102
-0.275891 -0.408108 0.282380
-0.212804 0.205921 0.451423
0.237000 -0.302649 -0.397300
0.146527 -0.316342 -0.386381
0.055747 0.346404 -0.360374
-0.074880 0.099761 -0.490132
-0.142224 0.385823 -0.317644
-0.094122 0.189593 0.458713
-0.102698 0.106630 0.484410
-0.121928 -0.347517 -0.358513
0.178276 -0.399990 0.293988
0.128581 0.333266 0.368257
-0.029786 -0.271515 -0.419513
0.282667 -0.317118 -0.385762
-0.224812 0.197277 -0.459623
-0.140716 -0.242363 -0.437039
0.230885 -0.320493 -0.383071
0.058165 -0.483223 -0.121092
0.073850 0.177113 0.463396
0.105567 0.265754 -0.423731
-0.119178 0.229819 0.439830
0.025181 -0.360347 -0.345334
-0.268643 0.082427 0.488984
-0.036287 -0.164582 0.467605
-0.229972 -0.360766 0.340686
0.273034 -0.479720 -0.133781
0.274313 0.027436 -0.499565
-0.248731 0.439149 -0.237885
-0.126015 -0.283005 -0.411524
0.009446 0.026444 0.495099
-0.289133 -0.434154 0.241072
0.281380 0.493454 -0.073749
-0.082290 0.173797 -0.469133
0.084305 -0.133592 -0.481860
-0.024340 0.498335 0.008715
0.179589 0.491835 -0.083152
0.042526 -0.193968 0.456222
0.074712 -0.448155 -0.218187
-0.265211 0.497351 -0.037845
0.076165 -0.409251 0.280746
0.119982 -0.466849 -0.174288
0.037997 0.154481 -0.475796
0.183769 -0.353744 0.347877
-0.254803 0.347235 0.355501
0.260121 -0.303521 -0.396604
-0.130839 -0.490727 -0.084314
-0.285435 -0.405061 -0.291369
0.161528 -0.168661 0.466198
-0.053955 0.018639 -0.499869
-0.267439 -0.001553 -0.500233
0.006588 -0.401365 0.292022
0.212521 0.310159 0.387775
-0.248449 0.290577 -0.407092
-0.098811 -0.317069 0.381440
-0.011640 0.494802 0.058876
0.136212 -0.075555 -0.494344
0.154764 0.482443 -0.127887
-0.022983 0.136331 -0.481246
-0.204340 -0.127940 -0.483456
-0.137289 -0.292528 -0.404864
0.284188 0.159809 0.469820
0.244265 -0.477118 -0.143210
0.012257 -0.354100 -0.351751
-0.188016 -0.484541 0.110394
0.194196 0.375323 0.325668
0.247141 0.430074 0.249701
0.083890 -0.367529 -0.337909
0.192318 0.249833 -0.433205
0.141961 -0.496899 0.020732
0.158532 -0.361694 0.339661
-0.123385 -0.220060 0.444243
-0.243817 -0.087100 0.488216
-0.193917 -0.318678 -0.384518
-0.223536 -0.105094 0.484447
0.139777 0.479781 0.132920
-0.141609 -0.073262 0.490272
-0.240965 0.271598 0.415733
-0.216441 -0.254140 -0.430105
-0.221459 -0.441993 0.226182
0.022625 0.177869 0.463112
0.074414 -0.491351 -0.079999
-0.135676 -0.488415 -0.096787
0.226094 -0.165701 -0.471647
0.251041 -0.158060 0.469854
-0.198617 0.460301 0.188970
0.152102 -0.357406 -0.348355
0.110171 -0.434378 0.240645
0.270537 0.391172 -0.310936
0.115751 0.470049 -0.168213
0.065255 -0.497375 -0.009484
-0.158698 0.133943 0.477712
-0.099401 -0.007228 -0.500268
0.024077 -0.429246 0.249474
0.028474 0.449142 -0.218660
-0.007758 0.373428 0.327875
0.230969 -0.047660 -0.497808
0.156973 -0.110603 0.483293
0.264561 0.094104 0.486974
0.265315 0.280981 0.409303
-0.154500 -0.219607 -0.449021
-0.032954 -0.180134 0.461990
0.039514 -0.415870 -0.275252
0.170464 -0.263116 -0.424633
0.254740 0.334665 -0.371574
0.007944 0.410912 0.279961
0.274554 -0.164999 0.467461
0.128596 0.417622 -0.274575
-0.080062 -0.340077 -0.365514
0.262526 0.046109 -0.498052
-0.037063 0.303036 -0.397693
-0.180867 0.386618 -0.316647
-0.045938 0.235829 -0.441235
0.193019 -0.481253 -0.128231
-0.073729 -0.414542 -0.277263
-0.111343 -0.297313 -0.401518
-0.262590 0.455856 0.199631
-0.188033 -0.475792 -0.148012
-0.135289 0.005224 -0.500111
0.004865 -0.481925 0.121405
-0.289898 0.490483 -0.091005
0.017931 0.169111 -0.470749
-0.225436 0.287195 -0.409576
0.078633 -0.018073 0.495507
0.138643 -0.383286 -0.319547
-0.015661 0.020939 0.495346
0.165203 0.277717 -0.415833
-0.196622 -0.237478 0.435349
0.090258 -0.440701 0.228638
-0.006064 0.264440 0.420097
0.035728 -0.463470 0.178663
0.223319 0.419907 -0.270827
-0.041378 -0.423527 -0.263654
0.131155 0.407325 -0.289319
-0.021963 -0.232133 0.438294
-0.103302 0.373554 -0.332052
-0.250466 0.388937 0.309746
-0.204029 -0.484708 -0.114480
0.088044 0.085656 0.488428
0.006449 0.291933 -0.406069
-0.187469 -0.480930 -0.129400
0.154897 0.034896 -0.498961
0.025178 0.424681 0.259105
-0.038733 0.378348 -0.326758
-0.010149 0.283470 -0.412036
0.276582 -0.493350 -0.066181
-0.095066 -0.373016 0.327161
0.079372 -0.299984 0.394868
-0.109224 0.339708 -0.366893
-0.243818 0.497253 0.032747
-0.066356 0.232876 -0.442786
0.282639 -0.429115 0.249689
-0.148989 0.498440 0.002883
-0.121891 -0.302089 -0.397746
-0.205430 -0.475329 -0.149690
-0.196584 -0.449637 0.210920
0.226710 -0.453579 -0.206988
0.016098 -0.431293 -0.250142
-0.003199 0.085069 0.488529
-0.032223 -0.220857 -0.448363
0.145992 0.229320 -0.444539
0.071828 -0.349131 -0.356855
-0.002527 -0.379102 0.320434
0.004659 0.465591 -0.180094
0.064700 0.472506 0.156503
-0.108591 0.481014 0.128453
-0.102190 -0.487187 0.099262
0.002659 0.135082 -0.481591
0.236696 -0.472367 -0.158289
0.279164 0.304405 0.392363
-0.290204 -0.398529 0.296070
0.145418 0.485919 -0.113262
0.228580 0.479497 0.133948
0.008882 -0.495707 0.040553
0.165079 -0.456209 -0.200681
-0.040913 -0.390977 -0.310037
0.161385 -0.380494 -0.322800
0.045324 0.486668 0.105663
0.165142 0.346689 0.356063
-0.025248 -0.492996 -0.068627
0.083122 -0.172582 0.464845
-0.287852 0.498106 -0.021008
0.115807 0.455345 0.200858
-0.117929 0.260533 0.422479
0.025384 0.450040 0.212089
-0.074897 -0.434748 -0.244117
0.053316 0.490124 0.089168
-0.285170 0.406326 0.286697
0.085054 0.217468 -0.450379
0.080587 0.114009 0.482657
-0.146129 0.494006 0.064378
0.130672 -0.437000 -0.240189
0.182425 0.076455 -0.494312
-0.184643 -0.494634 -0.056774
0.238624 0.262977 -0.425564
-0.124261 0.495255 -0.058576
-0.015766 -0.364966 -0.340589
0.257553 0.263306 0.420789
0.143849 -0.453418 -0.207375
-0.009399 0.336967 -0.369562
0.214003 0.161414 -0.473404
-0.158360 -0.488957 -0.094196
0.007928 0.369643 -0.336370
-0.196196 -0.377448 -0.326350
-0.004876 -0.301862 0.393452
-0.053304 0.411874 0.278505
0.285294 -0.210818 0.448797
-0.076272 -0.021634 -0.499622
0.109434 -0.370126 0.330351
-0.151644 -0.402906 0.289818
-0.203465 -0.322397 -0.381527
-0.075096 -0.371111 -0.333735
-0.269762 -0.428681 0.250401
-0.277667 0.467156 0.172013
-0.230283 0.436021 0.239330
-0.252493 -0.489335 -0.092395
0.165535 -0.482751 -0.122803
0.002608 0.271454 0.415821
0.237312 -0.133584 -0.481862
0.055272 0.494978 0.057660
0.152223 0.332597 -0.373348
-0.276274 -0.036136 -0.498972
-0.271137 0.155028 0.471278
0.173282 -0.490347 -0.086937
-0.101340 -0.452240 -0.209898
-0.182594 0.497911 -0.025366
0.281493 -0.205061 -0.455702
-0.105048 -0.484779 0.109393
-0.060520 -0.334117 0.366811
0.125927 0.428511 -0.256715
-0.209092 -0.221552 -0.447997
0.280569 -0.369722 -0.335354
-0.250166 0.098816 0.486163
0.035158 -0.044507 0.493746
-0.207187 0.479249 -0.139382
0.116866 0.416169 0.271999
0.135778 -0.493982 0.056513
-0.018463 0.160960 -0.473561
-0.181453 0.479505 0.133919
0.041702 0.096853 -0.490741
-0.179611 -0.496658 0.026090
0.156200 -0.065819 0.491349
-0.179560 0.371695 0.329896
0.225835 0.384396 -0.319433
0.218849 -0.370379 0.330072
-0.094080 -0.090094 0.487589
-0.046238 0.165089 -0.472136
0.187310 -0.278493 0.410291
0.102811 0.399609 0.295600
-0.231946 -0.497148 -0.022075
0.204584 -0.099113 0.485700
0.218008 0.250215 0.428769
-0.077257 -0.245303 0.430861
-0.134775 0.422325 -0.266860
-0.060782 -0.254858 0.425382
-0.195680 -0.022045 0.495436
0.242158 -0.213517 0.447467
-0.126401 0.372725 -0.332967
0.258070 0.000204 -0.500201
-0.118711 -0.434858 0.239734
0.202478 -0.033925 -0.499071
0.121516 -0.448170 -0.218157
-0.264988 -0.141493 0.475185
-0.183805 0.063021 -0.496256
-0.239837 -0.165972 0.467125
0.281495 -0.428815 -0.254464
0.104564 0.481224 -0.132910
-0.105808 0.014160 0.495650
0.015354 -0.023765 0.495405
0.102674 -0.496843 0.021966
0.198017 -0.331737 -0.373068
-0.088025 0.051325 0.493169
-0.135995 -0.140259 -0.479826
-0.024691 0.409582 0.281976
0.122592 -0.217975 0.445270
0.129389 0.354297 -0.352690
0.008573 -0.401158 -0.296542
-0.111264 0.223988 -0.447166
-0.076344 -0.428834 -0.254430
-0.104630 0.477243 0.142116
-0.156402 -0.492531 -0.071845
0.028888 0.498395 0.005397
-0.011023 -0.324304 -0.379799
-0.243263 0.377820 0.322757
-0.037758 0.228401 -0.444991
0.123451 -0.066927 -0.495726
0.053236 0.281309 -0.413462
-0.013910 0.207826 0.450568
0.126386 -0.349471 0.352037
0.049902 -0.497070 -0.026396
0.243782 -0.410433 0.279056
-0.155717 -0.208081 -0.454347
-0.054288 -0.247241 0.429750
0.052933 -0.476588 -0.145129
0.076984 0.157710 -0.474682
0.251587 0.359124 0.343289
-0.018819 -0.183589 -0.464934
-0.133811 0.225383 -0.446478
0.043402 -0.060834 -0.496384
-0.086492 0.203722 0.452410
-0.171227 -0.178753 -0.466749
0.263446 -0.121021 -0.485100
-0.009562 -0.037996 -0.498853
0.159773 -0.229497 0.439593
-0.232509 -0.004759 -0.500291
-0.081435 0.141361 -0.479858
-0.179526 0.488988 0.094590
-0.289221 0.306552 0.390651
0.192971 -0.428380 0.250894
-0.221228 0.471235 -0.165052
0.211684 -0.469947 0.161400
-0.037351 0.490003 -0.093791
-0.051348 0.073960 -0.494673
0.041894 0.483650 0.118906
0.229596 -0.140455 -0.479766
-0.061977 -0.391275 0.305167
0.205546 -0.349341 -0.356639
-0.256191 0.026902 0.495078
0.170309 -0.191675 -0.461709
0.067908 -0.387154 0.310335
0.075081 -0.183961 0.460394
-0.070343 0.311519 -0.391293
0.223273 -0.391628 -0.309174
-0.197645 0.381225 0.318789
-0.277086 0.093842 -0.491372
0.275154 -0.489364 0.087199
-0.009443 0.488368 -0.102958
0.108926 0.152426 0.472072
-0.212842 0.473751 0.152896
0.040220 -0.326578 -0.377740
-0.019334 0.219133 0.445456
-0.133942 0.141630 0.475366
-0.173577 -0.325323 -0.378877
-0.207900 0.396023 0.300353
-0.110354 -0.307440 -0.393479
-0.182086 0.111715 -0.487628
0.001820 0.224180 -0.447071
0.135115 0.408961 0.282917
0.188841 0.434249 0.242421
0.059945 -0.390285 -0.310955
0.042783 0.488015 -0.104443
0.013118 0.462742 -0.187686
-0.214271 0.482037 -0.129596
-0.179346 0.447050 0.218156
0.170309 0.330153 -0.375446
-0.117156 -0.323561 -0.380473
-0.240482 0.119980 -0.485760
0.190893 -0.250527 -0.432308
-0.086706 -0.000484 0.495824
0.046906 -0.103920 0.484693
0.044472 0.259173 0.423308
-0.049161 0.299893 0.395961
-0.236369 -0.405311 -0.291038
0.012351 -0.294015 0.399371
-0.039308 0.469009 -0.170984
0.011748 -0.478943 0.132673
0.081134 -0.344663 -0.361360
0.114859 0.370752 0.330994
-0.186023 0.493111 -0.075743
0.254016 -0.133642 0.477352
-0.163107 0.215682 0.447043
-0.053259 0.204622 -0.456561
-0.281063 0.389574 0.308902
-0.095751 -0.326028 0.373753
0.143170 -0.325654 -0.378577
0.217705 -0.488608 -0.095863
-0.019722 0.489314 -0.097799
-0.097011 0.433462 -0.248593
0.007720 -0.139233 0.475809
-0.189607 -0.370072 -0.334946
-0.051444 -0.337996 -0.367399
0.016767 -0.455457 0.197951
-0.011770 0.472689 -0.160883
0.286572 0.064190 -0.496086
0.063626 0.306658 -0.394960
0.122960 0.170549 0.465859
-0.245438 -0.496378 0.032336
0.093469 0.004509 -0.500124
0.210007 -0.396237 0.298945
-0.289059 0.334403 -0.371799
0.257305 0.491339 -0.086033
0.269535 -0.384706 -0.317892
0.247640 -0.448820 0.212740
0.002329 0.442200 -0.232089
0.104681 -0.092992 -0.491343
-0.048242 -0.179179 -0.466589
0.070167 0.415174 0.273506
-0.114799 -0.359437 0.342153
0.245972 -0.494172 0.054755
0.202288 0.498405 0.004849
0.101539 -0.484771 -0.114179
0.260391 0.188082 0.459280
-0.082751 -0.494542 -0.057913
-0.086295 0.274192 0.414051
0.208216 -0.475282 0.144672
0.177440 0.479797 0.132864
0.069566 0.035481 -0.498913
-0.284229 -0.496467 0.030366
-0.180244 -0.370663 0.329759
0.108583 0.330634 -0.375033
0.244646 0.331492 0.369864
-0.169298 0.486905 0.104533
-0.102762 -0.470408 0.160173
-0.026709 -0.485917 0.104605
0.285683 0.419971 0.266239
-0.288312 0.365940 0.336288
-0.151919 -0.050552 -0.497496
-0.276360 0.265620 -0.423819
0.145462 -0.359503 0.342080
-0.006920 0.073835 0.490463
-0.267304 -0.478319 -0.138856
-0.154463 -0.497030 0.017816
-0.192830 -0.200059 0.453682
-0.084323 0.417604 0.269824
-0.022538 -0.006110 -0.500315
-0.212183 -0.146246 -0.477999
0.212240 0.237553 -0.440247
0.190211 0.475415 -0.151949
0.264775 0.478092 -0.143175
0.100340 0.242960 -0.437146
0.055367 0.496287 -0.049025
0.257277 0.498086 0.022456
0.048127 -0.038072 -0.498844
0.217338 0.300169 0.395741
-0.211353 -0.194731 -0.460338
-0.174027 -0.489738 0.085029
-0.177844 -0.097720 -0.490529
-0.161630 -0.257874 -0.427829
-0.084617 0.217877 0.446057
-0.278678 -0.424673 -0.261685
0.041511 0.218497 0.445779
0.219394 -0.019873 -0.499701
0.091499 0.164380 -0.472381
0.154816 -0.478111 0.135400
0.118290 0.299194 0.396518
-0.116283 -0.269993 0.415902
0.050703 -0.424067 -0.262742
-0.265192 0.498079 -0.021624
0.054435 0.053645 0.492919
0.248458 -0.426530 -0.258448
-0.195094 0.169486 -0.470620
0.215803 0.416053 -0.276839
0.082650 -0.032671 -0.499127
-0.014115 0.497864 -0.026420
0.094038 -0.459386 -0.193060
-0.289602 -0.227685 0.440486
-0.227220 -0.189212 0.458205
-0.042932 -0.477601 0.137072
-0.093959 -0.081314 -0.493353
-0.109511 -0.494602 -0.057170
-0.146525 0.322109 -0.382348
-0.159645 0.494058 -0.069653
-0.246344 0.412060 0.278222
0.134925 0.491269 0.083299
0.258531 0.496984 -0.042573
0.270332 0.457500 0.195689
-0.064408 0.021034 0.495342
-0.220916 -0.304300 -0.395983
0.214451 -0.422311 0.260849
-0.271147 -0.380506 0.318673
-0.109164 0.431383 0.247418
-0.173920 -0.471242 0.157912
-0.029336 -0.191537 0.457236
-0.015606 0.110977 -0.487782
-0.259425 -0.472878 0.152551
0.133682 -0.482223 0.120148
0.128998 0.131527 -0.482572
-0.175571 -0.491306 -0.080309
0.104353 0.293508 0.400542
0.147739 0.149577 0.472942
0.101159 -0.458016 0.192248
0.159300 0.464910 -0.181907
0.241725 -0.151480 0.472124
-0.024458 -0.162452 0.468339
0.083140 0.108438 -0.488314
-0.052663 -0.327322 0.372642
0.140164 0.478474 -0.141924
0.277969 -0.015883 0.495547
0.146388 -0.486866 -0.104177
0.282506 -0.465905 -0.177024
0.227729 0.346109 0.356625
-0.019858 -0.445449 0.219620
-0.034530 0.488794 0.095516
-0.067647 -0.151951 -0.476258
0.004419 -0.450757 -0.212906
0.247187 0.376158 0.324694
-0.079102 -0.059913 -0.496484
0.157696 0.105725 0.484626
-0.073910 -0.497565 0.001097
0.158511 0.087125 -0.492768
0.286519 0.452316 0.207469
0.030706 -0.232361 0.438182
-0.289186 0.467330 0.171509
-0.131888 0.478337 -0.142373
0.199434 0.443589 -0.229451
0.252909 -0.301087 0.394036
-0.114194 -0.488631 -0.095756
-0.244208 -0.487962 -0.098946
-0.226261 -0.486567 0.101871
0.015285 0.481522 0.126614
0.090815 0.495160 0.056404
-0.018817 -0.452916 0.203614
0.150421 -0.422126 0.261153
-0.173042 0.438984 0.234164
0.043902 0.174084 -0.469034
0.211897 0.441726 0.228961
0.046953 0.191313 0.457978
-0.232499 -0.469929 0.161448
-0.201085 -0.192680 0.456759
-0.076159 -0.489635 0.085627
-0.016600 0.429339 0.250982
0.246108 -0.421599 0.262018
0.037438 -0.306472 0.389973
0.169045 -0.495976 -0.040214
0.122006 0.495859 -0.052982
0.042744 -0.485417 -0.111097
0.142056 -0.101491 -0.489742
0.258229 0.006375 0.495948
-0.227592 0.442753 -0.231040
-0.069403 -0.492267 0.070334
-0.275749 -0.397013 0.297972
-0.057752 0.398705 -0.301489
-0.209881 0.489019 0.094442
-0.184399 0.366604 -0.339725
0.190563 -0.440164 0.229657
0.090121 0.170958 0.465706
0.217749 0.496806 0.038264
-0.065650 0.283616 0.407460
0.026478 0.116350 -0.486657
-0.216190 -0.482353 0.119601
0.178122 0.174138 -0.469015
0.168005 -0.141962 0.475055
0.208039 0.187075 0.459658
-0.155613 0.162492 -0.473032
-0.206086 -0.416034 -0.275003
0.081802 -0.190989 -0.462017
-0.267784 0.496027 -0.051425
0.284271 -0.360620 0.340847
-0.110430 0.447803 -0.221448
0.054277 -0.383552 -0.319237
-0.191470 -0.023805 -0.499525
0.142094 -0.446142 0.218302
0.044925 -0.345505 0.355899
-0.057891 -0.277934 0.410660
-0.094107 -0.484630 0.110020
0.272007 0.163487 0.468509
-0.054093 0.196346 0.455719
-0.274335 0.496798 0.038361
0.015385 0.465072 0.177526
0.056107 -0.490068 -0.088868
0.030799 -0.384332 -0.318327
-0.004949 -0.430294 0.247755
0.091601 0.390373 0.307843
0.190671 -0.411693 -0.281579
-0.196264 -0.495873 -0.041481
-0.157511 0.248055 -0.434224
0.218328 0.268742 0.417475
0.227978 -0.007116 0.495705
-0.186454 0.380043 0.320166
-0.117956 0.217341 0.446298
-0.289119 0.091990 0.487338
0.122196 -0.083137 -0.493039
0.271908 -0.441268 0.227561
-0.119405 0.497437 -0.035923
0.204656 -0.497338 0.010934
0.032298 0.410282 0.280916
0.109867 0.272056 0.415454
-0.093201 0.351653 0.350963
-0.029165 0.441798 -0.232853
0.110610 -0.209258 0.449566
0.271101 0.236522 -0.440838
-0.231828 0.473263 -0.159001
-0.095210 -0.461652 -0.187626
-0.268582 0.473662 -0.157695
-0.120865 0.498623 -0.009487
-0.008103 0.452017 0.208077
0.140583 0.133600 -0.482000
0.158308 0.422342 0.262648
0.031215 -0.454208 0.200733
-0.050240 0.307335 -0.394449
0.015666 -0.330801 0.369657
-0.165800 -0.467562 -0.172219
-0.120455 0.387749 0.311186
0.195823 0.239712 -0.439008
0.204957 0.059274 -0.496798
-0.286372 0.497481 0.029924
-0.007264 -0.437899 -0.238622
-0.111125 -0.491542 0.074546
0.231473 -0.352070 -0.353836
0.048287 -0.462201 0.182043
-0.016058 -0.405773 0.285719
0.084806 0.489994 0.089788
-0.158245 -0.323393 0.376014
0.207241 -0.403288 0.289273
0.067527 -0.380776 -0.322472
0.057437 0.053879 -0.497423
-0.224862 0.220562 0.444704
0.123211 -0.449572 0.211065
0.127483 -0.166854 -0.471214
-0.289885 0.433543 -0.248460
-0.271543 -0.334104 -0.370924
0.150571 0.457405 -0.200247
0.071248 0.295548 0.399115
-0.085828 -0.457196 0.194075
-0.134597 -0.492655 -0.070985
0.073705 0.316077 0.383056
0.242378 -0.327783 0.372247
-0.110541 0.376960 0.323760
0.059090 0.442065 -0.232345
-0.290005 -0.329363 -0.375218
-0.162627 0.410697 0.280287
0.214218 0.013946 0.495659
-0.078991 -0.443765 -0.227097
0.131847 -0.495366 -0.047738
-0.105515 0.498530 -0.002082
-0.092358 0.498638 -0.008121
0.209143 -0.496518 0.029232
-0.183146 -0.258907 0.423060
-0.133203 -0.363267 -0.342335
0.236739 -0.453605 0.202077
0.114125 0.472579 0.156293
0.223465 -0.380599 0.318557
-0.167678 0.101756 -0.489714
0.070928 0.277243 -0.416146
-0.198027 0.026496 0.495097
-0.205241 0.180552 -0.466596
-0.059861 0.498596 -0.005760
0.175846 -0.469038 -0.167940
0.228598 0.272067 0.415448
0.087638 0.075171 0.490233
0.215976 -0.442497 -0.229670
0.079241 0.493468 -0.073666
-0.087645 0.301855 -0.398583
0.171919 0.079911 -0.493812
0.185709 0.491278 0.083235
0.022483 -0.134030 -0.481726
-0.192694 -0.326847 0.373049
-0.004752 0.462815 0.182941
0.196079 -0.404968 -0.291492
-0.265390 -0.339829 0.361424
0.245653 0.040220 0.494369
-0.231067 0.179990 0.462316
-0.213457 -0.138999 0.475873
0.269556 -0.497553 0.000406
0.058275 -0.433362 -0.246533
-0.195151 0.074586 -0.494582
-0.027345 0.113868 -0.487177
0.194264 -0.260795 -0.426048
-0.233968 -0.444788 0.220875
-0.152159 -0.237966 0.435069
0.074767 0.310763 -0.391863
0.263254 -0.493831 -0.062854
-0.181431 -0.380675 0.318462
-0.048661 0.140099 -0.480206
-0.281790 0.470317 0.162850
-0.196323 -0.494674 -0.056272
0.106540 0.350998 0.351636
-0.046741 0.494840 -0.062416
0.083912 0.257770 0.424164
0.012108 -0.478231 -0.139176
-0.084489 -0.497611 0.003633
0.097421 0.456853 0.197240
-0.104231 0.096040 0.486641
-0.204504 -0.031066 0.494835
-0.244916 -0.231305 0.438702
0.249257 -0.201407 0.453121
0.236069 0.416734 0.271142
0.172112 0.202157 -0.457588
0.130678 -0.497210 -0.018613
0.087047 -0.338197 -0.367216
-0.183758 0.406336 0.286684
0.245321 -0.375772 -0.328303
-0.258806 0.426938 0.255170
-0.283591 0.227854 0.440865
-0.165500 -0.188866 -0.462954
0.071267 -0.328499 0.371633
-0.269074 0.487093 0.103636
-0.046929 -0.009845 -0.500151
0.276999 0.369141 0.332872
-0.010249 -0.109649 0.483493
-0.079879 -0.304718 0.391297
0.088788 -0.356496 0.345199
0.132971 -0.087759 0.488079
-0.172784 -0.315846 -0.386777
-0.112398 -0.172723 -0.469012
0.190962 0.410871 -0.284249
0.090910 0.419090 0.267574
-0.187458 0.429210 0.251208
0.280425 0.334618 0.367033
0.164472 -0.469984 0.161301
-0.199364 -0.158032 -0.474403
0.027736 0.381977 0.317912
0.034025 0.497463 -0.035351
-0.096841 0.497550 -0.033416
-0.236198 -0.341260 0.360031
-0.056816 0.489575 -0.096278
-0.022765 0.473560 0.153450
-0.214808 -0.132409 -0.482221
0.104477 -0.314962 -0.387481
0.281538 -0.350209 0.351319
0.205544 -0.119998 0.481119
0.042611 0.287561 -0.409335
0.179091 -0.331392 0.369150
0.117191 -0.438095 0.233586
0.204498 -0.080690 0.489198
-0.211227 0.043156 -0.498291
-0.191787 0.373794 0.327449
-0.061854 0.496611 -0.046024
0.200052 -0.275073 0.412549
-0.149000 -0.247081 0.429842
-0.216501 0.477359 -0.145577
0.113057 0.498582 -0.004985
-0.071391 0.346792 0.355957
0.027700 0.276424 0.412490
-0.191784 0.136236 0.477012
-0.151091 0.380494 -0.324327
0.114600 -0.048575 0.493416
-0.024754 0.258677 0.423611
0.048123 0.497203 0.033365
-0.048883 0.477451 -0.145275
0.284990 0.403259 0.290762
-0.140692 -0.497374 0.010135
-0.225892 -0.393134 0.302836
0.048309 -0.173652 -0.468663
-0.098664 -0.053177 0.493043
0.090469 0.468096 0.169289
-0.167195 0.432916 0.244745
0.066413 -0.373324 0.326821
-0.193191 -0.139053 0.475858
0.101808 -0.427600 0.252174
-0.034556 -0.497543 -0.000166
-0.104363 0.094741 -0.491184
0.088776 -0.413248 0.275030
-0.199762 0.356895 0.345579
0.098334 0.149598 -0.477480
-0.230684 -0.092537 0.487077
-0.134624 0.496646 0.040239
0.199223 0.498619 -0.007050
0.104059 0.405919 -0.291329
-0.252108 -0.237416 -0.439644
-0.124011 -0.493324 -0.066364
-0.189391 0.438590 0.234850
0.138183 0.484624 0.115375
0.148526 -0.043683 0.493812
-0.251028 0.246641 -0.435035
-0.270003 0.319986 0.379939
-0.186718 0.222872 0.443488
-0.040903 -0.455906 0.196951
0.023370 0.028733 -0.499460
-0.068999 0.099343 0.486072
0.124216 0.423957 0.260201
0.210426 -0.403460 -0.293491
0.198605 0.399612 -0.300348
-0.022707 0.153879 0.471629
0.143829 0.184424 0.460652
0.256444 0.495503 -0.056282
0.236562 -0.035805 -0.498987
0.146056 -0.090760 0.487450
-0.245018 -0.210977 0.448719
-0.007287 0.148788 0.473182
-0.243971 0.307899 -0.394023
-0.022276 -0.052295 0.493114
0.016419 0.493601 -0.072893
0.100798 -0.494134 -0.060765
0.245980 0.482426 -0.127960
0.181185 -0.454777 -0.204115
0.090675 0.472363 0.156920
0.109780 0.249714 -0.433273
0.153141 -0.379414 0.320043
-0.146377 0.494015 -0.070051
-0.249298 -0.177398 0.463130
-0.115251 0.487908 -0.104894
0.247250 0.390908 -0.311267
0.282930 -0.371530 0.328801
-0.091337 -0.014890 -0.499925
0.065168 0.392353 0.305219
0.280895 0.495252 -0.058597
-0.039669 -0.362149 -0.343483
0.227286 -0.463650 0.178183
-0.102615 -0.497595 0.002724
0.231155 0.021937 -0.499810
0.073855 -0.305173 -0.395287
-0.021324 -0.082843 -0.493090
-0.023512 -0.491042 0.077453
0.091483 0.496540 0.041546
0.168931 0.098299 -0.490438
0.232664 -0.496927 -0.028468
-0.201898 0.497933 -0.024885
-0.070946 0.435389 -0.245026
0.246313 0.437198 -0.241589
-0.033480 0.466870 0.172843
0.286414 -0.496969 0.019177
-0.134825 -0.496872 -0.029155
0.204860 0.254639 0.426072
-0.146354 -0.366570 -0.338942
-0.006077 0.315970 0.383142
-0.134839 0.419806 0.266489
0.240751 0.489855 0.090450
0.190619 0.478438 -0.142039
0.157551 -0.473730 -0.154340
-0.026835 0.477148 0.142458
0.019118 0.138324 0.476375
0.048287 0.476792 0.143749
0.153628 -0.467908 0.166833
-0.229737 0.468615 -0.172034
-0.286995 -0.492863 -0.069548
0.098170 0.314993 0.383920
0.190242 0.420449 0.265515
0.039506 -0.029838 -0.499254
0.090271 0.355094 0.347429
0.258706 -0.391466 -0.309389
-0.106003 0.132927 -0.482186
-0.183095 0.010163 0.495829
-0.051645 0.473495 -0.158242
0.216879 -0.449933 0.210262
0.115669 0.447990 0.216249
-0.128257 -0.494325 0.053343
-0.004187 0.496035 0.047781
-0.093210 0.397108 -0.303492
-0.011793 0.345799 0.356907
-0.147088 -0.462159 0.182155
-0.143362 -0.475299 -0.149790
-0.134131 0.366767 0.335438
-0.259017 -0.415873 0.271277
-0.123412 0.449831 -0.217125
-0.012965 0.497099 0.034643
-0.180104 0.460207 -0.194003
-0.036953 0.141030 -0.479949
-0.011497 0.488866 0.095173
-0.272311 0.375714 -0.329667
0.201978 -0.469783 -0.165782
0.046164 -0.411503 -0.281867
0.248399 0.458361 -0.198117
0.015562 -0.072980 0.490313
-0.025612 0.493925 -0.070881
0.285545 0.083217 0.488848
0.122416 0.394305 0.302631
0.025794 -0.391563 0.304806
0.285934 0.478193 -0.142845
-0.203730 -0.495293 -0.048641
-0.063296 -0.275205 -0.416979
0.193820 -0.445192 -0.224200
0.257843 -0.071493 0.490528
-0.126084 -0.030905 0.494848
-0.277147 0.491634 -0.084322
0.046931 0.144272 0.474560
0.144279 -0.474711 -0.151494
0.196081 -0.112077 -0.487226
0.120043 0.063075 -0.496248
0.282846 -0.119229 0.481331
0.008425 -0.165394 -0.471762
0.236822 0.441332 0.229761
-0.271885 0.321787 -0.382624
-0.209121 -0.235568 0.436444
0.028779 0.498087 -0.021446
0.284480 -0.271004 -0.419824
-0.184955 -0.305142 0.390977
-0.150672 0.498027 -0.022774
-0.272088 0.419235 -0.271930
0.244687 0.498412 0.004457
-0.018310 -0.422294 0.260877
-0.039190 -0.297246 0.396934
-0.183711 0.357078 0.345391
-0.132295 0.392321 -0.309494
-0.274435 0.445602 0.221094
-0.157364 -0.372677 -0.331911
0.086492 0.496279 -0.049096
0.214515 0.002688 0.495881
-0.055299 -0.395865 -0.303558
0.199777 0.073685 -0.494713
0.232051 0.437094 -0.241786
0.203625 0.335301 -0.371028
0.179645 0.320249 0.379729
0.071054 0.182959 -0.465592
0.096709 0.482841 0.121835
0.128350 0.123235 0.480465
0.081471 -0.115281 0.482313
0.037425 0.184913 -0.464778
0.098636 -0.102816 -0.489427
0.160221 -0.148384 0.473192
0.168433 -0.486969 -0.103688
-0.272896 -0.076560 0.489795
0.143743 -0.190002 0.457876
-0.025095 -0.396485 -0.302736
0.066200 -0.397113 -0.301904
-0.064520 -0.468608 -0.169188
0.075510 -0.407292 -0.288246
-0.162962 -0.204098 0.451999
-0.175209 -0.497518 -0.001565
-0.159598 0.481013 -0.133602
0.020362 -0.096403 0.486268
-0.044457 0.441855 0.228698
0.030929 -0.079354 -0.493690
0.093935 0.454273 -0.207227
-0.012097 -0.482242 0.120069
-0.083643 0.329801 -0.375748
-0.134495 0.401072 0.293662
0.119244 0.487396 0.102188
-0.108663 -0.256221 0.424600
-0.003147 0.306695 -0.394932
-0.119880 -0.181390 0.461466
0.050464 0.014112 0.495652
-0.046169 0.036528 -0.498828
0.077811 0.290606 -0.407070
-0.042469 -0.358050 0.343684
0.236579 0.106478 0.484447
0.023034 0.355497 -0.351521
-0.057493 -0.246312 -0.434877
-0.201217 0.027410 -0.499567
0.230613 0.329459 -0.376042
-0.154145 -0.411320 0.277788
0.269596 -0.485032 -0.112936
0.106881 0.190870 -0.462294
-0.199593 0.274118 -0.418209
0.168518 -0.397531 0.297321
0.206782 0.456891 0.197149
0.048044 -0.327576 0.372425
0.202307 -0.453200 -0.207897
0.177734 0.439905 0.232557
0.213512 -0.497073 0.016847
0.254035 0.407720 0.284796
-0.121797 0.244210 -0.436429
-0.230436 0.390905 0.307138
-0.188428 -0.248964 0.428762
-0.056965 -0.149476 -0.477013
-0.251917 -0.226938 -0.445161
-0.208899 -0.497372 -0.009655
-0.252008 0.497341 -0.038065
-0.021714 0.497373 -0.037361
0.107076 -0.214032 -0.451677
0.264032 -0.165134 0.467414
-0.024841 0.483159 -0.124874
-0.082365 0.394046 -0.307332
0.054728 0.436764 0.238035
-0.018733 0.282709 0.408094
-0.237980 0.453806 0.204445
-0.194375 0.452162 -0.211931
0.249260 0.134509 -0.481749
-0.091051 0.211804 -0.453170
0.274973 0.468179 0.169049
0.215429 0.460114 0.189418
0.152448 -0.079213 0.489411
0.268427 -0.478623 0.133722
-0.185857 0.195442 0.456125
-0.006675 -0.497074 -0.026210
0.010626 0.494798 -0.062804
0.028978 0.236110 -0.441074
0.243794 -0.069206 -0.495437
-0.012520 0.244213 0.432251
0.189000 0.449169 -0.218601
0.094286 -0.270713 0.415428
0.256714 -0.193085 0.456590
0.012312 0.048062 0.493522
-0.277525 0.349117 0.353568
0.153235 0.279876 -0.414408
-0.016829 0.370291 -0.335655
-0.082223 0.452495 -0.211188
0.166521 0.143456 0.474809
0.249212 0.272434 0.415224
0.094817 0.327801 -0.377463
0.014234 -0.486899 0.100471
0.207103 -0.490174 -0.088136
-0.167598 -0.481594 -0.126995
0.131802 -0.150659 -0.476652
0.040306 0.494813 0.058801
0.276891 -0.145600 0.474051
0.081806 0.063688 -0.496159
0.051869 -0.457968 -0.196461
-0.236653 -0.098199 -0.490446
-0.099369 0.464118 -0.184020
0.250625 -0.130130 -0.482916
0.243038 -0.465359 -0.178605
-0.039879 -0.470081 -0.164917
0.039007 -0.347420 -0.358612
-0.122997 -0.351404 0.350155
-0.225487 0.332677 0.368791
0.220155 -0.044953 -0.498101
-0.101139 0.057256 -0.497090
-0.050732 -0.409401 0.280531
0.229432 0.462795 -0.187544
0.022407 -0.412677 -0.280089
0.025863 0.362590 0.339730
-0.024555 -0.195077 -0.460182
-0.001401 -0.495123 0.045959
-0.202017 0.209665 0.449743
0.171242 -0.334683 -0.370400
-0.058963 0.355480 -0.351538
-0.081043 -0.435908 0.237739
0.160072 -0.111322 -0.487405
-0.124996 -0.167908 -0.470819
-0.058781 0.239743 -0.438991
-0.164146 0.410168 -0.285253
-0.224348 0.474207 0.151574
-0.024953 0.056328 -0.497224
-0.176836 -0.138656 -0.480315
-0.221618 0.400043 -0.299730
-0.096353 0.498418 0.004124
0.172936 -0.423049 0.259640
0.194022 0.498098 0.021890
0.235663 -0.260260 -0.426374
0.072499 -0.311612 0.386096
0.115860 -0.276066 -0.416377
-0.095187 -0.036876 0.494364
