0.106694 -0.442316 -0.048427
-0.180109 -0.268286 -0.357128
0.253820 -0.299276 0.327057
0.237253 0.000015 -0.447596
0.219414 0.299217 0.328012
-0.192010 0.215607 -0.392216
-0.122631 -0.441197 -0.059353
0.261067 0.445799 -0.006915
0.242508 -0.182251 0.403848
0.280887 0.189280 0.401250
-0.155605 0.425064 0.132312
-0.185121 -0.299401 -0.331300
0.197952 -0.011201 -0.447244
0.201035 0.205542 0.393032
0.083136 -0.110057 -0.433663
0.091675 0.445366 0.016315
0.258228 -0.400864 -0.195102
0.286018 0.211791 0.389848
-0.289991 0.182716 0.404090
-0.017718 -0.142836 0.419405
-0.058207 0.445189 0.021946
0.003260 -0.032618 -0.446245
0.258039 0.092168 -0.437891
0.237753 0.307895 -0.324423
-0.187726 -0.177928 0.405719
-0.203666 0.404083 -0.190611
0.041453 0.442133 0.055559
-0.278262 -0.215239 0.387474
0.009754 -0.184825 -0.407087
0.264948 0.290965 -0.339640
-0.077590 0.371213 0.244435
0.119731 0.435509 0.092689
-0.208736 -0.376427 0.235068
0.090874 -0.094212 0.432852
-0.116169 -0.164945 -0.415691
-0.259008 0.406596 0.180450
-0.073078 0.019190 -0.447025
-0.043809 -0.402942 -0.190881
0.133018 -0.159093 -0.417905
0.094394 0.264668 -0.360730
-0.025719 0.444849 0.028110
-0.119833 0.386481 0.219800
0.235636 0.418490 -0.155535
-0.206632 -0.352937 0.268558
0.178855 0.408295 0.176525
-0.210067 -0.315195 -0.316099
-0.232883 -0.002171 -0.447527
0.122561 0.430730 0.112809
0.087548 -0.410442 0.169195
0.193803 0.445097 0.024892
0.026575 0.445916 -0.001171
0.174721 -0.326245 -0.304774
0.026301 0.382907 0.225844
-0.123339 0.411251 0.169693
0.286685 -0.328088 -0.302683
-0.181463 0.435702 0.091826
0.128991 -0.255537 0.362109
0.215443 0.240909 -0.377101
-0.240190 0.344163 -0.285545
-0.133453 0.437500 -0.088135
0.266780 0.402762 0.189035
0.063754 0.418043 -0.156775
0.215154 0.097857 -0.436620
-0.006819 0.445834 0.001440
0.211442 -0.397775 -0.201165
0.254703 0.368776 0.248021
-0.119210 0.252356 0.364968
-0.123459 0.413381 -0.169124
-0.031683 0.052318 0.440126
-0.156897 0.047027 -0.444980
-0.066658 -0.194339 -0.402572
0.013364 -0.343763 0.280386
0.167391 0.142054 0.420055
-0.102015 -0.376144 -0.239900
0.274857 0.384776 0.222684
0.116398 -0.329187 -0.301436
-0.121530 0.427034 -0.129883
0.064130 0.444436 0.032484
0.046482 0.202747 0.394456
0.240955 0.296653 -0.334626
-0.149024 -0.429827 0.112390
-0.176590 -0.321168 0.305773
0.083292 -0.231438 0.377894
0.171626 0.269182 0.352875
-0.265692 0.235422 0.376144
-0.170077 0.202014 0.394830
0.169717 -0.243313 -0.374771
0.244111 -0.388403 -0.219172
0.202865 -0.343446 -0.285148
-0.054027 0.428201 0.121514
0.124872 -0.443156 -0.039539
-0.223049 -0.435251 0.089263
0.232858 0.434157 -0.103091
-0.120921 -0.080713 -0.440077
0.242410 -0.125209 -0.429275
-0.055171 0.342189 0.283498
0.161690 -0.287777 0.337195
-0.061122 0.278691 0.345499
-0.197627 0.254907 -0.367587
0.091586 -0.050463 -0.444558
-0.141038 -0.218768 -0.389740
-0.179858 -0.250583 0.365476
0.258406 0.284763 -0.345109
0.125786 0.445321 0.017744
0.055941 -0.443427 -0.036667
-0.132762 -0.252307 -0.368658
-0.036961 0.376132 -0.241549
0.144525 -0.318925 0.308015
-0.026653 -0.312550 -0.318743
-0.288721 -0.182273 0.403839
-0.208620 -0.050254 -0.444578
0.024863 0.361493 -0.263090
0.118047 0.400610 0.193258
-0.125836 0.442468 0.053302
0.063667 -0.444619 -0.011837
0.210768 -0.338466 -0.290912
-0.035317 -0.444917 -0.001986
-0.044469 0.445334 -0.021684
0.162025 0.046916 -0.444990
-0.042621 0.248418 0.367644
-0.029515 0.438455 -0.083132
0.089008 0.222780 -0.387974
-0.147348 0.113974 -0.432837
-0.212056 0.153218 0.416036
-0.245521 0.089918 0.434041
0.279457 0.209756 -0.395238
0.227633 0.212447 0.389514
0.153687 -0.217501 -0.390490
-0.059913 -0.175581 -0.411088
-0.021627 -0.366588 -0.254086
0.138210 0.439789 0.070359
0.041029 -0.371100 0.243092
-0.160810 -0.444830 -0.005118
0.272831 0.036686 0.441604
-0.184156 0.433228 -0.107251
-0.068847 -0.150971 0.416476
-0.034596 0.333421 -0.297797
0.017900 -0.216554 0.386696
-0.225276 0.359363 -0.265949
-0.004534 -0.390588 -0.215269
0.019421 -0.298704 0.327561
-0.051126 -0.432790 0.100271
0.155451 0.250153 -0.370819
0.113785 -0.127451 0.424270
-0.136160 0.071188 -0.441748
0.264517 -0.013638 0.442814
0.076715 0.300103 0.327231
-0.230166 -0.403884 -0.188703
0.194868 0.193081 -0.403735
-0.010502 0.445013 -0.030731
-0.200896 0.433172 0.103146
0.240964 0.349285 -0.278940
0.041803 0.368351 0.248646
-0.001509 0.013971 0.442835
-0.023217 -0.144743 -0.423072
-0.139959 -0.058593 0.439227
0.085582 -0.346653 -0.281013
0.125564 0.012176 0.442892
0.127991 -0.436917 -0.086159
-0.200783 0.225321 -0.386471
-0.186234 -0.086473 -0.438935
-0.174994 -0.314576 -0.316718
-0.276926 -0.184993 -0.407015
0.214259 0.140963 -0.424801
0.282581 -0.423270 -0.139311
0.122749 -0.334590 -0.295308
0.237644 -0.242954 0.370661
0.258579 -0.293615 -0.336401
-0.037424 -0.310528 0.316412
-0.180497 -0.425006 -0.133338
-0.080890 -0.314624 -0.316669
-0.154547 -0.283149 -0.345600
0.175952 0.319350 0.308615
0.028551 -0.160163 0.413166
-0.029914 -0.230858 -0.382590
0.068743 -0.315837 0.311103
0.021504 -0.335733 0.289658
0.087042 0.394348 -0.209902
0.197612 -0.187518 0.401569
-0.012430 -0.120961 0.426156
-0.164855 -0.275019 -0.351905
-0.289328 0.218074 0.386403
0.096036 0.443804 0.039171
0.193763 -0.398283 0.195813
0.111626 0.064118 -0.442867
0.192989 -0.143254 -0.423607
-0.229923 0.061418 -0.443295
-0.218483 0.340174 -0.290137
0.124326 -0.306324 0.320616
-0.244839 0.027752 -0.446756
-0.149368 -0.333269 0.292453
-0.176578 0.437745 0.082689
0.078735 0.209271 0.391132
-0.289942 -0.310121 -0.321173
0.235286 0.437266 -0.089185
-0.138562 0.352983 0.269821
0.180477 0.263135 -0.361918
-0.277267 -0.444089 0.024350
-0.225713 0.072237 -0.441582
0.203435 -0.399228 0.193960
0.199159 0.320718 -0.311600
-0.038334 0.419044 -0.153995
0.145198 -0.369703 -0.249502
0.148412 0.443827 -0.043281
0.136002 -0.102725 -0.435303
0.144329 0.230622 0.378983
0.179860 0.391179 0.211767
-0.256615 -0.218694 -0.389784
-0.119532 0.282301 -0.347052
0.136256 0.418125 -0.156549
-0.048461 -0.442555 0.041546
-0.268758 -0.005737 -0.447415
-0.059772 -0.351471 -0.274802
0.157185 -0.056551 0.439550
0.243442 -0.144836 -0.423038
-0.250429 -0.291320 -0.338425
0.098585 -0.414679 -0.163273
-0.134627 0.445121 0.024114
0.148658 0.039641 0.441324
0.220271 -0.402140 -0.192597
0.081992 -0.085425 -0.439169
0.247909 0.326318 0.301500
-0.086273 -0.173678 -0.411911
-0.250351 -0.254571 -0.367119
0.044772 0.424869 0.132981
-0.032119 0.090547 0.433900
-0.277092 -0.362409 0.255881
-0.166881 0.445552 -0.014754
-0.112709 -0.437166 0.080450
-0.114884 0.444884 0.027744
-0.097741 0.105630 -0.434882
0.232378 -0.360287 0.259003
0.134030 -0.326272 -0.304743
0.087207 0.445707 0.005469
-0.228574 -0.204083 0.393253
0.197373 0.376605 0.236501
-0.225202 -0.424489 -0.135118
-0.037521 -0.113938 0.428196
0.200611 -0.269553 0.351792
-0.047505 -0.215815 -0.391487
0.251551 0.431402 -0.114849
0.268331 -0.104735 -0.434853
0.183343 -0.181792 0.404047
-0.177721 -0.439112 -0.072514
-0.160792 -0.329141 0.297135
-0.052748 0.230176 -0.383600
-0.223055 -0.382740 0.224394
-0.138704 0.394947 0.204372
-0.102160 -0.302545 0.324175
0.066825 0.344713 -0.284836
0.087681 -0.158466 -0.418131
-0.205434 0.040595 -0.445588
-0.066246 -0.055127 0.439764
0.174771 -0.289701 -0.339852
0.209419 0.054254 0.439943
0.040520 -0.017562 0.442690
0.253719 -0.071654 -0.441512
0.158232 -0.299768 0.326623
0.132783 -0.441047 -0.060295
-0.276657 -0.261183 -0.362626
0.157582 -0.330843 0.295205
0.112104 0.399659 -0.199478
-0.029007 -0.078987 -0.440350
0.113009 -0.199608 -0.399887
-0.070127 -0.328501 -0.302215
0.206507 0.317344 0.310621
-0.012972 -0.193210 0.398793
-0.135336 -0.347718 -0.279639
0.276348 0.199631 0.396044
-0.204901 0.400603 0.193272
0.220613 0.323743 0.304222
0.219709 -0.179110 -0.409561
0.000034 0.415411 -0.164088
-0.066002 -0.269915 0.351511
0.066183 -0.442740 0.039587
-0.084389 0.203472 -0.398440
0.265421 -0.324801 0.302058
-0.232901 0.282580 -0.346836
-0.036447 0.317825 0.310140
0.083554 -0.444311 -0.021653
-0.182242 0.010698 0.442938
0.188358 -0.281824 0.342274
-0.033791 -0.397593 0.197168
0.182773 0.401539 -0.195788
0.212580 -0.444446 0.012982
0.135774 0.242894 -0.375751
-0.283461 -0.371931 -0.246223
0.011126 0.243539 -0.375313
0.149885 -0.286215 0.338571
-0.027768 0.434566 -0.101262
-0.104372 0.049298 0.440412
0.276293 -0.324855 -0.306350
0.035214 -0.129979 -0.427889
0.072264 0.343193 0.282359
0.226526 0.429400 -0.121739
0.038266 0.445732 -0.009032
0.048631 0.419692 0.147842
0.087067 -0.034269 -0.446089
0.265265 -0.213289 0.388563
-0.003343 0.258580 -0.365091
-0.133866 -0.123178 -0.429866
0.001025 -0.264909 0.355394
0.126467 0.195357 -0.402575
-0.256036 -0.444304 -0.021872
0.063991 0.193200 0.399321
0.029421 0.283327 0.341903
0.079494 0.077469 -0.440753
0.254956 -0.079380 0.435934
0.119614 0.146895 -0.422666
0.186986 0.384837 -0.226935
0.011909 0.445733 -0.008999
0.018945 -0.354682 0.266309
-0.213354 0.033620 0.441894
0.046795 0.009321 -0.447335
-0.288634 0.379625 -0.235747
0.176766 -0.337373 0.287798
0.224516 -0.233615 0.376607
0.046550 -0.125393 0.424868
-0.139929 0.445341 -0.021476
-0.030863 -0.382101 -0.229827
-0.250179 0.439003 -0.079673
0.145911 0.437938 0.081826
0.003534 0.305080 0.322843
-0.271381 -0.107656 -0.434200
0.119203 -0.088910 0.434037
0.235611 -0.269787 -0.355964
0.047225 -0.100881 -0.435715
-0.230686 0.070768 0.437461
-0.105936 -0.443792 -0.032807
-0.268840 0.332427 -0.298924
-0.274284 0.134155 -0.426974
-0.112087 -0.366298 -0.254512
-0.012976 0.443883 -0.042687
0.103121 0.434376 -0.102112
0.029402 0.298326 -0.333151
-0.085186 0.019510 -0.447015
0.249302 -0.105943 -0.434583
0.286542 -0.128321 0.424018
-0.287960 -0.444817 0.001185
-0.161886 0.440213 0.067679
0.032988 0.443403 -0.047765
0.190588 0.091427 -0.438057
-0.021276 0.074507 0.436869
0.243376 -0.272954 0.349154
-0.241547 0.278581 0.345585
-0.237896 0.293150 -0.337714
-0.218956 -0.267283 -0.357907
-0.289820 -0.385172 -0.224635
0.068995 0.443547 0.041885
-0.078778 0.268876 -0.357466
-0.022500 -0.428409 -0.121623
0.230156 0.348945 -0.279379
0.208846 -0.012299 -0.447209
-0.157394 0.413635 -0.168538
-0.196375 -0.419814 0.144656
0.207542 0.418373 -0.155859
0.116826 -0.082179 -0.439845
0.093694 -0.333077 0.292670
0.203615 -0.329748 0.296447
-0.011497 0.240303 -0.377513
-0.094215 0.191818 0.400025
0.090000 -0.177755 -0.410147
0.028178 0.365789 0.252415
-0.014746 -0.424211 0.131720
0.140570 -0.342808 0.281617
0.162643 0.302951 -0.329074
0.079900 -0.025758 -0.446786
0.027505 -0.441926 -0.052552
0.286682 -0.444779 -0.006743
0.045952 0.390617 0.212807
0.166518 0.189666 -0.405436
-0.063090 -0.104598 -0.434884
0.108394 -0.056339 0.439584
0.022602 0.399083 -0.200610
-0.072582 -0.254162 0.363044
-0.288818 0.444873 0.027857
-0.003491 0.426082 -0.133162
-0.193988 -0.167157 0.410380
0.237905 0.213437 -0.393363
0.153076 -0.360188 0.259149
0.187991 0.011360 -0.447271
-0.242550 -0.173769 0.407518
0.120146 0.029159 -0.446669
0.254493 -0.412808 0.163727
-0.189309 0.121875 -0.430542
0.097665 -0.186146 -0.406516
-0.218875 -0.066053 0.438045
0.030409 -0.040399 -0.445509
-0.163070 -0.265733 -0.359108
-0.138801 -0.444658 0.006258
-0.054155 0.249411 -0.371323
-0.268594 -0.270015 0.351433
-0.054669 -0.363070 0.254908
-0.088622 -0.409817 -0.174993
-0.247098 -0.123222 -0.429853
-0.190460 0.189082 0.401336
0.191286 0.230922 -0.383159
-0.104007 -0.277250 0.345822
0.095155 -0.116132 -0.431912
-0.217295 -0.444397 -0.018895
-0.106039 0.337374 -0.293312
-0.153480 0.345397 0.279600
0.160592 -0.429326 -0.118469
0.184715 -0.378602 -0.235744
0.054239 0.415863 -0.162830
0.070686 -0.003214 -0.447495
0.065255 0.316582 -0.315737
0.158025 0.161859 -0.417278
-0.195968 0.443811 -0.043449
-0.000274 0.445808 -0.006600
-0.225042 0.402717 0.189124
0.098631 0.442569 0.052229
-0.227433 -0.084518 0.435019
-0.050154 0.436726 -0.091601
0.100877 -0.350230 0.272048
0.007387 -0.087337 0.434389
0.286662 0.428497 -0.124849
-0.159286 -0.225333 -0.385858
-0.182933 -0.011261 0.442888
-0.066657 0.418386 -0.155823
-0.260642 -0.422430 -0.141745
-0.241253 0.371455 0.244079
-0.289347 -0.014224 0.442795
0.156151 0.428122 -0.126141
-0.201079 -0.330974 0.295056
-0.011866 0.325186 -0.307132
-0.175568 -0.350257 -0.276367
0.231914 0.443682 0.040460
-0.275558 0.240404 -0.377444
-0.102442 0.034777 0.441784
0.201370 0.034954 0.441768
0.134030 -0.441625 0.051374
-0.084932 0.399045 0.196329
-0.182999 -0.045691 -0.445009
-0.027368 0.445526 0.011227
-0.189103 -0.246288 0.368395
-0.179340 0.145293 0.418889
0.204032 0.437984 0.081617
-0.278958 -0.088248 0.434185
0.054175 0.400829 -0.197181
0.023943 -0.187907 0.401400
-0.244111 0.333028 -0.298242
-0.171521 -0.306336 0.320604
0.094841 0.124057 0.425554
0.077592 0.312228 -0.320090
-0.107918 0.214867 -0.392634
0.130172 0.377505 -0.239332
0.018986 0.393377 -0.211807
-0.132531 0.425581 -0.134886
0.264140 -0.177924 0.405721
0.198772 -0.317735 -0.313559
0.039574 -0.365589 -0.255555
0.245552 -0.444142 0.022679
0.016285 -0.401559 0.189385
0.260733 0.425107 0.132164
-0.042175 -0.431117 0.107756
0.061344 0.387871 -0.221805
-0.257795 -0.242138 -0.375569
0.003166 -0.342948 0.281436
-0.097471 -0.444364 -0.019946
0.120911 0.408261 0.176604
0.156288 -0.443397 -0.036989
-0.010340 -0.418890 -0.151578
-0.121289 -0.402052 -0.192771
0.278674 -0.032689 0.441885
-0.131781 -0.422323 0.137687
-0.189679 0.409347 0.174095
-0.121567 -0.016136 0.442735
-0.203688 0.303384 -0.328692
0.069696 -0.444231 0.019838
0.121829 0.342177 0.283512
-0.106871 -0.365345 0.251561
-0.032211 -0.360332 -0.263291
-0.000802 0.320475 0.307490
-0.038042 -0.322588 0.304352
-0.253892 0.411493 -0.173487
0.005778 -0.242653 0.370866
-0.205661 0.198732 0.396502
0.212307 0.074216 -0.441268
-0.246186 0.408567 0.175896
0.119541 -0.286434 0.338378
0.032242 0.349673 -0.278440
0.065111 -0.261840 -0.362128
0.246938 0.160303 -0.417838
0.286486 0.415061 -0.165060
0.026836 -0.345234 0.278489
-0.074767 -0.315012 0.311928
0.154588 0.015040 0.442802
0.057214 -0.375700 0.236297
0.038201 0.442155 -0.059774
0.189772 0.134406 0.422548
0.286592 0.337010 0.289373
0.153076 0.301513 0.325988
0.266601 -0.401221 0.190047
-0.267962 -0.034472 -0.446070
-0.033675 -0.216027 0.387008
-0.209267 -0.101663 0.431186
-0.039040 -0.412636 -0.168477
0.068255 0.245942 -0.373680
-0.012974 0.310403 0.317562
-0.203355 -0.237367 -0.378741
0.040276 -0.432185 -0.107332
0.247806 -0.441724 -0.054690
0.083087 0.281730 -0.347495
0.241915 0.400594 -0.197643
0.173527 0.408879 -0.179529
-0.129852 0.048480 -0.444842
0.231489 0.445108 0.024531
-0.115598 -0.313719 0.313221
-0.232819 0.122074 -0.430484
-0.061347 -0.013869 -0.447160
0.272774 0.047381 0.440593
0.270850 0.424123 0.135534
-0.024538 -0.185105 -0.406967
-0.242417 -0.002381 -0.447521
-0.137842 0.410297 -0.176252
-0.197733 -0.019284 0.442636
-0.190141 -0.437076 -0.085372
-0.042594 -0.175914 0.406590
0.136450 0.382093 -0.231574
-0.056947 0.268533 -0.357732
0.027874 -0.381620 0.226288
0.131446 0.100008 -0.436139
-0.179178 0.402418 -0.194064
-0.195110 0.424440 -0.138814
0.284214 0.057365 0.439584
0.212924 0.390599 -0.217191
0.263747 0.294629 0.332057
0.017873 -0.196602 0.397065
0.217065 -0.055576 0.439705
0.076339 -0.407042 -0.181405
0.233753 -0.360137 -0.263578
0.110008 -0.376025 -0.240102
-0.179829 -0.031288 0.442017
-0.091895 -0.229900 -0.383157
0.244092 0.004092 0.443146
0.181570 -0.087785 -0.438642
-0.241119 -0.440424 0.059880
-0.108990 0.302552 0.325072
-0.146646 0.093023 -0.437700
-0.231694 0.048631 -0.444828
-0.103580 -0.441804 0.049487
-0.232560 -0.373523 -0.243880
-0.180147 0.188545 0.401568
0.063831 0.444997 -0.030906
0.177207 -0.339953 -0.289225
-0.176767 -0.328068 0.298352
-0.174294 -0.119949 0.426450
-0.111172 0.166440 -0.415487
0.254430 0.257726 0.361318
-0.099174 -0.178912 -0.409646
0.074712 -0.355910 0.264726
0.221325 -0.377439 -0.237711
-0.017839 -0.372174 -0.245865
0.181323 0.348827 0.275179
0.061742 -0.389681 -0.217011
-0.177116 0.072681 -0.441511
-0.210184 0.408560 0.175912
0.121153 0.445671 0.006615
0.256203 0.329899 0.297438
-0.113575 -0.407816 0.175263
0.043335 0.424513 -0.138560
0.109369 0.318946 0.309019
0.001166 -0.003598 0.443129
-0.284559 -0.005192 0.443079
0.212531 -0.090918 0.433588
0.201626 0.044475 -0.445221
-0.073044 0.219347 0.385651
-0.142912 0.298777 0.328400
0.278628 0.286048 -0.343975
0.211965 0.333909 0.292889
-0.279527 0.388718 0.216018
-0.103472 -0.246555 0.368214
-0.136227 0.443624 0.041076
0.285943 0.203017 0.394319
0.088893 0.434537 0.097040
-0.164944 0.264504 -0.360857
-0.268135 -0.332247 -0.297966
-0.127616 0.377975 -0.238537
-0.053807 0.082052 -0.440027
0.051811 -0.391570 0.208989
0.046850 0.034412 -0.446172
0.023463 0.422964 0.138754
-0.059319 -0.394276 -0.208032
0.196539 0.090416 0.433930
0.031301 0.375977 0.237425
0.087934 0.237543 0.374890
0.127526 0.125063 0.425262
-0.079712 -0.436183 -0.089445
0.201747 0.415302 -0.164390
-0.222622 0.013654 0.442845
-0.151001 -0.055956 0.439644
-0.068346 -0.436359 -0.088657
0.021635 -0.365220 0.251746
-0.091850 0.159310 -0.418196
-0.136080 0.427287 0.124658
-0.135536 0.430814 0.112520
-0.025885 -0.192928 0.398937
0.103595 -0.444683 -0.009803
0.117646 -0.215758 -0.391521
0.033825 -0.299482 -0.331229
-0.055305 0.332979 0.293944
-0.091834 -0.299718 0.326667
-0.093281 -0.212825 -0.393152
-0.115130 -0.403076 0.186216
0.237995 0.410449 -0.175901
0.265534 -0.395512 -0.205607
-0.262158 0.433050 -0.108043
-0.101462 0.067235 -0.442374
-0.083442 -0.142966 0.419358
0.102949 -0.315820 0.311120
0.105406 0.264876 0.356215
-0.169172 0.098746 0.432067
-0.161400 -0.314296 -0.316998
-0.204258 0.273772 0.349314
-0.154219 -0.406675 -0.182253
0.197462 0.287371 -0.342809
-0.238917 -0.362666 0.255503
0.222334 -0.444097 -0.028462
0.195889 -0.308633 -0.322661
-0.026945 0.261840 0.358522
-0.219220 0.445757 0.003884
-0.198710 -0.340907 0.283790
-0.077949 -0.269875 0.351542
-0.232834 0.272385 -0.354744
0.106430 -0.403108 -0.190496
0.030335 0.172200 0.408641
-0.216304 0.445104 -0.029026
-0.014021 -0.444532 0.010244
-0.110390 -0.402856 -0.191078
-0.196819 0.445690 0.006010
-0.088789 0.379050 -0.236719
-0.171166 -0.241698 -0.375868
0.209889 0.422625 -0.144050
-0.026697 0.347718 -0.280961
0.102494 -0.383865 0.222491
0.081146 -0.362816 -0.259636
0.127130 -0.368275 -0.251603
-0.005179 -0.277600 0.345550
-0.136676 0.210521 0.390495
0.133774 0.258098 -0.365419
0.251191 0.399424 -0.199940
0.254365 0.279466 0.344898
0.285856 0.261991 0.358420
0.110699 -0.230013 -0.383090
0.182773 0.284149 0.341265
0.176117 0.401976 0.190577
0.157013 0.400796 0.192893
0.242990 0.442630 -0.055941
-0.276640 -0.437650 0.077392
-0.085824 -0.444228 -0.024267
-0.082985 0.196506 0.397636
0.084619 -0.425402 -0.131973
-0.056918 0.350035 0.273621
0.197763 -0.032392 -0.446266
0.224875 0.438142 -0.085107
0.074957 0.439156 0.074357
-0.104707 -0.048418 -0.444751
-0.182477 -0.359469 0.260138
0.085189 0.442468 0.053298
0.125857 -0.202666 -0.398329
-0.102173 -0.006103 -0.447404
-0.171305 0.183905 -0.407929
0.133370 0.047098 0.440620
0.058256 0.243969 -0.375021
0.190070 -0.332687 -0.297466
-0.079571 0.214585 -0.392778
-0.182003 0.444950 0.027047
0.252711 -0.010403 -0.447269
-0.043153 0.007409 0.443042
0.062188 -0.128734 -0.428251
-0.080402 0.348702 0.275339
-0.011909 -0.292806 -0.337114
-0.154305 -0.442872 0.038183
-0.059861 -0.344206 -0.284168
0.081785 -0.121157 -0.430452
-0.024630 -0.280129 -0.347942
-0.127471 0.268976 -0.357388
-0.049389 0.437964 0.081709
0.280417 0.064257 -0.442845
-0.172825 -0.204342 0.393121
-0.140927 -0.444399 -0.018851
-0.154438 0.438592 0.077917
-0.129326 -0.397721 -0.201271
0.072057 0.306051 -0.326267
-0.147013 -0.348389 -0.278775
0.065171 0.040523 0.441241
-0.247614 -0.439058 0.068502
0.064544 -0.253895 0.363225
0.146775 0.296961 -0.334355
-0.208340 0.391207 -0.216065
-0.013633 -0.192343 -0.403589
0.183537 0.445093 0.025022
0.263590 -0.202893 -0.398213
0.019528 -0.377289 -0.237965
0.115084 0.442353 -0.058521
0.113515 -0.046732 -0.444911
0.214616 0.311746 0.316220
0.149129 -0.124999 -0.429336
0.226486 -0.437922 -0.080026
-0.279141 0.212690 -0.393744
0.135050 -0.182692 0.403657
-0.242028 0.314282 -0.318036
-0.273825 0.416663 0.156257
0.087178 0.386984 0.218951
0.107034 0.404522 -0.189596
0.005908 0.428039 -0.126425
-0.060361 -0.422647 0.136787
-0.262069 -0.399794 0.192848
0.175537 0.290771 0.335458
-0.014221 0.307092 -0.325227
0.077823 0.089941 0.434036
0.210373 0.316282 -0.316036
0.284386 -0.416348 0.154284
0.083876 0.205807 -0.397250
0.274142 0.094610 -0.437346
-0.055812 -0.155492 0.414848
0.283462 0.320401 0.307564
0.014343 0.190626 -0.404986
0.055607 -0.444181 0.021424
-0.176414 -0.427823 -0.123642
0.237216 -0.186529 -0.406350
0.023609 -0.375206 0.237051
-0.125140 0.056153 0.439764
-0.133314 0.142040 0.420060
0.274846 -0.021229 -0.446929
0.108760 -0.168731 -0.414052
0.055569 0.118762 0.427093
0.107543 0.445544 0.010667
-0.096026 -0.074320 -0.441089
0.223281 0.444240 0.034560
-0.218028 -0.364056 -0.257811
-0.187601 -0.367113 -0.253312
0.218078 0.224015 0.382890
0.149559 0.379856 0.231003
0.015191 -0.035562 0.441613
-0.045235 -0.442217 -0.049470
0.198440 -0.072009 0.437102
-0.147890 0.103640 -0.435327
0.072404 0.292600 0.333846
0.090189 0.156274 -0.419289
0.108530 -0.063178 -0.442854
0.214347 -0.044094 -0.445160
-0.215692 -0.321155 -0.310139
-0.228951 -0.086893 -0.438841
0.275542 -0.442363 0.043571
-0.220189 -0.051781 -0.444433
0.061822 -0.067900 0.437753
0.258564 0.410359 -0.176107
-0.226771 0.185830 -0.407096
-0.017547 -0.442975 0.037097
-0.165724 0.311338 0.316628
0.190108 -0.333575 0.292106
-0.002766 0.061081 -0.443348
-0.084023 0.180941 -0.409212
-0.089260 0.432535 -0.110351
-0.217557 -0.413437 0.162273
0.068135 -0.089242 0.433963
-0.160181 0.205425 0.393092
0.248367 -0.197655 0.396529
0.121868 -0.278631 0.344751
-0.197621 0.331998 -0.299411
0.189570 -0.441211 0.054910
0.121723 -0.425244 0.128164
-0.055498 -0.372797 -0.244950
-0.201847 -0.251751 0.364682
-0.042403 -0.289722 -0.339833
0.076681 0.332933 0.293997
-0.275624 -0.430131 0.111342
0.146074 -0.438177 -0.078420
0.112534 -0.112807 0.428525
-0.193266 -0.091593 0.433437
0.127919 -0.004210 0.443110
0.209029 -0.413092 0.163070
-0.143549 -0.426564 -0.127975
0.179929 0.219052 -0.390179
0.171680 -0.386551 0.217950
-0.060603 0.432587 -0.110116
0.284916 0.377540 -0.239272
0.213946 0.397031 -0.204636
-0.039280 -0.376697 0.234612
-0.276970 0.046064 -0.445071
-0.249781 0.253153 0.364426
0.119777 0.335274 0.291341
0.130467 -0.398384 0.195616
-0.216341 -0.112071 -0.433092
0.191793 0.040466 -0.445600
-0.120731 0.419198 -0.153569
-0.096002 -0.210236 0.390119
0.239280 0.125263 -0.429557
0.092251 -0.062553 -0.442953
-0.190860 0.169419 -0.414198
0.014138 0.128873 -0.428509
-0.059677 -0.443123 0.035534
-0.095796 0.261697 -0.362973
-0.056449 -0.223376 0.382662
0.013619 -0.438560 0.071646
0.121809 0.363304 0.256073
-0.155924 -0.412475 0.164497
-0.263268 0.341626 -0.288490
-0.136820 0.380536 -0.234206
0.009796 -0.436159 0.085197
0.023077 -0.180281 -0.409054
0.053369 -0.444675 -0.010067
-0.134658 -0.237699 -0.378545
0.245845 -0.419226 0.146290
0.139148 -0.290865 0.334472
0.102069 -0.443418 -0.036769
0.120930 -0.435160 -0.094023
-0.204277 0.319541 0.308424
0.264960 0.208141 0.391708
0.257765 0.376075 -0.241634
-0.010465 0.407521 -0.182666
0.263143 0.445613 0.008454
-0.223470 0.294562 -0.336470
-0.135676 -0.230197 0.378628
-0.248553 0.438626 0.077699
-0.100327 0.388512 0.216367
0.193980 -0.209227 -0.394986
0.155192 0.262539 -0.362381
0.234530 -0.074520 0.436704
0.185051 -0.412065 0.165445
0.102202 0.154011 0.415750
0.011867 0.137485 0.421653
0.030730 -0.093334 0.433048
0.277321 -0.425080 0.128730
0.206299 -0.052619 -0.444354
-0.175551 -0.422320 0.137698
-0.205077 -0.323060 0.303880
-0.077853 -0.106408 -0.434479
0.251132 -0.424567 0.130494
0.270121 0.107636 0.430080
-0.034758 0.021193 0.442608
0.122404 -0.138064 0.421123
0.146804 0.438060 -0.085627
0.099743 -0.410506 0.169047
0.241860 -0.072836 -0.441324
-0.246402 0.170038 0.409576
0.000964 0.098397 -0.436499
0.271596 -0.290321 -0.339305
0.221196 -0.178710 0.405381
-0.208622 -0.029717 -0.446519
-0.110274 0.136926 0.421816
0.086775 -0.393702 0.204804
0.147374 0.005559 0.443100
-0.228277 -0.323338 0.303602
0.276355 0.405886 -0.186446
0.030396 0.331768 -0.299671
0.096016 -0.369280 -0.250123
0.245603 -0.385190 0.220252
-0.039215 0.406005 -0.186169
0.155935 -0.029306 0.442205
-0.100093 0.440845 -0.068042
0.284634 0.075402 -0.441080
-0.083038 0.233255 0.377426
-0.270710 0.315291 0.312674
-0.116959 -0.294333 0.331415
-0.161307 0.018394 -0.447050
0.255084 0.381415 -0.232721
-0.121500 0.352346 -0.274995
-0.247357 -0.350012 0.272330
-0.254762 0.203762 0.393939
-0.154576 -0.432059 0.103541
0.213419 -0.236243 0.375053
-0.010288 -0.364108 0.253380
-0.250713 -0.392551 -0.211417
-0.136210 -0.382836 0.224232
0.264402 -0.075146 0.436605
-0.214310 -0.440403 0.060008
0.252549 0.346417 0.278286
-0.216945 0.303273 -0.328789
0.019113 -0.198499 -0.400452
-0.200991 0.127880 -0.428797
-0.227233 0.420375 0.145946
-0.029943 -0.392498 0.207168
-0.008540 -0.437667 -0.081638
-0.013991 -0.303368 -0.327803
-0.053095 0.392239 -0.214042
-0.020038 -0.288023 -0.341330
0.173026 -0.125908 0.424719
-0.189553 0.432343 0.106855
-0.152621 0.238045 -0.378946
0.134833 -0.245309 0.369061
0.221639 -0.232970 -0.381341
0.095303 -0.274001 -0.352695
0.237263 -0.401589 0.189326
0.238666 -0.366036 0.250545
-0.053191 -0.424759 0.129832
0.148519 0.101082 0.431545
-0.014409 0.436582 -0.092245
0.026664 -0.387771 0.215887
0.085036 0.010708 -0.447291
0.071715 -0.195040 0.397861
-0.260973 -0.252188 -0.368739
0.154779 -0.013804 0.442808
0.031125 -0.298706 0.327560
0.023166 -0.058876 -0.443535
-0.237797 0.388931 -0.220012
-0.197518 0.353193 0.269550
-0.270934 -0.231279 0.377988
-0.029655 0.054623 -0.444262
-0.221105 0.164811 -0.416192
0.043651 -0.437633 -0.081855
-0.289782 -0.232019 0.377551
0.108902 -0.444025 0.025987
-0.017852 -0.444830 -0.005111
0.223931 -0.304237 0.322683
-0.050238 0.172803 -0.412734
0.214289 -0.366011 0.250581
0.042985 -0.014696 -0.447134
0.169075 0.405330 -0.187729
0.047217 0.412912 0.165856
-0.246516 0.445593 0.009112
0.186366 -0.251769 0.364670
-0.113576 -0.247491 0.367578
0.047404 0.327488 0.300173
-0.198609 0.286240 -0.343806
0.120581 -0.034349 -0.446081
-0.050346 0.314774 -0.317544
0.272890 -0.157885 0.413987
-0.234983 -0.353531 -0.272146
0.152705 0.197718 0.397019
0.103130 -0.199725 0.395474
0.284562 -0.064142 -0.442701
-0.037065 0.204230 -0.398054
0.261472 -0.003328 0.443138
-0.254722 -0.379098 0.230553
0.008937 -0.099535 -0.436016
-0.186100 0.147373 -0.422494
-0.063222 -0.389428 -0.217439
-0.059412 -0.370323 0.244236
0.085466 -0.321197 0.305744
0.088684 0.154752 0.415483
0.142835 0.020356 -0.446988
-0.077830 -0.085245 0.434856
0.241351 0.355626 -0.270767
0.038395 0.439038 0.075098
0.159027 0.063391 0.438629
0.110360 -0.309516 0.317424
0.105218 0.212323 0.389577
-0.100518 -0.076107 0.436453
0.250556 0.165980 0.411333
-0.262419 -0.139284 0.420683
-0.054891 0.441279 -0.065301
0.128244 0.155320 -0.419633
-0.071835 -0.205998 0.392278
0.042201 0.166011 0.411320
0.164532 0.156411 0.414886
0.070704 -0.279832 -0.348172
0.273072 -0.392587 -0.211347
0.101550 -0.378061 0.232306
0.058612 0.393959 -0.210665
0.066301 -0.079729 0.435879
0.147111 0.085117 -0.439468
-0.258175 -0.441152 -0.059633
0.020694 0.350878 0.272534
-0.266933 -0.112243 0.428689
0.245418 -0.075546 0.436542
0.155379 -0.304677 -0.326617
0.034233 -0.140342 -0.424656
0.110705 0.180435 -0.409431
-0.004504 0.364273 0.254646
-0.129967 -0.444286 -0.022420
0.012055 -0.250299 0.365670
0.112341 -0.436395 -0.088497
0.114630 0.411389 0.169374
-0.041514 -0.419590 0.145278
0.211043 -0.275554 0.347137
0.264066 -0.427069 -0.126237
0.106916 0.385011 0.222287
0.147976 0.358230 -0.267409
-0.039889 0.174863 0.407489
-0.070207 0.409303 -0.178548
0.089217 -0.344634 0.279263
0.195707 -0.163238 -0.416413
-0.172157 0.439232 0.073875
0.140037 0.179132 0.405641
0.065405 0.163718 -0.416609
0.247524 -0.134582 0.422199
0.024322 -0.424664 0.130160
0.034986 0.434066 -0.103500
0.154872 -0.206880 0.391829
-0.090140 0.271059 -0.355772
0.003311 0.445655 0.007120
-0.130990 -0.078926 0.436006
-0.201911 -0.411848 -0.170298
0.193178 -0.219351 0.385042
-0.232978 0.407618 -0.182442
0.150947 0.425625 -0.134734
-0.197232 0.052411 0.440117
-0.148211 0.087941 0.434483
0.227265 0.004165 -0.447497
0.269181 -0.103016 0.430884
-0.249782 0.017363 -0.447082
0.215841 -0.432646 -0.105268
0.061888 -0.196680 0.397026
-0.207880 -0.431546 0.105838
-0.014440 -0.218850 0.385339
-0.058553 0.424614 0.133861
-0.174372 -0.144582 -0.423129
-0.020550 0.276461 0.347228
0.113287 -0.444482 0.011839
-0.093898 0.215681 -0.392172
0.205352 0.432524 0.106045
0.210444 0.418046 0.152415
-0.099241 -0.359640 0.259918
-0.209044 -0.418412 -0.152904
0.041727 -0.444643 -0.011073
-0.004422 0.374233 0.239990
0.220050 0.376845 0.236095
0.240854 0.433805 0.100316
0.011105 -0.111795 0.428819
0.281828 -0.230325 -0.382905
-0.219149 0.070143 0.437560
0.092761 0.099052 -0.436353
-0.052523 -0.389130 0.213589
-0.207392 0.100323 -0.436068
-0.284067 -0.076009 0.436468
-0.125576 -0.092331 -0.437626
0.078857 0.267978 0.353809
-0.200225 -0.273550 0.348692
0.160995 -0.193607 -0.402945
-0.147913 -0.444521 0.010598
-0.167231 0.018104 0.442705
-0.287925 0.438465 -0.083070
-0.215976 0.434446 -0.101801
0.107306 -0.224600 0.381938
-0.206741 0.340073 -0.290251
-0.109231 -0.390843 -0.214770
-0.241996 -0.026677 -0.446757
0.126126 0.428087 -0.126261
0.261995 0.417994 -0.156911
-0.039132 0.043308 -0.445331
-0.022209 -0.366794 0.249428
0.135959 0.427455 -0.128436
0.066427 0.326238 -0.305944
0.180019 0.422366 -0.144768
-0.108287 -0.413672 -0.166071
-0.183869 0.274633 -0.353000
0.148093 -0.428909 -0.119903
0.001251 0.436657 0.087555
0.176799 -0.434061 -0.098939
0.181598 0.046073 -0.445070
-0.037349 -0.127523 0.424250
0.105408 -0.365536 -0.255633
0.183143 -0.365134 0.251871
0.188059 0.198714 0.396511
-0.080530 0.311405 -0.320913
-0.085436 -0.239143 0.373251
0.021727 -0.097653 -0.436436
0.193769 0.416023 0.158034
-0.074039 -0.368015 -0.251985
0.043992 -0.426093 0.125241
-0.036400 -0.383842 0.222531
-0.285579 0.443481 -0.046940
0.181110 -0.433041 0.099150
-0.098190 0.445491 0.012337
-0.052209 0.298898 -0.332647
-0.263703 0.424933 0.132761
-0.195750 -0.102421 0.431017
-0.276296 0.393747 -0.211081
0.064678 -0.158286 -0.418196
0.197763 -0.444845 -0.004641
0.209925 -0.420373 0.143105
0.135916 0.366847 -0.255211
-0.090433 0.241578 -0.376646
-0.240685 0.072436 0.437197
0.103280 0.439420 0.072685
-0.102713 -0.038608 0.441325
0.018715 0.373773 -0.245021
0.278481 -0.011704 -0.447228
0.029591 0.282352 -0.347012
0.063733 -0.430200 0.111105
0.051454 0.322157 -0.310161
0.201387 -0.387844 -0.220118
-0.072223 -0.205734 -0.396766
0.117756 -0.430059 0.111593
-0.116318 0.399602 -0.199590
-0.033230 0.426707 -0.131009
-0.005914 -0.422902 -0.140435
0.227576 -0.385381 -0.224282
-0.112755 -0.009285 -0.447304
0.077996 -0.332052 -0.298187
0.099232 0.444476 -0.036414
0.031315 0.407508 0.178344
-0.206001 0.293911 0.332690
-0.108441 0.110220 -0.433856
-0.241560 -0.414905 0.158293
-0.248779 0.310302 0.317663
-0.183471 -0.105336 0.430365
-0.171170 0.327483 -0.304532
-0.137949 0.404141 0.186125
0.150027 -0.136968 0.421506
0.111218 0.001562 0.443225
-0.170282 0.139056 0.421134
-0.005487 -0.026408 0.442412
-0.136163 -0.340735 -0.288337
0.253201 -0.142657 0.419469
0.251243 -0.352106 -0.273983
0.181489 0.059758 0.439205
-0.230950 -0.150174 -0.421116
0.137868 -0.201070 -0.399142
0.187461 -0.002663 -0.447512
0.171859 0.095307 0.432836
0.079627 0.440079 -0.072882
-0.110052 -0.397775 -0.201164
-0.061611 -0.402906 0.186609
0.231880 0.443142 -0.050525
-0.064883 0.125381 0.425170
0.244631 0.139164 0.421096
-0.243339 -0.155966 0.414678
0.046985 -0.427772 -0.123816
0.208105 0.133371 0.422849
-0.209835 0.271477 -0.355448
0.001547 -0.076935 -0.440675
-0.177092 0.445549 -0.014868
-0.039058 -0.443671 0.029733
-0.093130 0.289051 0.336974
-0.080082 0.377548 0.234905
0.039765 0.397162 0.200025
-0.126698 0.244154 0.370542
-0.287466 -0.153237 0.415660
0.108310 -0.181074 -0.408711
0.259276 -0.286402 0.338407
0.254079 0.442974 0.047954
-0.161234 0.439412 -0.077093
0.153689 0.093747 -0.437538
-0.047915 -0.225886 -0.385531
-0.139581 0.346287 -0.282806
0.285036 0.236910 -0.379617
0.041351 0.178014 -0.410478
0.158562 0.101382 0.431478
0.198619 0.009253 -0.447337
-0.268399 -0.175092 0.406946
0.003267 0.187008 -0.406586
-0.178984 0.084921 -0.439511
-0.066131 0.329920 0.297414
-0.044913 0.239064 -0.378344
-0.287927 0.427034 0.125532
-0.236035 -0.444737 -0.008085
-0.265473 0.235000 -0.380747
-0.068193 0.445520 0.011422
0.231058 -0.185262 0.402545
-0.221366 -0.398246 -0.200241
0.211919 -0.290840 -0.338848
-0.170582 0.445932 -0.002682
-0.231012 -0.443009 -0.041087
-0.092532 0.425800 0.129778
-0.085326 0.331651 -0.299805
0.280051 -0.434176 -0.098425
0.044349 -0.087606 0.434329
-0.217555 -0.367881 0.247829
-0.075970 -0.063550 -0.442795
0.098392 -0.430627 -0.113991
0.212261 -0.443448 -0.036449
-0.224951 0.438031 -0.085762
-0.237509 -0.435386 0.088656
-0.193360 0.401793 -0.195290
-0.248293 -0.385450 -0.224165
-0.170767 0.375230 -0.242877
-0.274325 0.105332 -0.434949
0.270937 0.336535 0.289910
-0.163199 0.349666 0.274097
-0.155075 -0.106655 -0.434424
-0.273618 0.385714 -0.225451
-0.226441 0.439977 -0.073522
-0.141355 0.014880 -0.447160
-0.137065 -0.423799 -0.137491
0.220295 -0.437065 0.081085
-0.280300 0.440941 0.063082
0.156874 -0.204269 -0.397512
-0.184395 0.276073 0.347530
-0.063705 -0.429395 -0.118232
0.242454 0.445775 -0.007677
0.088581 0.315798 0.312167
0.260065 -0.371443 -0.246941
-0.173715 -0.295416 -0.334813
0.233529 0.185207 0.403012
-0.025061 0.199045 0.396342
-0.237929 0.414108 0.163092
0.265093 0.232592 0.377818
0.255773 -0.309469 0.317471
0.079278 -0.249214 -0.370760
0.207838 0.299011 -0.332547
-0.037122 -0.406478 0.178356
-0.043504 0.435787 0.091446
0.188076 -0.341566 0.283042
-0.188558 -0.444200 0.020821
-0.119953 0.440582 -0.069702
-0.101019 0.120339 -0.430988
0.085610 -0.444860 -0.004185
0.279995 -0.430833 0.108928
-0.273978 0.095755 0.432736
-0.242808 0.406744 -0.184463
-0.252940 -0.179767 0.404923
-0.203492 -0.238686 0.373561
0.055346 0.061198 0.438977
-0.165427 0.027955 0.442396
-0.042730 -0.362013 -0.260817
0.188524 0.442674 0.051120
-0.040657 0.269082 0.352952
-0.055222 -0.119328 -0.430984
-0.050408 0.443326 -0.048578
0.112401 -0.426798 0.122814
-0.022687 -0.441878 -0.053054
0.079463 0.077935 0.436326
-0.010544 0.009257 -0.447337
0.221054 0.443494 -0.046806
-0.124317 0.365106 0.253420
-0.125494 -0.347133 0.276041
-0.195335 0.435254 0.093830
-0.125894 -0.262714 0.357097
-0.182658 0.323276 0.304689
0.124954 -0.099616 -0.435997
-0.037013 -0.430366 -0.114890
-0.172786 -0.226714 -0.385041
0.200708 -0.405352 0.180958
-0.046210 0.361694 -0.262794
-0.230939 -0.069426 -0.441865
0.269319 -0.037432 0.441436
-0.014253 0.101602 0.431429
0.228878 0.308352 0.319613
0.213780 0.006396 0.443073
-0.239088 0.437257 0.084870
0.188814 0.354316 0.268101
0.125023 -0.126752 0.424474
-0.008313 0.423446 -0.141769
0.220971 -0.222982 -0.387248
-0.159038 -0.434539 0.092445
0.204615 -0.158174 0.413882
0.285983 -0.153083 0.415716
0.136766 -0.354654 0.266344
-0.218005 0.443715 -0.044468
-0.265536 -0.122254 0.425780
-0.287801 -0.122461 -0.430074
0.088506 -0.140995 0.420068
0.135868 -0.226096 0.381053
0.196779 -0.051526 -0.444458
-0.062306 0.442596 0.051949
0.173533 0.441691 0.058346
-0.131377 -0.025275 0.442448
-0.109250 0.418413 0.151394
-0.081243 -0.407136 -0.181188
-0.187252 -0.071633 0.437162
-0.247809 0.349003 -0.279304
0.074969 0.150744 -0.421280
-0.045672 -0.199894 -0.399741
-0.254564 0.445662 -0.011273
0.151014 0.177584 -0.410664
0.080800 -0.284304 0.340256
-0.237004 0.336392 0.290073
0.230797 -0.379454 0.229950
-0.109390 -0.372633 0.240837
0.042615 0.078176 -0.440641
0.018396 -0.382690 -0.228832
-0.164414 -0.205305 -0.396984
-0.203271 -0.185567 -0.406766
0.236786 0.087288 -0.438982
0.159672 -0.069743 0.437461
-0.242281 0.413154 -0.169650
0.104883 -0.368543 0.246855
-0.223006 0.037037 0.441571
0.041147 0.212539 0.389467
-0.130208 -0.426759 -0.127303
-0.047376 0.151772 -0.420910
-0.282013 0.378586 0.233151
0.249636 -0.439635 0.064858
-0.020728 0.426393 0.127736
0.067543 -0.146126 -0.422574
0.054539 0.424803 -0.137564
-0.193686 0.306809 -0.325510
0.205414 0.338749 -0.291752
-0.206593 -0.114143 -0.432490
-0.022266 -0.377427 0.233378
0.282488 0.047083 -0.444974
0.082081 -0.000859 -0.447569
0.164825 -0.382334 0.225080
0.186989 0.301676 0.325844
0.286275 0.337737 -0.292900
-0.177877 0.255781 -0.366994
-0.244097 -0.343171 0.281148
0.019948 -0.065998 0.438054
-0.211849 -0.286274 -0.342873
-0.239082 -0.368568 0.246818
-0.265075 0.200694 0.395502
0.175510 -0.440982 0.056355
-0.125386 0.115988 -0.432252
0.158778 0.382290 -0.231241
-0.151154 -0.014682 0.442781
0.273584 0.294725 -0.336326
0.260363 0.034587 0.441802
-0.249121 0.050097 0.440336
0.179495 0.422366 0.140415
0.042450 -0.295818 -0.334459
0.191636 0.221344 -0.388823
0.117405 0.429915 -0.119967
-0.176737 0.171168 -0.413441
-0.064878 0.077655 0.436370
0.201644 0.247291 0.368410
-0.217756 0.430089 0.115015
-0.004444 0.028052 -0.446746
-0.193518 -0.419885 -0.148813
-0.229198 -0.429539 0.113382
0.008397 0.440044 0.068747
-0.045984 -0.315836 -0.315458
-0.260991 -0.355647 -0.269418
0.285208 -0.267400 -0.357815
-0.104741 -0.410342 0.169426
0.259256 -0.285903 -0.343200
0.234163 -0.429915 -0.116440
0.128194 -0.439754 0.064108
-0.260981 0.179939 -0.409646
0.190418 -0.408744 -0.177472
0.061504 -0.355934 -0.269047
-0.208715 -0.436025 0.085799
-0.066823 0.107863 -0.434383
0.078671 0.398271 -0.202201
0.198803 -0.277694 0.345477
-0.036377 -0.441090 0.055673
0.017057 -0.442967 -0.041539
-0.239244 0.007882 0.443027
-0.149474 -0.289947 -0.339634
0.138788 0.413462 0.164585
-0.272986 -0.393503 -0.209550
-0.041548 0.297293 -0.334062
0.163848 -0.390993 0.210121
0.286838 -0.022413 0.442538
0.220954 0.347112 0.277389
-0.165926 0.179099 0.405656
-0.147189 -0.304677 0.322263
-0.097441 0.360546 0.260070
0.165805 0.443952 -0.041953
-0.037961 0.330411 0.296857
-0.138146 0.418922 -0.154333
-0.105046 -0.263585 0.356422
0.063053 0.019418 -0.447018
0.185394 0.413291 0.164979
0.003481 -0.303142 -0.328002
-0.010078 -0.074718 0.436673
0.052070 -0.407627 0.175701
-0.253021 -0.431820 0.104609
0.250345 0.019124 0.442673
0.126304 0.440239 -0.071873
0.262079 -0.092580 -0.437570
-0.233238 0.097388 0.432371
-0.082680 -0.355669 -0.269390
0.091520 -0.355966 -0.269007
-0.153351 -0.141022 0.420058
-0.003688 -0.139792 0.420500
-0.137118 0.097282 -0.436748
-0.015241 -0.055808 -0.444021
-0.054995 0.375714 0.237812
0.170423 -0.316035 -0.315259
-0.142138 -0.437460 -0.082943
0.225856 0.373773 -0.245021
-0.235633 -0.162307 -0.416748
0.004422 -0.440120 -0.066153
0.222600 0.310273 -0.322046
-0.018639 -0.016896 -0.447065
0.070803 -0.339022 -0.290281
0.271992 0.072612 -0.441522
-0.195640 0.443385 0.043597
0.170563 -0.172361 0.408128
0.008875 0.342957 -0.286980
0.062942 0.253958 -0.368233
-0.077126 0.440845 -0.068045
-0.213567 0.339094 0.287009
0.057980 -0.088601 0.434106
0.072273 0.332654 -0.298667
-0.186865 -0.444800 -0.006084
0.252755 0.180059 -0.409593
-0.162208 0.421087 0.143968
-0.269794 0.105687 0.430516
-0.210287 -0.434976 -0.094846
-0.276175 0.345273 -0.284113
-0.241581 0.442800 -0.054146
-0.083837 0.339769 -0.290596
-0.133430 0.347286 0.277165
-0.078774 0.445631 0.007895
-0.033068 -0.327011 -0.303905
-0.061110 -0.441234 -0.059117
-0.063328 0.307305 0.320660
-0.071867 0.282195 -0.347134
0.086079 0.046521 0.440674
-0.039751 -0.368193 0.247370
0.157050 -0.433645 -0.100800
0.282921 -0.338486 0.286536
-0.061318 0.206330 -0.396984
-0.102681 -0.332406 -0.297786
-0.039351 -0.079997 -0.440190
-0.288268 -0.410166 0.169833
0.050902 -0.368664 -0.251030
-0.091350 0.445115 -0.028663
0.152260 -0.150003 -0.421178
-0.120758 -0.140785 -0.424497
-0.181781 -0.329452 -0.301136
0.246918 -0.429273 0.114297
0.100534 0.320670 -0.311649
0.286015 0.182043 -0.408735
0.267557 -0.031529 -0.446348
0.236229 0.373419 -0.245542
0.206905 -0.424053 0.132265
0.091520 0.228786 0.380069
0.009638 -0.409170 0.172135
0.272015 -0.345670 -0.282281
-0.089905 0.074523 -0.441220
0.076128 -0.073044 0.436938
0.242307 0.243041 0.371298
-0.250100 -0.432286 -0.106881
-0.041558 0.179894 -0.409665
-0.154913 0.272739 -0.354469
0.124832 0.154285 0.415652
0.002974 -0.426901 -0.126815
0.091874 -0.080354 -0.440134
-0.002994 -0.291081 0.334281
-0.010499 0.211810 -0.394192
-0.247616 -0.444655 -0.010688
-0.075906 0.062481 -0.443127
0.082427 0.433966 -0.103947
0.148706 -0.440276 0.060811
-0.268200 -0.424938 -0.133570
-0.203508 -0.138996 0.420787
-0.201054 -0.296308 -0.334026
-0.085330 0.140508 -0.424965
0.138256 -0.283030 -0.345692
-0.023873 -0.178346 0.405538
0.151731 0.440100 0.068394
0.107845 0.209859 -0.395186
0.285341 0.114183 0.428423
-0.072081 0.117685 0.427406
-0.278746 0.271602 0.350998
0.063582 -0.070486 -0.441697
0.201029 -0.417054 0.152324
-0.141713 0.337109 0.289260
0.139485 -0.066686 0.437945
0.185162 0.374108 -0.244528
-0.265380 -0.349780 -0.276982
-0.191050 -0.441616 -0.055824
-0.288521 0.190039 -0.405275
-0.070590 -0.443502 -0.035874
-0.029429 -0.087605 0.434329
0.284526 -0.276854 0.346129
0.262212 -0.197336 0.396691
0.072661 0.433792 -0.104725
-0.028530 -0.387321 -0.221002
0.271838 0.083021 0.435520
-0.044890 0.256855 0.361910
-0.231437 0.307508 -0.324810
-0.118244 0.272455 -0.354689
-0.127576 -0.214687 0.387801
-0.000869 0.444488 0.031932
-0.010855 -0.266994 -0.358131
-0.084331 0.174191 0.407780
0.144716 -0.217865 0.385921
-0.125637 0.067544 0.437972
0.180883 -0.025650 -0.446790
0.241203 -0.312166 -0.319128
-0.023513 -0.332081 -0.298154
-0.275568 0.228482 -0.384602
0.124669 0.433370 0.102259
-0.071724 -0.404337 -0.187657
0.155526 0.226379 0.381492
-0.209068 0.138051 -0.425842
0.227231 -0.279895 0.343770
-0.117075 0.050682 -0.444634
-0.243105 -0.014140 -0.447151
0.178173 0.002976 0.443181
0.193838 -0.371351 0.242723
0.190983 -0.429589 0.113207
0.157336 0.389210 0.215186
-0.112607 -0.352412 -0.273588
-0.262082 -0.410074 0.170044
0.066856 0.098986 0.432014
-0.056978 -0.289102 0.336026
0.231874 0.343053 0.282517
-0.077771 -0.396424 -0.203816
0.079655 0.036458 -0.445979
0.267028 0.161975 0.412883
-0.266598 -0.444200 -0.025186
-0.153413 -0.382199 -0.229662
0.183795 -0.224064 -0.386608
0.170155 -0.433433 0.097395
0.071904 0.444007 -0.041378
0.085621 0.256546 -0.366474
-0.102385 -0.017205 -0.447055
-0.038034 0.061173 0.438981
-0.174557 0.017087 -0.447091
-0.086464 0.437012 -0.090321
0.043755 0.044820 -0.445188
0.200452 0.193565 0.399135
0.118807 0.321819 -0.310500
0.270611 0.445394 0.015419
-0.152331 -0.190803 0.400020
0.268931 -0.258330 0.360212
-0.095348 -0.265507 0.354931
0.137480 0.443479 -0.046956
0.037120 -0.210235 0.390119
-0.120177 -0.075834 0.436496
0.168886 -0.436527 -0.087906
0.182711 -0.431072 -0.112312
0.079209 0.413023 -0.169952
0.240082 0.404942 0.184272
0.173905 0.439522 0.072044
0.164675 -0.035610 0.441609
0.048711 0.334946 0.291714
0.027230 -0.401339 0.189817
-0.209055 -0.227012 0.380512
0.199310 0.173397 -0.412476
0.147736 -0.078939 -0.440358
0.144495 -0.236892 -0.379022
-0.134358 0.153209 0.416039
-0.173253 0.445204 -0.025831
0.116500 -0.169807 0.409233
0.144728 -0.185754 0.402332
0.107891 0.352693 -0.274548
0.118214 0.354497 -0.272222
0.232615 -0.432884 -0.104203
0.263852 -0.347841 0.275128
0.037499 -0.279780 -0.348212
-0.011683 0.019723 -0.447008
0.158195 -0.332998 -0.297114
0.198994 -0.412366 0.164750
0.150372 -0.261961 -0.362035
0.025044 -0.437611 0.077638
0.074259 -0.309671 0.317269
-0.206198 0.444245 -0.038857
-0.194017 0.020164 0.442641
0.010272 -0.420601 0.142471
0.263139 -0.304672 -0.326622
-0.064168 0.121786 -0.430568
0.014687 -0.097835 0.432042
-0.144323 -0.441696 -0.054977
0.248931 0.087476 -0.438940
-0.197353 0.367338 -0.254490
0.220636 0.079220 0.436122
-0.102008 -0.365428 -0.255793
0.264060 0.181941 0.404426
-0.260905 0.401188 0.192123
0.146389 0.168286 0.410335
0.012309 0.432491 -0.110547
0.094801 0.119834 -0.431135
0.285107 -0.392460 -0.211595
0.261659 0.335089 -0.295904
0.283224 -0.444161 -0.026405
-0.160379 -0.128098 -0.428436
0.042605 0.063563 0.438602
0.019551 0.280975 -0.348081
-0.264472 -0.402429 -0.192030
0.182615 -0.112482 0.428619
0.098603 0.402564 0.189424
-0.125092 -0.290389 0.334891
-0.030789 -0.148180 0.417481
-0.187297 -0.145660 0.418388
-0.045257 0.108510 0.429885
0.148243 -0.417900 0.149973
-0.025108 0.287206 0.338601
0.049520 0.062444 -0.443133
0.023206 0.053395 -0.444378
-0.211854 -0.274310 0.348102
-0.247430 -0.319625 -0.311669
0.176522 -0.403981 -0.188480
0.285484 -0.313701 -0.317593
-0.027541 0.403847 -0.191157
-0.265663 0.444047 0.036596
0.096084 -0.213404 -0.392858
0.223717 0.425317 -0.135794
0.169069 0.295251 -0.335862
0.094205 0.056183 0.439761
-0.129036 -0.126387 0.424580
0.078956 0.197437 -0.401515
0.261158 -0.443075 0.036038
-0.117641 -0.422873 0.136162
0.217333 0.384079 0.223862
-0.276887 -0.111452 0.428918
-0.187043 0.292418 0.334007
0.004241 -0.419391 -0.150186
-0.289679 0.252958 0.364558
0.255660 -0.383603 0.222934
-0.080286 -0.303411 -0.327765
-0.138540 0.414452 -0.166649
-0.228160 0.380277 0.230291
0.285813 0.275449 -0.352367
0.094749 -0.438675 0.070920
0.022884 0.442888 -0.053210
0.155342 0.285474 0.340128
0.280369 -0.105965 0.430225
0.283432 0.199004 -0.400717
0.121291 -0.012174 0.442860
0.184806 0.013231 0.442859
-0.153283 0.109235 0.429723
0.228721 -0.131494 -0.427449
0.192003 -0.392402 0.207356
-0.216301 -0.082237 0.435482
0.034611 -0.403987 0.184111
0.207531 0.441870 -0.061572
0.205282 -0.224804 0.381818
0.193687 -0.363340 -0.258865
0.059703 -0.400948 -0.194937
-0.289156 -0.286307 -0.342844
-0.225706 -0.301244 0.325321
-0.186035 0.360852 0.259676
-0.060719 -0.315005 0.311935
0.164702 -0.079376 0.435935
-0.127963 -0.438412 -0.076937
-0.093439 -0.444670 -0.010214
-0.148563 0.223282 0.383324
-0.213118 0.316718 0.311247
0.152310 0.426188 0.128442
-0.207718 -0.442598 0.041087
-0.256577 -0.185878 -0.406632
0.092848 0.283824 -0.345870
-0.208135 -0.302669 -0.328419
-0.013212 0.198782 0.396477
-0.219916 0.444100 0.036040
-0.082328 0.427211 0.124923
-0.119985 0.203286 0.394182
0.123466 -0.442347 0.043744
0.076105 -0.200294 -0.399537
-0.234336 -0.427684 -0.124118
-0.270279 -0.080315 0.435786
0.086968 0.355329 0.266796
-0.014387 0.314978 -0.317341
-0.287177 0.146840 0.418332
0.220323 -0.412841 0.163651
0.196187 0.100770 0.431615
0.250435 0.358550 -0.266997
-0.185473 0.249232 -0.371444
0.108426 0.341287 0.284521
0.077699 0.379381 0.231807
-0.034744 -0.274286 -0.352474
0.254927 0.204413 -0.397961
0.172584 -0.215327 0.387422
-0.255650 0.119262 0.426947
-0.275466 0.047062 0.440623
0.245554 0.445298 -0.022854
0.224451 -0.410036 -0.174487
-0.251697 0.316966 -0.315352
-0.265411 -0.374486 0.238111
0.023540 0.299502 0.327761
0.151167 -0.407220 -0.180994
-0.151323 -0.370115 -0.248896
0.121466 -0.384817 -0.225236
0.180444 -0.261564 -0.362342
0.066722 -0.409818 -0.174990
-0.159973 -0.407247 0.176579
0.151960 0.350795 -0.276995
-0.279517 0.426896 -0.130358
-0.263779 0.167866 -0.414870
-0.056794 -0.266935 -0.358176
0.092422 0.440343 0.066862
-0.253240 0.373610 -0.245261
0.135534 -0.371934 -0.246219
-0.168106 0.002377 0.443200
-0.053924 0.011376 0.442917
0.204629 -0.293757 0.331923
-0.020717 -0.439406 -0.070657
-0.281389 -0.344633 0.279264
-0.271266 -0.334031 0.291589
0.219405 0.386202 -0.224626
-0.272625 -0.388175 -0.219557
0.219211 -0.057352 -0.443777
0.247385 0.288419 0.337532
-0.080192 -0.408154 0.174482
-0.287611 0.001758 -0.447573
0.178507 -0.019396 0.442633
-0.038829 -0.027894 0.442338
0.054742 0.180480 -0.409411
0.254216 0.200488 0.395607
-0.121843 0.137644 -0.425960
0.204565 0.414555 0.162058
-0.095253 0.057901 0.439499
0.046647 0.248466 0.367612
0.244067 -0.335706 0.289689
0.204078 -0.069758 -0.441812
-0.269857 0.056870 0.439662
-0.205996 -0.305171 0.321769
-0.032378 -0.319454 -0.311839
0.211392 0.289937 0.336194
0.253001 0.445848 0.000998
0.243318 0.440794 -0.068367
-0.012343 0.438233 0.080182
-0.289938 -0.109719 -0.433739
-0.249988 0.133473 0.422819
-0.193893 -0.444189 -0.025529
