0.192665 -0.470940 0.158754
0.099343 -0.035130 -0.499017
-0.196755 -0.410776 -0.282968
-0.081067 0.206073 -0.455956
-0.186070 -0.492162 0.070945
0.175486 -0.019080 0.495489
-0.288239 -0.444407 -0.225794
0.016150 0.423401 0.261044
0.153091 0.286439 -0.410075
-0.033582 -0.490256 -0.087570
0.251661 -0.493492 -0.065196
-0.224459 -0.239231 -0.438688
0.251060 -0.140570 0.475440
-0.235042 -0.295314 -0.402916
0.194645 0.432572 -0.250052
-0.217518 -0.244240 0.431471
-0.017673 0.011959 0.495749
0.036949 0.146234 -0.478512
-0.030323 0.049215 0.493397
0.142927 0.318149 -0.385746
-0.243445 -0.309401 0.387764
-0.139851 -0.208480 0.449949
-0.223653 -0.153845 0.471308
-0.269296 0.281134 -0.413578
0.131268 -0.351796 -0.354117
0.181340 0.381929 0.317969
0.128812 -0.374376 -0.329930
-0.141758 -0.329179 -0.375384
-0.178831 0.152066 0.472182
0.162498 -0.240647 0.433531
0.206936 0.261517 -0.426505
-0.239005 0.184527 0.460614
0.165838 -0.454343 0.200434
-0.021011 0.497965 -0.024151
0.086924 0.395684 -0.305277
-0.100544 -0.469250 0.163257
0.054929 0.112377 0.483045
0.002695 -0.010738 -0.500111
0.162425 -0.130571 0.478200
0.114384 0.180469 0.462136
0.199723 0.252346 -0.431763
-0.087391 -0.487762 0.096508
0.159620 -0.497548 0.006267
0.237970 -0.239718 -0.438432
0.057138 -0.406019 -0.290099
0.258797 -0.328317 -0.376165
-0.027078 0.395161 0.301497
0.003567 0.473014 -0.159817
0.268231 0.121127 -0.485443
0.202388 -0.495529 -0.045727
0.142405 -0.341632 -0.364105
0.283888 -0.480558 0.127156
-0.103125 0.308540 0.389066
-0.245037 0.486899 0.104562
-0.062235 -0.311199 -0.390482
-0.281270 0.460364 -0.193653
-0.010605 0.357913 0.344533
-0.215068 0.309612 -0.392731
-0.190232 -0.147755 -0.477538
0.097285 -0.193046 -0.461094
-0.258731 -0.383985 -0.318732
-0.037186 -0.015154 0.495560
-0.211373 -0.088323 -0.492146
0.147198 -0.356233 0.345454
0.188325 0.498455 0.002033
0.111262 -0.393763 -0.306344
-0.177331 0.498645 -0.008508
0.164893 0.058628 0.492380
0.222110 -0.495917 -0.040934
-0.232943 -0.310257 0.387118
0.126135 0.181558 0.461728
-0.055978 -0.497581 0.001935
0.089055 0.433703 -0.248198
0.213407 0.133945 -0.481905
0.101944 0.018569 0.495452
-0.191725 -0.479590 -0.134252
-0.004447 0.036956 -0.498794
0.238979 -0.468944 -0.168214
-0.218998 -0.496456 0.030603
-0.222377 -0.265583 0.418814
-0.245582 0.097354 -0.490636
-0.200417 0.129166 0.479055
0.252169 -0.281370 -0.412668
-0.108392 0.134438 -0.481769
0.141431 0.061120 0.492111
-0.094579 0.283515 0.407531
-0.114146 -0.488594 0.091673
0.283228 -0.101023 0.485300
0.144651 -0.497140 0.015358
-0.224489 0.186909 0.459720
0.180904 0.164450 -0.472357
0.075203 0.020007 0.495388
-0.189143 0.306149 0.390972
0.234959 -0.466120 0.171598
0.033934 0.386019 -0.317399
0.144249 -0.463720 0.177995
0.207518 0.332767 -0.373202
-0.199084 0.063590 0.491844
0.277269 0.469212 -0.170443
0.252142 -0.244572 0.431281
0.284443 -0.064002 -0.496042
0.219255 -0.279803 0.409426
0.236832 0.287123 -0.409624
0.146017 0.423158 -0.265495
-0.017654 -0.405104 0.286675
0.023153 -0.477909 0.136062
-0.011539 0.298953 0.396711
-0.072922 -0.245798 0.430577
-0.234093 -0.484012 -0.117805
-0.054396 -0.497365 -0.010058
0.239446 0.244188 -0.436442
0.187151 -0.041790 -0.498442
0.149263 0.359223 -0.347875
0.005343 -0.491516 -0.078857
-0.196111 -0.492855 -0.069606
-0.211955 0.459902 -0.194684
0.019247 0.265844 -0.423671
0.234759 -0.412112 -0.280946
0.020256 0.323444 0.377154
0.237836 0.203484 0.452516
-0.039016 -0.167458 0.466613
0.280915 -0.135506 -0.481276
-0.275641 0.289671 -0.407776
0.106914 -0.085712 -0.492596
0.175077 -0.213638 -0.451853
0.116304 0.350320 -0.356562
-0.003642 0.497347 -0.037938
-0.173673 -0.268410 -0.421406
-0.183882 0.156828 -0.474986
-0.161582 -0.496796 -0.030082
0.202669 0.498178 0.017421
-0.250557 0.406010 -0.291199
-0.034754 -0.470245 0.160607
0.188253 0.261816 0.421697
-0.289530 -0.160615 0.468973
-0.235715 0.280099 -0.414261
0.157001 0.095233 -0.491081
0.101674 0.264235 -0.424734
-0.160262 -0.184453 -0.464610
-0.256012 -0.035788 0.494452
-0.220760 -0.321184 -0.382520
0.253179 0.496905 0.037034
0.205071 0.218952 -0.449647
0.192982 -0.197170 0.454887
0.177488 -0.063151 -0.496134
-0.249406 0.371609 0.329996
0.161515 -0.443252 -0.228137
0.062751 0.002049 -0.500168
0.164525 -0.045094 0.493698
-0.058342 -0.335505 -0.369655
0.125187 0.484470 -0.119359
0.112872 0.496016 -0.051534
0.168147 -0.153756 0.471339
-0.264750 -0.023878 0.495403
0.034650 -0.024784 0.495344
0.253538 -0.473023 0.152074
0.189441 -0.430122 -0.252183
-0.043891 -0.479821 -0.133417
0.226505 0.304627 0.392186
0.110959 -0.347913 -0.358106
0.025353 0.018140 0.495471
-0.059181 -0.452784 0.203907
-0.059039 -0.209613 -0.453660
-0.118129 -0.039655 0.494139
-0.022603 0.460550 0.188373
0.110562 -0.218533 0.444995
0.282644 0.478536 0.137432
0.124189 -0.353492 0.348123
-0.151579 0.120982 -0.485483
0.238241 -0.402485 -0.294783
0.233841 0.011018 -0.500006
0.037348 0.393057 -0.308571
-0.074060 0.207041 0.450920
-0.205972 0.489080 -0.099156
0.185658 -0.014954 -0.499922
0.273400 0.061336 0.492087
0.142649 0.212050 0.448673
0.250013 0.069306 0.491226
0.088003 0.000504 0.495842
-0.228487 0.469057 0.166504
0.057256 0.242023 -0.437683
-0.173922 -0.494951 0.047554
-0.183556 -0.330464 -0.374220
-0.103854 0.061442 -0.496484
-0.190151 -0.357245 0.344469
0.261389 -0.167301 0.466667
0.165877 -0.200520 -0.457740
0.101692 0.097260 0.486431
0.100208 -0.006162 -0.500316
-0.227032 -0.466685 0.170093
-0.016300 0.422837 0.261899
-0.288930 -0.077390 0.489675
-0.219436 -0.161314 -0.473293
-0.263685 0.450118 -0.216486
-0.274271 -0.484101 -0.117376
0.027582 0.175505 -0.468543
-0.142113 -0.313270 0.384700
0.013053 0.000431 0.495841
0.103740 -0.069381 0.490834
-0.155258 0.487850 0.100020
0.144479 0.462935 -0.187173
0.124063 -0.048561 -0.497711
0.240303 -0.241790 0.432876
-0.281607 -0.006073 -0.500314
0.111734 -0.459780 -0.192115
0.243675 -0.414800 -0.276873
0.263520 0.239172 -0.439318
0.005781 0.214063 -0.452056
-0.289366 0.257379 -0.428877
-0.140463 0.323821 -0.380879
0.263068 -0.106742 0.484102
0.020604 0.459822 -0.194860
-0.255587 0.211560 -0.453290
-0.173206 0.203625 0.452453
0.245207 0.078883 -0.493961
0.152400 0.176064 0.463789
-0.093013 -0.017133 0.495524
-0.275354 -0.485338 0.107041
0.129000 -0.366351 -0.339167
0.019059 -0.035248 -0.499012
0.195837 -0.494586 -0.057368
-0.277682 0.076845 -0.494255
-0.206302 0.465045 -0.181548
-0.245728 0.188326 -0.463355
0.076196 -0.495706 -0.043543
0.042082 -0.493111 0.064575
-0.026798 0.363992 -0.342609
0.038162 0.006059 0.495942
-0.089666 -0.039702 -0.498668
0.230022 0.166341 0.467438
0.268986 -0.318668 0.380068
0.168966 0.155346 0.471181
-0.055155 0.006764 -0.500083
-0.174438 -0.009853 -0.500151
-0.157177 0.461024 -0.192183
-0.112054 -0.466697 0.170061
0.059520 0.216373 -0.450918
-0.288211 -0.473807 0.149506
-0.249592 -0.244960 -0.435672
-0.046728 -0.185966 0.459558
-0.189139 0.408266 0.283970
-0.257216 0.423979 0.260169
-0.113689 -0.493823 -0.062914
0.265930 -0.390080 -0.311227
-0.225327 0.153846 0.471639
0.265737 -0.265870 0.418625
0.146862 -0.314137 0.383956
0.021215 -0.478048 -0.139841
0.076748 0.498282 0.011656
0.247428 -0.476627 -0.144988
0.271488 0.327237 0.373718
-0.096114 0.240487 0.434213
0.135325 -0.441105 0.227869
-0.232790 -0.125322 0.479649
0.120628 -0.497275 0.012354
-0.071480 0.025242 -0.499743
0.065767 -0.015919 -0.499878
-0.174721 -0.106953 0.484057
-0.163829 -0.040872 -0.498542
-0.085104 0.491855 -0.083038
-0.227611 0.213213 0.448151
0.010962 -0.484052 -0.117614
0.241279 -0.074307 0.490121
0.192004 -0.223072 0.442759
-0.244497 -0.302678 -0.397277
-0.164255 -0.495736 0.040290
-0.070655 -0.453203 0.202975
0.186319 0.165410 0.467787
-0.088439 -0.388880 -0.312817
-0.067304 -0.123464 -0.484520
-0.097050 -0.122648 -0.484714
-0.098322 -0.086472 0.488348
0.271613 0.066540 -0.495746
-0.094982 0.476145 -0.149555
0.102565 0.495690 -0.054552
-0.166630 0.406114 -0.291050
-0.230184 0.359228 -0.347869
-0.060799 0.403580 -0.294674
-0.118146 0.349704 0.352966
0.022979 -0.456846 -0.199153
0.281412 0.434325 0.242288
0.026426 -0.067651 0.491084
0.189220 -0.368139 0.332545
0.224129 0.392274 -0.309553
-0.001497 -0.258100 0.423523
0.181173 -0.215768 0.446358
0.182415 0.206668 -0.455700
0.208393 -0.086928 0.488253
-0.279922 -0.377892 -0.325832
0.204211 -0.393911 0.301862
0.140148 -0.329324 -0.375253
0.265947 -0.369375 0.331180
-0.111073 0.441623 -0.233185
0.020176 0.233084 0.438111
0.072865 0.349719 -0.357147
0.117421 -0.272663 0.414140
0.178258 0.234477 -0.441997
0.071607 0.471141 0.160462
-0.035433 0.481231 -0.132888
0.185340 -0.142153 -0.479247
-0.084406 0.146503 0.473879
0.015682 -0.322239 0.377003
0.034346 -0.305208 -0.395259
-0.289046 0.470612 0.161994
0.024393 -0.362843 0.338392
-0.005353 0.085072 0.488529
-0.177583 0.104502 -0.489139
0.178379 0.287431 0.404792
-0.061247 0.418867 0.267911
-0.240203 -0.465432 -0.178393
-0.261673 -0.157331 0.470106
-0.249796 0.496174 0.046060
0.059513 0.204763 0.451942
-0.145273 -0.120212 0.481059
0.010813 0.055365 0.492733
-0.088232 0.431748 -0.251404
-0.256610 -0.274563 -0.417428
0.284786 0.410116 -0.285329
-0.220393 -0.140338 0.475504
-0.217931 0.102069 0.485494
0.019029 -0.429357 -0.253518
0.186157 -0.495287 -0.048709
0.085595 -0.062300 0.491858
-0.290195 -0.252580 -0.431056
-0.154074 -0.464490 -0.180817
0.089798 0.496705 -0.045160
0.165675 0.431691 0.246881
0.060907 0.493985 0.064521
-0.011148 -0.185831 0.459614
-0.157161 -0.073424 -0.494711
0.176779 0.432420 -0.250302
-0.031542 0.446053 0.220179
-0.240776 0.495639 -0.055020
0.147837 -0.346433 0.354995
-0.019355 0.445591 0.221118
0.089681 -0.316497 -0.386258
0.192933 0.112312 -0.487503
-0.006796 0.393134 0.304183
0.066010 0.359944 0.342447
0.223484 -0.062713 -0.496181
0.131329 0.175805 -0.468440
-0.267296 -0.341802 -0.363952
0.051420 -0.219562 -0.449044
0.096849 0.387732 0.311205
-0.066360 0.492720 0.073268
-0.270660 0.361358 -0.345517
0.103976 -0.250277 0.428009
0.054301 0.482256 -0.128678
0.177754 0.113396 -0.487276
0.171157 -0.427350 -0.257017
-0.060729 -0.496434 0.031106
-0.008631 0.469124 0.166310
-0.210674 -0.174386 -0.468388
-0.268243 -0.225574 0.441526
0.230478 -0.012977 0.495599
0.125184 -0.421180 0.262705
-0.265192 0.207556 -0.455263
-0.112474 0.365897 -0.340506
-0.086286 0.289130 0.403604
-0.213894 0.164928 0.467968
-0.255442 0.490633 -0.090135
0.226840 0.380523 0.319607
-0.230450 -0.497555 0.000494
0.000980 -0.476541 0.140547
0.070682 -0.431832 -0.249201
0.136419 -0.481424 0.123511
0.222510 -0.467055 0.169107
0.195411 -0.445122 -0.224342
0.157145 0.128962 -0.483280
0.103551 0.348546 -0.358289
0.183291 -0.267421 0.417601
-0.248720 0.483902 0.117991
-0.196877 0.007520 -0.500069
0.182731 0.315698 -0.387849
0.116408 -0.287179 -0.408605
-0.018578 -0.485808 0.105062
-0.048372 0.483429 0.119704
0.173588 -0.137266 -0.480739
-0.129384 -0.475028 -0.150576
-0.138333 -0.240630 0.433541
-0.213787 0.445196 0.221918
0.254718 -0.115992 0.482164
0.076992 -0.331423 0.369123
-0.018465 -0.177731 0.462992
0.072585 -0.497383 -0.009038
-0.289915 -0.416397 -0.274454
-0.159766 -0.497355 -0.010565
0.004582 -0.085980 0.488432
0.016457 0.403061 -0.295416
-0.276748 0.042184 0.494157
-0.147932 -0.400249 0.293618
0.062249 0.394575 0.302273
-0.011646 -0.479579 0.130590
0.233764 0.024982 -0.499755
-0.290148 -0.168921 -0.470438
0.033343 -0.268961 -0.421070
0.091835 0.262068 0.421543
-0.187402 -0.054819 -0.497034
-0.280356 -0.256676 0.424339
-0.036685 -0.416947 -0.273621
-0.146803 0.308833 -0.393319
-0.040409 -0.494828 -0.054380
0.254926 0.452828 0.206429
-0.222353 0.408375 -0.287818
-0.226926 -0.483282 0.115693
-0.109994 0.285197 0.406354
0.053713 -0.404101 0.288110
-0.242697 -0.061757 -0.496285
0.184645 -0.319947 -0.383507
-0.132583 0.001297 0.495856
-0.084888 -0.495231 0.044962
0.136888 0.005942 -0.500098
-0.248607 0.489116 -0.098946
-0.232533 0.486918 0.104472
0.231073 0.264400 -0.424625
0.208271 0.304116 -0.396878
0.129209 -0.439367 -0.236022
-0.013845 -0.449008 0.212321
-0.010025 0.065958 -0.495831
-0.052793 0.220327 -0.448970
0.270727 0.458725 0.192751
-0.003967 0.264606 -0.424489
0.014815 0.459764 0.190257
0.097685 0.176552 0.463606
0.140606 0.453914 0.204226
0.086627 -0.279514 0.409617
-0.186193 0.189397 0.458787
0.259827 0.145063 0.474319
-0.001052 0.073084 -0.494800
-0.093430 0.050425 -0.497703
0.103548 0.437774 -0.240495
0.204763 -0.069027 0.490885
-0.181476 0.179220 0.462605
0.126527 0.082445 -0.493445
0.146913 -0.497366 -0.009949
-0.276286 -0.085712 0.488471
-0.144347 -0.020850 0.495457
-0.033667 -0.497055 -0.026887
-0.086412 0.060919 -0.496560
0.107486 0.247727 0.430286
-0.062667 0.476025 -0.149950
-0.156572 0.439756 -0.236731
0.254566 0.480399 0.130681
0.001555 0.496989 0.035995
-0.260014 -0.073105 0.490295
-0.237079 0.257675 -0.428708
-0.043760 0.097136 0.486452
-0.070327 0.403814 0.290026
-0.115789 -0.275172 -0.417002
-0.088762 -0.485316 -0.111580
-0.119347 0.096889 -0.490734
0.069993 0.493293 -0.074686
0.236182 -0.472963 -0.156562
0.165132 -0.460467 -0.190468
0.092180 -0.299691 -0.399659
-0.200812 0.484730 0.114916
-0.254388 -0.425819 -0.259688
0.271290 0.337569 -0.368976
-0.137701 -0.390068 -0.311242
0.025988 0.039639 0.494432
0.005323 0.426884 0.255263
0.154453 0.231820 0.438776
-0.144937 0.494893 -0.061922
-0.165809 0.497269 -0.039673
-0.077609 -0.481796 0.121946
-0.126755 0.070479 0.491041
-0.242443 0.199215 -0.458815
-0.247469 0.352016 0.350590
0.265945 -0.417276 -0.273123
-0.155932 -0.254801 0.425414
-0.256089 0.440800 0.230839
-0.204307 -0.476341 0.141200
-0.159510 -0.487818 0.096181
-0.070270 -0.181455 0.461439
-0.087127 0.143827 -0.479177
-0.238177 -0.438355 0.233092
-0.096163 -0.490319 -0.087130
-0.093140 0.139735 0.475945
0.270132 0.441761 0.228889
-0.280406 0.358095 -0.348992
0.073660 0.137822 -0.480834
0.053893 0.490713 -0.089671
0.285806 -0.001041 0.495814
-0.025445 0.498372 0.006637
-0.031046 -0.243666 0.431800
0.174013 0.193717 0.456899
0.248073 -0.090568 -0.491760
0.128335 -0.344494 -0.361513
0.258778 0.498232 0.014458
0.146998 -0.254890 0.425364
-0.041302 0.372962 0.328419
0.135026 0.497557 -0.033253
-0.156839 0.391656 -0.310328
-0.167181 -0.491692 -0.077640
0.254870 0.430989 -0.252649
-0.083308 -0.026586 0.495198
0.150448 -0.288211 -0.407883
-0.179018 -0.215995 0.446246
0.185012 0.468613 -0.172041
-0.133907 -0.497104 -0.024516
0.192309 -0.346327 0.355099
-0.186774 0.434548 -0.246622
-0.229567 0.037847 -0.498722
0.165612 -0.319302 -0.384021
0.196174 0.129518 0.478971
0.177823 -0.097828 0.485969
-0.273264 0.319107 0.380640
-0.020436 0.337785 0.364165
0.070449 0.488679 -0.101483
0.079233 -0.012687 -0.500023
0.118220 -0.429836 0.248506
-0.140827 0.408597 -0.287500
-0.209838 0.369515 0.332436
0.048503 -0.134447 0.477130
-0.138006 0.181350 -0.466263
-0.198195 -0.045853 0.493636
-0.029599 0.477989 -0.143512
-0.127056 0.031219 0.494885
0.037777 0.498421 0.003971
0.256624 -0.489875 0.084230
-0.126657 -0.489626 -0.091004
-0.199283 0.242261 -0.437547
-0.174493 -0.234155 0.437254
0.030604 0.007322 -0.500073
-0.269028 -0.367686 -0.337726
-0.276334 -0.052083 -0.497330
-0.283649 -0.381390 0.317565
-0.103894 0.494370 -0.066760
-0.008796 -0.270509 -0.420126
-0.229111 -0.239945 0.433934
-0.007891 -0.299523 0.395216
0.182526 0.074981 0.490266
-0.010782 0.380761 -0.323992
-0.162241 -0.490167 -0.088184
0.025971 -0.443642 -0.227346
-0.089864 0.452707 0.206676
-0.223881 0.498245 -0.017909
-0.288395 -0.329138 0.371084
-0.050420 0.490359 -0.091726
-0.265391 -0.494641 0.050423
0.078333 -0.286073 0.405287
-0.000653 -0.452803 -0.208754
0.152330 0.455566 0.200327
0.070795 0.455494 0.200500
-0.265782 0.423618 -0.264739
-0.003311 0.254380 0.426230
-0.286017 0.364019 0.338262
-0.153616 -0.053195 0.493042
-0.236142 0.241176 0.433850
-0.289619 -0.298728 0.395816
0.262183 -0.497141 0.015335
-0.046113 0.468757 0.167371
-0.171769 0.307085 0.390226
0.221011 0.027826 -0.499533
0.166988 0.093059 0.487154
-0.151344 -0.125494 -0.484038
-0.121145 0.408485 -0.287659
-0.207490 -0.417740 -0.272421
-0.218837 0.074369 -0.494614
0.132052 -0.398042 0.296681
-0.280854 -0.199239 -0.458315
0.217340 0.082625 0.488950
-0.273940 0.020888 -0.499829
-0.143759 0.033671 0.494775
0.054986 0.302497 -0.398099
0.286113 -0.476569 0.140453
-0.094621 -0.004860 0.495745
-0.077050 -0.452800 -0.208761
0.003598 0.493217 0.069830
0.277207 0.085969 0.488375
-0.184656 -0.128732 0.478708
0.206275 0.468539 -0.172238
-0.094239 0.048734 0.493449
-0.075634 -0.403065 -0.294014
0.230219 0.341800 -0.364856
0.259201 0.487642 0.101016
0.236768 0.466549 0.173774
0.150200 0.020178 0.495380
-0.236683 -0.377505 -0.326283
0.279199 -0.270158 -0.420340
-0.046355 0.372601 -0.333104
0.034642 0.050915 0.493214
-0.265788 -0.118285 0.481591
0.080841 0.241561 -0.437948
0.083052 0.124587 0.480143
0.282085 -0.460472 0.186652
0.099576 0.448346 -0.220416
-0.188335 -0.404528 0.287499
-0.033215 0.138612 -0.480616
-0.066246 0.045019 -0.498141
0.046614 0.432072 0.246216
0.244989 0.256889 0.424701
-0.108913 -0.491982 0.071993
0.221223 -0.459785 -0.192103
-0.225750 0.129131 0.479063
-0.161520 0.375552 -0.329846
-0.228573 -0.480179 0.128624
0.013115 -0.486839 0.100724
0.253252 0.094188 0.486960
0.010141 0.304471 -0.396610
0.056546 0.469981 0.163824
-0.018442 0.166538 0.467364
-0.151703 -0.154212 0.471182
-0.113489 0.039368 -0.498598
-0.102917 -0.409927 -0.284255
-0.185055 -0.317145 0.381375
0.276000 -0.489051 -0.093751
-0.146608 -0.291856 0.401000
0.102591 -0.001392 0.495808
-0.288820 -0.044121 -0.498191
0.004419 -0.309402 0.387763
0.102522 -0.239816 0.434008
0.082975 0.171977 0.465323
-0.194662 -0.011111 0.495633
-0.093048 -0.497436 -0.006064
0.135142 0.487330 0.102504
0.236650 0.497855 -0.026612
0.107317 0.441892 0.228624
-0.171405 -0.497383 -0.009022
0.012821 -0.475527 -0.148972
0.015832 -0.197461 0.454766
0.241386 -0.423986 0.258102
0.008243 0.498466 -0.012984
0.173040 -0.497275 -0.015004
-0.275034 -0.489815 -0.090105
-0.097847 -0.377396 -0.326410
0.158205 -0.385642 0.312232
0.089456 0.484688 -0.118441
0.118133 -0.297472 -0.401406
-0.267493 -0.333124 -0.371811
0.214825 0.280713 0.409491
-0.103446 -0.022965 -0.499562
0.021785 -0.278714 0.410145
-0.039586 0.213044 -0.452558
0.219927 0.225251 0.442235
-0.243981 0.407398 0.285276
0.060526 -0.419226 -0.270170
-0.120762 0.026059 -0.499677
-0.116905 -0.401136 0.292349
-0.180400 0.272341 0.415281
-0.246040 -0.495893 0.038833
-0.183765 0.354465 -0.352526
-0.190460 0.246416 0.431085
0.282188 0.498113 0.021039
0.183605 -0.497278 -0.014868
-0.128879 0.418667 -0.272861
-0.034894 -0.209877 -0.453541
0.174499 0.414487 0.274547
-0.117188 -0.440496 0.229026
0.286538 -0.002967 -0.500258
-0.234002 0.404647 -0.293148
-0.120052 0.291018 0.402284
0.024026 0.349379 -0.357478
-0.192457 0.028719 -0.499461
-0.070076 0.065238 -0.495935
0.240439 0.161168 -0.473489
-0.253822 -0.063946 -0.496048
0.031466 0.481554 -0.131630
0.149896 -0.033478 0.494639
-0.166717 0.211991 0.448699
0.120382 -0.370312 -0.334666
0.079284 0.159253 0.469989
0.282256 -0.493820 0.058014
0.208945 0.055149 0.492756
0.217960 0.428960 -0.255978
-0.135352 -0.417942 -0.272113
0.258786 -0.468584 0.165034
-0.013608 -0.468013 -0.170913
0.100782 0.419831 -0.270952
-0.025127 -0.010534 0.495643
0.173946 0.490360 0.088040
0.195965 -0.313870 0.384185
0.167782 0.458091 -0.198719
0.166419 -0.284144 0.406560
-0.066714 0.443006 0.226363
0.121271 -0.214767 0.446851
0.060113 -0.113332 -0.486928
-0.222212 -0.194538 -0.460425
0.036020 0.101710 0.485580
-0.016238 0.043982 -0.498225
-0.040330 -0.075973 -0.494272
-0.201755 0.493097 0.070662
0.030260 -0.222165 0.443205
-0.047655 -0.307192 0.389430
0.089041 0.491371 0.082588
0.262838 -0.010294 -0.500131
-0.119378 0.261239 -0.426664
0.063241 -0.484435 0.110842
-0.229800 0.137781 -0.480846
-0.111351 0.088017 -0.492592
0.199447 -0.464690 -0.180337
-0.275714 -0.496504 0.029532
0.040102 -0.462246 -0.186199
0.258747 -0.343876 -0.362073
-0.189980 0.339329 -0.367262
0.166518 0.351228 0.351400
-0.243129 0.399536 -0.300446
-0.259377 0.428944 -0.256005
0.252977 0.490056 0.089493
-0.256677 0.024310 0.495195
0.091942 0.273171 0.414766
0.000584 -0.393019 0.302980
0.084650 0.298809 -0.400881
0.164782 0.298665 0.396935
-0.084870 0.335501 -0.370856
-0.134745 -0.405370 0.286295
-0.106198 -0.215598 0.446442
-0.050512 -0.059156 0.492313
0.250324 -0.452382 0.204804
0.015075 -0.238116 -0.439275
-0.134548 -0.489968 0.083691
0.244594 -0.307732 -0.393246
-0.191782 -0.043507 -0.498257
-0.288631 0.406742 -0.290153
0.139079 0.238993 -0.439420
0.218074 -0.092402 -0.491444
-0.041491 0.427756 0.253743
-0.153826 0.395615 0.300895
-0.195524 -0.324739 -0.379406
0.204632 0.348811 0.353883
-0.098341 -0.103871 -0.489176
-0.200343 0.238307 0.435361
-0.262269 0.206584 0.451125
-0.161957 -0.074374 0.490111
0.151665 -0.235946 0.436227
-0.181032 0.493928 -0.070855
0.126149 0.376966 -0.328284
0.254067 0.283454 0.407574
-0.173858 -0.336132 -0.369087
0.040814 -0.489173 0.088311
-0.061603 -0.310283 0.387098
0.001336 0.482766 -0.126529
0.131979 0.487138 -0.108132
0.258372 -0.022970 0.495419
0.213469 0.433290 0.244094
0.163306 -0.463253 0.179239
-0.117212 -0.459941 -0.191730
0.034033 0.288935 0.403740
0.217482 0.214991 0.447352
-0.125996 -0.495497 -0.046121
0.280038 -0.305004 -0.395421
-0.012332 0.421835 -0.267665
-0.238423 -0.478888 -0.136796
0.233604 0.401899 0.292565
-0.044897 0.147292 -0.478220
0.249718 0.444740 -0.227265
-0.197451 -0.434205 -0.245063
-0.226534 -0.456660 0.195271
0.226746 0.497551 -0.033402
0.178442 0.486940 -0.108967
-0.125414 0.203925 0.452319
0.153378 -0.309121 -0.392139
0.004263 -0.046051 -0.497982
0.043597 -0.126609 -0.483772
-0.188416 0.221157 -0.448561
0.133134 0.294381 0.399931
0.160897 -0.456456 -0.200087
0.019557 0.338876 0.363177
0.248329 0.174635 -0.468844
0.256207 0.321931 -0.382501
-0.275595 0.173725 0.464667
0.066341 0.129736 -0.483067
-0.234584 -0.196591 -0.459503
0.079101 -0.497174 -0.020607
-0.126029 0.476323 -0.148971
-0.102179 0.084235 0.488673
0.113903 0.304560 -0.396542
0.158251 0.335280 -0.371046
-0.005117 -0.431998 -0.248911
-0.273339 0.497512 -0.034260
0.189610 0.315892 0.383204
0.260944 -0.399814 0.294240
0.248161 -0.104653 -0.488990
0.246510 -0.032988 -0.499113
0.128656 -0.230407 0.439145
-0.021647 -0.495534 -0.045661
-0.177554 -0.403413 -0.293554
0.237637 0.481416 -0.132212
-0.258381 0.233837 0.437715
-0.245746 0.370655 -0.335253
-0.129594 0.422298 0.262715
-0.216604 -0.481611 0.122724
-0.048717 -0.386777 0.310809
0.098411 0.292133 0.401504
0.014867 0.484485 -0.119295
0.144422 0.247192 -0.434719
0.237594 0.171208 -0.470026
0.129813 -0.168036 -0.470771
0.282652 -0.324137 0.375375
0.115820 -0.285993 0.405339
0.153062 0.298126 0.397312
-0.162591 -0.495898 -0.041168
-0.097415 -0.068340 -0.495573
-0.203824 -0.494709 0.049792
0.171574 -0.313471 0.384527
-0.261562 -0.351157 -0.354773
-0.203578 0.347941 0.354776
-0.213164 -0.431462 0.245840
0.284283 0.320646 -0.383604
-0.017744 0.477423 -0.145366
0.083361 -0.280308 -0.413410
0.151176 -0.442863 -0.228927
0.063349 0.350769 0.351871
-0.140324 -0.342876 0.358458
0.204557 0.225616 0.442043
0.047505 -0.164783 -0.471991
-0.257232 -0.364406 0.336667
0.122007 0.032379 0.494833
0.094104 0.005589 -0.500104
-0.079224 0.493952 -0.070630
-0.012360 -0.323299 -0.380711
-0.066265 -0.427848 0.251767
0.108760 -0.029250 -0.499281
0.166035 -0.482928 -0.122161
-0.091500 -0.497365 0.010344
-0.168943 0.497193 0.033488
0.231047 -0.497456 -0.004993
-0.213238 -0.484806 0.109282
0.283799 0.159156 0.470019
-0.042784 -0.485819 0.105018
0.276432 -0.332917 0.367841
-0.288970 0.450409 -0.215838
0.102021 0.231460 0.438966
0.055921 0.188037 0.459297
-0.277916 0.239552 -0.439100
-0.157315 0.197275 -0.459624
-0.214873 -0.222907 0.442840
0.051640 0.035462 0.494694
-0.181438 -0.203408 -0.456444
0.237650 -0.296815 0.397259
-0.116266 -0.497371 -0.009692
-0.233568 0.289813 0.403126
0.100426 -0.495282 0.044484
-0.215300 0.457111 0.196621
-0.102149 -0.493243 0.063358
-0.240207 -0.493372 0.062158
0.032452 0.310045 0.387866
-0.193542 0.107117 -0.488591
-0.274524 -0.459662 -0.192398
0.149067 0.215813 -0.451194
0.244718 -0.247497 -0.434155
-0.105433 0.467011 0.172435
-0.223179 -0.332198 0.368458
0.275111 -0.314682 -0.387704
-0.164383 -0.187247 0.459024
-0.109709 0.230907 0.439257
0.052883 0.073611 -0.494723
-0.049432 -0.343732 -0.362203
-0.067160 0.179775 -0.466920
-0.241351 -0.421041 0.262933
-0.137382 -0.269263 0.416385
-0.201381 0.356324 -0.350717
-0.053200 -0.407732 -0.287580
-0.255157 -0.281167 0.408526
-0.277322 0.497719 0.026986
-0.025803 -0.247177 -0.434350
-0.019480 0.277515 0.411727
-0.160928 0.321185 0.378983
0.198202 0.387480 -0.315566
-0.232123 0.386711 0.312395
-0.253142 -0.221532 0.443518
0.278218 0.464706 0.178403
0.143539 0.189728 -0.462771
0.074166 0.482060 0.124663
-0.099413 0.034401 -0.499001
-0.084541 0.485914 0.109262
-0.140785 -0.085337 0.488525
-0.254059 -0.410052 -0.284065
-0.090407 0.307013 0.390284
0.007358 0.020582 -0.499834
0.286875 0.493539 0.067606
0.018860 0.454572 0.202710
0.109101 0.009399 0.495863
0.223558 -0.319205 0.379607
-0.119298 -0.071305 -0.495076
0.005479 0.362481 0.339842
-0.125053 -0.488196 0.093983
0.182406 -0.087363 0.488161
0.191364 -0.300734 0.394303
-0.215561 0.402980 -0.295531
-0.281756 0.498647 -0.008614
-0.140593 -0.463360 -0.183529
0.251906 -0.221596 -0.447973
-0.261948 -0.001416 0.495807
-0.193975 0.496012 -0.051566
0.228872 0.092301 -0.491695
0.198071 0.090792 0.487544
-0.213663 -0.352102 -0.353803
-0.214131 0.437341 -0.241319
0.132676 -0.244809 -0.435751
-0.091973 0.226728 -0.445816
-0.165813 0.094752 0.486863
-0.042254 -0.241468 -0.437510
0.138889 -0.478049 -0.139837
-0.240803 0.481982 0.124946
-0.017078 0.320636 0.379421
-0.172007 -0.444369 0.221671
0.231236 0.494150 -0.068795
0.078983 0.230164 0.439649
-0.248821 -0.261585 -0.425566
-0.235672 -0.180529 0.461825
-0.202896 0.308776 -0.393362
-0.127321 -0.388139 -0.313799
-0.144654 0.292241 0.401428
0.058092 -0.328980 0.371219
0.176600 0.282136 -0.412916
0.036252 -0.466359 -0.175705
-0.063625 0.282545 -0.412646
0.138079 -0.421924 0.261485
-0.166958 0.498449 -0.013378
0.074799 -0.346766 -0.359285
-0.090412 -0.493085 0.064820
0.245867 -0.362982 -0.342628
-0.224678 -0.361420 0.339964
0.112413 -0.093748 0.486824
0.203538 0.404473 -0.293396
0.201808 0.141746 0.475331
0.103712 0.011692 -0.499994
-0.270181 -0.005624 -0.500306
0.142492 0.440065 -0.236145
-0.029028 -0.064470 0.491544
-0.213865 -0.456234 -0.200619
-0.270981 0.441576 -0.233274
0.045675 -0.246092 0.430409
0.166873 -0.470499 -0.163705
-0.227769 -0.459598 -0.192552
0.064819 -0.358587 -0.347142
-0.287482 -0.436504 -0.241054
0.008224 0.039043 0.494497
0.137673 -0.457057 0.194386
-0.042987 0.341135 0.361130
-0.254195 -0.400029 -0.298039
0.050674 0.497204 0.033346
-0.276916 -0.486475 -0.106046
-0.032814 -0.493426 0.061658
0.268832 -0.467725 0.167322
0.091808 -0.135197 0.476923
0.235741 0.494717 0.059464
0.104226 0.253722 -0.430974
-0.024994 0.300614 0.395386
0.263004 -0.373561 -0.330880
-0.157848 -0.481175 0.124561
-0.132675 -0.411439 -0.281964
0.266067 -0.046715 -0.497910
0.211752 -0.077129 0.489713
-0.082188 -0.462393 -0.185848
-0.028644 0.271989 0.415495
-0.169038 -0.175334 0.463896
-0.068399 -0.069675 0.490791
-0.173170 -0.252158 -0.431313
-0.116921 -0.456933 0.194661
0.124460 0.054060 0.492874
-0.123940 -0.282647 -0.411775
0.051384 -0.182720 -0.465261
-0.180055 0.193694 -0.461117
0.233382 0.103612 -0.489325
0.154345 -0.240889 -0.437815
0.188734 -0.247068 -0.434416
0.257275 0.426216 0.256429
0.276731 -0.114405 0.482496
-0.082814 -0.168423 -0.470626
0.256930 0.153957 -0.475977
-0.290196 0.005434 -0.500107
0.033899 -0.133127 -0.482002
0.258659 0.323747 0.376879
-0.219510 -0.435801 -0.242280
-0.187993 -0.166532 -0.471335
-0.008283 -0.265348 0.418969
0.127167 0.385122 0.314247
-0.182930 0.142482 -0.479548
0.041920 -0.170935 0.465413
-0.122764 -0.041194 -0.498507
-0.187999 -0.005114 -0.500297
0.154828 0.474310 0.151275
-0.098916 -0.171024 0.465382
0.205042 -0.497224 -0.017885
0.138290 0.465948 -0.179143
-0.019630 -0.494359 0.053025
-0.124673 0.048220 0.493505
0.229240 0.496755 0.038889
0.275827 0.374565 -0.330935
0.023493 0.474244 0.151465
-0.178703 0.477679 -0.144529
-0.175779 0.017530 -0.499889
-0.043402 0.040008 0.494392
0.059256 -0.300898 0.394179
-0.033284 0.271547 -0.419907
-0.221994 -0.382790 -0.320124
-0.221224 -0.069659 -0.495359
0.221507 -0.493353 0.062338
-0.000245 -0.484741 -0.114325
-0.113218 -0.429628 0.248848
0.267600 0.451526 -0.213349
-0.212510 -0.267935 0.417261
-0.128849 0.386749 0.312351
0.173338 -0.452012 -0.210361
0.066577 0.404137 0.289598
0.185142 0.417014 0.270718
0.081222 0.329856 0.371346
-0.189410 0.456359 0.198424
0.215758 -0.244196 -0.436074
-0.061863 0.481194 0.127802
-0.162986 0.295295 -0.403532
0.013228 -0.141374 0.475218
-0.240793 0.217160 0.446379
-0.086607 0.496101 -0.050749
-0.253570 0.201363 0.453468
-0.144183 -0.460541 0.186468
-0.104016 -0.476493 0.140704
0.213249 0.252120 -0.431893
-0.167228 0.443950 -0.228766
0.240428 -0.373772 0.326326
0.005741 0.477970 -0.143575
0.197834 -0.400775 0.292865
0.061091 0.294620 0.399765
-0.236245 0.357360 0.345102
-0.098648 -0.439490 -0.235772
0.098191 -0.419904 0.264799
-0.269710 -0.274947 0.412632
-0.248993 -0.182891 0.460840
-0.095981 0.410424 -0.284888
0.212396 0.057549 -0.497047
-0.112098 0.486497 -0.110829
0.096274 -0.497061 -0.026822
-0.234594 -0.349387 0.352119
0.161279 -0.425476 0.255659
0.261432 -0.136659 -0.480924
0.146815 -0.102990 -0.489386
0.160996 -0.479291 0.131533
-0.001489 -0.121433 0.480722
-0.124307 -0.469521 0.162535
-0.166650 0.021309 0.495329
-0.060309 0.410048 0.281270
-0.099726 0.495290 0.055501
0.034333 0.408342 -0.287865
0.262485 -0.457688 -0.197132
0.245022 0.105343 -0.488963
-0.275079 0.336247 -0.370216
0.211224 0.472127 -0.162674
0.050496 -0.439237 -0.236286
-0.165327 0.470623 -0.166683
-0.035547 0.452971 -0.210127
0.088809 -0.469947 -0.165305
-0.242403 0.443152 0.226068
-0.021358 0.020649 -0.499833
-0.138767 -0.137903 -0.480544
-0.259373 0.496953 -0.042860
-0.265704 0.313463 -0.389767
0.124845 0.474634 -0.154509
-0.259243 -0.317063 -0.385806
0.058564 -0.287883 -0.408113
-0.031709 -0.434188 -0.245093
-0.165588 0.492587 0.074187
0.144314 0.166005 0.467564
0.285291 0.267142 -0.422815
-0.053587 -0.361242 0.340161
0.117363 -0.058859 -0.496598
0.179643 0.123091 -0.484901
-0.053359 0.464947 0.177826
0.207344 0.494832 -0.062483
0.122841 -0.401478 0.291860
-0.284326 -0.493010 0.065511
0.095188 -0.120814 -0.485150
0.231267 -0.250011 -0.432622
0.262910 -0.484446 -0.115729
-0.057382 -0.196054 0.455352
-0.125249 -0.230746 0.438977
0.112239 0.162786 -0.472931
0.038377 0.077602 0.489815
0.107472 0.268332 0.417725
0.193066 0.389578 0.308897
0.020414 0.094516 -0.491231
0.176470 -0.373572 -0.330867
0.233406 -0.418325 -0.271534
-0.031728 -0.448857 -0.216763
0.127812 -0.493098 0.064693
0.279240 -0.483268 0.115752
-0.173916 -0.451699 -0.210996
-0.024851 -0.398250 0.296420
0.117383 0.404070 -0.293973
0.060020 0.255196 -0.430129
-0.015267 0.488779 -0.100903
-0.064474 0.460005 -0.194454
0.147942 -0.452365 0.204842
0.286068 -0.475947 -0.147451
-0.258074 0.487218 0.103039
0.256682 -0.463807 0.177763
-0.058916 0.245208 -0.435857
0.113911 -0.119087 0.481370
-0.019515 0.470750 0.161594
-0.018704 0.486295 -0.111682
0.029183 0.470939 -0.165842
0.130167 -0.448005 0.214557
-0.060474 0.498577 -0.004714
-0.023339 0.467971 -0.173751
0.169360 -0.404243 0.287907
-0.056981 -0.029512 -0.499269
-0.092185 0.297445 0.397789
0.252125 -0.490926 -0.082938
-0.187262 -0.033052 0.494674
0.091487 0.487776 -0.105450
-0.011255 0.146131 0.473993
-0.266742 -0.409810 -0.284432
0.115066 0.231214 0.439096
0.044724 -0.407153 -0.288457
0.178806 -0.469447 0.162734
0.133224 -0.434431 -0.244670
0.129055 0.448676 -0.219699
0.033415 -0.164916 -0.471941
-0.188919 0.224548 0.442605
0.208022 0.171241 0.465599
0.223802 0.371568 -0.334244
0.277698 0.117670 0.481787
-0.095732 0.448004 0.216221
0.177192 -0.496768 0.023652
0.017122 0.498524 -0.001784
-0.204824 -0.458341 0.191524
0.194042 0.477863 0.139869
0.071512 -0.077168 0.489707
-0.249358 0.060576 0.492170
0.243521 -0.137953 -0.480529
-0.132319 0.466848 -0.176743
-0.011041 -0.476161 0.141793
-0.152393 0.489616 -0.096039
0.268952 0.436593 0.238332
0.196424 -0.406148 -0.289928
-0.196139 0.371612 -0.334196
-0.018301 0.287786 0.404544
-0.080781 0.498140 -0.020250
0.169787 0.478731 -0.141080
-0.198235 0.203732 0.452405
0.243251 0.381419 0.318563
-0.080942 0.103023 -0.489449
0.040348 0.492608 0.074039
0.146802 0.385761 -0.317721
0.172371 -0.259780 -0.426667
-0.245735 0.274944 -0.417664
0.134064 0.498200 -0.018929
0.251377 0.495917 0.049234
0.018895 0.296467 -0.402648
0.141087 0.468899 0.166960
-0.289577 0.062670 0.491943
0.064608 -0.107615 0.483919
-0.103763 -0.132787 -0.482105
0.207478 -0.478488 0.134164
-0.251790 0.468777 -0.171602
-0.014758 0.296072 -0.402946
-0.075519 -0.495891 -0.041264
-0.061960 -0.007858 -0.500240
0.160371 -0.438209 -0.238082
-0.125310 0.327425 -0.377786
-0.022469 -0.322503 0.376777
-0.123612 -0.497195 -0.019469
0.005382 -0.328347 0.371763
-0.204444 -0.194042 -0.460647
0.286276 0.480368 -0.135715
0.103874 0.277222 -0.416160
-0.094545 0.275699 -0.417165
0.248588 -0.027073 0.495158
0.251404 -0.420749 0.263413
0.035250 0.351765 -0.355155
-0.060316 -0.008531 0.495679
-0.046107 0.381851 0.318060
0.279798 0.496552 0.041396
-0.037082 0.257257 0.424477
-0.236090 -0.289573 0.402723
0.066599 -0.400165 -0.297858
-0.031751 0.487915 0.099712
0.023817 0.004062 0.495906
-0.077099 -0.134779 -0.481498
-0.068273 0.157879 -0.474624
0.085982 -0.109448 0.483535
0.052541 0.061075 -0.496537
0.216848 -0.199711 0.453828
-0.276012 0.452039 0.208031
-0.008157 0.346346 -0.360431
-0.110702 -0.439811 -0.235121
-0.034118 0.297869 -0.401591
0.008465 0.110136 -0.487959
0.000953 0.283164 -0.412237
-0.057910 -0.361108 -0.344553
-0.066314 0.297479 0.397765
-0.102011 -0.384935 -0.317624
-0.287279 -0.372222 -0.332441
0.231258 0.296964 0.398125
-0.231016 0.201195 -0.457990
-0.236486 0.478504 0.137546
0.034872 0.377544 0.323079
-0.204313 0.221894 -0.448198
0.102985 0.033164 -0.499101
0.126146 0.304804 0.392045
0.063518 0.150789 0.472572
-0.188362 0.475304 0.148394
-0.246877 -0.485426 -0.111054
-0.223336 0.023970 0.495210
-0.168349 -0.474236 0.148101
-0.084887 0.448535 0.215142
0.204986 0.170666 -0.470213
0.045626 0.494381 0.061786
-0.247176 0.384112 -0.319790
-0.109758 0.319380 -0.384689
0.145305 -0.378255 0.321377
0.168287 0.359647 0.342752
-0.056816 0.021840 -0.499811
0.173204 0.211724 -0.453209
0.040964 0.295000 -0.403755
0.280106 0.421243 -0.268637
-0.022891 0.422705 -0.266238
0.229524 0.407269 -0.289399
-0.166899 -0.461849 -0.187154
-0.009917 0.234044 0.437606
-0.242729 -0.228040 -0.444580
0.164457 0.413878 -0.279949
0.230725 -0.474605 0.146890
-0.147282 -0.490095 -0.088681
-0.002594 0.222837 -0.447733
-0.122805 -0.490059 0.083160
0.037136 0.497401 0.030910
0.004176 0.498521 -0.001617
0.157693 0.422002 -0.267391
-0.081685 0.196045 -0.460137
-0.097115 -0.326229 -0.378056
0.240226 -0.449433 0.211375
0.252957 0.471170 0.160379
-0.042970 -0.464087 -0.181784
-0.275581 0.434247 0.242424
0.060533 0.334854 0.366819
0.043840 -0.263326 -0.424505
-0.019156 0.492066 0.077787
-0.040678 0.086447 0.488292
-0.256778 -0.336896 -0.368395
-0.148487 -0.172621 0.464831
-0.009092 -0.464226 -0.181452
-0.208429 0.300351 -0.399718
-0.180975 0.116314 -0.486665
-0.196471 -0.127355 0.479088
0.226959 -0.221533 -0.448007
0.031581 -0.407549 0.283180
0.241143 -0.494422 -0.058771
-0.149134 0.299085 -0.400673
0.001120 -0.263787 -0.424224
0.259335 0.170839 0.465750
-0.159467 -0.137604 -0.480635
-0.043440 -0.150536 0.472450
0.216679 0.415785 0.272580
-0.158711 -0.346579 -0.359476
-0.221851 -0.405809 -0.290378
-0.203318 -0.372721 0.327487
-0.192349 0.117863 -0.486340
-0.199618 0.483900 -0.121758
0.115487 0.051639 -0.497604
0.010253 0.413335 0.276291
-0.009563 -0.142654 -0.479095
0.073483 -0.252744 0.426594
0.158672 -0.077150 0.489710
-0.118819 -0.483178 0.116129
-0.088184 0.372906 0.328484
0.112642 0.489561 -0.096361
0.064793 -0.457501 0.193395
-0.263349 -0.289556 0.402735
-0.001817 0.297209 -0.402088
-0.155279 -0.361711 0.339642
0.167805 0.017285 -0.499893
-0.189171 0.347547 -0.359261
0.226978 -0.075561 -0.494343
0.026204 0.052875 -0.497504
0.033295 0.391374 0.306516
0.143513 -0.230253 0.439220
-0.080731 -0.058900 0.492350
-0.061701 0.458678 0.192864
0.025626 -0.496492 0.029802
-0.186240 -0.249631 -0.432854
-0.084406 -0.436726 -0.240668
0.033061 -0.495735 0.040292
0.003224 0.386224 0.312963
-0.057867 -0.126748 0.479255
0.162943 0.472627 -0.161084
0.157486 -0.214783 0.446843
-0.254115 0.178078 -0.467627
0.023685 -0.434639 0.240150
0.208530 -0.443454 -0.227728
-0.125251 -0.480099 0.128884
0.213573 -0.264748 0.419365
-0.218122 0.223583 -0.447365
0.233059 0.072721 -0.494852
0.127926 -0.461059 0.185086
0.038593 0.160870 -0.473592
0.219677 0.448082 -0.220918
-0.213292 -0.388624 -0.313156
0.271676 -0.389670 0.307181
-0.147048 -0.379999 0.319310
0.193480 -0.297094 -0.401671
-0.200042 -0.238299 -0.439179
0.112757 0.492861 -0.077195
-0.156457 0.498205 0.015932
-0.199590 0.394968 0.301753
-0.017156 -0.169560 -0.470199
-0.124624 0.109326 -0.488128
-0.226801 -0.438358 0.233087
0.167662 -0.262433 0.420894
0.067247 0.496928 -0.043091
-0.043526 -0.446526 0.217574
0.217235 0.476635 0.144315
-0.240960 0.447862 -0.221336
-0.230412 0.082413 0.488987
0.064325 0.382952 -0.321245
-0.240036 0.490916 0.085384
0.107542 -0.309048 0.388030
-0.155531 -0.156656 -0.474822
-0.198667 -0.482425 -0.123983
-0.117175 -0.497591 0.002538
-0.290085 -0.238612 0.434698
0.093394 -0.471459 0.157203
-0.119415 0.450471 0.211214
0.050961 0.492509 0.074725
-0.183152 -0.496566 0.028163
0.258560 0.305584 -0.395770
0.011502 -0.105459 -0.488799
-0.036007 0.314865 -0.388564
0.220876 0.478999 -0.140201
-0.274863 0.476511 0.144767
0.047391 0.369356 0.332621
-0.080975 0.169775 0.466149
0.236372 0.490555 0.087111
-0.255755 0.470312 0.162864
-0.257554 -0.110364 0.483343
0.261013 -0.466812 -0.174394
0.252007 -0.280275 0.409115
-0.007028 0.008952 0.495883
-0.253451 -0.023170 0.495416
-0.074649 0.062160 0.491998
0.007383 -0.178842 -0.466716
-0.092382 -0.477742 -0.140949
0.129560 0.073127 0.490585
-0.273001 -0.083887 -0.492910
0.093899 -0.356090 0.345593
-0.116522 0.423049 0.261576
0.213784 -0.220754 -0.448417
0.182864 -0.412384 -0.280533
-0.109203 0.498126 -0.020578
0.049523 -0.439400 0.231108
0.196500 -0.233873 0.437416
0.025478 0.409648 0.281876
0.041923 0.152193 0.472143
0.055480 -0.058676 -0.496618
-0.123541 0.358360 0.344074
0.107498 0.225199 -0.446569
0.157264 0.493351 -0.074345
-0.147305 0.464744 0.178313
-0.100916 -0.198184 0.454464
-0.232973 -0.018250 0.495504
0.065525 0.401844 -0.297155
0.165436 0.498501 -0.000480
-0.082574 -0.424154 -0.262591
0.143580 0.490302 0.088317
0.156907 0.404607 0.288976
-0.094828 -0.140597 0.475432
0.025428 -0.417684 -0.272504
0.236300 0.011198 0.495783
0.111696 0.498165 0.018135
-0.264894 -0.207614 0.450376
-0.050257 -0.491378 -0.079811
-0.168315 -0.082779 -0.493101
-0.157060 -0.270163 -0.420337
0.256527 0.183851 -0.465221
0.037977 -0.074417 -0.494540
0.189548 -0.439685 0.230566
-0.082149 0.461031 -0.192167
0.159350 0.465221 0.177170
-0.214045 -0.497344 -0.011200
0.026023 0.370077 0.331781
-0.193660 0.330893 0.370407
-0.062296 0.035327 -0.498926
-0.161991 0.310882 0.387199
0.229612 0.083437 0.488810
-0.190512 -0.267303 0.417678
0.155563 0.153674 -0.476074
-0.201874 -0.497472 -0.004095
-0.088153 -0.223721 0.442439
0.153517 0.489441 0.092428
-0.021377 -0.346517 0.354913
0.205538 0.343326 -0.363371
0.198962 -0.461800 0.183111
0.247585 -0.472650 -0.157469
-0.154009 -0.194767 0.455889
-0.176170 0.262702 -0.425746
-0.275835 0.207659 -0.455212
-0.184270 0.019104 0.495428
0.036608 0.483943 0.117842
0.272390 0.076729 0.489965
-0.053520 0.495478 0.054205
-0.122094 -0.468556 -0.169338
0.035086 0.406981 0.285828
-0.228991 -0.396987 -0.302071
0.092009 0.404957 0.288512
-0.130950 0.151473 -0.476833
0.032586 0.271592 0.415737
0.135079 -0.486091 -0.107881
0.131389 -0.448660 -0.217162
0.211061 -0.048419 0.493429
0.101462 -0.048040 -0.497767
0.111507 -0.059703 0.492234
0.010989 -0.405646 0.285901
0.273618 -0.095896 0.486374
-0.241593 0.333865 0.367715
-0.176230 -0.135278 -0.481345
0.078123 -0.361784 -0.343858
0.241803 0.493372 0.068756
-0.154376 0.406246 -0.290861
0.011622 0.333771 0.367800
-0.264128 -0.376894 -0.326996
-0.268122 0.495666 0.052325
0.101803 0.425430 -0.261767
-0.266862 -0.423862 -0.263100
0.051088 -0.002246 0.495793
0.106619 -0.459211 0.189586
-0.179968 -0.399744 0.294339
-0.286836 -0.020097 0.495471
-0.027085 -0.212133 0.448149
-0.256739 -0.471229 -0.161588
-0.126912 0.393566 0.303611
0.285427 -0.233521 0.437610
0.099395 -0.027181 0.495149
-0.287626 -0.057163 -0.496781
-0.135277 -0.495134 0.045856
-0.076344 0.435996 0.239374
-0.156580 -0.374355 -0.329955
-0.265737 0.438359 0.235254
-0.095058 0.207827 0.450568
-0.274241 0.406736 -0.290160
-0.115165 0.071742 0.490824
0.247217 0.468020 0.169509
-0.125462 -0.485227 0.107507
0.252638 0.260553 -0.427057
-0.120121 -0.378168 -0.325511
0.241799 0.409247 -0.286570
-0.272447 0.130017 0.478853
-0.068365 0.231321 0.439039
-0.148495 0.195077 0.456289
-0.075779 0.223360 0.443231
-0.202510 0.270254 -0.420760
0.130644 0.416527 0.271456
0.023127 0.069438 -0.495327
0.133658 0.278427 -0.415364
0.120615 -0.309982 -0.391452
-0.055807 0.232481 -0.442981
-0.273989 -0.464534 0.175825
0.130198 -0.479224 0.131753
-0.277437 -0.236708 0.435790
-0.071978 0.371260 0.330402
0.241513 0.452549 0.206996
0.059894 0.498623 -0.009481
0.152162 -0.459639 -0.192453
-0.028375 0.192116 -0.461775
-0.130009 -0.223647 -0.446894
-0.146100 0.184322 0.460691
0.269836 0.495698 0.051933
0.014660 -0.309429 0.387743
0.057851 0.029372 -0.499408
-0.123005 -0.465301 0.173783
0.000835 0.311817 -0.391068
-0.183481 0.380261 0.319913
0.208947 -0.195014 -0.460211
0.086007 -0.480796 0.126156
0.257042 0.132368 -0.482340
0.228680 -0.143338 -0.478886
-0.278454 -0.426177 0.254509
0.185076 0.297336 0.397865
-0.276466 0.448829 -0.219359
-0.272935 0.160018 0.469756
0.285518 -0.220927 -0.448326
0.224105 0.460633 -0.193053
0.123530 -0.061085 0.492034
-0.022994 -0.368786 0.331831
-0.286725 -0.226942 0.440852
0.114359 0.329476 -0.376027
-0.243068 -0.341232 0.360058
0.119326 0.224157 -0.447082
0.194887 -0.063387 0.491701
0.129812 0.460517 0.188453
0.237705 -0.366726 0.334106
-0.263088 -0.026814 -0.499390
0.174575 0.425988 -0.260852
-0.145303 0.282844 0.408000
0.265552 0.277579 0.411682
0.164543 0.129654 0.478939
-0.063466 0.496335 0.044077
-0.057486 0.396751 -0.303939
-0.092075 0.377792 -0.327372
-0.270164 -0.248496 -0.433546
0.226097 0.493658 0.066781
-0.060321 0.058373 0.492408
-0.038780 0.283914 -0.411742
-0.137301 0.480195 -0.136282
-0.159173 -0.440728 0.228585
0.118979 -0.394984 0.300516
0.046837 0.498400 -0.014461
0.053602 0.292358 -0.405748
-0.150915 0.083061 -0.493356
-0.258703 0.101489 0.485632
-0.139704 0.273864 -0.418377
0.221530 -0.306626 0.389858
-0.134202 -0.470189 -0.164604
0.037000 -0.450921 0.208058
0.097634 0.493593 -0.072943
0.182966 0.443641 0.225074
0.102198 0.083797 -0.493250
0.273695 0.459488 -0.195606
0.205143 -0.195272 0.455678
-0.287915 -0.494524 0.051506
0.263419 -0.424365 0.257480
-0.255482 0.295397 0.399221
0.079595 0.062856 -0.496279
0.192147 0.220752 -0.448760
0.221893 -0.328704 0.371456
-0.075225 -0.488824 -0.094833
0.211363 0.409282 -0.286520
0.061436 0.438442 0.235109
0.045602 0.497869 -0.026300
0.254577 -0.478888 0.132853
-0.114238 0.144065 -0.479111
-0.064835 0.452701 -0.210729
-0.226507 0.009199 0.495872
0.066529 -0.335330 0.365771
0.223145 0.445862 0.220567
0.170089 0.002698 0.495882
-0.033356 0.444059 -0.228559
0.109926 0.211127 0.449087
0.120349 0.155484 -0.475450
0.244208 0.280451 -0.414028
0.194779 -0.489040 0.089081
0.232536 -0.044847 -0.498112
0.170548 0.152476 -0.476488
0.162719 -0.118797 -0.485629
0.110829 0.107046 -0.488606
0.036185 -0.075404 0.489962
0.210205 0.149950 0.472828
-0.197802 -0.496716 0.024815
-0.147476 0.045084 -0.498135
0.034156 0.474082 -0.156319
-0.196307 -0.198102 0.454498
0.105795 0.117266 0.481883
-0.166765 -0.155093 -0.475299
-0.090845 -0.049382 0.493350
0.191814 0.086579 -0.492847
0.058664 -0.494954 0.047519
0.241865 0.416359 -0.276401
-0.162860 -0.416072 0.270993
-0.250467 0.498361 0.007295
0.009189 -0.303934 -0.396275
0.231557 0.364639 -0.341894
0.197480 0.444668 0.222990
-0.260076 -0.443826 -0.226973
-0.007406 -0.496692 0.025339
0.119875 0.185218 -0.464651
0.135842 0.133703 0.477785
-0.032098 -0.156189 -0.474965
0.245503 0.305066 -0.396161
0.230761 0.036212 -0.498854
-0.183206 -0.497157 -0.021582
-0.018148 -0.140716 0.475400
-0.238042 -0.218453 -0.449628
-0.202143 -0.497154 0.015036
0.271705 0.480514 -0.135238
-0.289964 0.353451 0.349117
0.073182 0.497548 0.029099
-0.285007 0.217104 -0.450558
0.269851 -0.257013 -0.428353
0.226116 0.482112 -0.129282
-0.128781 0.377595 0.323020
-0.193780 -0.347364 0.354088
-0.141194 0.077549 0.489824
0.014932 -0.474989 0.145632
-0.074885 0.104241 0.484978
-0.045959 0.023354 -0.499784
0.245535 0.410696 0.280289
-0.230835 -0.496352 -0.035568
-0.204237 0.387549 0.311419
-0.092178 0.483052 -0.125328
-0.193123 0.390564 -0.311698
0.073929 0.481010 -0.133611
0.267892 -0.497626 0.004527
-0.048324 0.491116 0.084352
0.135719 0.492309 0.076109
0.210977 -0.172887 -0.468950
0.242319 -0.205900 0.451220
0.235596 0.392834 -0.308851
-0.143527 -0.455923 0.196913
0.245830 0.187576 -0.463668
0.105613 -0.369182 0.331394
0.157706 -0.275270 -0.416934
0.134442 0.212100 -0.453024
-0.275448 0.223037 0.443401
-0.079752 0.117139 0.481913
0.219965 0.261578 -0.426469
-0.251890 -0.129372 -0.483116
0.097205 -0.324289 -0.379814
0.059478 -0.497342 -0.011295
-0.008535 0.483613 0.119039
-0.105214 -0.205832 -0.455356
-0.139116 0.123407 0.480424
0.097156 0.498596 -0.005764
-0.082644 0.482143 0.124362
-0.159543 -0.448939 -0.216597
-0.022380 0.209519 0.449808
0.053486 -0.096650 0.486216
0.149642 -0.467848 0.166993
-0.266488 -0.053136 0.493046
-0.282539 -0.175777 0.463743
0.126592 0.203897 -0.456863
0.150323 0.243630 0.432558
0.159095 -0.493956 -0.061993
-0.159700 0.497695 -0.030182
0.231500 0.055098 -0.497324
0.080838 0.370158 -0.335801
0.220618 -0.109202 0.483586
-0.141113 -0.366808 0.334015
0.061448 -0.318172 -0.384922
0.030558 0.181853 0.461617
-0.160105 -0.091467 0.487302
0.095369 -0.493767 -0.063296
0.226802 0.444062 -0.228553
-0.164043 -0.459812 0.188246
0.058891 0.460916 0.187496
-0.175897 -0.486128 0.103716
0.163818 -0.293138 0.400033
0.178238 -0.431883 -0.249113
-0.058522 0.313264 -0.389937
0.164408 0.378274 -0.326841
0.224711 0.475704 -0.151002
0.090555 -0.331745 -0.373061
0.230681 -0.156970 -0.474727
-0.018067 0.496116 0.046775
-0.217953 0.294061 -0.404464
0.214248 -0.469122 -0.167697
0.237020 0.181447 -0.466223
-0.102088 -0.122868 0.480326
-0.026174 -0.462220 0.181994
-0.153428 0.495729 -0.054189
0.004313 -0.437492 -0.239331
0.195567 -0.080964 -0.493413
0.148937 -0.361879 -0.343761
-0.126938 0.307854 0.389613
0.123163 -0.137183 0.476375
-0.155548 0.071658 -0.495006
-0.288083 -0.078277 -0.493876
-0.114768 -0.485512 -0.110644
-0.120121 -0.271461 0.414934
-0.234627 -0.134897 0.477006
0.074222 -0.287407 -0.408445
0.178239 0.205928 0.451420
-0.097768 0.442456 -0.231603
0.187583 0.498588 -0.010277
0.014751 0.491658 0.080607
-0.167365 -0.410386 0.279123
0.058900 0.282186 -0.412883
0.128604 0.494457 -0.065955
-0.038266 0.324849 -0.379997
0.128848 -0.316282 0.382115
-0.123051 -0.496626 -0.032186
-0.000372 0.242493 0.433157
-0.036756 0.159647 -0.474014
0.031865 -0.497451 -0.005259
0.194960 0.217927 0.446035
0.160034 0.028381 -0.499488
-0.057204 -0.493284 0.062975
0.253549 -0.188995 0.458295
0.097500 -0.348271 0.353206
0.258914 -0.384274 -0.318395
0.034585 0.474730 0.150056
-0.100307 -0.225230 0.441695
-0.226369 -0.332602 -0.372284
0.147808 0.340374 -0.366244
-0.018913 0.103373 0.485184
0.016626 -0.054551 0.492932
-0.070186 -0.443668 0.223001
0.227119 0.389249 0.309332
0.240317 -0.068693 -0.495526
-0.269620 -0.442972 0.224323
0.246759 -0.347182 0.354266
-0.047602 0.332088 -0.373786
-0.214483 0.497783 -0.028225
-0.066542 -0.379691 -0.323736
0.062484 -0.377379 -0.326430
