0.016839 -0.495403 -0.047278
0.247661 -0.027117 0.495155
-0.121539 0.384913 0.314491
-0.077618 -0.327949 -0.376499
-0.030682 -0.477902 -0.140367
-0.130571 -0.401380 0.292001
-0.287431 -0.493358 0.062291
0.178482 0.488289 -0.103288
-0.012232 0.272266 -0.419432
0.263821 -0.140851 -0.479645
-0.019918 -0.036893 0.494362
-0.198618 0.324589 -0.380220
-0.287265 -0.277007 -0.415719
0.051408 -0.435689 0.238155
-0.211721 -0.095623 -0.490890
-0.073881 0.232816 0.438252
0.174847 -0.015805 0.495548
-0.167816 -0.271391 0.414979
0.268816 0.048973 -0.497820
0.034406 -0.020782 -0.499660
-0.249740 0.279917 0.410047
0.251934 0.486856 0.104766
-0.160935 -0.334933 0.366112
-0.032858 0.365885 0.336345
-0.086930 -0.421177 -0.267214
-0.233407 -0.300741 -0.398821
-0.121754 0.360435 -0.346536
-0.102516 -0.169317 0.465971
-0.147846 -0.304234 -0.396036
0.192223 0.498016 0.023319
-0.075966 0.375092 0.325937
-0.220691 0.197065 0.455397
0.218396 0.496937 0.036644
-0.087264 0.026181 0.495111
0.253211 0.212046 0.448674
-0.004347 0.316966 0.382347
-0.163700 -0.486886 -0.104085
-0.001089 -0.494771 -0.055083
-0.273845 0.325764 0.375052
0.163269 0.498335 0.008694
-0.082013 0.061007 -0.496547
-0.208704 0.054817 0.492792
-0.136727 0.488980 -0.099734
0.205799 0.382170 -0.322225
0.151531 0.313991 0.384719
0.225927 -0.429827 0.248522
-0.247476 0.124145 -0.484610
-0.108943 -0.140138 -0.479862
-0.028945 -0.206113 0.451115
0.193065 -0.105791 0.484301
0.200370 -0.216736 -0.450463
-0.105409 -0.378807 -0.324766
0.272818 0.452890 0.206304
-0.024326 0.388214 -0.314645
-0.029393 -0.063095 0.491743
0.117397 0.420114 -0.270488
-0.036264 -0.011416 0.495627
0.185752 0.491882 0.079061
0.030681 0.479411 -0.138850
-0.140979 -0.057280 0.492584
0.285431 0.460820 0.187725
-0.009345 0.475267 -0.152434
0.259157 -0.491409 0.075320
0.223824 0.451254 -0.213954
0.169616 0.294147 -0.404399
-0.253549 0.321074 0.379072
-0.287540 -0.485505 -0.110678
-0.163278 0.283170 -0.412234
-0.198258 -0.026686 0.495189
0.134096 -0.314039 -0.388217
0.089400 0.068674 -0.495438
-0.157402 -0.061444 -0.496319
-0.021659 -0.052872 -0.497245
-0.196065 0.113341 -0.487287
0.202533 0.489981 0.089851
-0.005658 -0.387793 -0.314258
-0.039270 -0.496362 0.032694
0.180525 -0.228290 0.440187
0.200181 0.106060 -0.488812
0.273908 0.478796 0.136490
0.216028 0.158259 -0.474493
-0.040437 -0.058738 -0.496611
0.278926 0.201482 -0.457870
-0.288351 -0.469903 -0.165434
0.094253 0.136754 0.476854
0.003378 -0.411011 -0.282613
0.209120 -0.479747 -0.133686
0.096375 0.492242 -0.080787
-0.011499 -0.474164 -0.153081
-0.050968 0.464486 -0.183038
0.052816 -0.497004 -0.027523
-0.070061 -0.194212 -0.460571
0.127886 0.195103 -0.460530
0.241210 0.371433 0.330201
0.219271 0.276567 0.412390
-0.274285 0.172542 -0.469566
-0.072591 0.099540 0.486038
-0.219749 0.026918 0.495078
-0.009402 0.290367 0.402738
0.183247 0.105741 -0.488879
0.274076 -0.147017 0.473660
-0.198822 -0.009767 -0.500154
-0.009970 0.444608 0.223112
0.054886 0.470743 0.161615
0.098074 -0.226794 0.440925
0.286648 0.420268 0.265789
0.125866 0.267962 0.417950
-0.149768 0.136367 -0.481236
-0.237377 -0.496474 0.030204
0.014827 -0.485041 0.108293
0.050877 0.359481 -0.347589
-0.028928 0.253502 0.426766
-0.122299 0.490707 0.086382
0.110234 0.002443 -0.500161
-0.094159 -0.413909 -0.278222
-0.175445 -0.447803 0.215007
-0.102612 -0.332727 0.368004
-0.101164 -0.353135 -0.352742
-0.190837 -0.234484 0.437065
-0.038651 0.068737 -0.495429
0.247296 0.484979 0.113726
-0.003720 -0.290851 0.401758
0.052516 -0.455281 0.198343
-0.011547 0.243484 -0.436845
-0.160917 -0.195972 -0.459781
0.070841 -0.092817 0.487019
0.197439 -0.341178 0.360111
-0.077823 0.427619 -0.258178
0.255024 -0.021132 -0.499645
0.015612 -0.457786 0.192761
0.086024 0.462387 -0.188632
-0.273443 0.351493 0.351128
-0.111084 0.111745 0.483195
0.102518 -0.242363 -0.437039
-0.038716 0.015928 0.495571
0.139852 -0.016563 -0.499850
-0.147077 -0.318397 -0.384742
0.223793 -0.273771 0.413408
0.147548 -0.457515 0.193365
0.187710 -0.309029 -0.392213
-0.030660 0.498206 -0.018786
-0.198050 0.470783 0.161499
0.006925 -0.305719 0.390542
0.115644 0.462967 -0.187086
0.097175 -0.111585 -0.487343
0.234821 -0.190543 -0.462217
0.283886 0.260422 0.422547
-0.006526 0.392669 0.304800
-0.088413 0.497541 -0.033624
0.197950 0.197882 -0.459371
0.278495 -0.492157 -0.074428
0.184942 -0.068781 -0.495510
0.216026 -0.471867 -0.159740
-0.206145 0.282337 -0.412783
0.222535 -0.174615 0.464144
-0.265096 0.438233 -0.239623
-0.023318 0.442988 0.226399
-0.185581 0.106062 0.484545
0.074256 0.019847 -0.499847
0.052723 -0.487431 0.098236
-0.286377 -0.014396 0.495574
-0.146799 -0.394606 -0.305227
-0.081734 -0.288799 -0.407472
0.021038 -0.319489 -0.383871
0.271929 -0.415807 -0.275347
-0.246574 -0.371917 0.328374
-0.025644 -0.485154 -0.112352
0.149279 0.490493 0.087404
-0.204537 0.464157 0.179721
0.184429 -0.355697 0.345976
-0.000192 -0.374201 0.325853
0.029351 -0.325114 -0.379066
0.206192 0.485284 -0.115933
0.020580 -0.388372 -0.313490
-0.254756 -0.497535 -0.000590
-0.289684 -0.276961 0.411303
-0.236462 -0.477081 0.138776
0.163531 0.314214 0.384542
0.021635 0.119052 0.481459
0.106218 -0.477409 -0.142155
-0.029630 -0.043319 0.493842
-0.235893 -0.497019 0.018057
-0.077580 -0.155530 0.470727
-0.118202 0.493979 0.064564
-0.289632 0.091504 -0.491862
-0.281669 0.498593 -0.005613
0.001163 0.235701 -0.441309
0.208175 0.418765 0.268066
0.212822 -0.086461 -0.492467
-0.123608 0.462946 0.182626
-0.234182 0.495710 -0.054364
0.093047 0.275643 0.413036
-0.041957 -0.310465 -0.391067
-0.009134 -0.473117 0.151767
-0.069643 0.417499 -0.274771
-0.222749 0.349195 -0.357657
0.013242 0.275477 0.413153
-0.031754 -0.422887 0.259905
-0.077466 -0.019651 -0.499711
0.048736 0.083574 -0.493282
0.170762 -0.296304 -0.402223
-0.179391 -0.036766 0.494373
-0.024618 0.480735 0.129464
0.034481 -0.484936 -0.113393
0.106174 -0.475992 0.142344
-0.084518 0.489017 -0.099524
0.247755 -0.320722 0.378305
-0.056967 0.243285 -0.436960
0.057175 0.462027 -0.189592
-0.202398 0.484584 0.115523
0.144601 -0.475803 -0.147973
-0.227493 -0.248469 -0.433562
0.055801 0.173834 -0.469120
0.005028 0.430282 -0.253809
0.218103 -0.116282 -0.486227
-0.063481 -0.004715 -0.500290
-0.253356 0.105841 0.484598
0.006522 -0.368955 -0.336248
0.063705 -0.165105 -0.471871
0.030932 -0.098442 0.485840
0.194873 -0.355332 -0.350486
-0.162268 0.344970 -0.361770
0.207726 0.302064 0.394230
-0.242708 -0.061312 -0.496333
-0.255953 -0.490380 0.081299
-0.174124 0.494132 -0.068962
0.156591 0.432201 -0.250662
-0.282782 -0.175884 -0.467826
0.181376 -0.477235 0.138273
0.236273 -0.083998 0.488719
-0.254232 0.240562 0.434174
0.172441 -0.477529 -0.141718
-0.250739 -0.198410 0.454370
-0.063956 0.448455 -0.220192
0.047193 0.494592 -0.064708
-0.203349 -0.461851 -0.187147
0.270843 0.411486 0.279092
-0.134248 0.203327 0.452587
-0.062448 -0.494785 -0.054911
-0.106079 0.392435 -0.309352
0.240701 -0.272352 -0.418974
0.040671 0.130556 0.478725
-0.246759 -0.477908 0.136066
-0.253892 -0.217041 -0.450326
-0.092293 -0.488000 0.095123
-0.171910 0.496823 0.038055
0.158903 0.489680 -0.095671
0.089100 -0.243473 -0.436455
-0.072175 -0.145628 0.474043
-0.009640 0.329227 0.371916
-0.226421 0.472622 0.156167
-0.264065 -0.182224 0.461118
-0.011256 0.498117 -0.020781
-0.012330 0.398709 0.296793
0.020806 -0.031293 -0.499189
-0.160509 0.468980 0.166727
-0.287761 -0.079231 -0.493712
-0.267778 -0.360762 -0.344908
-0.279381 0.060343 -0.496643
-0.020980 -0.397052 0.297922
-0.108442 0.458152 0.194125
0.132757 0.127519 -0.483679
0.171831 0.024507 0.495186
-0.259681 -0.272210 0.414439
-0.231886 0.419710 0.266635
0.008721 -0.284603 -0.410407
0.026256 -0.251604 -0.431651
0.156252 0.496968 0.036265
-0.287327 -0.411893 -0.281277
-0.145526 0.190420 0.458379
0.267872 -0.478766 -0.137239
0.217650 -0.282962 0.407341
0.259826 0.039094 -0.498621
0.005816 0.397209 0.298782
0.097505 -0.414597 0.273103
0.072053 -0.406521 -0.289414
-0.130121 -0.491438 -0.079395
-0.269774 0.494333 0.062114
-0.264983 -0.483257 -0.120971
0.203570 0.150869 -0.477042
-0.198263 -0.251376 -0.431790
0.049632 -0.150919 0.472318
-0.034720 0.296865 0.398194
-0.103621 -0.491358 0.075616
-0.146599 0.475498 -0.151675
0.285663 -0.006767 -0.500289
0.265254 0.476255 -0.149194
0.147199 -0.494057 0.055821
-0.187990 0.230124 -0.444142
-0.185833 -0.045589 0.493658
0.265414 0.382911 -0.321296
0.046467 -0.070143 -0.495276
0.127597 -0.440114 0.229752
0.198310 -0.064436 0.491549
0.120934 0.466911 0.172723
0.133035 0.267175 -0.422793
0.241831 0.080477 -0.493730
0.257290 0.225050 -0.446642
0.020268 -0.452633 0.204244
-0.287927 -0.037286 0.494331
-0.091774 0.474710 0.150115
0.135053 0.179252 0.462593
-0.012499 -0.272376 -0.418958
0.022960 -0.335954 0.365196
0.047852 -0.010227 -0.500134
0.015230 -0.357193 0.344519
0.268720 -0.125503 0.479599
0.193099 0.496728 -0.044944
-0.215765 -0.340330 -0.365285
0.166817 -0.325593 0.374125
-0.220896 0.492598 0.074111
0.237046 -0.435257 0.238977
0.080528 0.373795 0.327448
0.009222 0.148290 -0.477932
0.160107 0.395090 -0.306022
-0.177439 -0.072062 0.490446
0.154559 0.398449 0.297139
-0.288723 -0.289805 -0.406769
0.043166 -0.479363 -0.135076
-0.224789 -0.316233 0.382157
0.270681 0.194822 -0.460647
-0.264161 0.495237 -0.058739
0.254332 -0.131619 0.477911
0.256908 -0.117727 -0.485883
-0.061912 0.485375 0.111837
0.206034 0.018633 0.495449
0.055231 0.433251 -0.248940
-0.101295 0.498624 -0.009477
0.142774 -0.292002 0.400890
0.108780 0.366810 -0.339497
0.028411 -0.360533 -0.345143
0.181088 -0.426378 -0.258713
-0.005164 0.148776 0.473186
-0.034989 0.056665 0.492592
-0.186593 0.421776 0.263505
0.099861 0.469707 0.164618
0.048826 -0.337187 -0.368131
-0.212626 -0.173766 -0.468620
-0.260465 0.177430 -0.467879
-0.270968 -0.495842 -0.041863
-0.270704 0.069796 -0.495275
0.140411 0.488833 0.095331
-0.272748 0.496133 -0.050450
0.198993 -0.472614 0.153418
-0.147533 -0.409648 0.280178
0.203837 -0.495116 -0.050827
0.184659 0.003908 -0.500134
0.180895 -0.111931 0.483015
-0.177827 -0.487771 0.096451
-0.018517 -0.298984 0.395623
0.044114 0.045010 0.493852
0.160449 -0.352468 0.349119
-0.250422 -0.052918 -0.497240
-0.031728 0.468130 0.169191
0.263777 0.169297 -0.470685
-0.283992 -0.459733 -0.192227
-0.122518 0.458499 0.193291
-0.121264 0.002691 -0.500156
-0.191944 -0.317368 -0.385563
0.110451 0.227116 -0.445624
0.126198 0.305836 0.391222
-0.134306 -0.256108 -0.428905
-0.217133 0.465585 -0.180110
0.030589 0.399664 0.295527
-0.251264 0.362958 0.339351
0.226280 -0.201844 -0.457146
0.038055 -0.151924 -0.476266
0.070470 0.441103 0.230225
-0.190151 -0.185170 -0.464341
0.286239 -0.493379 -0.065979
0.181208 -0.183070 -0.465129
-0.266098 -0.395899 -0.303513
0.219266 0.319743 -0.384378
0.176253 -0.463081 -0.184198
0.108698 0.374240 0.326929
0.018039 -0.126349 -0.483834
-0.160408 0.466624 -0.177341
0.142583 -0.374171 -0.330169
0.276107 -0.408413 -0.286547
0.104189 0.359344 -0.347740
0.143839 0.262342 -0.425984
0.021672 0.227689 -0.445342
0.085697 0.419817 -0.270975
-0.205530 -0.338230 0.362981
-0.092662 0.468063 -0.173506
0.077471 0.310759 0.387296
0.113338 -0.482665 0.118290
-0.058594 -0.321858 0.377330
-0.017559 -0.192311 -0.461424
-0.041030 0.055574 -0.497285
-0.060065 -0.386501 -0.315799
-0.038984 0.485264 0.112366
-0.081699 -0.268278 -0.421486
0.265539 -0.494613 0.050679
0.136954 -0.496228 0.035689
-0.081502 0.024465 -0.499764
-0.145705 0.416083 -0.276795
0.205713 -0.393158 -0.307147
-0.038704 0.495598 -0.055399
0.233472 0.496240 -0.049456
-0.121754 0.020785 -0.499830
-0.214122 0.121771 -0.485266
-0.133228 -0.054573 -0.497061
-0.288283 0.303777 0.392864
-0.125027 -0.463960 0.177356
0.046194 -0.401160 0.292314
-0.117920 0.416254 0.271870
-0.100841 0.270357 0.416490
0.192928 0.498359 0.007396
-0.099721 -0.483674 0.114043
0.115959 -0.045959 -0.497992
-0.232270 -0.079819 0.489324
0.117169 -0.283770 -0.410989
-0.125741 0.444020 0.224305
-0.142581 0.228395 -0.444994
-0.069907 0.493808 -0.071690
0.117229 -0.398557 -0.299989
-0.257178 0.128603 -0.483379
0.100883 0.466940 -0.176498
0.188179 -0.012417 0.495609
-0.277180 0.040886 -0.498475
-0.204161 -0.243663 0.431802
-0.273877 -0.495592 0.041615
0.286504 0.325301 -0.379609
-0.152415 -0.071403 0.490541
-0.115226 0.201741 0.453299
-0.214485 0.365479 0.336762
0.082239 0.212803 -0.452677
0.150064 0.496831 -0.043992
0.265406 0.296277 0.398605
0.004610 -0.441251 -0.232197
0.093296 0.051394 0.493162
-0.070652 0.009061 0.495879
-0.203430 0.163216 0.468610
0.052051 -0.495678 -0.043885
0.093631 -0.403974 -0.292810
-0.191366 -0.057003 -0.496798
-0.120274 -0.491863 -0.076456
-0.272620 0.266216 -0.423426
0.126178 0.498187 0.016950
-0.216975 0.073207 -0.494782
-0.094230 -0.478534 -0.138078
0.284025 0.073166 -0.494788
0.013163 0.439967 -0.236330
-0.258289 -0.495801 0.039681
0.151101 0.146576 0.473857
0.153890 0.452694 -0.210744
0.025799 0.135565 -0.481457
-0.279644 0.075183 -0.494496
0.221315 0.193167 -0.461336
-0.064630 -0.466816 0.169744
-0.219326 -0.491125 -0.081559
-0.244957 0.200683 -0.458203
-0.175728 -0.244231 0.431476
-0.236714 0.471375 0.159782
-0.174293 -0.249204 -0.433114
0.119028 -0.313577 -0.388586
-0.075695 0.349671 -0.357194
0.162390 0.380575 0.319547
-0.192657 0.194174 -0.460917
-0.131224 -0.145794 -0.478137
0.175487 0.478728 0.136735
-0.080058 0.468720 -0.171755
0.144457 0.369370 0.332605
-0.083833 0.495586 -0.055514
0.132962 0.255737 -0.429819
-0.007464 0.218613 -0.449814
-0.211721 0.382586 0.317203
0.042378 0.469862 -0.168712
0.225231 -0.007514 0.495698
-0.079970 -0.432389 0.244318
0.185606 -0.385191 -0.317326
-0.139428 -0.447572 0.215521
-0.107186 -0.161849 -0.473092
0.027793 0.418771 -0.272691
-0.098786 -0.362536 0.338731
-0.132160 -0.368703 0.331923
0.019705 -0.084107 0.488703
0.224930 -0.398325 0.296326
-0.007976 0.498296 0.010865
0.240477 0.244074 -0.436507
-0.042868 0.312257 -0.390736
-0.068939 0.349238 0.353444
0.238654 0.381108 -0.323557
-0.201649 -0.080612 -0.493474
0.247389 -0.457422 -0.197771
0.192546 0.493043 -0.076134
-0.025596 -0.428031 0.251467
-0.263766 -0.209734 -0.453606
-0.151060 -0.230850 0.438926
-0.062554 -0.476629 0.140258
-0.265092 0.489080 0.094152
0.244154 -0.202617 0.452616
0.186428 0.312743 0.385715
0.114004 0.270913 0.416151
0.273073 0.495618 0.052920
-0.138784 -0.252848 0.426535
0.135055 -0.497163 -0.021235
-0.243975 -0.187084 0.459092
-0.171872 -0.231949 -0.442523
-0.281548 0.277983 0.411400
0.009478 0.358643 -0.348459
0.102660 0.024699 0.495177
-0.283757 0.497105 0.034574
0.074956 0.391504 0.306344
0.213634 -0.146397 -0.477953
0.015974 0.216892 -0.450662
0.051654 0.094460 -0.491243
0.055612 -0.347115 0.354331
0.207229 -0.419794 -0.269309
0.162277 0.458643 0.192946
-0.055376 0.481038 -0.133521
-0.244079 -0.341456 -0.364265
0.179110 -0.450033 -0.214375
0.056781 0.325323 -0.379590
-0.200197 0.498161 0.018381
-0.129376 -0.225983 -0.445664
-0.193263 -0.086338 0.488376
0.106854 0.421567 0.263822
0.088352 -0.089708 -0.491908
0.070473 -0.168050 0.466408
-0.146951 0.362562 0.339758
-0.064561 0.326248 -0.378797
-0.181022 -0.438949 -0.236790
0.220854 -0.494908 -0.053393
0.226012 0.147475 0.473583
-0.011123 -0.476298 0.141342
-0.199991 -0.164252 0.467719
-0.149798 0.267515 -0.422568
-0.206419 -0.422630 -0.265013
-0.094510 -0.409922 0.279786
-0.157367 -0.234531 -0.441163
-0.046794 0.303461 -0.397372
0.004098 -0.186890 0.459173
-0.057365 0.257477 -0.428821
0.072033 -0.296035 -0.402411
-0.028363 0.267226 0.418399
0.138848 0.354528 0.348011
-0.189427 -0.299077 -0.400148
0.053931 -0.477323 0.137982
-0.007435 0.329272 -0.376201
0.095050 0.215743 -0.451228
-0.115904 0.498547 -0.003059
-0.275734 -0.324241 -0.379857
-0.087619 -0.486254 -0.107101
0.280901 -0.351693 0.349874
-0.179825 0.473321 -0.158813
-0.036015 -0.235446 0.436514
-0.012016 -0.347346 -0.358688
-0.179733 -0.432880 -0.247374
0.217721 0.438761 0.234552
0.184681 0.213163 -0.452500
-0.251042 0.413559 -0.280405
0.075461 0.128772 -0.483333
-0.172015 -0.003574 0.495769
-0.031331 0.341742 0.360581
0.127069 -0.050501 0.493260
0.263381 -0.116524 0.482052
0.115068 0.498170 0.017888
-0.153380 0.486651 0.105743
0.241596 -0.071805 0.490483
0.123190 0.445512 -0.225800
-0.229803 -0.356504 0.345190
0.158865 -0.473358 -0.155416
-0.269373 0.348915 -0.357930
0.090706 -0.450988 -0.212438
0.083840 0.135951 -0.481351
-0.113483 0.177682 0.463182
-0.126361 0.427183 0.254742
0.206317 0.150357 0.472704
0.144894 -0.429322 0.249350
0.259992 0.497728 -0.029441
-0.079795 0.485306 0.112164
0.192833 0.123065 0.480505
0.214772 -0.330056 -0.374590
0.208663 0.234079 0.437587
0.278942 0.497602 -0.032262
-0.178752 -0.133853 -0.481780
0.110705 -0.259486 -0.426846
0.064864 -0.492019 0.071778
0.154813 0.237354 -0.440361
0.203706 -0.497140 -0.022537
-0.108844 0.054482 -0.497374
0.146510 0.393313 -0.308250
-0.049537 -0.337702 -0.367665
-0.215040 -0.497191 0.014217
-0.020780 -0.184387 0.460216
0.132718 0.193155 0.457152
-0.116037 0.483962 0.117774
0.195653 -0.379196 -0.324313
-0.160816 -0.347609 0.353850
0.124796 0.496973 -0.042674
-0.241297 0.497264 0.032605
-0.032965 -0.385146 -0.317379
-0.248788 0.484569 0.115575
0.166556 0.193806 -0.461070
-0.069613 -0.461976 -0.186847
-0.188798 0.090817 0.487540
-0.084302 0.105856 0.484595
0.272750 0.155662 0.471085
0.267621 0.496630 0.040428
-0.277311 -0.489860 0.084320
0.240711 0.107102 -0.488594
-0.153725 -0.496364 0.032653
-0.029199 0.293372 -0.404983
-0.223807 0.491346 -0.085994
0.090307 -0.306773 0.389747
-0.043731 0.004807 -0.500118
0.206725 -0.496061 0.037280
-0.197914 0.370730 -0.335170
-0.155303 0.027163 -0.499587
-0.147920 0.458666 -0.197438
0.234044 0.192439 -0.461640
-0.290139 -0.497349 -0.010925
-0.161380 -0.183829 -0.464845
-0.060761 0.483744 -0.122416
0.120911 -0.344057 -0.361909
-0.036085 0.453882 0.204292
-0.070650 0.358845 -0.348262
-0.052996 -0.438963 -0.236766
0.111031 -0.487240 -0.102396
0.190410 0.012958 -0.499971
0.227945 -0.219805 0.444369
0.121555 -0.370800 -0.334098
-0.273476 -0.215782 -0.450891
0.236553 -0.327399 -0.376997
0.111485 -0.249871 0.428242
-0.197108 0.220902 -0.448686
0.201211 -0.141135 0.475284
0.091530 0.085983 0.488372
0.073040 0.491057 -0.087673
0.115065 0.479170 0.135135
0.023762 -0.481604 0.122752
0.205248 -0.472270 -0.158571
-0.058227 0.457224 0.196351
-0.092029 -0.242123 -0.437165
0.282271 0.208233 0.450386
-0.274056 -0.190975 0.457470
0.228963 0.492756 -0.077800
-0.265217 -0.449243 0.211798
0.042737 -0.465631 0.172903
-0.201977 0.020188 -0.499841
-0.279350 0.484893 -0.117579
0.071825 0.491746 0.080001
0.074703 0.139245 0.476094
0.077674 0.327227 -0.377957
0.190038 -0.205284 0.451504
-0.276186 0.446537 0.219197
0.203868 0.468939 0.166846
0.012399 -0.025798 -0.499435
0.214090 0.097911 0.486319
-0.160075 0.375710 -0.329671
-0.070487 -0.213176 -0.452061
-0.113194 0.492854 -0.077235
0.081752 -0.442686 -0.229287
-0.060715 0.486333 -0.111521
0.135318 -0.497475 0.007895
-0.164827 0.415193 0.273476
-0.073362 0.475645 -0.151195
-0.143950 0.496323 0.044227
-0.064877 0.223698 0.443053
0.213545 0.022518 -0.499799
-0.182972 0.452695 0.206700
-0.109905 0.480425 0.130586
0.252029 0.454200 -0.207390
0.050826 0.496893 0.037183
-0.134207 -0.032794 -0.499122
-0.047089 0.284432 -0.411400
-0.043126 -0.106695 -0.488505
-0.117956 -0.404934 0.286918
-0.095916 0.495685 -0.054590
0.264488 -0.462627 -0.185286
0.006764 -0.191032 -0.461998
-0.241072 -0.288289 0.403691
0.182679 0.473129 0.154697
-0.001771 -0.304773 -0.395606
0.012256 0.004744 -0.500119
0.075568 0.449265 -0.218387
0.091464 0.236007 -0.441133
-0.271724 -0.496690 -0.031401
-0.081694 0.168234 -0.471052
-0.195871 0.150740 0.472587
-0.289057 -0.370524 -0.334420
0.007006 -0.248477 0.429041
0.129472 -0.202358 0.452724
-0.041988 -0.441807 -0.231071
-0.058504 -0.005863 0.495727
0.083286 -0.363287 -0.342314
-0.015746 -0.455941 -0.201323
-0.264762 0.488632 -0.101758
0.076651 -0.430482 0.247447
0.140814 0.302513 0.393871
-0.039926 0.000200 0.495837
0.115562 0.485375 0.111834
0.010120 -0.497171 0.014669
0.244599 -0.113658 -0.486850
-0.001031 -0.465234 -0.178968
-0.180173 -0.486841 -0.104301
-0.272568 0.363871 0.338414
0.168398 -0.359527 0.342054
-0.024227 0.156233 -0.475192
-0.136284 0.068377 0.491327
-0.009807 0.470309 -0.167521
-0.167627 0.038294 -0.498685
-0.172513 0.429023 -0.255874
0.111908 0.308285 -0.393732
-0.093721 0.081578 0.489130
0.094888 -0.407405 0.283385
-0.047986 0.151726 0.472286
0.038160 0.354342 0.348202
-0.219663 0.107374 0.484234
0.013857 0.498185 0.017035
-0.094265 0.166168 -0.471764
-0.169489 0.428128 0.253095
-0.045751 -0.478403 -0.138554
0.129463 0.489139 -0.098815
0.206178 0.047855 -0.497911
0.019939 0.470511 -0.166982
0.170720 0.197345 0.455271
0.041574 -0.493773 0.058451
-0.128636 -0.064820 0.491494
0.179969 0.141021 -0.479952
-0.024482 0.346464 -0.360316
-0.042645 0.493950 -0.070651
0.195802 -0.088658 -0.492089
-0.033380 0.203170 -0.457166
-0.125736 0.351074 0.351558
-0.270601 -0.429109 0.249699
-0.284767 -0.024805 0.495342
-0.104231 -0.489204 -0.093019
-0.208437 0.495477 -0.056517
0.038574 -0.357635 -0.348120
-0.187970 0.475640 -0.151212
0.055390 -0.491377 -0.079820
0.151592 -0.433781 0.241779
0.136886 -0.488826 -0.094822
0.126778 -0.177895 -0.467071
0.040929 -0.002590 -0.500252
0.004779 -0.334355 0.366608
-0.007167 -0.018804 0.495494
0.093058 0.498446 -0.013441
-0.161973 0.487262 -0.107610
0.113971 0.122519 -0.485059
0.255635 0.281757 0.408760
0.230724 0.298185 -0.401352
0.118563 0.492535 0.074544
-0.111336 -0.363327 -0.342273
-0.152582 0.248648 0.429725
-0.008838 -0.497554 0.000460
0.194526 -0.389690 -0.311743
0.038174 -0.408967 -0.285708
-0.017787 0.481312 -0.132621
-0.212839 0.395750 -0.305194
0.192385 0.409039 0.282798
-0.008996 -0.170035 -0.470020
-0.257130 0.292329 0.401366
-0.210991 -0.309273 -0.392018
0.016251 0.156797 -0.474997
0.041341 -0.496794 -0.030113
-0.252468 -0.380226 -0.323112
0.156019 0.478500 0.137561
-0.271950 -0.148026 -0.477456
-0.134928 0.462870 0.182808
0.120326 0.470653 0.161876
-0.052613 -0.352455 -0.353440
0.097150 -0.330853 0.369612
0.078469 -0.491734 0.073436
0.037767 0.280822 -0.413783
0.232235 -0.464362 -0.181124
-0.263037 -0.169869 0.465781
-0.141332 0.072391 -0.494900
-0.256375 -0.202046 -0.457055
0.141430 -0.028471 -0.499315
-0.161182 -0.121267 0.480768
0.048340 0.410213 0.281020
-0.288865 0.385036 0.314347
0.224067 -0.113434 0.482700
0.009404 0.498543 -0.002802
-0.126051 0.453638 0.204786
0.208455 -0.339228 -0.366283
0.069594 -0.339741 0.361510
-0.233331 0.462045 -0.189544
-0.097689 0.289835 0.403111
0.133238 0.046967 -0.497983
0.250274 -0.484344 0.111226
0.046777 0.304132 0.392581
0.247417 -0.103852 0.484707
-0.121094 -0.260850 -0.426015
0.047753 -0.473691 0.149887
0.173380 0.492143 0.077255
0.089186 0.176418 0.463656
-0.277087 -0.396986 -0.302072
0.024732 -0.310691 -0.390887
0.059303 0.193930 0.456804
-0.150843 -0.415797 0.271386
0.102442 0.386237 0.312948
0.100837 0.478258 -0.142629
0.161258 -0.417352 -0.273008
0.071376 -0.484599 0.110152
0.202196 -0.429932 0.248349
-0.217889 -0.411635 0.277337
-0.006147 0.298362 0.397147
-0.226109 -0.380805 -0.322438
-0.246516 0.498187 -0.019217
0.204887 0.465132 0.177384
0.201529 0.181755 -0.466094
-0.186136 -0.492702 -0.070657
0.171935 -0.027842 0.495096
-0.082092 -0.139512 0.475732
0.195256 -0.322294 0.376956
-0.226151 0.487559 0.101411
-0.202721 0.130246 -0.482926
0.272372 -0.339347 0.361893
-0.235050 -0.451870 0.205945
0.264472 -0.052336 -0.497303
0.183242 -0.424258 0.257656
-0.209917 -0.255639 0.424934
0.191633 0.076404 -0.494319
-0.080986 0.277755 0.411559
-0.144357 0.370604 0.331167
-0.151913 0.000597 0.495844
-0.013795 -0.181031 -0.465894
0.068487 0.465181 0.177266
-0.047183 0.177194 -0.467961
0.096557 -0.488129 0.094371
0.255366 0.281019 -0.413653
0.091620 -0.492061 0.071534
0.204345 0.261317 -0.426619
-0.167430 0.250219 0.428767
-0.186546 -0.247137 -0.434375
0.032778 0.307384 0.389988
0.194754 0.373953 0.327264
0.227963 0.023914 -0.499774
-0.072942 0.422563 -0.266470
-0.199854 0.053795 -0.497430
0.246914 -0.217971 -0.449882
-0.184570 0.498349 0.007967
-0.042874 0.474471 0.150807
0.078750 0.498485 -0.012556
0.211529 0.117343 -0.486449
0.063579 0.443940 -0.228784
-0.088922 0.190500 -0.462449
0.071037 0.498050 -0.022267
0.100094 -0.497547 0.000071
-0.228001 -0.272083 0.414523
-0.255833 0.493911 -0.071007
0.285942 -0.088801 -0.492064
-0.106754 0.078211 -0.494058
-0.058303 0.301990 -0.398482
-0.224298 -0.126894 -0.483705
0.089368 -0.436039 -0.241865
-0.179503 -0.395780 0.299518
0.062074 -0.486366 0.102716
-0.090655 0.395143 -0.305956
0.033356 0.364969 -0.341530
-0.207525 0.438029 -0.240012
0.252217 -0.328686 0.371472
-0.133638 0.411036 -0.284012
0.220546 -0.464951 -0.179711
0.202598 -0.296840 -0.401848
-0.034533 0.131641 -0.482541
-0.241799 0.099123 -0.490266
-0.260474 0.087400 0.488128
0.159771 0.028995 -0.499439
0.164672 -0.081596 0.489067
0.128356 -0.166595 -0.471311
0.180721 -0.123637 0.480114
0.032716 -0.037732 0.494294
-0.151294 -0.427171 -0.257330
-0.043399 -0.082068 0.488998
-0.277039 0.333826 0.367751
-0.289438 -0.348738 0.352751
0.084161 -0.273258 0.413747
-0.135789 -0.230119 0.439286
0.022264 0.417374 0.270173
0.135130 -0.453051 -0.208252
0.026524 0.169681 -0.470553
0.186586 0.490011 0.089708
0.016606 -0.478441 0.134317
-0.160669 0.458365 -0.198108
0.096486 -0.460378 -0.190680
0.238023 -0.484348 -0.116201
0.178374 -0.484957 -0.113294
-0.109025 -0.279784 -0.413777
0.128452 0.170722 0.465794
0.274049 0.285805 -0.410493
-0.110366 -0.482974 0.116991
-0.288737 0.480464 0.130447
-0.036708 -0.125697 0.479545
0.261825 -0.273168 0.413807
-0.245575 0.344985 -0.361755
-0.180049 -0.190589 -0.462197
0.059083 -0.010343 -0.500129
-0.233009 -0.338646 0.362576
0.128746 -0.073093 0.490297
-0.199405 0.144371 -0.479027
0.027652 -0.437869 -0.238674
0.130305 -0.411483 0.277555
0.127105 0.426658 -0.259753
-0.146951 -0.391164 0.305307
0.176926 -0.237316 0.435441
0.199016 -0.378122 0.321523
-0.014902 0.417821 -0.274248
0.082810 -0.055807 0.492797
-0.062967 -0.183286 0.460676
-0.232774 -0.023860 0.495403
0.271351 -0.378393 0.321224
-0.230349 -0.399433 -0.298829
-0.044894 0.046691 0.493670
-0.264318 0.401211 0.293477
-0.028109 -0.497232 0.013306
0.015866 0.400447 -0.299154
-0.222238 0.315569 0.383461
0.019210 -0.223349 0.442622
-0.160547 0.214416 -0.451882
-0.138417 0.441747 -0.232950
0.285148 0.196245 0.455765
-0.039470 0.327487 -0.377733
0.212906 -0.041658 -0.498457
0.159398 0.339671 -0.366929
-0.274630 -0.493759 0.058581
0.187304 0.172169 -0.469694
0.024801 -0.317866 0.380756
0.144473 -0.015134 0.495560
-0.085572 0.255416 0.425599
0.188743 0.297446 0.397788
-0.144277 -0.056800 -0.496820
0.159841 0.345183 0.357464
-0.011816 0.424096 -0.263956
0.191729 -0.099055 -0.490299
0.078530 -0.250962 0.427616
0.083646 0.243088 0.432843
-0.062562 0.422205 0.262855
-0.124272 -0.477937 -0.140243
-0.093788 0.488132 -0.103949
-0.168618 0.292966 0.400921
-0.035401 0.349096 -0.357753
0.096658 0.241846 0.433498
-0.175650 0.400357 0.294610
-0.248255 0.470531 0.162228
-0.059629 0.195847 0.455943
0.164984 0.032122 0.494844
-0.010000 0.484616 0.115406
0.021581 -0.070456 0.490678
0.184037 0.115097 0.482399
-0.281189 -0.107362 0.483972
-0.101700 -0.368455 -0.336831
-0.277317 0.494781 -0.062956
-0.014719 0.449333 0.213523
-0.255637 -0.059689 0.492236
0.035342 -0.134901 0.477005
0.152638 -0.489816 0.084572
-0.263165 0.188979 -0.463083
0.128718 0.065438 0.491644
0.140226 -0.439619 0.230692
-0.289555 0.425808 0.257140
-0.253671 -0.262237 -0.425169
0.262549 -0.382171 -0.320845
-0.144423 0.498225 -0.018357
-0.150431 -0.490245 -0.087640
0.282469 0.491242 0.083483
-0.284866 -0.266369 0.418295
0.084082 0.261694 -0.426403
0.255758 0.462565 0.183540
-0.107889 0.297623 -0.401776
0.036857 0.298442 0.397091
0.078629 0.423656 0.260657
-0.244529 0.478782 -0.140914
0.273873 0.041427 0.494239
-0.238324 0.121677 0.480835
-0.255184 -0.496552 -0.033102
-0.139984 -0.277499 0.410947
-0.170375 -0.436921 -0.240327
-0.014160 -0.421301 -0.267026
0.081060 -0.027617 -0.499354
0.147767 -0.087544 -0.492280
-0.050419 -0.497096 0.016326
0.085602 0.143649 0.474750
-0.084649 -0.408614 -0.286244
-0.240565 -0.157189 0.470155
-0.283867 0.414784 -0.278654
0.195118 -0.492523 -0.071896
-0.220455 -0.349451 0.352057
0.057950 0.299312 0.396424
-0.164947 -0.414953 0.272594
0.116641 -0.070992 0.490601
0.171916 0.312089 -0.390862
0.178231 -0.441962 0.226242
0.255094 0.392165 0.305468
-0.230332 0.266107 -0.423498
-0.178908 0.489950 -0.094104
-0.288461 -0.003841 0.495764
-0.161418 -0.280756 -0.413097
0.103862 -0.374601 0.325411
0.050277 -0.281857 -0.412327
-0.266169 -0.395945 0.299311
-0.155625 0.496227 0.045408
0.038706 -0.435297 0.238900
-0.223340 -0.497376 -0.009428
0.146442 0.498086 -0.021466
-0.075494 0.365004 0.337250
-0.206118 -0.188887 -0.462947
0.212755 -0.380398 0.318808
-0.149265 0.464152 0.179733
0.223383 0.183774 0.460896
0.069097 0.433710 -0.248185
-0.117462 0.331490 0.369866
0.253430 -0.490566 -0.085422
-0.252478 0.275600 -0.417231
-0.277575 -0.193549 -0.460868
-0.246150 0.424133 0.259935
-0.290028 -0.129668 0.478449
0.034221 0.000138 0.495835
0.095565 0.371169 0.330508
0.000087 -0.118307 -0.485746
-0.023772 0.029531 -0.499395
-0.250307 0.496531 0.041654
0.245585 -0.403918 0.288371
0.157882 -0.092452 -0.491435
0.103889 -0.190672 0.457596
-0.165339 -0.492762 -0.070244
-0.106988 -0.338822 -0.366651
0.084072 -0.132821 -0.482095
0.004183 0.372947 -0.332722
0.045285 0.438306 0.235345
0.244176 -0.463364 -0.183519
0.181150 0.333437 0.368103
0.212381 0.490439 -0.091261
-0.120089 0.267545 -0.422549
-0.185213 0.175878 0.463859
-0.052238 0.369169 -0.336893
0.029358 -0.431255 0.246179
0.013497 0.404296 0.289389
0.061291 -0.262968 -0.424723
-0.013625 0.451528 -0.213345
0.017278 0.130458 0.478748
0.047923 0.497449 -0.035662
0.047757 0.432639 0.245228
-0.095715 -0.184574 0.460139
-0.043208 0.400065 -0.299700
0.010316 -0.493360 0.062268
-0.283253 -0.386775 -0.315481
-0.237047 0.498619 -0.007064
-0.234440 -0.333219 -0.371725
0.236597 0.498072 -0.021783
0.199318 0.477788 -0.144171
-0.027767 -0.107196 -0.488386
-0.109097 0.036388 0.494653
0.051320 -0.314196 -0.388092
0.255379 -0.375208 -0.328960
-0.284681 -0.317429 -0.385514
0.064759 0.493778 0.065956
-0.174331 -0.385266 0.312703
-0.252221 -0.448817 -0.216844
-0.181529 -0.371526 -0.333252
0.164019 -0.497433 -0.006249
-0.142340 -0.365153 0.335842
0.236279 0.024792 0.495173
0.124313 -0.010366 -0.500128
0.278867 -0.436666 -0.240772
0.198711 -0.368662 -0.336589
0.052810 0.238702 0.435153
-0.168061 0.397726 -0.302716
0.274519 -0.310974 0.386577
-0.232683 0.363375 -0.343290
-0.199978 -0.214312 0.447075
0.079299 0.410434 0.280685
-0.053292 -0.336995 0.364183
0.222426 -0.323200 -0.380800
0.040865 -0.168505 0.466251
-0.099845 0.190665 -0.462380
0.279441 -0.469040 -0.167934
0.277149 -0.488472 0.092382
0.249149 0.260617 -0.427021
-0.228758 -0.493023 0.065393
-0.139846 0.481913 0.125198
-0.198772 -0.496718 0.024771
-0.199889 -0.200557 -0.457723
-0.222445 -0.038177 0.494258
0.060704 -0.097300 0.486080
0.239803 0.450863 -0.214825
0.139517 -0.125688 0.479548
0.133113 -0.497379 -0.009228
-0.162170 -0.248326 0.429128
0.173656 0.452320 0.207460
0.180886 0.267481 -0.422591
0.222328 0.311341 -0.391427
-0.277861 0.196270 0.455754
0.061298 0.408755 0.283229
0.030790 -0.344316 -0.361674
0.233594 0.407413 -0.289193
-0.023071 -0.134200 -0.481674
-0.018585 0.352463 -0.354476
0.247030 0.496211 0.045600
-0.141473 -0.041882 -0.498433
-0.089620 0.484785 0.114650
0.280096 -0.442791 0.224666
0.251129 0.177972 0.463073
-0.146544 0.149026 -0.477678
0.175312 -0.271863 -0.419300
0.262038 0.151432 0.472376
0.079761 0.061650 0.492054
-0.193322 -0.497433 -0.006232
-0.111187 0.239908 -0.438896
0.035575 0.191769 0.457774
0.150662 0.140389 -0.480126
0.080223 0.258984 0.423424
-0.259962 0.409702 -0.285920
-0.073995 0.452314 0.207474
0.098278 -0.162041 -0.473020
0.004368 0.418037 -0.273895
-0.089899 0.011928 -0.499990
0.087547 0.480279 -0.136008
-0.094635 0.153091 0.471870
0.207229 -0.357542 0.344180
-0.014833 -0.380213 -0.323128
0.283892 -0.207787 0.450291
0.026197 0.340182 0.361994
-0.021199 0.385111 0.314260
0.018157 -0.238702 -0.438967
0.283315 -0.447723 0.215185
0.039520 -0.496678 0.025657
-0.289695 -0.064865 0.491487
-0.209638 0.044008 0.493960
0.008423 0.472681 0.155997
-0.073982 0.317427 0.381979
-0.116184 -0.489999 -0.089223
-0.126093 0.478483 -0.141894
-0.167476 -0.109079 -0.487938
0.021803 -0.493020 0.065421
0.043374 -0.307195 -0.393674
-0.208377 -0.494632 0.050507
0.182414 -0.040247 -0.498609
-0.160139 -0.207851 -0.454450
-0.276462 0.342093 0.360263
0.283292 0.182414 0.461407
0.241927 0.474799 -0.153968
0.235420 -0.455749 0.197300
-0.031224 0.439079 0.233998
-0.271260 -0.389756 -0.311655
0.245496 0.481427 -0.132163
0.249341 -0.361197 -0.344461
0.179286 -0.006252 -0.500312
-0.069760 0.177170 0.463375
0.206662 0.035649 -0.498900
0.178266 -0.414161 -0.277842
0.283276 -0.119992 -0.485345
0.061248 -0.021363 -0.499634
0.146873 -0.474228 0.148126
0.015495 0.496082 -0.050921
-0.276011 -0.480964 -0.129276
-0.089580 -0.309092 0.387997
0.128946 -0.490378 0.081310
-0.028232 -0.002246 -0.500245
-0.196818 0.104013 0.485032
-0.208717 0.444958 -0.226851
-0.290208 0.453906 0.204243
-0.179253 0.102894 -0.489476
0.046245 0.436675 -0.242582
-0.087583 -0.149109 0.472942
-0.057477 -0.040456 0.494074
0.250789 -0.389194 0.307778
0.111046 -0.009906 -0.500148
-0.247633 0.468991 -0.171033
0.148175 0.425741 0.257257
0.032906 -0.234734 0.436922
-0.270893 -0.214286 0.447088
-0.073690 0.482259 -0.128662
-0.219005 -0.449256 0.211769
-0.020483 0.498338 0.008569
0.045167 0.299796 -0.400137
-0.183018 0.472546 0.156388
0.146917 0.470966 0.160968
-0.090493 -0.393316 0.302608
-0.131299 -0.384445 0.313733
0.241019 -0.328798 0.371376
-0.051192 -0.244199 -0.436072
-0.217355 -0.139772 -0.479974
-0.184055 -0.229723 -0.443695
0.181670 0.362903 -0.343811
-0.270912 -0.043797 0.493803
-0.143172 0.116118 0.482156
0.181710 0.498094 0.022101
0.170530 0.053926 0.492888
0.161414 0.146477 0.473887
-0.259263 0.491406 0.082348
-0.261607 0.375943 -0.329414
0.136216 -0.474753 0.146405
0.181739 -0.217988 0.445264
-0.225114 -0.035351 -0.499007
0.100070 0.178821 0.462755
0.231618 -0.337610 -0.367748
-0.055513 -0.136250 -0.481049
-0.182463 0.498216 -0.018572
0.037727 -0.327732 0.372290
0.221848 -0.024222 -0.499506
0.073684 -0.277850 0.410716
-0.068588 0.204217 0.452188
-0.128863 -0.429806 -0.252735
-0.022709 0.397468 0.298439
-0.022122 -0.170077 -0.470005
0.156532 -0.193556 -0.460865
-0.256051 -0.333079 -0.371852
-0.237638 -0.003168 0.495776
-0.130267 0.494024 0.064252
-0.086102 -0.490613 -0.085099
-0.143608 0.045452 0.493804
0.013256 0.351162 -0.355742
-0.074924 0.445853 0.220585
-0.272027 0.023671 0.495223
0.271613 -0.398450 0.296169
0.215998 0.327280 -0.377911
-0.179853 0.460400 -0.193574
0.231187 -0.267143 -0.422178
0.211599 -0.407711 -0.287612
0.163811 0.279338 0.410452
-0.279427 0.247582 0.430375
-0.047266 0.250672 0.428491
-0.101380 0.102089 -0.489644
-0.007163 -0.164845 0.467514
0.256224 -0.297304 -0.401524
-0.258252 0.352234 -0.354698
0.052023 0.399009 -0.301107
-0.072439 0.384055 0.315491
0.183457 -0.471045 -0.162122
0.174757 -0.157634 -0.474524
0.227796 0.379423 -0.325572
-0.257718 -0.333605 0.367251
0.163622 0.073038 -0.494806
-0.137370 0.454335 0.203281
-0.117180 0.431599 0.247042
0.229270 0.459889 -0.194713
-0.009538 -0.495447 -0.046740
-0.122719 -0.017272 0.495522
0.221321 0.486352 0.107169
0.044459 -0.031224 0.494822
-0.253175 0.257240 -0.428957
0.186897 0.132917 0.478025
0.070244 0.141240 -0.479891
-0.082933 -0.494003 -0.061665
-0.099488 -0.007593 -0.500252
-0.204632 0.030750 -0.499297
-0.033624 0.220585 -0.448843
-0.076164 -0.482518 0.118908
0.101272 -0.492407 -0.072700
-0.050266 0.454269 0.203439
-0.113984 0.221447 -0.448418
-0.040968 -0.026441 -0.499407
-0.156594 0.041058 -0.498461
0.123573 -0.470583 0.159706
0.084484 -0.363223 0.337973
-0.063722 -0.116342 0.482090
0.157363 -0.210512 -0.453256
-0.150329 -0.294215 -0.403685
0.001441 -0.439161 0.231562
-0.267197 0.448786 -0.219454
-0.280681 -0.118973 0.481402
-0.147686 0.192753 -0.461509
-0.274988 -0.434104 0.241166
-0.282450 -0.487791 0.096334
-0.081837 0.496642 0.040286
0.170124 -0.274166 0.413147
-0.076945 -0.496699 0.025196
0.237978 -0.316442 -0.386301
0.245417 0.413342 0.276281
0.138344 0.325212 0.375553
0.011007 -0.497206 -0.018846
0.131752 -0.482242 0.120071
-0.047868 0.497330 -0.038314
-0.189418 0.448830 0.214545
0.142034 -0.479047 -0.136220
-0.101871 -0.456562 -0.199834
0.266395 -0.350383 -0.355569
-0.196896 -0.458137 -0.196056
0.243333 0.478407 -0.142143
-0.093249 0.314058 0.384666
0.053266 0.498185 0.017050
-0.276214 0.439746 0.232834
0.000246 -0.482077 0.120763
0.022218 0.060920 0.492132
0.269934 0.394959 0.301764
0.123426 0.496471 0.042394
0.071660 -0.469751 -0.165873
0.037502 -0.489645 -0.090915
-0.009912 -0.131233 0.478017
-0.277805 0.458775 -0.197195
-0.236110 -0.313864 0.384190
0.020077 -0.101087 0.485286
-0.129616 -0.037399 0.494321
0.084127 -0.378283 -0.325377
-0.116310 -0.473604 0.150170
-0.135442 0.466831 0.172956
0.220377 -0.446631 -0.221281
-0.000880 0.278734 0.410875
0.232133 0.150993 -0.476999
-0.161529 -0.288547 0.403496
-0.258640 -0.241672 -0.437403
-0.105774 -0.473672 -0.154508
0.095357 0.436360 -0.243182
-0.185368 0.415387 -0.277791
0.201375 -0.268336 -0.421451
-0.169932 -0.088218 -0.492164
0.269528 0.056266 0.492635
0.080699 -0.069052 0.490881
0.281085 -0.198371 0.454386
-0.084337 0.216858 0.446515
0.149002 0.179374 0.462547
0.008459 0.358332 0.344103
0.079079 -0.084396 0.488661
0.188561 0.278349 0.411144
0.060958 -0.454547 -0.204667
-0.236834 -0.221042 0.443759
-0.102031 -0.373213 0.326943
-0.084093 0.369759 0.332151
0.158417 -0.156899 0.470255
0.191475 -0.299446 -0.399853
-0.068571 0.022175 0.495290
0.099653 -0.245414 0.430798
-0.186682 -0.461415 0.184137
0.157803 -0.364080 0.337027
-0.209569 -0.004151 -0.500280
0.130284 0.032763 0.494815
-0.217420 -0.080584 -0.493479
-0.162868 -0.431051 -0.250564
-0.056062 0.330080 0.371143
-0.189385 -0.475904 -0.147606
0.019192 0.123780 -0.484711
-0.205493 0.337612 -0.368934
0.017028 0.496030 0.047842
0.166102 -0.340550 -0.365085
-0.133243 -0.185526 0.459742
-0.223731 0.455583 -0.204308
-0.106432 0.428816 0.251895
-0.119250 0.262842 0.421071
0.131059 -0.024222 -0.499506
0.160920 0.445906 0.220478
-0.128395 0.332529 0.368925
0.063032 -0.081392 -0.493339
-0.207757 0.407402 0.285270
0.193693 -0.419686 0.265156
0.236633 -0.105334 -0.488829
0.155784 -0.089701 0.487672
0.244363 -0.399350 -0.298939
-0.192331 0.117269 0.481882
-0.178870 0.020334 -0.499838
0.080161 -0.003156 -0.500262
0.090717 -0.337725 0.363473
-0.289524 0.450831 -0.214897
0.076275 0.344910 -0.361829
0.280922 -0.303869 -0.396327
0.003793 0.486955 0.104292
-0.085557 -0.282467 0.407668
0.090276 -0.477513 -0.141776
0.271034 -0.368520 -0.336755
-0.069832 -0.249392 -0.433000
-0.213420 -0.477222 0.138316
0.272959 0.176443 -0.468220
0.234837 -0.401437 0.291919
0.133505 -0.493599 0.060060
0.261786 -0.420378 0.264021
-0.080829 -0.426662 -0.258218
0.241083 0.122743 0.480581
-0.041763 0.031109 -0.499267
0.203685 0.231899 -0.443267
0.177097 -0.317027 -0.385835
-0.177005 0.071922 0.490793
0.056795 0.469609 -0.169386
-0.208443 0.151079 -0.476969
-0.145927 -0.158249 0.469789
0.034514 -0.481742 0.122173
-0.048207 0.181701 0.461674
0.172489 0.230841 0.439292
-0.218201 0.484568 -0.118948
0.260468 0.190851 -0.462302
0.094572 0.208535 0.450250
-0.041644 -0.213712 0.447371
-0.267434 0.231332 -0.443547
0.067077 0.459907 -0.194671
-0.235488 0.344621 0.357973
-0.001213 -0.033326 -0.499098
-0.167717 -0.172914 0.464730
-0.152100 -0.132201 -0.482284
-0.259917 -0.096278 -0.490777
0.148975 0.384645 0.314803
0.259000 0.408647 -0.287429
0.091202 0.296039 -0.402972
0.257207 0.413167 0.276546
0.285697 -0.356135 -0.349661
0.020062 0.326191 0.374666
-0.056354 0.402502 -0.296215
-0.106718 -0.497503 -0.002388
0.137853 -0.054158 -0.497106
0.038398 -0.333962 -0.371053
0.257532 -0.313435 -0.388699
-0.116059 -0.241256 0.433182
-0.099153 0.336921 0.364947
-0.038329 0.498444 0.002687
0.049641 -0.353297 -0.352576
0.273207 0.498005 -0.023270
-0.183397 -0.443515 0.223292
0.103190 0.144080 0.474619
0.022054 0.389314 0.309247
-0.098534 -0.342978 0.358359
0.216996 -0.103053 0.484875
0.243308 -0.078757 -0.493793
-0.013853 -0.000344 -0.500211
0.255276 -0.495917 -0.040942
0.049723 0.467192 0.171910
0.262337 0.480383 -0.135665
0.177721 0.286796 -0.409839
-0.166168 0.490803 -0.089145
0.246639 0.414586 -0.278936
0.138533 -0.119797 -0.485391
-0.079322 -0.362116 0.339196
0.058377 -0.126281 -0.483850
0.137508 -0.176233 -0.467695
0.089352 0.497221 0.033133
0.267574 0.489373 0.092751
-0.145435 -0.402483 -0.294786
0.182540 0.494191 -0.068417
0.110352 0.134604 0.477510
0.114423 0.497409 0.030819
0.111516 0.484322 -0.119981
0.094396 0.020544 -0.499835
-0.042452 -0.492090 -0.074889
-0.083679 -0.171071 -0.469632
0.270346 0.494445 -0.066067
-0.158151 -0.093153 -0.491315
0.017612 -0.471260 0.157853
0.221641 0.054934 0.492779
0.271266 0.346963 -0.359830
-0.169782 0.144326 0.474544
0.249436 0.023372 -0.499784
-0.147188 -0.381928 -0.321129
0.181784 -0.467234 -0.173171
0.048432 0.498312 -0.016435
-0.193982 -0.495345 -0.047993
-0.229970 0.355864 -0.351165
-0.090563 -0.173676 0.464468
0.071355 -0.496406 0.031718
0.080205 -0.479907 0.129513
-0.241524 0.007108 -0.500077
0.198100 -0.458977 0.190107
-0.091037 0.260479 -0.427100
-0.162528 0.053208 0.492966
0.286255 -0.465071 0.174394
-0.266877 -0.490498 0.080614
0.006117 0.479137 0.135254
-0.040728 -0.390789 -0.310287
0.200813 -0.321945 -0.381913
-0.265202 0.098531 0.486212
0.081029 0.461620 0.185806
-0.003995 -0.416999 -0.273542
-0.055272 -0.211639 0.448392
0.110095 -0.110247 -0.487661
0.141544 -0.486139 -0.107649
-0.091353 0.202848 -0.457300
0.116341 -0.245332 -0.435475
-0.000323 -0.200969 -0.457538
-0.067648 0.161412 -0.473405
0.228299 0.114164 0.482620
-0.073975 -0.249175 0.428641
-0.101024 -0.484607 -0.114961
0.144237 0.256332 0.425040
-0.144850 -0.467046 -0.173715
-0.017262 0.323770 -0.380923
-0.222672 -0.421212 0.262653
-0.089276 0.051700 -0.497599
-0.069235 0.498649 -0.008686
-0.188798 0.482020 -0.129670
0.169013 0.164512 -0.472336
0.233718 0.468340 0.168580
-0.152306 -0.463711 -0.182685
0.173596 -0.497142 0.015306
0.150629 0.196217 0.455777
0.136285 -0.283678 -0.411054
-0.208003 -0.153867 -0.475673
-0.009705 -0.294955 -0.403166
-0.115485 -0.313986 -0.388259
0.083882 -0.052709 -0.497263
-0.059745 -0.179496 -0.466470
-0.165941 0.348518 0.354183
0.283951 0.489159 -0.098695
-0.141998 -0.496767 0.023666
-0.027155 0.463156 0.182121
-0.002438 -0.281845 -0.412335
0.034661 0.028384 0.495012
0.110159 0.209491 0.449821
0.282943 0.076458 0.490012
-0.040620 -0.302114 -0.397726
-0.162875 0.079544 -0.493865
-0.010151 -0.495997 0.037870
-0.046327 0.467873 0.169934
-0.181410 -0.484391 0.111027
-0.276643 -0.312405 0.385442
-0.230718 -0.397560 0.297286
-0.130629 -0.487294 -0.102139
-0.133237 0.118377 -0.486202
-0.013220 -0.454481 0.200126
0.156946 0.136914 0.476805
-0.065102 0.379533 0.320761
0.197586 -0.213256 0.447595
0.043643 0.378218 -0.326902
-0.213667 -0.203400 0.452290
-0.184480 -0.480321 0.128151
0.099197 0.408458 -0.287699
-0.021012 0.425131 0.258321
-0.026933 0.432228 -0.250617
0.144642 -0.395454 0.299927
0.219132 0.374135 0.327052
-0.131993 0.457599 -0.199814
0.101366 -0.431626 0.245570
0.018562 -0.111828 0.483036
-0.209110 0.236055 0.436547
0.264985 -0.199729 -0.458095
-0.062501 -0.449138 0.212032
0.284113 -0.185105 0.459917
0.014569 -0.276431 -0.416122
0.111140 -0.462171 0.182122
0.194032 0.378971 -0.326071
0.036679 0.454527 -0.206661
-0.122385 0.324369 -0.380409
-0.286527 -0.330260 -0.374405
-0.233127 0.398184 -0.302141
-0.028404 0.010712 -0.500012
-0.243006 0.195900 0.455920
0.038986 0.156421 -0.475127
-0.244064 0.369750 0.332162
-0.209527 -0.404323 0.287792
0.216674 -0.308200 -0.392873
-0.228021 0.489866 0.090399
0.152097 -0.408783 -0.285987
-0.105117 -0.469896 -0.165452
-0.255681 0.393719 0.303408
-0.224027 0.245964 -0.435423
0.226890 -0.475274 -0.149863
-0.268649 -0.253831 0.425971
-0.039623 0.480221 -0.136196
-0.041519 -0.256899 -0.428423
0.122242 -0.220846 0.443856
0.202399 -0.490695 0.079466
0.180338 -0.199173 0.454052
0.046177 0.491278 0.083235
0.169918 0.497583 -0.032675
0.010145 0.044619 0.493894
0.210406 0.306969 -0.394726
0.060888 -0.217697 -0.450027
0.049552 -0.456912 -0.198993
0.116920 0.360139 0.342247
-0.093157 0.108472 -0.488307
0.125098 -0.368449 0.332203
0.009145 0.343529 -0.363173
-0.144574 0.463480 -0.185719
0.225294 0.229591 0.439950
-0.207762 0.274313 0.413967
-0.215610 0.134055 -0.481874
0.072120 -0.492918 -0.069170
-0.045898 0.392414 0.305137
0.156946 0.497625 -0.031731
0.261345 -0.476703 0.140015
-0.023608 -0.416046 0.271030
0.119526 -0.493442 0.061512
-0.200621 -0.451062 0.207745
0.000194 0.477550 -0.144951
0.200652 0.354119 0.348430
0.243523 -0.473696 0.149871
0.078478 0.425833 -0.261108
-0.119050 -0.265478 0.418883
0.025152 0.456957 0.196991
0.123163 0.225095 0.442317
-0.027685 -0.495069 -0.051399
0.160128 0.486546 0.106246
0.027865 0.150302 -0.477237
0.087707 -0.455676 -0.201958
0.046011 -0.476708 -0.144694
0.096807 0.090441 -0.492085
-0.269315 -0.200482 0.453506
0.158442 0.359820 -0.347215
0.008536 0.030491 0.494917
0.098009 -0.273274 -0.418330
0.183339 0.084883 -0.493093
0.110528 -0.436997 -0.240194
0.002113 0.172129 -0.469708
-0.156279 0.239395 -0.439190
-0.288642 -0.380305 -0.323020
0.164581 -0.128609 -0.483297
0.061475 0.150271 -0.477248
-0.081018 -0.037796 0.494289
-0.110265 0.096434 0.486573
-0.029153 0.465716 -0.179761
-0.231132 0.134678 0.477488
-0.134800 -0.267115 0.417802
-0.112698 -0.397673 0.297144
-0.139546 0.273347 -0.418718
0.284478 -0.260528 0.422131
0.109941 0.323056 0.377491
0.025804 0.251151 -0.432449
-0.133973 -0.451367 -0.211669
-0.127780 -0.441092 -0.232520
-0.119228 -0.148892 -0.477191
-0.063588 -0.404413 0.287664
-0.073580 -0.473751 0.149689
-0.132740 -0.168023 0.466418
0.076744 0.171403 0.465539
0.155379 -0.405035 0.286775
0.058722 -0.057738 0.492518
-0.125911 0.399802 -0.300075
-0.172868 0.375583 -0.329811
0.111861 -0.497610 0.003575
0.058554 0.491080 0.084599
0.009195 -0.384613 -0.318000
0.170655 -0.396592 -0.302595
-0.183648 -0.216092 0.446198
0.024951 0.484731 0.114910
-0.235581 0.475533 -0.151560
-0.207760 -0.151493 0.472120
0.002234 -0.435388 -0.243000
-0.018617 0.435670 -0.244492
0.172627 -0.074239 0.490131
0.031302 0.469992 -0.168364
0.275402 -0.270147 0.415801
0.257152 0.489658 0.091392
-0.157550 0.259341 -0.427752
-0.123524 -0.492986 0.065737
0.258230 -0.204995 0.451625
0.013058 0.485825 0.109686
-0.266329 0.114731 -0.486996
0.165562 0.480040 0.131983
0.190348 -0.406261 0.285021
-0.141191 0.174399 -0.468925
0.150990 -0.232601 0.438064
-0.283141 0.205166 -0.456334
-0.022531 -0.349860 -0.356106
0.247738 0.497500 -0.034521
-0.273507 0.497340 -0.038104
0.029633 -0.475708 0.143277
-0.158315 0.139337 0.476066
-0.034541 0.090361 -0.492101
0.284886 -0.494970 -0.052624
0.099056 -0.461067 0.185066
0.261481 0.267490 -0.422585
-0.049856 -0.497488 -0.003195
0.249817 0.421199 0.264380
0.129552 0.031723 -0.499218
-0.024149 0.489120 0.093961
-0.196447 0.331684 0.369690
-0.232038 0.162118 -0.473161
-0.043631 -0.266699 0.418077
0.065208 0.496706 0.039497
-0.268694 0.474145 0.151754
-0.131203 0.224892 -0.446720
0.132972 0.104434 0.484932
0.096078 0.465726 0.175957
0.147606 0.495613 -0.055258
-0.041848 0.148940 -0.477707
0.081713 -0.440150 0.229683
0.201394 -0.173785 -0.468613
-0.087327 0.476169 -0.149477
-0.087125 -0.354504 0.347137
0.027261 0.496889 0.037239
-0.046391 0.209145 0.449976
0.177640 -0.303012 -0.397010
0.056168 -0.477966 -0.140136
0.201957 0.401813 0.292679
0.190322 -0.239355 0.434272
-0.271459 -0.497570 0.001362
-0.242940 0.027072 0.495071
-0.023435 0.406967 -0.289831
-0.234675 -0.222657 -0.447415
0.240235 -0.475024 -0.150586
-0.261345 0.403490 -0.294803
-0.233701 0.314728 0.384132
-0.225448 0.393904 -0.307509
0.199065 0.080189 0.489370
-0.179908 0.463532 0.181221
-0.288501 -0.444994 0.220482
-0.114798 0.443333 -0.229938
0.004346 -0.422630 0.260326
0.108768 -0.267934 0.417262
-0.078550 0.425396 0.257859
-0.268360 -0.349549 -0.356426
-0.126776 0.105010 -0.489033
0.169006 -0.488335 -0.097167
