0.226458 0.498095 -0.021270
0.101540 0.398077 0.297631
0.132359 -0.497518 -0.001527
-0.087274 0.498289 0.011253
-0.181081 0.428663 -0.256465
0.261276 -0.404123 0.288078
-0.138129 0.034751 0.494726
-0.236270 -0.109639 -0.487805
0.092253 0.321303 0.378889
0.137725 -0.170197 -0.469960
0.237833 -0.436983 -0.240219
-0.245637 0.149123 -0.477644
0.013516 0.285690 0.406010
0.153121 0.413967 -0.279821
0.047345 0.282829 0.408011
0.078821 -0.075176 0.489995
0.043814 0.179572 0.462473
-0.121073 0.114348 -0.487076
-0.066876 -0.415641 0.271609
0.005452 -0.154481 -0.475486
0.198267 -0.484626 -0.114872
-0.111911 0.027589 0.495048
0.241646 0.485502 0.111227
0.240060 -0.104630 -0.488996
0.082688 -0.425027 0.256395
0.224473 -0.490435 -0.086331
-0.276905 -0.190158 0.457811
0.093609 0.104720 -0.489093
-0.252677 0.432095 -0.250835
-0.178164 0.326497 -0.378583
-0.162377 0.129040 -0.483259
0.207835 0.213611 0.447972
-0.090753 -0.480014 0.129164
-0.192865 0.020998 -0.499827
0.141495 -0.373529 -0.330917
-0.062833 0.034612 -0.498984
0.260810 -0.278349 -0.414780
0.254212 -0.408496 0.281826
-0.024009 0.294190 -0.404366
-0.223921 -0.424357 -0.262236
-0.159833 0.221640 0.444137
-0.286092 -0.470238 0.160624
0.100745 0.490121 -0.093107
-0.026308 -0.300757 -0.398808
0.251456 0.490089 0.089331
-0.119929 -0.240005 0.433900
-0.103657 0.495964 -0.052013
0.160629 0.402198 -0.296649
-0.023082 0.199878 0.454135
0.260611 -0.013250 0.495594
0.264564 -0.270800 0.415370
-0.044016 0.495509 0.053988
0.156586 -0.424497 -0.261992
-0.053442 -0.321707 -0.382103
0.097194 -0.047536 0.493500
-0.124569 -0.068454 0.490968
-0.206097 0.396967 -0.303668
-0.223466 -0.149675 -0.476953
0.135728 0.349514 -0.357347
-0.135570 0.189172 0.458871
0.056347 0.440896 0.230646
-0.220857 0.497752 -0.028905
0.270341 -0.497337 -0.011591
-0.050496 0.037502 -0.498750
-0.017741 0.340476 -0.366145
0.241983 0.373476 -0.332137
-0.008190 -0.459888 0.188077
-0.192018 0.232036 0.438663
0.135217 -0.482351 -0.124250
0.227844 -0.322712 -0.381241
0.118089 -0.464950 -0.179715
0.145160 0.189914 -0.462693
0.053765 -0.435519 0.238478
0.193256 0.203227 0.452632
0.028865 -0.482597 -0.123359
0.156695 0.325450 0.375337
0.135871 -0.138045 0.476137
0.075658 0.375294 -0.330131
-0.094778 0.014060 0.495654
-0.252859 0.310159 0.387775
-0.279496 -0.454494 -0.204794
-0.170960 0.083533 -0.493288
0.046311 -0.486495 -0.105952
-0.145974 -0.021821 -0.499614
0.131472 -0.431090 0.246450
0.244898 0.479556 0.133734
-0.121748 0.020375 -0.499838
0.173935 -0.393086 0.302897
-0.097632 0.497759 -0.028743
0.232033 -0.150223 0.472558
-0.230494 0.485968 0.109004
-0.005738 0.041096 0.494275
0.178529 0.301594 -0.398780
-0.180102 0.265184 0.419644
-0.073284 -0.285908 -0.409494
-0.200626 0.495620 0.052894
-0.265514 -0.251406 0.427361
0.021063 0.492199 -0.081036
-0.149425 0.049962 -0.497740
-0.084161 -0.242551 0.432440
-0.214476 -0.161601 0.468633
0.035544 0.122974 0.480526
-0.135206 -0.480977 0.125393
-0.171369 0.431341 0.247491
0.059374 -0.079570 -0.493653
-0.030128 0.175207 -0.468646
0.025929 -0.390670 -0.310444
0.087024 0.486258 -0.111838
0.080610 0.409114 0.282685
0.206321 -0.442206 -0.230261
-0.036267 -0.447308 -0.219906
0.005770 0.463240 -0.186360
-0.035053 0.066993 0.491476
0.234869 0.356144 0.346351
0.144220 0.051751 -0.497595
0.123577 0.255481 0.425559
-0.177618 -0.307425 0.389255
0.189519 -0.219743 0.444399
0.140790 -0.248363 -0.433627
0.239085 -0.196747 0.455063
0.212366 -0.460065 -0.191432
-0.002687 0.169564 0.466228
-0.009324 0.491076 -0.087564
0.189290 -0.404298 -0.292380
0.174982 0.448939 -0.219113
0.169779 0.054240 0.492854
-0.217637 -0.234623 -0.441114
0.093566 -0.052638 -0.497270
-0.167135 0.321374 -0.382979
0.153194 0.497795 0.026048
0.061085 -0.369328 -0.335813
0.057302 -0.294006 0.399379
0.210002 0.180759 0.462028
0.161235 -0.278700 0.410154
0.239786 0.052700 0.493021
-0.275695 -0.290828 0.401776
-0.068006 -0.124406 -0.484296
-0.273426 -0.133668 0.477345
0.261378 -0.474933 -0.150851
-0.142407 -0.232204 0.438259
0.131288 0.123876 0.480312
0.087608 0.187315 -0.463776
-0.203632 0.068539 -0.495457
-0.247743 0.419997 0.266201
-0.060730 -0.475928 -0.147517
0.061533 -0.485927 -0.108662
0.025416 -0.123331 -0.484552
-0.117276 0.131207 -0.482661
-0.083685 -0.267332 0.417659
0.199027 -0.495439 -0.046840
-0.080468 -0.484339 -0.116243
0.010895 0.391835 -0.310104
0.226295 -0.424596 0.257102
-0.033361 -0.452024 0.205602
-0.108752 0.443607 0.225144
0.091321 0.280006 0.409985
-0.267958 -0.305851 -0.394747
0.147777 0.498488 0.000221
0.049672 0.301736 -0.398673
-0.071129 -0.193090 0.456588
0.212925 0.402749 0.291438
-0.085651 0.468933 0.166862
0.123322 -0.178241 -0.466941
-0.106628 -0.440996 -0.232715
0.054141 -0.425210 -0.260749
-0.058514 -0.083091 0.488850
-0.267678 0.099449 -0.490197
0.063519 0.024038 -0.499772
-0.228267 0.025808 -0.499697
0.256608 0.478513 0.137514
0.284312 -0.186671 -0.463778
0.003441 -0.003017 -0.500259
0.011241 -0.496734 0.024396
0.215016 0.171183 0.465621
0.068051 -0.393647 -0.306498
-0.011968 -0.271810 0.414703
-0.251640 0.167367 -0.471351
0.167498 0.428944 -0.256004
0.028538 -0.281752 -0.412400
0.285704 0.424913 -0.262616
-0.242504 -0.494862 -0.053959
-0.028840 0.131436 0.478477
-0.163327 0.398301 -0.301996
-0.008385 -0.067977 -0.495612
-0.208884 0.466907 0.172737
-0.227602 -0.417061 0.269461
0.021514 0.348647 0.354051
-0.010701 0.074851 -0.494544
0.153121 0.483009 0.121227
0.043225 0.206901 -0.455586
-0.285765 -0.430746 0.247014
-0.146296 0.359571 0.342830
0.127143 0.456567 -0.202114
-0.178816 0.040436 -0.498512
0.050102 0.381350 0.318643
-0.184384 0.145447 -0.478730
-0.109981 0.262172 0.421480
0.082149 -0.481087 -0.128831
0.183682 0.476939 0.143215
0.074160 0.425131 0.258321
-0.023611 -0.467747 0.167264
0.038942 0.471663 -0.163913
0.053111 0.080590 -0.493714
-0.043311 0.420366 0.265640
-0.102922 -0.288743 -0.407511
-0.278020 0.443627 0.225103
0.071979 -0.258700 0.423179
0.183640 0.209108 -0.454498
0.040689 -0.236943 -0.439893
-0.163195 0.210097 0.449549
0.163210 0.318364 -0.385561
0.112350 -0.153275 0.471505
0.144353 0.495990 0.048330
0.274451 -0.121839 -0.484906
0.074193 -0.419984 0.264667
-0.213205 -0.092755 0.487032
0.041680 -0.231595 0.438559
-0.246458 0.457542 -0.199942
0.262852 0.478988 -0.140240
-0.279319 0.409808 0.281634
0.166693 0.376414 -0.328894
0.189569 -0.351221 0.350334
-0.117008 0.150260 -0.477252
0.193197 -0.205956 -0.455300
-0.282024 0.008750 -0.500047
0.109316 0.324137 0.376526
-0.009942 -0.043026 -0.498309
-0.136253 -0.306046 0.390295
-0.058104 0.474875 0.149637
-0.077457 0.140326 0.475764
0.041320 0.491851 -0.083057
0.265159 0.284058 -0.411647
-0.111161 -0.449691 0.210799
-0.092355 -0.484377 -0.116060
-0.139724 -0.098243 -0.490439
-0.278287 -0.488807 -0.094916
-0.153522 0.283758 -0.411845
-0.141376 -0.468366 0.165614
0.087204 -0.041257 -0.498500
0.081786 -0.126690 0.479271
0.166601 0.462784 0.183014
-0.070974 0.325770 0.375047
0.029239 -0.470983 -0.162303
0.201814 0.451300 0.209532
-0.277937 -0.357281 0.344434
-0.021813 0.494710 -0.063614
-0.106337 -0.390097 -0.311203
-0.013534 -0.239715 -0.438433
-0.237798 -0.487759 0.096526
0.215417 -0.459214 0.189578
-0.249673 0.122113 0.480731
0.009286 0.467305 0.171583
0.147164 -0.488198 -0.097820
0.234149 -0.315958 -0.386687
-0.062366 0.483044 -0.125361
0.286212 -0.492529 -0.071856
0.159312 0.420078 0.266077
-0.138750 -0.459961 0.187914
-0.029150 -0.487242 -0.102385
0.260358 -0.200590 -0.457709
0.158065 0.348927 0.353764
-0.219668 -0.204322 0.451905
-0.011903 -0.217125 0.445689
-0.093200 -0.019207 -0.499731
0.070368 0.171654 0.465444
-0.082131 -0.478576 -0.137926
0.177664 0.427871 -0.257764
0.045263 -0.123810 0.480066
0.122399 -0.493626 0.059815
0.087605 -0.495861 -0.041630
0.085262 0.168523 0.466619
-0.089048 0.282521 -0.412662
0.138464 0.336203 -0.370254
-0.093551 -0.071407 -0.495058
-0.262861 0.468319 0.168642
0.144081 -0.081590 0.489067
-0.186702 -0.474793 0.146274
-0.109373 -0.262433 0.420893
0.280513 0.266933 0.418578
0.056471 -0.384332 -0.318328
0.265608 -0.163116 -0.472617
-0.097667 -0.209166 -0.453860
0.025178 0.178480 -0.467460
0.246237 0.275492 -0.417302
-0.235784 0.037926 0.494584
-0.201769 -0.322385 0.376879
0.068801 -0.222554 0.443014
-0.152455 0.262654 0.421186
-0.270599 -0.390832 0.305723
-0.045736 0.359518 0.342885
0.242079 -0.384834 -0.317742
0.233555 0.420628 -0.269644
-0.150309 0.315798 0.383279
0.217546 -0.432974 0.243311
0.252238 -0.067698 0.491077
-0.064604 -0.372279 -0.332374
-0.264870 -0.406203 0.285104
-0.234741 0.498359 0.007378
0.157018 -0.456834 0.194882
0.160023 0.385419 -0.318150
0.059280 0.480400 -0.135610
0.113750 0.047681 0.493563
-0.141120 0.190000 -0.462657
-0.245633 0.139982 0.475869
0.074716 0.304423 0.392349
-0.038135 0.229151 -0.444621
-0.066746 0.472495 -0.161519
-0.250807 -0.283606 -0.411104
0.278943 0.494847 -0.062351
-0.117467 -0.007368 0.495700
0.250175 -0.088813 -0.492062
0.194336 0.440616 0.231213
-0.052747 0.001434 -0.500179
-0.275469 0.260336 0.422599
0.086588 -0.250296 -0.432449
0.108389 -0.412170 0.276572
0.068658 -0.379435 0.320017
-0.274572 0.492221 0.076714
0.275809 -0.050007 -0.497554
-0.030181 0.476275 0.145579
-0.083063 -0.487514 -0.101086
0.222386 0.352346 0.350251
0.167612 0.392539 0.304972
-0.122600 -0.497571 0.001393
-0.192098 0.402144 -0.296727
0.272570 -0.491477 -0.079129
-0.057021 -0.291270 -0.405744
0.278628 0.153738 -0.476052
0.123137 -0.475710 0.143269
-0.075644 0.212291 0.448564
-0.184962 0.498278 0.011885
-0.001900 0.278993 -0.414991
0.040666 0.251505 0.427983
-0.033425 0.467963 -0.173772
-0.039456 -0.434559 -0.244446
0.215813 0.134940 0.477408
0.154646 -0.323759 -0.380293
-0.074535 0.451212 0.209710
0.286543 -0.214072 -0.451659
-0.288098 -0.444969 0.220532
-0.270611 -0.015345 -0.499904
-0.121624 -0.496845 0.021926
-0.158267 0.467512 -0.174975
-0.141739 0.220785 -0.448744
0.120594 0.318768 0.380911
0.080650 -0.490940 -0.082837
0.225320 -0.202443 0.452689
0.186873 0.194917 0.456361
-0.056376 0.174472 -0.468900
0.199544 0.494394 -0.066539
-0.265214 -0.272924 -0.418574
-0.001194 0.443951 0.224444
-0.092791 -0.129961 0.478368
-0.171265 0.398854 0.296602
0.203956 -0.466641 -0.174890
0.154365 0.485404 -0.115429
-0.130777 0.497430 -0.036088
-0.170395 0.298253 0.397223
-0.230048 -0.345384 0.356016
0.047257 0.083092 0.488870
0.120853 0.493182 0.070075
0.078298 0.137596 0.476597
0.003560 0.239020 0.434985
0.197391 -0.293723 -0.404028
-0.090928 -0.058310 -0.496657
0.067250 -0.497150 -0.021946
-0.008898 -0.412930 -0.279706
-0.138817 -0.193827 0.456281
-0.188453 -0.463052 -0.184268
-0.171108 -0.487143 0.099448
-0.271272 -0.254338 -0.429984
0.059936 0.474522 0.150661
0.217813 -0.448719 0.212965
-0.269286 0.455582 0.200288
-0.135007 0.387394 0.311600
0.014340 0.417051 -0.275411
0.146332 -0.454081 0.201018
-0.211295 -0.484241 -0.116711
0.134027 0.274157 0.414076
0.246449 0.498282 0.011685
-0.168075 0.018623 -0.499869
0.244977 0.486961 -0.108877
0.092837 0.367885 0.334290
0.168311 -0.245285 0.430872
0.200836 -0.497220 -0.018087
0.229592 -0.479790 -0.133528
0.249272 -0.391277 0.305165
0.153926 -0.215464 -0.451034
0.060493 0.485649 -0.114399
0.256398 -0.248363 -0.433627
0.003741 0.498042 -0.022443
0.012585 0.320559 -0.383678
0.102549 0.094197 0.486958
-0.108943 0.443047 -0.230482
0.014250 0.448928 0.214344
0.002934 0.420000 0.266195
-0.162394 -0.251554 -0.431682
0.223203 -0.452962 0.203511
0.161833 0.450648 -0.215305
-0.051672 -0.127119 0.479153
0.234970 0.498132 0.019986
-0.262679 -0.378277 0.321352
-0.161677 -0.408571 -0.286309
-0.059577 0.479902 -0.137243
0.057943 0.467173 0.171964
-0.276376 -0.190181 -0.462380
-0.070825 0.370951 -0.334926
0.035475 0.320098 0.379850
0.234732 0.224571 -0.446878
-0.258259 0.091652 -0.491831
-0.239560 0.376637 -0.328648
0.070689 -0.385907 -0.316492
0.016009 0.465728 -0.179728
0.197481 0.495987 0.048371
0.204373 0.497772 -0.028473
-0.114718 0.047304 -0.497955
0.180324 -0.496084 0.037065
-0.146517 -0.496049 -0.039312
0.259924 -0.346803 -0.359246
0.076272 0.169766 -0.470523
0.278040 -0.337909 -0.367477
0.088624 0.498229 -0.018286
0.091260 -0.221244 -0.448159
-0.197474 -0.230009 0.439340
0.235742 -0.485599 -0.110230
-0.191842 0.294633 -0.404032
0.202958 0.421897 -0.267563
0.066891 0.397760 0.298051
-0.220314 -0.452995 0.203438
0.033792 0.000938 -0.500188
-0.238958 -0.384623 -0.317988
-0.206956 -0.150342 -0.476749
0.062699 0.473849 -0.157082
-0.019505 0.030818 -0.499291
-0.155054 -0.269978 0.415912
0.144525 -0.290927 0.401701
0.223722 0.402239 0.292115
-0.016737 -0.296802 -0.401875
-0.030496 0.439553 0.233171
-0.088115 -0.105218 0.484421
-0.139432 -0.442557 0.225112
-0.119741 -0.382371 0.316335
0.117389 0.123210 0.480470
0.128382 0.014665 0.495627
-0.286330 -0.495444 -0.046779
-0.284953 -0.278533 0.410264
0.121057 0.003713 -0.500138
0.208608 0.238067 0.435487
0.228403 -0.016559 0.495535
0.206115 0.138241 0.476400
0.026418 0.272188 -0.419484
0.233100 0.464301 -0.183532
0.225988 0.364031 -0.342566
-0.235149 -0.422491 0.260554
-0.107318 -0.315457 0.382823
-0.235843 0.495974 0.048527
0.203771 0.150243 0.472738
-0.144838 -0.497213 -0.018473
0.225762 -0.466049 -0.176605
0.061408 0.352720 -0.354226
0.123114 -0.043898 0.493795
-0.198519 0.394674 0.302141
0.170376 -0.411269 0.277860
-0.010508 -0.094912 0.486580
0.093984 -0.263967 -0.424114
0.258381 0.299573 0.396216
-0.214782 -0.277279 -0.415529
-0.087747 -0.331625 -0.373169
-0.159651 -0.367038 0.333761
-0.082519 0.448680 -0.219690
-0.059505 0.127549 -0.483670
-0.018818 0.443258 -0.230079
-0.017471 0.394812 0.301960
-0.255956 0.395307 -0.305750
-0.112000 -0.380891 -0.322337
-0.239066 -0.283807 -0.410963
0.039318 -0.496736 0.024373
0.094782 0.452804 -0.210501
0.250024 0.115185 0.482378
-0.227391 0.445886 0.220518
0.201181 -0.067628 -0.495650
-0.018969 0.438025 -0.240018
-0.128578 0.078351 0.489686
-0.121696 0.073758 -0.494702
-0.026894 0.208379 -0.454857
0.074984 -0.153134 -0.475897
0.179549 0.300562 0.395428
0.116847 -0.303288 -0.396790
-0.215855 0.461533 -0.190907
0.102479 -0.224407 0.442101
0.148441 -0.497421 -0.006929
-0.218377 -0.109395 -0.487863
-0.287810 -0.308110 0.388738
0.259039 -0.432001 -0.248907
0.066866 -0.088241 0.487977
-0.100777 0.480144 0.131605
-0.226684 -0.120013 -0.485340
-0.024885 0.248573 -0.433927
-0.169662 -0.192317 -0.461421
0.231594 0.458814 0.192538
-0.133233 -0.476493 -0.145472
0.271449 -0.367635 -0.337786
0.045708 -0.495401 -0.047301
0.228805 0.307490 -0.394332
0.280810 -0.494813 -0.054566
-0.249665 -0.483380 0.115281
0.283269 0.408990 -0.286938
-0.033636 0.443317 -0.229969
0.003110 -0.479571 -0.134324
0.090811 -0.206649 0.450851
0.273875 0.471644 -0.163964
-0.203410 0.107800 0.484133
-0.038699 0.495921 -0.052414
0.274708 -0.493173 -0.067406
0.124423 -0.223187 -0.447136
-0.143808 -0.184384 -0.464636
-0.254609 -0.221437 0.443564
0.079849 -0.378664 -0.324933
0.284487 0.463538 -0.185566
-0.229934 -0.445330 -0.223919
-0.109267 -0.471572 -0.160593
0.267534 0.471817 0.158501
0.277203 -0.475017 0.145540
0.251853 -0.478883 0.132871
-0.085707 -0.299936 0.394905
0.286335 0.345225 0.357426
-0.268892 -0.308368 0.388543
-0.283256 -0.027360 -0.499365
0.126938 0.307920 -0.394008
0.088703 0.375388 0.325591
-0.172041 -0.491257 0.076206
-0.182894 0.445229 -0.226338
-0.268914 0.483465 0.119573
0.053424 0.155524 0.471127
0.186697 -0.466638 0.170218
0.030615 0.399352 0.295942
-0.252706 -0.478360 0.134586
0.125105 0.046151 -0.498049
0.249255 0.432001 -0.250989
-0.145555 0.451776 0.208565
0.007728 -0.294580 -0.403429
0.097682 0.275254 -0.417459
0.179149 0.498098 -0.021185
0.239895 0.126221 -0.484037
-0.014764 -0.194393 0.456045
0.101058 -0.315868 -0.386759
0.058785 0.344286 -0.362436
0.212256 0.439389 0.233458
0.256900 0.383213 0.316473
-0.283445 0.493110 0.070569
0.220461 0.454920 0.201876
-0.003684 -0.016178 0.495542
-0.045691 0.205651 -0.456132
0.109182 -0.451933 -0.210520
-0.029063 -0.496721 0.024707
-0.238156 0.244307 0.432202
0.048657 0.396318 -0.304481
0.252371 -0.194110 0.456163
-0.275068 -0.163693 0.467911
-0.116967 -0.496016 -0.039710
-0.162440 -0.019743 0.495477
0.060954 0.453909 -0.208038
0.165511 -0.317287 0.381253
-0.193424 -0.015966 0.495545
0.273144 -0.366289 0.334588
-0.282113 0.434729 -0.246278
-0.270208 0.267938 -0.422289
0.117625 -0.416445 0.270460
-0.076232 0.114184 -0.487111
-0.082976 -0.492419 -0.072618
0.015446 0.134414 -0.481775
-0.082596 -0.287704 0.404133
0.130665 -0.239139 0.434396
-0.177211 -0.212117 -0.452536
-0.153867 -0.114750 -0.486591
0.250122 -0.202283 -0.456949
0.250286 -0.497180 -0.020323
-0.215085 -0.316107 0.382265
-0.219958 -0.064338 0.491563
-0.233466 -0.484140 0.112082
0.023665 -0.318351 -0.384779
-0.108764 0.483757 0.118518
0.269446 -0.325083 -0.379094
-0.141667 0.482835 -0.126239
0.152490 -0.018233 -0.499775
0.159789 -0.442203 -0.230266
-0.260551 0.030273 0.494927
0.243006 -0.353540 -0.352326
0.151932 -0.235885 -0.440450
0.174408 -0.490833 -0.083577
-0.026385 0.367962 -0.338226
-0.034635 -0.083841 -0.492918
-0.016355 0.498284 0.011539
-0.273476 -0.455866 0.197039
0.087319 0.456290 0.198590
-0.145004 -0.346901 0.354540
0.076091 0.119419 0.481371
0.176194 -0.439253 -0.236254
0.133045 0.441405 0.229612
0.191366 -0.444863 0.220732
-0.062480 -0.282821 -0.411653
-0.129031 -0.375681 0.324219
-0.264319 0.408506 -0.287630
-0.015414 -0.494837 -0.054260
0.277716 -0.420489 -0.268256
0.070775 -0.387230 0.310241
-0.147976 -0.491577 0.074347
0.186677 0.455391 -0.204734
-0.201009 -0.123068 0.480271
0.163633 -0.431603 0.245608
0.008394 0.007737 -0.500065
-0.012763 0.471648 -0.163952
0.131803 -0.075850 0.489898
0.037443 0.393407 0.303821
-0.206112 0.185622 -0.464482
0.086640 -0.036069 0.494429
0.011766 -0.492108 0.071262
-0.005669 0.474838 0.149743
-0.098193 0.344481 0.358100
-0.090613 -0.097551 -0.490558
-0.287465 0.496712 -0.045090
0.148453 -0.021675 0.495443
-0.223487 -0.040267 0.494089
-0.020620 -0.302434 0.393020
0.007344 -0.217446 0.445531
0.188116 -0.382466 0.316215
0.058128 -0.226686 0.440978
0.201249 0.471635 0.159029
0.117800 -0.391100 -0.309874
0.181863 -0.476315 -0.146119
0.264829 -0.098252 -0.490437
-0.223392 -0.270051 -0.420405
-0.224748 0.459618 0.190607
-0.105557 -0.250527 0.427865
-0.047016 -0.463094 0.179662
0.196967 0.267644 -0.422483
0.259479 -0.490223 -0.087797
0.230097 -0.217856 0.445329
-0.006681 -0.168635 -0.470546
0.128319 -0.327404 0.372572
0.206741 0.127705 0.479402
-0.151677 0.446033 -0.224810
0.152856 -0.317715 0.380886
0.166347 -0.387700 0.309651
0.086581 0.177924 -0.467691
-0.215132 -0.236534 0.435890
0.077818 -0.314071 -0.388192
0.060012 -0.335311 -0.369831
0.233610 0.445137 -0.226512
0.024610 0.436324 -0.243249
-0.039634 -0.366952 0.333856
-0.181091 -0.497604 0.005017
0.033650 0.402070 -0.296832
0.244261 -0.415904 0.271233
0.088740 0.009539 0.495857
-0.260979 0.405195 0.288197
-0.283497 -0.482585 0.118628
-0.025990 -0.319269 0.379553
-0.047598 -0.276965 0.411300
-0.267639 0.382046 0.317833
-0.258008 0.327685 0.373313
0.182536 -0.419797 0.264973
-0.140995 0.052604 0.493031
0.236176 -0.233255 0.437741
-0.053685 -0.050555 0.493255
-0.133751 -0.134338 -0.481632
-0.123665 -0.274398 0.412995
-0.096001 0.185344 0.460307
0.194423 -0.092323 -0.491458
0.207120 0.033711 0.494773
-0.043312 0.488605 0.096417
-0.256861 0.148119 -0.477990
0.153715 -0.210010 0.449195
-0.128903 -0.491403 0.075356
-0.282108 -0.065014 0.491465
0.012595 -0.491265 -0.080596
-0.052837 -0.493984 -0.061796
-0.004702 0.410493 -0.284789
0.134218 0.211745 0.448809
-0.109996 0.321648 -0.382744
0.016737 -0.422698 -0.264910
-0.275396 0.077081 -0.494221
0.242409 0.493369 0.068783
0.257301 0.111500 -0.487673
0.066584 0.385465 0.313848
-0.046357 -0.131390 -0.482532
0.194018 0.474625 0.150362
0.251259 0.222622 -0.447839
-0.008753 -0.230753 0.438974
-0.137833 0.487631 0.101067
0.010334 0.366418 -0.339931
0.088274 0.445671 0.220955
-0.083005 0.447838 0.216556
-0.191278 0.261408 0.421946
0.071395 0.014617 -0.499942
-0.030887 -0.490985 -0.082526
0.236668 0.338733 -0.367842
0.074776 0.067010 0.491474
0.209610 -0.497094 0.016380
0.199703 -0.188956 0.458312
0.152955 0.180988 0.461942
0.133243 -0.476774 -0.144453
-0.076109 -0.128385 0.478803
0.041884 0.440906 0.230625
0.090112 0.271179 0.415989
-0.221892 -0.222946 -0.447263
-0.284689 0.474973 0.149353
0.284410 0.444067 0.224210
0.045738 -0.452598 -0.209170
0.136531 0.358355 -0.348739
0.132591 -0.462463 0.181345
-0.242223 0.366725 -0.339591
-0.175109 0.464252 0.179493
-0.109146 -0.495278 -0.048824
-0.015698 -0.497535 0.006538
0.062479 0.319027 0.380704
0.099045 -0.487901 0.095698
-0.104067 0.251194 -0.432424
-0.241451 -0.441089 -0.232526
0.246097 -0.411277 -0.282210
-0.148417 -0.069609 0.490801
-0.005635 -0.390629 -0.310499
-0.005394 0.465861 -0.179375
-0.206514 0.369185 -0.336875
-0.213249 0.498622 -0.007242
-0.035781 -0.423812 0.258387
0.057867 -0.452551 -0.209266
-0.210113 0.354614 -0.352382
-0.189794 -0.237569 -0.439563
0.268673 0.228938 0.440294
-0.142951 -0.127280 0.479108
-0.039363 -0.178088 -0.466999
-0.231461 0.384580 -0.319202
0.114700 -0.410937 -0.282724
-0.203716 -0.098603 -0.490377
-0.106665 -0.417091 -0.273403
-0.042564 -0.277717 -0.415222
0.147931 0.130386 -0.482887
-0.215080 0.489993 -0.093854
0.207533 -0.214378 -0.451521
-0.040068 -0.440671 -0.233376
-0.054624 0.116250 -0.486678
-0.216853 -0.486098 0.103845
0.192338 0.232332 0.438507
-0.096563 -0.497132 -0.022976
0.132860 -0.204519 0.451823
-0.265429 -0.493348 0.062380
-0.084989 -0.023858 0.495403
-0.214388 0.087660 -0.492667
0.106603 0.236627 0.436245
0.062412 -0.104927 -0.488925
0.218674 -0.361904 0.339430
0.121704 0.143198 -0.479351
-0.267350 0.433290 0.244092
-0.061777 0.126350 0.479724
0.126293 0.158331 0.470271
0.121663 -0.248627 0.428955
-0.135378 -0.044132 -0.498189
-0.145760 -0.312639 0.385241
0.172788 0.243644 0.432551
-0.151686 0.258365 -0.428312
-0.224513 -0.454603 -0.204533
0.272687 -0.170234 -0.469946
0.072792 0.149058 0.473100
0.169619 0.158726 -0.474332
-0.249571 -0.488434 -0.096696
0.140415 0.198954 -0.458924
-0.072859 -0.168183 0.466362
-0.129945 -0.189074 -0.462876
0.051915 -0.062038 0.491896
-0.181423 -0.023324 0.495413
-0.190712 0.456608 -0.202022
-0.194522 0.204803 -0.456485
-0.257587 -0.349287 -0.356695
0.153288 0.398340 0.297282
-0.076336 -0.416120 -0.274874
0.017882 -0.494729 -0.055596
0.269930 -0.106158 0.484224
0.202663 -0.339974 -0.365607
-0.010569 0.112402 -0.487484
-0.287561 -0.219447 0.444545
0.109118 -0.217867 -0.449937
0.270046 0.498462 0.001641
-0.198643 -0.496979 0.018935
0.100818 0.142693 -0.479490
0.133827 -0.196297 -0.459635
0.109401 -0.482593 0.118594
-0.032449 0.032896 0.494809
-0.173424 0.485567 0.110919
0.220924 0.459950 0.189811
0.163556 -0.036339 0.494407
-0.219131 -0.399368 -0.298915
0.212393 0.337527 -0.369016
0.022505 0.402597 -0.296078
0.206819 -0.333193 0.367604
0.179405 -0.398568 0.296021
-0.083555 0.477559 0.140969
-0.228917 -0.313015 -0.389034
-0.196045 0.498093 0.022125
-0.206549 -0.018807 0.495494
-0.073686 -0.084419 -0.492818
-0.031676 0.437496 -0.241023
-0.197513 -0.044503 -0.498149
0.004468 0.097697 0.486356
0.210781 -0.257240 0.424016
-0.192351 -0.328784 -0.375742
0.202601 0.001365 -0.500180
0.100509 0.258098 -0.428465
0.280514 0.448362 0.215493
0.236156 -0.263967 -0.424114
-0.030922 0.114968 -0.486946
0.023436 0.297302 0.397889
-0.282790 -0.125244 0.479670
-0.050939 -0.397067 -0.301965
-0.115821 -0.179093 -0.466622
-0.123464 -0.461960 0.182685
-0.200897 0.069424 0.491213
-0.175677 -0.407282 0.283562
-0.268958 0.464168 0.179695
-0.109613 0.459741 0.190314
-0.041103 0.359134 -0.347972
0.178560 0.348269 -0.358559
-0.286920 0.052740 0.493016
-0.011501 0.010769 0.495802
-0.162664 -0.218046 0.445235
-0.278832 -0.175415 -0.468002
0.256830 0.496728 0.039216
0.167984 0.496340 0.044009
-0.086881 0.192430 0.457477
0.142414 0.456782 -0.201636
0.168806 0.034729 0.494727
-0.116584 0.451577 0.208968
0.006370 -0.007119 0.495705
-0.146124 0.416858 0.270955
0.172534 -0.224018 -0.446698
-0.205996 -0.175810 0.463732
0.038774 0.493524 0.067708
-0.241045 -0.458141 -0.196046
-0.285919 0.130661 0.478700
0.286076 0.298062 0.397357
-0.054200 -0.348570 0.352915
-0.182236 0.316708 -0.386982
-0.129008 -0.201550 0.453061
0.008419 -0.402637 0.290203
0.082728 -0.493747 -0.063439
-0.049936 -0.408707 -0.286103
0.086137 -0.458066 0.192137
-0.114419 0.484011 -0.121291
0.106918 -0.123062 -0.484615
-0.015579 0.175230 0.464103
-0.201747 -0.069999 0.490744
-0.107428 0.494322 -0.067206
0.169008 -0.285524 0.405649
-0.281888 0.302390 0.393970
0.236268 0.296654 -0.402507
0.199606 -0.495087 0.046296
-0.218160 0.370663 0.331098
-0.128705 -0.483368 0.115331
-0.229254 -0.122100 0.480538
0.173366 0.290112 0.402917
-0.245098 0.113445 -0.487266
0.036683 -0.360486 0.340995
-0.176142 -0.476078 -0.146974
-0.074788 -0.301826 0.393479
0.060672 0.328307 0.372749
0.035167 -0.487698 -0.100206
0.057917 0.494208 -0.068262
0.244312 0.154343 -0.475843
-0.146832 0.451251 -0.213960
-0.132390 0.001105 -0.500185
-0.102462 -0.484498 0.110578
-0.168850 -0.481724 -0.126524
-0.070404 0.496627 0.040470
0.166867 0.364532 0.337734
-0.162127 0.489787 0.090774
0.106536 -0.433659 0.242011
-0.237325 -0.371896 0.328397
0.094401 -0.423242 0.259323
0.014234 -0.325893 0.373868
-0.151182 0.490325 -0.091922
0.000834 0.479127 0.135289
-0.288950 0.311162 -0.391562
0.077760 -0.151510 0.472114
-0.164005 -0.464563 0.175748
-0.034593 -0.482795 0.117743
0.274761 -0.373650 0.326460
0.233752 -0.483397 0.115209
0.116510 -0.490282 0.081867
-0.095423 -0.406883 0.284132
0.166080 -0.463267 0.179202
-0.030484 -0.174607 0.464146
0.154378 -0.447741 0.215146
0.071460 0.055409 0.492728
0.189284 0.065127 -0.495951
-0.259889 -0.253956 -0.430217
-0.015127 0.179952 -0.466846
-0.243678 -0.032577 -0.499131
0.145087 0.409369 -0.286396
0.032819 -0.495156 0.045651
0.255544 0.425264 -0.262041
0.138232 0.401789 0.292711
-0.064866 0.343809 -0.362901
0.225384 0.262576 -0.425829
-0.123774 0.234186 0.437531
0.135725 0.234183 -0.442142
-0.099930 -0.090316 -0.491803
0.018091 0.497756 -0.028823
0.052126 0.457657 -0.199685
-0.255026 0.446408 -0.224097
0.233466 0.164354 -0.472390
0.025384 -0.020852 0.495457
-0.168814 0.157232 0.470606
-0.224935 0.478419 -0.142103
-0.248204 0.395864 0.300565
-0.172269 0.121946 -0.485217
-0.062326 -0.201924 0.452905
-0.006925 0.130830 -0.482765
0.252364 -0.101408 -0.489761
0.029980 0.018046 -0.499880
-0.209697 0.498116 -0.020788
-0.245569 0.197822 -0.459396
0.118482 0.353313 -0.353648
0.207040 0.396709 -0.303991
0.132957 0.093362 0.487102
-0.217239 -0.361557 0.339812
0.023403 -0.476375 -0.145901
-0.096968 -0.487507 0.097915
0.269264 0.363947 0.338335
-0.268149 -0.456900 -0.199022
0.197951 0.137890 -0.480816
-0.238855 0.481125 -0.133233
0.190602 0.495439 -0.056871
-0.232921 -0.491385 -0.079765
-0.040348 -0.497433 0.008829
-0.015872 -0.160946 0.468859
0.094526 -0.466360 0.170958
-0.162441 -0.358732 0.342932
-0.248154 -0.337000 -0.368301
-0.130086 0.460067 0.189531
0.099394 0.491485 0.081803
0.254488 0.263746 0.420520
0.169554 0.473561 0.153445
0.194973 -0.496492 -0.033845
-0.045691 -0.496061 0.037276
-0.003359 -0.454751 -0.204177
0.140070 -0.095778 -0.490863
0.100209 -0.359146 -0.346568
0.100035 0.050552 -0.497692
0.184365 -0.093295 -0.491290
0.244967 0.477827 -0.144043
-0.200034 -0.285757 -0.409600
-0.283511 0.167154 -0.471424
-0.093633 -0.496268 0.034787
0.174364 -0.407454 -0.288001
0.017657 0.439894 -0.236469
-0.178741 -0.078838 0.489465
-0.029133 0.188310 -0.463361
-0.007245 -0.449449 -0.215562
0.008600 -0.190447 -0.462260
0.202920 -0.048321 -0.497737
0.176603 0.203898 0.452331
0.133888 0.495225 0.055950
0.141317 0.363615 0.338677
0.126181 -0.015217 0.495559
-0.248053 0.295046 -0.403720
-0.004355 -0.373811 -0.330588
-0.003931 0.366392 -0.339959
0.162131 -0.130437 -0.482822
-0.268428 -0.495646 0.041123
0.050581 -0.341269 -0.364435
0.047254 -0.369985 0.330507
0.161846 -0.196652 0.455103
-0.051862 -0.294360 0.399111
0.273208 0.349947 -0.356925
0.020000 -0.044509 0.493745
0.109890 -0.496656 0.026143
-0.064355 0.242869 0.432959
-0.172136 0.454661 0.202497
0.140496 -0.355962 0.345718
-0.013416 -0.252820 -0.430910
0.116920 -0.283536 -0.411153
-0.128369 -0.415003 0.272522
-0.198826 -0.358214 0.343503
-0.198681 0.469782 0.164401
-0.123978 0.496453 -0.047486
-0.140478 -0.366935 0.333875
-0.242206 0.497413 -0.036463
-0.182696 -0.319225 0.379590
-0.117320 -0.413768 0.274288
-0.003449 0.308774 0.388880
0.189008 -0.459995 0.187838
-0.232446 0.169254 0.466345
-0.103573 0.480519 -0.135221
-0.045897 0.434621 -0.246484
0.081482 0.412117 -0.282467
0.062194 -0.180512 0.461832
0.047645 -0.298367 0.396088
-0.264885 0.493855 -0.071417
0.221711 0.244141 0.432289
-0.015643 -0.435985 -0.241959
-0.045712 0.177134 -0.467982
-0.236964 -0.280499 0.408966
-0.053868 0.470275 -0.167611
0.205553 -0.381273 -0.321892
-0.276099 0.007720 0.495939
-0.007947 0.171443 -0.469945
0.039849 -0.496370 -0.035349
-0.092505 -0.291134 0.401545
0.231671 -0.029092 -0.499288
-0.187951 -0.386683 0.310927
-0.118334 -0.190197 -0.462372
0.047063 -0.495129 0.045906
0.026827 -0.398519 -0.300040
0.033198 -0.286170 0.405223
-0.105061 -0.384071 0.314203
0.147545 -0.200530 0.453486
-0.090901 -0.444870 0.220719
-0.266768 -0.073026 0.490306
0.234139 -0.416564 -0.274202
-0.259394 -0.116677 0.482020
0.208072 0.377527 -0.327666
-0.238144 -0.021650 0.495443
0.240680 0.025088 0.495160
0.134217 0.495793 -0.053594
-0.065939 -0.272519 -0.418858
0.286513 0.193478 0.457007
0.007307 -0.213918 -0.451728
0.056422 -0.449386 0.211479
0.277399 0.246772 0.430869
0.119442 0.483591 -0.123059
-0.258391 -0.471320 -0.161326
-0.163659 -0.413951 0.274025
-0.183403 -0.049520 -0.497607
0.211346 0.348319 -0.358510
0.124716 0.238458 -0.439728
0.214206 -0.232863 -0.442041
-0.001920 0.043699 -0.498247
-0.284686 -0.263613 -0.424330
-0.000252 0.483408 -0.123827
0.115494 -0.335117 0.365954
-0.064280 -0.137585 -0.480641
0.215353 0.494778 -0.062988
0.137091 0.264197 0.420246
0.036032 0.110828 0.483413
-0.284889 0.016067 0.495564
0.197915 -0.497577 0.001735
0.073847 -0.038840 0.494205
0.268832 0.081808 -0.493537
0.179081 -0.107211 0.484003
0.016904 -0.171952 0.465062
0.245603 0.179257 0.462591
-0.282387 -0.396725 -0.302418
0.057301 -0.286822 -0.408855
-0.236398 0.062531 0.491958
0.139406 0.228737 0.440400
-0.048941 0.498589 -0.010255
0.197473 -0.449989 0.210137
-0.254484 0.498039 -0.022503
-0.235665 0.122498 -0.485065
0.151071 0.313069 -0.390105
0.002130 0.448914 0.214374
0.209599 -0.455708 -0.201883
0.138422 -0.497299 -0.013674
-0.174930 0.449854 0.212466
-0.043621 -0.491094 -0.081774
-0.180873 0.393955 -0.307446
0.049685 0.320602 0.379448
0.086687 -0.217024 0.445739
0.110610 -0.350997 -0.354938
0.192088 -0.343086 0.358253
-0.175368 -0.080619 -0.493473
-0.112240 0.237804 -0.440103
-0.190699 0.252974 -0.431403
0.262185 -0.392072 0.304168
0.002502 0.322214 -0.382258
0.062835 0.290164 -0.407404
0.114862 0.198868 0.454588
-0.189726 -0.006441 0.495717
-0.152585 -0.467873 0.166927
-0.166137 0.478668 -0.141287
0.035211 -0.088103 -0.492184
0.216064 0.019079 -0.499861
0.126321 -0.348855 0.352637
-0.236675 -0.131127 0.478047
-0.009771 0.036885 -0.498800
-0.208529 0.080101 0.489385
0.225825 -0.128213 0.478851
0.284565 -0.079428 0.489380
-0.288999 -0.119603 -0.485437
-0.287982 0.428396 -0.256903
0.035661 -0.276224 0.411789
-0.137186 -0.420180 0.264344
-0.204024 -0.165431 0.467312
0.000047 -0.432273 -0.248433
0.015165 0.498213 -0.018637
-0.245934 -0.270973 0.415255
0.113583 0.088254 0.487981
0.062273 -0.046849 0.493556
0.090585 -0.352128 -0.353776
-0.233988 -0.497388 -0.008731
0.246633 -0.491551 -0.078614
0.249644 -0.335128 0.365944
-0.206312 -0.491579 -0.078423
0.103272 -0.080194 0.489269
-0.075751 0.026778 -0.499618
-0.179473 -0.231078 -0.442981
0.068537 0.224274 -0.447025
0.044138 0.418221 0.268890
0.019014 -0.249618 -0.432862
-0.196962 0.496704 -0.045163
0.106502 -0.326117 0.373676
-0.047656 0.049949 0.493318
-0.072693 0.451488 -0.213433
0.198569 0.245181 0.431742
-0.080270 -0.251430 0.427348
-0.226406 -0.484428 -0.115817
0.136914 0.255552 -0.429925
0.070289 -0.141851 -0.479340
0.027542 -0.451014 -0.212386
-0.178042 -0.149400 0.472842
-0.095054 -0.496515 -0.033559
0.158043 0.497293 -0.039141
-0.167463 -0.030914 0.494847
-0.274745 -0.339927 -0.365649
-0.175130 -0.450742 -0.212938
0.271534 0.465679 0.176071
0.210578 -0.134630 -0.481543
0.151079 -0.042867 0.493878
-0.180111 0.223709 0.443047
0.153260 0.140698 -0.480041
-0.249031 0.477513 0.141137
-0.120409 0.486422 -0.111144
-0.273395 0.371691 -0.334108
-0.045277 -0.043893 0.493795
0.225131 0.474724 -0.154212
-0.060217 -0.244194 -0.436075
-0.130795 0.481302 0.127411
0.007495 0.032215 0.494840
0.235828 0.307939 0.389545
-0.125240 -0.489585 0.085917
-0.081823 0.020347 0.495372
0.007961 -0.466367 -0.175683
-0.225771 0.137069 -0.481042
-0.129624 -0.433510 0.242294
0.014441 -0.006424 -0.500304
-0.084534 0.083721 -0.493261
0.018730 -0.209843 0.449277
0.136345 -0.493589 -0.064528
0.085079 0.437912 -0.240233
-0.235357 0.361346 -0.345530
0.206115 -0.462631 0.180896
0.058137 0.440265 -0.235765
0.260379 0.161357 0.469308
0.090941 -0.246932 0.429927
0.066645 -0.276141 0.411843
-0.192331 0.402360 0.291954
0.032956 0.412988 0.276817
0.233582 0.365550 0.336689
0.163311 -0.261458 -0.425644
-0.008126 -0.292739 0.400334
0.023889 0.377654 0.322951
0.136193 0.475107 0.148964
-0.066112 0.497570 -0.032966
0.274055 -0.401826 -0.295657
-0.025689 0.258949 -0.427977
-0.287529 0.494628 0.060078
0.090373 -0.463567 -0.183031
0.248579 0.336231 -0.370230
0.228694 -0.246528 0.430159
0.232371 0.480545 -0.135136
-0.021810 0.444195 0.223951
-0.033347 -0.187780 -0.463362
0.223683 0.215965 0.446915
-0.255039 0.132058 0.478287
0.069779 -0.489981 -0.089311
-0.007376 0.481051 -0.133478
0.031433 0.493493 -0.073519
0.266810 0.250196 0.428781
0.181085 -0.002938 -0.500258
0.084359 -0.189359 -0.462749
0.207254 -0.475906 -0.147599
0.091444 0.495096 0.056844
-0.095435 0.086426 -0.492869
-0.092565 -0.281451 0.408338
0.262369 -0.132574 0.477647
-0.269456 0.300302 0.395634
0.087295 0.431258 0.247637
0.123494 0.445353 0.221600
-0.151797 0.306147 0.390974
-0.174960 0.177536 -0.467843
0.211672 0.259779 -0.427501
-0.278324 -0.302545 0.392937
0.038027 0.327498 -0.377724
-0.086728 -0.466707 -0.174699
0.226801 0.382607 -0.321677
-0.257842 0.042847 -0.498317
-0.288110 0.378491 0.321975
0.038907 0.433528 0.243678
-0.259836 -0.290082 -0.406575
-0.171485 -0.486815 -0.104423
-0.017149 0.376000 0.324878
-0.177993 0.021088 0.495339
0.269756 -0.489168 -0.093190
-0.196395 0.314908 0.383988
-0.114705 0.241827 0.433508
0.185358 0.493960 -0.070555
-0.223681 0.096345 -0.490848
-0.130744 -0.026760 -0.499392
0.157314 0.333352 0.368180
0.221229 0.480958 -0.133782
0.081831 -0.189950 0.457897
-0.090255 0.491746 0.079998
-0.176716 0.114132 0.482628
0.061878 0.498197 0.016401
-0.069430 -0.386058 -0.316315
-0.265959 -0.419799 -0.269301
0.155028 -0.389300 0.307645
0.060497 0.410042 -0.285434
0.105481 -0.494646 -0.056627
-0.232227 0.230789 0.439319
0.074627 0.159367 0.469955
0.202700 0.381616 0.318333
-0.278450 -0.040339 -0.498599
0.245104 0.469498 0.165226
0.048639 0.484982 0.113711
0.057429 -0.494367 0.052957
-0.106192 -0.239702 0.434073
-0.277178 0.450113 -0.216497
0.047973 -0.491407 0.075335
-0.082972 0.493882 0.065235
-0.190639 0.497421 -0.036298
-0.154176 0.296715 -0.402461
-0.132602 0.465441 -0.180494
0.004467 0.060982 0.492126
0.039532 0.165869 -0.471868
-0.263585 -0.174375 -0.468392
0.135666 -0.455071 0.198811
-0.039391 0.156850 0.470723
-0.158758 -0.103979 -0.489150
0.042850 0.261277 0.422025
-0.026467 0.475280 -0.152391
0.053636 0.226694 0.441476
0.149328 -0.349336 0.352168
0.040393 0.347452 -0.359354
-0.037080 -0.497304 -0.013415
0.211328 0.075492 -0.494451
0.237019 -0.398699 -0.299802
-0.103804 0.207442 0.450740
0.020748 -0.497174 -0.020617
0.212277 -0.355330 0.346333
0.168712 -0.495513 -0.045921
-0.173870 0.301279 -0.399018
-0.090629 -0.482953 0.117077
-0.194991 -0.337255 0.363930
-0.225104 -0.372052 0.328225
0.017376 -0.482850 -0.122443
0.120166 -0.496548 -0.033153
0.018770 0.412676 0.277290
-0.044997 -0.496401 -0.034961
0.271063 -0.034667 0.494543
-0.151386 0.024312 0.495195
-0.174916 0.423299 -0.265263
0.061289 -0.242389 -0.437026
-0.165376 -0.484998 0.108470
-0.170207 0.094809 0.486853
-0.138463 0.495616 0.052945
0.161233 0.288381 -0.408749
-0.153454 0.035381 0.494698
0.108792 0.454741 -0.206182
-0.263045 -0.494241 -0.060023
0.190474 -0.477289 0.138096
-0.070557 -0.307819 -0.393177
-0.241906 0.448259 -0.220583
-0.174771 -0.413708 0.274374
0.229274 0.489700 -0.095556
-0.150056 -0.327199 -0.377177
0.195935 -0.252061 0.426986
0.066025 -0.128535 0.478762
-0.122146 0.185814 0.460131
0.181975 0.365813 0.336419
0.247847 0.307833 0.389630
-0.055895 -0.149115 0.472940
0.003933 0.054646 -0.497361
-0.158458 0.413306 0.276335
-0.135247 -0.219560 -0.449046
0.062932 0.487993 0.099339
-0.024690 0.154859 -0.475666
0.126587 -0.479551 0.130681
-0.067418 -0.400655 0.293037
0.258104 0.493173 -0.075379
-0.117394 0.399779 -0.300109
-0.231021 0.468807 0.167229
-0.202596 0.044109 0.493949
-0.160812 -0.338149 0.363059
0.024164 0.488952 -0.099901
0.206670 0.317461 0.381952
0.052395 -0.346476 0.354954
0.016157 0.494213 0.062949
0.218030 0.308549 0.389059
0.007745 0.498541 -0.002725
0.050206 -0.295714 -0.402636
0.098494 -0.155449 0.470755
-0.084354 -0.437962 -0.238511
0.224028 0.118314 -0.486220
-0.177581 0.190783 -0.462331
-0.105868 -0.410300 0.279247
0.059043 0.142894 0.474981
0.266098 0.151136 -0.476950
-0.050639 -0.489126 -0.093393
-0.078067 0.487842 -0.105172
-0.228783 -0.045636 -0.498027
-0.085737 0.241909 0.433465
-0.109364 0.386780 -0.316443
0.224535 -0.089513 0.487711
-0.019768 -0.337890 -0.367495
-0.094644 0.033208 -0.499097
-0.242490 -0.456740 0.195092
0.159880 -0.493712 -0.063680
0.132688 0.056304 -0.497226
-0.141493 0.171501 0.465502
0.217366 0.189066 -0.463046
-0.155549 -0.496543 0.028663
-0.201206 0.321095 -0.383218
0.073788 -0.042159 -0.498403
-0.264267 0.472101 0.157679
0.196455 -0.417674 -0.272520
0.216451 -0.122437 0.480445
-0.202371 0.411522 0.279037
0.082523 -0.497138 -0.022618
0.155198 0.440712 -0.234916
0.134592 0.496437 0.042810
0.191074 0.471128 0.160498
-0.262879 0.120509 0.481112
-0.117371 -0.066026 -0.495823
0.057414 -0.367735 0.332992
-0.215667 0.231118 -0.443652
0.001172 0.456994 0.196902
0.108586 0.279733 -0.414502
-0.163418 -0.179558 -0.466447
0.078631 0.100495 0.485869
0.019929 0.455250 -0.205050
0.130186 0.341862 -0.364796
0.093717 0.219478 -0.449388
-0.224306 0.477964 0.139503
0.254278 0.498621 -0.007146
0.037922 0.408419 -0.287754
0.192494 -0.236674 0.435810
-0.057426 -0.156649 -0.474825
0.046944 -0.194059 0.456184
-0.257080 -0.266976 0.417895
-0.272690 -0.317619 -0.385363
-0.057157 0.464451 0.179016
0.169813 -0.171803 -0.469357
0.056673 -0.319365 0.379470
0.269093 0.134829 -0.481661
-0.100114 0.419505 0.266945
-0.198329 -0.014948 -0.499922
-0.170964 -0.324676 0.374913
0.155708 0.430382 0.249164
-0.264223 -0.477523 0.137328
-0.219112 0.332049 -0.373819
-0.195028 -0.448760 -0.216959
0.087417 0.254407 0.426214
-0.196747 0.476930 0.143250
0.113045 -0.337732 -0.367638
0.241637 0.246499 -0.435116
0.135867 -0.447598 0.215463
0.179541 0.060608 0.492166
0.212008 -0.490666 -0.084734
-0.052151 -0.368949 -0.336255
-0.146975 -0.106878 -0.488462
0.103232 -0.483203 -0.121163
0.142945 0.016476 -0.499908
-0.191386 0.495414 -0.057106
-0.098266 0.317149 -0.386604
-0.050113 0.247000 -0.434829
0.119318 0.453353 -0.209276
0.186311 -0.341205 -0.364493
-0.229099 0.463158 -0.186576
0.061499 -0.476073 0.142080
-0.288752 -0.164179 -0.472218
0.083724 0.151333 0.472406
0.187530 -0.240143 -0.438208
-0.232694 0.471506 -0.164331
0.050220 0.372018 0.329519
-0.197547 0.057286 -0.497085
0.105575 0.413018 0.276771
0.007051 -0.207584 0.450391
0.262736 0.175474 -0.468554
-0.018816 -0.425713 0.255270
0.073537 -0.445218 0.220058
-0.205312 -0.328711 -0.375808
0.162869 -0.002361 0.495790
-0.236409 0.423239 -0.265361
0.106381 -0.132908 -0.482068
-0.131668 0.165345 0.467811
0.113376 0.495010 -0.060840
0.212857 0.498440 0.002875
0.157337 0.356339 -0.350702
0.154726 -0.497610 0.003584
-0.247173 -0.010178 0.495650
0.265519 -0.254191 -0.430074
-0.077467 -0.422913 -0.264585
-0.045378 -0.395363 0.300041
0.282790 -0.025932 0.495250
-0.024675 0.047476 -0.497941
-0.250187 -0.492353 0.069837
0.201300 -0.476744 0.139881
0.134325 -0.428707 -0.254652
-0.224150 -0.086084 -0.492532
-0.140994 0.173810 -0.469128
-0.144474 0.434011 -0.247643
0.131333 0.455975 0.199345
-0.139906 0.309797 0.388064
0.047773 0.457608 0.195428
-0.077330 0.471422 -0.164553
-0.278196 0.143903 -0.479156
0.087664 0.487646 0.100996
0.150388 -0.492198 -0.074142
-0.008989 0.494558 -0.065024
-0.122741 0.038177 -0.498695
-0.067837 0.485701 -0.114179
0.223727 -0.101412 0.485218
0.187276 -0.276033 -0.416400
0.286260 -0.255999 0.424728
-0.262122 0.344785 0.357824
-0.196623 0.034298 0.494747
-0.261388 0.173687 0.464681
0.156128 -0.058445 0.492416
-0.256594 0.495006 0.057466
0.197563 -0.092591 0.487066
-0.020179 0.330838 0.370457
-0.235542 0.424889 0.258743
-0.066410 -0.471215 -0.161629
0.195701 0.490686 0.086484
0.237082 0.261124 0.422119
-0.120657 -0.272457 -0.418901
0.226792 -0.479620 0.130455
-0.006916 -0.424188 0.257770
0.286270 -0.484064 0.112402
0.216594 -0.236043 0.436172
-0.196056 -0.359937 -0.345755
0.029575 0.080346 -0.493749
-0.130319 -0.261384 0.421586
0.167482 -0.469103 -0.167753
-0.233445 0.392485 -0.309289
-0.257341 -0.029965 -0.499249
0.012448 -0.104474 0.484577
-0.073303 0.231737 -0.443347
0.284551 -0.038952 0.494196
-0.045576 -0.346960 -0.359085
-0.202256 -0.417469 0.268792
-0.225343 0.041684 -0.498411
-0.107854 -0.494285 0.053714
-0.140824 -0.480152 -0.132218
-0.047503 0.007853 0.495933
0.086078 0.423547 0.260823
-0.197563 -0.490367 -0.086799
0.095603 -0.314558 0.383595
0.232240 0.479462 0.134076
-0.243667 -0.440261 0.229472
0.029588 -0.361524 -0.344126
-0.200481 -0.389960 -0.311385
0.248514 0.324121 0.376541
0.203403 0.485452 0.111467
0.208152 0.237197 -0.440451
-0.223401 0.221042 -0.448617
0.003173 -0.392145 0.304077
-0.253013 0.481365 0.127181
-0.081677 0.262579 -0.425827
-0.138993 0.148649 -0.477808
0.091514 0.478359 -0.142299
0.271704 -0.436759 -0.240610
-0.123063 0.417310 0.270270
0.107234 -0.057424 -0.496753
0.267285 -0.293509 -0.404178
0.031019 0.104833 -0.489070
0.273400 0.297497 0.397752
-0.071276 -0.032616 -0.499130
-0.258736 -0.494935 0.047701
0.069347 -0.167195 -0.471086
0.140063 0.377071 0.323630
0.027252 -0.294750 -0.403310
-0.258652 -0.287079 0.404604
-0.247600 0.083575 -0.493282
0.051697 -0.152523 -0.476083
0.182887 0.341562 0.360744
0.129251 0.198703 0.454662
-0.215712 0.475203 0.148685
-0.245475 0.438117 -0.239845
-0.227241 -0.408928 0.281208
0.192702 -0.431259 -0.250201
-0.206073 0.422160 0.262923
0.271939 -0.198103 0.454498
-0.286082 0.494869 -0.062149
-0.170454 -0.402103 -0.295290
0.016584 -0.468933 -0.168244
-0.231273 0.328104 0.372933
0.178077 -0.453770 -0.206531
0.010261 -0.181226 0.461534
0.165557 -0.461133 -0.188870
0.149656 0.043255 0.494041
0.100361 0.248778 0.429645
-0.223443 -0.441036 0.228001
0.054746 0.355966 0.346533
0.258234 0.101189 0.485704
-0.154544 0.480931 -0.133869
-0.232915 0.208362 0.450328
-0.086847 -0.176751 -0.467501
-0.289556 -0.456943 0.194639
0.062476 -0.311880 -0.389939
-0.130481 0.004504 0.495914
-0.215436 -0.491988 0.071959
-0.238526 -0.086274 0.488389
-0.148366 0.306908 -0.394771
0.127074 -0.006876 -0.500284
0.096594 -0.306993 -0.393836
-0.145500 -0.252803 -0.430920
-0.166357 0.245507 0.431570
-0.182418 0.482909 0.121591
-0.030170 0.178664 0.462814
-0.170622 -0.365424 0.335543
0.203185 -0.479997 -0.132779
-0.274542 -0.448897 -0.216682
-0.102528 -0.497449 -0.005383
-0.269546 0.129362 0.479008
0.149189 0.248026 -0.434241
-0.053118 -0.428453 0.250775
0.071429 0.304866 -0.396312
0.145165 0.320649 0.379411
-0.058861 0.451923 0.208267
-0.200988 -0.389954 0.306825
0.192962 0.460219 -0.193977
-0.089255 -0.119155 0.481351
0.111421 -0.123474 0.480159
-0.128773 -0.466771 -0.174513
0.131534 -0.226079 0.441277
-0.107962 0.492944 0.071720
0.022447 0.240665 -0.438462
0.183155 0.323621 -0.381050
0.225447 0.142545 -0.479531
-0.013317 -0.384685 0.313432
0.019732 0.125009 -0.484371
-0.086094 0.399755 0.295407
0.157420 0.348836 -0.358006
-0.055127 0.412290 0.277873
0.233695 0.427307 -0.258688
0.037146 -0.492997 -0.068622
0.225136 0.413906 0.275426
-0.181338 0.158403 0.470249
-0.289289 -0.464278 -0.181326
-0.225229 0.256084 -0.429620
-0.113661 0.300864 0.395187
-0.262532 0.138897 -0.480538
0.071622 -0.493027 0.065351
-0.218030 0.034658 -0.498980
-0.275114 -0.427074 -0.257498
0.279731 -0.353604 -0.352260
-0.057673 -0.423883 -0.263064
-0.242456 -0.396767 -0.302362
-0.075823 0.495692 0.052004
-0.083347 -0.045540 -0.498037
0.243903 0.353575 -0.353393
-0.227939 0.070381 0.491058
0.245226 0.137515 -0.480919
0.014269 -0.350523 0.351013
-0.152095 0.131422 -0.482601
-0.224240 0.495585 0.053329
-0.040665 -0.168193 0.466359
-0.096266 0.338492 -0.368077
-0.126938 0.475880 -0.150424
0.185370 -0.493504 0.060938
-0.228185 0.308611 0.389010
0.256969 0.498189 -0.019169
-0.254154 -0.468448 0.165396
-0.051905 -0.377210 -0.326628
-0.026360 -0.289713 0.402617
0.191517 -0.331009 0.369478
-0.013066 -0.177816 -0.467101
-0.075110 -0.482258 0.120001
-0.197353 -0.348777 -0.357218
0.036927 0.396088 -0.304771
0.225265 0.421246 0.264309
-0.266805 0.448869 -0.219269
0.235974 -0.079738 0.489335
0.033159 -0.332712 0.368017
-0.288803 0.465632 -0.179984
-0.027200 -0.434716 -0.244173
-0.107970 0.055670 -0.497278
0.204298 0.169259 0.466343
-0.001976 -0.445843 0.218871
0.240551 0.497222 0.033128
-0.272184 -0.362386 -0.343240
-0.134415 0.470976 -0.165741
-0.169520 -0.280680 -0.413150
0.053812 0.210821 -0.453654
0.053076 -0.496811 0.022683
0.165537 -0.200369 -0.457808
0.175786 0.433480 -0.248563
-0.210621 -0.373341 -0.331137
-0.003547 0.403005 0.291099
-0.139563 0.497005 -0.042384
0.075984 -0.299871 -0.399515
-0.018634 -0.392447 -0.308089
-0.195497 0.033834 -0.499047
0.040922 -0.354403 -0.351439
-0.163980 -0.495942 0.038382
-0.129124 0.494607 0.060222
-0.118624 0.001968 -0.500169
0.233160 0.110367 0.483522
0.206665 0.492773 0.072898
0.278029 0.061490 -0.496477
-0.246152 -0.046789 -0.497902
-0.180189 0.413241 0.276433
0.145649 -0.157982 -0.474418
0.221356 -0.073896 -0.494630
0.093050 0.040989 -0.498467
0.259438 0.376006 0.324872
0.213670 0.498177 0.017484
-0.115188 0.167144 -0.471428
-0.182675 0.488509 -0.102362
0.094224 0.475351 -0.152158
-0.134004 0.317258 0.382114
0.074206 0.469050 0.166523
-0.249852 -0.381519 0.317403
0.186806 -0.079954 0.489304
-0.289424 0.454352 0.203239
0.016393 -0.347488 -0.358543
-0.235595 0.314595 0.384238
-0.213966 0.049347 -0.497790
0.251024 0.489090 -0.099099
-0.033363 0.490461 -0.091131
-0.135790 0.495951 -0.052129
-0.179234 -0.493981 -0.061819
0.069500 0.035498 -0.498912
0.267685 0.496670 0.039933
0.106706 -0.028666 0.495029
0.025400 0.412480 -0.281948
-0.018125 0.082716 0.488934
-0.152270 0.475018 0.149222
0.040870 0.487072 0.103735
-0.252516 0.498555 -0.011012
0.164413 0.278324 -0.415433
-0.101293 -0.005395 0.495736
0.151392 -0.055297 -0.496983
-0.103485 0.228425 -0.444979
-0.067777 -0.497496 -0.002768
-0.030020 0.334337 -0.371855
-0.174843 -0.253275 0.426290
-0.145508 -0.136117 -0.481089
0.022469 0.279235 0.410524
-0.245153 0.284309 0.406975
0.046005 -0.147865 0.473371
-0.069570 0.117011 0.481944
0.124942 0.027529 0.495050
-0.099003 -0.468689 -0.168951
-0.001364 -0.406262 0.285020
-0.218648 -0.073830 -0.494641
0.239260 0.016041 -0.499916
0.220826 0.469960 0.163884
-0.224908 -0.379477 0.319964
0.062031 -0.038846 -0.498761
-0.224981 0.040842 0.494302
-0.060031 0.392925 0.304460
0.030738 0.342276 0.360097
0.213687 -0.109876 0.483445
0.024230 -0.426654 0.253725
0.008252 -0.439256 -0.236248
-0.248259 -0.493805 -0.063035
0.013647 -0.117383 -0.485965
-0.020616 0.429676 0.250396
0.261724 0.292353 -0.405752
0.129651 0.432005 0.246334
-0.047637 -0.490692 0.079488
-0.261989 -0.475409 -0.149401
0.271579 -0.288146 0.403799
0.057048 0.495476 -0.056531
0.002858 -0.169817 0.465799
-0.139556 -0.436646 0.236337
0.066899 0.412924 0.276913
0.209995 0.488879 -0.100324
0.148426 0.248905 0.429568
0.118221 0.228459 -0.444963
-0.159317 -0.485833 -0.109110
