0.181331 0.445634 0.007806
0.114846 -0.436267 -0.089068
0.174031 0.322451 0.305514
-0.124764 -0.071192 -0.441585
0.000324 0.438729 0.077053
-0.144783 0.445062 -0.030212
0.021027 -0.396620 -0.203431
0.064500 0.314813 -0.317506
0.003405 -0.433211 0.098387
-0.103094 0.417355 0.154333
-0.064580 0.443050 0.047149
0.096600 -0.284493 0.340089
-0.023547 0.383403 0.225006
0.177559 -0.444790 -0.006406
0.069993 -0.124727 0.425062
0.114579 0.371500 0.244012
0.195838 -0.149923 0.416853
-0.062995 0.411428 0.169286
-0.280954 0.442595 0.051963
0.155685 -0.126978 0.424408
-0.260800 0.402935 -0.193049
0.035969 -0.148568 0.417341
0.090547 -0.375286 -0.241287
-0.028258 -0.138284 0.421044
0.114542 -0.104918 -0.434812
0.206601 0.130914 -0.427916
0.089666 -0.434881 0.090917
0.027084 0.434759 -0.100400
-0.021609 0.443197 -0.049946
-0.270906 -0.021516 -0.446920
0.143607 -0.386395 -0.222567
-0.076834 -0.413608 0.161879
0.070459 -0.434142 -0.098576
0.105500 -0.301888 0.324754
-0.175885 0.381332 0.228507
-0.188905 0.062286 -0.443158
-0.081070 -0.265531 0.354912
-0.141596 0.442598 0.051927
0.257032 0.098734 -0.436424
-0.127916 -0.444178 0.021507
0.245457 0.209299 0.391118
-0.225867 0.170253 -0.413837
-0.143898 -0.386433 -0.222503
0.075579 -0.191774 0.399525
-0.046497 0.440682 0.064719
-0.129307 -0.347774 0.275215
-0.017467 -0.442519 0.041917
0.124254 -0.427361 -0.125232
0.285437 -0.289093 0.336035
-0.048348 0.445430 0.014288
-0.228609 0.085191 -0.439451
0.087023 -0.349845 0.272545
-0.223990 0.096511 -0.436921
-0.168949 0.034273 -0.446185
-0.189612 0.263659 -0.361512
0.046853 -0.014029 0.442801
-0.220584 0.383091 0.225533
0.246645 0.129327 0.424023
0.224779 0.132777 -0.427374
0.029573 -0.360308 -0.263326
0.169128 0.442656 -0.055671
-0.257266 0.103559 0.430992
0.080553 0.336019 0.290496
-0.016063 -0.148634 0.417317
0.238387 0.259318 0.360237
-0.111883 -0.056104 0.439621
-0.092330 -0.442613 -0.045285
-0.243464 -0.381025 0.227294
-0.101281 0.245849 -0.373743
0.047250 0.181984 -0.408760
-0.178752 -0.218886 0.385317
-0.207670 -0.280184 -0.347899
-0.137446 0.438274 -0.084274
0.141560 0.420837 -0.149015
0.091551 -0.214884 -0.392038
-0.200864 0.436639 0.087637
-0.167073 0.255117 0.363091
-0.219776 0.441451 -0.064219
-0.238456 -0.135424 -0.426308
0.140190 -0.435571 -0.092183
0.265123 -0.401792 -0.193280
0.045997 0.445836 -0.005735
0.129555 0.445347 -0.021291
-0.192077 -0.117223 0.427242
-0.047326 0.292984 0.333508
-0.128667 0.437701 0.082886
-0.051981 0.177662 -0.410631
-0.263090 -0.110382 -0.433583
0.212209 -0.436059 -0.090000
-0.272765 -0.407564 0.175845
0.144457 0.168971 0.410039
-0.155440 0.389462 -0.219114
0.181616 0.000166 0.443247
-0.025582 -0.239621 -0.377280
-0.182716 0.149790 0.417270
0.018598 0.157218 -0.418949
0.197746 0.135552 -0.426568
0.253068 -0.439607 -0.069393
0.037055 0.445538 0.010856
0.040226 -0.442478 -0.046704
0.007087 0.414790 0.161457
-0.268189 0.439149 0.074401
0.151746 0.367010 0.250620
-0.148036 0.102971 0.431123
-0.065767 0.253211 0.364387
-0.255005 -0.434369 -0.097559
-0.208248 0.406600 0.180442
-0.062334 0.403804 0.186903
0.265045 0.445698 -0.010124
0.261882 -0.422228 0.137952
-0.212516 -0.390414 0.211259
-0.097406 -0.441330 0.054159
-0.075747 0.192711 0.399570
0.127261 -0.020023 0.442613
-0.288051 -0.431994 -0.108183
-0.080069 0.408386 0.176315
-0.289922 -0.053464 0.439921
-0.078512 0.393763 0.206696
-0.077114 0.418691 -0.154975
-0.165907 -0.438578 -0.075889
-0.140556 -0.412775 0.163805
-0.275049 0.176454 0.406800
-0.100331 0.385294 -0.226162
-0.003832 -0.197288 -0.401069
-0.168591 0.390562 -0.217254
-0.258990 -0.065023 0.438208
-0.227741 0.051277 0.440225
-0.287127 -0.444065 -0.029469
-0.121148 0.215381 0.387996
-0.142885 0.045658 0.440756
-0.113040 0.242807 -0.375811
-0.218573 0.016262 0.442763
0.021591 -0.223524 -0.386928
0.161048 0.083755 0.435404
0.179168 -0.263876 -0.360549
-0.225158 -0.013313 0.442824
-0.145765 0.396187 -0.206292
0.115225 -0.393196 0.205797
0.260207 0.338334 -0.292224
0.107547 -0.434760 0.091458
-0.072002 -0.443730 -0.033467
-0.196011 0.443075 0.046882
0.127654 -0.125531 0.424828
-0.196727 0.442758 -0.054591
0.076045 -0.115443 -0.432113
0.186453 -0.130553 -0.427723
0.018264 0.442773 0.050076
0.246446 0.310941 0.317024
0.109192 -0.262721 -0.361445
-0.241875 0.128208 0.424348
-0.016830 0.319838 0.308127
0.160920 -0.373826 0.239082
-0.023712 0.445664 0.006856
-0.243638 -0.053873 0.439882
0.236412 0.028030 0.442394
0.268729 0.413368 -0.169156
-0.094979 -0.404360 -0.187604
-0.017015 0.077620 -0.440729
0.066309 -0.077896 -0.440523
-0.178781 -0.421281 -0.144935
-0.060181 0.305310 0.322641
0.076682 0.295068 -0.336024
0.062045 0.437237 0.084958
-0.090666 -0.166833 0.410520
0.005762 0.440853 -0.067996
-0.096882 -0.090520 0.433677
-0.219160 0.297985 0.329098
0.206609 0.445813 0.002087
0.172759 -0.439917 -0.067430
0.014862 -0.283639 -0.345196
-0.097478 -0.249018 -0.370893
-0.254693 -0.382581 0.224662
-0.031235 0.063097 0.438676
-0.194853 0.417875 0.152888
-0.109078 0.168006 -0.414809
-0.182432 -0.443930 0.026994
0.211254 -0.044271 0.440790
0.063665 0.200922 -0.399740
0.049664 0.019023 0.442677
-0.128379 0.041185 0.441179
-0.142442 0.259201 0.360316
0.203069 -0.021892 0.442554
0.061560 -0.304418 0.322523
-0.001553 0.070568 -0.441846
0.168402 0.387906 0.217392
-0.044531 -0.424755 -0.134200
-0.070914 -0.195056 -0.402206
-0.148205 -0.104602 -0.434883
0.191608 -0.198917 -0.400239
0.197756 0.223966 0.382919
-0.081696 0.408570 -0.180243
0.218421 0.084143 0.435332
0.228558 -0.034674 -0.446051
0.190972 0.359012 0.262048
-0.289651 0.388465 0.216446
-0.212800 -0.439697 -0.068821
-0.170955 -0.437046 -0.085561
-0.116005 -0.007108 -0.447372
0.005946 0.423616 0.136944
0.281797 -0.149124 -0.421494
0.082888 -0.444559 0.009407
0.113833 -0.173106 -0.412159
0.273704 -0.387925 0.215627
0.084759 0.280291 0.344258
-0.275984 -0.423280 0.134925
0.134029 0.365172 0.253324
-0.227325 -0.331906 0.293999
0.089896 -0.235122 -0.380069
-0.027620 -0.400552 -0.195715
-0.213690 -0.010799 0.442903
-0.005990 -0.134066 0.422349
-0.216019 0.442450 0.053494
0.009559 0.406831 0.179909
-0.273755 -0.429341 0.114064
-0.242986 0.353382 -0.273659
-0.075770 -0.407362 -0.180666
-0.263015 -0.327617 0.298864
0.051411 -0.358256 0.261702
0.083826 0.345544 -0.283763
-0.072706 -0.100942 0.431348
-0.238295 0.440462 0.066106
-0.015676 0.176021 -0.411341
0.230948 -0.055739 0.439679
-0.117120 -0.432446 -0.106161
0.112178 -0.426972 -0.126571
0.119192 0.108584 -0.434222
-0.263720 -0.406324 -0.183064
-0.007746 -0.434404 0.093050
0.264245 -0.181848 0.404023
0.228552 0.253348 0.364294
-0.215464 -0.392343 -0.211825
-0.124225 -0.357978 0.262059
0.227761 0.293749 -0.337187
-0.096111 -0.135369 -0.426324
0.027165 0.186973 0.402248
-0.209890 -0.294678 0.331110
-0.166980 -0.441005 -0.060566
0.217288 0.442685 -0.055363
0.171903 -0.193050 0.398875
-0.022127 0.152301 0.416366
-0.263424 0.052991 0.440063
0.048150 -0.337434 0.287728
0.103906 0.438134 0.080809
0.191749 -0.438620 -0.075623
0.204510 0.432197 0.107508
0.151944 -0.441288 0.054424
0.041296 -0.378812 -0.235389
-0.113750 -0.371564 0.242410
0.207961 -0.365236 0.251721
-0.286753 0.440622 0.065099
0.171407 -0.314600 0.312340
-0.277151 0.257273 0.361626
0.185983 -0.031876 0.441962
0.082143 0.425959 -0.133585
0.003216 -0.420794 0.141935
0.012457 -0.443351 0.033121
0.028456 0.109943 0.429565
-0.095153 0.390314 0.213319
-0.190013 -0.409839 0.170589
-0.013556 0.207364 -0.396457
0.084273 0.155321 -0.419632
-0.226078 -0.397217 -0.202260
0.247621 0.284871 0.340660
0.034521 0.327538 -0.304470
-0.078709 0.445943 -0.002026
-0.090051 0.124545 0.425413
-0.174400 0.411525 -0.173414
0.160164 -0.118101 -0.431340
-0.175831 -0.060850 -0.443223
0.066321 -0.350810 -0.275654
-0.238911 0.171561 -0.413271
-0.017285 -0.281348 -0.346996
-0.261996 -0.231760 0.377703
-0.200481 0.060881 -0.443380
0.189244 -0.073856 -0.441163
0.194027 0.388928 -0.220018
0.264816 -0.253096 0.363768
-0.266550 0.286223 0.339468
-0.008232 -0.149076 -0.421511
0.191300 0.153071 -0.420442
-0.242621 -0.271396 0.350363
0.171477 -0.104085 -0.434998
-0.199064 0.445912 -0.001048
-0.172339 -0.198269 0.396216
-0.108408 0.173660 0.408009
-0.247538 -0.034326 -0.446084
-0.179410 0.357469 0.264037
-0.287849 -0.160567 -0.417374
0.216460 -0.443246 0.034233
0.263408 0.361377 0.258908
0.216925 0.407278 -0.183229
-0.078324 -0.023451 0.442505
0.002311 -0.379540 -0.234158
-0.286896 0.423882 0.136204
0.064139 0.148430 0.417760
0.147096 0.442454 -0.057801
0.042503 -0.065086 -0.442552
0.211118 -0.371348 0.242728
0.095979 0.330768 0.296452
-0.181294 0.117898 -0.431697
-0.027700 0.402941 -0.193038
0.084425 -0.426132 -0.129461
0.196592 0.265742 -0.359896
0.180571 0.177707 -0.410611
-0.274715 0.416136 -0.162073
-0.160571 0.128090 -0.428736
-0.247253 0.244871 0.370055
0.063424 -0.061570 -0.443109
-0.089891 0.003053 -0.447532
0.120735 0.389129 0.215324
-0.275311 0.362201 -0.262049
0.040717 0.272121 0.350595
0.125939 0.215036 -0.392548
0.257051 -0.050563 0.440195
-0.227317 0.133767 -0.427087
0.022004 0.390230 -0.217815
0.147374 0.177689 0.406266
-0.246147 0.413749 -0.168273
-0.244582 0.163276 0.412415
0.271271 0.420511 0.145568
-0.188608 -0.000997 -0.447564
-0.065181 -0.441462 -0.057459
0.018802 0.051773 -0.444531
0.262813 0.082993 0.435525
0.181150 0.008178 -0.447371
-0.007678 0.131136 0.423498
-0.264777 -0.212593 -0.393271
0.212012 0.038515 -0.445784
-0.040183 -0.228799 0.379455
-0.089221 0.394248 0.205745
0.223743 0.126773 0.424765
0.196163 0.296495 -0.334766
-0.119075 -0.367110 -0.253317
0.037151 -0.017135 -0.447057
0.245913 0.105105 0.430646
-0.136350 0.032245 0.442024
-0.025391 0.388916 0.215683
-0.195654 0.353826 0.268733
-0.190044 0.160387 -0.417808
0.122366 -0.428923 0.115500
-0.030102 -0.345189 0.278547
0.140688 0.397252 0.199849
-0.135181 -0.043962 0.440819
0.009877 0.350089 0.273551
-0.254648 -0.184182 -0.407366
-0.238659 -0.227619 0.380153
-0.064775 -0.419747 0.144843
-0.055914 -0.306355 0.320585
0.011288 0.442607 -0.056188
0.061760 0.242887 0.371403
0.205395 0.109318 -0.434058
-0.230278 0.294570 -0.336462
-0.166472 -0.263711 0.356324
-0.050002 0.441895 -0.061413
0.029687 0.083292 0.435477
0.031777 -0.302892 -0.328222
0.259176 0.097717 0.432298
-0.243758 0.444212 -0.039202
0.261555 -0.442973 -0.041476
-0.042567 0.239039 0.374005
-0.059022 0.332352 -0.299009
-0.058576 -0.424332 -0.135657
-0.074664 0.053890 -0.444331
0.217663 0.420427 -0.150156
-0.024024 0.095617 -0.437120
0.128236 0.439553 -0.076203
-0.207089 -0.394365 0.203503
0.077750 0.437751 0.082660
0.115792 0.350634 0.272849
0.119059 -0.363512 -0.258612
-0.076130 -0.365348 -0.255910
0.024900 0.445493 0.012297
0.202636 -0.206147 0.392202
0.136569 0.440888 -0.067771
-0.276636 -0.150731 -0.420916
-0.253440 -0.305968 0.320972
-0.160725 0.426270 0.128159
-0.215315 0.400648 -0.197538
0.167065 -0.391962 0.208219
-0.151838 0.277362 -0.350883
-0.265112 0.445253 -0.024275
0.272521 0.004852 0.443122
-0.145433 0.424064 -0.140052
-0.049810 -0.437151 0.080543
-0.036308 -0.216139 0.386942
0.251687 -0.092092 -0.437679
-0.176482 0.188275 -0.406038
0.120597 0.443557 -0.046134
-0.239959 -0.428219 0.117923
-0.123447 0.445578 0.009573
0.049690 -0.360269 -0.263383
0.201678 -0.404427 0.183095
-0.262766 -0.429797 -0.116847
0.027825 -0.080813 -0.440061
-0.047264 -0.414030 -0.165078
-0.154630 0.443784 -0.043738
0.200290 0.429321 0.117659
0.242890 -0.219960 -0.389035
0.266742 -0.383286 0.223470
-0.102414 -0.442253 0.044740
-0.287999 -0.309254 -0.322039
0.223194 -0.172063 0.408257
-0.182148 0.404300 -0.190110
0.256226 0.161737 -0.417322
-0.214176 0.345705 0.279204
-0.150163 -0.234460 0.376107
-0.016714 0.445819 -0.006251
-0.177606 0.232107 -0.382458
0.230440 0.445469 0.013051
-0.008403 0.190253 -0.405176
0.058193 0.260582 -0.363731
0.151531 -0.382112 -0.229810
0.039043 0.386338 -0.224396
0.258989 -0.414014 0.160768
0.128117 -0.202078 0.394275
-0.288344 0.330556 0.296692
-0.117425 0.445124 -0.028376
0.092909 0.438426 -0.083319
0.043028 0.151062 0.416812
0.170987 0.128960 -0.428483
0.107978 0.421311 -0.147700
-0.032157 0.443843 -0.043113
-0.270546 0.100063 0.431773
0.039351 -0.333848 -0.296150
0.053753 -0.345527 0.278111
0.079714 0.349403 0.274435
-0.257491 0.393321 -0.211917
-0.274076 0.352720 -0.274513
0.004543 -0.189631 -0.404971
0.206950 -0.348778 -0.278273
-0.025464 -0.024949 -0.446812
0.070899 -0.444777 -0.006814
0.276669 0.438681 -0.081708
-0.253040 -0.140367 0.420293
-0.275304 0.291304 0.334988
-0.177400 -0.345694 0.277896
-0.171025 0.428693 0.119822
0.053785 0.202633 -0.398868
0.145863 0.225952 -0.386098
-0.269432 0.410285 0.171927
0.164565 -0.114685 0.427979
-0.119004 0.441738 0.058052
-0.041332 -0.286605 -0.342581
-0.152103 -0.404329 0.183321
0.255132 0.285231 -0.344696
-0.203275 -0.232492 -0.381624
0.168951 0.217747 -0.390950
0.146038 -0.022094 -0.446901
-0.084995 0.106867 0.430252
0.062213 0.137546 0.421635
-0.033327 0.299283 -0.332308
0.235824 0.185799 -0.407110
0.240894 0.427157 0.125108
0.141351 0.127532 0.424545
0.231131 0.318357 -0.313961
-0.142524 -0.444316 0.017124
-0.239650 0.424160 0.135423
0.204151 -0.075614 -0.440884
0.189716 -0.102145 -0.435432
-0.229582 0.422788 0.139244
-0.023848 0.288785 0.337210
-0.033379 -0.354978 -0.270281
0.047293 -0.046486 0.440581
0.125859 -0.091328 0.433497
0.209403 -0.302582 -0.328496
0.163670 -0.049613 0.440285
0.149855 -0.032558 0.441897
0.053040 -0.381585 0.226348
0.163118 0.033457 0.441909
-0.239854 0.191349 0.400264
0.070185 0.425436 -0.135384
0.105510 0.445539 0.010812
-0.196778 -0.444638 -0.011243
-0.145378 0.376416 -0.241131
0.046046 -0.094962 0.432684
-0.076956 0.429868 0.115776
-0.184837 -0.288838 0.336259
-0.289276 -0.361680 -0.261307
0.188683 0.248285 -0.372088
-0.101684 0.445693 0.005930
-0.129534 -0.152555 -0.420259
-0.143040 0.404822 0.184549
0.087508 -0.442502 -0.046457
0.058386 0.267827 0.353926
-0.278240 -0.444416 0.013941
0.272018 0.401970 0.190589
-0.058213 -0.421121 -0.145381
0.036967 -0.356313 0.264206
0.041789 0.161346 0.413110
0.238384 0.405646 0.182647
0.214044 -0.393941 -0.208689
-0.253392 0.227646 -0.385096
0.189292 0.206741 -0.396775
-0.231409 0.443589 -0.045801
-0.243741 0.150453 -0.421385
-0.220046 0.222027 0.384066
0.090972 -0.003127 0.443144
-0.017872 0.420463 -0.150055
0.192209 -0.244157 -0.374197
0.255010 0.052832 0.440078
0.167858 -0.073237 0.436907
0.272477 0.197565 0.397097
-0.271690 0.444537 -0.035768
-0.279806 0.408198 0.176748
-0.251218 0.208502 0.391524
0.033026 0.312081 -0.320238
0.208023 0.198950 -0.400744
-0.045608 -0.377538 0.233189
-0.241981 0.085726 0.434978
0.128862 0.124858 0.425322
-0.094466 -0.296083 0.329872
-0.275872 -0.244016 0.369939
0.145043 0.020497 0.442630
0.198750 0.074490 0.436871
0.271274 -0.091687 0.433416
0.075727 0.438859 -0.080581
-0.010055 0.443402 0.043424
0.105567 -0.391692 0.208750
0.125415 -0.435037 -0.094571
-0.047690 -0.421871 -0.143298
-0.249404 -0.442817 0.038764
0.074683 -0.024156 0.442483
-0.093604 0.090975 -0.438158
-0.135379 -0.431198 -0.111745
0.067768 0.175957 0.407015
-0.138657 0.441977 -0.060894
-0.055960 -0.007872 -0.447348
0.159089 0.000993 0.443243
-0.017681 0.276967 0.346836
-0.284465 -0.200318 0.395172
-0.194483 -0.010750 -0.447258
-0.164731 -0.247356 -0.372023
-0.109169 -0.361823 0.256743
-0.162297 0.439572 0.071727
0.034745 -0.268587 0.352541
-0.071279 -0.431117 -0.112109
0.159308 -0.203055 -0.398131
0.241611 0.184250 0.403426
-0.160608 0.214304 0.388568
-0.206536 -0.441577 0.051882
-0.269135 0.147655 -0.422392
-0.206860 -0.375871 0.236008
-0.088525 -0.439486 -0.070152
0.212928 0.432847 -0.108952
-0.088806 -0.051030 0.440151
0.116126 -0.070673 0.437314
-0.118110 -0.440619 -0.062997
0.257838 0.079576 -0.440419
-0.263460 0.361631 -0.262887
0.018481 0.264456 0.356541
0.019988 -0.028874 0.442245
-0.239343 0.261421 0.358807
0.017198 -0.305490 -0.325804
-0.110612 0.291435 0.334873
-0.064466 0.046887 -0.444993
0.083306 0.444648 0.030240
0.191971 0.279620 0.344778
0.162468 0.062002 -0.443202
-0.092716 -0.090839 -0.437959
-0.202173 0.428667 -0.124262
-0.191428 -0.425004 -0.133345
0.233801 0.177322 0.406425
0.204926 -0.193939 -0.402775
-0.179955 0.307746 -0.324573
-0.185790 -0.106249 0.430161
-0.106776 -0.394860 -0.206886
0.131348 -0.010761 0.442904
0.021280 -0.102461 -0.435362
-0.053501 -0.291680 -0.338107
-0.254599 0.018164 -0.447057
-0.003586 0.378199 -0.238159
-0.020428 0.019760 0.442653
0.022189 0.444840 -0.032558
-0.013190 -0.310258 -0.321036
0.109994 -0.440922 -0.061087
-0.257319 -0.409886 -0.174833
0.101674 0.070300 -0.441888
0.054255 0.066154 -0.442545
0.138101 -0.403110 -0.190492
-0.254912 0.114576 0.428309
0.186036 -0.271526 -0.354615
-0.024132 -0.192011 -0.403758
-0.243051 0.120823 -0.430847
-0.040088 0.443078 0.046851
0.278914 -0.437204 0.080209
0.040577 -0.343212 0.281096
-0.028691 -0.009194 -0.447307
-0.149938 -0.255738 -0.366326
0.058905 -0.420610 0.142446
-0.239331 0.024424 -0.446860
-0.163546 0.325489 0.302440
0.178154 0.029950 0.442241
0.139980 -0.127830 -0.428514
0.194574 -0.324550 0.302343
0.136975 -0.255808 0.361926
0.245973 -0.357078 -0.267574
-0.070327 -0.433448 -0.101679
0.160853 -0.433609 -0.100958
-0.098203 0.397196 0.199958
0.131656 0.178414 0.405952
-0.264709 0.172369 -0.412921
-0.136734 -0.376555 0.234852
0.001079 0.188034 0.401789
0.119430 -0.228264 -0.384124
-0.278246 0.445825 0.001714
-0.199418 0.349262 -0.278971
-0.226288 -0.390339 0.211405
0.082398 -0.023153 -0.446868
-0.090129 -0.384214 0.221902
-0.042795 -0.154203 -0.419666
0.075077 0.443919 0.037955
-0.244443 -0.149668 -0.421298
0.097000 -0.414779 0.158643
0.103685 0.439034 -0.079480
-0.019034 0.445281 0.019028
-0.083467 0.379262 0.232008
-0.020191 0.440570 0.065425
0.220641 0.029668 -0.446621
-0.269273 -0.414314 -0.164287
0.040069 0.444996 0.026554
0.018767 0.423609 0.136963
-0.206095 0.011973 0.442898
0.035635 -0.373193 -0.244366
0.180517 0.380635 -0.234040
-0.055376 0.441967 0.056607
-0.006295 0.088038 0.434461
-0.095368 0.334590 -0.296471
0.047203 0.146160 -0.422930
0.052027 0.438200 0.080388
-0.175536 0.287673 -0.342543
0.132994 -0.038813 0.441306
-0.018838 0.128157 0.424363
0.086277 0.021583 -0.446950
0.096315 -0.347247 -0.280247
0.224358 0.351973 -0.275475
0.078007 0.403761 -0.191355
0.259339 0.224486 0.382612
0.172145 0.377225 0.235452
0.065515 -0.300781 -0.330083
-0.045547 -0.232464 -0.381641
-0.088590 -0.422201 0.138027
-0.288401 0.340930 -0.289279
0.014143 -0.428219 -0.122278
0.126047 0.442274 0.054669
0.112840 -0.437561 0.077957
0.162222 -0.008729 -0.447321
0.115929 -0.356138 -0.268785
-0.283643 0.141182 0.420369
-0.288202 0.160024 -0.417939
0.062191 -0.015587 0.442752
0.067752 -0.313069 0.313871
0.062252 -0.130722 -0.427674
0.275548 -0.105698 0.430285
-0.260078 -0.052257 0.440035
0.010016 -0.436162 0.085183
0.215781 0.323449 -0.308869
-0.165143 -0.195970 -0.401741
-0.284268 0.383607 0.224661
0.102793 0.445637 -0.012047
0.209221 0.445467 -0.017449
0.085480 0.111853 -0.433453
-0.101656 0.431912 0.108741
0.236386 -0.443852 0.027817
0.133581 -0.039806 -0.445565
-0.185030 -0.092991 -0.437478
-0.186464 -0.374937 0.237447
0.235359 -0.398084 0.196205
-0.169794 0.385792 0.220966
-0.078696 -0.400479 0.191503
-0.115680 -0.216365 -0.391162
0.092218 0.198317 -0.401067
0.051671 0.332582 -0.298748
0.182727 0.090797 0.433844
0.024935 0.300673 0.326729
-0.179099 0.428926 -0.123371
0.174079 -0.287664 -0.341647
0.023927 0.177511 -0.410696
-0.212157 0.003122 -0.447530
0.104689 0.150898 0.416871
0.039099 0.378902 0.232617
-0.203385 -0.016760 0.442715
-0.258297 0.445858 0.000660
-0.276259 0.154058 0.415733
0.221876 -0.213519 -0.392799
-0.279344 0.437949 0.081776
-0.176045 0.040932 -0.445556
-0.171303 -0.400711 -0.195403
0.286725 -0.090912 -0.437943
-0.190030 0.441121 -0.066301
-0.227743 -0.395396 0.201480
-0.041531 -0.428642 0.116468
-0.247149 -0.386081 0.218744
-0.210492 -0.224252 -0.386497
0.030857 -0.231975 -0.381930
-0.183604 -0.393276 0.205641
-0.259555 -0.410103 0.169977
0.253991 -0.444743 0.003527
0.016139 0.058738 0.439366
-0.084975 -0.098465 0.431901
-0.112812 -0.130793 -0.427653
0.152378 0.426535 0.127249
0.179805 0.445629 -0.012303
0.273438 0.392484 0.209206
0.255061 0.414450 0.162301
0.252843 0.331058 0.296124
-0.077698 0.441350 0.060500
-0.004312 -0.426615 0.123446
0.150216 -0.375510 -0.240957
-0.045741 0.387275 0.218458
0.271714 -0.075224 -0.440946
-0.120540 0.321826 0.306139
0.001514 -0.419361 -0.150269
-0.210204 -0.346947 -0.280634
0.023863 -0.287438 0.337493
-0.238776 0.251068 0.365843
-0.177972 -0.008122 -0.447340
0.261240 -0.095320 0.432604
-0.179857 -0.388991 -0.218177
0.110874 0.422163 0.140978
-0.007227 0.199973 0.395870
-0.087226 0.300547 -0.331193
-0.144604 0.124119 0.425536
-0.220297 0.266146 -0.359583
-0.027440 -0.401360 0.189774
-0.268758 0.445889 -0.000324
0.239055 0.359972 -0.265163
0.099242 -0.258328 0.360213
0.056349 0.445726 -0.009219
0.206709 0.107506 0.430109
-0.134121 0.226709 -0.385650
-0.211950 -0.263579 0.356426
-0.258926 0.440186 -0.072203
-0.200382 0.378522 0.233259
0.186643 0.268393 -0.357840
-0.132031 -0.236144 -0.379465
-0.244884 0.327585 -0.304416
-0.203814 0.117663 -0.431765
-0.210382 0.372532 -0.246847
-0.171233 -0.290155 0.335098
0.115226 0.080868 -0.440215
-0.183514 -0.199221 0.395731
0.070354 0.312274 0.315691
0.146660 -0.432580 -0.105563
-0.151516 -0.008421 0.442978
-0.091242 0.424681 -0.137983
0.277807 -0.133426 0.422535
-0.140483 -0.315056 0.311884
-0.160293 -0.286643 -0.342547
-0.008771 0.166942 -0.415270
-0.085699 0.165854 0.411387
0.267181 0.441821 0.057528
0.166492 -0.329373 0.296872
0.200939 0.390378 0.213211
-0.048138 -0.141950 0.419724
0.234014 0.444628 0.030454
-0.211490 0.214810 0.388310
0.041593 -0.139781 0.420504
0.020033 -0.175085 0.406949
-0.219095 -0.073064 -0.441288
-0.118926 0.378656 -0.237386
0.286251 -0.441854 0.048958
0.212206 0.279584 0.344807
-0.146712 -0.283547 -0.345277
-0.274214 0.445044 0.026049
0.073961 0.211567 0.389962
0.132279 -0.299270 -0.331415
0.193835 0.185246 -0.407349
0.284665 0.253892 -0.368278
0.045760 0.325232 -0.307086
-0.206713 -0.140319 0.420311
-0.180765 0.277077 -0.351105
0.269833 0.374819 0.239129
0.156224 -0.444810 0.001402
-0.274356 -0.151921 0.416134
-0.261305 -0.417808 -0.154583
-0.113938 0.040540 0.441240
0.119912 -0.416411 0.154109
-0.044545 0.219038 -0.390187
0.269469 0.023771 -0.446881
-0.086222 -0.189161 0.400857
0.000871 0.337984 0.288267
0.131734 -0.367487 -0.252763
0.165656 -0.229167 -0.383590
-0.273070 -0.110079 0.429305
0.264327 0.290123 -0.340383
0.023948 -0.092611 -0.437563
0.215437 0.379720 0.231234
0.224594 -0.165737 -0.415348
-0.280706 0.407255 -0.183281
-0.277803 -0.346889 -0.280709
-0.221198 0.060108 -0.443502
0.082327 0.303012 -0.329020
-0.159969 0.268867 -0.357473
0.084487 -0.185520 0.402433
0.129876 0.347146 -0.281698
-0.076992 -0.108568 -0.433996
0.058549 -0.195283 -0.402091
0.017581 0.420069 0.146796
0.245691 -0.418770 0.147558
0.009751 -0.444169 0.021804
-0.181615 -0.177142 -0.410413
0.006667 0.242286 -0.376165
0.221295 0.078268 -0.440626
0.157257 0.438977 0.075483
-0.187322 -0.194703 -0.402386
0.032403 -0.326991 0.299574
-0.260540 0.055439 -0.444185
-0.000842 -0.109980 -0.433681
0.066336 0.445102 0.024733
-0.267544 0.275333 -0.352457
0.113259 -0.344508 -0.283778
0.025124 0.439579 -0.076039
0.180864 0.333617 0.293221
0.149137 -0.323963 0.302977
0.052550 -0.433885 -0.099726
0.144162 0.238175 -0.378869
0.125806 -0.401137 -0.194566
-0.196346 -0.314608 -0.316686
0.274705 0.352531 0.270403
0.176732 -0.436098 0.085471
-0.163190 0.314797 -0.317522
-0.149010 -0.390609 -0.215228
-0.107654 -0.108813 0.429588
-0.137082 0.427256 0.124765
0.209736 -0.428462 0.117089
0.201231 -0.046666 0.440564
0.267769 0.149001 0.417554
0.120635 0.192882 0.399483
-0.109121 -0.074322 -0.441089
-0.065090 0.445911 -0.003347
-0.137589 -0.438979 -0.073358
-0.074664 -0.233178 -0.381219
0.000662 -0.209374 0.390558
0.267184 0.313821 -0.318498
0.072563 -0.054431 -0.444183
0.044681 -0.032382 0.441914
0.093915 0.132711 0.423040
-0.134626 0.256541 -0.366477
-0.149286 -0.245037 -0.373599
0.273731 -0.006918 0.443025
-0.106252 0.052841 -0.444430
-0.131442 0.125363 -0.429528
0.060168 0.307318 0.320647
0.104117 0.205302 -0.397508
0.208177 -0.382947 -0.228397
0.003198 0.365817 0.252374
0.286002 0.417865 -0.157271
0.073457 0.013837 0.442840
-0.002323 -0.273678 -0.352946
0.261303 0.373248 -0.245793
-0.086125 -0.283681 -0.345159
0.014342 0.383300 -0.229534
0.166807 0.273068 0.349861
0.242784 -0.218080 0.385794
0.047793 0.412772 0.166178
0.234511 0.202302 0.394683
-0.190455 0.363418 0.255904
0.211912 -0.444156 -0.026583
0.052010 0.256470 0.362172
-0.142440 -0.418218 -0.153445
0.211903 0.044527 0.440863
0.089509 -0.194337 0.398219
-0.011295 0.426270 0.128159
-0.260906 0.436273 0.089272
-0.259429 -0.444191 0.021121
-0.106009 -0.440112 0.061845
0.147854 0.054571 0.439913
0.172067 -0.423823 -0.137411
-0.100738 -0.272599 0.349430
0.273553 0.411668 0.168730
-0.202954 -0.328574 -0.302131
0.018015 -0.206076 0.392238
-0.150558 0.403357 -0.192221
0.235692 -0.414270 -0.164408
-0.112019 0.445585 0.009369
0.025117 -0.118889 0.426758
0.128779 -0.418646 0.147901
-0.014798 -0.142359 -0.423930
-0.050712 -0.364133 0.253344
0.221964 -0.156853 -0.418711
0.108417 -0.333373 0.292335
0.217255 -0.430390 0.110451
-0.073629 0.411594 -0.173254
-0.168522 -0.435501 0.088141
-0.079235 -0.351529 -0.274727
0.013399 0.374368 -0.244146
0.023275 0.331443 0.295686
-0.062711 -0.225550 -0.385730
0.176205 0.349871 -0.278185
-0.250967 -0.091166 -0.437886
0.171738 0.082818 0.435552
-0.105128 -0.430083 0.111509
-0.253234 0.075080 -0.441131
-0.125938 -0.137182 0.421440
0.121646 -0.444069 -0.029339
-0.126508 0.426509 -0.131693
-0.111843 0.002497 0.443196
-0.212184 -0.306965 0.319975
0.269645 -0.444074 -0.029192
0.156104 0.197290 0.397237
0.002265 -0.427762 -0.123852
0.000326 0.429461 -0.121531
0.205457 0.002450 -0.447551
-0.027290 -0.265796 -0.359060
-0.077925 0.269081 -0.357307
-0.128129 -0.034015 -0.446113
0.045418 -0.439278 0.067115
-0.166562 0.260166 -0.364013
0.121111 0.342543 -0.287450
-0.231950 0.214733 -0.392703
-0.201548 0.022718 0.442560
-0.206910 0.445200 0.021617
-0.041156 -0.087560 -0.438692
-0.265824 0.420006 0.146970
0.165304 0.381310 -0.232899
-0.147339 0.325442 0.302493
0.255161 0.444242 0.034535
-0.019270 0.010814 -0.447288
0.155325 0.395864 -0.206926
0.068174 0.408456 0.176151
0.208603 0.298526 -0.332975
-0.005106 0.444817 -0.032802
0.184410 0.096708 -0.436877
-0.198239 -0.406110 -0.183558
0.071895 -0.269519 0.351818
0.210362 0.099165 -0.436327
-0.151233 0.393570 0.207076
-0.259037 -0.247499 -0.371926
0.220852 -0.174496 -0.411557
0.265784 0.343875 -0.285916
-0.208239 0.186590 -0.406767
-0.243401 0.029899 0.442245
0.079138 -0.423035 0.135712
-0.195077 0.215954 -0.392011
0.048268 -0.432134 0.103208
-0.204708 -0.020617 -0.446948
0.214823 0.401032 -0.196784
0.250695 0.064565 0.438443
0.141653 -0.220741 -0.388573
0.164448 0.331412 -0.300075
-0.195034 0.228019 0.380522
0.221385 -0.057998 -0.443674
0.286185 0.258366 0.360883
0.015010 0.326487 -0.305662
0.239383 -0.432853 0.099991
0.038059 -0.444837 0.000536
0.236827 0.431557 -0.114317
-0.222512 -0.190740 -0.404406
0.096710 -0.330546 0.295542
0.033791 -0.012891 0.442837
-0.163718 0.410645 -0.175448
0.275915 -0.116952 0.427321
0.029974 -0.033421 -0.446169
0.253232 0.430815 -0.116870
0.176622 -0.366970 0.249169
0.210947 0.427376 -0.128708
0.050149 0.077151 0.436450
-0.217783 -0.443641 -0.034401
-0.123219 0.090669 -0.438226
-0.011952 -0.381145 -0.231444
-0.165493 -0.266228 -0.358725
0.056370 -0.315678 -0.315615
0.015312 0.198216 0.396765
0.149285 0.434925 -0.099657
-0.102042 0.215240 -0.392433
-0.003319 0.445579 0.009545
-0.261255 0.412632 0.166502
-0.218248 0.215916 -0.392033
0.147766 0.090515 0.433907
0.264139 -0.110708 -0.433488
0.240163 0.392393 0.209385
0.118446 -0.129688 -0.427974
0.058567 0.027286 0.442417
0.038616 0.040816 -0.445567
0.258191 0.442626 -0.055987
-0.283854 -0.102335 0.431036
-0.047633 -0.390777 0.210545
-0.214337 0.435016 -0.099251
0.120492 -0.244451 0.369644
0.048821 0.163559 -0.416666
0.182948 0.416776 -0.160296
-0.288065 0.364719 -0.258343
0.185666 -0.051256 0.440130
0.217755 -0.441222 -0.059190
0.002499 0.206227 -0.397036
0.056337 0.347076 -0.281789
-0.100872 0.156287 -0.419284
-0.229726 0.395885 0.202533
0.264030 0.259220 0.360303
-0.112639 0.085690 -0.439339
-0.037920 -0.340845 0.283860
0.065998 -0.438608 -0.075699
-0.223457 -0.162174 -0.416796
0.136075 0.378656 -0.237386
0.068186 -0.440279 -0.065144
0.230356 0.443952 -0.041953
-0.184309 0.027870 0.442399
0.161384 0.400431 -0.197963
-0.087278 0.433506 -0.106006
0.203107 -0.269819 -0.355939
-0.117566 0.279673 -0.349090
-0.105554 0.388604 0.216210
-0.174660 0.399287 -0.200209
0.018843 -0.390487 -0.215468
0.268810 0.345739 0.279160
0.039259 0.181324 0.404693
-0.186940 -0.423118 0.135479
0.181418 -0.302914 -0.328203
-0.233651 -0.236098 0.375138
0.203470 0.291223 -0.339413
0.039786 -0.179077 0.405222
0.184289 -0.381666 -0.230563
0.009242 0.090279 -0.438314
0.129984 0.246109 -0.373567
-0.229770 0.379016 0.232424
0.038830 0.423292 0.137842
0.154988 0.445447 0.013739
-0.272073 -0.170838 0.408787
0.281116 0.380889 -0.233610
0.228073 -0.201059 -0.399148
0.125972 -0.116151 -0.431907
-0.179386 0.189914 0.400975
-0.048705 0.186981 -0.406598
0.047979 0.377325 -0.239637
-0.012548 0.208985 0.391278
0.285306 0.390131 0.213628
0.186481 -0.420620 -0.146773
-0.055777 -0.438536 0.071796
0.286810 0.352736 0.270139
0.198104 -0.215602 -0.391613
0.203056 0.336212 -0.294630
0.172733 0.442540 0.052540
-0.029098 -0.120833 -0.430547
-0.178763 0.441332 0.060613
0.065780 0.351267 -0.276386
0.166145 -0.125491 0.424840
0.175310 0.406551 -0.184907
0.094744 -0.444299 0.017678
-0.040496 0.116418 -0.432127
-0.160665 -0.442210 0.045189
0.283167 0.280988 -0.348071
0.014770 0.061521 -0.443279
-0.215838 0.257546 0.361441
0.274712 -0.176568 0.406308
-0.052286 -0.444484 -0.016137
0.006117 0.082270 0.435639
-0.254772 0.217898 0.386507
0.286273 0.056386 -0.444092
-0.065993 0.383137 0.225455
0.035668 -0.120702 -0.430585
0.227216 0.210155 0.390682
-0.176869 0.343796 0.281664
0.210600 -0.432205 0.102886
-0.138477 -0.028085 -0.446673
0.155719 0.380047 0.230679
-0.080992 -0.432130 -0.107578
0.006006 0.152567 -0.420624
0.124186 -0.375048 -0.241636
-0.176594 -0.422740 0.136530
-0.150004 0.058167 0.439457
-0.261829 -0.213830 0.388287
-0.161473 0.186728 0.402354
0.222418 -0.260987 -0.362759
-0.032990 0.444304 0.033874
0.020752 -0.444219 0.020214
-0.152571 0.266212 0.355179
-0.117877 -0.193345 0.398725
0.214793 0.347703 0.276627
0.057492 -0.371059 0.243153
-0.060019 0.441712 -0.062571
-0.149440 -0.430427 -0.114677
0.234053 -0.419159 0.146476
0.256190 -0.417623 -0.155097
-0.263452 0.074605 0.436853
-0.207366 0.292198 -0.338554
-0.274614 -0.422296 -0.142115
0.166839 -0.444815 -0.005609
0.227866 -0.317959 -0.313335
-0.134446 0.147490 -0.422451
-0.128859 0.441436 -0.064310
0.220822 -0.390239 -0.215955
-0.026096 -0.440930 0.056686
-0.018967 0.402771 0.189017
-0.280291 0.302644 0.324991
0.161547 -0.380965 -0.231748
-0.175680 0.049659 0.440377
-0.290100 0.229241 -0.384153
0.015336 -0.215023 -0.391956
0.130796 -0.275027 -0.351900
-0.256002 0.408467 0.176127
0.131119 -0.112698 0.428557
-0.246600 -0.077528 0.436228
-0.087353 0.149010 0.417551
0.167413 0.006247 -0.447432
0.251033 0.243576 0.370935
0.229111 0.154775 -0.419829
0.203138 -0.443496 0.031582
-0.198619 0.334558 -0.296507
-0.066820 -0.199851 0.395410
0.076442 0.236065 0.375764
0.264701 0.032698 0.441981
-0.274676 -0.015868 0.442744
0.041968 0.333711 0.293114
-0.191046 0.108157 0.429964
-0.153658 -0.434114 0.094348
-0.132048 -0.358838 -0.265304
0.182560 -0.060259 -0.443316
0.164501 -0.411190 -0.171821
-0.260100 0.040885 0.441207
-0.215977 0.439447 -0.076870
0.199963 -0.316831 0.310109
0.197423 -0.442432 -0.047197
-0.144923 -0.380940 -0.231790
-0.086107 -0.061097 0.438830
-0.002797 0.247566 0.368223
0.096807 0.225490 -0.386371
-0.011067 -0.419876 0.144486
0.093720 0.396974 0.200395
-0.202533 -0.003453 -0.447487
0.035890 -0.189726 -0.404922
-0.086611 -0.291726 -0.338066
0.042556 -0.307390 0.319551
-0.118662 -0.129311 0.423730
0.206673 0.168413 0.410280
-0.161361 0.412828 0.166050
0.079173 -0.343341 -0.285282
0.003961 0.314603 0.313362
-0.045667 0.089084 -0.438581
0.204790 0.443057 -0.051429
-0.290123 -0.435669 -0.091746
0.261436 0.365817 -0.256728
0.243030 0.194969 -0.402773
0.031740 0.007586 0.443036
-0.063743 0.418605 0.150862
0.270773 0.043717 -0.445293
0.070935 -0.009480 0.442944
0.096826 -0.184160 0.403022
0.252326 0.427441 0.124129
-0.274616 -0.120087 0.426410
0.174477 0.400410 -0.198005
-0.278085 0.211628 -0.394285
0.031917 0.055938 0.439784
-0.003426 0.100543 -0.436019
-0.035063 0.039866 -0.445657
-0.010886 0.377738 0.234585
0.101444 -0.373356 -0.244126
0.195455 0.376893 0.236014
-0.107099 -0.416775 -0.157452
0.237637 0.018911 -0.447034
0.182579 0.378033 0.234086
0.056643 -0.431424 -0.110733
0.215037 -0.398358 -0.200020
-0.154455 -0.017732 0.442685
0.066294 -0.286444 0.338369
0.124889 -0.229665 0.378943
0.247072 -0.413963 0.160909
0.253990 0.204379 0.393625
-0.143928 0.307384 0.320581
0.154236 -0.293309 -0.336671
0.285445 -0.414553 0.159270
0.072467 0.080396 0.435936
0.190243 -0.426071 0.125316
0.012236 0.212722 -0.393727
-0.266263 -0.292952 0.332632
0.270678 0.305132 -0.327151
0.122702 -0.259796 -0.363568
-0.208996 0.098480 -0.436481
-0.158316 0.063329 -0.442992
-0.107099 0.154297 0.415647
0.014839 -0.194317 -0.402583
-0.200103 -0.363252 0.254641
-0.147823 0.339956 -0.290384
-0.199522 0.409689 -0.177657
-0.130178 -0.260668 0.358623
-0.201955 -0.425428 -0.131886
0.264865 -0.439743 -0.068534
0.253504 -0.163730 0.411863
0.259597 0.422901 0.138929
-0.140670 -0.049169 -0.444680
0.149808 0.005494 -0.447455
-0.122457 0.426534 0.127252
0.250850 0.391225 0.211677
-0.205087 -0.079841 0.435861
-0.004428 -0.146373 0.418131
-0.036489 0.128982 -0.428477
-0.161935 -0.273797 -0.352854
0.129629 0.184493 -0.407675
0.185236 -0.290160 -0.339447
0.003176 0.392044 -0.214423
-0.181289 -0.281703 0.342367
0.095581 -0.444194 -0.025365
0.239781 0.329027 0.298427
-0.208223 -0.284100 0.340436
-0.280609 0.257000 -0.366165
0.146769 0.116722 0.427685
0.220006 -0.367985 -0.252030
0.150018 0.069423 0.437674
0.035848 0.313982 0.313983
-0.041486 0.010108 0.442957
0.274863 0.230379 -0.383480
0.245331 0.118524 -0.431515
-0.236233 0.143579 -0.423859
-0.151489 -0.444791 -0.006371
0.209686 -0.211952 -0.393598
-0.248735 -0.129922 -0.427906
-0.282534 0.274345 0.348870
0.038255 -0.434635 0.092018
0.238105 -0.287921 0.337068
-0.246204 0.208861 -0.395695
-0.151684 -0.367165 -0.253236
-0.289289 -0.336224 -0.293455
0.212048 0.414929 0.161072
0.058079 0.440054 -0.073036
-0.061806 -0.116157 -0.431905
-0.289117 0.107048 0.430212
0.183558 -0.298307 0.327911
0.028725 -0.141422 0.419914
0.279102 0.230293 0.379177
-0.081013 -0.250644 0.365435
0.278269 0.074083 -0.441289
0.042501 -0.397594 -0.201520
-0.199253 0.334128 0.292641
0.208908 0.182602 0.404140
-0.089356 0.182026 0.404389
0.019686 0.356427 0.265380
-0.062570 0.020511 -0.446983
0.163331 0.099470 -0.436259
0.018227 -0.444346 -0.020531
-0.072166 0.355082 0.267114
0.186838 0.143781 -0.423787
-0.151450 0.273924 0.349196
0.098824 0.439631 0.071355
-0.052195 0.219201 0.385737
0.058197 0.287518 -0.342679
-0.044228 0.394984 -0.208653
-0.086589 -0.028932 0.442240
0.219903 0.344063 -0.285673
0.238903 0.445701 0.005655
0.091470 0.147947 -0.422287
0.259231 -0.189643 0.400611
0.108952 -0.008073 0.442988
-0.178688 0.255531 0.362810
0.166649 -0.439327 0.066806
-0.048193 -0.199351 -0.400018
-0.210574 0.381663 0.227948
0.282420 0.028409 0.442382
-0.266025 0.442411 0.053805
-0.254961 0.398970 0.196477
0.112949 0.311758 -0.320561
-0.278226 0.282299 -0.347054
-0.286544 0.195041 0.398383
0.110106 -0.323519 -0.307774
0.218510 0.070479 0.437507
-0.137644 0.217866 -0.390880
-0.119783 -0.250939 -0.369588
-0.113136 0.177808 -0.410567
0.076025 -0.436617 0.083151
-0.112005 -0.211246 0.389604
0.086521 0.431362 0.110633
-0.169002 -0.425284 -0.132380
0.214478 0.444143 0.035578
-0.160913 0.117196 -0.431901
-0.066634 0.220448 0.384999
-0.209134 -0.232741 0.377123
0.027564 -0.052918 0.439973
0.075328 0.069780 -0.441971
0.193618 0.381913 -0.231878
0.236032 -0.325236 0.301564
0.202805 -0.414845 -0.162811
0.111818 0.125123 -0.429598
0.118525 0.399970 0.194515
0.136087 0.151354 -0.421060
0.065293 0.066063 0.438206
0.025615 0.026757 -0.446787
0.020798 -0.372392 -0.245546
0.011459 -0.341963 -0.286945
-0.045427 0.444115 -0.040230
0.197123 0.327980 0.299614
0.161970 0.322518 0.305447
0.089083 -0.431665 -0.109658
0.165577 0.292008 0.334368
-0.185008 -0.031597 -0.446341
0.164556 -0.173922 0.407452
-0.009918 -0.428690 -0.120658
0.279106 -0.052304 0.440031
0.102322 -0.355543 0.265199
-0.165200 -0.418205 0.149125
-0.251670 0.433671 -0.105268
-0.079158 -0.004953 -0.447440
0.180128 0.214943 0.388242
-0.079033 -0.042622 -0.445299
0.109801 -0.138908 0.420819
-0.094132 -0.280376 0.343397
-0.143866 -0.336811 -0.292789
0.053895 0.283878 0.341476
-0.245599 0.428109 0.121830
-0.240988 0.340740 0.285141
0.032950 -0.135254 -0.426357
-0.254831 0.145492 0.418817
-0.012728 -0.443517 0.031368
-0.193071 0.439153 -0.078729
-0.052049 0.011144 -0.447278
0.000912 -0.170629 0.408877
-0.002973 0.232326 0.377975
-0.256941 -0.090042 0.433784
0.094658 0.347378 -0.281399
-0.259430 -0.167930 0.410046
-0.134757 0.142334 0.419954
0.055761 -0.068929 0.437590
-0.118903 0.435782 0.091468
0.187258 -0.434642 -0.096339
0.192883 -0.229594 -0.383338
-0.216521 0.445568 0.009882
-0.248754 0.428275 -0.125613
0.203753 0.431779 -0.113551
-0.265328 0.110709 0.429393
-0.054339 -0.173272 -0.412087
0.068770 0.271414 0.351144
0.204801 0.349027 0.274921
0.184883 0.432975 0.104029
-0.075862 -0.402251 -0.192381
0.158018 0.232603 -0.382165
0.200536 -0.059358 0.439106
0.237974 0.438822 0.076464
-0.267787 -0.254996 -0.366831
0.160932 -0.175571 -0.411092
0.105724 -0.041441 -0.445411
-0.135520 0.247083 0.368551
-0.176167 -0.380891 0.227521
-0.060088 -0.143407 -0.423552
0.052682 0.320167 0.307798
-0.137334 0.444790 0.028734
0.223953 -0.443049 -0.040666
-0.211138 -0.396975 -0.202735
-0.167386 0.435844 -0.095544
-0.008111 -0.416731 -0.157575
-0.057826 0.321500 0.306465
-0.096402 -0.419424 0.145740
0.059632 -0.255275 -0.366641
-0.092236 0.405430 0.183145
-0.227014 -0.021715 -0.446913
0.244639 -0.048640 0.440377
0.008162 -0.074286 -0.441095
-0.201946 0.194819 0.398496
0.051366 0.382176 0.227081
-0.025127 0.427106 -0.129637
0.190803 -0.399934 -0.196926
-0.242889 0.085567 -0.439367
0.096233 0.253115 0.364452
-0.259406 -0.442588 0.041190
-0.001978 0.442561 0.052320
0.127418 0.375280 0.238450
0.202010 0.337810 0.288465
-0.232979 -0.268345 -0.357082
0.242777 -0.422449 -0.141690
-0.213140 -0.361213 0.257642
0.092333 0.330613 -0.300982
0.175090 0.290945 -0.339659
0.080934 -0.252045 -0.368836
0.201963 -0.204021 -0.397638
-0.096186 -0.283475 -0.345340
0.001753 0.053805 0.439986
0.143071 0.177075 -0.410885
-0.237097 -0.202462 0.394080
0.202844 0.167900 -0.414855
-0.191513 -0.326565 0.300057
0.282184 0.414369 0.162489
-0.231838 -0.406424 0.178481
0.057146 0.007925 0.443025
-0.041197 -0.129344 0.423721
0.111459 -0.073518 -0.441216
-0.057272 0.283692 -0.345973
-0.025276 0.226535 -0.385753
0.047187 -0.231229 0.378018
0.211239 0.372405 0.242680
-0.095166 -0.407379 0.176274
-0.205022 -0.369687 0.245172
0.050667 -0.103814 -0.435059
-0.191329 -0.353426 -0.272281
-0.016721 -0.082061 -0.439863
0.171331 0.209313 -0.395464
0.067486 0.022153 -0.446932
-0.040207 0.333289 0.293592
-0.006732 -0.363759 0.253895
0.221504 0.195642 -0.402430
0.252715 0.360646 0.259941
0.097662 0.053714 0.439994
-0.022789 0.042335 -0.445423
0.251593 -0.384915 0.220716
-0.246050 -0.366245 0.250236
0.170997 -0.437805 0.076416
-0.063097 -0.372802 -0.244942
-0.105446 0.224698 0.382486
0.233296 -0.442307 -0.048522
0.269081 0.092694 0.433420
-0.220757 0.390609 -0.217175
0.068877 -0.406023 -0.183761
0.222788 -0.444487 0.011690
0.231301 -0.432931 -0.103994
0.268554 0.366773 0.250968
0.161298 0.443766 -0.043920
0.212275 -0.133705 0.422454
0.197497 0.445557 -0.014584
-0.198895 -0.440358 -0.064651
0.180058 0.049318 -0.444763
-0.236392 -0.444248 -0.023654
-0.289297 0.326993 -0.305087
0.056009 0.101243 0.431509
-0.028995 0.430609 0.113225
0.120865 -0.431204 -0.111719
-0.263469 -0.332471 -0.297712
0.136137 -0.321414 0.305526
0.097191 -0.023341 -0.446862
0.100293 0.430475 -0.118040
0.156988 -0.060041 0.438997
0.038639 -0.274267 -0.352489
-0.234860 0.336914 -0.293834
0.097183 0.418256 0.151831
-0.287665 -0.113778 0.428243
-0.042446 0.349162 0.274746
0.000204 -0.438760 0.070385
-0.042955 0.164700 0.411887
0.223661 -0.286530 0.338293
0.159659 0.441770 -0.062206
-0.155205 -0.131913 -0.427328
0.169503 0.431277 0.110927
-0.079599 -0.206683 -0.396282
-0.253408 -0.325378 0.301403
-0.256935 -0.398381 -0.199975
-0.021034 -0.373121 0.240119
0.191252 0.351587 0.271621
-0.124403 -0.415786 -0.160200
0.205826 -0.061561 -0.443110
0.183435 -0.430636 -0.113957
-0.255657 -0.157110 -0.418619
0.134806 0.435744 -0.095991
-0.176934 -0.254012 0.363146
-0.041442 -0.116686 0.427398
0.119731 0.051371 0.440216
-0.071023 0.123385 -0.430103
0.017403 0.077582 0.436382
0.142400 -0.411549 0.166638
-0.155895 0.435540 0.092552
-0.151468 0.441028 0.062533
-0.181658 -0.424434 -0.135305
0.098640 -0.178376 -0.409878
-0.071970 -0.420074 -0.148288
-0.249364 -0.287518 -0.341776
-0.188343 -0.295247 -0.334962
0.283486 -0.266606 0.354078
0.183122 0.386372 -0.224338
-0.070005 0.443962 -0.041855
-0.075376 0.138354 0.421387
-0.035593 -0.017280 0.442699
-0.039956 0.358048 -0.267643
-0.105952 -0.123392 -0.429803
-0.028907 -0.389573 -0.217193
0.283391 -0.207478 0.391524
0.055488 -0.440614 0.058675
-0.135910 0.291799 -0.338905
-0.264010 0.081578 -0.440102
-0.056583 0.031438 -0.446453
-0.011833 -0.208802 0.390849
0.102350 -0.439094 -0.072631
-0.047443 0.394249 0.205743
-0.289528 0.285137 0.340425
-0.195796 -0.100017 -0.435908
0.211201 0.438127 0.080853
0.253254 0.030042 0.442232
-0.225217 -0.430047 0.111632
0.215654 -0.104411 -0.434926
0.151225 -0.052006 0.440059
-0.063882 -0.291095 -0.338623
-0.168673 0.372298 -0.247192
-0.124489 0.361956 0.258055
-0.154574 0.143371 0.419581
-0.119776 0.288319 -0.341973
0.267039 0.423500 -0.141618
-0.032980 0.372180 0.243012
0.214772 -0.420517 -0.147057
-0.086542 0.068014 -0.442250
0.062123 0.384305 0.223481
0.183157 0.225901 0.381775
0.210447 -0.317975 0.308965
-0.187696 -0.435217 -0.093767
0.247085 -0.178078 0.405654
-0.082138 -0.033210 -0.446189
0.216417 -0.308409 -0.322885
-0.246583 -0.374219 0.238504
0.088002 -0.241020 0.371975
-0.198859 -0.291929 -0.337887
0.186637 -0.000771 -0.447571
-0.088222 -0.397750 0.196859
-0.137870 -0.333219 0.292509
-0.114152 0.079952 0.436006
0.102075 -0.437980 0.075307
0.014947 -0.102202 0.431066
-0.008020 -0.380653 0.227923
0.083610 0.242219 -0.376210
0.012027 0.189852 0.401003
0.134399 0.442879 -0.053306
0.238492 -0.193238 0.398779
0.285482 -0.384137 -0.226385
0.137879 -0.124128 0.425236
-0.152741 0.421632 -0.146806
0.078907 0.181772 0.404499
-0.201447 0.249773 0.366723
0.045249 0.001642 0.443223
0.100420 0.422727 0.139414
-0.115035 -0.387193 0.216865
-0.160405 0.011118 -0.447279
-0.141507 0.221882 0.384151
-0.243302 -0.369569 -0.249699
0.210433 0.145531 -0.423157
0.140601 0.288624 -0.341704
0.143705 -0.442318 0.044049
0.128212 0.128513 -0.428613
-0.186306 -0.263648 0.356372
-0.240208 -0.323058 -0.308236
0.196605 -0.434315 0.093450
-0.077222 -0.310614 0.316327
0.046589 0.439843 -0.074370
-0.248543 0.286981 0.338799
-0.195965 -0.381425 -0.230970
0.242024 -0.422617 0.136873
0.062954 0.072227 -0.441583
-0.227497 0.246969 -0.372983
0.242623 0.432390 0.106645
-0.008693 0.419254 -0.153412
0.146144 -0.285495 0.339206
-0.141754 0.400826 -0.197188
-0.164477 -0.061115 -0.443181
-0.174036 0.098696 -0.436432
0.084352 0.422093 -0.145527
-0.063573 0.091891 -0.437953
0.120741 0.321368 0.306598
-0.103572 -0.300083 0.326345
-0.123913 -0.164222 -0.416003
0.282477 -0.026852 -0.446752
0.090077 -0.231457 0.377883
0.009968 -0.031578 0.441990
-0.070656 0.008799 -0.447351
-0.287812 -0.390813 -0.214828
-0.067444 -0.410899 0.168139
-0.026046 0.413383 0.164766
-0.288251 0.394680 0.204897
0.246404 0.371499 0.244013
-0.075005 0.365108 -0.257771
-0.267046 0.255737 0.362670
-0.101857 -0.411074 0.167735
0.156973 -0.430157 0.111253
-0.165726 -0.428036 -0.122909
0.113593 0.238449 0.374354
0.072064 -0.142867 -0.423747
0.167792 -0.415151 -0.161962
-0.160336 0.213211 -0.393478
0.134163 -0.143430 0.419191
0.056069 0.328215 0.299348
0.126199 -0.083883 -0.439514
0.215241 -0.433659 -0.100736
-0.218712 0.377951 0.234224
0.198482 -0.090388 -0.438060
0.134950 0.063065 -0.443034
0.123211 -0.323806 0.303134
0.130644 -0.425072 -0.133109
0.101798 -0.208459 0.391024
-0.239212 -0.283601 -0.345230
-0.067944 0.163205 0.412440
0.265103 0.262993 -0.362029
0.172781 -0.408337 0.174059
-0.264306 0.169809 0.409676
-0.044280 -0.400308 -0.196192
-0.184209 0.372296 -0.247194
0.238976 -0.317930 -0.313364
-0.210401 0.443333 -0.048500
0.052274 0.098669 -0.436438
0.213170 0.012356 -0.447240
0.140611 -0.417549 0.150947
0.158670 0.445783 0.003042
-0.098523 0.169040 -0.414362
-0.190339 0.189995 0.400940
0.034397 -0.201866 -0.398736
0.243367 0.247337 -0.372732
0.090339 0.382481 -0.230918
-0.243912 -0.135610 0.421900
-0.140201 -0.146498 0.418086
0.010766 -0.242418 0.371026
-0.186758 0.381542 0.228153
-0.266274 0.314093 -0.318225
-0.282420 0.369093 0.247554
-0.218638 -0.333219 -0.296863
-0.047708 -0.444144 -0.026949
0.238825 0.089681 -0.438447
-0.028889 0.289667 -0.340785
-0.056242 0.389971 0.213900
-0.256898 -0.251680 0.364731
0.165517 0.410947 0.170395
-0.088535 -0.214463 0.387933
0.052077 0.394398 -0.209804
-0.239048 -0.441972 0.047709
-0.279862 -0.055598 0.439701
-0.079286 -0.229172 0.379234
0.244924 -0.350881 -0.275562
0.083266 0.399202 -0.200375
0.231698 -0.176015 0.406547
0.256311 -0.187064 -0.406119
0.035123 -0.442197 0.045332
0.024368 0.408652 -0.180052
0.094186 0.110902 0.429350
-0.226767 0.396157 -0.206351
0.119773 0.016466 -0.447110
-0.180039 0.298542 -0.332961
-0.044945 0.274028 -0.353469
0.252626 -0.384592 -0.225616
0.257326 -0.145661 0.418388
-0.018500 -0.289562 -0.339974
0.014716 -0.189174 0.400850
-0.107132 0.063838 0.438558
-0.235905 -0.436716 0.082706
0.078379 -0.001364 0.443199
0.158678 0.159802 -0.418019
-0.277225 -0.001359 -0.447553
0.198747 0.438073 0.081191
0.090468 -0.101804 0.431155
0.176658 -0.245099 0.369203
0.042981 0.425928 0.129339
0.233286 0.443424 0.043186
0.169331 -0.424418 0.131007
0.222367 -0.428031 0.118572
-0.048991 0.438619 -0.082099
0.001927 0.371113 -0.248935
0.199778 0.303456 -0.328628
-0.135197 0.211023 0.390240
-0.112967 0.442957 -0.052483
0.153865 0.441061 0.062329
0.256213 0.444511 -0.036047
0.236041 0.352219 -0.275158
0.283664 -0.204465 -0.397412
-0.025839 0.407581 -0.182527
-0.265086 0.376954 0.235910
-0.269854 0.414888 0.161185
0.099053 -0.441367 -0.058277
-0.054359 0.358424 -0.267159
-0.235913 0.228125 0.380459
0.169054 0.096150 0.432648
-0.283836 0.032883 0.441963
0.158235 0.183899 -0.407932
0.217392 0.250381 -0.370663
0.142537 0.106866 0.430252
-0.078770 0.274326 0.348885
0.248418 0.016402 -0.447112
-0.051903 0.145309 0.418883
-0.111484 0.035149 -0.446103
-0.086339 0.358316 -0.267298
-0.124341 0.032485 -0.446354
0.105201 -0.444282 -0.022575
-0.216852 -0.440558 0.059034
0.080675 -0.297441 0.328674
-0.253771 0.393884 0.206459
0.070898 0.413206 -0.169530
0.118258 -0.380041 0.228957
-0.098344 -0.347755 0.275239
-0.156875 -0.264623 0.355616
0.269054 0.431556 0.109967
-0.152077 0.408207 0.176728
0.068587 -0.159433 -0.417783
0.048455 -0.088499 -0.438482
0.219052 0.445651 0.007251
-0.141302 -0.425958 0.125706
0.121332 -0.418239 -0.153385
0.000718 0.215907 0.387685
0.244334 0.411139 0.169953
0.094785 0.379080 0.232316
-0.276635 -0.434530 0.092487
0.007351 -0.308829 0.318111
0.156713 0.397467 0.199428
0.153330 0.385007 0.222293
0.130875 0.056977 0.439645
0.082086 0.392120 -0.214274
-0.203992 -0.385423 0.219857
-0.066886 -0.094646 -0.437108
-0.142079 -0.089782 0.433842
0.047921 0.122808 0.425917
-0.003064 -0.338977 -0.290332
0.247613 -0.182650 -0.408029
0.124278 -0.393537 -0.209481
-0.220345 -0.348805 -0.278239
