-0.124828 -0.431704 0.105129
-0.023500 -0.069319 0.437528
0.240183 0.333704 0.293122
0.006638 -0.402416 -0.192056
0.022267 -0.382961 0.224021
-0.231292 0.092963 -0.437714
-0.121720 -0.330090 0.296059
0.132544 0.100178 0.431748
-0.144152 -0.103747 0.430720
0.161107 0.220966 -0.389046
0.206484 0.426291 0.128088
-0.104831 -0.014104 0.442799
-0.056952 0.317475 -0.314844
0.002172 0.445698 0.005756
-0.118422 0.415528 0.159408
-0.241268 -0.025529 0.442440
0.151133 -0.328278 -0.302467
0.040242 -0.274153 -0.352577
0.097017 0.123654 0.425671
0.124869 -0.388526 -0.218964
0.113503 -0.426397 0.124196
-0.135069 -0.253844 0.363260
-0.062065 0.010019 -0.447313
0.140392 0.437011 -0.090326
0.070125 -0.000260 -0.447588
-0.087152 -0.412004 0.165586
0.080229 0.075294 0.436744
0.107439 0.415717 -0.163236
0.002688 0.445840 -0.005591
0.111226 -0.296238 -0.334089
-0.102656 0.362127 -0.262157
-0.189702 -0.440647 0.058467
0.152961 0.258374 -0.365232
0.286544 -0.403952 -0.188545
0.245562 0.391669 0.210806
0.209232 0.380778 -0.233798
-0.132322 0.444693 0.029769
-0.232800 0.051498 0.440204
0.200141 -0.441493 0.052776
-0.081620 -0.406686 0.177874
-0.081548 -0.091779 0.433396
0.247387 -0.271890 -0.354333
-0.094374 0.288930 -0.341435
-0.004278 0.240612 -0.377302
0.118703 0.355699 -0.270672
0.246923 -0.366920 0.249243
0.285382 -0.350502 -0.276051
0.243554 -0.443521 0.031324
0.085494 -0.155817 -0.419084
-0.256410 0.015103 -0.447153
0.133132 0.353511 0.269139
0.080156 -0.164099 -0.416056
-0.005362 0.117129 0.427567
-0.000462 0.065281 0.438330
0.232121 0.326280 -0.305896
-0.015166 -0.151178 -0.420755
0.116616 0.311942 -0.320376
-0.058885 0.184868 -0.407512
-0.022182 -0.438858 0.069768
-0.040758 -0.410764 0.168450
0.096680 -0.321681 0.305259
0.186554 0.256558 -0.366466
-0.000644 -0.265327 0.355070
-0.190033 0.192692 0.399580
0.121816 0.409341 -0.178461
-0.290224 0.443744 0.039805
0.005096 -0.389998 -0.216428
-0.156750 0.287935 0.337959
-0.144893 -0.371143 -0.247383
0.255283 -0.370467 0.244025
-0.109665 -0.152699 -0.420207
0.158004 -0.118551 0.426856
0.134363 0.155281 0.415293
-0.132489 0.357154 -0.268796
-0.118466 0.431317 -0.115143
0.118054 -0.432722 0.100576
0.109102 0.098264 0.432175
0.183239 0.132624 0.423065
-0.048076 0.317051 0.310914
0.115258 0.291207 0.335074
-0.105837 -0.315699 -0.315595
-0.189048 0.242322 0.371787
-0.193499 -0.367323 0.248650
-0.274090 0.445183 -0.026497
0.239339 -0.429659 -0.117323
0.078786 0.306331 -0.325988
-0.120893 -0.152329 -0.420340
-0.190580 -0.326901 0.299676
-0.081541 0.213247 -0.393460
-0.105759 -0.364712 -0.256846
0.105415 -0.444894 -0.003085
-0.058743 -0.405379 0.180894
-0.240309 -0.272832 -0.353602
0.113009 0.429189 -0.122466
-0.251151 -0.203245 0.393680
-0.258006 0.379862 0.230994
-0.287004 -0.017959 -0.447031
0.099726 0.368518 -0.252753
-0.055396 0.309500 0.318465
-0.194630 0.427101 0.125300
-0.289288 0.010596 -0.447295
-0.265187 0.084750 -0.439550
0.151313 0.037997 -0.445833
0.187266 -0.291287 -0.338453
-0.196089 -0.365483 -0.255712
-0.015069 0.444398 -0.037234
-0.176412 0.323488 -0.308830
-0.074386 -0.418711 -0.152074
0.168636 -0.127701 0.424198
-0.071589 0.445119 0.024172
-0.053430 -0.195894 0.397426
-0.076427 -0.154684 0.415139
-0.127980 -0.142989 -0.423703
0.094206 -0.414243 0.160132
-0.231750 0.420922 -0.148779
0.074173 0.401552 -0.195763
-0.074245 0.151568 0.416630
-0.261198 0.428925 -0.123375
0.181298 -0.337269 -0.292269
0.183983 0.305900 -0.326418
-0.196378 0.318898 0.309067
-0.159504 -0.328755 -0.301926
0.040952 -0.003499 -0.447486
0.286084 0.441413 0.060103
-0.244516 -0.072308 0.437054
-0.050562 0.300597 0.326796
0.106077 -0.232437 0.377303
-0.104959 -0.388296 0.214999
-0.085204 -0.116425 -0.431827
0.145385 0.279442 -0.349270
0.257294 -0.304528 0.322412
-0.072562 -0.441380 -0.058197
-0.087475 -0.376798 -0.238795
-0.121911 -0.190689 -0.404431
-0.229249 -0.311240 -0.320054
-0.090840 -0.409968 -0.174645
0.213240 -0.350679 0.271470
-0.105331 0.445704 -0.009908
-0.052749 -0.205552 0.392505
-0.040057 -0.034719 0.441693
-0.041849 0.069954 -0.441943
-0.220318 0.284165 0.341253
-0.046654 0.444843 -0.032533
-0.130475 -0.346656 0.276655
-0.033210 0.163714 -0.416610
-0.143518 -0.434117 -0.098687
0.115710 -0.415811 -0.160129
-0.110204 -0.332173 0.293697
-0.178217 -0.391714 -0.213060
-0.009849 0.327193 -0.304861
-0.191254 0.286642 -0.343452
-0.088135 0.133757 0.422736
0.253330 0.063887 0.438551
-0.227636 0.413575 0.164324
0.235547 -0.242246 0.371143
0.285459 -0.442512 -0.046345
0.193571 0.422944 -0.143163
0.031064 -0.243575 0.370239
0.136018 0.443012 0.047552
-0.094199 -0.441413 0.053623
0.152389 -0.070553 0.437333
0.086817 -0.333544 -0.296494
-0.102853 0.442606 -0.056194
0.184817 0.365871 0.252295
-0.131183 0.227154 0.381034
0.107343 0.150345 0.417070
0.151931 -0.398531 -0.199681
0.211028 -0.332054 -0.298184
-0.001538 -0.194336 -0.402573
0.115341 -0.333842 0.291803
0.179552 0.432046 0.108184
0.193480 -0.148010 0.417542
-0.036904 0.276524 -0.351533
0.112122 -0.389604 0.212788
-0.177469 0.360684 -0.264245
0.142489 0.119483 0.426883
0.260423 0.445807 -0.006659
-0.011542 -0.317208 0.309732
-0.104094 0.264178 0.356757
-0.112171 0.081772 0.435718
-0.090455 -0.444860 -0.000186
0.106140 -0.329877 0.296300
-0.029353 -0.444546 0.009797
-0.041038 0.145998 0.418635
0.263804 -0.340041 0.284772
0.038342 0.153988 0.415759
0.163571 0.374951 0.238934
0.064268 -0.383924 -0.226745
0.169610 0.384550 0.223065
-0.222153 -0.006309 0.443044
0.071993 0.239272 0.373860
0.081666 -0.278376 0.344949
-0.063704 0.047223 -0.444961
-0.036690 0.405260 -0.187891
-0.117817 0.434056 -0.103545
0.276295 -0.416301 -0.158769
0.161996 0.290091 0.336057
0.004691 0.271246 -0.355627
-0.198777 0.251067 0.365844
-0.080282 0.106882 0.430249
0.009186 -0.420274 0.143378
-0.017141 0.439261 -0.078042
-0.267624 -0.435348 -0.093182
0.208610 0.371255 -0.248726
0.096448 -0.106392 0.430129
0.070741 0.372399 -0.247043
0.041679 -0.441106 0.055572
0.270558 0.285108 -0.344804
0.067187 -0.379274 0.230255
0.153022 -0.388538 -0.218944
-0.018811 -0.194197 0.398291
0.212621 0.443489 -0.046851
-0.141487 0.321343 0.306622
0.005329 -0.406720 -0.182149
0.242897 0.134150 0.422622
-0.262521 -0.356658 -0.268115
0.245119 -0.395470 -0.205688
-0.131983 -0.428893 -0.119958
0.066001 -0.438233 -0.078062
-0.124110 0.442820 -0.053934
-0.072582 -0.027368 -0.446736
0.064352 0.012036 0.442896
0.098694 -0.440202 -0.065632
-0.144960 0.429197 0.118084
-0.245718 0.363690 0.255504
-0.229923 -0.419692 0.144996
-0.067801 0.423391 -0.141922
-0.084258 0.251458 -0.369932
0.263178 0.228160 0.380439
0.249390 0.005865 0.443090
-0.246374 -0.444104 -0.028218
-0.102974 -0.246273 -0.372759
-0.053713 -0.350335 -0.276266
-0.195565 0.423015 0.138613
0.024901 -0.253804 -0.367641
0.152016 0.170646 0.409314
0.118264 -0.232580 0.377219
0.039807 0.101693 -0.435762
-0.238097 0.219330 0.385661
0.251170 0.398496 0.197407
-0.170941 -0.224764 0.381841
0.177783 -0.222136 -0.387749
0.210838 0.304436 0.323411
0.250539 0.380971 -0.233472
0.268528 -0.294122 -0.335954
-0.105632 0.363576 0.255672
-0.198658 -0.384339 0.221691
-0.023362 0.243207 0.371185
0.139049 0.390504 0.212999
0.234087 0.311284 -0.321035
0.095197 0.395816 0.202668
0.088591 -0.292551 0.332985
0.201303 0.436622 0.087713
0.019613 0.024329 -0.446863
-0.001123 0.310534 -0.321784
0.214844 0.437554 -0.087894
-0.011788 0.274561 0.348703
-0.030517 0.425885 -0.133840
-0.083800 -0.427748 0.119546
-0.183635 -0.044561 0.440763
-0.043789 -0.321181 0.305759
0.110457 -0.300882 0.325641
0.249468 0.426608 -0.131351
0.124469 0.184080 -0.407854
0.268599 0.403416 0.187751
-0.133940 -0.441519 -0.056858
0.015275 -0.399008 -0.198745
0.207297 0.357736 0.263692
-0.140679 -0.007828 0.442996
0.033498 0.307017 -0.325302
-0.113012 0.103467 0.431012
-0.182544 -0.441857 0.048926
0.230578 0.072756 -0.441499
-0.081541 -0.372579 0.240916
0.205879 -0.019228 -0.446991
0.064372 0.212022 -0.394084
0.183888 -0.416755 -0.157509
-0.211069 0.434062 -0.103517
-0.279085 0.222486 -0.388148
0.173666 0.118487 0.427173
0.248429 0.171100 -0.413470
0.197756 0.239735 0.373545
0.168765 -0.354420 -0.270999
-0.239365 0.442775 -0.054409
-0.000373 0.401877 0.190772
0.250385 -0.332155 -0.298070
-0.249915 -0.176293 -0.410780
0.151961 -0.289830 -0.339738
-0.188922 0.252384 0.364949
-0.189915 -0.209585 0.390450
0.279276 0.401575 -0.195717
0.118670 -0.396296 0.199714
-0.067447 -0.384238 -0.226214
0.170346 0.435295 0.093649
0.155528 -0.418498 0.148313
0.069505 -0.421600 0.139698
-0.083580 0.193611 -0.403465
-0.149732 0.436222 0.089499
0.266561 -0.180929 -0.408774
0.255597 0.361540 0.258667
0.067312 0.072850 0.437131
0.025589 -0.427393 -0.125120
0.201741 -0.293369 0.332264
-0.285999 0.111789 -0.433472
0.194591 0.342184 -0.287856
-0.191953 -0.136122 -0.426105
-0.285645 0.321816 -0.310502
0.034038 0.315767 -0.316552
-0.042068 -0.128988 0.423824
-0.081918 -0.393783 0.204646
0.258532 -0.031027 -0.446395
-0.024903 0.336166 0.290330
0.251589 -0.281771 0.342315
0.218050 -0.420828 0.141841
-0.096408 0.311160 -0.321158
-0.018935 0.066539 0.438131
-0.275056 -0.207851 -0.395687
0.008751 -0.149970 0.416836
-0.144905 -0.357923 0.262130
-0.189847 -0.428782 -0.120339
0.096296 0.106704 0.430289
-0.252483 -0.433793 0.095783
-0.179342 0.441879 0.057163
0.208486 0.193741 0.399045
-0.169921 -0.410445 0.169189
-0.227786 -0.435724 0.087145
0.090173 0.274565 0.348699
0.094970 0.433451 -0.106252
0.121840 -0.422030 0.138503
0.167211 0.239971 -0.377738
0.172513 -0.088726 0.434078
0.193411 0.135142 0.422334
-0.248788 0.429203 -0.122419
0.100753 0.212512 0.389481
0.270554 -0.301602 -0.329359
-0.172626 0.445695 0.005868
0.238030 0.176947 -0.410940
-0.056991 -0.135786 0.421849
-0.225675 -0.104696 0.430508
-0.013428 -0.435044 0.090187
-0.052763 0.429541 -0.121254
0.261693 -0.154291 0.415280
-0.043850 0.431165 0.111311
0.281568 -0.441523 -0.056809
-0.170207 -0.076682 0.436362
0.130018 -0.090099 -0.438125
0.264644 0.445498 0.012119
-0.124332 0.340355 -0.289932
-0.265307 -0.328024 0.298403
-0.264652 -0.129528 -0.428021
0.051578 0.009084 0.442989
-0.164124 -0.055220 0.439755
0.230399 -0.073254 0.436905
-0.144799 0.445359 -0.020902
-0.086911 0.436344 0.088953
0.286420 0.250103 0.366499
0.004582 0.131565 0.423373
-0.158214 0.378695 0.232966
0.112489 -0.383486 -0.227485
0.273439 -0.102996 0.430889
-0.063381 -0.409873 0.170509
0.075717 -0.249194 -0.370773
-0.021508 -0.193083 -0.403212
0.278988 0.415487 -0.163875
0.065885 -0.389421 -0.217451
0.085918 0.028807 -0.446702
-0.152444 -0.249093 0.366489
0.032851 -0.438920 -0.073727
-0.203196 0.387737 0.217677
-0.031552 0.417340 0.154374
-0.211095 0.308545 0.319420
0.007429 0.023996 -0.446874
0.083459 -0.018709 -0.447008
-0.085203 -0.359574 -0.264355
-0.047407 -0.058883 0.439181
-0.268796 -0.107548 0.429871
-0.235325 -0.441005 -0.060563
-0.203918 0.440025 -0.073222
0.056379 0.020995 -0.446968
-0.224721 0.137615 -0.425969
-0.154477 -0.422647 0.136787
0.004750 0.145751 -0.423077
0.124776 -0.326673 -0.304288
0.272738 0.271133 -0.355715
0.081899 0.305293 0.322656
0.159678 0.445861 -0.004928
0.096232 -0.009841 -0.447286
0.179154 -0.149276 -0.421439
0.165300 0.398012 0.198357
0.083463 0.445729 -0.009116
-0.148343 0.043186 -0.445343
0.201639 -0.090509 -0.438033
-0.061138 -0.319900 0.307040
0.193144 -0.417904 0.149961
0.201873 0.066808 -0.442441
-0.177977 0.110049 0.429541
-0.247453 0.210606 0.390452
0.177177 -0.210105 0.390185
0.030256 0.412993 -0.170021
-0.257337 -0.419858 0.144534
0.219878 -0.417352 0.151497
0.259333 -0.121962 0.425865
-0.253834 -0.396559 0.199197
-0.170783 0.331826 0.295252
-0.195315 -0.440124 -0.066127
0.045007 -0.397979 0.196411
0.278190 0.191455 -0.404563
-0.228123 -0.439118 -0.072478
-0.188371 0.199512 -0.400458
-0.139672 -0.444249 0.019267
-0.116900 0.408497 -0.180411
0.074802 -0.417638 0.150701
0.192361 -0.444690 0.005238
-0.174911 -0.444429 0.013536
0.172222 0.223196 -0.387728
0.262685 0.155493 -0.419570
0.096843 -0.428180 -0.122411
-0.223846 -0.010938 -0.447252
-0.230433 0.012773 -0.447227
0.082603 -0.049837 0.440264
-0.073811 -0.201307 0.394668
-0.111906 0.419629 0.148018
0.167145 0.427690 -0.127627
-0.212249 -0.429366 0.113976
-0.099149 0.284963 0.340579
-0.096710 -0.391275 -0.213921
-0.146018 0.420673 -0.149472
-0.249223 -0.337661 -0.291825
-0.114702 -0.442831 0.038619
0.138725 0.442989 -0.052144
-0.167917 -0.444406 -0.018628
-0.043179 -0.340101 0.284704
-0.168253 0.441894 0.057069
-0.195644 0.437117 -0.089852
0.116920 0.374764 0.239209
-0.116940 0.351998 0.271090
-0.063520 0.415829 -0.162925
0.135952 0.148086 -0.422237
0.153261 0.200121 -0.400148
0.263188 -0.444688 0.005285
-0.083756 -0.103841 -0.435053
0.282776 -0.429431 -0.118107
-0.065498 -0.369721 -0.249475
0.049098 0.274398 -0.353182
-0.051229 -0.415559 -0.160828
0.227714 0.190330 -0.405136
-0.183464 -0.360128 -0.263591
-0.250259 0.386539 -0.224056
-0.212479 -0.291326 -0.338419
0.162598 -0.030486 0.442093
0.051542 -0.436041 0.085725
0.190529 0.384790 0.222660
-0.064272 0.443398 -0.047818
0.199636 0.248463 -0.371967
0.116147 0.445845 0.001082
0.173787 0.350124 0.273506
0.173851 0.354948 -0.271640
0.190721 0.348604 -0.279819
-0.144757 -0.214348 -0.392355
0.219067 0.443602 0.041305
-0.014849 0.445378 -0.020295
-0.139686 0.268221 0.353620
0.216803 0.217906 0.386503
0.189840 0.444663 -0.034432
-0.265893 -0.267481 0.353399
-0.017060 -0.216324 -0.391186
-0.092330 0.443134 0.046253
-0.015794 -0.364343 0.253035
-0.163964 -0.402459 -0.191971
0.132436 0.430945 0.112068
-0.077973 0.272353 -0.354769
0.038595 0.436967 -0.090521
0.000693 -0.086222 0.434638
0.114536 0.047532 0.440579
-0.242470 0.411566 -0.173318
-0.184321 -0.067301 -0.442201
-0.206967 0.394601 0.205051
0.146515 -0.411090 0.167699
-0.132831 0.430484 0.113654
-0.030323 -0.389331 0.213249
0.001837 -0.314831 0.312109
-0.065282 0.291127 -0.339498
-0.219730 0.030110 -0.446579
-0.159916 -0.258053 0.360400
0.182204 -0.437989 0.075250
0.250309 -0.248640 -0.371150
0.162124 -0.415783 0.155853
0.210887 -0.261206 0.358257
-0.195446 -0.380651 -0.232279
0.255410 0.433409 0.102085
0.053440 -0.424240 -0.135975
-0.119420 -0.342698 0.281758
-0.205899 -0.444443 0.013095
-0.013866 0.206886 -0.396701
-0.200484 0.126668 -0.429149
-0.274222 -0.442481 -0.046672
0.229811 -0.219666 0.384856
-0.240306 -0.412470 -0.168862
0.114021 0.270279 0.352024
0.102842 0.432950 0.104140
0.048367 0.441227 -0.065630
0.221278 -0.439018 0.068758
0.121433 -0.364887 0.252236
-0.003992 0.411953 -0.172424
-0.227918 0.283881 -0.345827
-0.187019 -0.078276 -0.440463
0.163919 -0.301161 0.325395
0.010948 0.191330 0.400274
0.207480 -0.444249 -0.023609
0.062587 0.204645 0.393490
0.092444 -0.415121 -0.162045
-0.023554 -0.423792 0.133161
-0.055524 -0.125799 -0.429104
-0.100264 -0.290948 -0.338752
-0.097090 -0.146518 -0.422433
0.023914 0.143919 -0.423737
-0.021184 0.118610 -0.431490
-0.032650 -0.102063 0.431097
0.221895 -0.352893 -0.272969
0.246384 -0.405438 0.180758
0.084128 0.066352 0.438160
-0.250520 -0.411756 -0.170512
-0.231138 0.432229 -0.111719
0.268276 0.325561 -0.306712
-0.162622 -0.067707 0.437783
0.137061 0.087333 -0.438972
-0.206683 0.078880 0.436176
0.145726 -0.417598 0.150814
0.123437 -0.206886 -0.396179
0.156229 0.097949 0.432246
-0.191188 -0.158323 -0.418182
0.169290 0.430533 0.113488
-0.289021 -0.114728 0.427967
-0.214554 -0.178052 -0.410019
-0.011146 -0.048457 -0.444748
-0.110715 -0.101805 0.431155
-0.103369 -0.200629 0.395014
0.259786 -0.281405 -0.346952
-0.188543 0.379560 -0.235857
-0.025700 0.052502 -0.444462
0.128345 0.222193 0.383967
0.086506 -0.117809 0.427072
0.208875 0.427439 -0.128491
-0.244924 0.183968 -0.407902
-0.037458 0.380139 0.230525
-0.114039 0.372850 -0.246379
-0.086510 -0.151616 0.416244
-0.261167 -0.224682 0.381889
-0.048381 -0.268746 0.352418
0.102614 0.445323 -0.022050
0.235268 0.291319 0.334975
0.096912 0.390886 -0.216696
0.208036 0.406991 0.179538
-0.176950 -0.191469 -0.404034
0.138521 -0.441756 -0.054349
0.022724 -0.173564 0.407607
0.037718 -0.444330 0.016684
0.256401 -0.406354 0.178643
-0.232466 -0.381011 0.227317
0.074566 0.319546 -0.312773
-0.273609 -0.221334 0.383870
0.179410 0.262123 0.358330
-0.179796 -0.443545 -0.035424
-0.290014 0.338158 -0.292424
0.226512 -0.442962 -0.041587
0.212697 0.150314 -0.421435
0.002912 -0.350581 -0.275949
0.216629 -0.440532 0.059196
-0.241292 -0.155887 -0.419059
0.124734 -0.439283 0.067082
0.187756 -0.347668 -0.279705
-0.201182 -0.180557 -0.408934
-0.111162 0.434605 0.096737
-0.276775 -0.335112 0.290362
0.258828 0.335971 0.290550
0.121884 0.438531 0.078298
-0.137469 0.102259 0.431282
0.159418 0.315236 0.312729
0.236597 0.427661 -0.127725
0.266352 -0.225115 -0.385987
-0.100089 -0.369660 -0.249564
0.098261 0.323858 -0.308461
0.207375 -0.129177 0.423769
0.259940 -0.077637 0.436211
-0.288375 0.200471 0.395616
-0.044222 0.163676 -0.416624
-0.016825 0.284514 -0.345328
0.022778 0.367268 -0.254593
-0.043458 -0.242522 0.370955
0.015253 -0.171584 -0.412818
-0.285246 -0.303203 0.323595
0.221954 -0.392907 -0.210718
-0.288062 -0.275434 -0.351584
0.258127 -0.032427 0.441910
-0.286368 0.436730 0.087229
-0.289914 0.353413 0.269266
-0.013303 0.238280 0.374454
0.266622 0.437802 -0.086785
-0.172200 -0.397962 -0.200798
-0.220206 -0.069038 -0.441926
0.174011 0.397846 -0.203036
-0.068259 -0.432735 -0.104871
-0.093789 -0.270063 -0.355750
-0.186389 -0.055796 0.439670
-0.263044 -0.204092 -0.397602
-0.046440 -0.013867 -0.447160
0.177873 0.427768 0.123006
-0.262460 0.432335 0.106892
-0.008587 -0.275545 0.347145
-0.128930 0.208820 0.391362
-0.105743 0.244548 0.370274
-0.239985 -0.300490 0.325986
0.232346 0.011485 -0.447267
-0.133783 0.241380 -0.376780
-0.008554 0.397418 -0.203877
-0.202816 -0.311492 -0.319802
-0.135047 -0.073781 -0.441175
0.100996 -0.301173 -0.329737
-0.126460 -0.106177 -0.434531
-0.083361 0.442712 0.050716
0.077027 0.260959 0.359121
-0.041757 -0.444819 0.001132
-0.122809 0.035352 0.441730
0.264557 -0.382080 -0.229863
0.117470 -0.216563 -0.391044
0.133498 0.372071 0.243172
0.112436 0.058649 0.439380
-0.088228 -0.415287 -0.161585
0.148437 0.433777 -0.104792
-0.054629 -0.444868 -0.003901
-0.144141 0.184864 -0.407514
0.284026 0.087006 -0.439045
-0.011283 -0.331554 0.294399
-0.229726 -0.174448 0.407225
0.134733 -0.380410 -0.232688
0.269515 -0.376850 0.234353
-0.106949 -0.274546 0.347919
-0.215526 -0.393187 -0.210169
-0.288231 -0.175255 0.406876
0.076506 -0.438851 -0.074161
0.054624 -0.439711 0.064379
-0.217293 0.431573 0.109908
0.144106 0.407124 -0.183585
-0.030863 0.442934 -0.052724
-0.010149 -0.185319 -0.406874
0.028870 0.439450 0.072499
0.051094 0.332162 0.294871
-0.035879 -0.444066 0.025092
-0.220107 -0.442982 -0.041376
-0.214606 0.393075 -0.212400
-0.235747 -0.374344 -0.242673
0.176367 -0.331458 0.294507
-0.262627 0.383598 -0.229029
0.230843 -0.407520 -0.180302
-0.070797 0.015159 -0.447152
0.048223 -0.090601 0.433659
0.224096 0.396365 -0.205943
-0.047077 0.315189 -0.317129
0.102758 -0.363912 -0.258024
0.020030 0.373792 -0.244993
-0.083263 0.413650 0.164150
-0.275003 0.207242 -0.396520
0.186910 0.232843 -0.382023
0.022354 0.352655 -0.274596
0.124712 0.175433 0.407242
-0.272751 -0.412042 0.165498
-0.277961 -0.111940 0.428777
0.072079 0.230702 -0.383289
0.218444 -0.107874 -0.434151
-0.009958 0.385035 0.222247
0.204597 -0.436021 -0.090168
-0.189953 0.416357 -0.161458
0.228746 0.424980 0.132601
0.172835 0.331477 -0.300001
-0.275572 0.437655 -0.087444
-0.118642 0.176191 -0.411268
-0.144201 -0.417338 0.151533
0.086721 -0.408384 -0.178305
-0.096451 0.295629 0.331176
-0.071872 -0.070414 0.437355
-0.201508 0.396077 -0.206508
-0.289697 -0.172737 -0.412318
0.058849 0.436649 0.087592
-0.039505 0.395065 -0.208494
0.137073 -0.442324 0.043987
0.277054 0.098173 -0.436549
-0.215600 -0.235563 0.375454
-0.082963 0.348067 -0.280512
-0.287411 0.444615 0.030588
0.271906 -0.231818 0.377670
-0.133082 0.436518 0.088175
-0.103410 0.241779 -0.376510
-0.153376 -0.361366 0.257416
-0.046773 0.323009 -0.309310
0.090097 0.075137 0.436769
0.284674 -0.334390 0.291182
-0.185247 0.014877 0.442807
-0.081815 0.320864 0.307101
0.271519 0.315610 -0.316708
0.204643 0.432571 0.105835
-0.044694 0.244518 -0.374648
-0.198468 0.017280 -0.447085
-0.071757 0.054921 0.439880
0.230131 0.443381 0.043649
0.161036 -0.157999 -0.418299
-0.060981 -0.021408 0.442569
0.001143 -0.314139 -0.317155
-0.167198 0.435287 -0.098039
0.043173 -0.385874 -0.223449
-0.104040 -0.422926 0.136014
0.284164 -0.185879 0.402278
-0.136323 0.236639 0.375424
-0.173681 0.374945 -0.243297
-0.112266 -0.011284 -0.447241
-0.120001 0.358678 -0.266832
0.137592 -0.004210 -0.447463
-0.151099 0.413088 0.165449
0.094049 -0.393574 -0.209409
-0.207488 0.082100 -0.440020
0.048547 -0.374023 0.238791
-0.122912 0.431251 0.111017
0.032682 0.081120 0.435821
0.040166 -0.082537 0.435434
0.195532 -0.228243 -0.384137
-0.277344 0.338275 0.287937
-0.053336 -0.041765 0.441027
-0.086335 0.440758 0.064241
-0.288052 -0.227101 -0.384813
0.076197 -0.381472 -0.230891
-0.011269 0.246905 -0.373026
-0.102790 0.122729 0.425940
-0.119671 -0.279692 -0.348281
0.088633 -0.399002 0.194402
-0.169097 -0.129037 0.423810
0.176353 0.064712 -0.442773
-0.065349 -0.013692 -0.447165
0.264498 -0.331169 -0.299188
0.215419 -0.429790 -0.116869
-0.182152 0.400962 -0.196920
-0.014950 0.439764 0.070514
0.248496 0.224082 -0.387204
0.031235 -0.384424 -0.225900
-0.066559 -0.291054 -0.338658
0.164463 -0.424783 -0.134106
0.224748 -0.132560 0.422786
-0.010515 0.414850 -0.165645
0.213670 -0.071297 -0.441568
0.248702 -0.440251 0.060970
0.106139 0.149244 -0.421820
-0.100974 -0.182670 0.403667
0.182459 0.434730 -0.100531
0.286153 0.395546 0.203197
-0.068368 -0.218114 0.385774
0.283340 0.438466 0.078711
-0.194834 -0.318950 0.307990
-0.063897 0.133826 0.422716
0.100968 0.049348 0.440407
-0.043031 -0.250619 -0.369805
-0.284260 -0.439686 0.064539
-0.097010 0.213579 0.388937
0.206779 -0.079420 0.435928
-0.167553 -0.361529 0.257176
0.107058 0.131148 -0.427848
0.071829 0.445232 -0.024955
-0.074827 0.443413 0.043308
0.173019 0.322294 0.305672
0.113218 -0.280520 0.343285
0.272930 0.392469 -0.213590
0.132472 0.433270 -0.107063
-0.204822 0.435669 -0.096329
0.233315 -0.253640 -0.367752
0.052303 0.263716 -0.361468
-0.179303 0.440304 -0.071462
0.199557 -0.238509 -0.378035
0.249607 0.303330 0.324386
0.087186 -0.348538 -0.278583
-0.244218 0.435923 -0.095192
-0.146800 -0.415155 -0.161952
-0.267592 0.131576 -0.427723
0.070935 0.327470 -0.304546
-0.152300 0.441348 -0.064870
-0.173934 0.437325 -0.088919
0.162032 -0.313420 -0.317873
-0.047812 0.326008 0.301852
-0.015644 -0.032479 -0.446258
0.042717 -0.288897 -0.340560
0.275373 -0.001956 -0.447534
0.285618 -0.165980 0.410889
-0.215780 -0.251985 0.364523
-0.231505 0.125613 0.425102
0.123281 0.019418 0.442664
0.012940 0.073435 -0.441392
0.106314 0.437141 -0.089745
0.093181 0.146165 -0.422928
0.100978 -0.433038 -0.103515
0.025664 -0.115118 -0.432207
-0.243040 -0.247070 0.367864
-0.153121 0.112665 -0.433217
-0.096493 0.432137 0.107774
0.274798 -0.317356 -0.313937
-0.047033 -0.333792 -0.296213
-0.234332 -0.433703 -0.100538
0.249085 0.413754 -0.168263
0.109506 -0.100887 0.431360
-0.182877 0.111788 -0.433472
0.114697 0.116255 -0.432174
-0.264280 0.235421 0.376145
0.107463 0.227879 0.380605
0.025681 -0.239027 -0.377683
-0.161347 0.406811 0.179954
0.170495 -0.027071 -0.446745
0.085182 -0.227567 -0.384537
0.285568 -0.344053 -0.284364
-0.000312 -0.292010 0.333462
0.219364 -0.377673 -0.237314
-0.089894 0.143344 0.419590
0.182414 -0.070403 0.437356
0.101131 0.202309 0.394679
0.111861 -0.207601 -0.395814
-0.253562 0.193575 -0.403483
0.044265 -0.096616 -0.436668
0.274454 -0.160494 0.413047
0.019269 0.366091 0.251971
-0.193068 -0.299496 -0.331216
0.072835 -0.340820 0.283889
0.229107 -0.308999 -0.322295
-0.090852 0.365749 -0.256827
-0.236046 0.099479 0.431904
0.026791 -0.185657 -0.406728
0.201252 0.382134 0.227152
-0.262893 0.173740 -0.412328
-0.016591 -0.443920 0.027105
-0.191105 0.444292 0.034001
0.186251 -0.235747 0.375346
0.011924 0.168681 0.410164
-0.227512 -0.340411 -0.288705
-0.236500 0.369262 -0.251659
-0.211115 0.388465 -0.220800
-0.252466 0.444509 0.031712
-0.205294 0.429192 0.118102
0.119751 0.442556 -0.056724
0.084009 -0.417790 -0.154631
0.266057 -0.339730 -0.289478
0.160389 0.419449 -0.152872
0.055818 0.345270 0.279764
0.063892 0.251505 0.365546
0.092209 -0.131907 0.422976
0.016250 0.203210 -0.398574
0.033312 -0.349687 -0.277101
0.132789 -0.363081 -0.259245
0.178393 0.060271 0.439123
-0.086000 -0.072281 -0.441412
0.029634 0.224426 0.382647
-0.125296 0.224875 -0.386735
-0.275312 0.436731 0.087223
-0.096808 -0.382320 -0.229457
-0.280165 -0.385700 0.219389
0.094921 0.437441 -0.088401
-0.188810 -0.271468 -0.354660
-0.143359 0.423724 0.136643
0.153406 -0.157540 0.414111
-0.233794 0.328421 -0.303468
0.082735 0.425852 -0.133954
-0.169452 0.056557 -0.444065
0.173876 0.185324 -0.407315
-0.088550 -0.444202 0.020768
-0.055844 -0.073028 -0.441294
-0.232897 -0.430867 0.108811
0.257078 -0.444872 -0.003802
-0.168854 0.416655 -0.160631
0.212534 -0.193748 0.398520
0.223065 -0.302308 0.324384
0.139307 -0.386616 -0.222194
0.275410 -0.444727 0.004046
0.066686 -0.337684 -0.291799
-0.101472 0.252230 -0.369407
-0.039952 0.002263 -0.447557
-0.082418 0.306800 0.321165
0.054167 0.093624 0.433212
-0.012902 0.077844 -0.440693
0.275980 -0.442162 0.045694
0.013548 0.431313 -0.115157
0.084090 0.114573 -0.432663
-0.190180 0.062387 0.438788
-0.263442 -0.306246 0.320694
-0.006095 0.167450 0.410697
0.153104 0.444245 0.034502
-0.109913 0.429624 0.116616
-0.197863 -0.275446 0.347221
-0.234264 -0.211603 0.389422
-0.208948 0.381500 0.228224
0.258200 -0.410584 0.168867
0.046873 -0.422182 0.138079
-0.223173 -0.113754 0.428250
-0.126015 -0.272708 -0.353698
-0.075782 -0.321353 -0.309941
-0.174624 -0.311977 0.314963
-0.249123 0.207031 -0.396627
-0.027780 0.431590 -0.114202
0.243717 -0.424445 0.130916
-0.077334 0.441024 -0.066913
-0.190182 -0.233554 0.376643
-0.157098 -0.444417 -0.018264
-0.225040 0.354230 -0.272566
0.109995 -0.399139 -0.198488
-0.073663 -0.062692 -0.442931
0.086724 -0.249348 -0.370669
-0.272707 -0.435091 0.089978
-0.052667 -0.404143 -0.188104
-0.268340 0.369211 0.247380
-0.100983 0.425504 -0.135151
-0.030840 -0.444493 -0.015858
-0.016734 0.040217 0.441270
-0.149706 -0.311834 0.315106
-0.127813 -0.371448 0.242580
-0.114668 -0.336186 -0.293497
-0.026935 -0.363309 0.254557
-0.212174 -0.205589 0.392486
-0.250982 -0.341686 0.282906
0.148686 0.272157 0.350567
-0.040436 0.415257 -0.164516
0.258948 0.439065 -0.079285
-0.044931 0.262090 0.358353
0.086750 -0.394376 0.203481
0.070895 0.119683 0.426825
0.083193 -0.077599 0.436217
0.120803 -0.037236 0.441455
-0.093654 0.318977 0.308988
0.018530 0.240591 0.372963
0.217293 -0.036303 0.441543
0.201232 -0.303951 0.322935
-0.196578 0.419317 0.148884
0.121777 -0.085656 0.434764
0.285088 0.419988 -0.151374
0.104834 0.320273 0.307692
-0.229068 0.431558 0.109959
-0.259620 0.222020 -0.388423
-0.286677 0.152188 -0.420760
0.019379 -0.070924 0.437274
0.210222 -0.052840 0.439980
-0.257101 0.443351 0.043960
-0.120840 0.362439 0.257345
-0.023012 -0.300196 -0.330599
-0.232668 -0.332925 -0.297197
0.030086 -0.334716 -0.295165
-0.276781 0.331592 0.295518
0.083037 0.408328 0.176449
0.221871 -0.127976 -0.428471
0.042836 0.445807 -0.006641
-0.216851 0.167726 0.410577
0.214784 -0.296728 0.329303
0.138722 0.274641 0.348640
0.057854 -0.065053 0.438204
-0.157809 0.343015 -0.286914
0.113480 0.176953 0.406584
0.032782 -0.291014 0.334341
-0.097764 0.056813 -0.444024
0.091946 0.415477 -0.163903
0.164906 0.445540 0.010791
-0.123081 0.428405 0.120812
0.070308 -0.419333 -0.150347
-0.062379 0.256307 0.362283
-0.081279 -0.246023 -0.372928
-0.248846 -0.310058 -0.321235
-0.105064 0.421010 -0.148535
0.274674 -0.334659 -0.295230
0.280630 0.178893 0.405745
-0.100155 -0.349367 0.273161
-0.135430 -0.384371 0.221636
0.014139 -0.098692 -0.436204
-0.198423 -0.282706 -0.345943
-0.019977 0.220010 0.385259
0.142879 -0.024234 0.442481
0.088654 -0.305044 0.321896
0.142518 -0.000367 0.443231
-0.031661 0.181831 0.404473
-0.228112 -0.270341 -0.355534
0.147987 -0.393895 0.204425
-0.175310 0.030033 0.442233
0.178789 0.241625 -0.376614
-0.064790 0.369821 -0.250836
0.258203 -0.006502 -0.447391
-0.120882 -0.414515 -0.163729
0.266483 0.085869 0.434946
0.091906 0.039538 0.441334
-0.199796 -0.175942 0.406578
0.190434 -0.396841 -0.202997
0.245029 0.349248 0.274636
0.176453 0.407617 -0.182445
-0.041222 0.052483 -0.444464
0.056629 0.139425 0.421002
-0.204248 -0.438314 -0.077555
-0.168652 -0.440366 -0.064597
-0.081236 0.376341 0.236888
0.043447 -0.334683 0.290849
0.226314 -0.026140 -0.446774
0.210447 0.091917 0.433594
-0.008443 0.093408 -0.437614
0.108758 0.445673 -0.010902
-0.189339 -0.316484 -0.314810
-0.242447 0.027383 0.442414
0.228226 -0.435917 0.086282
0.008661 0.175623 -0.411513
0.271908 -0.271481 0.350297
-0.208111 0.255341 0.362939
0.192326 -0.376856 -0.238697
0.282549 0.439595 -0.075937
-0.086134 -0.343084 0.281260
-0.179108 -0.027068 0.442392
-0.156165 0.034236 -0.446189
-0.123175 -0.270051 0.351406
0.267370 -0.239132 -0.377612
-0.208408 0.159557 0.413753
0.233467 -0.185511 0.402437
0.074471 0.270452 -0.356243
0.057138 0.415180 0.160376
-0.229369 -0.050971 -0.444510
0.146522 0.152118 -0.420785
-0.020414 -0.389351 0.213215
-0.102436 -0.098601 -0.436224
-0.213942 -0.345385 0.278294
0.226362 0.092349 0.433498
0.030732 -0.026877 -0.446751
-0.080188 -0.274801 -0.352075
-0.008738 -0.271863 -0.354354
-0.196599 0.392916 0.208359
0.277377 -0.397729 -0.201255
-0.018835 -0.212490 0.388970
0.212967 -0.087784 0.434289
-0.166883 -0.132228 -0.427236
-0.244247 -0.420112 0.143829
0.218914 -0.424255 0.131569
-0.218560 0.384573 -0.227381
0.122267 -0.442968 0.037176
0.237155 0.339043 -0.291419
0.046498 0.445768 0.003535
0.088063 0.213804 0.388822
0.235159 -0.149186 -0.421472
0.088953 -0.313783 -0.317511
0.153033 0.427287 -0.129012
-0.118092 0.445402 -0.019531
-0.112222 -0.128656 -0.428274
-0.225710 0.220989 -0.389033
0.217307 -0.164522 -0.415874
0.043610 -0.346392 -0.281349
0.104513 -0.142819 -0.423764
0.207043 0.274884 0.348452
-0.047194 -0.436755 -0.086888
-0.024796 0.379431 0.231722
0.012757 -0.329494 -0.301089
0.280475 0.224248 -0.387106
-0.218546 -0.410186 -0.174140
-0.167649 -0.213940 0.388231
-0.110563 0.334273 -0.296830
0.218071 0.136380 -0.426328
0.020250 -0.323041 -0.308253
-0.114058 -0.363523 0.254242
-0.157922 0.443928 0.037859
0.147629 0.249939 -0.370964
0.026966 0.444375 0.033132
0.134741 0.106873 -0.434604
-0.189410 0.228644 0.380153
-0.046938 0.221869 0.384159
-0.186235 0.445048 -0.030364
0.203605 0.423896 -0.140518
-0.065214 0.407668 -0.182326
-0.278913 -0.416554 0.153711
-0.075489 -0.402053 -0.192769
0.199264 0.219731 0.385424
0.281641 -0.057183 -0.443804
-0.047399 0.166368 0.411165
0.216104 -0.307291 -0.324002
-0.249694 -0.397188 -0.202318
-0.187149 -0.434728 -0.095952
-0.106482 0.432563 0.105871
-0.180055 0.350733 -0.277074
0.037387 -0.221996 -0.387831
0.233674 0.110187 0.429510
0.250407 0.292714 -0.338099
-0.249670 0.104920 -0.435041
0.065793 -0.243386 -0.374721
0.025351 -0.366294 -0.254518
-0.256945 0.417536 -0.158185
0.015324 -0.039173 -0.445625
-0.190765 0.047487 -0.444936
-0.214365 0.112348 -0.433309
-0.198252 0.273653 0.349407
-0.111811 0.428781 -0.123872
-0.062772 -0.103281 -0.435178
0.038043 -0.324610 -0.306628
-0.061314 0.302217 0.325367
-0.174392 0.214482 0.388477
-0.075072 0.185419 -0.407274
0.163798 0.090112 -0.438351
-0.001734 -0.011396 -0.447238
0.258277 -0.059757 0.439043
0.049634 0.329252 -0.302525
-0.114432 -0.424920 -0.133632
-0.233160 -0.138928 -0.425165
-0.045834 0.444470 0.032124
-0.219169 0.417773 0.153173
-0.073583 0.403828 -0.191202
0.197868 0.440096 0.068420
-0.149322 -0.279749 0.343883
0.068760 0.436935 0.086314
-0.261178 0.373613 -0.245256
0.135556 -0.393903 0.204411
-0.008268 0.259996 0.359775
0.068646 0.050219 0.440325
-0.249998 0.070890 0.437441
-0.185181 -0.438496 -0.076406
0.205774 0.412487 -0.171192
0.226271 -0.225810 -0.385576
-0.189017 0.439308 -0.077746
0.273988 -0.366314 -0.254488
-0.059699 -0.073095 0.436930
0.284649 -0.350580 0.271597
-0.185985 -0.428734 0.116152
-0.076264 0.034363 0.441823
0.054620 0.019261 0.442669
-0.269090 -0.019594 0.442626
-0.014532 0.339135 -0.291316
-0.118858 0.202853 0.394402
0.272676 -0.006074 0.443051
-0.020103 -0.437208 0.080186
0.009169 -0.010440 -0.447268
0.174511 -0.393119 0.205949
0.208749 -0.427798 0.119374
-0.067872 0.082082 -0.440022
0.263629 -0.148940 -0.421560
0.173696 0.358200 0.263094
0.201901 -0.395391 -0.205844
0.133501 -0.421082 0.141136
0.150480 0.135734 -0.426515
-0.251506 0.264121 0.356800
0.249769 0.445307 0.018196
0.172447 -0.124990 -0.429339
0.068157 0.440309 0.067073
0.215128 -0.270743 -0.355222
-0.169439 0.422317 -0.144905
-0.101201 0.224425 -0.387001
-0.035211 0.425144 0.132036
0.199011 0.401236 0.192029
0.187562 0.255962 0.362517
0.285209 0.442623 -0.056011
-0.029619 0.445921 -0.003012
-0.073931 -0.126797 0.424461
0.057194 -0.431226 -0.111620
0.129294 -0.123621 -0.429737
0.095236 0.397609 -0.203501
0.020617 -0.413615 -0.166215
-0.125528 0.236384 0.375575
0.107459 0.161031 0.413223
-0.058981 -0.181245 -0.408637
-0.216883 -0.367622 -0.252563
0.047781 0.194827 -0.402845
0.204721 0.337485 0.288833
-0.003778 0.443096 0.046657
-0.262954 -0.278883 -0.348908
0.239064 -0.028095 -0.446672
-0.066406 0.147061 -0.422606
0.206219 -0.346335 0.277069
0.246898 0.356348 -0.269835
-0.164775 -0.280768 0.343093
0.186470 0.335457 -0.295487
0.240226 0.354533 0.267822
-0.225334 0.274363 0.348856
-0.196255 -0.186677 0.401933
0.216421 0.190888 -0.404852
0.087717 -0.385507 0.219714
0.170866 0.280106 0.344401
0.283349 -0.253809 0.363284
-0.183746 0.445448 -0.018074
-0.136647 0.246369 0.369037
0.286709 0.028410 -0.446735
0.224549 0.035270 0.441738
0.116006 -0.154502 -0.419558
0.158671 -0.228740 -0.383843
-0.140242 0.365831 0.252354
-0.141724 -0.443612 -0.034712
0.259356 -0.419447 0.145675
-0.170622 -0.388124 -0.219643
-0.247425 -0.118568 0.426851
-0.197996 -0.145657 -0.422742
0.271699 0.068051 -0.442244
-0.027897 -0.250718 -0.369738
0.235041 0.273099 -0.354190
0.043688 -0.063232 0.438492
0.012490 0.318196 0.309769
0.250692 0.239063 0.373991
-0.066112 0.422560 0.139876
-0.054357 0.203489 0.394078
-0.044497 0.233683 -0.381526
-0.147739 0.383324 0.225140
-0.268111 -0.438088 -0.078982
0.271705 -0.050360 -0.444568
0.135907 -0.429339 0.114070
0.065858 -0.422804 -0.140705
-0.162313 -0.429717 -0.117122
0.104229 -0.271487 0.350292
-0.275698 -0.053733 -0.444249
0.263607 -0.438238 -0.078033
-0.235648 0.428510 0.120449
0.196208 -0.035874 0.441584
0.283242 -0.088502 -0.438482
-0.021470 -0.338684 0.286311
0.187433 0.428649 -0.124327
0.161617 0.124906 0.425308
0.145276 0.287075 -0.343070
-0.099811 -0.000423 0.443229
0.101378 -0.435327 -0.093274
0.238325 0.037796 0.441499
0.160593 -0.124006 -0.429625
-0.068138 -0.230417 -0.382851
-0.140253 -0.333960 -0.296023
-0.009423 0.071880 0.437285
-0.260200 0.440845 0.063690
0.205100 -0.312429 0.314511
-0.269117 -0.440942 -0.060958
0.083323 -0.277527 -0.349960
0.219827 -0.224177 0.382188
0.105623 -0.437409 -0.083271
0.218222 -0.390485 0.211119
-0.185379 -0.003646 0.443128
-0.196966 -0.247529 0.367552
0.145223 0.445887 -0.004104
0.061615 0.417716 -0.157685
-0.065296 0.090198 0.433978
-0.029094 -0.163261 -0.416404
-0.269372 0.014603 0.442815
0.086995 -0.389832 -0.216753
-0.267120 0.431159 -0.115684
0.242120 0.266028 0.355321
-0.183527 -0.404032 0.184007
0.175186 -0.419426 -0.150088
0.147392 0.444550 -0.035634
0.113374 -0.226996 -0.384874
-0.136576 0.088576 0.434341
0.075272 -0.427124 -0.126049
0.122840 -0.356278 -0.268604
-0.056295 0.388396 -0.220916
0.255314 0.089720 -0.438439
0.208348 -0.244846 0.369375
0.271702 0.339776 -0.290588
0.261402 0.417577 0.153718
0.046014 0.378203 0.233798
-0.276023 -0.380309 0.228505
0.208395 -0.444090 0.024320
0.071018 -0.189306 0.400783
-0.247453 -0.326524 0.300104
0.258283 0.393783 -0.211011
0.064718 -0.181765 0.404059
-0.116714 -0.369764 0.245058
0.057004 -0.215070 -0.391927
-0.036911 0.311350 0.316615
-0.158514 0.331919 0.295147
0.079681 -0.259079 -0.364056
-0.251075 0.434106 -0.103320
0.260909 -0.200417 -0.399475
-0.172509 -0.400956 0.190568
-0.194473 -0.308514 0.318427
0.275345 0.365577 -0.257081
0.247950 -0.381145 0.227091
0.003451 -0.215274 -0.391807
-0.055875 0.078912 0.436171
-0.140545 -0.019525 0.442629
0.216578 -0.279288 0.344241
-0.021498 -0.104063 0.430650
-0.266263 -0.312979 -0.318315
0.264022 0.433780 -0.104781
-0.127712 0.368703 0.248128
0.247710 0.386367 0.219993
-0.190452 -0.026036 0.442424
0.083429 -0.379613 0.229682
-0.162109 -0.442637 0.040675
0.154996 0.445701 0.005665
-0.244709 -0.106148 0.430184
-0.183684 0.422808 0.139187
0.220532 -0.363729 0.253938
-0.184232 -0.337448 0.287713
0.106288 0.422713 -0.143804
0.163581 0.389453 -0.219129
0.157076 0.209031 -0.395608
-0.164520 0.441059 -0.066693
-0.260689 -0.040210 0.441174
0.068961 -0.431875 -0.108718
0.136633 0.417350 0.154347
0.198920 0.023094 -0.446902
0.010212 0.324520 -0.307798
0.059836 -0.326127 0.300554
-0.088784 0.366739 0.251018
0.263751 0.278461 -0.350030
0.102355 0.296610 -0.334664
0.233591 0.421286 -0.147768
0.250434 0.028889 -0.446694
-0.166387 0.392171 -0.214174
-0.072353 0.166111 0.411276
-0.135697 -0.437673 0.077248
0.271711 0.054123 0.439956
0.108966 -0.439329 0.066793
-0.026218 0.426870 0.126094
-0.231298 -0.221012 0.384060
-0.073915 0.155955 -0.419404
0.057569 -0.412100 -0.169716
0.157224 0.025385 0.442477
0.126221 -0.176883 0.406171
0.184443 0.410408 0.171642
0.270584 0.443221 -0.049695
-0.046607 -0.174291 -0.411646
0.208092 -0.412350 0.164786
-0.184550 -0.431551 0.105815
0.000102 0.077364 0.436416
-0.062077 -0.194051 -0.402718
0.056143 0.111751 0.429129
-0.151687 -0.303230 0.323571
-0.045335 -0.319171 -0.312123
0.053646 0.255214 0.363025
-0.173315 -0.270057 -0.355755
-0.042318 0.065301 0.438327
0.042709 -0.106139 0.430186
0.120073 0.425389 0.131192
0.062483 0.428149 0.121694
-0.196316 0.434003 -0.103781
0.013382 0.060788 -0.443395
-0.090686 0.178539 -0.410251
0.229968 0.440820 -0.068202
-0.145069 -0.257496 0.360778
-0.125793 -0.009918 0.442930
-0.256948 -0.430978 -0.112732
0.195950 0.176007 -0.411347
0.166576 -0.279203 0.344307
0.157813 -0.045319 -0.445044
-0.032028 -0.340247 0.284538
0.201939 0.437531 -0.087996
-0.147881 -0.426652 -0.127671
0.171197 -0.180265 -0.409061
-0.230318 -0.264732 0.355532
-0.254577 0.142633 -0.424200
0.282971 0.371717 -0.248046
0.173457 -0.345267 -0.282800
-0.125302 -0.424596 -0.134748
-0.072822 0.353306 -0.273757
0.009921 0.100986 0.431567
-0.044592 0.307257 0.320709
0.078044 -0.388455 0.214731
-0.046423 -0.401708 0.189093
0.233495 -0.443867 -0.032015
0.167368 -0.102296 0.431045
0.152151 0.272198 -0.354889
-0.064926 0.281223 0.343535
-0.003453 -0.264086 -0.360386
-0.001647 0.319116 -0.313203
-0.048431 0.334153 0.292612
-0.004297 0.425961 0.129224
-0.114767 -0.065318 -0.442515
-0.158386 -0.120450 0.426305
-0.158281 -0.444645 0.006644
0.038753 0.220575 -0.389278
-0.087390 -0.370731 -0.247990
0.040446 -0.297333 0.328770
-0.172779 0.433952 0.099658
-0.289949 0.433150 -0.107596
-0.232505 0.383589 0.224692
0.034242 0.041676 -0.445486
0.084235 0.445323 -0.022044
0.016635 -0.125462 -0.429202
0.072756 -0.060959 0.438852
0.115084 -0.331997 -0.298249
-0.285854 0.248282 -0.372090
-0.172783 0.297245 -0.334104
0.271845 0.150465 -0.421380
-0.176845 -0.388782 0.214177
0.119291 0.197671 -0.401396
-0.273252 0.289936 -0.340548
-0.225495 -0.441981 -0.051962
0.226613 0.180313 -0.409483
-0.109007 0.198160 0.396794
0.098038 -0.008334 0.442980
-0.212158 0.021540 -0.446951
-0.288345 0.380342 -0.234535
0.145571 0.434093 0.099027
0.253896 0.246707 0.368807
0.163239 0.090871 0.433828
0.128944 0.433635 0.101077
0.022269 -0.310677 -0.320617
0.110890 -0.304621 -0.326672
-0.232929 -0.093869 -0.437282
-0.084208 -0.110335 0.429243
-0.183942 -0.251213 -0.369402
-0.058590 0.444422 -0.036989
0.181594 0.445473 0.012918
-0.276779 0.244118 0.370567
-0.164979 -0.304616 0.322325
0.186543 -0.123209 0.425503
-0.018276 -0.028378 0.442292
-0.157098 0.397133 -0.204435
-0.184326 0.426473 0.127462
0.271859 -0.184909 0.402698
0.249251 0.417230 0.154681
-0.146027 -0.409500 0.171372
0.166856 -0.411048 0.167795
0.039384 -0.123972 -0.429635
-0.164940 -0.281340 -0.347003
-0.091910 0.427308 -0.128941
-0.218870 -0.331006 0.295020
0.003113 0.143182 0.419649
0.035150 -0.364840 0.252304
-0.012547 -0.058559 -0.443586
-0.221078 -0.161006 0.412863
0.074453 0.444876 0.027824
0.253246 0.103721 -0.435309
-0.157057 0.310976 0.316989
-0.172522 -0.427774 -0.123808
0.192451 -0.420462 -0.147209
-0.267947 -0.199830 0.395421
0.094567 -0.120769 -0.430565
-0.236315 0.132932 -0.427329
0.017570 0.006328 0.443076
-0.046923 0.034584 -0.446156
-0.009323 0.404696 0.184840
0.034785 0.051220 -0.444583
0.204360 0.442449 -0.057853
0.186028 -0.413521 -0.166432
-0.018202 -0.444305 0.017476
0.252864 0.397802 -0.203124
-0.096511 0.438409 0.079074
-0.207688 0.183227 0.403869
0.123567 -0.343102 -0.285590
-0.274726 -0.444308 -0.021740
-0.089139 0.242932 -0.375726
0.224819 -0.399236 -0.198298
-0.031606 0.192547 0.399654
-0.013471 0.415655 0.159056
0.204079 -0.195306 -0.402079
-0.121861 0.332904 -0.298383
0.138780 -0.152957 -0.420114
-0.064604 -0.424488 -0.135119
0.080971 0.129882 -0.428215
-0.169156 -0.334434 -0.295485
0.190261 0.355385 0.266724
0.283351 0.120037 -0.431076
-0.235840 0.337920 0.288340
0.089575 0.247454 -0.372653
0.196647 -0.126332 0.424596
0.111467 0.165787 -0.415770
0.074403 0.427069 0.125411
0.068133 -0.306536 0.320405
-0.170775 -0.254945 -0.366866
0.077369 0.438499 0.078504
-0.085552 0.433439 -0.106304
-0.249971 0.171178 0.409083
0.236404 0.084633 -0.439576
0.063072 -0.430304 0.110748
0.199578 -0.400806 -0.195215
0.219928 0.060219 0.439132
0.191159 -0.301278 -0.329645
0.264920 0.181971 -0.408766
-0.002980 -0.440642 -0.062855
0.271501 -0.423480 -0.138590
-0.237325 -0.284341 0.340223
-0.052937 0.381292 0.228575
0.160384 0.279523 0.344854
-0.287556 0.310612 0.317353
-0.099365 0.226417 0.381470
-0.263205 -0.178968 0.405269
0.220487 -0.122906 0.425591
-0.071440 -0.050104 -0.444592
-0.094055 -0.444307 -0.021761
-0.203964 -0.031484 0.441999
-0.075161 0.292791 -0.338031
0.271378 0.295940 -0.335254
-0.202571 0.345601 -0.283690
0.001952 0.196150 -0.402171
-0.157229 -0.410437 0.169207
0.187396 0.425716 0.130068
0.130312 0.426635 -0.131258
-0.275075 0.390483 -0.217387
-0.086343 -0.432993 0.099364
-0.231628 -0.335609 0.289799
0.038769 0.445507 -0.016200
-0.000422 0.261993 -0.362772
0.027885 -0.195274 0.397742
-0.113136 0.302510 0.325109
0.262807 0.020808 -0.446974
-0.194722 -0.425758 -0.130749
-0.106850 -0.305480 0.321460
0.162374 -0.434332 -0.097727
-0.203557 -0.419585 -0.149647
0.268267 0.429228 0.117980
-0.229244 0.036416 -0.445983
0.037073 0.443960 -0.041869
-0.110485 -0.148096 0.417511
-0.235594 -0.119119 0.426691
0.186356 -0.444158 -0.026497
0.125504 -0.377926 0.232534
-0.089917 -0.070761 0.437300
-0.181080 0.302025 -0.329890
0.089948 0.358028 0.263316
-0.031559 -0.295809 -0.334466
0.059520 0.175656 0.407145
0.188847 -0.189317 -0.405131
0.221873 -0.080156 -0.440165
-0.079351 0.366999 -0.254989
0.230484 -0.312074 0.314866
0.212303 -0.357883 0.262182
-0.098180 -0.231263 0.377998
0.229760 -0.109771 -0.433727
-0.176695 -0.304591 -0.326703
-0.033245 0.419218 -0.153512
0.276572 0.067635 0.437957
-0.248635 -0.317069 0.309871
0.213136 -0.434850 -0.095409
0.179111 0.334720 0.291970
0.242305 -0.379737 -0.233825
-0.251702 -0.344231 -0.284136
-0.006706 0.295055 -0.336035
0.274612 0.441180 0.061576
-0.166855 -0.046103 -0.444970
-0.132008 -0.283057 -0.345671
0.029740 -0.350787 0.271330
0.173953 -0.388186 0.215185
-0.070791 -0.299108 0.327204
-0.126540 -0.035701 0.441600
-0.148727 0.070301 0.437535
-0.232218 -0.072011 0.437102
-0.046873 -0.442871 0.038195
-0.136983 -0.310241 -0.321053
-0.213909 0.052921 0.440069
0.107237 -0.127587 0.424231
-0.029074 0.299547 0.327721
0.039031 0.261370 0.358842
0.247030 -0.368074 -0.251899
-0.086460 -0.383463 0.223171
0.134124 0.383439 0.224944
0.107560 0.121942 0.426169
0.259932 0.294860 -0.336207
-0.210254 -0.156822 0.414369
0.210946 -0.358993 -0.265104
0.102989 -0.029857 0.442152
0.230473 0.017494 0.442725
-0.029140 0.043185 0.440989
0.168911 -0.350582 0.271595
-0.164544 0.425390 -0.135543
-0.076987 0.268917 0.353080
-0.119085 -0.305541 0.321399
-0.067325 0.439380 -0.077294
0.257293 0.194771 -0.402874
0.074112 0.367858 0.249372
-0.257654 0.092028 -0.437923
-0.101617 -0.396642 -0.203389
0.182741 -0.409172 -0.176484
-0.262018 0.272421 -0.354716
0.206308 0.208623 -0.395816
-0.068908 -0.415592 -0.160738
0.230111 0.348538 -0.279904
0.230547 0.025588 -0.446824
-0.154394 -0.369318 0.245715
0.138961 0.267033 -0.358895
-0.235028 0.376493 0.236666
0.240241 -0.107516 0.429878
0.286695 -0.432527 -0.105799
0.163044 0.113646 -0.432932
0.095152 -0.437516 0.078242
0.132611 0.445733 -0.009000
0.202593 0.422954 0.138783
0.205086 0.419274 0.149005
-0.061099 -0.428690 0.116305
0.187813 0.243299 0.371123
0.071137 -0.256424 0.361507
0.119779 -0.419741 -0.149213
0.090233 -0.433645 -0.100800
-0.282864 0.445217 0.021078
-0.227001 -0.368108 0.247495
-0.247412 0.191055 0.400414
0.286571 -0.020225 0.442607
-0.032514 0.194299 -0.403114
-0.096864 0.434491 0.097243
-0.239054 -0.195925 0.397410
-0.287756 -0.002746 -0.447509
0.286207 0.210807 0.390350
0.113219 0.444601 0.030737
0.202648 0.130343 0.423728
-0.020073 0.131098 -0.427862
-0.216688 0.242225 -0.376206
0.073305 0.084768 0.435192
0.181346 0.320028 -0.312290
0.061499 -0.435375 0.088707
0.102826 -0.210245 -0.394467
0.204388 0.386475 -0.224165
0.076201 0.083678 -0.439769
-0.256153 -0.123122 0.425528
0.055471 -0.161751 0.412595
0.101334 0.336385 0.290081
-0.055645 -0.366269 -0.254555
0.162713 -0.294374 -0.335731
-0.048010 0.417589 0.153683
-0.288409 0.209756 0.390885
0.138603 0.239477 0.373721
-0.016400 0.014652 0.442814
-0.287473 0.421711 -0.146589
-0.260552 0.076388 -0.440924
-0.004554 0.379732 0.231212
-0.018003 0.444651 0.030206
-0.110984 -0.071538 0.437177
0.032503 0.433347 0.102366
0.138879 0.285531 0.340078
0.283291 0.417939 0.152712
-0.184874 -0.311733 0.315207
0.142693 0.211000 -0.394605
-0.019179 -0.263544 -0.360807
-0.175724 -0.444769 0.002709
0.002606 0.256106 0.362419
0.199506 0.415725 -0.163215
0.286051 -0.055476 0.439721
-0.241863 0.432037 -0.112575
0.169334 0.076923 -0.440839
0.126548 -0.443803 -0.032692
-0.234308 0.121715 -0.430588
0.113547 -0.430389 -0.114809
-0.289835 -0.109182 -0.433859
-0.289923 0.396297 -0.206077
0.056411 -0.322420 -0.308873
-0.281003 0.035684 0.441698
-0.211626 -0.414040 -0.165049
-0.234434 -0.426554 -0.128009
0.087553 -0.142527 -0.423869
-0.138500 0.439116 0.074606
-0.227616 0.307464 -0.324855
-0.253374 0.425995 -0.133460
-0.038922 -0.415600 0.156363
0.180485 -0.250162 -0.370116
0.158276 0.327407 -0.304618
-0.272482 -0.210207 0.390133
0.107983 0.396020 -0.206620
0.027760 0.150373 0.417060
-0.113976 -0.272736 -0.353676
-0.014328 0.411110 -0.174372
0.044687 0.406974 -0.183930
-0.244163 -0.370354 -0.248544
-0.278097 -0.234596 -0.380380
0.234204 0.408690 0.175611
0.029527 0.441476 0.059705
0.072268 0.418650 -0.155091
-0.006046 -0.219672 0.384853
0.125389 -0.134570 -0.426556
-0.083665 0.231935 0.378206
0.262540 -0.355331 0.265472
-0.147792 0.096973 -0.436817
-0.052769 -0.125048 0.424969
0.114912 0.140927 -0.424814
0.064736 -0.415946 -0.159755
-0.134033 0.442643 0.051451
-0.188767 0.419924 -0.151552
-0.106842 0.410688 -0.175349
0.232208 -0.437896 0.075837
-0.241063 -0.070134 -0.441752
0.114755 0.393742 0.206737
0.046656 -0.385196 0.220241
0.277914 -0.414590 0.159167
0.074369 0.061903 -0.443218
-0.163830 0.007472 -0.447393
-0.075404 -0.420784 0.141964
-0.216637 -0.407045 0.177046
-0.070498 -0.394009 0.204203
-0.254202 -0.317602 -0.313692
-0.182750 0.261584 -0.363050
-0.088783 0.097803 0.432278
-0.227168 0.319060 0.308905
-0.088260 -0.215407 0.387375
0.197713 -0.414444 -0.163926
-0.171143 -0.373931 0.238928
0.112477 -0.255545 0.362104
-0.251643 0.225091 0.382254
-0.260958 0.095808 0.432724
0.165590 0.137686 -0.425948
0.062198 -0.276826 -0.350504
-0.001980 -0.429615 -0.117474
-0.153785 -0.228799 0.379455
-0.031230 -0.433823 0.095651
0.001393 0.092571 -0.437801
-0.008663 -0.091199 0.433525
-0.204086 -0.135705 0.421873
0.146311 0.101989 0.431343
