0.286960 -0.432453 0.177280
0.286960 0.447667 0.206515
0.286960 -0.456087 -0.059995
0.286960 -0.101696 -0.471243
0.286960 -0.415987 0.176788
0.286960 0.155875 0.446069
0.286960 0.403599 -0.251778
0.286960 -0.452613 -0.152424
0.286960 -0.137888 0.446485
0.286960 -0.406220 0.187864
0.286960 0.450297 0.016691
0.286960 0.424673 -0.223019
0.286960 -0.437846 -0.082770
0.286960 0.381566 -0.241353
0.286960 -0.475732 -0.103694
0.286960 0.063644 0.486829
0.286960 0.415080 0.185014
0.286960 -0.160696 -0.457316
0.286960 0.445436 -0.212954
0.286960 0.265295 0.378942
0.286960 0.261795 -0.385832
0.286960 -0.004258 -0.456867
0.286960 0.064152 -0.466624
0.286960 0.455739 0.140199
0.286960 0.162190 -0.423789
0.286960 -0.462641 -0.005452
0.286960 0.456935 -0.162521
0.286960 0.061323 -0.471953
0.286960 -0.197875 -0.417432
0.286960 0.419430 -0.158628
0.286960 0.072433 0.474308
0.286960 0.440945 0.207306
0.286960 -0.454330 0.183095
0.286960 0.289010 -0.359916
0.286960 0.223620 0.435444
0.286960 -0.303447 -0.357191
0.286960 0.037818 0.481655
0.286960 -0.277672 -0.373319
0.286960 0.401584 0.232510
0.286960 0.436245 0.197131
0.286960 0.022722 0.476148
0.286960 0.456849 0.134857
0.286960 0.235566 0.399910
0.286960 -0.265371 -0.377293
0.286960 0.297803 -0.350299
0.286960 0.282117 -0.403945
0.286960 0.491917 0.077224
0.286960 0.058898 0.458697
0.286960 0.462900 -0.168889
0.286960 -0.006494 -0.482247
0.286960 0.454127 -0.079890
0.286960 -0.407009 -0.215919
0.286960 0.167123 -0.435104
0.286960 -0.246998 -0.388920
0.286960 -0.447422 -0.016352
0.286960 0.360121 0.295473
0.286960 0.456461 -0.014330
0.286960 -0.339972 -0.353891
0.286960 0.459271 -0.102963
0.286960 0.447700 -0.169785
0.286960 0.023161 -0.473661
0.286960 0.449085 0.170866
0.286960 -0.492142 0.069307
0.286960 -0.175516 0.418960
0.286960 -0.307990 0.319592
0.286960 0.401844 0.250776
0.286960 -0.237405 -0.434078
0.286960 -0.429885 0.194884
0.286960 0.371659 0.262067
0.286960 -0.092950 -0.478638
0.286960 0.451091 0.130348
0.286960 -0.416667 -0.160298
0.286960 0.404844 -0.197104
0.286960 -0.457613 -0.114493
0.286960 0.188420 -0.432554
0.286960 -0.480201 -0.047614
0.286960 -0.384892 0.251281
0.286960 -0.084270 0.446725
0.286960 -0.454610 0.114106
0.286960 -0.024269 0.460335
0.286960 -0.437513 -0.222492
0.286960 0.417470 0.169449
0.286960 -0.393759 -0.263692
0.286960 0.456782 0.107549
0.286960 -0.411195 -0.222466
0.286960 -0.191113 -0.456116
0.286960 -0.454852 -0.094005
0.286960 -0.035451 0.485727
0.286960 -0.013215 -0.493346
0.286960 -0.435449 -0.120375
0.286960 0.214609 0.411072
0.286960 -0.144672 -0.473748
0.286960 -0.331487 -0.317215
0.286960 -0.460329 -0.164538
0.286960 0.420646 -0.251377
0.286960 -0.429916 -0.121426
0.286960 -0.435653 -0.115817
0.286960 0.441317 -0.109008
0.286960 -0.278449 -0.387624
0.286960 -0.009974 -0.459867
0.286960 -0.174227 -0.435314
0.286960 -0.419978 0.237125
0.286960 -0.197161 0.445534
0.286960 -0.284104 -0.373153
0.286960 0.017360 -0.447206
0.286960 0.459096 0.170062
0.286960 -0.476500 0.131770
0.286960 -0.257066 0.381364
0.286960 0.263591 0.415359
0.286960 -0.485819 0.076561
0.286960 0.434008 -0.169047
0.286960 -0.410634 0.268473
0.286960 -0.367179 -0.317392
0.286960 0.133414 -0.453012
0.286960 0.312866 -0.356287
0.286960 0.100213 -0.436578
0.286960 -0.452496 0.102094
0.286960 -0.175518 -0.429765
0.286960 0.146630 0.428066
0.286960 -0.468468 -0.093811
0.286960 0.006604 0.482795
0.286960 0.367159 0.297937
0.286960 0.372885 0.321601
0.286960 -0.065494 -0.444020
0.286960 0.358395 -0.327680
0.286960 -0.423406 0.166313
0.286960 -0.472045 -0.094579
0.286960 -0.427788 0.184595
0.286960 0.073153 0.460237
0.286960 0.419673 -0.258481
0.286960 -0.417197 -0.228606
0.286960 -0.378568 -0.261619
0.286960 -0.241895 -0.410093
0.286960 -0.217578 0.402976
0.286960 -0.367572 0.299761
0.286960 0.434985 0.169966
0.286960 -0.464918 0.057027
0.286960 -0.310344 0.339430
0.286960 -0.325536 0.303663
0.286960 0.124455 -0.446357
0.286960 -0.285729 0.381939
0.286960 -0.072406 0.486906
0.286960 0.155283 0.438767
0.286960 -0.318977 0.365431
0.286960 -0.349125 0.298619
0.286960 -0.248249 -0.426893
0.286960 -0.432812 0.187120
0.286960 0.098158 0.474752
0.286960 0.028797 -0.447330
0.286960 0.235493 -0.384126
0.286960 -0.207008 -0.454757
0.286960 -0.159771 0.453073
0.286960 -0.134542 -0.440063
0.286960 -0.415099 -0.223711
0.286960 -0.193772 -0.432352
0.286960 -0.426904 0.206063
0.286960 0.469468 -0.056631
0.286960 -0.278556 -0.381206
0.286960 0.479056 0.031554
0.286960 -0.301937 0.362327
0.286960 -0.469044 -0.025239
0.286960 -0.423388 -0.172990
0.286960 -0.303723 -0.353990
0.286960 0.063566 -0.485876
0.286960 0.060673 -0.487131
0.286960 0.162947 0.413774
0.286960 0.254437 0.399831
0.286960 0.377759 -0.278074
0.286960 -0.347927 -0.344578
0.286960 0.203474 0.440954
0.286960 0.413625 0.235550
0.286960 -0.434108 -0.159628
0.286960 0.195708 0.455434
0.286960 -0.207610 0.420725
0.286960 0.459645 -0.022926
0.286960 0.312769 -0.324766
0.286960 -0.438311 -0.105505
0.286960 -0.445919 0.149466
0.286960 0.286437 -0.392856
0.286960 -0.440549 -0.072035
0.286960 0.111534 -0.486154
0.286960 0.471054 -0.126669
0.286960 0.466040 -0.083046
0.286960 0.402866 0.214250
0.286960 0.328644 0.334311
0.286960 -0.216954 -0.436737
0.286960 0.101582 0.467416
0.286960 -0.468046 0.051729
0.286960 0.065480 -0.461691
0.286960 0.272994 0.400187
0.286960 -0.241954 0.384059
0.286960 -0.388303 -0.299356
0.286960 -0.240469 -0.434166
0.286960 -0.441775 -0.095206
0.286960 -0.143368 -0.477199
0.286960 0.189394 -0.421813
0.286960 0.465824 0.067634
0.286960 -0.449702 0.068637
0.286960 -0.093717 0.433465
0.286960 0.078205 -0.479231
0.286960 -0.246126 -0.373929
0.286960 0.377009 0.323213
0.286960 -0.280207 -0.384688
0.286960 0.343830 -0.346891
0.286960 0.192810 -0.437800
0.286960 0.421877 0.175936
0.286960 0.388644 -0.248563
0.286960 -0.449347 -0.152658
0.286960 0.467814 -0.171481
0.286960 -0.000656 0.481970
0.286960 -0.297740 0.352244
0.286960 -0.339088 -0.297482
0.286960 0.424542 0.201676
0.286960 0.364532 0.277099
0.286960 -0.318553 -0.369102
0.286960 -0.324265 0.342333
0.286960 -0.471136 0.050367
0.286960 0.360807 0.341252
0.286960 -0.282586 0.358069
0.286960 -0.409419 0.185776
0.286960 -0.420165 0.172353
0.286960 0.392300 -0.271774
0.286960 0.251830 0.393120
0.286960 0.218706 0.445288
0.286960 0.054415 -0.496766
0.286960 0.305288 0.340170
0.286960 0.303448 -0.396645
0.286960 0.468245 0.060539
0.286960 -0.089327 -0.480319
0.286960 0.497350 -0.026825
0.286960 -0.462591 -0.182381
0.286960 -0.197879 0.408961
0.286960 0.486574 0.049226
0.286960 -0.440243 0.207320
0.286960 0.179114 -0.428202
0.286960 -0.467082 0.162254
0.286960 -0.318122 0.324231
0.286960 0.028115 0.477909
0.286960 -0.462531 0.031364
0.286960 0.445820 0.164440
0.286960 -0.106210 0.441411
0.286960 0.352444 -0.285188
0.286960 0.425489 -0.184520
0.286960 0.336897 -0.346079
0.286960 0.066390 -0.480696
0.286960 0.475253 0.029313
0.286960 0.182911 -0.422350
0.286960 -0.174802 0.455822
0.286960 0.286136 0.388650
0.286960 -0.150583 -0.452661
0.286960 0.242746 -0.376091
0.286960 0.130106 0.445960
0.286960 0.418332 0.186466
0.286960 -0.352173 0.314511
0.286960 -0.477619 0.008731
0.286960 -0.184054 0.457055
0.286960 -0.136670 0.440198
0.286960 -0.305255 -0.350603
0.286960 0.349312 0.284385
0.286960 0.301963 -0.393357
0.286960 0.153658 -0.426367
0.286960 0.418220 -0.199109
0.286960 0.134426 0.470104
0.286960 0.229374 0.420073
0.286960 -0.129036 0.439940
0.286960 0.259683 -0.395060
0.286960 -0.305674 0.386969
0.286960 -0.404906 -0.192606
0.286960 -0.005467 0.471565
0.286960 -0.471357 0.036436
0.286960 -0.394564 0.210019
0.286960 0.285475 0.399968
0.286960 -0.213534 0.433587
0.286960 0.035588 -0.479871
0.286960 0.446704 0.070396
0.286960 0.262574 -0.364240
0.286960 -0.447033 0.061204
0.286960 -0.455413 0.099125
0.286960 -0.465394 -0.054287
0.286960 -0.084951 0.486276
0.286960 -0.486386 0.094154
0.286960 -0.442633 -0.048862
0.286960 -0.301814 -0.380503
0.286960 0.201029 -0.443827
0.286960 -0.374379 0.246674
0.286960 -0.184957 -0.430985
0.286960 -0.431367 -0.239803
0.286960 -0.040388 -0.456742
0.286960 0.295763 -0.395956
0.286960 0.230556 0.397066
0.286960 0.422047 0.260898
0.286960 0.460752 0.109476
0.286960 0.465461 0.063471
0.286960 0.176890 0.417516
0.286960 -0.142743 0.461322
0.286960 0.136366 -0.429389
0.286960 -0.007271 -0.461151
0.286960 -0.449775 -0.008304
0.286960 0.431473 -0.185901
0.286960 -0.413267 0.259269
0.286960 0.303634 -0.376184
0.286960 -0.109583 -0.470315
0.286960 0.336342 0.327857
0.286960 -0.249705 -0.412150
0.286960 0.362326 -0.294248
0.286960 0.463426 0.100698
0.286960 -0.379230 -0.291485
0.286960 0.435021 -0.104527
0.286960 0.114289 0.444107
0.286960 -0.445603 -0.116113
0.286960 0.083846 -0.493136
0.286960 -0.420120 0.219040
0.286960 0.446064 -0.126895
0.286960 0.306135 -0.364610
0.286960 -0.123015 -0.462708
0.286960 0.300592 0.351893
0.286960 -0.447967 -0.029237
0.286960 -0.392286 0.218865
0.286960 -0.073947 -0.481239
0.286960 0.494949 -0.038556
0.286960 0.429728 0.214736
0.286960 0.001247 -0.477637
0.286960 0.450915 0.122736
0.286960 -0.352017 0.296641
0.286960 -0.200192 -0.427592
0.286960 -0.129815 0.456526
0.286960 0.025064 -0.465679
0.286960 0.218155 -0.439460
0.286960 0.446178 -0.095166
0.286960 0.216857 -0.412175
0.286960 0.118967 -0.450149
0.286960 0.484271 0.042003
0.286960 0.141080 0.425212
0.286960 -0.448032 -0.079119
0.286960 -0.073938 -0.494577
0.286960 0.395983 -0.298888
0.286960 0.463900 0.050161
0.286960 0.349954 0.344677
0.286960 0.471392 -0.116189
0.286960 0.117281 -0.460293
0.286960 0.402732 0.254565
0.286960 -0.146278 -0.467135
0.286960 0.016828 -0.474765
0.286960 0.187991 -0.440621
0.286960 -0.111911 -0.442629
0.286960 -0.261331 0.420358
0.286960 -0.452835 -0.181959
0.286960 0.475487 -0.071418
0.286960 0.346111 -0.331508
0.286960 0.443805 -0.149807
0.286960 0.088184 -0.469016
0.286960 0.318809 0.331834
0.286960 -0.304425 -0.337259
0.286960 -0.418705 0.149456
0.286960 -0.404599 0.280229
0.286960 -0.088013 0.446554
0.286960 0.100018 -0.440343
0.286960 0.457635 0.035942
0.286960 -0.446542 0.143571
0.286960 0.309841 -0.367061
0.286960 0.164892 -0.465351
0.286960 -0.433947 0.237589
0.286960 0.151941 0.431498
0.286960 0.471992 0.157469
0.286960 -0.394490 0.240634
0.286960 0.196485 0.409858
0.286960 -0.210541 -0.414435
0.286960 0.079140 -0.465182
0.286960 0.331979 0.332819
0.286960 0.389231 0.257285
0.286960 -0.164079 -0.440234
0.286960 0.268097 -0.409015
0.286960 -0.268165 0.361265
0.286960 0.024243 -0.496199
0.286960 0.426365 -0.255152
0.286960 0.374420 -0.261002
0.286960 -0.237267 -0.426374
0.286960 0.099887 0.441056
0.286960 0.074965 0.486979
0.286960 0.343255 -0.360696
0.286960 -0.262525 0.416487
0.286960 0.321194 -0.380678
0.286960 -0.439618 0.089022
0.286960 0.340715 -0.290055
0.286960 -0.195766 0.398535
0.286960 0.083812 0.486733
0.286960 -0.163687 0.425672
0.286960 0.376903 -0.317673
0.286960 0.486683 -0.044980
0.286960 0.185508 0.446156
0.286960 -0.203864 -0.418207
0.286960 0.278020 -0.399863
0.286960 0.392070 0.279556
0.286960 -0.220073 -0.427472
0.286960 -0.417394 0.193721
0.286960 -0.271379 -0.358810
0.286960 -0.417730 0.179368
0.286960 -0.230188 -0.388826
0.286960 0.096894 -0.456870
0.286960 0.076952 0.444481
0.286960 0.427568 0.151062
0.286960 0.350824 -0.352269
0.286960 0.487492 -0.036093
0.286960 0.242831 -0.392806
0.286960 0.426320 0.215427
0.286960 -0.284690 -0.376749
0.286960 -0.430838 -0.131662
0.286960 -0.220673 -0.413832
0.286960 -0.279875 -0.349217
0.286960 -0.365761 0.310902
0.286960 0.096263 0.469656
0.286960 -0.374199 -0.324619
0.286960 -0.231694 0.430406
0.286960 0.095936 0.461208
0.286960 0.244852 0.431276
0.286960 -0.446679 -0.043335
0.286960 -0.424648 -0.194186
0.286960 0.448189 0.088016
0.286960 0.444341 -0.107234
0.286960 0.038291 -0.497558
0.286960 0.460351 0.087962
0.286960 0.025580 -0.456579
0.286960 0.311092 0.327721
0.286960 -0.051929 -0.459788
0.286960 -0.403681 -0.199653
0.286960 0.492115 -0.012988
0.286960 0.069013 -0.478143
0.286960 0.229401 -0.427203
0.286960 -0.483337 -0.026808
0.286960 -0.370846 -0.257412
0.286960 0.411269 -0.246970
0.286960 -0.199882 0.402797
0.286960 0.372151 0.313280
0.286960 0.125937 -0.466370
0.286960 -0.328092 -0.344256
0.286960 0.472145 0.147772
0.286960 0.455954 -0.117167
0.286960 0.464773 -0.177842
0.286960 -0.391316 0.250841
0.286960 -0.170095 0.418844
0.286960 0.158565 -0.441926
0.286960 0.257118 -0.412192
0.286960 0.085795 0.460406
0.286960 -0.395520 0.201817
0.286960 -0.473309 0.138103
0.286960 0.176341 -0.430753
0.286960 0.376004 0.300053
0.286960 -0.088501 0.477305
0.286960 -0.040577 -0.484987
0.286960 -0.428831 -0.183607
0.286960 -0.237638 0.396487
0.286960 -0.440062 0.189947
0.286960 0.003720 0.469342
0.286960 -0.353416 -0.274189
0.286960 0.084953 0.447816
0.286960 0.381355 -0.273237
0.286960 -0.399842 -0.290952
0.286960 -0.065062 -0.473137
0.286960 0.171196 0.415503
0.286960 -0.435182 -0.203995
0.286960 -0.451926 0.063223
0.286960 -0.251472 0.369555
0.286960 -0.403073 0.277504
0.286960 -0.304222 0.323640
0.286960 -0.255740 0.384652
0.286960 0.448856 -0.064528
0.286960 -0.233027 -0.441287
0.286960 0.242421 0.381874
0.286960 0.436894 -0.094779
0.286960 -0.238944 0.410107
0.286960 -0.474109 0.042698
0.286960 0.453287 0.195856
0.286960 0.035801 0.493934
0.286960 0.438487 -0.196723
0.286960 -0.305000 0.381618
0.286960 0.446450 -0.130383
0.286960 -0.049368 -0.464356
0.286960 -0.314579 0.316405
0.286960 -0.242823 -0.376442
0.286960 0.008164 -0.459265
0.286960 -0.455389 0.021233
0.286960 -0.426257 -0.190696
0.286960 -0.244793 -0.412210
0.286960 -0.488603 -0.039461
0.286960 0.479630 0.131439
0.286960 -0.233728 -0.417403
0.286960 -0.449340 -0.139414
0.286960 0.480852 -0.087640
0.286960 -0.007532 -0.499469
0.286960 -0.168403 0.447441
0.286960 0.405105 -0.259003
0.286960 -0.452126 -0.142370
0.286960 -0.226607 -0.395749
0.286960 -0.337736 -0.300209
0.286960 0.466709 0.053185
0.286960 0.174988 0.423169
0.286960 0.443774 0.102740
0.286960 -0.390084 0.212684
0.286960 -0.389808 -0.264399
0.286960 0.421459 -0.222451
0.286960 -0.185589 -0.410636
0.286960 -0.019515 -0.499229
0.286960 0.316359 0.311856
0.286960 -0.448777 0.172908
0.286960 -0.223953 0.422707
0.286960 -0.377008 0.238045
0.286960 0.101705 -0.464024
0.286960 0.186300 0.434544
0.286960 0.228087 -0.408487
0.286960 -0.140156 -0.469426
0.286960 0.234756 0.394010
0.286960 0.063430 -0.443446
0.286960 -0.374452 -0.319462
0.286960 -0.423861 0.184235
0.286960 0.477056 0.097155
0.286960 0.072075 0.437519
0.286960 0.361018 -0.345460
0.286960 0.445209 0.065126
0.286960 -0.479062 -0.070403
0.286960 -0.256756 0.408414
0.286960 -0.260778 0.383156
0.286960 0.462075 -0.127337
0.286960 -0.267881 0.353161
0.286960 0.194510 0.433489
0.286960 -0.256822 -0.372783
0.286960 -0.377641 -0.288414
0.286960 0.437374 0.087083
0.286960 -0.154160 0.455437
0.286960 -0.387436 -0.308732
0.286960 0.496757 -0.007373
0.286960 0.377615 0.294310
0.286960 0.435732 0.117645
0.286960 0.042522 0.491196
0.286960 0.459191 -0.062755
0.286960 -0.288861 -0.405294
0.286960 0.269615 0.363032
0.286960 0.181779 0.431950
0.286960 0.390923 0.293398
0.286960 -0.264074 0.412801
0.286960 -0.327879 -0.330999
0.286960 0.024678 -0.453357
0.286960 -0.220100 0.392922
0.286960 -0.404795 -0.188351
0.286960 -0.445161 -0.063597
0.286960 -0.457818 0.169016
0.286960 0.187011 -0.463006
0.286960 0.441273 0.161296
0.286960 -0.169652 0.439248
0.286960 -0.013570 -0.456037
0.286960 -0.434445 0.146024
0.286960 -0.039149 -0.475416
0.286960 -0.336532 0.319810
0.286960 0.391242 -0.223613
0.286960 -0.002432 -0.462741
0.286960 -0.021200 0.476389
0.286960 0.163524 -0.431455
0.286960 0.211878 -0.408522
0.286960 -0.155515 0.461564
0.286960 0.035470 -0.463923
0.286960 -0.483724 0.019170
0.286960 0.329701 0.298315
0.286960 0.262447 -0.368378
0.286960 0.459665 0.117379
0.286960 0.116984 0.479612
0.286960 -0.236139 -0.396614
0.286960 -0.173631 0.412674
0.286960 0.391593 0.296515
0.286960 0.286483 -0.363134
0.286960 0.476153 -0.021049
0.286960 -0.047128 -0.466651
0.286960 0.146556 -0.475824
0.286960 -0.124367 -0.482854
0.286960 0.153311 0.462081
0.286960 -0.342690 0.293063
0.286960 0.444344 0.068451
0.286960 -0.438377 -0.182012
0.286960 -0.220170 -0.432846
0.286960 -0.444863 0.057356
0.286960 -0.241534 0.396140
0.286960 -0.286189 -0.389660
0.286960 0.454306 -0.061249
0.286960 0.341736 -0.330955
0.286960 -0.138213 -0.427137
0.286960 0.065697 0.491456
0.286960 -0.147185 0.434082
0.286960 -0.008719 0.473351
0.286960 0.444353 0.033899
0.286960 0.135578 0.427333
0.286960 -0.474533 0.116238
0.286960 0.432268 -0.181182
0.286960 -0.192472 -0.438399
0.286960 0.018228 -0.485217
0.286960 0.156396 0.429862
0.286960 -0.439387 0.158666
0.286960 0.069610 -0.451369
0.286960 -0.464715 0.106745
0.286960 0.068731 0.439255
0.286960 -0.121617 -0.471770
0.286960 0.282303 0.366197
0.286960 -0.035046 -0.463405
0.286960 -0.001528 0.494788
0.286960 -0.494254 0.041019
0.286960 -0.401992 0.189110
0.286960 0.337396 -0.326214
0.286960 0.416425 -0.243348
0.286960 -0.293450 0.366600
0.286960 0.403182 0.221292
0.286960 -0.293004 0.333987
0.286960 0.047417 -0.453146
0.286960 0.207013 -0.401202
0.286960 0.463487 -0.054919
0.286960 -0.479890 0.050524
0.286960 -0.469001 0.144688
0.286960 -0.483461 -0.116142
0.286960 0.441194 -0.145542
0.286960 0.242125 -0.386282
0.286960 -0.333275 -0.360866
-0.059345 -0.495068 0.046463
-0.289027 0.252505 -0.431673
0.243200 0.068235 0.491342
-0.134996 0.123924 0.480301
-0.065085 -0.248370 -0.433623
-0.186971 0.230831 0.439297
-0.118753 0.020357 -0.499838
0.020139 -0.478650 -0.137658
0.225518 -0.496109 0.036838
0.150182 -0.439428 -0.235898
-0.033918 0.358586 0.343843
-0.203412 0.190236 0.458461
-0.047722 0.376804 -0.328464
-0.216061 0.492099 0.077559
-0.253691 -0.497233 -0.017385
-0.102922 0.403954 0.289841
0.056386 0.481962 -0.129915
0.032552 0.054492 -0.497373
-0.036910 -0.050031 0.493298
0.124394 -0.494393 0.052714
0.019391 0.460417 -0.193535
0.223497 -0.383771 0.314579
0.087441 -0.477011 -0.143596
-0.024896 0.468839 -0.171439
-0.229950 -0.342848 0.358485
0.219827 0.014370 -0.499946
0.139099 -0.468138 -0.170549
0.078081 0.232220 -0.443109
-0.285489 0.491325 0.082911
0.092185 0.264089 0.420311
-0.151004 0.136877 -0.481095
-0.139836 -0.171584 0.465189
0.179346 -0.272184 -0.419092
0.151811 0.385184 -0.318445
-0.059622 -0.258023 0.423567
-0.082751 0.105326 0.484720
0.116312 0.141474 -0.479827
0.252531 0.444790 0.222744
0.026771 -0.364708 0.336333
-0.061186 0.497641 -0.031381
0.142123 -0.017372 0.495520
-0.095742 0.487135 -0.108145
-0.286688 -0.480664 -0.130364
-0.022273 0.493843 -0.071487
0.170012 -0.205859 -0.455344
-0.229297 -0.356972 -0.348801
-0.200531 0.342578 -0.364099
0.094130 0.167990 0.466819
-0.169110 -0.037199 -0.498924
-0.135767 0.005493 0.495932
-0.187206 0.461317 0.186532
0.104100 0.496196 0.045786
-0.230994 0.469309 0.165772
-0.053545 0.075853 -0.494399
0.242713 -0.220636 0.443959
0.172965 0.090216 -0.492132
0.169925 0.498461 -0.013108
0.204479 -0.337047 -0.368258
-0.271165 -0.084073 -0.492878
0.285096 -0.436459 -0.241133
0.033467 0.217946 0.446027
0.125035 0.396384 -0.304400
0.054381 0.492036 0.077995
0.031533 -0.327341 -0.377049
0.194734 -0.004069 -0.500278
0.155267 -0.025922 0.495251
0.016715 -0.492793 -0.070028
-0.194748 0.381221 -0.323416
0.283937 -0.442677 -0.229303
-0.038979 -0.455362 0.198163
0.061572 -0.235888 0.436260
0.164312 0.495386 0.054838
-0.140881 -0.346200 -0.359865
0.167112 -0.462368 -0.185908
0.170095 -0.343142 -0.362737
-0.012518 -0.316166 0.382215
-0.222336 0.359771 0.342625
-0.184103 0.497456 -0.035504
0.021589 -0.077154 -0.494069
-0.074598 -0.367560 -0.337874
-0.146674 -0.197514 -0.459089
0.228396 -0.153887 -0.475667
0.074230 0.069913 0.491139
0.110206 -0.360284 0.341218
0.028088 0.498234 0.014305
0.005793 -0.468991 0.163949
-0.014771 -0.064970 0.491472
0.033121 0.041957 -0.498389
-0.173238 -0.363651 0.337501
-0.071573 -0.184373 -0.464640
0.266726 -0.045022 -0.498093
0.152755 0.292163 0.401483
0.244416 -0.486075 -0.107958
0.124346 -0.484383 -0.116033
-0.078390 0.371648 0.329950
-0.233159 -0.077207 -0.494060
0.092858 -0.205737 0.451301
0.077936 0.495714 0.051742
-0.258416 -0.328278 -0.376201
0.116019 0.000825 0.495848
0.038126 -0.497271 -0.015265
-0.088936 -0.466227 -0.176089
-0.235165 -0.316403 -0.386333
-0.077857 0.294482 -0.404146
0.035501 -0.496874 0.021283
0.006614 0.282599 0.408172
-0.099608 0.488440 0.097203
0.018465 0.427603 0.254009
-0.006052 -0.485912 -0.108735
0.067071 0.497394 0.030997
-0.034955 -0.228955 0.439860
-0.128962 -0.488560 0.091871
0.274101 0.214732 -0.451727
-0.271376 0.279105 0.410615
-0.154288 -0.297163 -0.401622
-0.137808 0.452215 0.207674
0.079537 -0.485481 -0.110790
0.047183 -0.313774 -0.388428
0.144071 -0.001892 0.495799
0.285258 0.254629 0.426079
-0.192670 -0.205777 -0.455381
-0.287281 -0.292973 -0.404553
0.061587 0.022338 -0.499802
-0.208774 -0.086904 0.488258
0.120373 0.406703 -0.290208
-0.209564 0.452578 -0.211003
-0.201583 -0.125881 0.479494
-0.245850 -0.373461 0.326670
0.129365 0.446494 0.219284
-0.001695 0.458015 -0.198887
-0.133657 -0.436541 -0.240989
0.043691 0.405624 -0.291751
-0.146573 -0.494718 0.049705
-0.253817 0.407873 -0.288536
-0.176820 -0.425476 0.255658
-0.066587 -0.083792 -0.492926
0.284427 0.102503 -0.489558
-0.085181 -0.164206 -0.472208
-0.027125 0.156662 -0.475043
-0.283832 0.158111 0.470338
0.132415 -0.382176 -0.320840
0.259860 -0.331926 -0.372897
-0.181073 -0.007506 0.495698
-0.068151 -0.062321 -0.496224
-0.286019 0.481012 -0.133604
-0.046256 0.294380 0.399932
-0.112755 0.182836 -0.465644
-0.011015 -0.456634 0.195328
0.043277 0.497699 0.027232
0.230444 0.290968 0.402319
-0.206442 0.295697 0.399011
0.169733 -0.496260 -0.036704
-0.112291 0.225915 -0.446216
-0.193557 -0.228648 -0.444261
0.121782 -0.216323 -0.450648
0.197019 -0.183069 -0.465130
-0.109062 0.366411 -0.339938
-0.091785 0.496751 0.038937
-0.206327 -0.366764 0.334063
0.284414 0.466176 -0.178534
0.003415 -0.475232 0.144838
-0.265790 -0.412544 -0.280290
-0.036455 -0.178257 -0.466935
-0.009721 0.329568 0.371607
-0.097637 -0.336151 -0.369069
-0.144486 0.088343 0.487966
-0.260601 -0.497378 0.010043
0.266072 -0.212772 -0.452242
-0.223574 0.105727 -0.488882
-0.045461 -0.397610 0.297223
0.178256 -0.172781 -0.468990
-0.262586 -0.488157 0.094209
0.229708 -0.176637 -0.467543
-0.224504 0.220944 0.444503
-0.217848 -0.092526 0.487080
0.098984 0.426588 0.255779
-0.077861 -0.310469 0.386958
0.122012 -0.384493 0.313673
-0.035864 -0.365099 -0.340453
-0.078284 -0.341077 0.360209
-0.194901 -0.253556 -0.430461
0.005710 -0.495236 0.044914
0.075821 -0.434320 -0.244862
0.114942 0.391701 -0.310272
-0.053351 0.498597 -0.005840
0.271514 0.268921 0.417366
-0.289243 0.021407 0.495325
-0.089101 0.447071 -0.222838
-0.216228 0.383004 -0.321179
0.036628 0.147244 -0.478234
-0.151280 0.026831 -0.499614
0.073291 0.412228 0.277968
-0.198298 0.495946 -0.052177
0.122160 0.498572 -0.010631
0.184484 0.444238 0.223864
0.229491 0.419971 0.266240
-0.062191 0.485166 0.112832
0.245936 -0.312187 0.385629
0.177067 -0.249105 -0.433175
0.209177 0.469357 -0.170057
-0.135113 0.273212 -0.418807
0.131181 -0.171036 0.465378
0.138480 0.075676 -0.494425
0.133856 -0.444574 0.221281
0.228804 -0.497454 -0.005101
0.241443 0.156585 -0.475070
-0.175127 0.471538 0.159311
0.241267 0.185088 -0.464705
0.110090 -0.495829 -0.042027
0.192489 -0.383431 0.315005
0.264565 -0.484235 0.111683
0.081274 -0.380614 -0.322660
0.122520 0.483687 0.118769
-0.172346 0.403599 -0.294647
0.035833 -0.016248 -0.499864
0.237093 -0.496289 -0.036348
-0.112688 0.273932 0.414233
-0.212615 0.497745 0.026674
-0.206962 -0.254292 0.425707
0.134182 -0.489381 -0.092176
-0.029020 -0.493574 -0.064634
-0.149506 0.476431 0.145055
-0.219222 -0.144686 -0.478475
0.084597 0.268775 -0.421736
0.109699 0.468900 -0.171275
0.118718 -0.442203 -0.230265
-0.184938 -0.466572 -0.175088
0.125071 -0.421762 0.261750
0.168688 -0.471345 0.157575
0.057565 -0.472207 0.154750
0.103944 -0.114134 -0.486737
-0.060032 0.210518 -0.453803
0.225994 0.261958 0.421610
-0.220838 0.007581 -0.500068
0.279828 -0.264077 0.419808
0.260714 -0.268003 -0.421654
-0.194317 0.335463 -0.370890
0.150658 -0.438679 0.232477
0.222913 -0.478044 -0.139854
-0.244786 -0.240121 0.433833
-0.205793 -0.355588 0.346082
0.180431 -0.204130 0.451986
0.142347 0.468006 -0.173657
0.165821 0.326520 -0.378563
0.155192 0.496017 -0.051523
0.217365 0.168970 0.466451
-0.015344 -0.386069 0.311696
0.129796 -0.464017 0.177203
-0.200554 0.166733 0.467291
0.166486 -0.488447 0.092525
-0.183097 0.426874 0.255281
-0.224632 0.328770 0.372330
0.200605 0.158360 0.470262
-0.151085 0.258438 0.423757
0.090492 -0.152252 -0.476166
-0.051094 0.096603 0.486544
0.166407 -0.072863 0.490330
0.261231 -0.034681 -0.499037
-0.229560 0.403938 -0.294162
0.241020 0.457004 0.196877
0.216315 0.493898 -0.071126
-0.206712 0.159407 -0.474097
0.015412 0.126953 -0.483835
-0.102571 -0.265023 0.419184
0.158719 -0.414578 -0.277209
-0.189934 -0.170541 -0.469831
-0.270163 0.383965 -0.319974
0.258515 -0.469116 0.163616
0.179574 0.306241 -0.395275
0.267345 -0.256701 0.424325
0.137014 0.228623 0.440460
-0.278708 0.400468 -0.299123
0.180841 0.029784 -0.499375
-0.227910 0.430225 0.249437
0.016780 -0.241668 0.432946
-0.194370 0.492613 0.074004
0.213756 0.140687 -0.480044
-0.016940 0.347198 -0.359602
-0.187493 -0.438740 -0.237154
0.235451 0.456824 -0.201542
0.186717 -0.104109 -0.489120
0.127083 0.488917 0.094928
-0.091094 0.250011 -0.433103
0.204282 -0.062395 -0.496216
-0.016528 -0.492616 0.068310
0.157616 0.255102 -0.430183
-0.076761 0.461642 -0.190619
-0.141953 -0.482046 -0.125358
-0.274762 -0.341045 -0.364637
-0.094257 -0.060545 -0.496416
-0.166109 0.238070 0.435486
0.109716 0.495453 -0.056745
0.255536 -0.441502 0.227115
0.263882 0.496454 -0.047475
-0.005192 0.371125 -0.334734
0.265387 0.478921 -0.140458
0.104551 -0.269891 -0.420503
0.103657 -0.353083 0.348521
0.109310 -0.037075 -0.498930
0.260087 0.450440 0.211276
0.172687 0.124599 -0.484485
-0.121078 -0.455138 0.198662
-0.136517 0.027604 -0.499551
-0.223220 0.257952 0.424053
-0.070638 0.333397 -0.372662
-0.010691 -0.453014 -0.208327
0.019004 0.286818 -0.409825
-0.128782 -0.481599 -0.126977
-0.182520 0.115205 -0.486897
0.229619 0.469748 0.164499
-0.196607 -0.186601 0.459293
0.259794 -0.369317 0.331244
-0.066872 0.368177 0.333991
-0.146054 -0.180944 0.461652
0.100637 -0.216850 -0.450412
-0.087818 -0.433073 -0.247038
0.071667 -0.346370 0.355056
0.029311 0.497118 0.034408
0.054484 0.486072 -0.112618
-0.036832 0.197493 -0.459533
-0.049457 -0.475513 -0.149021
-0.161227 -0.409021 -0.285627
0.128158 0.269190 -0.421462
-0.190627 0.379293 0.321041
-0.288446 0.182916 -0.465610
-0.100654 0.416096 0.272108
0.180834 -0.468146 0.166199
0.247110 0.468749 -0.171677
0.225014 -0.089472 -0.491948
-0.065525 0.196403 0.455694
-0.130104 0.498611 -0.006606
0.217572 0.469989 0.163800
0.060946 -0.429173 0.249594
-0.237780 0.159483 -0.474070
-0.182188 -0.430591 0.247268
-0.168437 0.408334 0.283867
0.228794 -0.415718 -0.275482
-0.267025 0.372860 0.328538
-0.256753 -0.496831 -0.029655
0.024174 -0.079156 0.489420
0.006642 0.086686 0.488251
0.056874 -0.073581 -0.494684
0.215331 -0.433567 0.242185
0.103380 0.049365 0.493381
0.232306 -0.468231 -0.170279
-0.112797 0.472594 -0.161193
0.275455 -0.184373 -0.464640
-0.043681 0.181184 -0.466333
0.008580 0.028119 -0.499510
-0.219393 -0.394366 -0.305544
-0.288555 -0.429589 -0.253113
-0.192821 -0.361666 -0.343979
0.184310 0.139960 0.475876
0.077647 -0.443653 -0.227323
-0.207034 -0.395229 0.300209
0.017592 0.170505 -0.470268
-0.281752 0.496581 -0.046305
0.105562 0.373330 -0.332299
0.101194 -0.134007 -0.481733
0.142682 0.219402 0.445315
-0.009921 0.119692 -0.485839
0.050415 0.295081 -0.403694
-0.107365 0.494392 0.061709
-0.207131 -0.284695 0.406196
0.002047 -0.457707 0.192937
0.210690 -0.342157 0.359158
-0.276243 -0.429437 -0.253378
0.104139 0.237431 0.435822
-0.040849 -0.454486 -0.204814
-0.011887 0.465115 0.177423
-0.269620 -0.185643 0.459693
0.187872 0.158074 0.470349
0.266113 0.050992 -0.497657
-0.098601 0.366740 0.335467
-0.131942 0.489875 -0.094538
0.193607 0.147641 0.473532
-0.147436 0.284401 -0.411421
0.155418 0.060188 0.492212
-0.002949 -0.147318 0.473560
0.238925 -0.271791 -0.419344
-0.054085 0.463778 0.180631
-0.030325 -0.497131 -0.023018
-0.257357 -0.389905 0.306885
-0.195517 -0.246899 0.429946
-0.112083 0.300193 -0.399837
-0.161500 -0.211171 -0.452961
-0.066261 0.490277 0.088434
-0.180903 -0.413918 0.274073
-0.254011 0.429269 0.251105
-0.216211 0.388157 0.310710
0.014533 -0.274233 -0.417659
0.164533 -0.250449 -0.432355
0.083146 -0.389792 -0.311608
-0.050535 -0.088863 -0.492053
-0.173807 0.072905 -0.494826
-0.175046 -0.207616 0.450375
0.122275 0.182095 -0.465953
-0.023121 0.045999 0.493745
0.240069 -0.245591 -0.435317
0.132218 -0.353391 -0.352479
-0.195944 0.098221 0.486265
0.171159 0.034359 -0.499004
-0.205596 -0.228081 -0.444559
-0.053314 -0.376562 -0.327383
-0.067529 -0.445172 0.220145
-0.258726 -0.031359 0.494811
0.186934 -0.045386 0.493674
-0.014088 0.398365 -0.301915
0.247789 -0.461585 0.183685
0.113488 0.143273 0.474865
-0.108390 -0.494796 0.048987
-0.123120 0.279664 0.410224
0.117472 -0.456828 -0.199195
0.086126 -0.229854 0.439417
-0.043726 -0.408284 0.282128
0.105875 -0.480521 0.127311
0.061716 -0.469882 -0.165493
-0.252392 -0.351793 -0.354121
0.241243 0.433688 0.243398
0.037832 -0.239913 0.433952
0.245895 0.498143 0.019352
0.157159 0.071626 0.490844
-0.124197 0.428411 -0.256878
-0.045238 0.311326 -0.391438
-0.016379 0.380390 0.319763
0.202660 -0.239034 -0.438792
-0.055041 -0.196680 0.455091
0.003535 -0.011592 0.495624
0.060675 0.277444 0.411777
-0.065774 0.220301 0.444842
0.010110 -0.433008 0.243248
-0.172671 0.497740 -0.029168
-0.201521 -0.204892 0.451668
0.208147 -0.497471 -0.004159
0.095187 -0.376508 -0.327445
-0.227941 -0.135739 -0.481205
-0.040327 -0.433888 -0.245616
0.065303 -0.437801 -0.238792
-0.064434 0.467835 -0.174114
0.090531 0.311284 0.386878
0.158755 -0.460875 0.185577
0.016888 -0.428486 -0.255036
0.036432 -0.468316 0.165746
-0.151553 -0.156970 -0.474727
-0.012871 -0.496210 -0.037316
0.246219 0.146654 -0.478397
-0.093827 0.493835 -0.071538
0.273788 0.385971 0.313258
-0.185984 0.369832 0.332066
0.219618 -0.484149 -0.117149
0.197445 -0.439156 0.231572
-0.187899 -0.156639 0.470345
0.163353 -0.496342 0.033149
0.044704 0.035411 -0.498919
-0.017099 -0.307198 0.389426
0.107153 0.365763 -0.340653
0.056955 0.123892 0.480308
0.191473 0.383927 0.315640
0.062951 -0.103578 0.484764
-0.279421 -0.495838 -0.041914
0.084501 0.241574 -0.437941
0.247116 -0.483595 -0.119745
0.252548 -0.323826 -0.380233
0.095238 -0.192791 -0.461208
-0.076811 0.498038 -0.022544
0.065744 -0.477823 0.136345
0.068914 -0.331996 -0.372833
-0.288521 -0.140344 0.475502
0.163332 0.158095 0.470343
0.181285 0.201084 -0.458036
-0.208017 -0.492064 0.071515
-0.114257 -0.308986 -0.392247
0.177048 0.457381 -0.200301
-0.162233 0.489092 -0.099087
-0.216559 0.390748 -0.311467
-0.162103 0.368509 0.333609
-0.110697 -0.475036 0.145478
-0.218267 -0.488284 0.093475
0.001422 -0.127122 -0.483651
0.126663 0.232682 -0.442882
-0.166745 -0.456321 0.196025
0.142505 -0.448661 -0.217159
0.179282 0.495416 -0.057087
-0.110840 -0.137579 -0.480643
0.070396 -0.410723 0.278642
-0.111772 -0.042241 0.493929
-0.268636 -0.033925 -0.499071
0.235369 -0.099785 0.485559
-0.158751 -0.495243 0.044845
-0.264367 0.006447 0.495949
0.138527 -0.360023 0.341506
0.118218 0.478100 0.139008
0.285188 -0.296707 0.397340
-0.160111 -0.006214 -0.500314
0.105643 0.136747 -0.481131
0.026114 -0.354481 -0.351360
-0.065526 -0.360951 0.340481
-0.283672 0.410909 -0.284195
0.283132 -0.360937 0.340497
0.058397 0.156570 0.470808
-0.254041 -0.108414 0.483751
-0.104199 0.247023 -0.434816
0.075303 -0.241588 0.432991
0.091528 0.387378 -0.315693
0.188679 -0.344952 0.356437
-0.286045 0.214229 0.447695
0.221941 -0.354796 -0.351036
0.286372 -0.374159 -0.330183
-0.245423 0.256765 0.424776
-0.235378 -0.152991 0.471603
-0.282965 0.239191 -0.439307
0.193851 -0.479207 -0.135642
-0.006671 -0.494665 -0.056389
0.144990 -0.172103 -0.469245
-0.162208 0.340004 0.362155
-0.136053 -0.315604 -0.386969
-0.025543 0.391134 0.306835
-0.062365 0.020070 -0.499843
0.157112 -0.369591 0.330943
0.133345 0.385318 0.314019
0.010501 -0.488395 -0.096879
-0.019255 -0.348428 0.353053
-0.148616 0.409880 0.281524
-0.002391 -0.278915 0.410013
0.218993 -0.233192 -0.441868
0.266739 0.430851 -0.252876
-0.201548 0.349214 0.353469
-0.073794 -0.437766 0.234211
0.025373 0.327749 -0.377509
-0.032340 0.015330 0.495597
-0.132524 -0.415379 -0.275996
0.135316 0.388047 -0.314855
-0.037358 0.172573 -0.469555
0.031926 0.412676 -0.281667
-0.286791 0.212922 -0.452619
0.228158 -0.364736 0.336303
-0.183211 -0.137912 -0.480542
0.100045 -0.146662 -0.477872
0.172324 0.136796 -0.481118
0.258752 0.317005 -0.386728
-0.253701 -0.247759 -0.433995
-0.144857 -0.464543 0.175803
0.052215 0.497776 -0.028367
-0.024622 0.228532 -0.444927
-0.289028 -0.257917 -0.427802
-0.102098 -0.448286 -0.217922
0.274421 -0.470217 -0.164521
-0.186891 -0.438687 0.232463
-0.263437 -0.497280 -0.014739
-0.089326 0.430962 -0.252693
-0.080688 -0.406941 0.284048
0.225721 -0.428874 0.250084
-0.068803 -0.427377 0.252539
-0.223725 -0.274817 -0.417251
0.188114 0.427880 0.253526
-0.280960 -0.393671 -0.306466
-0.142796 0.490220 -0.092534
-0.278259 0.269816 -0.421050
0.156448 -0.486143 0.103655
0.058055 -0.087714 0.488088
-0.150719 0.487538 0.101509
-0.091049 -0.317549 -0.385418
0.075243 0.468916 0.166911
-0.054887 -0.495233 -0.049381
-0.168996 -0.397395 -0.301530
0.142102 -0.201383 -0.457353
0.225502 -0.315671 0.382640
0.125710 -0.211120 0.448648
0.168419 0.434220 0.242470
0.233042 0.421481 -0.268246
-0.128847 0.130118 -0.482961
-0.268551 -0.341004 0.360280
-0.263768 0.031929 -0.499201
0.032302 0.097360 -0.490635
-0.001526 -0.114779 -0.486584
-0.025335 -0.030818 -0.499210
0.005632 -0.485116 0.107975
0.208501 0.326015 -0.378997
0.285595 -0.239478 0.434202
-0.027294 0.215600 -0.451299
-0.107268 0.111298 0.483301
-0.226369 0.094761 -0.491180
0.021593 0.498371 -0.015118
-0.159693 0.497601 -0.032287
0.104767 -0.251504 0.427305
0.162902 0.440968 0.230498
0.274678 0.467399 0.171310
-0.171865 0.170949 -0.470115
0.042843 -0.150742 0.472379
-0.253767 0.365925 -0.340475
-0.135333 -0.451934 -0.210517
0.277852 0.184688 0.460553
0.093246 0.218673 -0.449785
0.120294 -0.349490 0.352019
-0.175739 0.482993 0.121286
-0.168652 -0.356017 0.345665
-0.176771 -0.109314 0.483563
-0.233649 0.198767 0.454633
0.123623 -0.418618 -0.271090
0.169144 -0.434296 -0.244905
-0.062053 0.059499 -0.496765
0.265081 -0.210161 0.449121
0.000501 0.416471 0.271541
-0.039327 -0.035154 0.494503
-0.005471 -0.028257 -0.499325
0.138962 -0.456867 -0.199101
-0.074210 0.373383 -0.332240
0.101177 0.490623 0.086783
0.062839 0.437683 0.236432
-0.141686 0.341515 -0.365134
0.210480 0.465269 -0.180950
-0.215321 0.346899 -0.359893
0.215413 -0.477826 0.136335
-0.199721 0.498093 0.022154
0.225400 0.269055 -0.421551
-0.157931 -0.075261 0.489983
0.160987 0.419240 -0.271921
-0.160808 0.317657 -0.386168
0.282156 -0.378359 0.321262
0.089691 0.482705 -0.126785
-0.074164 0.451490 0.209145
0.203262 -0.491695 -0.077621
-0.035957 0.458218 -0.198435
-0.236378 0.481592 -0.131472
-0.043955 0.101576 -0.489752
0.144299 0.425837 -0.261100
-0.122767 0.157536 0.470513
-0.036997 -0.271276 -0.419658
-0.224824 -0.489972 0.083669
-0.254117 0.327475 0.373502
0.052084 0.450376 -0.215911
0.038845 -0.287042 0.404632
0.064504 -0.181936 0.461238
0.096355 -0.432382 0.244330
-0.109820 0.149779 0.472880
-0.112687 -0.395719 0.299594
0.031853 -0.108377 0.483759
0.069925 0.497526 -0.033942
-0.150457 -0.356149 0.345536
0.247426 0.371042 0.330656
-0.045511 0.044736 -0.498163
0.027448 0.399587 0.295630
-0.099650 -0.423236 -0.264095
0.040816 0.010982 0.495792
0.070607 0.323723 -0.380963
0.185845 -0.123516 -0.484507
0.063012 -0.405142 -0.291262
-0.219566 -0.258214 0.423458
-0.048223 -0.019631 0.495479
0.224369 -0.417164 0.269293
0.182551 -0.344918 -0.361129
0.093434 -0.225857 -0.445730
0.153589 -0.464295 -0.181286
-0.225409 -0.043821 0.493801
0.245742 -0.497236 0.013215
0.062930 -0.017278 -0.499818
0.259673 0.496936 0.036649
-0.252151 -0.193207 -0.461022
0.016135 0.383689 0.315918
-0.076711 -0.449443 0.211353
0.189389 -0.286512 -0.409071
-0.046844 -0.295172 -0.403015
0.022750 -0.314205 0.383897
0.267363 0.393080 0.304255
0.016749 -0.451135 0.207581
0.259086 -0.399243 -0.299081
-0.124825 0.280111 -0.414253
-0.139192 0.474973 0.149351
-0.087550 0.497880 -0.026056
0.246561 -0.419751 0.265049
0.123611 0.191786 0.457766
-0.139376 -0.294669 -0.403367
-0.070991 -0.375634 -0.328464
0.046555 -0.187766 -0.463367
0.098680 0.018517 0.495454
-0.278286 -0.062240 0.491867
0.286636 0.275739 0.412969
0.023178 0.313932 -0.389364
-0.133396 -0.265632 -0.423099
0.218800 0.010057 0.495834
-0.083203 -0.491872 0.072630
0.268680 -0.421352 0.262422
0.164808 0.118352 0.481625
0.190189 -0.250110 0.428104
-0.148605 -0.453536 0.202231
-0.081070 0.051287 0.493173
-0.035803 0.103081 0.485254
-0.223831 0.327914 -0.377367
0.179785 0.057702 -0.497025
0.132219 0.487787 -0.105401
0.207804 -0.442539 0.225145
-0.059914 0.229168 0.440173
-0.173656 0.418175 0.268960
-0.023339 -0.145961 -0.478086
-0.043949 0.375802 0.325109
0.154715 0.367371 0.334818
-0.146765 -0.031193 -0.499193
0.107391 -0.497256 -0.016106
-0.268243 -0.493669 0.059412
0.149095 -0.392269 0.303921
0.140309 -0.135613 -0.481243
-0.058365 -0.420617 -0.268062
-0.127157 -0.280706 0.408830
-0.176281 -0.437357 0.234987
-0.019315 0.498468 0.001332
0.097605 0.495420 -0.057044
-0.109946 -0.136912 0.476449
-0.121859 0.110007 -0.487986
-0.256557 -0.478063 -0.139783
0.273693 -0.475156 0.145086
0.199954 0.270587 0.416350
-0.267276 -0.349341 -0.356639
0.010872 0.388978 -0.313687
-0.121866 -0.133598 -0.481858
-0.214240 -0.334383 -0.370671
-0.237050 0.292322 -0.405776
-0.234009 -0.111561 0.483092
0.048895 -0.080379 0.489243
0.019820 0.099900 -0.490103
-0.010618 0.488079 0.098926
0.119072 0.496554 -0.046549
-0.117589 0.032311 -0.499170
0.273590 -0.078003 -0.493923
0.139325 -0.239014 0.434468
-0.124375 0.382207 -0.322178
-0.182360 0.496246 -0.049400
-0.282344 -0.491639 -0.078011
-0.113589 0.301476 0.394699
0.085574 0.071317 0.490897
-0.231275 0.318240 0.381331
0.188253 0.498322 0.009419
0.173887 0.440676 0.231092
-0.024465 0.245623 -0.435619
-0.188756 0.450228 -0.216240
0.073532 -0.240207 -0.438174
0.029379 0.156589 0.470802
0.069821 -0.489119 0.088625
0.259336 -0.288178 -0.407906
0.087453 0.394963 -0.306181
-0.257840 -0.473686 -0.154465
-0.038452 0.085072 -0.493065
-0.006055 -0.415550 0.271740
-0.119558 -0.417012 -0.273523
0.272049 -0.224353 0.442127
-0.286537 -0.236305 -0.440229
0.144571 -0.355191 -0.350630
0.034358 -0.456382 -0.200266
0.117410 -0.489089 -0.093567
-0.119131 0.409908 -0.285625
0.046904 0.110313 0.483535
0.096132 -0.449715 -0.215022
0.226483 0.414154 -0.279554
-0.248374 0.452859 0.206368
-0.061568 0.494160 -0.068705
-0.127651 -0.480241 0.128418
-0.141566 -0.438234 0.233322
0.262014 0.116229 -0.486682
0.224101 0.098815 0.486163
0.205179 0.016351 0.495552
-0.270452 0.051811 -0.497590
0.151957 -0.284476 -0.410495
0.243129 -0.008396 0.495682
-0.160926 0.495028 0.057316
-0.151786 0.407728 -0.288743
0.051426 0.324890 -0.379962
0.044144 -0.475928 0.142555
0.208229 0.308287 -0.393731
-0.227312 -0.169567 -0.470196
0.010698 0.206021 -0.455977
0.159894 0.459730 0.190339
0.073330 -0.119240 0.481328
-0.054204 -0.389351 0.307581
-0.248231 -0.482227 0.120131
0.174370 0.237060 -0.440529
-0.174115 -0.284677 -0.410355
0.240063 0.399791 0.295359
0.186636 -0.425387 0.255804
-0.028393 -0.435336 0.238826
-0.224796 -0.213749 0.447353
-0.289996 0.403317 -0.295049
-0.282108 0.446542 -0.223843
0.133862 -0.323541 0.375887
0.091586 -0.383598 -0.319183
0.233663 0.127716 0.479400
-0.186380 0.407518 -0.289043
-0.077601 0.078159 -0.494065
0.106737 0.106483 -0.488724
-0.220585 -0.473231 -0.155785
-0.259612 0.194302 0.456637
-0.165019 -0.091824 -0.491544
0.036725 -0.355465 0.346202
-0.177206 -0.462078 0.182372
0.051180 -0.432332 0.244412
0.028359 0.311136 0.386996
0.222984 0.314452 0.384352
0.229460 0.386309 0.312864
0.277634 0.419937 0.266291
-0.144827 0.172907 0.464974
-0.265013 -0.134581 -0.481558
-0.281424 0.374046 -0.331509
0.216938 0.418889 0.267878
-0.138664 0.238645 -0.439620
0.216868 0.370106 -0.335858
-0.021306 0.491060 -0.087652
0.198300 -0.323690 -0.380356
-0.151976 0.488893 -0.100240
0.065021 0.408114 0.284200
-0.160576 -0.492234 -0.073897
-0.005503 0.148099 0.473393
0.016857 -0.104165 -0.489106
-0.020333 -0.488441 0.092562
0.165400 -0.443918 -0.226787
0.019031 0.242253 -0.437552
0.048127 -0.414615 0.273076
-0.086793 0.381389 -0.323205
-0.026199 -0.370701 -0.334213
0.274570 0.483705 -0.122579
-0.228701 -0.226637 -0.445319
0.025899 0.479839 0.132710
0.120470 -0.479392 -0.134971
0.071059 0.495244 -0.058675
0.182058 0.478111 -0.143112
-0.153854 0.241993 -0.437700
0.161477 0.036559 0.494645
-0.109342 -0.496873 0.021304
0.160987 -0.497623 0.004278
-0.067816 -0.480693 0.126588
-0.065955 -0.042280 -0.498390
0.066996 0.176643 -0.468151
-0.248469 -0.082529 -0.493144
0.205224 -0.170299 0.465633
0.141629 -0.494836 -0.054277
0.117023 0.478864 -0.140643
0.098309 -0.270015 0.415888
0.015206 -0.450075 -0.214291
0.000544 -0.479673 0.130282
-0.185139 -0.433544 -0.246217
-0.027548 -0.049001 -0.497663
0.128216 0.003997 0.495905
0.062038 0.348855 0.353837
-0.258179 0.250818 -0.432640
0.120334 0.300208 0.395710
-0.141579 -0.410419 0.279076
-0.028286 0.498317 -0.016307
0.110509 -0.450710 -0.213002
0.109289 0.495410 0.054672
-0.065340 -0.425072 -0.260990
-0.227467 -0.325124 0.374528
-0.135273 -0.485461 0.106525
-0.118995 0.399511 0.295730
-0.006398 0.294179 -0.404374
-0.280159 0.477480 0.141257
-0.122162 0.322939 0.377584
0.073502 -0.341207 -0.364490
0.050331 -0.473878 -0.153908
-0.041352 -0.356475 0.345219
0.201077 -0.074267 -0.494566
-0.041448 0.008078 -0.500059
0.013462 0.304080 -0.396905
0.185675 0.396328 0.299950
-0.244835 0.479228 0.134925
0.080165 0.486243 0.107694
-0.279093 0.464875 -0.182001
0.218051 0.382720 0.317046
0.071981 -0.337300 0.363886
0.248784 0.449295 0.213601
-0.143230 0.371542 -0.334273
0.230653 0.405826 0.287360
0.077473 -0.209303 0.449544
-0.162599 -0.462197 -0.186318
-0.094594 -0.143840 -0.478733
-0.046274 0.492671 -0.078299
0.167031 -0.483428 -0.120349
-0.060701 -0.461358 0.184289
0.015105 0.450438 -0.215772
-0.151809 -0.321780 0.377397
-0.116671 -0.479010 -0.136356
0.073220 -0.496738 -0.030809
0.097989 -0.248769 -0.433380
-0.069914 -0.007887 -0.500239
0.285493 0.144329 -0.479038
0.235528 -0.492354 -0.073065
-0.026758 -0.377741 -0.326009
-0.180770 -0.275127 0.412513
-0.047197 -0.486892 -0.104056
0.178145 0.490534 -0.090712
0.082798 0.130664 0.478699
-0.181564 0.368662 -0.337453
0.248857 0.373970 -0.331592
0.109195 0.094296 0.486941
0.004828 -0.414848 0.272744
0.267346 0.376970 0.323748
-0.226267 -0.084504 0.488646
0.189834 0.471302 -0.164874
0.029718 -0.491829 0.072883
0.185375 0.419610 0.266786
0.008912 0.031488 0.494873
0.040739 0.409814 0.281624
-0.208746 -0.426463 0.254039
-0.161133 0.496621 -0.045933
0.102827 -0.211715 0.448355
0.219693 -0.390803 -0.310268
-0.281213 -0.213572 -0.451883
0.230476 0.444611 -0.227510
-0.224522 0.247639 -0.434463
-0.141582 -0.015297 0.495557
-0.271503 -0.105050 -0.488896
-0.240708 0.428365 0.252680
0.103079 -0.291429 0.401323
-0.237890 -0.467389 -0.172719
-0.259313 -0.338703 -0.366758
-0.237403 0.414958 -0.278405
0.122026 0.167391 -0.471343
-0.113097 -0.178575 0.462640
-0.252672 0.128976 -0.483276
-0.279757 0.202656 -0.457381
0.188894 0.240589 0.434159
0.115201 0.130166 0.478817
-0.284586 0.469103 -0.170734
-0.044246 -0.496144 0.036512
0.048538 0.109235 -0.488147
0.177125 0.077398 -0.494175
0.121245 -0.352598 -0.353294
0.170252 -0.267885 0.417294
0.109496 0.319990 -0.384167
-0.030324 -0.093843 -0.491196
0.145116 0.272850 0.414970
0.022942 0.203378 -0.457079
0.260955 -0.492443 0.069316
-0.215108 -0.341507 0.359791
-0.080348 -0.497287 -0.014341
-0.235715 -0.464982 0.174633
-0.237670 0.473191 -0.159236
-0.101053 0.010961 -0.500007
-0.204605 0.478639 0.137058
0.255793 0.304457 0.392321
0.021579 -0.194487 0.456006
0.113454 -0.495365 0.043720
0.004183 0.473373 0.153992
-0.082280 0.230790 -0.443814
0.034310 0.321639 -0.382751
0.283920 -0.368546 0.332096
-0.071807 -0.276942 0.411315
-0.179178 -0.197626 0.454697
-0.020286 0.337469 -0.369073
0.103237 0.437469 -0.241074
0.235663 0.461731 0.185540
-0.276731 -0.045248 -0.498069
-0.045851 -0.485536 0.106210
-0.117369 0.360842 -0.346087
0.102782 0.476434 0.145044
-0.190240 -0.079061 0.489433
0.282438 0.035368 -0.498922
-0.245377 -0.117093 0.481921
0.230328 0.457464 0.195774
0.274720 0.019239 0.495422
-0.023713 0.355080 0.347444
0.143449 -0.198306 0.454414
0.037266 0.205531 0.451598
0.186970 0.496810 0.038205
0.207681 -0.493396 -0.065861
-0.194728 0.254815 0.425965
-0.220512 -0.270693 0.415440
-0.106775 -0.460044 -0.191483
-0.100268 0.478440 -0.142033
-0.228771 0.337371 0.364540
0.200782 -0.375601 -0.328503
-0.178142 0.438843 0.234408
-0.149677 -0.255651 0.424927
0.099790 0.498610 -0.006550
0.121330 0.323850 0.376786
0.117754 0.435810 -0.244225
0.095947 -0.298813 0.395752
-0.068998 -0.453490 -0.207202
0.121511 0.277617 0.411656
-0.004830 0.350310 -0.356572
-0.150730 -0.459865 -0.191912
0.163598 -0.406336 -0.289680
0.114789 0.359269 0.343140
0.173932 -0.068722 -0.495521
0.136186 -0.493112 0.064570
0.073658 0.489663 -0.095767
0.042443 -0.494984 -0.052458
0.056701 -0.211622 -0.452758
0.117867 -0.266910 -0.422320
0.248525 0.351708 -0.355211
-0.206596 -0.216635 -0.450509
-0.018761 -0.496753 0.023979
0.067373 -0.474305 0.147876
0.229910 0.108235 0.484029
0.226230 0.368803 0.333266
-0.147170 -0.476319 0.141275
0.266376 -0.457055 -0.198650
0.033801 -0.128195 -0.483396
-0.145221 -0.473978 -0.153619
0.207235 -0.350750 0.350792
0.004363 -0.490418 0.081074
0.095198 -0.373674 0.326434
-0.137037 -0.394133 0.301583
-0.266615 0.158331 -0.474468
0.285534 0.197073 -0.459708
-0.127688 -0.172151 -0.469226
-0.239422 -0.025555 0.495281
-0.287346 -0.341210 0.360079
0.122692 -0.343717 -0.362217
0.127961 -0.497285 -0.014469
-0.153061 0.382459 -0.321863
-0.156097 -0.483175 0.116144
-0.067903 -0.214660 0.446904
0.145463 -0.490991 -0.082488
0.112396 0.416583 0.271371
-0.015971 0.412139 0.278102
0.236432 0.391851 -0.310085
-0.287287 -0.021813 0.495440
-0.189107 0.396595 0.299596
0.285858 0.146944 0.473745
0.025762 -0.301782 -0.397991
-0.088943 0.470177 -0.167871
-0.275356 -0.497376 0.010096
-0.100474 0.097489 -0.490608
-0.134305 0.140127 -0.480198
0.186362 -0.194174 0.456136
-0.242792 -0.417274 -0.273126
0.245538 0.222735 -0.447783
-0.179424 -0.020190 -0.499687
0.169090 0.353026 0.349554
-0.121988 0.076811 0.489951
0.185609 -0.451013 0.207853
0.199922 -0.403066 0.289590
-0.119783 0.478332 -0.142388
-0.012140 -0.290099 -0.406563
-0.266568 -0.298548 0.395952
-0.144865 0.420512 0.265420
-0.001304 0.428553 0.252354
0.080638 0.353785 0.348774
-0.265188 0.228933 -0.444729
-0.192868 -0.497359 -0.010351
-0.031651 0.350080 0.352579
0.240241 -0.495363 -0.047779
-0.029711 0.432531 -0.250120
-0.057843 0.326563 -0.378526
0.276024 -0.056911 -0.496808
-0.178152 0.458137 0.194160
0.175793 0.210025 -0.454046
0.179669 0.498493 -0.000071
0.148381 0.383160 0.316534
-0.280778 0.335759 0.366000
0.084948 -0.098217 0.485887
0.054056 -0.168582 0.466225
-0.025062 -0.084423 -0.492818
0.139767 0.475532 0.147733
-0.040325 -0.242137 0.432677
-0.059897 -0.420743 0.263422
-0.287313 0.395441 -0.305581
0.200435 -0.424883 -0.261319
0.213831 -0.190112 -0.462410
0.129829 0.497888 0.024902
-0.218128 -0.493794 -0.063110
-0.207482 -0.497588 0.002338
0.034515 -0.076069 0.489866
-0.013098 -0.163640 0.467930
0.117520 -0.307304 -0.393588
-0.055499 -0.487502 0.097935
0.108458 -0.319409 0.379432
-0.194180 0.424377 0.259566
0.194297 -0.167176 0.466710
-0.041859 -0.341676 -0.364066
0.274073 0.012013 -0.499988
-0.103915 -0.366822 0.334000
-0.205651 -0.180134 0.461989
0.278894 -0.058616 0.492391
0.095368 0.495139 0.056548
-0.088475 -0.217472 -0.450133
0.070213 -0.072790 -0.494820
-0.260533 -0.495234 0.044933
-0.282075 0.498137 0.019725
