-0.252901 -0.236997 -0.378960
0.218937 -0.149495 -0.421361
-0.164087 -0.012271 0.442857
0.279396 -0.344634 -0.283616
-0.220974 -0.170143 -0.413441
-0.270777 0.135469 -0.426592
0.038081 0.241537 -0.376674
-0.133226 0.428015 0.122152
0.011760 -0.372464 -0.245440
0.035447 0.138619 -0.425645
0.152013 -0.442824 0.038693
-0.254014 -0.336149 -0.293540
-0.257769 0.436619 -0.092079
-0.150083 0.300803 -0.330968
-0.223913 -0.444110 0.023669
-0.258053 -0.202095 -0.398620
-0.209293 -0.361724 0.256889
0.199447 -0.283699 0.340789
0.210117 0.053006 -0.444414
0.255688 0.405644 0.182650
0.027797 0.445847 0.001025
-0.125306 -0.384641 -0.225533
-0.198458 0.119098 -0.431349
-0.267701 -0.072934 0.436955
0.262196 0.168214 0.410366
-0.009158 0.390389 0.213193
0.110908 0.434677 0.096413
0.086093 0.233626 0.377206
0.238309 -0.190148 0.400354
-0.059274 -0.399839 0.192760
0.092214 -0.331615 -0.298682
0.250765 -0.275106 -0.351838
0.143065 -0.349141 -0.277805
-0.288806 -0.135526 -0.426278
0.003119 -0.193407 0.398693
0.262470 0.445445 -0.018176
0.268054 -0.151969 0.416116
-0.273950 -0.398084 -0.200558
-0.097898 -0.156817 -0.418724
-0.277620 0.080871 -0.440214
-0.222490 0.356813 -0.269236
-0.159992 -0.412520 -0.168746
-0.183891 -0.424112 -0.136415
0.097411 0.015408 0.442790
0.235355 -0.232717 -0.381491
0.059276 -0.149156 0.417129
-0.197855 -0.428445 -0.121499
0.204179 -0.183918 -0.407480
-0.069041 -0.031034 -0.446395
-0.124102 0.442829 0.049488
-0.169208 -0.124203 0.425214
0.147813 0.174038 -0.412199
0.170774 -0.180266 -0.409060
0.225484 0.017537 0.442723
0.104915 -0.201550 0.394544
-0.224911 0.042580 0.441047
0.025313 -0.340610 -0.288480
0.199627 0.373275 0.241400
-0.277549 -0.438798 -0.074498
-0.289460 -0.257725 -0.364976
-0.110848 0.377356 0.235230
-0.046011 0.266077 -0.359637
-0.156343 -0.362469 -0.260146
0.003098 0.273934 -0.353542
0.126303 0.275422 0.348035
0.232976 0.422291 -0.144978
0.016294 0.229577 0.379601
-0.186158 0.443884 -0.042672
0.137068 -0.275214 -0.351754
-0.221659 -0.444752 0.003253
0.278476 -0.151419 0.416314
-0.016097 0.070877 0.437444
-0.092564 -0.193648 0.398571
-0.220267 0.064096 -0.442871
0.204471 0.198742 0.396497
0.020434 0.442705 -0.055151
-0.289190 -0.147337 -0.422138
0.274251 -0.418956 0.147040
0.266858 -0.223077 0.382839
-0.050022 0.426219 0.128335
0.168466 0.443370 0.043762
-0.009756 -0.237988 -0.378374
-0.092139 -0.252904 -0.368253
0.058308 -0.400676 -0.195471
0.124370 -0.362863 -0.259567
-0.092129 0.307380 -0.324938
-0.104068 0.285229 -0.344697
0.074643 0.288515 0.337447
0.164736 -0.217867 -0.390273
0.039853 0.147766 -0.422352
-0.231749 -0.215568 0.387279
-0.253850 -0.426385 0.124237
0.079111 0.045799 0.440742
0.054404 0.417260 0.154597
0.286712 0.362873 -0.261059
-0.136017 0.302934 -0.329088
-0.218073 0.172665 -0.412793
-0.012853 0.445512 -0.016044
0.164085 0.037363 0.441540
-0.210585 -0.355429 0.265346
0.085512 0.187463 0.402036
0.134688 0.250816 -0.370368
0.052149 0.423565 -0.141439
-0.133532 -0.363900 -0.258040
0.026629 -0.376244 -0.239732
0.035639 0.240910 0.372747
0.106297 -0.048443 0.440396
0.075780 -0.196046 -0.401702
-0.095732 0.252822 0.364651
-0.238570 -0.004234 0.443109
0.178538 -0.045475 0.440676
0.016150 0.215962 -0.392006
-0.160422 0.444331 0.033593
-0.280731 -0.428114 0.118285
0.210906 0.402674 0.189207
-0.242417 0.391452 0.211232
0.219587 0.397312 0.199730
-0.221876 -0.143695 0.419095
-0.197081 -0.036463 0.441528
0.190636 -0.093164 0.433086
0.059568 0.068109 -0.442235
0.235591 -0.388405 0.214815
-0.115248 0.121371 0.426335
-0.265622 -0.438753 0.070425
0.082704 0.422702 -0.143836
0.107128 -0.403050 0.186278
-0.182079 -0.209160 0.390667
0.217370 -0.022457 -0.446890
-0.012413 0.439577 0.071698
0.000053 0.398522 0.197356
-0.023678 -0.444030 0.025936
-0.072009 0.007135 0.443050
-0.116369 -0.216183 0.386916
-0.278937 0.376750 -0.240609
-0.241480 0.332251 -0.299124
0.200189 -0.364332 -0.257405
-0.054744 -0.330158 0.295981
-0.189595 0.397244 -0.204217
0.090429 -0.368062 -0.251916
0.118347 0.262685 -0.362268
-0.125191 -0.045268 -0.445049
0.129678 -0.171685 0.408420
-0.001460 0.190274 0.400812
0.186874 0.007173 -0.447402
-0.082291 -0.387947 -0.219942
-0.042218 -0.010878 0.442900
0.009176 -0.437374 -0.083489
0.246575 -0.232818 0.377078
-0.134202 -0.418789 0.147505
-0.033912 0.423350 0.137681
-0.006766 -0.351528 0.270375
0.011268 -0.320751 0.306189
0.104454 -0.397414 0.197520
-0.235070 -0.367488 -0.252761
-0.182190 -0.179222 -0.409512
-0.191951 0.143868 0.419402
-0.236985 0.421663 -0.146722
0.213929 -0.439166 -0.072171
0.248566 0.290053 -0.340445
-0.061723 0.109788 -0.433953
0.144091 0.381196 0.228738
-0.180211 -0.424495 0.130743
-0.104516 0.169506 0.409807
0.282127 0.022616 -0.446917
-0.206086 0.425613 -0.134777
0.284104 0.147928 -0.422294
-0.196628 -0.250737 -0.369725
-0.074193 -0.085805 0.434731
-0.246762 -0.313947 0.312993
-0.263168 0.324488 -0.307831
-0.251837 0.149209 0.417479
0.285870 -0.230041 -0.383074
-0.035301 -0.149088 -0.421507
0.245279 -0.438542 0.071760
-0.198500 0.407469 -0.182786
0.119305 -0.417322 -0.155933
-0.278411 0.259527 0.360095
0.189116 0.137509 0.421646
0.186163 -0.231695 0.377742
0.066433 -0.298232 -0.332330
0.031316 -0.444735 0.003800
-0.086304 -0.377040 -0.238386
0.156541 0.392336 0.209497
-0.017244 0.383173 -0.229748
-0.152742 0.330129 0.297177
-0.104794 -0.425566 -0.131408
0.078052 0.445879 -0.000003
-0.266377 0.181678 -0.408893
-0.231494 -0.208942 -0.395131
-0.204967 0.413365 -0.169162
0.215842 -0.382160 -0.229728
-0.276063 -0.063189 0.438499
0.062017 -0.312989 -0.318305
0.031557 -0.441629 0.051333
0.123982 -0.271759 -0.354434
-0.178219 0.272862 -0.354374
-0.133942 0.015796 0.442778
0.222780 -0.228201 0.379808
0.160599 0.331882 -0.299542
0.254851 0.089903 0.434044
-0.083078 -0.444745 -0.007817
-0.200064 -0.355553 0.265186
-0.213504 -0.321289 -0.310004
-0.287787 0.248421 0.367642
0.066902 -0.267416 0.353450
0.078772 0.394199 0.205840
0.122390 -0.391112 -0.214241
-0.267272 0.211721 0.389884
0.286738 -0.226801 0.380636
0.017061 0.430406 0.113925
0.246953 -0.094508 0.432786
-0.191303 0.133270 0.422878
0.123623 -0.044078 0.440808
0.050151 -0.444240 0.019542
0.123085 0.444948 0.027065
-0.170750 0.292551 -0.338242
-0.033348 0.430166 0.114752
0.037264 -0.433297 -0.102356
-0.144424 -0.311929 0.315011
0.273457 -0.437474 -0.082859
0.179271 -0.439477 -0.070213
-0.238186 -0.257099 0.361048
-0.019728 -0.002398 0.443167
0.159588 0.274344 -0.353224
-0.194081 0.440268 -0.071685
-0.272292 -0.425864 -0.130383
-0.129384 -0.444907 -0.001683
0.234228 0.111687 0.429148
0.054786 0.381769 0.227769
-0.123667 -0.444666 -0.010337
0.017548 -0.383643 -0.227220
0.067920 -0.439874 -0.067703
-0.043526 0.406910 0.179725
0.076524 0.403092 0.188388
-0.138647 0.103334 -0.435395
-0.154529 0.439856 -0.074289
0.170611 -0.440661 -0.062738
-0.166878 -0.140219 0.420347
0.091699 0.305113 0.322814
-0.053944 -0.263901 -0.360529
-0.264904 -0.082785 -0.439749
-0.127498 0.419176 -0.153630
0.203635 0.406178 0.181418
-0.081252 -0.252101 -0.368798
0.046556 -0.414549 0.159282
-0.186657 -0.088671 -0.438444
-0.196984 -0.321028 -0.310266
-0.250417 0.013275 0.442857
-0.008504 0.288379 -0.341921
0.025327 -0.361899 0.256631
0.091056 0.424529 -0.138507
0.256060 -0.435285 0.089109
0.204647 0.156423 -0.419235
-0.003842 -0.164105 0.411701
0.225992 -0.056550 0.439550
-0.133884 -0.357788 -0.266658
0.187449 0.046043 0.440719
-0.069802 -0.025128 0.442453
0.220347 0.412177 -0.171907
-0.257557 0.339322 0.286750
-0.169670 0.074879 -0.441163
0.129032 -0.184970 -0.407025
-0.099753 -0.438094 -0.078942
-0.172516 -0.274599 -0.352231
0.141209 0.441701 0.058288
0.068289 -0.444187 -0.025599
-0.276437 -0.442753 -0.043796
0.010962 -0.444171 -0.026098
-0.006098 -0.392602 -0.211317
-0.096416 -0.083144 0.435326
0.145168 0.445108 -0.028888
0.125798 -0.174097 -0.411730
0.020087 -0.389211 -0.217806
-0.210344 0.238944 0.374061
0.285151 0.234349 0.376779
-0.233134 0.207774 -0.396249
-0.043698 0.060569 -0.443430
-0.171270 -0.423071 0.135609
-0.273232 -0.184639 0.402815
0.083140 -0.327048 -0.303863
-0.125672 -0.394725 -0.207151
0.268579 -0.301737 0.324887
0.223843 0.222484 -0.388149
-0.107378 0.079920 -0.440365
0.148096 0.434911 -0.099720
-0.079064 0.165690 -0.415812
-0.036703 0.161061 0.413212
0.199986 0.433086 -0.107884
0.071185 -0.376064 0.235683
0.246529 0.058935 -0.443688
-0.151522 -0.320156 0.306784
0.057187 0.200872 0.395412
0.044263 0.342779 0.282829
-0.074158 -0.385313 0.220043
0.153155 -0.226470 -0.385185
-0.059504 -0.365878 0.250776
-0.285242 -0.393463 -0.209628
0.088103 -0.358242 -0.266072
-0.111829 -0.098004 -0.436358
0.038031 -0.340266 0.284516
0.054720 0.355848 -0.270480
-0.066883 0.351628 -0.275921
-0.124089 -0.444582 0.008675
0.052967 -0.351841 -0.274324
-0.272399 0.412136 0.167649
-0.061001 0.299063 -0.332501
-0.275311 -0.140629 -0.424553
-0.250199 0.361523 0.258693
-0.156232 0.437806 0.082414
-0.073555 -0.377264 0.233653
0.043483 -0.331810 -0.298462
-0.187568 -0.266907 -0.358198
-0.231858 0.417304 -0.158828
-0.162381 0.040745 0.441220
0.201443 -0.323403 0.303538
0.065516 0.271280 0.351247
0.080023 -0.430771 -0.113494
0.224778 0.273252 0.349718
-0.216646 0.433879 0.099984
-0.127902 0.319296 -0.313023
0.099674 0.372330 0.242790
0.248001 0.113369 -0.433013
-0.063020 0.429919 0.115599
0.262517 -0.405565 -0.184817
0.252947 -0.079649 -0.440245
0.008350 0.428583 0.120200
0.134789 0.432070 0.108077
0.182827 0.279450 -0.349264
0.128477 0.212344 -0.393920
0.206385 0.379490 0.231622
-0.145663 0.442932 -0.052744
0.248448 0.189087 0.401334
-0.070314 0.244915 -0.374378
-0.133242 0.311497 -0.320821
0.222401 0.184636 0.403259
-0.216729 0.410270 -0.176315
0.059817 -0.113177 0.428417
0.095823 -0.313068 -0.318226
0.048623 0.005708 -0.447449
0.039327 0.217646 -0.391010
-0.276606 -0.359235 0.260439
0.095333 0.386121 0.220410
-0.131944 0.359958 -0.265181
-0.031147 0.347981 0.276268
-0.147533 -0.260034 0.359053
-0.124726 -0.126435 0.424566
-0.036168 0.280617 0.344005
-0.225877 -0.432365 0.102173
0.259211 0.420608 0.145299
0.271840 0.203250 0.394200
0.033302 0.155939 -0.419409
-0.200724 0.370189 0.245941
0.122263 0.431264 0.110971
-0.032957 0.270476 0.351871
0.086666 -0.198628 -0.400386
-0.128517 -0.053214 0.439945
0.083439 0.422170 0.140960
-0.202681 -0.229249 -0.383542
0.259903 -0.362889 -0.259529
0.136231 0.273496 0.349529
0.197235 -0.143097 -0.423664
-0.179694 0.004510 -0.447486
-0.170769 -0.308088 0.318852
0.172356 0.044720 0.440844
-0.123990 0.193968 0.398929
-0.106519 0.442680 0.051061
-0.277158 0.114252 -0.432756
-0.274913 0.267834 0.353921
0.169611 -0.293929 0.331771
-0.288870 0.441465 -0.064129
-0.043886 -0.433747 -0.100341
-0.057806 0.136214 0.422022
-0.188091 -0.437881 0.075931
-0.034049 -0.443190 -0.039180
0.203171 -0.122682 0.425656
-0.108028 0.049146 -0.444779
0.103430 0.338082 -0.292509
-0.046229 -0.405310 0.181054
-0.069210 -0.440096 -0.066303
-0.112117 0.414780 -0.165841
0.122180 0.341673 0.284083
0.183150 -0.132850 0.422702
-0.122551 0.426455 0.127523
-0.171785 -0.338390 -0.290998
-0.162105 -0.396773 0.198777
0.077867 0.440404 0.066472
0.135410 -0.266354 0.354274
-0.214164 0.189575 -0.405476
0.275214 -0.131822 -0.427354
-0.076582 -0.011302 0.442887
-0.196996 -0.381629 -0.230626
-0.074948 0.153558 0.415913
0.215970 -0.410450 0.169176
-0.129670 -0.351258 0.270724
0.193571 -0.213404 -0.392857
-0.210892 0.127813 0.424463
0.042764 -0.285788 0.338948
-0.255310 -0.441148 -0.059663
0.149326 0.396682 -0.205321
-0.045940 -0.250080 -0.370172
-0.139996 0.445498 0.012138
-0.150287 0.301879 0.325666
0.017703 0.433471 0.101807
-0.125821 0.445738 0.004476
0.059043 -0.429741 0.112687
0.009735 -0.042250 0.440981
-0.113514 -0.232484 -0.381629
0.145752 -0.045215 0.440701
-0.172964 -0.243013 0.370621
0.285254 0.105387 -0.434937
-0.044845 -0.400376 0.191706
-0.224168 0.139658 -0.425271
0.103673 -0.139238 0.420700
0.007624 0.236017 -0.380145
0.250232 0.260999 -0.363447
0.247869 -0.444074 0.024815
-0.062951 0.440493 -0.070264
-0.265419 0.442588 -0.056385
-0.023207 0.343389 0.282136
0.180909 0.126207 -0.429283
0.013697 -0.384386 0.221611
0.004391 0.038906 -0.445747
-0.098121 -0.165979 -0.415243
-0.233901 -0.178068 0.405658
0.200767 0.233447 -0.381665
-0.018567 -0.365618 0.251159
0.133576 0.000691 -0.447606
-0.040163 0.410684 0.171004
-0.091285 0.236010 0.375796
0.208548 -0.091773 0.433397
-0.045434 -0.342824 -0.285949
0.069540 0.331354 0.295788
-0.118974 0.240286 -0.377524
0.003352 0.102911 -0.435490
0.243656 0.055127 0.439861
-0.232034 -0.331155 0.294851
0.013830 0.377934 0.234253
-0.043029 0.429437 0.117259
-0.098599 0.434059 -0.103533
0.145872 -0.405726 -0.184448
-0.180231 -0.335986 0.289371
-0.182483 -0.275616 -0.351443
0.184571 -0.182496 -0.408095
0.067083 0.365606 0.252685
0.217821 -0.113683 -0.432624
0.022752 -0.024881 -0.446814
-0.070936 -0.214281 -0.392394
0.212550 0.429073 0.118512
0.093906 -0.399433 0.193557
0.188175 0.125452 0.425149
0.147739 -0.342832 -0.285939
0.072738 0.188080 0.401769
-0.142723 0.311690 0.316275
-0.218549 -0.393846 -0.208875
0.003459 0.336648 0.289783
0.220478 0.197878 -0.401290
0.110055 -0.379163 0.230443
-0.198707 -0.345276 -0.282788
-0.077216 -0.405268 -0.185506
0.051639 0.241485 -0.376709
0.040246 -0.186726 0.401912
-0.123236 -0.005909 0.443056
-0.286763 -0.428227 -0.122250
-0.194927 0.035898 0.441678
0.224831 -0.367298 -0.253040
-0.146790 -0.201645 0.394496
0.093624 0.391241 0.211646
-0.100374 -0.348051 -0.279211
0.139019 -0.429122 -0.119171
0.248986 0.353334 -0.273721
-0.013888 -0.310236 0.316704
0.169088 -0.304950 -0.326344
-0.089999 0.385434 0.221571
0.062410 -0.416238 -0.158944
-0.008206 -0.261805 -0.362156
-0.009146 0.290411 0.335776
-0.033714 -0.403965 0.184162
-0.100387 -0.208655 -0.395277
-0.163526 0.370022 -0.250540
-0.030651 -0.137530 0.421315
-0.127899 -0.029388 -0.446550
-0.277299 0.358723 0.262421
-0.221265 -0.274303 -0.352461
0.208520 0.226214 -0.385943
0.256295 -0.051740 -0.444437
-0.051016 0.442153 0.055431
0.145602 -0.217467 0.386157
-0.110071 0.320034 0.307931
-0.264454 -0.340759 -0.288311
0.219019 -0.254259 0.362978
0.086425 0.438875 0.076131
-0.147540 0.382918 -0.230180
0.052216 -0.444439 -0.017575
-0.205554 0.016773 0.442747
-0.156010 0.121769 0.426219
-0.285988 0.001557 0.443225
0.094170 0.379364 -0.236188
0.149902 -0.001723 -0.447542
-0.111503 0.437911 0.081945
0.089079 -0.064439 0.438301
-0.097108 -0.441996 0.047453
-0.257528 -0.443418 -0.036763
-0.122535 0.365218 0.253256
-0.204125 -0.406989 0.177175
-0.288700 0.290030 -0.340465
-0.242548 0.153411 0.415966
-0.171915 -0.217026 0.386417
0.197236 0.323343 -0.308976
-0.165439 -0.267276 -0.357912
0.121196 -0.350588 -0.275940
-0.280994 -0.260266 0.358896
-0.197435 0.208079 0.391739
0.216986 0.067924 0.437911
0.202816 0.350251 0.273342
-0.142017 0.323977 0.303988
-0.035737 -0.392510 -0.211499
-0.075735 -0.378663 -0.235641
0.081657 0.437822 -0.086695
-0.198265 -0.306739 0.320201
0.098626 0.263810 -0.361395
0.221777 -0.188143 0.401298
-0.013519 -0.355690 -0.269363
-0.090638 -0.029510 -0.446539
-0.251704 -0.070290 -0.441728
-0.287071 0.419689 -0.152204
0.120531 0.032023 0.442045
-0.175440 -0.200693 0.394981
0.132312 -0.287797 -0.341530
-0.267334 0.206908 -0.396689
0.153204 -0.368385 -0.251441
-0.068659 0.160369 0.413461
0.026110 -0.309943 0.316997
0.148985 -0.424474 0.130815
0.070261 -0.163777 0.411842
-0.276417 -0.077264 -0.440623
-0.207910 0.436092 0.090084
0.033827 0.196600 -0.401942
-0.206726 -0.348910 -0.278103
-0.217728 0.431394 0.110522
-0.055877 0.379345 0.231867
0.244202 -0.048598 -0.444734
0.091314 -0.068212 -0.442057
-0.094510 0.171527 -0.413286
0.074408 0.203373 0.394138
0.078747 -0.334169 -0.295786
-0.130928 0.373387 -0.245588
-0.197419 -0.246162 0.368481
-0.007117 -0.204139 -0.397578
0.028749 0.413791 0.163824
-0.155288 0.442715 0.050685
-0.070300 0.401308 -0.196243
0.124787 0.406531 0.180602
-0.160098 0.238549 -0.378648
-0.256362 -0.385508 -0.224067
0.130806 0.392970 -0.212606
0.240539 0.445434 -0.018510
-0.088382 -0.179991 0.404826
0.002898 0.444689 -0.034157
0.062176 0.442236 -0.059260
0.174891 -0.082061 0.435510
-0.236128 0.217765 -0.390940
-0.279488 -0.288674 -0.340757
-0.047493 0.315180 -0.317138
0.085149 -0.295302 -0.334914
0.086193 -0.305409 -0.325884
0.207802 0.318050 -0.314269
-0.238763 0.008806 0.442998
0.263884 -0.291805 -0.337997
0.186747 -0.412275 -0.169312
-0.091022 0.433245 0.102820
-0.278117 0.438611 -0.082147
-0.160763 0.388601 -0.220570
0.060702 0.442710 0.050741
0.080692 -0.038883 0.441299
-0.288900 0.189014 0.401365
-0.170778 0.261822 0.358535
-0.159742 -0.442222 -0.049415
0.101758 -0.163728 0.411864
-0.097224 -0.293794 0.331890
-0.222378 0.286501 -0.343576
0.044596 0.107317 0.430152
0.248945 -0.326956 -0.303967
-0.154415 -0.119254 0.426652
0.062939 0.346027 -0.283141
-0.250685 0.396637 -0.205410
0.064905 0.357171 -0.268775
0.221835 -0.236791 0.374729
0.038655 0.127710 -0.428846
-0.131444 0.085287 0.435076
0.007484 -0.334583 -0.295316
-0.184395 0.362192 -0.262062
-0.090739 0.372876 -0.246340
-0.155910 0.439701 0.070915
-0.063154 0.434244 0.098351
0.123222 0.356836 -0.269207
-0.196301 -0.403483 0.185277
-0.128686 0.257469 -0.365846
-0.264661 0.402161 -0.194568
0.087249 -0.266215 0.354381
-0.178653 0.431851 -0.113305
0.034518 0.445549 -0.014861
-0.254387 0.291587 0.334739
0.086755 -0.444219 0.020225
0.091189 0.401179 0.192141
-0.025458 -0.235600 -0.379786
0.235199 -0.149514 -0.421354
0.105112 -0.257228 -0.365314
-0.006933 0.042549 0.441050
-0.110155 0.389490 0.214713
0.270813 -0.405712 0.180127
-0.129400 -0.181744 -0.408421
-0.157174 0.164081 -0.416478
0.200475 0.140175 0.420731
0.086361 0.322019 -0.310299
0.144546 -0.012131 -0.447214
-0.164813 0.342453 -0.287551
0.176167 -0.189126 -0.405226
-0.082733 0.217920 0.386495
0.020120 0.109933 -0.433920
0.136365 0.445433 0.014206
-0.094362 -0.440732 -0.062289
0.119022 0.416468 0.156799
0.116572 0.217064 0.387001
0.052829 -0.286058 0.338710
0.233978 0.401954 0.190621
0.266290 0.365718 -0.256873
-0.248466 -0.007500 -0.447360
0.201894 -0.301165 0.325391
0.090372 -0.444859 -0.000163
-0.277188 0.027193 0.442420
-0.160923 -0.303156 0.323636
0.040449 0.013336 0.442855
0.187438 0.392324 -0.213875
0.015905 -0.092180 0.433306
-0.099713 0.218638 0.386070
0.065869 -0.082440 -0.439803
0.157650 -0.379055 -0.234978
0.135668 0.156310 0.414922
0.043677 -0.345966 -0.281899
-0.010619 0.209482 -0.395378
0.219288 -0.095150 0.432642
-0.199364 -0.337278 -0.292259
-0.022778 0.029158 -0.446669
-0.083782 0.240017 -0.377707
0.150761 0.444061 -0.040799
0.206088 -0.253703 -0.367709
0.161832 0.050430 0.440305
-0.018546 -0.385471 0.219776
-0.178218 -0.051624 -0.444448
-0.174132 -0.027128 0.442390
0.014047 0.440117 0.068287
0.110615 0.415918 -0.162679
0.059422 0.278468 0.345672
0.157453 0.420399 -0.150232
0.242878 0.131540 0.423380
-0.184187 -0.346658 0.276653
-0.148165 0.172835 -0.412720
-0.229338 0.376132 -0.241549
-0.062806 0.420300 -0.150507
-0.227110 -0.378176 0.232112
-0.241103 0.366606 0.251214
-0.111544 -0.418607 -0.152363
-0.049057 0.075776 0.436668
0.134532 0.228151 -0.384798
0.241691 0.235284 -0.380579
0.125308 0.387201 -0.222937
0.038177 -0.442637 0.040671
-0.176606 -0.418693 -0.152124
-0.141298 -0.323143 0.303797
0.114323 0.443383 -0.047979
-0.282411 0.407981 0.177249
-0.151664 0.445882 -0.004259
0.000179 0.332155 -0.299233
-0.045875 0.445735 -0.008940
0.278432 0.006267 -0.447431
0.282829 0.445831 -0.005887
0.176127 -0.310455 -0.320838
0.213297 0.445347 0.016923
-0.285529 -0.166466 -0.415032
-0.173831 0.033031 0.441949
0.080453 0.331056 0.296125
0.051299 -0.010685 -0.447260
-0.164406 0.000326 -0.447606
0.253723 0.444459 0.032236
0.197417 -0.394364 -0.207859
0.129862 -0.333131 0.292609
-0.245838 -0.328610 0.297737
0.160348 0.265426 0.355789
0.218813 0.392136 0.209890
-0.243150 0.411115 0.170009
-0.132171 0.420355 0.146001
-0.047819 0.416187 0.157579
-0.204475 -0.225452 0.381434
0.203545 0.329566 -0.302169
0.169241 -0.349798 0.272605
0.016635 0.367422 0.250012
-0.124484 0.380288 0.230273
0.164029 -0.312614 0.314326
0.022381 -0.318148 0.308792
-0.189499 -0.435461 -0.092676
-0.234949 0.312987 0.314978
-0.146097 -0.355012 -0.270236
0.188077 -0.157577 0.414098
-0.208824 0.420240 0.146320
-0.135906 0.408844 0.175256
-0.110995 -0.422660 -0.141105
-0.001153 -0.176809 -0.410556
0.281460 -0.320781 0.306159
-0.159218 -0.357326 0.262900
0.185364 -0.205144 -0.397066
0.231592 0.415818 0.158602
-0.191430 -0.204749 0.392914
-0.044962 -0.395292 0.201684
-0.171608 0.195332 -0.402588
0.040822 -0.075238 -0.440944
-0.201808 -0.434045 0.094654
0.106988 -0.427287 -0.125485
-0.259652 -0.411957 -0.170047
-0.270675 0.290593 0.335616
-0.214164 -0.442907 -0.042169
0.137851 -0.063245 0.438490
0.029787 0.438388 0.079200
0.284892 0.420642 -0.149556
-0.085612 0.445248 0.020089
0.111502 -0.067531 -0.442165
0.132488 -0.432231 0.102773
0.225492 0.103801 0.430938
-0.117142 0.103482 -0.435362
0.191250 -0.089897 -0.438170
-0.008864 -0.194360 -0.402561
0.179176 0.308837 0.319128
-0.289608 0.445430 0.014282
-0.071086 0.043240 -0.445338
0.221960 0.386445 0.219862
0.056170 -0.414109 0.160504
0.235181 -0.013145 0.442829
-0.220670 -0.206630 0.391956
-0.102891 -0.366968 0.249173
0.043111 -0.018780 -0.447006
0.045433 0.260434 -0.363832
-0.094717 0.202329 -0.399023
-0.052880 -0.383683 -0.227152
0.001109 0.180583 -0.409367
-0.057839 0.400891 0.192707
-0.285560 -0.443763 0.028758
-0.203586 0.152860 -0.420518
-0.028832 0.387829 0.217522
-0.124885 -0.171595 -0.412813
-0.286284 -0.097390 -0.436495
-0.261941 -0.008039 -0.447343
0.164825 -0.422976 0.135875
0.172732 -0.127539 0.424245
0.206911 -0.432419 0.101928
-0.086630 -0.403931 -0.188596
0.273107 -0.419774 -0.149120
-0.148088 0.445563 -0.014423
0.218770 0.305881 0.322084
-0.044238 -0.080842 -0.440056
0.078870 -0.252770 -0.368343
0.044259 0.195375 -0.402566
0.164737 -0.172946 -0.412228
-0.267189 -0.203776 0.393410
0.213392 -0.267432 -0.357791
0.128737 0.445562 -0.014449
-0.088905 -0.438683 -0.075226
-0.227683 0.305392 -0.326922
-0.205915 0.412772 0.166178
0.029669 -0.320900 -0.310394
0.065447 0.154919 -0.419777
-0.096651 -0.396713 -0.203248
0.139546 0.444415 -0.037058
-0.140633 -0.368232 -0.251666
0.044836 -0.195829 0.397459
0.148008 -0.431351 -0.111060
-0.140027 -0.289781 0.335427
-0.092549 0.414974 0.160948
-0.220065 -0.002180 -0.447527
-0.162371 -0.240410 0.372390
0.024430 0.029930 -0.446596
0.004405 0.434870 0.095551
0.051743 0.412856 0.165985
0.081738 0.442877 -0.053333
0.200941 0.072881 0.437126
0.024522 -0.440775 -0.062018
-0.232917 0.030375 -0.446554
-0.243503 -0.089723 -0.438209
0.113094 -0.294662 0.331125
0.051124 0.251599 -0.369836
0.107442 0.317632 0.310333
0.244945 -0.364435 -0.257254
0.173408 -0.416915 -0.157063
-0.167149 -0.187052 0.401771
0.122237 0.179441 -0.409861
0.118120 -0.428712 0.116229
-0.058512 0.045197 -0.445153
0.062444 -0.031785 0.441970
-0.288308 -0.435114 0.089876
0.001043 -0.309267 -0.322026
-0.240624 -0.167160 0.410379
0.283434 -0.441425 0.053492
-0.232014 0.066696 -0.442459
0.242005 -0.395658 -0.205320
0.128537 0.122496 -0.430361
0.208292 0.438624 0.077714
-0.144741 -0.124918 0.425006
0.129594 0.428106 0.121842
0.226967 0.351606 0.271595
-0.259994 -0.268845 -0.356694
-0.017970 0.394439 -0.209723
-0.270100 -0.409887 -0.174832
-0.169010 0.287246 0.338566
-0.256894 -0.426159 -0.129370
-0.284025 -0.388625 0.214443
0.067077 -0.387507 0.216333
-0.024062 -0.148574 0.417339
0.051286 0.129080 0.424095
0.132907 0.361994 -0.262353
-0.223186 -0.309402 -0.321892
0.286915 -0.444410 -0.018500
0.101282 -0.419492 0.145550
0.204065 0.293074 0.333428
-0.092503 -0.147286 0.417803
-0.021401 -0.442953 -0.041683
-0.077381 0.225513 -0.386358
0.130646 0.357304 0.264249
0.155283 0.340818 0.285053
0.283878 0.396952 0.200437
-0.199732 -0.269287 -0.356352
-0.243288 0.345751 -0.283497
0.071621 0.165783 0.411418
0.146441 0.134173 0.422615
-0.266312 0.188494 0.401590
-0.133772 -0.110163 0.429287
0.232867 -0.001673 0.443190
0.221504 0.058041 0.439477
-0.104127 -0.311538 -0.319755
-0.226026 -0.285815 0.338924
-0.000315 0.201389 0.395148
-0.043295 0.152496 0.416296
-0.193426 -0.148029 0.417535
0.050771 -0.141884 0.419747
0.144010 0.234777 -0.380879
0.160823 0.391818 -0.214867
0.070510 -0.443233 -0.038724
0.275470 -0.427838 0.119237
0.083568 -0.027785 0.442348
-0.235308 0.430974 0.111969
-0.206286 0.125266 -0.429557
-0.011724 0.144785 -0.423425
0.029302 -0.269869 0.351547
-0.095171 -0.398902 0.194600
-0.272253 -0.089985 -0.438150
-0.270038 0.408188 0.176772
0.220525 0.048082 -0.444880
0.204751 0.420591 -0.149697
-0.214051 0.391731 0.210685
0.024466 0.120362 0.426628
-0.212175 -0.289806 -0.339759
-0.272965 -0.212646 0.388891
0.204087 -0.409623 0.171087
0.012039 0.111600 0.429173
-0.130049 -0.407017 0.177109
0.162983 0.380180 -0.234808
0.232575 -0.066927 -0.442260
0.033427 -0.023232 -0.446866
-0.050273 -0.363767 0.253883
-0.119344 -0.198065 0.396320
0.261987 0.416650 0.156292
0.043621 -0.378078 0.232278
0.173822 -0.235049 -0.380112
-0.232781 0.150148 0.417141
-0.022141 0.445270 0.019374
0.097674 -0.429359 -0.118356
-0.169041 -0.141454 -0.424256
-0.078430 0.425438 -0.135379
-0.123440 0.110850 -0.433715
-0.008195 -0.409433 0.171528
-0.202503 0.306092 0.321873
0.148386 -0.147007 0.417903
-0.114560 0.444726 0.029419
-0.007477 0.222091 0.384028
-0.174807 0.391936 0.210282
-0.084466 0.006522 0.443069
0.083327 -0.351951 -0.274183
0.180308 -0.366947 -0.253557
-0.180132 -0.355550 -0.269544
-0.209296 -0.244801 0.369406
-0.236297 -0.317238 0.309703
0.193170 0.299523 0.327742
0.063563 -0.387594 -0.220539
0.215298 -0.339477 0.285411
0.151807 0.063187 0.438662
-0.014558 -0.329215 0.297052
0.151785 -0.300230 -0.330569
-0.121634 0.361763 -0.262692
0.022640 0.440621 -0.069457
-0.145698 0.122674 0.425956
0.097699 0.042927 -0.445367
0.145098 0.197212 0.397277
0.282631 0.434648 0.096542
-0.136884 0.136633 -0.426254
0.245655 0.402152 0.190231
0.100929 0.445868 -0.004698
-0.246833 -0.068776 0.437614
-0.105491 -0.250192 0.365742
-0.009985 0.378366 -0.237877
-0.145684 -0.206290 -0.396482
-0.165200 -0.073298 0.436898
0.263918 -0.282921 0.341423
0.094547 -0.131321 0.423146
-0.065416 -0.381717 -0.230476
-0.180819 0.347786 -0.280873
-0.167465 -0.297031 -0.333389
-0.066447 -0.326123 0.300558
0.044505 -0.419761 0.144804
0.201996 -0.416972 0.152550
-0.176356 0.253794 0.363991
0.054152 -0.267849 0.353114
0.025601 -0.148575 0.417338
0.269518 -0.183263 0.403410
0.162687 0.441762 0.057903
-0.035247 0.278897 -0.349692
0.083589 -0.441850 0.049002
-0.086078 0.148327 -0.422150
-0.002096 -0.254505 -0.367164
0.146443 -0.390057 0.211958
-0.124127 -0.098324 -0.436286
0.147435 0.307946 -0.324372
0.233373 0.441829 -0.061831
0.198657 -0.437701 -0.081422
-0.213216 -0.327861 -0.302941
0.190999 -0.289669 -0.339880
-0.021593 -0.130639 0.423344
-0.014621 0.370245 0.245858
-0.056808 -0.388544 0.214580
0.132967 0.066388 0.438155
0.263365 0.207151 -0.396566
0.020545 0.439078 -0.079202
-0.031858 -0.444516 0.010779
0.232374 -0.406719 0.177799
-0.209019 -0.235313 0.375602
0.139582 -0.364528 0.252763
-0.034692 0.377008 0.235820
0.038950 -0.414734 -0.163121
-0.204629 -0.325928 0.300780
0.142250 -0.124452 -0.429495
0.159113 -0.393668 0.204871
0.176196 -0.314370 0.312571
0.027983 0.427128 0.125208
0.225831 -0.169446 0.409389
-0.170173 0.168199 -0.414726
0.035032 0.128868 0.424157
0.234826 0.360846 0.259683
0.158740 -0.427079 0.121848
-0.014445 0.009075 -0.447343
-0.078127 -0.018985 -0.446999
0.165245 0.222486 0.383794
-0.265664 0.443709 0.040175
-0.158825 0.264943 0.356163
-0.091273 -0.442494 -0.046535
0.144534 -0.286916 -0.342307
0.119978 0.296762 -0.334529
0.160104 0.188208 -0.406067
0.101434 -0.203755 -0.397774
-0.084146 -0.417576 -0.155227
-0.074909 -0.428063 0.118461
0.128128 -0.035447 0.441624
-0.217970 0.032511 0.441998
-0.192825 0.433617 -0.105510
-0.210569 -0.179790 0.404913
-0.006910 0.045987 -0.445078
-0.161553 -0.288848 -0.340603
0.141133 0.141806 -0.424498
-0.143348 0.400572 0.193332
0.002300 0.141753 0.420163
0.034849 0.140368 0.420662
0.201959 -0.406453 -0.182767
-0.116508 -0.303643 0.323207
-0.156559 -0.333811 0.291839
-0.162190 -0.366496 0.249868
-0.174930 -0.351624 0.270251
-0.152215 0.411821 -0.172730
0.202115 -0.133759 -0.426791
0.260382 0.106149 -0.434766
-0.108004 0.398439 0.197520
-0.269235 -0.401501 0.189499
0.006493 -0.349393 -0.277481
0.209169 -0.214590 -0.392211
0.039811 0.278184 0.345892
-0.042653 -0.351772 -0.274414
0.015888 -0.307007 -0.324287
-0.102325 -0.412671 -0.168398
0.018021 0.249641 0.366813
0.220212 -0.444105 -0.028202
0.011293 0.349622 0.274153
0.061401 0.388359 0.216626
-0.021496 -0.122420 -0.430086
0.210542 0.440295 -0.071515
-0.012896 -0.136060 0.421769
-0.055396 -0.287566 0.337380
-0.150320 0.154699 0.415503
-0.206461 0.228344 -0.384683
-0.274228 0.445727 0.004850
-0.165965 0.430043 0.115175
0.003763 -0.274245 -0.352506
-0.186500 -0.367821 0.247918
0.283955 -0.444886 -0.001003
-0.131523 0.437664 -0.087402
0.056527 -0.405457 -0.185067
-0.144131 -0.242410 0.371030
0.054728 -0.344626 -0.283626
0.108708 0.434126 -0.103234
0.282211 -0.063891 0.438388
-0.175739 -0.090525 -0.438029
-0.101203 0.236195 0.375687
-0.145883 0.285214 -0.344710
0.051325 -0.431484 0.106113
0.151524 -0.409336 -0.176105
-0.041901 0.385438 -0.225917
0.193861 -0.072381 0.437043
0.028605 0.364091 0.254915
-0.039033 0.211541 -0.394329
0.252825 -0.440589 -0.063193
0.005405 -0.259673 -0.363652
-0.049910 0.217343 -0.391189
0.217179 -0.136691 -0.425940
-0.187160 -0.374954 0.237422
0.061027 -0.238077 0.373968
0.111281 -0.145663 0.418387
0.152132 0.272032 0.350664
-0.192228 0.444789 0.028744
-0.179512 0.163100 -0.416831
0.115555 -0.172170 -0.412564
0.135947 0.257419 0.361527
-0.030502 -0.379293 0.230223
-0.262938 0.439038 0.075096
-0.225982 -0.068228 0.437701
-0.239158 0.000674 -0.447607
-0.169802 0.382925 -0.230168
0.176815 0.415360 -0.164229
-0.078691 0.437757 0.082633
-0.237040 -0.388153 -0.219594
-0.228443 -0.444610 -0.012117
-0.107130 -0.425005 0.128986
-0.228835 0.440911 -0.067624
0.082928 0.445437 0.014054
0.093079 0.398899 -0.200970
0.050708 -0.040688 -0.445482
0.153160 0.337559 -0.293102
0.285477 0.370765 0.245094
0.074317 0.414961 0.160983
-0.010744 0.238798 0.374148
-0.221100 0.094032 0.433121
-0.237080 -0.428362 -0.121787
0.079665 -0.437189 0.080305
0.098422 0.326405 -0.305755
0.286602 0.013045 -0.447218
-0.171130 -0.260400 0.358805
-0.041694 -0.227995 0.379930
0.186739 -0.303673 -0.327533
0.058571 -0.439060 -0.072845
-0.157936 -0.199877 -0.399750
0.286786 -0.380583 0.228041
-0.025185 0.009168 -0.447340
0.038230 -0.357839 -0.266592
0.139851 -0.438177 -0.078418
0.259871 0.375417 0.238248
-0.028198 0.229782 -0.383833
0.133908 -0.429505 0.113498
-0.256659 -0.088017 -0.438590
0.064502 -0.319904 -0.311390
0.163306 0.124359 0.425467
-0.220555 -0.431824 -0.108946
-0.189485 0.424712 0.133522
-0.277492 -0.173770 -0.411872
-0.173895 -0.276540 0.346373
-0.098211 0.387980 0.217266
-0.283836 0.394241 0.205759
-0.052664 -0.087575 0.434335
0.079660 -0.421116 0.141040
0.211377 0.015855 0.442776
0.130071 -0.434588 -0.096580
-0.224298 -0.438743 0.070491
0.137765 -0.312910 0.314030
-0.094839 0.181499 -0.408970
0.178953 -0.241675 0.371530
0.244256 -0.223086 0.382834
0.149175 -0.046626 -0.444921
0.044646 -0.324801 0.302057
0.260390 0.185795 -0.407111
0.013966 0.161468 -0.417419
0.246217 0.441417 -0.064434
0.117553 -0.025922 -0.446781
0.127520 -0.416104 0.154963
0.125627 -0.388214 0.215137
-0.045734 0.369230 -0.251706
0.198228 -0.046510 0.440578
0.139250 -0.383714 0.222747
0.235286 0.411388 0.169376
-0.141892 0.236763 0.375351
0.111889 -0.207348 0.391590
-0.147701 0.132878 -0.427345
-0.001879 0.411913 0.168163
0.278472 -0.433721 -0.100460
0.284804 -0.017497 0.442692
0.285273 -0.041341 0.441067
-0.233536 0.436279 0.089248
-0.256673 0.029558 0.442278
0.154640 0.417340 0.154376
0.118955 0.441585 -0.063374
-0.221320 0.436505 -0.092591
0.259066 -0.409897 0.170455
0.090810 0.440493 0.065912
0.250939 -0.313692 -0.317602
-0.120787 -0.254416 0.362872
0.000201 0.361051 -0.263741
0.202083 -0.155075 -0.419352
0.192512 -0.434656 0.091925
0.072420 -0.243094 0.370566
-0.287419 -0.425141 -0.132874
-0.269644 0.393873 -0.210834
0.160532 0.099224 -0.436314
-0.242191 0.243689 -0.375211
0.065052 0.233444 0.377314
-0.115217 -0.315324 -0.315970
0.199407 0.348837 -0.279519
0.254408 -0.358060 0.261954
0.162115 0.277962 0.346064
0.156499 0.438374 0.079288
-0.171918 0.437662 0.083060
-0.149292 -0.340125 -0.289029
0.115393 -0.377088 -0.238305
-0.204200 -0.367455 0.248457
0.061786 0.181543 0.404598
0.015914 -0.205606 0.392478
-0.205092 -0.037285 -0.445804
-0.155421 -0.440718 -0.062378
0.033504 -0.140006 0.420423
-0.058250 -0.394027 -0.208521
-0.123913 0.095696 -0.437103
0.109287 -0.119636 0.426541
0.134665 0.102313 0.431270
0.198292 0.410357 0.171760
0.260077 0.142365 0.419943
-0.238211 -0.417912 0.149939
0.083342 0.269652 -0.356864
-0.084917 0.117962 -0.431679
0.096753 -0.367256 0.248750
0.010160 0.440250 -0.071802
-0.172455 -0.288844 -0.340607
-0.023807 -0.320899 0.306041
0.062805 -0.036837 -0.445846
0.284534 -0.428672 -0.120719
-0.262346 -0.444315 0.017145
-0.190825 0.108350 0.429921
-0.049060 0.436840 -0.091091
-0.153799 -0.007711 -0.447353
0.253414 0.416236 -0.161794
-0.255006 0.348989 0.274969
0.074469 0.433695 -0.105160
0.165902 0.445377 -0.020326
0.217164 0.288927 0.337084
-0.171391 0.309507 0.318458
0.078909 -0.443342 0.033220
0.139096 -0.414247 0.160119
0.151485 0.207835 -0.396217
0.203517 0.324924 0.303041
-0.045913 0.396116 0.202079
-0.182820 0.427303 -0.128958
-0.109651 -0.088493 -0.438484
-0.137967 -0.042102 0.440995
0.174262 -0.326598 -0.304373
0.188832 -0.032355 -0.446270
0.224294 -0.444260 0.018904
0.266906 -0.141319 0.419951
-0.271314 -0.161580 0.412656
0.266386 -0.436863 0.082051
-0.247505 -0.226888 -0.384938
0.011226 -0.235218 0.375658
-0.073080 0.445421 0.014580
-0.091528 0.208481 0.391535
-0.149924 -0.294816 0.330988
0.015075 -0.362801 -0.259657
-0.151969 -0.012089 0.442862
0.193016 -0.443554 -0.035322
-0.012172 -0.433893 -0.099689
0.272491 -0.444680 -0.009908
0.131550 0.076502 -0.440906
0.155941 0.374808 0.239144
0.094839 -0.023554 0.442502
0.078259 0.397177 -0.204350
-0.086618 -0.078405 0.436089
0.079513 -0.439730 -0.068614
0.013992 0.324100 -0.308218
-0.057868 0.210530 0.390491
0.035489 0.396614 0.201102
-0.123014 0.081217 -0.440159
0.020411 0.281649 -0.347558
0.145809 -0.248663 -0.371135
-0.049501 -0.060459 -0.443285
-0.013955 -0.180787 0.404482
0.198398 0.440548 0.065566
-0.037322 0.115862 0.427935
0.232515 -0.440841 -0.061596
0.248359 -0.036795 -0.445850
0.039688 -0.444306 -0.021802
-0.096876 0.031793 -0.446420
-0.035776 0.021352 0.442603
0.138540 -0.079314 0.435945
0.230998 0.231076 -0.383067
-0.115745 -0.345901 -0.281982
-0.207629 0.431285 -0.115253
0.091416 -0.440998 -0.060606
-0.204405 0.204942 -0.397691
-0.052083 -0.018306 -0.447020
0.114224 0.161173 -0.417525
-0.122898 0.184403 0.403361
0.250356 -0.342141 -0.286744
-0.140744 0.416184 -0.161938
0.252864 0.098074 -0.436571
-0.236809 -0.121581 -0.430329
0.139696 -0.035476 0.441621
0.091559 0.439036 -0.079468
0.179454 0.341668 -0.288442
0.280240 0.026385 0.442445
0.136875 0.185125 0.403048
0.027360 0.421159 0.143769
0.159913 -0.245791 -0.373086
0.074665 -0.092131 0.433317
0.265399 0.381013 0.229046
-0.276948 0.180894 0.404879
0.174740 0.380880 -0.233625
0.122381 -0.163894 -0.416145
-0.108382 0.372929 -0.246262
0.278189 0.438928 0.075796
-0.079725 -0.339782 0.285065
-0.144879 0.374391 -0.244112
-0.241156 -0.170591 -0.413247
-0.100209 0.067117 -0.442392
0.081128 -0.154584 -0.419528
-0.124716 0.415919 0.158322
0.250045 -0.427607 -0.124384
0.173066 -0.443391 0.032699
0.280496 -0.366304 -0.254503
0.279097 -0.172288 0.408159
-0.024300 0.399163 -0.200451
0.223447 -0.198053 0.396326
0.047200 -0.066312 0.438004
-0.236197 -0.443625 -0.034580
-0.069980 0.135783 0.422148
-0.220409 0.445106 -0.028963
0.087494 -0.423385 -0.138918
0.113844 0.110696 -0.433750
-0.276773 -0.273303 0.348883
0.139489 -0.438836 0.069903
-0.284866 0.085186 0.435099
-0.149538 -0.035658 0.441604
0.150084 0.252317 0.364994
0.194815 0.443902 0.038129
-0.015928 0.358932 0.262151
-0.266620 -0.444509 -0.015326
-0.264580 0.355995 0.265937
0.234090 -0.380580 0.228046
0.125551 0.094001 -0.437482
-0.011979 -0.368753 -0.250900
0.077677 0.370989 -0.249117
0.149197 0.379675 -0.235663
-0.086916 -0.442452 0.042635
-0.262762 0.039998 0.441291
0.173776 0.341838 0.283896
0.133670 0.402195 0.190147
-0.086831 -0.325141 -0.306026
0.093664 -0.254067 -0.367462
0.039724 0.027462 -0.446765
0.257792 0.145936 -0.423011
0.228469 0.126783 -0.429116
-0.154754 0.236792 0.375334
0.251980 0.100264 0.431728
0.237937 -0.328826 0.297493
-0.113749 0.388163 -0.221311
-0.078869 0.445764 0.003650
-0.140218 0.074261 0.436908
-0.097292 -0.411668 0.166363
-0.274272 0.404366 0.185605
0.047968 -0.388324 -0.219305
0.131243 -0.389042 -0.218090
-0.088317 -0.313197 0.313744
-0.244040 0.369953 -0.250642
-0.181649 0.219786 -0.389745
0.009826 0.161854 0.412927
0.019838 0.412212 -0.171827
0.166125 0.072093 -0.441604
0.122309 -0.419523 0.145464
-0.263835 -0.442439 -0.047120
-0.149418 -0.401297 -0.194252
-0.176228 -0.266661 -0.358389
-0.221123 0.418598 -0.155235
0.078685 -0.253007 0.363829
-0.031139 -0.417608 -0.155138
-0.057195 -0.373090 -0.244517
-0.224540 0.405573 0.182814
0.274284 -0.279498 -0.348431
-0.233707 -0.337787 0.287328
0.162462 0.027805 -0.446754
0.103858 -0.423611 0.133784
0.227134 0.319373 0.308592
-0.265980 0.153353 -0.420340
-0.025018 0.295311 0.331456
-0.025012 -0.410503 0.169055
-0.121828 0.035953 0.441673
-0.278827 -0.407621 -0.180067
0.196744 0.445262 -0.024000
-0.242435 -0.371068 -0.247494
0.205623 0.263515 -0.361624
-0.015790 -0.430526 -0.114337
0.224134 0.424039 -0.140122
0.006967 0.237650 0.374826
-0.159571 0.136001 -0.426438
-0.130146 -0.399198 -0.198372
-0.071325 0.319059 0.308906
0.247800 0.424784 -0.137627
-0.211724 0.445645 -0.011799
0.245628 -0.443722 -0.033546
0.096885 0.316831 0.311134
-0.272126 -0.270205 -0.355640
-0.020981 0.436345 -0.093303
-0.253000 -0.432556 -0.105671
0.224963 0.092044 0.433566
-0.008264 0.063514 0.438610
0.097473 -0.017426 -0.447048
-0.192873 0.201530 -0.399430
-0.163844 -0.368499 -0.251273
-0.203261 0.315692 0.312273
0.286711 -0.398563 0.195264
-0.289491 0.344026 -0.285721
0.197738 0.196708 -0.401887
0.275958 0.156129 -0.419341
-0.037924 -0.107374 -0.434263
-0.130528 0.327280 0.300408
0.050822 0.306037 -0.326281
-0.284865 0.434221 0.098455
0.156479 0.144641 -0.423477
0.217624 -0.328755 -0.301926
0.186115 -0.439655 0.064735
-0.072993 0.124489 -0.429782
-0.102146 -0.358711 0.261115
-0.279178 -0.334086 -0.295879
-0.079480 -0.439988 0.062630
-0.241926 -0.270529 -0.355388
0.253015 0.370670 0.245233
0.105820 0.220124 -0.389545
0.217042 0.445929 -0.001595
-0.024120 -0.436008 0.085873
-0.116850 0.334620 0.292083
0.038093 -0.198658 -0.400371
0.186674 -0.001088 0.443208
-0.231420 0.412600 0.166578
-0.014427 -0.285000 -0.343996
0.000930 -0.325488 -0.305632
-0.114593 -0.000019 -0.447595
-0.099786 -0.387516 0.216318
-0.208645 -0.422557 -0.141391
-0.289216 0.057052 0.439633
-0.150018 0.224995 0.382310
0.051449 0.444065 -0.040764
-0.056733 -0.444677 0.005634
0.247088 -0.380900 -0.231859
0.047537 -0.324578 -0.306664
-0.156392 -0.270571 -0.355356
0.013953 -0.444787 0.002147
0.282837 -0.215196 -0.391853
0.241040 0.319288 0.308677
0.134707 -0.372613 0.240866
-0.070426 0.215950 0.387660
-0.268986 0.075343 0.436736
-0.052390 -0.035332 0.441635
-0.258069 0.068884 -0.442113
-0.084081 0.199772 0.395972
0.245818 0.016045 -0.447124
0.137712 -0.063120 -0.442863
0.050140 0.349466 0.274354
-0.128487 0.266840 -0.359045
0.189042 -0.077355 -0.440609
-0.216291 0.105230 -0.434972
0.268449 0.439208 -0.078380
-0.019398 -0.424346 -0.135607
0.250115 -0.351708 -0.274497
0.049544 0.406228 -0.185654
-0.225565 0.440720 0.064477
-0.172525 0.223556 -0.387515
0.162039 0.445944 -0.002277
0.051572 -0.317690 -0.313604
-0.253143 0.444878 -0.032159
-0.256364 -0.027081 0.442391
0.239409 0.389000 -0.219895
0.284640 0.282714 0.342378
-0.212331 0.300020 0.327304
-0.241716 -0.190706 -0.404423
-0.244466 0.255371 -0.367272
-0.134478 0.342590 -0.287397
0.024552 0.354411 0.267979
0.142457 0.443671 0.040575
-0.142274 0.009226 -0.447338
-0.217580 0.364690 -0.258385
-0.066302 0.438773 -0.081126
0.088414 -0.430592 0.109755
0.187380 0.067549 0.437971
-0.140591 -0.229090 -0.383636
-0.008602 -0.104420 0.430570
-0.138461 0.250880 0.365971
-0.144855 0.017433 0.442727
0.109234 -0.426577 0.123578
0.137481 -0.152031 -0.420448
0.028266 0.392543 -0.213444
0.284171 0.109327 0.429702
0.045697 0.289916 -0.340565
0.201462 -0.101751 0.431167
0.040049 0.103602 -0.435335
-0.177855 0.187150 -0.406525
-0.197512 0.365918 -0.256579
-0.133014 -0.437463 -0.082929
-0.052465 0.067134 -0.442390
0.170754 0.276482 -0.351566
0.062299 -0.433162 0.098608
0.209420 -0.052454 -0.444370
0.212306 -0.175940 0.406579
-0.086115 0.220569 -0.389282
0.281488 -0.178605 -0.409779
-0.288312 -0.397393 0.197561
0.202734 -0.443721 0.029211
-0.048644 -0.440047 -0.066614
-0.233740 0.403710 -0.191472
0.117075 0.445625 -0.012437
-0.073024 0.441244 0.061172
-0.218078 0.371934 -0.247727
0.088297 0.201164 0.395263
0.269453 -0.341174 -0.287840
-0.270569 0.419966 0.147081
-0.262073 0.047919 -0.444895
0.280297 -0.376775 0.234480
-0.028966 0.285337 -0.344602
-0.030521 -0.414296 0.159984
-0.251663 0.381677 0.227925
-0.061747 -0.219262 -0.389448
-0.069065 -0.444872 -0.000574
-0.175845 -0.145795 0.418339
0.125851 0.142415 -0.424279
0.204383 -0.023891 0.442491
-0.029632 -0.196306 0.397216
-0.195492 0.408586 0.175853
0.120294 -0.368763 0.246532
-0.187950 -0.434867 0.090980
-0.012336 0.432856 0.104558
0.097638 0.089454 0.434145
-0.172373 -0.111324 0.428956
0.105105 -0.028136 0.442315
-0.270969 0.046329 0.440692
-0.181988 0.445193 0.021834
-0.032461 0.106791 0.430269
0.022551 0.155012 -0.419743
-0.257528 -0.065160 0.438187
-0.219771 -0.416705 -0.157646
-0.093060 -0.133033 -0.427002
0.071027 0.061070 -0.443350
-0.207607 0.385094 -0.226499
-0.173463 0.434267 -0.102601
-0.280425 0.369717 0.246636
-0.182388 -0.099529 -0.436017
0.115758 0.051875 0.440168
0.221276 0.344062 -0.285674
0.189404 0.343223 -0.286679
-0.065138 -0.296428 -0.333921
-0.066417 -0.066355 0.437997
-0.179358 0.339760 -0.290607
0.173714 0.445523 0.011343
-0.118883 0.445110 -0.028828
-0.088129 -0.421318 -0.144833
-0.288482 0.412172 -0.171918
0.243701 0.415595 -0.163577
0.093108 0.349841 -0.278224
0.030444 0.343210 -0.286693
-0.153043 0.011329 -0.447272
0.258220 -0.128050 -0.428450
-0.153532 -0.423627 -0.138083
-0.235144 -0.227869 0.380005
0.258033 -0.430112 -0.115761
-0.074696 -0.356558 -0.268244
-0.176781 0.354003 -0.272859
0.079492 -0.328168 0.298239
-0.135741 -0.443398 0.032626
-0.061258 -0.076840 0.436337
-0.231960 -0.229742 -0.383251
0.106436 -0.431286 -0.111353
0.211601 -0.365280 -0.256009
-0.289973 -0.313653 -0.317641
0.285892 0.282481 -0.346912
0.201148 0.029977 0.442238
-0.277226 0.243736 -0.375179
-0.269857 -0.299232 0.327095
-0.032737 0.110496 -0.433795
0.044750 0.216335 0.387432
0.206141 0.443446 -0.047314
-0.120903 0.372065 0.243181
-0.040232 0.134495 0.422522
0.229534 0.139038 0.421141
0.012490 0.082511 -0.439954
0.107632 0.410553 -0.175661
0.006334 0.361745 0.258366
0.190487 -0.312698 0.314243
-0.180194 -0.444863 -0.000291
0.059918 0.375452 0.238197
0.148639 0.303137 0.324556
0.030409 -0.352829 -0.273051
0.054205 -0.261915 -0.362070
0.286956 0.001911 0.443214
-0.176954 -0.412066 0.165443
-0.083085 -0.395877 0.200536
0.271870 0.437459 -0.088319
0.160141 -0.108623 0.429631
-0.148260 -0.331776 -0.298500
-0.196181 0.404349 0.185643
-0.188261 0.406776 -0.184387
-0.087982 0.434885 -0.099836
-0.287808 -0.437365 0.079192
0.222869 0.261402 0.358820
-0.288033 0.022431 -0.446923
-0.141759 0.436619 -0.092077
-0.218527 0.015576 0.442785
-0.162988 -0.280768 -0.347446
0.003746 -0.410160 0.169847
0.055161 0.373703 -0.245124
0.286051 0.059419 0.439258
0.007671 -0.170888 -0.413118
-0.212322 0.101076 0.431547
0.054353 0.210524 0.390494
-0.085042 0.171498 0.408945
-0.174599 0.159532 0.413763
0.067697 -0.165950 -0.415256
-0.224240 -0.184212 0.403000
0.239305 0.390444 0.213099
0.187753 0.445103 -0.029042
-0.199969 -0.027199 -0.446741
-0.029065 0.384421 -0.227638
0.104580 -0.248041 0.367204
0.194126 0.290618 0.335593
0.273967 0.238732 -0.378540
0.047451 0.055759 0.439801
0.274051 0.443535 0.042020
-0.219217 -0.430332 0.110653
-0.022475 0.441140 -0.066179
0.012194 -0.081607 0.435582
-0.137335 0.438916 0.075870
-0.205899 0.140641 -0.424917
0.193248 -0.188452 -0.405518
-0.225033 0.098363 -0.436507
-0.099466 -0.118087 -0.431344
0.039150 0.380139 0.230525
-0.003807 -0.334660 -0.295228
-0.093296 0.352989 -0.274165
-0.275385 -0.010272 0.442919
0.155243 0.363290 0.256093
-0.077481 -0.098662 -0.436211
0.108555 -0.388674 -0.218714
0.255449 -0.145767 0.418349
-0.068628 0.287980 -0.342272
-0.179558 0.045279 -0.445145
-0.103261 -0.322129 -0.309165
-0.116777 0.191615 -0.404482
-0.196580 -0.442806 -0.043234
0.061116 0.310514 -0.321805
-0.159490 0.071351 -0.441722
-0.180234 0.417203 -0.159109
0.252836 -0.438752 -0.074790
0.082510 0.445529 -0.015481
-0.017424 -0.034432 -0.446073
-0.074709 0.034063 -0.446205
-0.199042 0.392461 -0.213606
0.196952 0.396334 -0.206004
-0.223434 0.329755 0.297601
0.270630 0.416247 -0.161765
0.152655 -0.017167 0.442703
-0.129895 0.445347 -0.021279
0.172083 0.405557 -0.187206
0.195761 -0.383997 0.222269
-0.221142 0.244924 -0.374372
-0.286448 0.445511 -0.016048
-0.108013 0.045056 0.440813
-0.101506 -0.097231 -0.436531
0.175836 -0.441833 -0.053536
-0.186844 0.384674 -0.227210
-0.135816 -0.100093 -0.435891
-0.180954 0.439048 0.075038
0.268320 -0.314442 -0.316852
0.251874 -0.163084 -0.416468
0.214073 0.357661 -0.268142
0.223655 0.445085 -0.029615
-0.006983 -0.427078 -0.126204
-0.101463 0.302794 -0.329212
-0.014901 -0.169373 -0.413774
-0.018633 0.286820 0.338942
0.183925 -0.370512 0.243957
-0.258476 0.062907 0.438706
-0.007354 0.075352 0.436735
-0.160679 0.151747 0.416565
0.077821 -0.081775 0.435555
-0.163803 0.435276 0.093733
-0.209192 -0.237019 -0.378947
-0.071861 0.084346 0.435286
-0.165633 -0.310249 -0.321044
-0.035017 0.415675 0.159001
-0.055418 -0.198741 -0.400329
0.250320 -0.216280 -0.391212
-0.004254 -0.401184 0.190121
0.260389 -0.370181 0.244445
0.168159 -0.390922 0.210260
-0.098515 0.046086 -0.445069
0.128683 0.437265 -0.089189
-0.261924 -0.260672 -0.362974
-0.195146 -0.109064 -0.433886
0.157558 0.216424 0.387380
0.216682 -0.442227 -0.049369
-0.140330 -0.428715 -0.120569
-0.233074 -0.007562 -0.447358
-0.056113 0.289345 -0.341069
0.134246 0.174039 0.407845
-0.102978 0.385298 -0.226154
-0.023316 -0.284072 0.340461
-0.052254 0.174651 -0.411934
-0.074594 -0.134564 -0.426557
0.238755 0.216417 0.387383
-0.001341 -0.026816 -0.446753
0.241150 -0.213845 0.388280
-0.150965 -0.327548 0.298943
-0.174558 -0.427363 0.120870
0.127762 0.302056 -0.329862
-0.184835 0.367583 0.249776
-0.190933 0.307944 0.320021
-0.264874 -0.123375 0.425455
0.022054 0.434992 -0.099359
0.060557 0.327384 -0.304644
0.232873 -0.443961 -0.031020
0.066843 -0.185200 -0.406925
0.149684 0.116209 0.427834
-0.221758 0.381909 -0.231886
-0.192768 0.340693 -0.289548
-0.230254 0.292685 0.333771
-0.060114 -0.443238 -0.038669
0.050017 0.218066 -0.390762
0.059537 0.173919 -0.412250
-0.254430 0.366847 0.250859
0.260075 -0.320733 -0.310561
-0.021067 -0.340869 -0.288186
-0.192858 -0.263205 0.356716
-0.203763 -0.392773 -0.210982
-0.232716 -0.324303 0.302622
0.060655 -0.435730 -0.091473
-0.027452 0.206461 -0.396917
0.247924 0.029871 0.442248
-0.189529 -0.426320 -0.128815
0.279780 0.317929 0.310036
0.240944 0.427359 -0.128765
0.125764 0.326890 0.300851
-0.249129 -0.429483 0.113573
-0.096174 0.006062 0.443084
-0.061702 0.364953 0.253645
0.117532 0.074092 0.436934
0.113140 -0.175318 0.406849
-0.225124 -0.271625 0.350185
0.280703 0.441813 -0.061933
-0.025067 0.058426 -0.443769
-0.181345 -0.016457 -0.447079
-0.145770 -0.392699 0.206773
-0.252905 0.289172 -0.341222
0.011323 0.414092 0.163130
-0.246435 -0.410241 0.169660
-0.155300 0.095180 -0.437218
-0.267728 -0.437064 0.081093
-0.097569 0.400172 -0.198470
-0.208772 -0.369858 -0.249273
0.232939 0.434291 -0.102495
0.242746 -0.297754 -0.332752
-0.167008 -0.354006 -0.271534
0.012514 0.127705 -0.428848
