0.286960 0.445145 -0.036201
0.286960 0.322951 0.328173
0.286960 -0.457556 0.008430
0.286960 -0.470485 0.064278
0.286960 -0.074330 0.468626
0.286960 0.455019 0.087341
0.286960 -0.413539 -0.202375
0.286960 0.236947 -0.409518
0.286960 -0.140252 0.425778
0.286960 -0.271835 -0.395700
0.286960 0.118533 -0.437659
0.286960 0.070214 0.467962
0.286960 0.292827 0.339671
0.286960 0.298139 -0.357215
0.286960 0.294838 0.387513
0.286960 0.046367 0.446674
0.286960 0.455009 0.158695
0.286960 -0.016341 0.486982
0.286960 -0.383393 -0.229444
0.286960 -0.302631 0.349432
0.286960 0.222328 -0.439689
0.286960 0.190238 0.430106
0.286960 0.460392 0.036587
0.286960 0.271058 0.355485
0.286960 0.025112 -0.473705
0.286960 -0.165711 -0.469484
0.286960 -0.323433 0.313343
0.286960 -0.049345 0.492224
0.286960 0.044020 0.463573
0.286960 -0.174105 0.430340
0.286960 -0.071501 0.437466
0.286960 -0.470086 0.068902
0.286960 0.119367 0.442616
0.286960 0.052880 -0.496957
0.286960 -0.066343 -0.491130
0.286960 -0.016068 -0.466324
0.286960 -0.427296 0.220662
0.286960 0.437649 -0.110313
0.286960 0.163827 -0.461601
0.286960 -0.447024 -0.211693
0.286960 -0.444236 -0.184082
0.286960 0.389917 -0.243436
0.286960 -0.326774 0.355609
0.286960 0.428407 -0.213666
0.286960 -0.446180 0.123053
0.286960 -0.442308 0.045726
0.286960 -0.380027 -0.280918
0.286960 -0.355969 -0.296582
0.286960 -0.351715 0.282451
0.286960 -0.146888 0.424882
0.286960 0.397848 0.281745
0.286960 0.419380 0.265692
0.286960 0.475055 -0.045632
0.286960 -0.429976 0.142230
0.286960 -0.471671 0.089746
0.286960 -0.386493 -0.314051
0.286960 0.312370 -0.331046
0.286960 0.432166 0.197563
0.286960 -0.447559 0.175361
0.286960 -0.320725 -0.381833
0.286960 -0.431994 -0.230647
0.286960 0.156312 0.437425
0.286960 0.424229 -0.206589
0.286960 0.460457 -0.126970
0.286960 0.282267 0.356866
0.286960 0.127589 -0.478804
0.286960 0.477829 -0.052943
0.286960 0.244689 -0.402533
0.286960 -0.237937 -0.399319
0.286960 -0.430090 0.214664
0.286960 -0.148946 -0.425548
0.286960 0.124439 0.447697
0.286960 0.408767 0.188777
0.286960 -0.459655 -0.191739
0.286960 -0.440040 0.145518
0.286960 0.440891 0.107543
0.286960 -0.448148 -0.137649
0.286960 0.099008 0.448376
0.286960 -0.279547 -0.407950
0.286960 -0.455708 0.038196
0.286960 0.381143 0.273822
0.286960 0.105799 0.445584
0.286960 -0.452802 -0.118089
0.286960 -0.465264 0.008395
0.286960 0.428954 0.185678
0.286960 0.327613 0.329585
0.286960 0.390519 0.275929
0.286960 -0.396592 0.211963
0.286960 0.059393 -0.446885
0.286960 0.428430 -0.209923
0.286960 -0.468156 0.091382
0.286960 0.020340 -0.479867
0.286960 -0.374277 0.266292
0.286960 0.081818 0.482955
0.286960 -0.398497 0.245283
0.286960 0.452213 -0.002625
0.286960 0.373584 0.317847
0.286960 -0.034561 -0.463845
0.286960 -0.187806 0.420064
0.286960 -0.284001 -0.360246
0.286960 0.434492 0.204548
0.286960 -0.276922 0.405346
0.286960 0.462799 -0.113349
0.286960 -0.440772 0.092486
0.286960 -0.444174 0.219742
0.286960 -0.378893 -0.238957
0.286960 -0.135754 0.464085
0.286960 -0.019280 0.474434
0.286960 0.032324 -0.479616
0.286960 -0.006967 0.492532
0.286960 0.326147 -0.331321
0.286960 -0.342998 0.292906
0.286960 0.467983 0.037211
0.286960 0.259299 -0.364830
0.286960 -0.432760 -0.195550
0.286960 -0.020715 0.451712
0.286960 -0.341314 0.320294
0.286960 0.043416 -0.494306
0.286960 0.266331 -0.374390
0.286960 0.077271 -0.487404
0.286960 0.222216 0.434287
0.286960 0.411254 0.192083
0.286960 -0.466451 0.064478
0.286960 -0.294762 0.338498
0.286960 -0.413834 0.203377
0.286960 0.154036 0.422008
0.286960 -0.429008 -0.214518
0.286960 0.493459 -0.030785
0.286960 0.092414 0.475988
0.286960 -0.216886 -0.410147
0.286960 -0.259622 -0.426231
0.286960 0.415047 0.251228
0.286960 -0.427325 -0.128095
0.286960 0.473921 0.068429
0.286960 -0.217500 0.402699
0.286960 -0.458669 0.033072
0.286960 -0.446140 0.094015
0.286960 -0.125227 -0.457553
0.286960 -0.368003 -0.327970
0.286960 0.368359 -0.293949
0.286960 -0.239028 0.407271
0.286960 -0.433927 0.129094
0.286960 0.380823 0.268894
0.286960 0.250874 0.391453
0.286960 -0.360724 0.294886
0.286960 -0.251692 -0.425631
0.286960 -0.456198 0.004140
0.286960 -0.459451 -0.171574
0.286960 -0.117517 0.455601
0.286960 0.082144 0.486323
0.286960 0.218851 0.435152
0.286960 -0.378182 0.316280
0.286960 -0.459117 -0.066587
0.286960 -0.131817 -0.481123
0.286960 -0.238524 -0.427136
0.286960 0.481253 -0.118645
0.286960 -0.380246 0.279656
0.286960 -0.422997 -0.194458
0.286960 0.344962 -0.321402
0.286960 0.156045 0.454825
0.286960 0.353319 0.326523
0.286960 0.467846 0.149853
0.286960 -0.102665 -0.437323
0.286960 0.175186 -0.444347
0.286960 -0.419926 0.157280
0.286960 0.141616 0.448175
0.286960 0.025487 0.486769
0.286960 -0.430018 -0.197144
0.286960 0.170031 -0.447706
0.286960 0.208158 -0.438227
0.286960 -0.455996 -0.106012
0.286960 0.330028 -0.303470
0.286960 -0.309968 0.363506
0.286960 0.462248 0.116287
0.286960 0.063074 -0.486736
0.286960 0.400372 0.293883
0.286960 0.331469 -0.314154
0.286960 -0.117448 0.447305
0.286960 0.076372 0.481663
0.286960 0.047249 -0.461039
0.286960 0.159063 -0.446396
0.286960 -0.010965 0.495173
0.286960 0.403757 0.231425
0.286960 -0.170677 0.416111
0.286960 0.093378 -0.452974
0.286960 -0.458830 0.123399
0.286960 -0.118673 0.471691
0.286960 -0.077237 0.486205
0.286960 0.383827 0.269951
0.286960 0.451930 -0.019882
0.286960 0.317357 -0.386263
0.286960 0.037335 -0.465169
0.286960 0.461864 0.004839
0.286960 -0.237508 0.394889
0.286960 0.382667 -0.313737
0.286960 0.478974 -0.065415
0.286960 -0.244779 -0.406563
0.286960 -0.460763 0.137280
0.286960 -0.430073 -0.130181
0.286960 0.346629 0.304795
0.286960 0.157099 0.422801
0.286960 -0.211263 -0.421405
0.286960 0.153446 -0.451269
0.286960 0.480237 -0.032111
0.286960 0.344447 0.309644
0.286960 -0.180783 -0.438251
0.286960 -0.141912 -0.424758
0.286960 -0.472887 -0.092089
0.286960 -0.213181 -0.445551
0.286960 0.148415 0.468496
0.286960 0.249069 -0.381084
0.286960 -0.054932 0.487777
0.286960 0.103646 -0.457282
0.286960 0.407156 -0.216162
0.286960 -0.376508 -0.253714
0.286960 -0.320307 -0.355210
0.286960 0.292307 -0.399659
0.286960 0.240920 0.432648
0.286960 -0.283562 0.345410
0.286960 -0.491296 -0.008176
0.286960 -0.255675 0.376910
0.286960 -0.288394 0.384984
0.286960 0.354593 -0.346652
0.286960 0.258003 -0.401577
0.286960 0.202254 0.426997
0.286960 0.121420 0.426787
0.286960 -0.061456 0.480690
0.286960 0.355449 0.294921
0.286960 0.193719 0.421218
0.286960 0.006865 -0.467591
0.286960 -0.131973 0.470203
0.286960 0.241775 0.389860
0.286960 -0.452710 -0.185594
0.286960 -0.314055 -0.327022
0.286960 -0.459266 -0.106520
0.286960 -0.228915 0.421723
0.286960 0.350100 -0.326970
0.286960 0.464181 -0.120069
0.286960 0.045734 -0.479822
0.286960 -0.335477 0.364345
0.286960 0.485592 0.110144
0.286960 0.223079 -0.388448
0.286960 0.251071 -0.429663
0.286960 -0.036672 -0.453817
0.286960 -0.445963 -0.047841
0.286960 0.386796 -0.237431
0.286960 -0.077513 -0.441718
0.286960 -0.083886 0.486970
0.286960 -0.238673 0.424447
0.286960 -0.061760 0.491520
0.286960 -0.248965 0.389191
0.286960 -0.172663 -0.432972
0.286960 0.493136 -0.063841
0.286960 0.193157 -0.437623
0.286960 0.422108 -0.226615
0.286960 -0.425298 -0.183816
0.286960 0.100431 -0.445076
0.286960 0.448864 -0.070309
0.286960 0.187370 -0.429598
0.286960 -0.367038 0.297801
0.286960 0.402546 0.275199
0.286960 -0.466530 0.045268
0.286960 -0.390059 -0.261033
0.286960 0.248931 -0.422454
0.286960 -0.466876 0.029927
0.286960 -0.415559 0.221749
0.286960 0.138765 -0.440332
0.286960 0.429463 0.141505
0.286960 -0.400193 0.218580
0.286960 -0.390394 -0.217559
0.286960 -0.101946 0.431141
0.286960 -0.372840 0.313892
0.286960 -0.130083 -0.470252
0.286960 0.422009 0.143608
0.286960 0.125673 0.476945
0.286960 -0.332641 0.297017
0.286960 -0.038393 0.463560
0.286960 -0.329325 -0.336180
0.286960 -0.445655 0.015081
0.286960 -0.452122 -0.028895
0.286960 -0.135103 0.474560
0.286960 0.102223 -0.473737
0.286960 -0.455309 -0.181309
0.286960 0.224351 -0.443124
0.286960 -0.105182 -0.481926
0.286960 0.481073 -0.018161
0.286960 -0.224497 0.389570
0.286960 -0.326616 0.333506
0.286960 -0.438799 -0.105339
0.286960 0.419736 0.215221
0.286960 -0.022781 0.455663
0.286960 0.345793 -0.304226
0.286960 -0.466450 0.122010
0.286960 0.426277 -0.180441
0.286960 -0.326182 -0.337497
0.286960 -0.384293 0.244475
0.286960 -0.379179 0.256910
0.286960 0.486412 0.025363
0.286960 0.460621 0.042786
0.286960 -0.363530 -0.272742
0.286960 0.483706 0.001732
0.286960 -0.422703 -0.234390
0.286960 -0.267759 0.416730
0.286960 0.387658 -0.272997
0.286960 -0.072682 0.452694
0.286960 0.161607 -0.464701
0.286960 -0.329304 -0.374499
0.286960 -0.383427 0.284378
0.286960 -0.492746 -0.047363
0.286960 0.419597 -0.215814
0.286960 0.000613 -0.462235
0.286960 -0.459925 0.029010
0.286960 0.394906 -0.218190
0.286960 0.350557 -0.300397
0.286960 -0.405625 0.259737
0.286960 0.287451 -0.361169
0.286960 -0.454468 0.097189
0.286960 -0.265650 0.367671
0.286960 0.450390 0.076537
0.286960 -0.234744 0.428468
0.286960 -0.094302 0.486011
0.286960 -0.411775 0.271948
0.286960 0.341854 0.330236
0.286960 0.085920 0.450617
0.286960 0.451964 0.040671
0.286960 -0.410082 -0.283450
0.286960 0.176588 -0.411991
0.286960 -0.252232 0.376579
0.286960 0.291742 0.385366
0.286960 0.160299 0.426328
0.286960 -0.109824 0.431060
0.286960 -0.472815 -0.155718
0.286960 -0.466953 -0.057905
0.286960 -0.274236 -0.359545
0.286960 0.357398 0.302171
0.286960 0.459780 -0.144217
0.286960 -0.355714 0.266106
0.286960 0.202410 -0.424203
0.286960 -0.490321 0.078909
0.286960 0.402313 -0.267377
0.286960 0.433897 0.214983
0.286960 -0.154848 0.442960
0.286960 0.025246 -0.491795
0.286960 0.233177 -0.427524
0.286960 -0.418954 -0.233835
0.286960 -0.441212 -0.209030
0.286960 -0.436700 -0.127805
0.286960 -0.423644 0.180864
0.286960 -0.422001 -0.217432
0.286960 -0.091051 0.454571
0.286960 -0.287557 0.377330
0.286960 0.062884 0.481711
0.286960 0.451397 0.035816
0.286960 -0.006892 -0.472084
0.286960 0.442386 -0.209261
0.286960 -0.333899 0.300969
0.286960 -0.425672 0.199269
0.286960 -0.485794 0.085661
0.286960 0.428174 0.137800
0.286960 -0.265044 0.356393
0.286960 -0.194246 -0.423082
0.286960 0.001638 -0.470911
0.286960 0.158479 0.448066
0.286960 0.482632 0.077152
0.286960 -0.068525 -0.487122
0.286960 0.489154 0.020362
0.286960 0.112763 0.479276
0.286960 0.232840 -0.439574
0.286960 -0.333045 -0.305757
0.286960 0.257315 0.362083
0.286960 -0.067731 0.453944
0.286960 0.348791 -0.336753
0.286960 -0.210233 0.433237
0.286960 -0.173160 -0.440075
0.286960 0.436954 -0.224886
0.286960 -0.391962 -0.305413
0.286960 0.217539 0.420544
0.286960 -0.183497 -0.460245
0.286960 0.493121 0.065626
0.286960 0.313186 0.367417
0.286960 0.175500 -0.430741
0.286960 -0.466589 0.019569
0.286960 0.271636 -0.414071
0.286960 0.434894 -0.121981
0.286960 -0.295649 0.349422
0.286960 0.433742 -0.190842
0.286960 0.235590 -0.384684
0.286960 0.404375 0.257272
0.286960 0.267727 -0.395802
0.286960 -0.455444 -0.172924
0.286960 0.171802 0.432678
0.286960 -0.046147 0.469777
0.286960 0.237868 -0.429766
0.286960 -0.223978 0.402311
0.286960 -0.494279 -0.058862
0.286960 -0.389437 0.249965
0.286960 0.254031 -0.419545
0.286960 0.381777 -0.232264
0.286960 -0.069310 -0.451854
0.286960 0.125264 0.425816
0.286960 -0.056431 0.464178
0.286960 -0.017569 0.463823
0.286960 -0.265784 0.414232
0.286960 -0.447171 -0.146551
0.286960 0.470869 0.159868
0.286960 0.150505 0.430977
0.286960 0.393114 0.286383
0.286960 0.468403 -0.056125
0.286960 -0.315568 -0.376213
0.286960 0.259670 -0.398089
0.286960 -0.455948 0.029031
0.286960 -0.272949 -0.387476
0.286960 -0.086205 0.481223
0.286960 0.306980 0.377709
0.286960 -0.382895 0.262252
0.286960 -0.367950 0.325631
0.286960 -0.339029 -0.357241
0.286960 0.098441 0.439548
0.286960 0.348062 -0.345103
0.286960 -0.144062 0.471147
0.286960 0.323455 0.365011
0.286960 0.424200 0.184399
0.286960 0.406525 0.195164
0.286960 0.034351 0.447504
0.286960 0.076362 -0.482231
0.286960 0.156599 -0.454017
0.286960 0.204885 -0.449036
0.286960 0.082578 -0.440978
0.286960 0.073129 0.451360
0.286960 -0.428885 -0.251408
0.286960 0.390778 -0.224248
0.286960 -0.265061 0.371271
0.286960 -0.481703 0.077497
0.286960 0.294320 0.396585
0.286960 0.421070 -0.260644
0.286960 -0.140164 0.440847
0.286960 0.461655 0.099908
0.286960 -0.402974 -0.258061
0.286960 -0.410534 -0.178852
0.286960 0.066860 0.459925
0.286960 0.435660 -0.200331
0.286960 0.348470 0.294743
0.286960 0.467027 -0.135643
0.286960 0.329114 -0.318031
0.286960 -0.416355 -0.171030
0.286960 -0.441070 0.175934
0.286960 0.271203 -0.410474
0.286960 0.357385 -0.339858
0.286960 -0.238548 -0.430646
0.286960 0.162734 -0.447339
0.286960 -0.481286 -0.100005
0.286960 -0.208976 -0.439517
0.286960 0.402379 -0.250216
0.286960 -0.451796 -0.072641
0.286960 0.072953 -0.444150
0.286960 0.377036 -0.289640
0.286960 -0.352261 0.344912
0.286960 -0.337784 -0.333919
0.286960 0.343088 -0.363121
0.286960 -0.422154 0.252170
0.286960 0.412640 0.266783
0.286960 0.417776 -0.173736
0.286960 -0.321565 -0.367210
0.286960 -0.405104 -0.224463
0.286960 -0.415206 0.246363
0.286960 0.173958 -0.458041
0.286960 0.484162 0.014008
0.286960 0.097796 -0.438928
0.286960 -0.218247 -0.432986
0.286960 -0.339602 -0.322820
0.286960 -0.159456 -0.421513
0.286960 -0.401589 0.227302
0.286960 0.273475 -0.401214
0.286960 -0.487902 0.077150
0.286960 0.440578 0.204764
0.286960 -0.243443 0.418471
0.286960 -0.416769 0.253288
0.286960 -0.399998 -0.248038
0.286960 -0.104272 -0.461069
0.286960 -0.402329 -0.210272
0.286960 -0.265553 0.403652
0.286960 0.238360 0.381004
0.286960 0.166973 -0.432068
0.286960 -0.121282 0.473654
0.286960 0.197698 -0.445213
0.286960 0.429890 -0.166872
0.286960 0.292699 0.400740
0.286960 -0.055567 -0.453287
0.286960 -0.102318 0.452226
0.286960 -0.271717 -0.402938
0.286960 -0.318214 -0.325737
0.286960 0.076555 0.449273
0.286960 0.128000 -0.457785
0.286960 0.477502 -0.082144
0.286960 0.231453 -0.402604
0.286960 0.058533 0.447529
0.286960 -0.347420 0.288326
0.286960 -0.357939 -0.292504
0.286960 -0.390616 0.292580
0.286960 0.367598 -0.255428
0.286960 -0.219457 -0.425556
0.286960 0.471650 0.019674
0.286960 0.274611 0.374588
0.286960 0.275554 -0.363202
0.286960 0.385357 0.312517
0.286960 0.451794 -0.207186
0.286960 0.318380 -0.350520
0.286960 0.244217 0.426673
0.286960 0.428544 -0.200019
0.286960 0.170252 0.444271
0.286960 -0.199124 0.447333
0.286960 -0.096922 0.467172
0.286960 0.306025 -0.362724
0.286960 -0.291737 -0.402667
0.286960 -0.015913 0.473019
0.286960 -0.489436 0.064536
0.286960 0.353295 -0.334979
0.286960 0.482528 0.063236
0.286960 0.131113 -0.455528
0.286960 0.126426 -0.481797
0.286960 -0.027520 -0.471303
0.286960 -0.322491 0.361054
0.286960 -0.418789 0.202234
0.286960 0.353940 -0.298250
0.286960 -0.454649 0.025302
0.286960 0.100069 -0.468137
0.286960 0.078166 -0.476078
0.286960 0.104193 -0.449983
0.286960 0.002146 0.458335
0.286960 -0.359129 -0.321624
0.286960 0.082233 -0.493227
0.286960 -0.418505 0.246105
0.286960 -0.243777 -0.402616
0.286960 0.282262 -0.370653
0.286960 -0.033022 -0.475725
0.286960 0.460141 0.122361
0.286960 -0.446249 -0.165278
0.286960 0.233922 0.391244
0.286960 -0.459592 0.044335
0.286960 0.372684 0.288006
0.286960 -0.225259 -0.431025
0.286960 0.199890 -0.458168
0.286960 0.450874 -0.170923
0.286960 -0.121711 -0.446741
0.286960 -0.078032 0.469017
0.286960 0.204390 0.410421
0.286960 0.461122 -0.024223
0.286960 -0.457239 -0.168923
0.286960 0.209414 0.435286
0.286960 -0.478129 0.015065
0.286960 0.375613 0.289152
0.286960 -0.378334 0.309535
0.286960 0.451937 -0.210628
0.286960 -0.330399 0.359833
0.286960 -0.248250 -0.417765
0.286960 0.063115 -0.490538
0.286960 0.367158 -0.283934
0.286960 -0.178443 0.435188
0.286960 -0.244523 -0.432282
0.286960 -0.207812 -0.404876
0.286960 0.307255 0.343987
0.286960 -0.327151 -0.325756
0.286960 -0.386569 -0.259248
0.286960 0.494027 0.057186
0.286960 -0.454782 0.058108
0.286960 -0.186380 -0.452374
0.286960 0.089764 0.441099
0.286960 0.412248 -0.230226
0.286960 -0.164163 -0.427350
0.286960 -0.308280 0.369661
0.286960 0.216447 0.423915
0.286960 0.346414 0.338100
0.286960 0.466958 0.105319
0.286960 0.440979 -0.109771
0.286960 -0.425790 0.235683
0.286960 -0.229551 -0.410426
0.286960 0.398012 0.251871
0.286960 0.156807 -0.449358
0.286960 0.285182 0.390341
0.286960 0.395278 0.300252
0.286960 0.459151 -0.123836
0.286960 -0.027760 0.483532
0.286960 0.291563 0.355141
0.286960 -0.401674 0.230737
0.286960 -0.127858 0.451385
0.286960 -0.079830 -0.450246
0.286960 0.345675 -0.296693
0.286960 0.185866 -0.444599
0.286960 -0.409110 0.172754
0.286960 -0.044861 0.485167
0.286960 0.040918 -0.482616
0.286960 0.047982 -0.491465
0.286960 0.042193 -0.472625
0.286960 0.444906 0.109617
0.286960 -0.096357 0.446953
0.286960 0.173438 -0.448010
0.286960 0.187291 -0.463401
0.286960 0.216761 0.405516
0.286960 -0.486230 0.040856
0.286960 -0.457360 0.154440
0.286960 -0.435499 0.174432
0.286960 0.176975 -0.455048
0.286960 -0.336600 0.311523
0.286960 -0.224600 -0.420517
0.286960 0.455458 0.018834
0.286960 0.349099 0.321892
0.286960 0.459173 -0.137967
0.286960 0.448844 -0.080152
0.286960 -0.352439 0.287265
0.286960 -0.445543 -0.092316
0.286960 0.285740 -0.395260
0.286960 0.451251 -0.032208
0.286960 -0.427525 -0.194661
0.286960 0.186246 0.408428
0.286960 -0.422553 0.235744
0.286960 0.362446 -0.280913
0.286960 -0.437484 -0.108666
0.286960 -0.475303 0.035220
0.286960 -0.461054 0.081829
0.286960 0.498084 -0.020519
0.286960 -0.324933 0.328138
0.286960 0.352006 -0.279030
0.286960 -0.397728 -0.201408
0.286960 0.312178 0.335952
0.286960 -0.151695 0.421161
0.286960 -0.168798 -0.464077
0.286960 0.443941 0.143862
0.286960 -0.029386 -0.468041
0.286960 0.236262 -0.392200
0.286960 -0.430678 0.239292
0.286960 0.350755 -0.322241
0.286960 0.165153 0.457281
0.286960 0.020286 0.489339
0.286960 -0.407987 -0.218626
0.286960 -0.140346 0.434534
0.286960 -0.461096 -0.109773
0.286960 -0.146148 0.449571
0.286960 0.385519 0.257255
0.286960 -0.202138 -0.405280
0.286960 0.448173 0.034882
0.286960 -0.488547 -0.005939
0.286960 -0.298228 0.361558
0.286960 -0.469322 -0.037851
0.286960 0.484266 -0.087613
0.286960 -0.026649 -0.479506
0.286960 -0.458531 0.173659
0.286960 0.008872 0.495734
0.286960 0.237282 -0.402011
0.286960 0.483158 0.101705
0.286960 -0.251824 0.399009
0.286960 0.459696 -0.073963
0.286960 0.459264 -0.098530
0.286960 0.089681 0.470637
0.286960 -0.294065 -0.346161
0.286960 0.389241 -0.227442
0.286960 0.474043 0.061789
0.286960 0.387499 0.303543
0.286960 0.431083 -0.123175
0.286960 -0.380452 -0.321812
0.286960 -0.252639 0.364649
0.286960 0.497814 0.011752
0.286960 0.098801 0.432306
0.286960 0.226003 0.386942
0.286960 0.339585 -0.299791
0.286960 -0.175469 -0.443237
0.286960 -0.065573 0.475723
0.286960 -0.382950 -0.311962
0.286960 -0.473421 0.001229
0.286960 0.247197 -0.433933
0.286960 -0.285483 0.362571
0.286960 -0.418936 -0.194257
0.286960 -0.080162 0.465096
0.286960 0.444206 0.184529
0.286960 -0.477683 -0.095944
0.286960 0.144498 -0.451760
0.286960 -0.045505 0.449035
0.286960 0.264238 0.378245
0.286960 -0.476866 0.136992
0.286960 0.389162 -0.256513
0.286960 -0.381871 0.258899
0.286960 0.381923 0.317779
0.286960 -0.040770 -0.464630
0.286960 0.292160 -0.347656
0.286960 -0.189444 0.401056
0.286960 0.186771 0.420303
0.286960 0.469369 0.145120
0.286960 0.041655 0.471883
0.286960 0.144441 0.462114
0.286960 0.189737 -0.416434
0.286960 0.359678 0.295390
0.286960 -0.461343 0.168840
0.286960 0.331487 0.342090
0.286960 -0.278035 0.373678
0.286960 0.276337 0.372041
0.286960 0.139028 0.446189
0.286960 0.466441 0.055273
0.286960 -0.421254 -0.179628
0.286960 0.101002 -0.440077
0.286960 -0.017378 0.466977
0.286960 0.133837 0.464067
0.286960 0.491147 0.075180
0.286960 0.278081 -0.412238
0.286960 -0.454001 -0.205797
0.286960 -0.390249 -0.242737
0.286960 0.333201 -0.326209
0.286960 0.462348 0.176947
0.286960 -0.027963 0.468572
0.286960 0.447685 0.182282
0.286960 -0.325123 0.320956
0.286960 0.374864 0.295025
0.286960 0.433353 -0.230211
0.286960 -0.087767 -0.441641
0.286960 0.286845 0.364813
0.286960 0.438139 -0.097408
0.286960 -0.370321 0.246387
0.286960 0.341925 -0.319677
0.286960 0.449383 0.087149
0.286960 -0.488037 -0.002248
0.286960 0.375682 0.311434
0.286960 0.427075 0.225114
0.286960 -0.362660 0.324738
0.286960 0.490001 0.010428
0.286960 -0.436277 -0.154474
0.286960 -0.458902 -0.124844
0.286960 0.463610 0.084178
0.286960 -0.216708 0.407689
0.286960 -0.136835 -0.477644
0.286960 0.220544 -0.436398
0.286960 0.468654 -0.127250
0.286960 -0.288562 -0.371159
0.286960 -0.314745 0.342050
0.286960 -0.482830 0.060995
0.286960 0.417993 -0.272309
0.286960 -0.470314 -0.017375
0.286960 -0.076000 -0.457442
0.286960 -0.495659 -0.043342
0.286960 -0.077092 -0.490014
0.286960 0.127156 0.450480
0.286960 0.390187 -0.277738
0.286960 -0.313219 -0.369972
0.286960 0.433691 -0.166270
0.286960 -0.115405 0.472833
0.286960 0.349649 0.278709
0.286960 0.491178 0.007407
0.286960 0.471317 0.137074
0.286960 0.393208 0.282423
0.286960 0.122716 -0.442363
0.286960 0.479687 0.083866
0.286960 0.407164 0.224815
0.286960 0.468635 0.000846
0.286960 0.306718 -0.355503
0.286960 0.191782 0.416402
0.286960 0.452992 0.089637
0.286960 0.249147 0.410571
0.286960 -0.254876 -0.383522
0.286960 -0.428301 -0.200891
0.286960 -0.162864 -0.436801
0.286960 0.056311 0.460480
0.286960 0.436235 0.231365
0.286960 -0.487806 -0.092942
0.286960 -0.339389 0.323309
0.286960 0.133071 0.424734
0.286960 -0.400274 0.224120
0.286960 -0.281789 -0.352077
0.286960 0.323928 0.339147
0.286960 -0.440656 -0.068860
0.286960 0.260249 -0.422957
0.286960 -0.448411 0.199547
0.286960 -0.337578 0.316959
0.286960 -0.234809 0.425225
0.286960 -0.406654 0.186487
0.286960 -0.455477 0.073870
0.286960 0.093862 0.453828
0.286960 -0.310846 -0.359525
0.286960 0.012449 0.458187
0.286960 -0.083344 0.456309
0.286960 0.270622 0.366216
0.286960 0.380262 -0.240601
0.286960 0.251524 0.376456
0.286960 -0.333382 0.349027
0.286960 0.405720 -0.195409
0.286960 0.496294 -0.005611
0.286960 -0.388224 0.256272
0.286960 0.412055 0.253960
0.286960 0.439550 -0.186029
0.286960 0.011338 -0.479375
0.286960 0.474086 -0.141075
0.286960 0.431893 0.201768
0.286960 -0.452418 -0.114436
0.286960 -0.445034 -0.161352
0.286960 0.297103 -0.386680
0.286960 0.105828 -0.444078
0.286960 -0.130900 0.443471
0.286960 -0.236033 -0.436217
0.286960 -0.431621 0.219957
0.286960 -0.187499 -0.458542
0.286960 -0.243512 -0.394341
0.286960 0.241823 0.379496
0.286960 -0.424614 -0.260936
0.286960 0.008503 -0.485107
0.286960 0.341529 0.342496
0.286960 -0.433380 0.155589
0.286960 -0.091014 -0.442349
0.286960 0.425633 0.176230
0.286960 -0.433433 -0.227481
0.286960 -0.249026 -0.371964
0.286960 0.421518 -0.235763
0.286960 0.441465 0.146258
0.286960 0.126410 -0.463292
0.286960 0.252496 -0.422359
0.286960 0.138430 -0.475604
0.286960 -0.372175 -0.265661
0.286960 -0.031192 0.482857
0.286960 0.187794 0.411646
0.286960 0.057431 0.444390
0.286960 0.435023 -0.116328
0.286960 -0.348683 -0.281189
0.286960 -0.453175 -0.086554
0.286960 0.447072 -0.212397
0.286960 -0.013936 0.464390
0.286960 0.347783 0.309103
0.286960 0.448563 -0.180309
0.286960 -0.127094 -0.433105
0.286960 0.472396 0.115522
0.286960 0.476585 0.095672
0.286960 0.035227 0.472591
0.286960 0.291339 -0.350979
0.286960 -0.435316 0.109608
0.286960 -0.360298 0.274085
0.286960 0.156218 0.445472
0.286960 -0.294490 -0.343054
0.286960 0.449931 0.190027
0.286960 -0.060673 -0.489008
0.286960 0.466075 0.117847
0.286960 0.261953 -0.372414
0.286960 -0.450047 -0.148273
0.286960 0.057829 -0.461502
0.286960 0.464335 0.168092
0.286960 -0.450673 0.074975
0.286960 -0.287291 -0.392344
0.286960 0.084540 0.465051
0.286960 -0.469639 0.014088
0.286960 -0.231413 0.425008
0.286960 -0.387449 -0.254882
0.286960 -0.426386 0.156771
0.286960 -0.196758 -0.439481
0.286960 -0.279164 0.348369
0.286960 -0.241940 0.376709
0.286960 0.497029 0.015149
0.286960 -0.491465 -0.003168
0.286960 0.290327 0.344024
0.286960 -0.461477 -0.086252
0.286960 0.479869 -0.098120
0.286960 -0.280161 -0.388250
0.286960 -0.380846 0.297761
0.286960 0.258799 -0.386990
0.286960 -0.369690 0.261814
0.286960 0.265220 -0.371533
0.286960 0.490965 -0.055738
0.286960 -0.256440 -0.396357
0.286960 -0.462268 -0.019920
0.286960 -0.444126 -0.156942
0.286960 0.431354 0.190577
0.286960 -0.453181 0.144993
0.286960 0.470282 0.111785
0.286960 0.470241 -0.061036
0.286960 -0.050405 0.446597
0.286960 0.456036 0.164290
0.286960 -0.450387 0.038388
0.286960 -0.322203 0.322035
0.286960 -0.095468 0.472719
0.286960 0.135984 -0.465793
0.286960 -0.115088 -0.466325
0.286960 0.375243 0.248162
0.286960 0.490134 -0.013844
0.286960 -0.292232 -0.377446
0.286960 0.392411 -0.308556
0.286960 -0.115521 -0.458819
0.286960 0.280172 -0.358857
0.286960 0.307218 0.358324
0.286960 0.209282 0.394399
0.286960 0.401631 -0.238831
0.286960 -0.399268 -0.288031
0.286960 -0.408754 -0.223025
0.286960 -0.470619 -0.071907
0.286960 0.455705 -0.044084
0.286960 0.495199 0.054375
0.286960 0.456916 0.095858
0.286960 -0.169779 -0.441749
0.286960 -0.250716 -0.396547
0.286960 -0.377576 -0.250588
0.286960 -0.436847 -0.185038
0.286960 -0.301696 0.360721
0.286960 0.486345 -0.045769
0.286960 -0.496518 -0.021873
0.286960 0.225431 -0.413166
0.286960 -0.422581 0.196205
0.286960 -0.355502 -0.277240
0.286960 -0.423858 0.149679
0.286960 0.190411 -0.462023
0.286960 -0.262589 -0.400480
0.286960 -0.434909 -0.123279
0.286960 -0.208286 -0.396063
0.286960 -0.000375 -0.459162
0.286960 0.215903 0.413793
0.286960 -0.074550 -0.461823
0.286960 0.448240 -0.100263
0.286960 0.406479 0.285787
0.286960 -0.292734 -0.362981
0.286960 0.084561 -0.471073
0.286960 -0.413877 0.265950
0.286960 -0.262926 -0.361653
0.286960 -0.362869 -0.259875
0.286960 -0.015541 0.444002
0.286960 -0.395707 -0.258124
0.286960 -0.124211 -0.449789
0.286960 0.016642 0.446357
0.286960 -0.253593 -0.415479
0.286960 0.471546 -0.106606
0.286960 -0.465449 0.138937
0.286960 -0.467003 -0.072862
0.286960 0.286108 0.401439
0.286960 -0.482851 -0.020774
0.286960 -0.014655 -0.482682
0.286960 0.452961 0.106722
0.286960 -0.287302 0.357217
0.286960 0.375966 -0.259686
0.286960 -0.425151 0.139412
0.286960 -0.198593 -0.457579
0.286960 -0.167063 -0.443480
0.286960 -0.298795 -0.371629
0.286960 -0.367037 -0.294227
0.286960 0.477206 0.044440
0.286960 0.310204 0.373564
0.286960 0.165086 -0.437505
0.286960 0.484007 0.083563
0.286960 -0.185913 0.413948
0.286960 -0.401577 -0.270882
0.286960 -0.017642 0.494008
0.286960 0.444805 -0.081383
0.286960 -0.492451 -0.017119
0.286960 -0.285961 0.397403
0.286960 0.454374 0.034183
0.286960 0.288298 -0.405602
0.286960 -0.220574 0.425141
0.286960 0.476195 -0.001404
0.286960 0.395335 -0.289689
0.286960 0.465885 0.088561
0.286960 -0.183256 -0.450767
0.286960 -0.454927 -0.199187
0.286960 -0.496136 -0.010814
0.286960 -0.057014 -0.456644
0.286960 0.467871 0.096213
0.286960 0.463111 0.104715
0.286960 0.251489 -0.403814
0.286960 0.420962 0.221728
0.286960 0.463518 -0.125778
0.286960 0.323534 -0.352963
0.286960 0.034592 -0.474743
0.286960 0.221658 0.389579
0.286960 -0.388917 -0.277781
0.286960 -0.442089 0.071645
0.286960 -0.437530 -0.114485
0.286960 -0.383951 -0.255820
0.286960 -0.100367 -0.477494
0.286960 0.256569 0.415442
0.286960 -0.465685 -0.054448
0.286960 -0.200879 0.429956
0.286960 -0.148520 -0.477288
0.286960 -0.454350 0.045089
0.286960 0.027206 0.490233
0.286960 0.135575 -0.441931
0.286960 -0.211660 0.436713
0.286960 -0.115450 -0.480546
0.286960 -0.450358 0.208965
0.286960 0.419653 0.198399
0.286960 -0.092961 0.481954
0.286960 0.422989 -0.166917
0.286960 0.018723 0.461278
0.286960 0.377482 -0.270029
0.286960 0.388171 0.220450
0.286960 -0.406885 0.199388
0.286960 -0.238999 0.373851
0.286960 -0.223012 0.393988
0.286960 -0.447405 0.006953
0.286960 -0.335688 0.306540
0.286960 -0.229443 -0.392593
0.286960 -0.482930 -0.053857
0.286960 0.472424 0.034697
0.286960 -0.435649 0.230648
0.286960 -0.416986 0.184810
0.286960 -0.445992 -0.221206
0.286960 0.440610 0.071591
0.286960 -0.381680 0.253729
0.286960 0.397235 -0.212045
0.286960 0.377683 0.274228
0.286960 0.042755 0.476330
0.286960 0.472511 0.133582
0.286960 -0.093060 0.451025
0.286960 -0.455985 0.080900
0.286960 -0.074844 0.481577
0.286960 -0.419403 -0.269634
0.286960 0.398568 -0.239660
0.286960 0.402353 -0.255562
0.286960 0.457842 0.126605
0.286960 0.122328 0.438332
0.286960 0.009487 -0.463120
0.286960 -0.454670 0.105105
0.286960 0.268198 0.415296
0.286960 0.346311 0.327307
0.286960 0.193960 -0.457980
0.286960 0.376906 0.238376
0.286960 -0.003819 0.444977
0.286960 0.304731 -0.359251
0.286960 -0.407954 -0.250817
0.286960 -0.458201 -0.175824
0.286960 -0.251828 0.395881
0.286960 -0.416743 -0.166631
0.286960 -0.308340 -0.365843
0.286960 -0.466000 0.099408
0.286960 -0.331274 0.335802
0.286960 0.294706 -0.378297
0.286960 -0.262905 -0.413265
0.286960 0.124989 0.479986
0.286960 -0.393474 -0.264768
0.286960 -0.447295 -0.037401
0.286960 0.455883 0.065914
0.286960 -0.281073 -0.379942
0.286960 -0.138410 0.462471
0.286960 0.316215 0.369255
0.286960 0.321485 -0.341604
0.286960 0.242738 0.393235
0.286960 -0.157863 -0.418652
0.286960 0.057548 -0.454479
0.286960 -0.406113 -0.207937
0.286960 0.345223 0.298033
0.286960 0.241662 0.408848
0.286960 -0.221840 0.443264
0.286960 0.345068 -0.353060
0.286960 0.060105 0.478498
0.286960 -0.421197 -0.184398
0.286960 -0.015792 -0.489141
0.286960 0.259697 -0.375122
0.286960 -0.197515 0.418504
0.286960 -0.449756 -0.057837
0.286960 0.333056 0.339208
0.286960 0.475273 0.147876
0.286960 0.334100 -0.305552
0.286960 0.092037 -0.449741
0.286960 0.403988 -0.198743
0.286960 -0.299019 0.393885
0.286960 -0.497331 -0.007926
0.286960 -0.042808 -0.449949
0.286960 0.358675 -0.280961
0.286960 -0.417207 -0.272514
0.286960 -0.427370 0.135835
0.286960 0.232658 -0.387067
0.286960 -0.208184 -0.428583
0.286960 0.406705 0.264817
0.286960 0.275946 -0.356742
0.286960 -0.041584 -0.488824
0.286960 -0.344106 -0.314432
0.286960 -0.456356 0.062608
0.286960 -0.020395 -0.450140
0.286960 -0.121575 0.438243
0.286960 0.313506 -0.378365
0.286960 -0.177842 -0.458222
0.286960 -0.420221 0.262904
0.286960 -0.421617 0.174063
0.286960 0.359283 -0.347243
0.286960 0.204982 0.439796
0.286960 0.345809 0.320011
0.286960 -0.449676 -0.175312
0.286960 0.363617 0.297836
0.286960 0.285660 0.359471
0.286960 0.369107 -0.333163
0.286960 -0.442753 0.208159
0.286960 0.484270 0.010328
0.286960 -0.198588 -0.416222
0.286960 -0.428278 -0.169802
0.286960 -0.453163 0.013752
0.286960 0.371007 0.304995
0.286960 -0.292920 0.398461
0.286960 -0.339516 0.291318
0.286960 0.362906 -0.311087
0.286960 -0.211786 0.419446
0.286960 0.152566 0.424887
0.286960 -0.326615 -0.306449
0.286960 -0.296154 0.367463
0.286960 -0.485797 -0.073081
0.286960 0.477066 -0.085486
0.286960 -0.190550 0.421935
0.286960 0.387297 -0.230702
0.286960 0.102348 0.468894
0.286960 0.466175 -0.153926
0.286960 -0.242728 0.398348
0.286960 -0.343096 0.301075
0.286960 -0.010687 0.477664
0.286960 0.020545 0.447537
0.286960 0.238883 0.405404
0.286960 0.011966 -0.485843
0.286960 0.363215 0.312402
0.286960 -0.270904 -0.380333
0.286960 -0.444916 -0.060787
0.286960 -0.394920 0.244263
0.286960 -0.369038 0.314548
0.286960 -0.314996 0.346439
0.286960 -0.438625 0.100122
0.286960 0.427763 -0.163013
0.286960 0.487411 -0.087115
0.286960 0.236382 -0.435565
0.286960 0.181826 0.435905
0.286960 0.122145 0.451821
0.286960 0.267899 0.375070
0.286960 0.015001 0.483721
0.286960 0.396482 0.272631
0.286960 -0.188033 0.458540
0.286960 -0.121407 -0.478349
0.286960 -0.406666 -0.258612
0.286960 0.492394 0.021383
0.286960 0.112763 -0.476529
0.286960 -0.353144 0.274355
0.286960 0.490765 0.085259
0.286960 -0.436018 0.186864
0.286960 0.444902 -0.226485
0.286960 -0.404795 -0.290829
0.286960 -0.363774 0.330956
0.286960 0.135232 0.440225
0.286960 -0.131775 -0.442851
0.286960 0.382222 0.293787
0.286960 -0.418995 0.176778
0.286960 -0.265606 0.399523
0.286960 -0.107760 -0.439584
0.286960 -0.059616 0.442833
0.286960 0.298455 0.372496
0.286960 0.285084 0.368393
0.286960 0.065275 -0.461803
0.286960 -0.448887 -0.066198
0.286960 -0.460675 0.021970
0.286960 -0.265912 -0.387650
0.286960 -0.429945 0.206282
0.286960 -0.103063 -0.448653
0.286960 -0.432679 0.111925
0.286960 0.451018 -0.176488
0.286960 0.364183 0.282551
0.286960 0.428785 -0.134626
0.286960 0.378313 -0.297462
0.286960 0.471208 0.047820
0.286960 0.345346 0.291531
0.286960 -0.358778 0.307763
0.286960 -0.394566 0.290912
0.286960 0.408070 -0.184029
0.286960 0.358062 -0.284272
0.286960 -0.472495 0.038178
0.286960 0.457113 0.072292
0.286960 -0.439275 0.186793
0.286960 -0.079344 -0.466545
0.286960 0.487927 0.005751
0.286960 0.330961 0.319938
0.286960 0.462544 0.124882
0.286960 -0.089216 0.474553
0.286960 0.409946 -0.251338
0.286960 -0.458157 0.119980
0.286960 -0.316317 -0.380077
0.286960 -0.136414 0.468018
0.286960 0.241018 0.427387
0.286960 0.050396 0.487741
0.286960 -0.189044 -0.454788
0.286960 0.441743 0.123965
0.286960 -0.142291 -0.444137
0.286960 0.471640 -0.162237
0.286960 -0.248732 -0.404669
0.286960 0.267382 -0.399154
0.286960 0.203788 -0.439684
0.286960 0.063863 0.478485
0.286960 0.022235 -0.499383
0.286960 0.399937 -0.235930
0.286960 -0.447022 0.078598
0.286960 0.459061 -0.008712
0.286960 -0.098589 0.462958
0.286960 -0.420763 0.160678
0.286960 0.178546 0.410699
0.286960 -0.128681 0.463828
0.286960 0.476564 0.002052
0.286960 -0.215966 -0.430933
0.286960 -0.313137 -0.382670
0.286960 0.426242 0.142463
0.286960 0.413501 -0.170250
0.286960 0.411663 0.234475
0.286960 -0.159103 -0.469579
0.286960 -0.133311 -0.467049
0.286960 -0.434559 -0.240524
0.286960 0.376700 -0.241510
0.286960 0.351961 0.275861
0.286960 0.326510 0.316291
0.286960 -0.239219 0.397642
0.286960 -0.321047 -0.349476
0.286960 -0.086555 -0.462337
0.286960 0.318214 -0.343628
0.286960 -0.366673 0.320760
0.286960 0.327647 -0.377470
0.286960 -0.473514 0.106567
0.286960 -0.376945 0.278773
0.286960 -0.464788 -0.042831
0.286960 0.006444 -0.495352
0.286960 -0.330931 0.304220
0.286960 -0.459560 -0.012821
0.286960 -0.281209 0.351681
0.286960 0.017961 -0.483472
0.286960 -0.110808 0.435267
0.286960 0.161252 -0.468927
0.286960 -0.208685 -0.434771
0.286960 -0.363970 -0.285110
0.286960 0.288814 -0.342322
0.286960 -0.053428 0.480788
0.286960 0.202812 0.413281
0.286960 0.214883 0.398477
0.286960 0.490285 0.080976
0.286960 0.479710 -0.077105
0.286960 0.379498 -0.316288
0.286960 0.265327 -0.404940
0.286960 -0.421542 0.144500
0.286960 -0.077671 0.461528
0.286960 0.383919 -0.240967
0.286960 0.386870 0.286507
0.286960 0.256780 0.378157
0.286960 0.409712 0.214693
0.286960 0.446060 -0.208506
0.286960 -0.235771 0.375605
0.286960 0.342561 -0.313072
0.286960 -0.428063 0.210301
0.286960 0.056024 -0.468540
0.286960 -0.339435 0.344682
0.286960 0.124000 -0.478824
0.286960 -0.307320 -0.337615
0.286960 -0.404207 0.218197
0.286960 0.104394 -0.486109
0.286960 -0.387194 -0.251415
0.286960 0.396481 0.220935
0.286960 0.047682 0.490113
0.286960 0.414040 -0.238844
0.286960 0.466309 -0.138629
0.286960 -0.425364 -0.216944
0.286960 0.472510 0.122839
0.286960 -0.303103 -0.379510
0.286960 -0.394243 0.272530
0.286960 -0.316137 -0.329357
0.286960 0.457888 0.039600
0.286960 0.440874 -0.144712
0.286960 0.295946 0.356711
0.286960 -0.356000 0.325297
0.286960 0.492291 0.061511
0.286960 -0.247631 0.413248
0.286960 0.273117 -0.354437
0.286960 0.423067 0.245545
0.286960 -0.253910 0.416338
0.286960 0.437780 -0.126652
0.286960 0.129606 -0.462263
0.286960 0.083669 -0.483511
0.286960 0.354294 0.282600
0.286960 0.449705 0.006964
0.286960 -0.245024 0.388266
0.286960 -0.268063 0.389770
0.286960 0.220117 -0.414505
0.286960 -0.325147 -0.349023
0.286960 0.254447 0.388505
0.286960 -0.434913 -0.098237
0.286960 0.318371 0.318902
0.286960 0.297477 0.391113
0.286960 -0.121105 -0.450982
0.286960 -0.440188 0.229063
0.286960 -0.226390 -0.389997
0.286960 0.279941 0.365144
0.286960 0.027307 0.447255
0.286960 -0.094729 -0.446489
0.286960 0.245860 0.372243
0.286960 0.246501 -0.391851
0.286960 0.004141 -0.460622
0.286960 -0.426497 -0.257346
0.286960 -0.288860 -0.383080
0.286960 0.020749 0.451359
0.286960 0.136025 -0.435362
0.286960 0.415354 0.228368
0.286960 0.387244 0.307188
0.286960 -0.480695 -0.061124
0.286960 0.357499 -0.318082
0.286960 -0.461107 -0.062591
0.286960 0.171534 -0.442230
0.286960 -0.402457 0.257587
0.286960 -0.422452 -0.142132
0.286960 -0.351619 -0.275679
0.286960 -0.112079 -0.464930
0.286960 -0.207491 0.413604
0.286960 -0.111021 0.482314
0.286960 -0.153710 -0.429025
0.286960 -0.082211 0.453092
0.286960 0.322549 0.356347
0.286960 0.441827 -0.113629
0.286960 -0.041776 0.465859
0.286960 -0.279815 -0.376910
0.286960 0.452495 -0.154358
0.286960 -0.227100 0.391208
0.286960 -0.275844 0.347512
0.286960 -0.445015 -0.007788
0.286960 0.124739 -0.439150
0.286960 -0.196619 0.449889
0.286960 -0.105071 0.448267
0.286960 -0.377902 -0.263697
0.286960 -0.194182 0.427517
0.286960 -0.128242 -0.460484
0.286960 0.354552 0.286801
0.286960 0.202730 0.399322
0.286960 0.108932 0.464872
0.286960 -0.466694 0.070109
0.286960 -0.339602 -0.304509
0.286960 0.485836 0.098494
0.286960 0.288328 -0.368380
0.286960 0.048040 0.485673
0.286960 -0.332909 -0.368247
0.286960 0.372087 0.263106
0.286960 0.347026 -0.313877
0.286960 0.420381 0.254996
0.286960 0.161847 -0.458433
0.286960 -0.380204 -0.300886
0.286960 0.459845 -0.028057
0.286960 -0.225665 -0.445597
0.286960 0.016657 -0.461237
0.286960 0.464277 -0.022396
0.286960 -0.002248 -0.469559
0.286960 0.273315 -0.407170
0.286960 -0.247674 -0.381990
0.286960 0.333418 0.347677
0.286960 -0.098895 -0.437486
0.286960 -0.019372 -0.499234
0.286960 -0.174699 0.411642
0.286960 -0.465589 -0.109732
0.286960 0.286674 0.345614
0.286960 -0.284014 0.358776
0.286960 -0.380153 -0.253370
0.286960 0.392539 -0.292732
0.286960 0.466846 -0.100834
0.286960 -0.447678 -0.069472
0.286960 0.191587 0.401117
0.286960 0.385722 -0.316063
0.286960 -0.463752 -0.089185
0.286960 0.372858 0.269162
0.286960 0.082344 0.478346
0.286960 0.398657 0.269845
0.286960 -0.413809 -0.237582
0.286960 0.212179 0.420087
0.286960 0.191498 -0.422977
0.286960 0.241017 0.375866
0.286960 0.052446 0.446755
0.286960 0.433116 0.207736
0.286960 -0.199135 -0.449043
0.286960 0.493877 -0.067980
0.286960 -0.441617 -0.159277
0.286960 0.047532 0.463521
0.286960 0.126482 0.454468
0.286960 -0.151070 -0.440087
0.286960 0.293313 0.335068
0.286960 0.187008 -0.411462
0.286960 0.463660 -0.160524
0.286960 -0.481129 -0.031244
0.286960 0.460991 0.008033
0.286960 0.402227 0.227835
0.286960 0.470208 0.118396
0.286960 0.145456 -0.435780
0.286960 0.263173 -0.396653
0.286960 -0.464341 -0.165113
0.286960 -0.336119 -0.304696
0.286960 -0.440091 -0.072190
0.286960 -0.228096 -0.403408
0.286960 -0.162921 -0.467077
0.286960 0.444296 0.203813
0.286960 0.222972 -0.446610
0.286960 -0.442785 -0.097446
0.286960 -0.344187 0.331226
0.286960 -0.283407 -0.345809
0.286960 0.368462 -0.317849
0.286960 0.265111 -0.362095
0.286960 0.296067 -0.336247
0.286960 0.330791 0.324093
0.286960 0.369557 -0.268652
0.286960 0.250720 -0.370788
0.286960 -0.405631 -0.254409
0.286960 -0.463416 -0.099419
0.286960 -0.386018 -0.296423
0.286960 -0.324483 0.337904
0.286960 0.235182 0.426800
0.286960 -0.099407 -0.489558
0.286960 -0.003665 0.486328
0.286960 0.076705 0.441794
0.286960 -0.448710 -0.195009
0.286960 -0.192998 -0.411986
0.286960 0.472574 -0.056156
0.286960 0.353695 0.330528
0.286960 -0.159810 -0.445683
0.286960 -0.370506 -0.275213
0.286960 -0.449923 0.082931
0.286960 0.309288 0.369681
0.286960 0.164645 -0.468083
0.286960 0.485655 -0.112685
0.286960 -0.475156 0.058998
0.286960 -0.091914 -0.488944
0.286960 0.131956 -0.465622
0.286960 -0.482640 0.101545
0.286960 0.141761 -0.437925
0.286960 -0.025899 -0.486016
0.286960 0.014006 0.486993
0.286960 0.080401 -0.485401
0.286960 0.118326 -0.485337
0.286960 0.307700 -0.336584
0.286960 -0.407488 0.241136
0.286960 0.461273 -0.189582
0.286960 -0.078968 -0.475062
0.286960 0.390682 0.217944
0.286960 0.339560 0.350010
0.286960 -0.444521 -0.193600
0.286960 0.437384 0.186329
0.286960 -0.369999 -0.301688
0.286960 -0.458471 -0.073905
0.286960 0.393800 0.267199
0.286960 -0.385869 0.221631
0.286960 -0.105871 0.466243
0.286960 -0.404354 -0.197516
0.286960 0.449422 -0.087681
0.286960 -0.234305 -0.382056
0.286960 0.139117 0.421846
0.286960 -0.412112 0.211087
0.286960 -0.210321 -0.413478
0.286960 -0.474530 -0.029540
0.286960 0.310955 -0.335634
0.286960 -0.311806 0.332449
0.286960 0.444018 -0.046736
0.286960 0.341767 0.290229
0.286960 -0.302599 -0.344113
0.286960 -0.444685 -0.149442
0.286960 -0.277136 -0.390131
0.286960 0.424389 -0.200116
0.286960 -0.380257 0.294060
0.286960 -0.414473 -0.175555
0.286960 0.394935 -0.239947
0.286960 0.314316 -0.347113
0.286960 -0.490083 -0.088413
0.286960 0.041106 -0.498125
0.286960 -0.480311 -0.081374
0.286960 0.008296 0.451261
0.286960 0.389628 -0.284706
0.286960 -0.216608 0.432290
0.286960 -0.233027 -0.409720
0.286960 -0.202537 0.407735
0.286960 0.437920 -0.203318
0.286960 -0.449023 -0.215631
0.286960 -0.344857 0.338502
0.286960 -0.449391 0.204529
0.286960 -0.479741 -0.040024
0.286960 -0.361403 0.311252
0.286960 0.303381 0.359130
0.286960 -0.428454 -0.121867
0.286960 -0.341045 0.336439
0.286960 -0.156690 -0.434074
0.286960 -0.031289 0.442322
0.286960 0.028979 -0.479926
0.286960 0.083876 -0.486619
0.286960 -0.154213 0.470637
0.286960 0.452271 -0.035479
0.286960 -0.253575 -0.374245
0.286960 0.238086 0.416748
0.286960 -0.462794 0.085311
0.286960 0.013530 0.467521
0.286960 0.412123 -0.191807
0.286960 -0.042961 0.492666
0.286960 -0.418085 -0.210316
0.286960 -0.473516 0.046086
0.286960 0.104445 0.449185
0.286960 0.107002 0.470581
0.286960 -0.182898 -0.464049
0.286960 0.462666 0.054168
0.286960 0.493367 -0.039232
0.286960 0.157545 -0.474328
0.286960 0.387348 0.245589
0.286960 -0.426125 0.186223
0.286960 -0.430521 0.163544
0.286960 -0.080773 0.488593
0.286960 -0.440152 -0.233705
0.286960 -0.093057 -0.472909
0.286960 -0.153269 -0.462588
0.286960 0.409411 0.240321
0.286960 -0.274754 0.383777
0.286960 0.033031 -0.486310
0.286960 0.348042 0.284667
0.286960 -0.344939 0.352536
0.286960 0.446222 -0.190940
0.286960 -0.402447 -0.202997
0.286960 -0.298767 0.358119
0.286960 0.124172 -0.466141
0.286960 -0.448168 0.128808
0.286960 0.497288 -0.029138
0.286960 -0.477478 -0.141398
0.286960 0.005043 0.478402
0.286960 -0.360454 -0.284652
0.286960 -0.296223 0.345327
0.286960 0.448656 -0.034861
0.286960 -0.445839 0.044619
0.286960 -0.120216 -0.453900
0.286960 0.086504 0.481509
0.286960 -0.201026 -0.425411
0.286960 0.367964 0.258331
0.286960 -0.394335 -0.251241
0.286960 -0.483761 0.065238
0.286960 0.436929 -0.179751
0.286960 0.017406 0.492996
0.286960 -0.111877 -0.481902
0.286960 0.345458 0.353073
0.286960 -0.397147 0.201453
0.286960 -0.442326 0.110763
0.286960 -0.340643 0.304488
0.286960 0.011570 0.483062
0.286960 -0.006141 -0.457500
0.286960 0.044335 0.452141
0.286960 0.336338 -0.318757
0.286960 0.472518 0.096546
0.286960 -0.346257 -0.308985
0.286960 0.262297 -0.416920
0.286960 -0.477198 0.114904
0.286960 -0.349888 0.290265
0.286960 0.126130 -0.475262
0.286960 -0.243653 -0.390013
0.286960 0.457613 0.052272
0.286960 -0.473303 -0.038963
0.286960 0.316486 0.360898
0.286960 0.404665 0.267912
0.286960 -0.461711 -0.095384
0.286960 -0.464598 -0.023733
0.286960 0.123716 0.430089
0.286960 -0.272619 0.364458
0.286960 0.453955 -0.193400
0.286960 0.340979 0.360822
0.286960 -0.369524 0.301920
0.286960 -0.256880 -0.377068
0.286960 0.150915 -0.443690
0.286960 -0.454147 -0.157603
0.286960 -0.439455 0.170694
0.286960 -0.455426 0.128015
0.286960 -0.110721 0.453807
0.286960 -0.416548 0.209662
0.286960 -0.480218 0.034870
0.286960 -0.291714 0.349785
0.286960 0.009986 -0.466363
0.286960 -0.182616 -0.443636
0.286960 0.013379 -0.491494
0.286960 -0.375186 -0.248568
0.286960 0.427387 -0.129901
0.286960 0.454729 0.128717
0.286960 0.383012 0.251854
0.286960 -0.450506 0.103580
0.286960 -0.406137 -0.193714
0.286960 0.232226 -0.436136
0.286960 0.230844 0.380286
0.286960 -0.148337 0.462581
0.286960 -0.394077 0.262038
0.286960 -0.253234 -0.393787
0.286960 0.259165 0.389235
0.286960 -0.340659 0.347556
0.286960 0.478332 0.107865
0.286960 -0.444447 -0.071047
0.286960 -0.027598 -0.447376
0.286960 -0.343316 0.349940
0.286960 -0.345118 -0.322170
0.286960 -0.277871 0.361908
0.286960 0.421447 0.228640
0.286960 0.204456 0.435827
0.286960 -0.091241 -0.469744
0.286960 -0.333137 -0.335630
0.286960 -0.463666 0.109308
0.286960 -0.466327 -0.147200
0.286960 -0.350922 0.298721
0.286960 0.167360 -0.441133
0.286960 -0.325618 -0.378497
0.286960 0.368916 -0.265530
0.286960 -0.287609 0.344016
0.286960 -0.421432 0.255914
0.286960 0.312539 -0.319971
0.286960 0.002426 -0.465813
0.286960 -0.472963 -0.133693
0.286960 0.213411 -0.429950
0.286960 0.367390 -0.298640
0.286960 -0.090750 0.465844
0.286960 0.121713 -0.476230
0.286960 -0.008335 -0.486180
0.286960 0.137802 -0.456784
0.286960 0.479791 -0.111200
0.286960 -0.482353 0.096037
0.286960 0.401287 -0.201834
0.286960 0.160388 -0.442891
0.286960 -0.441869 0.114431
0.286960 -0.436270 0.103193
0.286960 -0.134415 -0.449035
0.286960 -0.215381 -0.397612
0.286960 -0.451195 0.088698
0.286960 0.095420 -0.441234
0.286960 -0.031768 -0.486255
0.286960 -0.440380 -0.079564
0.286960 -0.001417 -0.477111
0.286960 -0.012465 -0.453717
0.286960 -0.459581 0.085903
0.286960 -0.451890 -0.195577
0.286960 -0.350135 -0.296091
0.286960 -0.461965 0.106227
0.286960 0.162273 0.454120
0.286960 -0.123162 0.456257
0.286960 0.264157 0.414688
0.286960 -0.132834 -0.476276
0.286960 0.340629 0.308807
0.286960 0.116524 0.458735
0.286960 0.395506 0.204092
0.286960 -0.366227 0.263633
0.286960 -0.328975 0.352677
0.286960 0.223823 0.403194
0.286960 -0.396270 -0.237797
0.286960 -0.300531 -0.389424
0.286960 -0.471443 -0.026625
0.286960 0.456193 -0.184651
0.286960 0.478098 0.117763
0.286960 0.092786 -0.443879
0.286960 -0.453507 -0.139604
0.286960 -0.448582 -0.079161
0.286960 0.063258 0.464788
0.286960 0.388915 -0.308360
0.286960 -0.439314 -0.152122
0.286960 -0.412263 0.206241
0.286960 -0.484124 0.037389
0.286960 -0.467107 -0.014692
0.286960 -0.207594 0.444968
0.286960 -0.267696 -0.364878
0.286960 -0.344613 -0.327277
0.286960 0.209027 -0.443112
0.286960 -0.215150 -0.427161
0.286960 -0.356310 0.276999
0.286960 -0.151973 -0.465593
0.286960 0.254385 -0.393149
0.286960 -0.163393 0.423536
0.286960 -0.440820 -0.075609
0.286960 -0.305133 0.330853
0.286960 0.011345 0.490035
0.286960 0.464057 0.157317
0.286960 -0.338795 0.287370
0.286960 0.434493 0.100042
0.286960 0.298905 -0.376448
0.286960 0.416084 0.183564
0.286960 -0.345839 -0.345239
0.286960 0.465141 0.028004
0.286960 -0.062747 -0.450933
0.286960 0.443238 -0.176519
0.286960 0.409876 -0.197658
0.286960 -0.460975 0.185237
0.286960 -0.097393 -0.479704
0.286960 0.355180 0.274460
0.286960 0.418507 0.177945
0.286960 -0.463839 0.136175
0.286960 0.174087 -0.438816
0.286960 0.135287 0.466865
0.286960 -0.198298 0.402800
0.286960 -0.417643 -0.253700
0.286960 -0.017780 -0.479912
0.286960 0.207299 0.442400
0.286960 0.037888 -0.470881
0.286960 0.017965 0.476743
0.286960 0.288506 -0.383091
0.286960 -0.302345 -0.371817
0.286960 -0.334941 -0.358050
0.286960 0.176673 -0.422179
0.286960 0.417527 0.269912
0.286960 0.481652 0.019628
0.286960 -0.385098 0.255959
0.286960 0.152527 -0.463448
0.286960 -0.296754 -0.369195
0.286960 0.334265 0.363719
0.286960 0.427105 -0.191926
0.286960 -0.450030 -0.106644
0.286960 0.443507 0.042397
0.286960 0.200934 0.421354
0.286960 0.315413 -0.371386
0.286960 -0.463927 0.005128
0.286960 0.143263 0.450935
0.286960 -0.249195 -0.431828
0.286960 0.442022 0.201049
0.286960 0.243605 -0.410753
0.286960 -0.069733 0.487581
0.286960 0.134696 -0.475134
0.286960 -0.356250 -0.306395
0.286960 0.465011 0.040810
0.286960 0.019052 -0.499857
0.286960 0.321045 -0.338243
0.286960 0.282572 -0.385953
0.286960 -0.011480 -0.460331
0.286960 0.189528 -0.442792
0.286960 0.037267 0.464707
0.286960 0.431183 0.134373
0.286960 0.464268 0.008310
0.286960 -0.430749 0.145624
0.286960 -0.493383 0.000477
0.286960 -0.482269 -0.047397
0.286960 -0.323662 -0.326267
0.286960 -0.233743 0.397672
0.286960 -0.380305 -0.261644
0.286960 -0.267968 -0.381720
0.286960 0.448120 -0.030676
0.286960 0.272398 0.396472
0.286960 0.482603 0.080319
0.286960 0.456744 -0.002914
0.286960 0.207626 0.418806
