0.286960 -0.418373 -0.182750
0.286960 -0.463150 -0.174517
0.286960 0.427514 -0.236385
0.286960 -0.403293 -0.208507
0.286960 0.451517 -0.046086
0.286960 -0.379583 0.267594
0.286960 0.018818 0.491667
0.286960 -0.461152 0.015632
0.286960 -0.479449 0.129501
0.286960 -0.390944 -0.269928
0.286960 0.331610 -0.359844
0.286960 0.211083 -0.399142
0.286960 -0.270178 0.356130
0.286960 0.333860 0.343438
0.286960 -0.141459 -0.439629
0.286960 0.383432 -0.319004
0.286960 -0.475743 -0.107506
0.286960 -0.489743 -0.084604
0.286960 0.468519 0.009490
0.286960 0.399805 0.203805
0.286960 0.302087 0.331663
0.286960 0.384442 -0.292803
0.286960 -0.148015 0.434313
0.286960 -0.384092 0.290008
0.286960 0.148434 -0.455758
0.286960 0.454042 -0.060218
0.286960 -0.294803 -0.366904
0.286960 -0.445587 -0.108287
0.286960 -0.244326 0.423610
0.286960 0.336285 -0.312657
0.286960 -0.272812 0.369485
0.286960 0.167458 0.465595
0.286960 0.272145 0.414823
0.286960 0.431456 -0.193256
0.286960 -0.269260 0.399905
0.286960 -0.444038 0.215733
0.286960 0.275235 0.349836
0.286960 0.245351 -0.427310
0.286960 0.410095 -0.235322
0.286960 -0.435719 0.091608
0.286960 0.451883 0.056355
0.286960 -0.016666 -0.466102
0.286960 -0.017363 0.494834
0.286960 -0.319066 -0.324332
0.286960 -0.469363 -0.105393
0.286960 0.282146 -0.381016
0.286960 -0.291917 0.393982
0.286960 0.427209 0.144068
0.286960 0.365956 -0.298296
0.286960 0.369694 -0.267816
0.286960 -0.464236 -0.167817
0.286960 0.284478 -0.378268
0.286960 -0.463985 -0.030024
0.286960 0.379581 0.273774
0.286960 -0.316512 0.362680
0.286960 -0.388573 -0.300263
0.286960 0.478098 -0.046652
0.286960 -0.299972 -0.331559
0.286960 0.254620 -0.428781
0.286960 -0.366287 0.299388
0.286960 -0.294973 0.362203
0.286960 -0.157346 -0.453692
0.286960 0.300028 -0.378050
0.286960 -0.413147 0.260843
0.286960 0.188105 0.431062
0.286960 0.357658 -0.343277
0.286960 0.436853 -0.173806
0.286960 -0.292550 -0.393293
0.286960 -0.472845 0.150502
0.286960 -0.219704 -0.443661
0.286960 -0.068509 -0.449193
0.286960 -0.145881 0.427384
0.286960 -0.396200 0.291515
0.286960 -0.036491 0.461329
0.286960 -0.362175 -0.315481
0.286960 0.441251 -0.122259
0.286960 -0.439312 -0.074189
0.286960 -0.313155 0.341524
0.286960 -0.332092 0.350247
0.286960 0.255606 0.400657
0.286960 0.147595 0.418137
0.286960 0.109459 -0.483402
0.286960 -0.316290 0.325920
0.286960 0.403235 0.194728
0.286960 0.290516 -0.397582
0.286960 0.428315 0.171317
0.286960 0.021492 0.473220
0.286960 0.444889 -0.066117
0.286960 0.310549 0.339531
0.286960 -0.467534 0.123525
0.286960 -0.443808 0.176171
0.286960 0.319090 -0.360443
0.286960 0.423387 -0.165787
0.286960 -0.259215 0.366894
0.286960 -0.240587 0.427987
0.286960 0.448803 0.064422
0.286960 -0.480830 0.086839
0.286960 -0.191942 -0.427188
0.286960 -0.120107 -0.444528
0.286960 0.240389 -0.419518
0.286960 0.140989 0.464965
0.286960 0.229475 0.401021
0.286960 0.218624 -0.428400
0.286960 0.341003 -0.289613
0.286960 0.440489 0.177309
0.286960 0.179051 0.455756
0.286960 -0.479341 0.042126
0.286960 -0.377604 0.308361
0.286960 0.128455 -0.438965
0.286960 -0.062375 -0.495774
0.286960 0.400726 -0.293133
0.286960 0.396661 0.289286
0.286960 -0.444289 -0.065106
0.286960 0.045049 0.473847
0.286960 0.437168 -0.209793
0.286960 -0.474412 -0.052532
0.286960 0.412270 -0.279396
0.286960 0.257160 0.363811
0.286960 0.194625 -0.440352
0.286960 -0.012907 -0.469184
0.286960 0.439569 0.209588
0.286960 -0.202087 -0.426955
0.286960 -0.358667 -0.277283
0.286960 0.433380 0.172592
0.286960 -0.160732 -0.418600
0.286960 -0.281530 0.349543
0.286960 0.365371 -0.340998
0.286960 0.358005 0.282406
0.286960 -0.470058 -0.122364
0.286960 -0.452854 0.057760
0.286960 0.435680 -0.162666
0.286960 0.133591 0.469476
0.286960 0.029137 0.474911
0.286960 0.494165 0.008344
0.286960 0.077964 -0.493936
0.286960 0.170721 -0.426636
0.286960 0.316548 -0.366578
0.286960 -0.068931 0.485684
0.286960 0.444620 0.169100
0.286960 0.131724 -0.432762
0.286960 -0.199528 0.430461
0.286960 -0.022158 -0.492461
0.286960 0.322935 -0.358236
0.286960 -0.244732 0.387923
0.286960 -0.416635 0.269936
0.286960 0.286223 0.344153
0.286960 0.453880 -0.130759
0.286960 -0.468929 -0.011675
0.286960 0.053379 -0.478729
0.286960 -0.113122 -0.463180
0.286960 -0.162024 0.468221
0.286960 -0.164479 -0.440954
0.286960 -0.393218 -0.232255
0.286960 -0.462393 0.112325
0.286960 -0.366182 -0.315417
0.286960 0.490334 0.043725
0.286960 -0.472083 -0.018355
0.286960 -0.059444 -0.485145
0.286960 0.450320 0.078519
0.286960 -0.222626 -0.401956
0.286960 -0.224004 -0.394517
0.286960 -0.450921 -0.163560
0.286960 -0.411736 -0.224717
0.286960 -0.462456 -0.152435
0.286960 -0.376710 -0.302510
0.286960 -0.049545 0.488712
0.286960 -0.273826 0.383076
0.286960 -0.247198 -0.400708
0.286960 -0.473970 0.111548
0.286960 -0.184683 -0.448887
0.286960 0.142951 -0.449944
0.286960 -0.346500 0.333037
0.286960 0.394992 0.216142
0.286960 0.059597 0.444701
0.286960 -0.249075 0.387684
0.286960 0.096407 -0.448153
0.286960 -0.263563 0.361330
0.286960 -0.447140 -0.062388
0.286960 0.311809 0.385728
0.286960 -0.375699 -0.324856
0.286960 -0.444720 -0.221132
0.286960 -0.190608 0.426366
0.286960 0.299813 0.358943
0.286960 -0.262371 0.376954
0.286960 0.450103 -0.153723
0.286960 0.078465 0.474166
0.286960 0.184174 -0.458752
0.286960 0.252205 -0.373939
0.286960 -0.086062 -0.484277
0.286960 -0.406229 -0.260783
0.286960 0.221558 0.410986
0.286960 0.476834 -0.145304
0.286960 0.393845 -0.240541
0.286960 -0.475179 -0.084290
0.286960 0.098491 -0.453439
0.286960 -0.302016 0.378010
0.286960 0.286654 0.396149
0.286960 -0.455799 0.110736
0.286960 -0.225592 -0.438311
0.286960 -0.333403 -0.324370
0.286960 -0.241703 0.383163
0.286960 0.291693 -0.374278
0.286960 0.350774 -0.339221
0.286960 -0.004298 0.470082
0.286960 0.256938 -0.420661
0.286960 0.485449 -0.046814
0.286960 -0.436668 -0.216506
0.286960 0.481441 0.110124
0.286960 0.475641 0.142708
0.286960 0.389362 0.215426
0.286960 -0.078661 0.456699
0.286960 0.289120 -0.382781
0.286960 -0.144318 0.466231
0.286960 0.446650 -0.209494
0.286960 0.462808 0.181851
0.286960 -0.262542 -0.413885
0.286960 0.448562 -0.108582
0.286960 0.054811 -0.496578
0.286960 0.008807 0.452078
0.286960 -0.259180 -0.378815
0.286960 0.266215 0.408016
0.286960 -0.199784 -0.442110
0.286960 -0.468811 -0.137568
0.286960 0.129794 0.475986
0.286960 -0.457639 -0.077600
0.286960 0.321285 -0.346558
0.286960 -0.076806 0.452600
0.286960 0.313516 -0.380009
0.286960 0.071133 0.474139
0.286960 -0.304794 -0.389326
0.286960 -0.042827 0.467669
0.286960 -0.442336 0.085352
0.286960 0.466293 0.173008
0.286960 -0.469423 -0.152106
0.286960 -0.483909 0.042158
0.286960 -0.441613 0.204868
0.286960 -0.452802 -0.166189
0.286960 -0.385136 -0.266980
0.286960 -0.102479 -0.459692
0.286960 -0.152344 0.468627
0.286960 0.180936 0.418158
0.286960 -0.478954 -0.055772
0.286960 -0.474652 0.054229
0.286960 -0.391972 -0.266419
0.286960 -0.152539 0.416002
0.286960 0.472611 -0.160732
0.286960 0.053716 -0.490155
0.286960 -0.179338 -0.445184
0.286960 -0.034614 -0.446619
0.286960 0.081895 -0.479491
0.286960 0.044984 -0.497853
0.286960 -0.313006 -0.364964
0.286960 0.350987 -0.313908
0.286960 0.467346 -0.166068
0.286960 0.306925 -0.385923
0.286960 -0.369147 0.318648
0.286960 0.307388 0.335593
0.286960 -0.446936 -0.087868
0.286960 -0.170120 0.464583
0.286960 -0.383346 0.241946
0.286960 -0.161561 -0.441869
0.286960 -0.459180 -0.119638
0.286960 0.089038 0.486812
0.286960 0.398827 0.276871
0.286960 0.491419 0.031094
0.286960 -0.479878 0.081522
0.286960 -0.366048 0.290803
0.286960 -0.356036 -0.269944
0.286960 -0.429321 -0.204251
0.286960 0.113258 -0.482484
0.286960 -0.056337 -0.486875
0.286960 -0.478712 -0.031090
0.286960 0.375014 0.259954
0.286960 -0.050387 0.462151
0.286960 -0.346627 -0.288911
0.286960 0.439077 -0.152321
0.286960 0.443810 0.040325
0.286960 -0.013065 -0.481378
0.286960 -0.245019 -0.423167
0.286960 -0.099352 0.443648
0.286960 0.145520 -0.428063
0.286960 0.352751 -0.287779
0.286960 -0.088944 -0.475952
0.286960 0.294279 0.388087
0.286960 0.280045 -0.401391
0.286960 0.316882 0.357589
0.286960 0.477327 0.054926
0.286960 -0.377935 -0.305354
0.286960 0.004325 -0.478620
0.286960 -0.025717 0.481299
0.286960 0.062296 -0.451520
0.286960 -0.411447 -0.235635
0.286960 -0.466822 0.131310
0.286960 -0.001586 -0.485875
0.286960 0.206334 -0.402615
0.286960 -0.038337 0.493694
0.286960 0.084430 -0.483648
0.286960 -0.078043 0.463524
0.286960 0.449014 0.113221
0.286960 0.403584 0.203278
0.286960 -0.001339 0.446382
0.286960 -0.471396 0.124843
0.286960 0.335013 -0.331114
0.286960 -0.412640 -0.186601
0.286960 0.247260 0.399816
0.286960 -0.061818 0.441883
0.286960 -0.006663 0.462998
0.286960 -0.480728 -0.011147
0.286960 0.295296 -0.359683
0.286960 -0.411291 0.213992
0.286960 0.209232 0.428199
0.286960 0.297731 0.375509
0.286960 0.433331 -0.183148
0.286960 0.163001 0.414787
0.286960 0.474940 -0.077443
0.286960 -0.064692 0.444282
0.286960 -0.496073 -0.005026
0.286960 -0.463765 -0.002075
0.286960 0.062074 0.446639
0.286960 0.219809 -0.402320
0.286960 0.307270 0.359229
0.286960 0.374606 -0.245542
0.286960 -0.413437 -0.227692
0.286960 0.052334 0.477913
0.286960 -0.167778 -0.463445
0.286960 -0.333867 -0.321061
0.286960 0.415931 0.231571
0.286960 0.246969 0.407582
0.286960 0.093365 0.436680
0.286960 0.417387 0.179323
0.286960 0.094476 0.441338
0.286960 0.351480 0.347241
0.286960 0.485379 -0.073433
0.286960 -0.436918 -0.151061
0.286960 -0.333525 0.337027
0.286960 0.055892 0.443783
0.286960 -0.468439 -0.080877
0.286960 0.333939 0.307195
0.286960 0.455763 0.152083
0.286960 -0.410012 0.241932
0.286960 -0.013877 -0.460958
0.286960 -0.124926 0.474446
0.286960 0.079939 -0.440798
0.286960 -0.404168 0.239655
0.286960 -0.036332 0.449421
0.286960 0.492428 -0.041555
0.286960 0.487612 0.062868
0.286960 -0.349926 0.284938
0.286960 0.433057 0.161106
0.286960 -0.453856 -0.205849
0.286960 -0.060288 0.466346
0.286960 -0.180308 -0.429544
0.286960 0.266324 0.404863
0.286960 0.460505 0.062706
0.286960 0.155059 -0.464938
0.286960 0.191667 -0.411390
0.286960 0.488785 0.051654
0.286960 0.066068 -0.487168
0.286960 -0.344122 -0.342717
0.286960 -0.224922 -0.398870
0.286960 0.456676 0.101260
0.286960 0.117262 -0.454807
0.286960 0.497361 0.023855
0.286960 0.306551 -0.389772
0.286960 -0.445818 0.121937
0.286960 -0.259207 0.375938
0.286960 -0.162440 0.459146
0.286960 -0.367428 -0.330871
0.286960 -0.439489 -0.101764
0.286960 0.464947 0.009944
0.286960 0.435222 -0.153394
0.286960 0.437029 -0.159516
0.286960 0.328100 0.335850
0.286960 0.134431 -0.439678
0.286960 0.452287 0.046642
0.286960 0.011885 -0.494748
0.286960 -0.192395 0.400088
0.286960 0.469825 -0.091645
0.286960 0.182587 0.423486
0.286960 0.032349 0.451404
0.286960 -0.488089 -0.061082
0.286960 -0.028829 0.444103
0.286960 0.321172 0.308723
0.286960 -0.374362 0.284413
0.286960 -0.149898 -0.445485
0.286960 -0.450993 0.068376
0.286960 -0.334265 -0.301021
0.286960 -0.190509 0.436328
0.286960 -0.053049 -0.487764
0.286960 0.229690 0.433881
0.286960 0.038070 0.451283
0.286960 -0.348154 -0.342247
0.286960 -0.479257 -0.131257
0.286960 -0.479401 -0.040264
0.286960 0.189837 0.439940
0.286960 -0.211526 -0.430053
0.286960 0.381006 -0.293269
0.286960 0.459967 -0.034400
0.286960 -0.463392 -0.060580
0.286960 0.441852 0.098141
0.286960 -0.271277 0.366639
0.286960 -0.097751 -0.437583
0.286960 -0.488456 0.066550
0.286960 -0.423385 0.153735
0.286960 -0.190332 -0.405207
0.286960 0.377991 0.280042
0.286960 0.146572 -0.475466
0.286960 0.372646 -0.301748
0.286960 -0.159245 0.413976
0.286960 -0.476615 -0.033540
0.286960 -0.413411 -0.169740
0.286960 -0.418469 0.241992
0.286960 -0.396646 0.279657
0.286960 0.393053 -0.214702
0.286960 -0.200249 -0.403540
0.286960 -0.427855 0.121713
0.286960 0.438985 -0.167957
0.286960 0.490270 0.048373
0.286960 -0.420926 -0.184965
0.286960 -0.126776 0.471309
0.286960 0.188171 0.444329
0.286960 -0.419195 0.224682
0.286960 0.341974 -0.329168
0.286960 0.290927 0.340432
0.286960 -0.417834 -0.230882
0.286960 -0.011120 0.484637
0.286960 -0.175547 -0.467875
0.286960 0.255408 -0.425153
0.286960 -0.398239 -0.202533
0.286960 0.138037 -0.474096
0.286960 -0.419006 0.147681
0.286960 0.441335 0.064618
0.286960 -0.464848 0.069311
0.286960 -0.324065 -0.334383
0.286960 0.396768 -0.260292
0.286960 -0.274897 0.355179
0.286960 -0.178547 0.430100
0.286960 0.414293 -0.198208
0.286960 -0.475053 -0.130267
0.286960 -0.193822 0.408136
0.286960 0.264072 -0.422653
0.286960 -0.163311 -0.445659
0.286960 -0.098056 -0.482406
0.286960 0.301732 0.384436
0.286960 -0.365052 0.259976
0.286960 0.059635 0.477668
0.286960 0.140114 0.454644
0.286960 0.003666 0.486458
0.286960 0.358137 0.286150
0.286960 -0.480959 0.075594
0.286960 -0.438509 0.176347
0.286960 0.463525 0.033668
0.286960 -0.114173 0.467177
0.286960 -0.444840 -0.187233
0.286960 -0.320057 0.308257
0.286960 -0.395722 0.299168
0.286960 -0.430504 0.217738
0.286960 -0.269521 0.414394
0.286960 0.447110 0.043493
0.286960 -0.447488 0.086091
0.286960 -0.355474 -0.318820
0.286960 0.391514 -0.236991
0.286960 0.484287 0.034322
0.286960 0.120836 -0.442819
0.286960 -0.467457 -0.130359
0.286960 0.363215 0.272235
0.286960 0.498269 0.008206
0.286960 0.289853 -0.393742
0.286960 0.451573 -0.108997
0.286960 0.262352 0.399936
0.286960 -0.051377 -0.449534
0.286960 -0.109043 -0.480823
0.286960 -0.179353 -0.438780
0.286960 -0.111441 -0.483822
0.286960 0.156130 0.445206
0.286960 0.263685 -0.367599
0.286960 -0.154625 -0.435650
0.286960 0.291408 -0.350297
0.286960 0.462595 0.081863
0.286960 0.483358 -0.030756
0.286960 0.388290 0.271852
0.286960 -0.464791 0.088435
0.286960 0.233248 0.378015
0.286960 0.057009 0.455650
0.286960 0.375917 0.293817
0.286960 0.378646 -0.325724
0.286960 -0.115243 -0.475119
0.286960 0.352033 -0.280957
0.286960 -0.221912 0.428076
0.286960 -0.465010 0.144353
0.286960 -0.258489 0.382509
0.286960 0.455339 0.046686
0.286960 0.024757 -0.497379
0.286960 0.301047 -0.370893
0.286960 0.354871 0.346619
0.286960 0.367778 0.258543
0.286960 -0.176178 0.458784
0.286960 -0.019000 0.450152
0.286960 -0.305762 0.342614
0.286960 -0.064067 0.449686
0.286960 -0.156892 0.427751
0.286960 -0.262799 -0.381960
0.286960 -0.166903 -0.420010
0.286960 0.223257 0.407780
0.286960 -0.236647 -0.389358
0.286960 -0.458291 -0.146422
0.286960 -0.262197 0.384230
0.286960 0.184499 -0.463358
0.286960 0.246145 0.373539
0.286960 0.458522 -0.061717
0.286960 0.117211 -0.476448
0.286960 0.138024 -0.429563
0.286960 0.281281 -0.372294
0.286960 -0.154136 -0.467371
0.286960 -0.382722 -0.238908
0.286960 0.364866 0.262197
0.286960 -0.471481 0.121201
0.286960 0.281977 -0.369005
0.286960 -0.414457 -0.242671
0.286960 0.460671 0.003883
0.286960 -0.479470 -0.062254
0.286960 -0.495443 -0.008522
0.286960 -0.242668 -0.426920
0.286960 0.091781 0.444292
0.286960 -0.333099 -0.347128
0.286960 -0.286662 0.394618
0.286960 -0.468981 -0.164573
0.286960 0.392769 -0.252576
0.286960 -0.459594 -0.103879
0.286960 0.222769 -0.395746
0.286960 -0.425012 -0.242601
0.286960 -0.128027 -0.442931
0.286960 0.111215 -0.451410
0.286960 -0.110105 0.449002
0.286960 0.196631 -0.443310
0.286960 0.007649 -0.479987
0.286960 0.424429 -0.139311
0.286960 0.308231 0.366923
0.286960 -0.117851 0.447928
0.286960 0.495727 0.041462
0.286960 0.067326 -0.481625
0.286960 -0.349135 0.277749
0.286960 0.005479 0.453552
0.286960 0.100493 0.451349
0.286960 0.064958 0.463675
0.286960 -0.448942 -0.053190
0.286960 0.126480 -0.444476
0.286960 -0.348440 0.315130
0.286960 -0.490067 0.018566
0.286960 -0.070640 -0.465259
0.286960 0.165749 0.448659
0.286960 -0.456495 -0.188191
0.286960 0.475039 0.116724
0.286960 0.008250 -0.449244
0.286960 0.431715 -0.141354
0.286960 0.027946 -0.473741
0.286960 0.010322 -0.457399
0.286960 0.253451 0.378946
0.286960 -0.245412 0.374354
0.286960 0.211841 -0.453010
0.286960 -0.436553 -0.119918
0.286960 0.040262 -0.456323
0.286960 0.398299 0.220933
0.286960 0.441970 0.119362
0.286960 0.458796 -0.066633
0.286960 0.421779 0.245030
0.286960 -0.424618 0.160886
0.286960 -0.000179 -0.460067
0.286960 -0.347681 0.346657
0.286960 0.222610 0.398085
0.286960 0.149729 -0.449265
0.286960 -0.336890 -0.331410
0.286960 -0.186187 -0.463925
0.286960 0.450307 0.029471
0.286960 -0.306084 -0.326404
0.286960 -0.090306 -0.440104
0.286960 -0.264143 0.371282
0.286960 0.447644 -0.019259
0.286960 0.313866 0.379922
0.286960 0.410367 0.180195
0.286960 -0.350547 -0.302171
0.286960 -0.431538 0.190122
0.286960 0.441382 -0.232301
0.286960 0.442061 0.212235
0.286960 0.462632 0.098202
0.286960 0.048099 -0.473822
0.286960 -0.076315 -0.442591
0.286960 -0.446788 0.025739
0.286960 0.366566 -0.289565
0.286960 -0.053402 -0.452301
0.286960 0.367380 -0.337676
0.286960 0.370240 0.300437
0.286960 0.458309 0.086709
0.286960 0.204338 -0.418725
0.286960 -0.266813 0.374034
0.286960 0.278531 -0.378896
0.286960 -0.180118 0.433246
0.286960 0.377170 0.290197
0.286960 -0.371546 -0.331593
0.286960 -0.280731 0.382933
0.286960 -0.003412 0.449690
0.286960 0.099513 -0.458693
0.286960 -0.119783 0.439421
0.286960 -0.448980 -0.078310
0.286960 -0.356476 0.278180
0.286960 -0.450934 0.046449
0.286960 -0.010437 -0.454088
0.286960 0.370238 0.282351
0.286960 0.469434 -0.071922
0.286960 -0.420568 -0.228614
0.286960 -0.100596 0.476558
0.286960 0.107768 0.480179
0.286960 0.476525 0.038909
0.286960 -0.416613 0.167767
0.286960 0.073976 -0.445659
0.286960 0.323626 0.311552
0.286960 -0.420500 -0.205736
0.286960 -0.466096 -0.109154
0.286960 0.428472 -0.232829
0.286960 0.018502 0.480451
0.286960 0.449304 -0.058281
0.286960 -0.402864 0.236919
0.286960 0.388515 -0.302730
0.286960 -0.088373 -0.458838
0.286960 0.262494 0.376938
0.286960 0.468109 -0.015931
0.286960 -0.132485 0.461519
0.286960 0.419623 -0.198466
0.286960 0.302129 0.391705
0.286960 -0.393332 -0.209990
0.286960 -0.385368 -0.270278
0.286960 -0.067973 -0.468794
0.286960 -0.457754 -0.074452
0.286960 0.455755 0.199067
0.286960 0.192670 0.424003
0.286960 0.096113 0.446093
0.286960 -0.135828 -0.451422
0.286960 -0.419272 -0.225015
0.286960 -0.463877 -0.091144
0.286960 -0.294258 0.399142
0.286960 0.360385 -0.316544
0.286960 -0.282980 -0.396678
0.286960 -0.141172 0.467869
0.286960 -0.225740 -0.404698
0.286960 -0.183133 0.424922
0.286960 0.215921 0.417505
0.286960 0.236563 0.384942
0.286960 -0.136775 0.442440
0.286960 0.035752 -0.475144
0.286960 0.288516 -0.390049
0.286960 -0.410016 0.203567
0.286960 0.427756 -0.187820
0.286960 0.304655 -0.327987
0.286960 -0.473738 -0.122417
0.286960 -0.421363 -0.259607
0.286960 0.173667 -0.449903
0.286960 0.256623 0.424226
0.286960 -0.014228 -0.473663
0.286960 0.300902 0.345868
0.286960 0.407854 -0.287374
0.286960 -0.467144 -0.118996
0.286960 0.304788 0.361882
0.286960 0.296021 -0.401201
0.286960 -0.471690 -0.046673
0.286960 0.478736 -0.050815
0.286960 -0.462263 0.045240
0.286960 -0.384070 0.233405
0.286960 0.341699 -0.353372
0.286960 -0.435077 -0.186162
0.286960 0.415285 -0.228525
0.286960 -0.349469 -0.314751
0.286960 0.334838 -0.319761
0.286960 0.411105 -0.232058
0.286960 -0.053725 -0.475537
0.286960 0.312354 0.346577
0.286960 0.312413 -0.373094
0.286960 0.231319 -0.426223
0.286960 0.416541 -0.161711
0.286960 0.096096 -0.441820
0.286960 0.376644 0.319680
0.286960 -0.253276 0.412820
0.286960 -0.303482 0.391816
0.286960 0.479405 0.051992
0.286960 -0.439523 -0.077495
0.286960 -0.222692 0.405641
0.286960 -0.265801 0.397992
0.286960 -0.434486 0.138875
0.286960 0.441497 -0.225248
0.286960 0.386717 0.297906
0.286960 -0.150865 0.427975
0.286960 -0.393380 0.248016
0.286960 -0.344266 0.336037
0.286960 -0.358595 0.325892
0.286960 -0.298984 0.355148
0.286960 -0.090503 -0.486901
0.286960 0.426110 -0.177193
0.286960 0.155795 0.440261
0.286960 0.370132 -0.250444
0.286960 -0.412664 -0.178610
0.286960 0.135659 -0.450680
0.286960 0.134363 -0.476246
0.286960 0.423847 0.188057
0.286960 0.113091 0.460940
0.286960 0.086077 -0.491628
0.286960 -0.271797 -0.369877
0.286960 0.400456 -0.296733
0.286960 0.212827 -0.438885
0.286960 -0.062766 -0.487382
0.286960 -0.021513 0.478782
0.286960 -0.452859 -0.172730
0.286960 -0.069383 -0.495153
0.286960 -0.365108 -0.340005
0.286960 0.376040 -0.266895
0.286960 0.443166 -0.171156
0.286960 0.351011 0.331887
0.286960 -0.295530 -0.334998
0.286960 0.317409 -0.353279
0.286960 -0.117253 0.451067
0.286960 -0.116318 -0.457442
0.286960 0.002235 -0.495888
0.286960 0.424377 -0.173857
0.286960 -0.097145 -0.461858
0.286960 0.425280 0.173741
0.286960 -0.384569 -0.294807
0.286960 -0.401407 -0.194134
0.286960 0.489442 -0.073370
0.286960 0.235586 -0.426808
0.286960 0.438797 0.203344
0.286960 0.452664 -0.155667
0.286960 -0.448413 -0.022553
0.286960 0.006903 -0.470423
0.286960 0.243904 0.409267
0.286960 0.422934 -0.177742
0.286960 0.469235 0.084409
0.286960 -0.315727 0.331162
0.286960 -0.111215 -0.460159
0.286960 0.322292 0.350105
0.286960 0.055809 -0.481435
0.286960 0.454659 -0.185031
0.286960 0.088003 -0.441816
0.286960 -0.383981 0.296948
0.286960 0.255699 0.386641
0.286960 0.372084 0.311675
0.286960 0.461340 -0.015041
0.286960 0.329838 0.364539
0.286960 0.459851 0.168096
0.286960 -0.358513 -0.319211
0.286960 -0.027517 -0.481005
0.286960 -0.319918 -0.340141
0.286960 0.456398 0.113291
0.286960 0.100148 -0.440086
0.286960 0.359583 0.316077
0.286960 0.452029 0.115312
0.286960 -0.303656 0.382911
0.286960 0.374239 0.299740
0.286960 0.405612 -0.218139
0.286960 -0.436925 -0.201425
0.286960 -0.396779 0.213567
0.286960 -0.293986 0.333247
0.286960 -0.471027 -0.129021
0.286960 -0.366287 0.283035
0.286960 -0.039677 0.476009
0.286960 -0.396428 0.275543
0.286960 0.376232 0.245482
0.286960 -0.311170 -0.330411
0.286960 -0.330669 0.315675
0.286960 -0.329127 -0.358588
0.286960 -0.180209 0.445717
0.286960 -0.330339 0.354156
0.286960 -0.432182 -0.139126
0.286960 -0.142912 -0.455611
0.286960 0.490128 -0.038804
0.286960 -0.487748 -0.013623
0.286960 0.037298 0.478765
0.286960 0.479756 -0.013961
0.286960 -0.224921 -0.412355
0.286960 -0.031198 -0.495779
0.286960 -0.022703 0.490526
0.286960 0.468514 0.057987
0.286960 0.464042 -0.117648
0.286960 -0.464227 -0.054472
0.286960 0.127754 0.468931
0.286960 0.331490 -0.301139
0.286960 0.343835 0.286806
0.286960 0.283466 0.359610
0.286960 0.136079 0.444201
0.286960 -0.359482 -0.272677
0.286960 -0.186538 0.403207
0.286960 0.235888 -0.438240
0.286960 -0.075323 -0.470193
0.286960 0.232025 0.402803
0.286960 0.455629 0.040266
0.286960 -0.354070 -0.294823
0.286960 -0.120408 0.452361
0.286960 -0.227756 0.380333
0.286960 -0.033380 -0.458628
0.286960 0.471490 0.091958
0.286960 -0.461432 -0.014785
0.286960 0.253469 -0.369643
0.286960 0.486532 -0.004925
0.286960 -0.441271 0.078116
0.286960 0.331830 -0.338301
0.286960 -0.056677 0.456846
0.286960 0.270310 0.366288
0.286960 -0.429283 -0.247045
0.286960 -0.143673 -0.474097
0.286960 0.473345 0.153562
0.286960 0.196430 0.407932
0.286960 0.239807 -0.436680
0.286960 -0.428354 0.160019
0.286960 -0.481683 0.005583
0.286960 -0.406590 -0.197942
0.286960 -0.400098 -0.295829
0.286960 -0.239642 0.419096
0.286960 -0.447072 -0.104763
0.286960 0.178875 0.436893
0.286960 -0.200733 0.453241
0.286960 0.270222 -0.400362
0.286960 -0.016005 0.478388
0.286960 -0.203186 0.450562
0.286960 -0.257565 0.396546
0.286960 -0.426313 0.246545
0.286960 0.167719 -0.417415
0.286960 -0.311878 -0.387763
0.286960 0.251090 -0.426480
0.286960 -0.368782 0.322266
0.286960 0.241626 0.416256
0.286960 0.084396 0.448314
0.286960 -0.208279 -0.440271
0.286960 -0.270294 -0.390427
0.286960 -0.474481 0.133670
0.286960 0.329998 0.300688
0.286960 0.083440 0.474526
0.286960 0.414679 0.181968
0.286960 0.124663 -0.470616
0.286960 0.044571 0.491361
0.286960 0.460466 -0.191415
0.286960 0.068053 -0.494447
0.286960 -0.409811 0.277212
0.286960 -0.331548 -0.364161
0.286960 0.278322 -0.392412
0.286960 0.025374 -0.447277
0.286960 -0.357197 0.309272
0.286960 -0.408895 -0.188243
0.286960 0.440031 -0.140632
0.286960 -0.444753 -0.224745
0.286960 -0.451087 0.054037
0.286960 -0.326380 0.330611
0.286960 0.457139 -0.029384
0.286960 -0.003744 -0.457353
0.286960 0.275376 0.359509
0.286960 -0.319588 -0.352743
0.286960 -0.249896 0.409765
0.286960 0.359306 0.303835
0.286960 -0.432426 -0.230152
0.286960 -0.251731 0.423054
0.286960 0.322216 0.377904
0.286960 -0.345650 -0.296665
0.286960 0.358284 -0.301024
0.286960 -0.220047 -0.440183
0.286960 -0.105429 -0.455515
0.286960 0.449379 -0.161144
0.286960 -0.413508 0.249209
0.286960 0.192099 -0.418586
0.286960 -0.439907 -0.114093
0.286960 0.430216 0.182444
0.286960 -0.474320 0.118355
0.286960 0.464470 0.064003
0.286960 -0.485791 -0.092296
0.286960 -0.368979 -0.313467
0.286960 -0.076517 0.436436
0.286960 -0.390603 0.292079
0.286960 0.225484 -0.406900
0.286960 0.470550 -0.053593
0.286960 0.414955 0.187630
0.286960 -0.257138 -0.390809
0.286960 0.275963 0.400308
0.286960 -0.478513 0.105862
0.286960 0.441021 0.130834
0.286960 0.098580 0.458713
0.286960 0.106819 -0.467045
0.286960 0.481862 -0.016912
0.286960 0.357214 -0.318258
0.286960 -0.224811 0.411989
0.286960 0.092047 0.480331
0.286960 -0.255842 0.369701
0.286960 -0.174616 0.440313
0.286960 -0.485223 -0.036181
0.286960 0.477892 -0.137192
0.286960 0.251736 0.384637
0.286960 -0.292891 -0.369648
0.286960 -0.047269 -0.482922
0.286960 -0.243596 0.430488
0.286960 -0.215202 0.434554
0.286960 0.416456 -0.201334
0.286960 0.446868 -0.112872
0.286960 -0.059392 0.454726
0.286960 -0.176085 0.444679
0.286960 0.365311 0.266080
0.286960 -0.233706 -0.381617
0.286960 0.497900 -0.024593
0.286960 0.481912 -0.076009
0.286960 0.368840 0.271640
0.286960 -0.469290 0.083168
0.286960 -0.444970 -0.151714
0.286960 0.284631 0.390889
0.286960 -0.341225 0.320171
0.286960 0.422189 -0.237736
0.286960 -0.393404 -0.263596
0.286960 0.221282 -0.392769
0.286960 0.420043 -0.231110
0.286960 0.429784 0.148139
0.286960 0.310298 -0.329217
0.286960 0.409353 -0.274444
0.286960 -0.075324 0.442082
0.286960 -0.316438 -0.329762
0.286960 -0.279409 0.374114
0.286960 0.355579 0.310834
0.286960 0.447830 -0.047731
0.286960 -0.460221 0.185673
0.286960 0.281049 0.408823
0.286960 0.316463 -0.320531
0.286960 0.069932 0.477475
0.286960 0.393670 0.236767
0.286960 -0.444558 0.184012
0.286960 0.412361 -0.201671
0.286960 0.320640 -0.379444
0.286960 -0.365880 0.263540
0.286960 -0.083520 0.447707
0.286960 0.310839 0.361067
0.286960 -0.234577 -0.384733
0.286960 0.463334 0.133662
0.286960 -0.350011 -0.288000
0.286960 0.369480 0.330798
0.286960 -0.193272 0.456412
0.286960 0.316793 0.353033
0.286960 0.388168 -0.267782
0.286960 0.408772 0.282695
0.286960 0.431726 -0.132037
0.286960 -0.169898 -0.432901
0.286960 -0.276003 -0.407825
0.286960 0.022822 0.484266
0.286960 -0.455293 0.000829
0.286960 -0.363914 0.309201
0.286960 0.240695 -0.415743
0.286960 -0.273501 -0.403887
0.286960 0.483772 0.083523
0.286960 -0.089908 0.439354
0.286960 0.443445 -0.129412
0.286960 -0.165158 -0.437337
0.286960 0.354167 0.332639
0.286960 0.147282 -0.445946
0.286960 0.179067 0.424781
0.286960 -0.269233 -0.381027
0.286960 0.433925 -0.207639
0.286960 0.245659 -0.383168
0.286960 -0.094673 -0.448297
0.286960 -0.300550 -0.354997
0.286960 -0.426929 0.124933
0.286960 -0.443440 0.102809
0.286960 0.483019 0.038081
0.286960 0.419531 -0.175977
0.286960 0.430748 -0.235727
0.286960 -0.397813 0.267431
0.286960 0.368025 -0.313626
0.286960 0.446731 -0.013228
0.286960 0.364073 -0.315086
0.286960 -0.078046 -0.473314
0.286960 -0.172647 -0.436307
0.286960 0.471764 0.011398
0.286960 -0.285861 -0.362835
0.286960 0.414631 -0.208863
0.286960 0.481802 -0.039786
0.286960 -0.396973 0.232360
0.286960 -0.362742 -0.277542
0.286960 -0.483291 -0.089665
0.286960 0.417882 -0.236572
0.286960 -0.350021 -0.278775
0.286960 0.378270 -0.283353
0.286960 -0.181060 0.421529
0.286960 -0.083806 0.486107
0.286960 0.239484 -0.402814
0.286960 0.433406 0.220381
0.286960 -0.469182 0.112459
0.286960 -0.464199 0.049066
0.286960 0.013497 0.448256
0.286960 -0.324295 -0.313989
0.286960 -0.488366 -0.001016
0.286960 -0.329750 -0.329958
0.286960 0.497819 -0.002239
0.286960 -0.235575 0.432251
0.286960 0.023937 -0.494169
0.286960 -0.398668 -0.268928
0.286960 -0.013275 -0.485860
0.286960 0.154917 0.453304
0.286960 -0.111574 -0.474557
0.286960 0.148422 0.449199
0.286960 0.105287 -0.471045
0.286960 0.245207 -0.423432
0.286960 0.229735 -0.418510
0.286960 0.418714 -0.163979
0.286960 0.450236 0.072376
0.286960 -0.170618 -0.419383
0.286960 0.330031 -0.354236
0.286960 -0.428232 -0.167589
0.286960 -0.218218 0.417582
0.286960 -0.464926 0.147862
0.286960 -0.284255 -0.384631
0.286960 0.368977 0.265341
0.286960 -0.245080 0.426903
0.286960 0.283080 -0.411142
0.286960 -0.403071 0.250666
0.286960 -0.114263 0.481850
0.286960 0.298123 -0.345638
0.286960 -0.022130 -0.447163
0.286960 0.361665 -0.332233
0.286960 0.084593 0.441227
0.286960 -0.453648 -0.130124
0.286960 0.449425 -0.217757
0.286960 0.448520 0.132995
0.286960 -0.264820 -0.376180
0.286960 -0.233673 0.421999
0.286960 -0.066060 -0.443531
0.286960 -0.461850 -0.128881
0.286960 0.091184 -0.458637
0.286960 -0.481012 -0.126969
0.286960 0.218092 -0.413434
0.286960 0.402854 0.237483
0.286960 0.438545 -0.177918
0.286960 -0.217442 -0.425783
0.286960 0.072423 -0.455486
0.286960 -0.011874 -0.465491
0.286960 0.428244 -0.191598
0.286960 -0.246855 -0.432374
0.286960 -0.286313 -0.355740
0.286960 0.331378 -0.317795
0.286960 -0.380208 -0.270077
0.286960 -0.240917 -0.437164
0.286960 -0.436978 0.114357
0.286960 0.273411 -0.362675
0.286960 0.008023 -0.467012
0.286960 0.352570 0.275589
0.286960 -0.452700 -0.014475
0.286960 0.446070 0.216079
0.286960 -0.137969 0.474458
0.286960 -0.444606 -0.217822
0.286960 0.109300 0.452742
0.286960 -0.192611 -0.439155
0.286960 0.395012 -0.236740
0.286960 0.387694 -0.245221
0.286960 -0.462544 0.028362
0.286960 0.142448 0.461817
0.286960 0.142234 -0.463597
0.286960 0.234794 0.400753
0.286960 0.387761 -0.282818
0.286960 0.105943 0.430597
0.286960 0.119217 0.445944
0.286960 0.179891 -0.427266
0.286960 0.015319 0.486542
0.286960 -0.094237 -0.437644
0.286960 -0.142893 0.446373
0.286960 -0.340197 -0.310630
0.286960 0.462304 0.139823
0.286960 -0.346013 0.284384
0.286960 0.464918 0.090102
0.286960 0.078099 -0.478885
0.286960 -0.176706 0.406409
0.286960 -0.432066 0.158731
0.286960 0.062210 -0.468478
0.286960 0.442191 0.204727
0.286960 -0.449001 0.146519
0.286960 -0.268538 -0.362427
0.286960 0.259229 -0.405671
0.286960 -0.348884 0.307929
0.286960 0.455497 0.194239
0.286960 -0.268916 0.370503
0.286960 0.321877 -0.332036
0.286960 0.472105 -0.121233
0.286960 0.448251 -0.176190
0.286960 0.399958 -0.204352
0.286960 0.462768 -0.174156
0.286960 -0.449879 -0.112203
0.286960 -0.007056 0.449562
0.286960 0.382019 0.290257
0.286960 0.461929 -0.145469
0.286960 0.105442 0.473893
0.286960 0.401987 -0.241066
0.286960 -0.405148 0.269732
0.286960 -0.182313 -0.458782
0.286960 0.366531 -0.269563
0.286960 0.114490 -0.464129
0.286960 -0.428407 0.199053
0.286960 0.006837 -0.459414
0.286960 0.425257 -0.193535
0.286960 0.482457 0.017236
0.286960 0.408782 0.228999
0.286960 0.463705 0.168615
0.286960 -0.068885 -0.461675
0.286960 -0.216397 0.395106
0.286960 -0.246150 0.400340
0.286960 -0.454824 -0.143517
0.286960 -0.024022 0.494422
0.286960 -0.397048 -0.260967
0.286960 0.308310 0.388332
0.286960 0.418844 -0.254189
0.286960 0.141174 -0.452758
0.286960 0.440343 -0.220348
0.286960 -0.476909 0.136377
0.286960 -0.454964 0.129133
0.286960 -0.456322 -0.006842
0.286960 0.125779 -0.432412
0.286960 -0.451217 0.104153
0.286960 -0.398415 0.253176
0.286960 0.336866 0.296513
0.286960 0.216075 -0.416964
0.286960 -0.479915 0.061717
0.286960 0.222373 -0.414622
0.286960 0.439466 -0.134693
0.286960 -0.427819 -0.160470
0.286960 0.471629 -0.147450
0.286960 0.469452 0.146076
0.286960 -0.403422 0.198903
0.286960 -0.476294 -0.081245
0.286960 -0.400524 -0.286820
0.286960 0.396103 0.246996
0.286960 -0.430972 -0.198247
0.286960 -0.274041 0.348391
0.286960 -0.347389 0.318453
0.286960 0.042202 -0.490510
0.286960 0.325596 0.325405
0.286960 -0.111149 0.463956
0.286960 0.336385 -0.361329
0.286960 0.473111 0.029304
0.286960 -0.454545 -0.122830
0.286960 -0.378078 0.320773
0.286960 0.461692 -0.109106
0.286960 0.211122 -0.429466
0.286960 -0.365665 -0.288598
0.286960 0.275906 -0.381327
0.286960 -0.239885 -0.405034
0.286960 0.399597 0.247206
0.286960 -0.385993 -0.237288
0.286960 -0.159586 -0.438792
0.286960 0.439187 -0.093070
0.286960 0.034996 -0.478817
0.286960 0.411959 -0.257740
0.286960 -0.167998 0.419478
0.286960 0.090667 -0.482988
0.286960 -0.101717 0.471410
0.286960 0.151679 0.465392
0.286960 0.286977 -0.409230
0.286960 0.375853 -0.290582
0.286960 0.469907 0.031529
0.286960 -0.441778 0.050075
0.286960 -0.465926 0.045712
0.286960 0.203230 0.431803
0.286960 0.363873 -0.305491
0.286960 0.301975 0.349113
0.286960 -0.156787 0.441989
0.286960 -0.085649 0.444823
0.286960 -0.440163 -0.143625
0.286960 0.058192 -0.478762
0.286960 0.449252 -0.062744
0.286960 -0.069347 0.439642
0.286960 0.321270 0.326148
0.286960 -0.475672 -0.144280
0.286960 0.353602 -0.320829
0.286960 0.408643 0.257373
0.286960 0.344450 0.325212
0.286960 -0.136360 -0.471475
0.286960 0.189693 0.402030
0.286960 0.430124 0.115916
0.286960 -0.424705 -0.218994
0.286960 0.110504 -0.476870
0.286960 0.489398 0.039255
0.286960 -0.260044 0.399074
0.286960 -0.069746 0.482386
0.286960 0.068968 0.469350
0.286960 -0.320011 0.357250
0.286960 -0.209662 -0.411616
0.286960 0.057378 -0.471629
0.286960 0.136755 0.476073
0.286960 0.192708 0.435132
0.286960 -0.083553 -0.455708
0.286960 0.048469 -0.497175
0.286960 -0.277301 0.405643
0.286960 -0.017750 0.460894
0.286960 0.224737 -0.436202
0.286960 -0.374641 -0.305753
0.286960 -0.056481 -0.461834
0.286960 -0.089018 0.456529
0.286960 -0.080102 0.473614
0.286960 0.427023 -0.170140
0.286960 -0.065501 0.438226
0.286960 0.405427 -0.265965
0.286960 -0.283119 0.376316
0.286960 -0.373915 -0.265272
0.286960 0.283189 0.397385
0.286960 -0.416414 -0.253270
0.286960 -0.125229 -0.475208
0.286960 -0.396615 0.250534
0.286960 -0.381601 -0.259279
0.286960 -0.496093 0.035204
0.286960 0.463832 -0.142636
0.286960 0.142572 0.440475
0.286960 -0.452511 -0.202596
0.286960 -0.387333 0.280360
0.286960 -0.211364 0.424816
0.286960 0.461886 -0.057927
0.286960 -0.477240 0.074788
0.286960 -0.353837 -0.288387
0.286960 -0.329521 0.365795
0.286960 0.471462 0.128851
0.286960 -0.456450 -0.166157
0.286960 -0.430591 0.163047
0.286960 -0.435338 0.204551
0.286960 -0.443347 0.110975
0.286960 -0.232846 -0.405035
0.286960 0.445658 0.009801
0.286960 -0.440407 0.065974
0.286960 0.383104 0.308335
0.286960 0.201611 -0.425584
0.286960 -0.100631 -0.462201
0.286960 0.418175 0.203905
0.286960 -0.471627 0.094629
0.286960 0.353187 -0.274028
0.286960 -0.191605 -0.454671
0.286960 -0.485383 0.078040
0.286960 -0.387693 -0.309032
0.286960 -0.304553 0.332487
0.286960 0.457168 -0.092756
0.286960 0.243300 -0.407979
0.286960 -0.212739 -0.420054
0.286960 -0.369519 0.256643
0.286960 0.323419 -0.361688
0.286960 0.247487 0.413331
0.286960 -0.005658 -0.483975
0.286960 -0.439629 -0.184972
0.286960 0.253228 0.412133
0.286960 -0.196148 -0.441116
0.286960 -0.476456 0.099258
0.286960 0.458542 -0.109526
0.286960 -0.082883 -0.486858
0.286960 -0.333777 0.293535
0.286960 0.300968 -0.390273
0.286960 -0.388992 0.299872
0.286960 0.096505 0.471812
0.286960 0.007797 0.466697
0.286960 -0.138023 -0.447523
0.286960 0.481402 -0.027242
0.286960 -0.447906 -0.036893
0.286960 0.455569 0.097350
0.286960 -0.339242 -0.295526
0.286960 0.327093 0.361229
0.286960 -0.272125 -0.408045
0.286960 -0.000075 -0.499787
0.286960 -0.434438 -0.219382
0.286960 -0.389932 0.258049
0.286960 -0.449393 0.180538
0.286960 0.037325 0.489104
0.286960 -0.439990 0.120263
0.286960 0.321640 -0.382370
0.286960 -0.472081 -0.134417
0.286960 -0.248077 -0.392517
0.286960 -0.118764 -0.469553
0.286960 0.458978 0.074638
0.286960 -0.084711 -0.448273
0.286960 -0.190472 -0.420626
0.286960 -0.453298 -0.042746
0.286960 -0.305454 -0.369963
0.286960 -0.289987 0.366737
0.286960 -0.365848 0.325313
0.286960 -0.239807 0.432761
0.286960 -0.026150 -0.472326
0.286960 0.212177 -0.417356
0.286960 -0.351633 0.300689
0.286960 -0.372808 -0.309046
0.286960 0.447447 0.178905
0.286960 -0.105050 0.469318
0.286960 0.423877 -0.159720
0.286960 0.424684 -0.162823
0.286960 -0.305066 -0.381986
0.286960 -0.001743 0.472271
0.286960 0.344996 -0.309665
0.286960 0.457278 -0.077685
0.286960 -0.406205 -0.192721
0.286960 0.372358 -0.259535
0.286960 0.241327 0.385029
0.286960 -0.105182 0.466008
0.286960 0.406406 0.259666
0.286960 0.418892 -0.226951
0.286960 0.452540 0.099380
0.286960 -0.089861 -0.454828
0.286960 0.282111 0.342982
0.286960 -0.468961 0.087517
0.286960 0.150955 -0.421643
0.286960 -0.455108 0.189373
0.286960 -0.403511 0.266307
0.286960 0.225714 -0.427364
0.286960 0.156963 0.462944
0.286960 -0.234567 0.396007
0.286960 0.182745 0.436781
0.286960 0.468762 0.073169
0.286960 -0.472010 -0.027167
0.286960 0.117564 -0.444752
0.286960 0.492412 0.014642
0.286960 0.389946 -0.233780
0.286960 -0.441393 -0.196333
0.286960 -0.272834 0.392538
0.286960 0.345125 -0.354378
0.286960 -0.034543 -0.470299
0.286960 0.260092 -0.376129
0.286960 -0.283058 0.369131
0.286960 -0.445661 -0.202493
0.286960 0.069540 0.451107
0.286960 0.463992 0.056959
0.286960 -0.456064 0.071862
0.286960 -0.025746 0.450440
0.286960 0.113916 0.470204
0.286960 0.019252 0.495380
0.286960 0.444409 -0.145436
0.286960 0.194650 -0.446241
0.286960 -0.464455 0.129397
0.286960 0.362938 0.258805
0.286960 0.414313 0.167742
0.286960 0.169715 0.411019
0.286960 0.441073 -0.143775
0.286960 0.380838 -0.242752
0.286960 -0.082782 -0.459249
0.286960 -0.329585 -0.304997
0.286960 0.286846 -0.393479
0.286960 0.164107 0.424384
0.286960 -0.046273 0.491650
0.286960 -0.009495 -0.470178
0.286960 0.467825 0.081443
0.286960 -0.293854 -0.386631
0.286960 0.394376 -0.233179
0.286960 -0.408534 0.206847
0.286960 -0.226385 -0.408589
0.286960 -0.330623 0.369253
0.286960 0.254902 0.392766
0.286960 -0.362857 -0.299882
0.286960 0.153105 0.426017
0.286960 0.355202 0.329759
0.286960 0.433842 0.223355
0.286960 0.379435 -0.289974
0.286960 0.447604 -0.073193
0.286960 -0.485181 0.006091
0.286960 0.061235 -0.473107
0.286960 0.449165 -0.117145
0.286960 -0.195481 0.404424
0.286960 -0.286872 -0.347413
0.286960 0.468530 -0.112000
0.286960 -0.419112 -0.197920
0.286960 -0.472327 0.088121
0.286960 -0.203769 -0.440876
0.286960 0.376488 -0.320399
0.286960 -0.268298 -0.384082
0.286960 0.276603 -0.385830
0.286960 -0.338205 -0.341647
0.286960 -0.444487 0.099546
0.286960 -0.219430 0.421203
0.286960 0.051741 -0.486038
0.286960 -0.374492 0.251386
0.286960 0.434525 -0.225051
0.286960 -0.473808 -0.015255
0.286960 -0.214921 -0.436788
0.286960 0.177823 -0.424637
0.286960 0.378998 0.302151
0.286960 -0.455374 -0.149415
0.286960 -0.042652 0.473387
0.286960 0.319782 -0.356690
0.286960 0.301776 0.368819
0.286960 -0.485545 0.011763
0.286960 0.295548 0.379304
0.286960 0.177274 -0.414957
0.286960 -0.437183 0.165631
0.286960 0.201379 -0.417881
0.286960 -0.452521 -0.051248
0.286960 -0.436177 -0.160067
0.286960 0.451436 -0.137100
0.286960 0.355452 -0.290574
0.286960 -0.125602 -0.464701
0.286960 -0.233439 0.392435
0.286960 -0.205886 0.440615
0.286960 -0.404370 -0.211485
0.286960 0.303472 0.343599
0.286960 -0.220779 -0.429754
0.286960 0.238505 -0.428775
0.286960 0.244220 0.418904
0.286960 0.439169 -0.116956
0.286960 0.259597 -0.396502
0.286960 0.447081 -0.148069
0.286960 -0.212941 -0.397954
0.286960 0.434436 0.130638
0.286960 0.222070 0.421163
0.286960 0.252108 -0.395745
0.286960 -0.357906 0.283228
0.286960 0.391839 0.292038
0.286960 -0.326207 -0.367429
0.286960 0.423237 0.203931
0.286960 -0.436979 -0.221936
0.286960 -0.061153 -0.452141
0.286960 0.149070 -0.426959
0.286960 -0.491687 0.065667
0.286960 -0.385561 -0.251903
0.286960 0.425715 0.130675
0.286960 0.409740 0.222500
0.286960 -0.440189 -0.218956
0.286960 -0.132363 -0.475064
0.286960 0.291145 0.355365
0.286960 -0.461774 0.155256
0.286960 -0.029230 0.478111
0.286960 -0.458169 -0.070754
0.286960 0.466872 0.167604
0.286960 0.401462 -0.222846
0.286960 0.351302 -0.308798
0.286960 -0.214870 -0.427782
0.286960 -0.343357 -0.361170
0.286960 0.171287 0.426123
0.286960 -0.063502 0.469744
0.286960 0.490168 -0.017755
0.286960 -0.466487 -0.098153
0.286960 -0.245040 -0.411024
0.286960 -0.447940 -0.209790
0.286960 0.354576 0.306764
0.286960 0.449524 0.147592
0.286960 0.308227 0.384647
0.286960 0.366741 -0.303243
0.286960 -0.349782 -0.354340
0.286960 0.219087 0.423107
0.286960 0.269957 0.370467
0.286960 -0.320143 -0.328635
0.286960 0.472055 0.034514
0.286960 -0.396341 0.239208
0.286960 -0.388969 0.272062
0.286960 0.297427 -0.387693
0.286960 0.459159 -0.080685
0.286960 0.314814 -0.350439
0.286960 0.388093 0.255803
0.286960 0.152259 -0.429500
0.286960 0.411735 0.248934
0.286960 0.115771 0.475957
0.286960 -0.182208 -0.418253
0.286960 0.386657 0.310447
0.286960 -0.485114 0.092131
0.286960 0.079578 0.455875
0.286960 -0.382673 0.227522
0.286960 -0.426330 0.141272
0.286960 0.385644 0.285484
0.286960 0.138683 -0.460278
0.286960 0.114126 -0.477930
0.286960 -0.407182 0.279751
0.286960 0.388787 -0.297675
0.286960 -0.357983 -0.307493
0.286960 0.195604 -0.436870
0.286960 0.059122 0.481244
0.286960 -0.378245 0.246545
0.286960 0.032011 0.486316
0.286960 0.193822 -0.408159
0.286960 0.428277 -0.164744
0.286960 -0.451388 -0.071843
0.286960 0.470241 0.023270
0.286960 -0.326849 -0.310355
0.286960 0.481733 -0.047137
0.286960 0.263721 -0.402851
0.286960 0.492451 -0.001498
0.286960 -0.251195 0.397233
0.286960 0.278924 -0.412686
0.286960 -0.094927 0.433356
0.286960 -0.422049 -0.180381
0.286960 0.273326 -0.388060
0.286960 0.431586 0.230063
0.286960 -0.189886 -0.457814
0.286960 -0.046385 0.483970
0.286960 -0.462232 0.077899
0.286960 0.010339 0.480924
0.286960 -0.295216 -0.349323
0.286960 -0.262428 -0.363483
0.286960 -0.203820 0.433201
0.286960 0.143750 -0.424151
0.286960 -0.451627 -0.079821
0.286960 0.347955 -0.284433
0.286960 0.453087 -0.175454
0.286960 -0.152222 -0.471298
0.286960 0.484588 0.092810
0.286960 0.386664 0.301280
0.286960 -0.303168 -0.344858
0.286960 -0.438254 -0.195618
0.286960 0.451763 0.087916
0.286960 0.340758 -0.323563
0.286960 -0.050203 0.453492
0.286960 0.317896 -0.375559
0.286960 -0.134962 0.452678
0.286960 -0.464705 -0.022110
0.286960 -0.246770 -0.425788
0.286960 0.294636 0.374830
0.286960 0.164059 0.433502
0.286960 0.093158 -0.454736
0.286960 0.346522 -0.359446
0.286960 -0.291759 -0.348453
0.286960 -0.018213 -0.479169
0.286960 0.405086 -0.232367
0.286960 0.014525 0.490565
0.286960 -0.454227 -0.082166
0.286960 0.368672 -0.292454
0.286960 0.140786 0.451096
0.286960 -0.433567 -0.166013
0.286960 -0.227486 -0.420241
0.286960 0.313911 -0.363552
0.286960 0.235581 -0.401306
0.286960 -0.396535 -0.281175
0.286960 -0.171212 0.428093
0.286960 0.070730 -0.471436
0.286960 -0.463778 -0.131564
0.286960 0.287838 0.388976
0.286960 0.088362 0.478720
0.286960 -0.068849 0.476297
0.286960 0.325824 0.302106
0.286960 0.213897 0.398926
0.286960 0.166267 -0.450481
0.286960 0.375567 0.281989
0.286960 0.140246 -0.438143
0.286960 -0.274386 0.358493
0.286960 0.304273 -0.337970
0.286960 0.475142 -0.112152
0.286960 0.130597 0.450668
0.286960 0.344463 0.281410
0.286960 0.167907 -0.454402
0.286960 -0.472190 0.021583
0.286960 -0.398872 -0.240456
0.286960 0.070331 -0.444160
0.286960 0.469999 -0.155081
0.286960 -0.397401 0.285415
0.286960 -0.102329 0.454629
0.286960 -0.252302 -0.381196
0.286960 0.101621 -0.466874
0.286960 0.349315 0.318040
0.286960 -0.318347 -0.313940
0.286960 0.088558 -0.468271
0.286960 0.431650 -0.158593
0.286960 -0.381675 0.264014
0.286960 -0.258200 0.372277
0.286960 0.189322 0.452139
0.286960 -0.485332 0.019997
0.286960 0.119641 -0.460577
0.286960 0.140386 -0.441824
0.286960 0.242316 -0.400448
0.286960 -0.155600 0.459930
0.286960 -0.360789 0.338685
0.286960 0.486835 -0.010894
0.286960 -0.361767 -0.320085
0.286960 -0.430846 0.150212
0.286960 0.030865 -0.484923
0.286960 0.267543 -0.368487
0.286960 0.421592 -0.189892
0.286960 0.328534 -0.358061
0.286960 0.464218 0.126174
0.286960 -0.455626 0.135245
0.286960 -0.199600 0.444280
0.286960 0.360879 -0.312699
0.286960 0.483800 0.045654
0.286960 0.298334 0.382386
0.286960 -0.036801 0.445944
0.286960 -0.352674 0.292004
0.286960 -0.470191 0.064950
0.286960 0.224367 -0.391194
0.286960 -0.095423 0.444777
0.286960 -0.469740 -0.036894
0.286960 0.396076 0.212992
0.286960 0.046009 0.448409
0.286960 -0.384457 0.282430
0.286960 -0.469784 0.028019
0.286960 -0.493652 -0.046531
0.286960 0.123871 -0.484058
0.286960 -0.391802 -0.239231
0.286960 -0.206483 -0.425362
0.286960 0.263379 0.363421
0.286960 0.258316 -0.379335
0.286960 -0.212755 0.399864
0.286960 -0.219144 -0.401473
0.286960 -0.014157 0.475919
0.286960 0.318383 0.329703
0.286960 0.329296 0.368474
0.286960 0.329953 -0.362906
0.286960 0.458183 -0.146029
0.286960 0.083913 0.452610
0.286960 0.463796 0.151056
0.286960 -0.411251 -0.262961
0.286960 -0.423758 0.256113
0.286960 0.028410 0.490322
0.286960 0.474027 0.097630
0.286960 0.453840 0.025738
0.286960 -0.020100 -0.495819
0.286960 -0.205989 0.398834
0.286960 -0.148594 -0.440301
0.286960 -0.365342 -0.302756
0.286960 -0.000931 0.478391
0.286960 0.360187 0.325087
0.286960 -0.426007 -0.245637
0.286960 0.269470 0.352756
0.286960 -0.079930 -0.457209
0.286960 0.437561 0.123083
0.286960 0.438222 0.158598
0.286960 -0.388473 -0.280066
0.286960 -0.097101 0.457860
0.286960 -0.061391 0.461520
0.286960 -0.032773 0.485874
0.286960 0.116169 -0.460969
0.286960 0.435052 -0.239011
0.286960 0.028667 -0.453066
0.286960 -0.297983 0.361794
0.286960 0.442654 -0.174636
0.286960 0.424481 0.193504
0.286960 0.050086 0.461122
0.286960 0.020163 0.457650
0.286960 0.445098 0.181049
0.286960 0.161881 -0.419272
0.286960 -0.143509 0.442986
0.286960 0.286476 0.385521
0.286960 0.220127 0.390513
0.286960 -0.438763 0.214632
0.286960 0.109538 0.431549
0.286960 -0.488585 0.022089
0.286960 -0.259818 0.407600
0.286960 0.439323 0.116670
0.286960 0.480906 -0.036716
0.286960 0.318171 0.338211
0.286960 -0.045762 0.455862
0.286960 0.259036 0.385143
0.286960 0.455946 -0.098934
0.286960 0.440412 0.184815
0.286960 -0.454874 -0.191896
0.286960 -0.445210 0.095358
0.286960 0.280665 0.355367
0.286960 0.442545 0.194850
0.286960 -0.039543 -0.485568
0.286960 0.481367 -0.129369
0.286960 -0.380778 0.310032
0.286960 -0.478912 -0.099910
0.286960 0.148909 0.466968
0.286960 0.474625 0.125832
0.286960 -0.349319 -0.318459
0.286960 -0.113853 0.478772
0.286960 -0.306696 -0.359463
0.286960 0.179654 0.430583
0.286960 0.324002 0.339944
0.286960 0.054558 -0.448123
0.286960 0.460923 0.024215
0.286960 -0.388888 0.227846
0.286960 0.002602 0.446543
0.286960 -0.474304 0.072784
0.286960 -0.494595 -0.019549
0.286960 0.375641 -0.285817
0.286960 0.452569 -0.114517
0.286960 -0.410372 0.171544
0.286960 -0.444651 -0.015471
0.286960 0.261541 0.418906
0.286960 0.258718 -0.427888
0.286960 0.062218 -0.458389
0.286960 0.058256 -0.444186
0.286960 0.447720 -0.214607
0.286960 -0.466414 0.066424
0.286960 -0.288644 0.344969
0.286960 0.304105 -0.396525
0.286960 0.130979 -0.435780
0.286960 -0.300196 0.381680
0.286960 -0.023988 0.444195
0.286960 0.436874 0.136941
0.286960 -0.039791 0.479112
0.286960 -0.107552 0.440921
0.286960 -0.407251 -0.278091
0.286960 -0.254363 0.373450
0.286960 -0.462284 -0.098146
0.286960 0.465317 0.164263
0.286960 -0.437321 -0.182509
0.286960 -0.423903 -0.196875
0.286960 -0.438491 0.094854
0.286960 -0.288022 0.351655
0.286960 0.362899 0.294793
0.286960 -0.486487 -0.082753
0.286960 0.384281 0.268550
0.286960 0.391873 0.240503
0.286960 0.305982 0.381018
0.286960 0.363763 0.338397
0.286960 -0.343652 0.287374
0.286960 -0.284982 0.398486
0.286960 0.180474 -0.458053
0.286960 -0.132402 -0.441224
0.286960 -0.323730 0.348249
0.286960 -0.449394 0.005602
0.286960 0.294263 -0.387053
0.286960 -0.249705 -0.375894
0.286960 -0.026182 0.453764
0.286960 0.181009 -0.418531
0.286960 -0.047945 0.443688
0.286960 -0.007380 -0.452287
0.286960 0.365529 0.269583
0.286960 0.039299 -0.498115
0.286960 -0.456076 -0.040377
0.286960 0.258162 -0.389524
0.286960 0.384724 -0.310463
0.286960 0.484774 0.029944
0.286960 -0.231997 0.437230
0.286960 -0.414831 -0.273699
0.286960 -0.003688 0.475862
0.286960 0.393376 -0.288303
0.286960 0.466161 -0.109185
0.286960 -0.377551 -0.272395
0.286960 -0.479434 -0.037231
0.286960 0.185640 0.439436
0.286960 0.454459 0.131129
0.286960 -0.475848 -0.042064
