-0.289274 0.136896 0.476811
0.260835 0.234073 0.437590
0.146302 0.348290 0.354418
0.271617 0.269789 0.416836
0.240719 -0.459426 0.189105
-0.241878 -0.329347 -0.375232
0.169488 0.342832 -0.363852
-0.256072 0.439230 -0.237729
-0.250034 0.243748 -0.436694
-0.156360 -0.465428 -0.178406
-0.151885 0.481548 -0.131657
-0.086405 0.291250 -0.406584
-0.102555 -0.026760 0.495183
-0.037022 -0.346718 -0.359333
-0.164117 0.340711 0.361514
-0.201690 0.445714 -0.225415
0.002594 -0.246205 -0.434943
-0.016338 0.332390 0.369051
-0.278206 0.472384 0.156858
-0.229363 -0.273321 0.413706
-0.001938 -0.086189 -0.492514
0.053934 0.184294 0.460701
0.277642 0.133821 -0.481939
-0.100297 -0.488565 -0.096068
-0.022292 -0.309936 -0.391489
0.280909 0.144360 0.474533
0.069530 -0.379872 0.319469
0.016089 -0.435615 -0.242605
-0.215513 -0.279210 -0.414178
0.063325 0.497842 0.025475
0.054440 0.195558 0.456073
0.087220 -0.433774 -0.245816
-0.236111 0.497144 0.034093
0.010431 0.399586 -0.300383
-0.100941 0.153932 0.471613
0.056893 0.481342 0.127264
0.027435 -0.480061 -0.132547
0.230775 0.147627 0.473537
0.071642 -0.480529 -0.130852
-0.230795 -0.238604 0.434703
-0.245038 0.353757 -0.353216
-0.055410 -0.437268 -0.239723
-0.058636 0.133376 0.477885
0.124786 -0.369079 0.331508
-0.271820 0.394673 -0.306544
0.226625 0.318927 -0.385079
-0.222822 -0.111906 -0.487267
-0.201144 -0.365302 0.335678
-0.014218 0.497793 0.026080
-0.229522 -0.497437 -0.006034
0.095703 0.403862 -0.294270
0.037860 -0.140687 -0.479695
0.100553 0.304533 0.392261
0.285030 0.304242 -0.396783
0.116986 0.375082 -0.330364
0.111209 0.076122 -0.494360
-0.230007 -0.496637 0.026561
-0.144788 -0.049204 -0.497641
-0.125793 0.031537 -0.499233
-0.287937 -0.430765 0.246983
0.031926 -0.014330 -0.499950
-0.152811 0.404061 -0.293985
0.054929 0.156303 0.470890
0.250849 -0.133870 -0.481775
0.109277 0.486400 0.106942
0.141967 -0.466404 -0.175577
0.284173 -0.411100 -0.282478
0.226577 0.490075 -0.093373
0.061558 0.089679 -0.492244
-0.141937 0.404687 0.288870
-0.107739 -0.497290 -0.014178
0.173453 -0.179308 0.462334
0.167289 0.044954 0.493858
0.063753 -0.244582 -0.435871
-0.041619 -0.457887 0.192536
0.089309 -0.474813 -0.151199
-0.173096 0.124422 -0.484534
-0.076426 -0.431549 0.245696
-0.190102 -0.494218 0.054335
-0.172434 0.294608 0.399773
-0.129746 -0.203648 0.452186
-0.141665 0.485592 -0.114638
0.218512 0.066689 0.491509
0.210729 -0.428153 -0.255617
-0.147751 -0.190376 0.457719
0.139054 -0.374756 0.325239
-0.116346 0.238588 0.435213
-0.198559 -0.495120 -0.050779
-0.172676 -0.060162 -0.496457
0.170897 -0.493371 0.062167
-0.250665 0.419343 -0.271753
-0.171625 -0.236982 0.435633
-0.231982 -0.337475 0.363716
-0.047036 -0.279382 -0.414058
0.128954 -0.227062 -0.445096
0.007465 0.418736 0.268110
-0.090720 0.490972 -0.088163
-0.173604 0.402077 0.292329
0.285099 0.432560 -0.250073
-0.021198 0.393386 -0.308159
-0.253653 0.458635 0.192967
0.114382 0.247230 0.430589
0.205403 0.260480 0.422512
0.250746 0.244733 -0.436129
-0.265215 -0.217181 0.445662
-0.275765 0.234581 -0.441946
-0.265390 0.231955 -0.443240
0.272229 0.404882 0.288611
-0.117647 0.339661 0.362466
-0.081627 0.107238 0.484266
0.004394 0.470141 0.163361
0.165633 -0.021042 -0.499649
0.048772 -0.120336 -0.485263
0.170149 -0.482088 0.120718
-0.256453 0.487073 -0.108405
0.184829 0.097453 -0.490616
-0.086744 -0.344388 -0.361609
0.141004 -0.486611 0.101684
-0.187067 -0.255419 -0.429326
0.166600 -0.347310 0.354141
0.017576 0.296627 -0.402528
0.269822 -0.216240 -0.450686
-0.044201 0.054438 0.492833
-0.052014 0.493640 0.066910
0.098460 -0.199638 -0.458136
-0.020933 -0.254371 -0.429964
0.177373 -0.109976 0.483424
0.018879 -0.036483 -0.498956
0.097615 0.389932 0.308428
0.195887 -0.248906 0.428795
0.179875 0.371712 0.329875
-0.055530 -0.112785 0.482836
0.227145 -0.489688 0.085317
0.137023 0.406858 0.285992
-0.224582 0.270656 -0.420495
-0.205670 0.414448 0.274606
-0.085710 -0.119293 -0.485511
-0.088692 -0.258687 -0.427333
0.210917 -0.217013 -0.450339
-0.095854 0.424180 0.259863
-0.127473 0.337382 0.364530
-0.094295 -0.472240 0.154643
0.105065 -0.147762 0.473407
0.242826 -0.318430 -0.384716
-0.151972 -0.040929 0.494035
-0.244987 -0.175876 0.463709
-0.135060 -0.470684 0.159435
-0.131988 -0.108629 -0.488045
-0.198282 0.127471 0.479458
0.275386 -0.329997 0.370346
-0.158002 0.458191 0.194031
-0.273673 -0.103149 -0.489348
-0.175850 -0.376672 0.323124
-0.106314 0.426368 0.256163
0.096584 -0.240034 -0.438266
0.098749 0.467227 -0.175734
-0.014499 0.386912 -0.316278
0.138131 0.206202 0.451297
0.064985 -0.234529 0.437040
-0.189588 -0.141671 0.475136
-0.135166 0.278430 -0.415362
0.078408 -0.323804 0.375661
0.034695 0.487874 0.099905
0.077357 0.094287 0.486942
-0.179804 0.467462 -0.175108
-0.002052 0.331363 -0.374407
0.064709 0.178030 0.463052
0.286338 -0.487464 -0.101325
-0.104556 -0.496771 -0.030401
0.183637 -0.296212 0.397714
0.185603 0.237886 -0.440055
-0.029577 -0.298132 0.396266
0.049845 -0.092415 -0.491442
-0.107846 0.018587 -0.499870
-0.240558 -0.451386 0.207023
0.012885 0.204167 0.452210
0.094616 -0.330489 -0.374198
0.066133 -0.493580 0.060239
0.286576 0.496928 0.036758
-0.014485 -0.190527 -0.462224
-0.017662 0.161460 0.469269
0.103820 -0.493596 0.060086
-0.081932 -0.407744 -0.287561
0.092967 -0.168690 0.466187
-0.058442 0.370440 -0.335490
0.260407 0.490040 -0.093580
-0.274909 -0.496959 0.019392
-0.286596 -0.381000 0.318054
-0.247085 -0.152278 -0.476158
0.043028 0.460662 -0.192988
-0.067645 0.127510 0.479449
-0.059531 0.269826 -0.421043
-0.165452 -0.293875 0.399477
0.225850 -0.317940 0.380693
0.264584 -0.190684 0.457591
-0.281084 0.386131 -0.317258
0.160288 -0.469223 0.163331
-0.128160 -0.375146 0.324809
-0.053728 -0.484735 -0.114353
-0.173626 0.444674 -0.227391
-0.286350 -0.489593 -0.091160
0.244874 -0.299625 -0.399711
0.031530 0.410930 -0.284164
0.135540 0.098900 0.486148
-0.010954 0.104118 0.485007
-0.181787 -0.496783 0.023313
0.156490 0.314136 0.384604
0.251087 -0.324571 -0.379558
0.276455 0.005308 0.495929
-0.199686 -0.483132 0.116323
-0.125407 0.446683 0.218901
-0.206006 0.082676 0.488941
0.044362 -0.417843 0.268179
-0.230197 0.098919 0.486145
0.182666 0.143700 -0.479212
-0.178334 0.455674 0.200068
0.149556 0.418538 0.268410
0.081390 0.470696 -0.166490
-0.038980 0.399435 0.295831
-0.245528 0.362666 0.339652
0.180748 0.113266 -0.487303
-0.054104 0.046537 -0.498018
-0.282781 -0.254389 0.425651
0.024047 0.015435 -0.499927
-0.121051 0.416130 0.272058
-0.254390 0.413148 -0.280993
-0.141687 -0.492395 0.069593
-0.075940 -0.246188 -0.434953
-0.074272 0.187368 -0.463754
0.188040 0.486338 -0.111499
-0.066440 0.314315 0.384461
-0.071721 0.464250 -0.183666
-0.084069 -0.496027 0.037594
-0.278833 0.498559 -0.003696
-0.249329 0.330475 0.370786
0.144160 -0.466449 0.170722
-0.047097 -0.067852 -0.495626
0.194719 0.458640 -0.197494
0.272482 0.422240 0.262803
-0.002047 0.489282 0.093188
0.066143 0.235310 -0.441533
-0.211763 0.486802 0.105022
0.004329 0.225352 -0.446494
0.023611 -0.494054 -0.061314
-0.178934 0.098614 0.486198
0.055582 -0.415359 -0.276026
0.132059 -0.441702 0.226736
-0.023896 0.027176 0.495066
-0.200712 0.046089 0.493735
0.125295 -0.097898 0.485954
0.198024 -0.440375 -0.233976
-0.215532 -0.358546 -0.347184
-0.146061 -0.005449 0.495735
0.286766 -0.201496 -0.457302
-0.145904 0.165331 -0.472053
0.209510 -0.395681 0.299642
-0.029289 0.474205 -0.155915
0.033798 0.126398 0.479713
-0.133364 0.124956 0.480055
-0.242165 0.097928 0.486316
0.234664 -0.465863 -0.177143
0.020631 -0.229295 0.439692
0.189505 0.422168 0.262911
-0.238919 0.184104 -0.465115
0.233291 0.477593 -0.144811
-0.081691 -0.271690 -0.419406
-0.001458 0.494796 -0.062818
0.058682 0.384575 0.314885
0.062058 -0.488547 0.091943
0.223459 0.498090 -0.021369
0.075307 -0.061050 -0.496361
0.087548 -0.037593 -0.498896
0.093560 0.422944 -0.265846
0.062047 -0.126550 0.479310
0.001576 -0.416044 0.271033
-0.051047 0.155277 0.471203
0.023060 0.272384 -0.419354
-0.127630 -0.351244 -0.354684
-0.016847 -0.339819 0.361434
-0.027021 -0.481567 0.122912
0.192167 -0.263822 -0.424203
-0.093870 -0.258725 0.423164
-0.144373 -0.029437 0.494967
-0.274547 -0.239610 0.434126
0.210110 -0.292160 0.400771
0.203089 -0.156990 0.470224
0.252256 -0.398210 -0.300450
-0.275265 0.496350 0.043885
-0.133651 -0.039007 -0.498743
-0.023122 0.478651 -0.141341
0.006821 -0.093452 -0.491263
0.096241 0.376760 0.323992
0.182542 -0.026051 0.495241
0.201998 0.161924 -0.473228
-0.100832 0.191429 -0.462061
-0.014506 -0.418096 -0.271881
-0.274274 0.004700 -0.500120
0.181795 0.497411 0.030792
0.232093 -0.412976 0.275420
-0.051123 0.413772 0.275629
-0.275968 0.495459 -0.056684
-0.243378 0.025534 -0.499719
0.026660 0.108644 -0.488271
-0.209053 0.481011 -0.133608
0.071928 0.479886 -0.137294
-0.045666 -0.164301 0.467702
0.188047 0.015330 0.495597
-0.140621 -0.406865 -0.288892
0.183575 0.115955 0.482194
-0.181605 -0.205860 0.451240
0.205781 0.433080 0.244459
0.235911 0.240095 -0.438789
0.208699 0.440964 -0.234436
-0.077715 -0.367625 0.333113
0.056973 0.415977 -0.276947
0.088048 -0.058621 -0.496624
-0.163031 0.372211 0.329294
0.246686 0.406474 0.286501
-0.107238 0.328136 -0.377177
-0.156721 0.289043 0.403665
-0.116740 -0.137875 -0.480553
-0.015757 0.095681 -0.490987
-0.215287 0.319216 0.380554
0.261164 0.115333 0.482342
-0.233425 -0.124251 0.479944
-0.146878 -0.459427 -0.192962
0.094789 -0.468595 -0.169223
0.146163 -0.324137 -0.379951
0.151397 -0.065168 -0.495916
0.023837 0.245260 -0.435827
0.106481 0.201170 -0.458000
-0.238891 -0.420384 0.264011
0.029624 -0.033510 -0.499090
0.168951 0.336548 0.365285
-0.105562 -0.496049 0.037387
0.246008 0.495934 -0.052293
0.274332 -0.463186 0.179418
0.086041 0.107827 0.484126
-0.069434 0.397706 0.298122
-0.094264 0.479284 0.134719
0.073117 -0.362525 -0.343097
-0.059616 0.204537 -0.456596
-0.076113 -0.389365 -0.312174
0.049671 -0.070621 -0.495194
-0.108312 0.104453 0.484928
-0.236008 -0.012528 0.495607
0.260186 0.007612 -0.500068
-0.076720 -0.463220 0.179327
-0.034911 0.172935 0.464964
-0.288387 -0.277524 -0.415357
-0.052323 0.301349 -0.398965
-0.077422 -0.450760 -0.212901
-0.210019 -0.116464 -0.486183
-0.016764 0.172556 0.465106
0.204887 0.366398 0.335818
-0.020168 0.391258 0.306669
-0.188923 0.311211 -0.391525
0.264534 -0.193644 -0.460825
-0.083565 0.495711 -0.054355
0.244291 0.170448 0.465897
0.163725 0.485399 0.111720
0.271750 0.291972 -0.406039
0.085610 -0.243124 -0.436638
0.225597 -0.197057 0.454934
-0.040499 -0.468283 -0.170129
-0.089943 -0.012165 -0.500047
0.281480 -0.451674 0.206381
0.088369 0.441533 0.229353
0.105436 0.179977 0.462321
-0.244876 -0.221561 0.443503
-0.134172 0.493757 -0.071986
-0.051363 -0.373009 -0.331524
0.098131 0.220967 -0.448655
0.117942 -0.428148 0.251275
0.148038 -0.471573 0.156828
0.172137 0.483078 0.120977
0.109328 0.492766 0.072945
-0.183144 -0.198064 -0.458842
0.235851 -0.497357 -0.010467
0.153100 0.241149 -0.438185
0.016572 0.082203 0.489023
0.284066 -0.299214 0.395449
-0.287142 0.373702 -0.331889
-0.038187 -0.442086 0.226007
0.189535 0.491327 0.082894
-0.037751 -0.221053 -0.448259
-0.101169 -0.475595 0.143646
-0.045136 0.021966 -0.499809
0.264869 0.158626 0.470181
0.027698 -0.495308 -0.048454
-0.279469 0.422157 0.262928
0.165791 -0.385644 -0.316798
0.274886 -0.182395 0.461047
0.261734 -0.412752 0.275740
-0.066380 -0.045031 -0.498092
-0.002402 0.361508 0.340841
0.156539 0.343884 0.358640
0.169670 -0.243014 -0.436696
0.117136 -0.263671 -0.424295
0.024040 0.490803 -0.089150
-0.094083 -0.497166 -0.021077
0.248597 -0.290964 -0.405958
-0.260322 -0.097366 0.486066
0.114392 -0.479182 -0.135731
-0.209031 0.145900 -0.478605
-0.077960 -0.261427 -0.425663
-0.123373 -0.413917 0.274074
0.252545 0.147858 -0.478064
-0.137517 0.340941 -0.365693
-0.121218 -0.495560 -0.045345
0.002040 0.278877 -0.415067
-0.283899 -0.484040 -0.117669
-0.065378 0.497603 -0.032242
-0.074047 -0.437065 0.235543
-0.173846 -0.263655 0.420087
0.286164 -0.496831 0.022242
-0.245953 0.028316 0.495015
0.148917 0.254992 -0.430246
-0.162661 -0.385518 -0.316945
-0.262746 -0.196562 -0.459516
0.204847 -0.350017 0.351505
0.168278 0.072796 0.490642
-0.003437 0.003126 -0.500149
0.224912 -0.491554 0.074479
-0.218193 -0.496814 -0.029869
-0.173551 -0.285883 -0.409512
0.202103 0.302041 0.394248
0.131816 0.498381 0.006180
-0.112376 0.038289 -0.498686
-0.091983 0.197947 0.455001
-0.234157 -0.487648 0.097170
0.169902 0.014601 -0.499942
0.191220 -0.293764 -0.404000
0.187227 0.498240 0.013964
-0.260191 -0.354102 0.347529
-0.187122 0.348441 0.354263
-0.058856 0.478152 0.138821
0.286188 0.445331 0.221644
0.065682 -0.451647 -0.211100
-0.168267 -0.484388 -0.116008
-0.279310 0.264091 0.420310
0.110252 0.366309 0.335910
-0.247944 -0.455834 0.197111
0.168152 0.497799 -0.027856
-0.050102 -0.320469 -0.383091
-0.047799 0.010781 -0.500011
0.217160 -0.432493 0.244148
0.119494 0.022980 0.495254
-0.092852 0.493009 0.071268
0.199888 0.497567 -0.033045
0.011763 -0.014457 0.495573
0.283757 -0.275688 -0.416641
0.226270 -0.355395 -0.350420
0.181685 -0.391823 0.304480
0.259080 -0.244723 0.431194
0.278634 -0.017081 -0.499826
-0.210988 -0.074949 -0.494449
-0.263919 -0.380513 0.318665
0.092475 0.496246 0.045175
0.275751 0.170922 0.465719
-0.288356 -0.451821 -0.210748
0.147457 -0.278083 -0.414967
0.134908 -0.368022 -0.337335
-0.110874 0.312449 0.385949
-0.020975 0.495319 -0.057978
0.163883 -0.068271 -0.495581
-0.193603 -0.242609 -0.436910
0.020461 0.022966 0.495255
-0.042617 0.067783 0.491391
-0.159804 -0.493628 0.059794
0.046554 0.479221 0.134951
-0.163241 -0.439241 0.231410
-0.240201 -0.266896 0.417947
0.084253 -0.451070 0.207727
-0.204298 0.167794 -0.471204
-0.263200 0.408944 -0.287003
0.176638 0.498346 -0.015667
0.171517 0.285808 0.405927
0.193055 0.120269 -0.485680
0.060133 -0.040410 0.494077
0.075498 -0.179656 0.462189
0.131579 -0.496988 -0.027717
-0.285605 -0.449143 0.212020
0.041865 0.184229 0.460726
-0.119947 0.092923 0.487177
-0.181927 0.355990 -0.351042
-0.096933 0.493657 -0.072570
-0.207764 -0.459997 0.187835
0.230106 -0.136525 0.476556
-0.180894 -0.328023 0.372041
0.155297 -0.344561 0.356818
0.187838 0.248155 -0.434167
0.174389 -0.326070 0.373716
0.007042 -0.053781 0.492994
-0.166828 -0.468792 -0.168653
-0.251756 0.379861 -0.325088
0.259316 -0.151691 0.472052
-0.003557 -0.262513 -0.425000
0.110565 -0.099381 -0.490243
-0.067506 -0.374459 0.325567
-0.170220 -0.236080 -0.440348
0.155548 0.403512 0.290427
0.056646 -0.392651 -0.307818
-0.081131 0.489386 -0.097380
-0.224659 0.210134 -0.453992
-0.204408 -0.065442 0.491403
0.149199 0.321099 0.379052
-0.001729 -0.473589 -0.154747
0.086585 0.480379 0.130754
-0.146752 0.302051 0.394240
-0.225172 -0.488210 -0.097762
-0.205506 -0.458662 -0.194795
-0.218095 -0.495911 -0.041007
0.240277 -0.489085 0.088822
-0.237944 0.416884 -0.275650
0.268937 -0.023254 0.495414
0.008273 0.112567 -0.487449
0.221861 0.286106 0.405719
0.146266 -0.053225 0.493039
-0.272382 -0.353702 0.347919
0.165618 -0.318607 0.380120
-0.253422 -0.250400 -0.432385
-0.143644 -0.163112 0.468112
0.074223 0.497882 0.024974
-0.151295 0.395070 -0.306047
-0.121990 -0.472538 -0.157795
0.082227 0.372140 -0.333613
-0.095836 -0.017908 0.495510
0.207489 -0.420616 0.263629
-0.200586 -0.087648 0.488102
-0.006971 -0.455975 -0.201242
-0.213521 0.494441 -0.066102
0.209545 -0.247475 0.429616
0.216002 -0.449483 0.211264
0.164683 0.382398 0.317422
0.160199 0.466314 0.174456
0.055582 0.326454 0.374427
-0.245212 0.328551 -0.376820
-0.182736 -0.142457 -0.479155
-0.023800 0.150763 -0.477079
-0.201162 -0.420879 -0.267664
0.205443 -0.490526 0.080448
-0.169266 -0.492617 0.068302
0.120747 -0.108525 -0.488070
-0.123051 -0.469416 0.162816
0.015650 -0.485844 -0.109057
-0.162427 0.493999 -0.070192
-0.075855 -0.380702 -0.322558
0.117908 -0.081221 -0.493369
-0.042763 0.340499 0.361707
0.061469 0.270240 -0.420769
0.207627 0.004423 0.495913
-0.101142 0.422258 -0.266970
-0.282405 -0.304800 0.391235
0.235181 0.229106 -0.444644
-0.114311 0.480056 -0.136737
-0.122290 0.319619 0.380232
0.211102 0.469740 -0.169035
-0.122232 -0.178188 -0.466961
-0.135669 -0.494304 -0.059584
-0.231424 -0.163982 0.467811
0.064181 0.496961 0.036342
-0.204168 -0.441419 -0.231858
-0.285248 -0.495809 0.039614
-0.157886 -0.182892 0.460840
0.168080 0.489393 -0.097339
-0.288784 0.444855 0.222611
-0.177900 -0.491664 0.073837
0.277479 -0.387633 -0.314470
-0.082762 0.448738 -0.219562
0.068712 -0.072381 -0.494891
0.169458 0.468946 0.166826
0.273388 -0.131655 0.477901
-0.232007 -0.223398 0.442598
0.022460 0.492891 -0.077018
-0.262911 -0.204822 0.451697
-0.147948 0.494238 0.062775
-0.225837 -0.319925 -0.383524
0.075375 -0.458471 -0.195254
0.264818 -0.397735 -0.301079
-0.041868 -0.107056 0.484036
0.194352 0.342902 0.359530
0.171649 -0.408448 0.281894
-0.085393 -0.228533 -0.444321
-0.268766 0.153979 0.471599
0.270583 0.352680 0.349908
0.020153 0.028059 -0.499515
-0.025973 0.465929 0.175472
0.174853 0.264109 -0.424817
-0.107324 -0.445486 0.219548
-0.237716 0.210647 -0.453740
-0.035701 0.494452 0.061295
-0.151642 0.451539 0.209045
-0.276721 -0.021573 -0.499625
-0.130562 -0.463194 0.179396
0.179268 -0.349868 0.351651
0.280525 -0.022461 0.495428
0.067658 0.385030 -0.318639
-0.129655 0.207701 0.450624
-0.224018 -0.486928 0.100350
0.285331 -0.456409 -0.200199
0.286003 -0.222416 0.443082
0.004384 0.315450 -0.388062
-0.177248 0.161287 0.469334
0.021011 -0.497317 -0.012715
0.010530 0.486422 -0.111146
-0.011111 -0.390025 0.306735
0.017143 0.415287 0.273334
0.110196 -0.303195 0.392446
0.114187 0.316918 0.382386
-0.165552 0.063219 0.491884
-0.130296 0.278281 0.411192
0.264694 0.011952 0.495749
-0.201330 -0.314570 -0.387794
0.085774 -0.491177 -0.081204
-0.182719 0.474963 -0.153430
-0.146340 -0.496640 0.026494
0.119299 -0.021747 0.495441
0.164578 -0.201786 -0.457172
0.021633 -0.184348 0.460233
-0.016845 0.405986 -0.291233
0.173423 -0.286523 0.404990
0.256965 -0.111344 0.483138
0.247331 0.380910 0.319157
0.153039 0.425576 0.257544
0.085005 0.451967 0.208177
0.171931 -0.454173 -0.205564
0.233519 -0.418611 -0.271100
-0.231670 -0.071740 -0.495001
0.054140 -0.494707 0.049812
0.081661 0.252454 -0.431702
-0.230971 0.281135 -0.413577
0.275076 -0.442725 0.224792
0.270068 -0.490498 0.080610
0.261086 0.125734 0.479871
-0.194651 -0.481409 -0.127664
-0.270304 0.043344 -0.498276
0.284121 0.498355 0.007592
-0.014371 -0.245357 -0.435460
0.209782 0.053363 0.492949
-0.244127 -0.364576 0.336479
-0.121200 -0.408866 -0.285861
-0.168632 -0.394617 0.300977
-0.096542 -0.364260 0.336828
0.089254 0.025758 0.495130
-0.046279 -0.419632 0.265244
-0.021872 -0.397087 -0.301939
-0.073283 -0.360270 0.341233
0.099141 0.449235 -0.218453
0.283848 0.432658 0.245196
-0.262334 0.495343 -0.057762
-0.125123 -0.286834 -0.408846
-0.237233 0.473215 0.154448
-0.193852 -0.338193 0.363017
0.172409 0.473211 -0.159170
-0.261533 0.386813 -0.316402
0.061129 0.497923 -0.025107
-0.026972 -0.010777 0.495639
-0.129716 -0.304752 0.391271
-0.248966 -0.470251 -0.164423
0.232480 -0.497379 0.010031
0.046028 -0.396289 -0.302996
-0.224095 0.355663 -0.351360
-0.174207 0.239223 0.434878
0.124274 -0.341531 0.359767
-0.044998 -0.381421 0.317525
-0.156628 0.175794 0.463891
0.229069 -0.073973 0.490169
-0.018372 -0.433692 0.241948
0.138058 -0.100240 -0.490039
-0.120176 -0.262378 -0.425083
0.219605 -0.189327 0.458157
-0.289822 -0.481460 0.123360
-0.126594 0.044786 -0.498159
0.040522 -0.277138 -0.415627
-0.260526 -0.315430 -0.387108
-0.209532 0.039482 -0.498589
-0.118328 0.015296 0.495599
-0.278479 -0.079377 -0.493686
-0.196302 -0.347326 0.354125
-0.156840 0.142856 0.474992
0.223889 0.335967 -0.370457
0.075523 0.498549 -0.003152
-0.158942 -0.203259 -0.456511
0.135530 0.055613 0.492706
-0.287495 -0.313860 0.384193
0.258267 0.217758 -0.450236
0.072346 -0.007373 -0.500262
0.267659 0.224368 -0.446978
-0.229480 0.288852 0.403799
-0.026469 -0.485431 -0.111031
-0.077299 0.320069 -0.384098
-0.268669 0.358208 -0.348883
-0.095795 -0.445718 0.219108
0.149955 0.468160 0.169102
0.049929 -0.382170 0.316586
-0.154225 0.476586 -0.148112
0.136220 -0.281692 -0.412443
-0.260785 0.284463 -0.411380
-0.210255 0.017656 -0.499887
0.078106 0.418692 0.268176
0.260912 0.445530 -0.225764
-0.103430 0.486215 0.107824
-0.156364 0.495298 0.055444
-0.235298 0.477913 -0.143762
-0.202110 -0.294219 -0.403681
-0.274992 0.324786 -0.380051
-0.024512 -0.497508 -0.002073
0.084594 0.498172 0.017761
0.132021 -0.494599 -0.057203
-0.048434 0.290002 0.402994
0.044075 -0.235467 0.436502
0.151045 -0.475014 0.145552
-0.099991 0.089624 -0.492256
0.258146 -0.305881 0.390420
-0.014793 -0.483978 0.112765
-0.138483 0.498496 -0.000236
-0.213964 -0.478236 0.134992
-0.187233 0.203402 0.452553
-0.210220 -0.097434 0.486052
-0.174840 -0.497488 0.007594
0.176324 -0.306446 -0.394272
-0.153327 0.051563 0.493144
0.248646 -0.323354 0.376047
-0.219821 -0.412423 0.276211
-0.263051 0.252939 0.427109
-0.238510 -0.338342 -0.367085
-0.116642 -0.490714 0.079358
0.016119 0.111437 0.483268
0.006470 0.279778 0.410144
0.013521 0.171581 0.465472
0.038051 0.391575 0.306250
0.078532 0.228689 0.440425
0.239537 -0.127570 0.479028
-0.190804 -0.294956 -0.403166
-0.133949 -0.457544 0.193299
0.144875 0.195797 0.455966
-0.011204 -0.440683 0.228671
0.205365 0.104462 0.484926
-0.195075 0.496100 -0.050754
-0.001530 -0.472604 0.153449
0.272522 -0.364958 0.336058
0.206538 0.426198 -0.260508
-0.112444 -0.485315 0.107138
-0.289729 -0.496085 -0.038862
0.273896 -0.258898 -0.427204
-0.009422 -0.492399 0.069568
-0.135906 -0.180135 -0.466231
-0.171705 -0.432211 0.244611
0.160808 0.211327 -0.453405
0.083119 -0.089220 0.487772
0.035288 0.217093 0.446410
-0.224359 -0.215110 0.446682
-0.179941 -0.385100 0.312912
-0.217197 0.075100 0.490246
-0.277977 -0.084771 0.488607
0.062324 -0.412972 0.275426
-0.189976 0.489387 -0.097374
0.231443 0.386019 0.313203
-0.157577 -0.175004 -0.468156
-0.203026 0.441799 0.228814
0.285608 -0.092035 -0.491507
0.203784 0.405961 0.287181
0.140170 0.248816 0.429622
0.022006 -0.388172 -0.313755
0.205955 0.496997 0.035905
-0.028637 0.277881 0.411471
-0.031508 0.380900 -0.323818
0.128106 -0.154296 0.471153
0.043718 0.113282 0.482830
0.216710 0.498635 -0.007952
-0.031101 0.438482 -0.239150
-0.288118 0.498450 0.002318
0.207943 -0.491555 -0.078586
-0.127927 -0.256011 0.424721
0.152347 -0.488776 -0.095063
-0.095387 -0.491017 0.077601
0.012844 -0.486281 0.103072
-0.243909 0.386436 0.312716
0.112700 0.462339 0.184083
0.145316 -0.348981 0.352514
-0.191434 0.273787 -0.418428
0.112608 -0.242859 -0.436778
0.215876 -0.417282 0.269098
-0.290263 0.421989 0.263182
-0.244177 -0.140839 -0.479649
0.141095 -0.017590 0.495516
-0.139423 -0.497094 0.016371
0.131236 -0.410388 0.279120
-0.022381 -0.183097 0.460754
-0.017601 0.487390 0.102217
0.242999 -0.280376 0.409048
0.037103 0.057173 -0.497102
-0.252022 -0.378032 0.321622
-0.250642 -0.324051 0.375449
0.087898 0.498574 -0.004559
0.275045 -0.497570 0.001356
0.204495 -0.115121 0.482346
0.281570 0.233017 0.438146
0.219517 0.260524 -0.427074
-0.049199 0.497172 0.033739
-0.234468 0.331213 -0.374536
0.058912 -0.208190 0.450092
0.076742 -0.143197 0.474715
-0.164772 0.485762 0.109989
-0.270567 0.057593 -0.497041
0.111780 0.188190 -0.463412
-0.290034 -0.492920 -0.069153
0.070219 -0.446220 0.218154
-0.010069 -0.017445 -0.499810
-0.000447 0.483881 -0.121837
0.272116 -0.089313 0.487753
0.060749 -0.109294 -0.487887
-0.235961 -0.494097 0.055455
-0.001856 0.083586 0.488785
-0.107649 0.224317 -0.447003
-0.116848 -0.228842 0.439916
-0.015016 -0.145097 -0.478349
-0.250893 0.418307 0.268760
0.049276 0.219489 0.445269
0.055803 -0.229562 -0.443779
-0.242278 0.287080 -0.409652
0.215777 -0.208782 0.449800
-0.239526 0.478606 0.137177
0.159515 0.494762 -0.063139
0.119683 -0.043077 0.493861
-0.066847 0.320322 -0.383882
-0.235214 -0.114157 0.482548
0.177017 0.005455 0.495931
-0.099012 0.233014 -0.442718
-0.095248 0.027775 -0.499538
0.125581 0.111879 -0.487593
-0.221491 0.498390 -0.014690
0.071142 0.476390 -0.148753
0.036625 -0.313693 -0.388493
-0.268713 -0.484019 0.112593
-0.228768 0.077502 0.489832
0.046393 0.130092 0.478835
-0.160948 -0.458182 -0.195949
-0.219085 -0.204775 0.451716
0.028679 -0.174947 0.464029
-0.094532 -0.222273 -0.447617
0.041207 -0.291872 0.400989
0.010946 0.487580 0.101312
0.117717 -0.263796 0.419994
0.258101 0.453409 -0.209152
-0.269861 -0.222727 -0.447378
0.220003 -0.456969 0.194582
0.195386 0.344121 -0.362597
-0.101815 -0.497154 0.015049
0.233576 -0.189716 0.457995
0.022049 -0.130075 0.478337
-0.099311 -0.004559 -0.500287
-0.001155 0.436062 -0.243747
-0.014939 -0.110351 -0.487636
-0.205005 0.453167 0.205741
-0.238936 0.241628 0.433612
0.139866 0.490902 0.085453
-0.231940 0.376197 0.324649
-0.163670 -0.338651 0.362571
0.207452 -0.445058 0.220361
0.047949 0.253219 0.426938
-0.030434 -0.140511 0.475456
-0.198143 0.357489 0.344969
0.282887 -0.357785 -0.347965
0.117625 0.496893 0.037191
0.194793 -0.083765 0.488753
0.248881 -0.354481 -0.351359
0.235295 0.182151 -0.465929
0.006056 -0.377513 0.322195
0.024889 -0.046428 -0.497941
-0.099803 0.251190 0.428175
0.121250 0.226929 -0.445717
-0.070091 -0.455206 0.198511
-0.135931 0.444253 0.223833
-0.088725 0.002766 -0.500155
-0.236471 0.150532 -0.477158
0.202877 -0.388980 0.308045
0.286117 0.486824 0.104919
0.052367 -0.178788 -0.466736
-0.009813 -0.350139 -0.355820
0.177748 0.148902 0.473148
-0.109841 -0.450965 -0.212486
0.077688 0.467772 0.170229
0.226412 0.270653 -0.420496
0.157817 0.449263 -0.218390
0.205989 0.079071 -0.493933
-0.213188 -0.493088 -0.067989
0.091383 -0.068297 0.490991
-0.053099 -0.492999 -0.068608
-0.211054 -0.253572 -0.430451
-0.059027 -0.218483 -0.449613
0.057731 -0.057718 0.492521
0.072602 -0.064287 0.491571
-0.174632 -0.017350 0.495520
-0.106487 -0.439190 -0.236371
-0.255445 -0.065406 -0.495890
0.073439 0.089642 -0.492252
-0.176424 -0.116189 -0.486249
0.203194 -0.332172 -0.372674
-0.176028 -0.128105 0.478881
-0.114640 -0.497396 0.009647
-0.247082 -0.490718 0.079337
-0.272575 -0.438617 0.232594
0.139777 -0.179056 -0.466635
-0.199397 -0.330646 0.369790
-0.098058 0.443082 0.226209
-0.182570 -0.394318 0.301352
-0.006283 -0.219393 -0.449134
-0.157692 -0.142412 -0.479169
0.112791 0.220107 -0.449078
-0.176453 -0.131465 -0.482509
-0.132524 0.084402 0.488644
-0.195723 0.483482 0.119514
0.083875 0.000449 0.495841
-0.052121 0.338683 -0.367891
-0.081971 -0.497514 0.007014
-0.104232 0.154853 -0.475667
-0.101419 0.469056 0.166506
0.226211 0.204062 0.452257
0.192160 0.469335 0.165698
-0.135898 -0.315636 -0.386944
-0.100706 -0.494775 0.049180
0.074782 -0.083020 -0.493059
-0.047929 -0.446433 0.217751
0.207805 -0.478600 -0.137838
-0.229897 -0.496896 -0.028856
0.020684 0.186541 0.459858
-0.122415 0.021433 -0.499819
0.060211 0.159895 -0.473928
0.061492 -0.120691 -0.485179
-0.218081 0.014982 0.495613
0.276878 0.035967 -0.498874
0.114225 -0.321363 -0.382377
0.139235 0.121438 -0.485357
0.054854 0.228974 0.440275
0.119477 -0.310680 -0.390896
-0.053911 0.452590 0.206913
0.253981 -0.051562 -0.497386
0.200406 0.485081 0.113237
0.267154 0.089237 0.487812
-0.177291 -0.393990 -0.306043
-0.271199 0.469072 -0.170817
-0.151034 -0.236271 -0.440247
-0.072441 -0.442074 0.226029
0.076555 -0.259085 0.422958
-0.184690 -0.335071 -0.370048
0.168791 -0.133121 -0.482004
0.026480 -0.496847 0.021879
-0.254360 0.291645 -0.406286
-0.189068 0.496742 0.039051
-0.162937 0.379932 0.320296
0.004215 0.168581 -0.470932
0.018053 -0.415206 -0.276258
-0.204188 0.493613 0.067095
-0.131433 -0.169242 0.465997
0.129621 -0.276738 0.411449
-0.036357 0.224803 0.442471
-0.126464 0.403408 0.290565
-0.228274 0.018924 -0.499864
0.091374 0.229363 0.440070
-0.136165 0.494616 0.060158
0.018962 0.267573 0.418188
0.129002 0.464789 -0.182230
-0.095928 -0.468146 0.166199
-0.102759 0.494431 0.061442
0.140621 -0.002119 0.495795
-0.020582 0.399747 -0.300153
-0.231428 0.424379 0.259563
-0.020089 -0.470816 -0.162786
-0.118835 0.305681 0.391346
-0.234977 -0.152575 -0.476068
0.121775 0.406192 -0.290938
0.213600 0.315449 -0.388062
0.197211 -0.321397 -0.382351
0.136323 -0.059783 -0.496498
-0.241117 -0.471285 0.157773
-0.175524 -0.368855 0.331755
-0.092654 0.254395 -0.430589
-0.141620 0.440871 -0.234613
0.006798 -0.076609 -0.494163
0.245555 0.453850 -0.208169
-0.098139 -0.338506 -0.366937
0.187829 -0.194818 0.455868
0.178375 0.062619 -0.496314
0.258483 -0.338434 0.362782
0.261606 -0.485798 -0.109278
-0.023420 0.358048 0.344395
-0.168051 0.492340 -0.080220
-0.211224 0.028823 -0.499453
0.183703 -0.048210 0.493446
0.260357 0.360151 -0.346850
-0.141253 -0.158454 -0.474274
0.108218 -0.497613 0.003758
-0.179364 0.129979 0.478862
0.247124 0.264726 0.419923
-0.172276 0.497991 -0.023589
0.157368 -0.396495 -0.302722
0.121409 0.136718 -0.481139
-0.095091 -0.496281 0.034507
0.192343 -0.059344 0.492286
0.120522 -0.401592 0.291698
0.159959 0.325476 -0.379459
-0.057221 -0.269651 -0.420649
0.001877 0.295229 0.399339
-0.144266 -0.468445 0.165403
0.276670 -0.316479 -0.386272
0.026563 -0.423696 -0.263389
-0.275843 0.408462 -0.287693
0.098849 0.361506 0.340842
-0.127145 -0.497001 0.018460
0.167561 0.498148 0.019126
-0.054494 0.491856 0.079235
0.230238 -0.486268 -0.107033
0.154498 -0.472603 -0.157606
-0.100794 -0.486675 0.101416
-0.263568 0.065049 -0.495962
0.094780 -0.079391 -0.493684
0.005742 -0.496124 0.036694
0.270225 0.170472 -0.470280
0.021940 -0.426054 0.254709
0.012666 0.248008 -0.434251
-0.174140 -0.493890 -0.062448
0.024972 -0.176475 -0.467604
0.041199 -0.024531 0.495364
0.112181 0.008770 -0.500047
-0.262243 -0.458920 -0.194178
-0.018366 0.433025 0.244555
-0.092393 0.217733 0.446122
-0.276919 -0.032901 -0.499117
-0.125680 0.009342 -0.500037
-0.106920 0.453847 -0.208176
-0.074962 0.491136 -0.087213
0.190801 0.462332 -0.188778
0.025305 0.046949 0.493642
0.026973 -0.487359 0.098536
0.077461 -0.371112 -0.333733
0.201258 0.352268 -0.354665
0.067922 -0.202054 0.452851
-0.261395 -0.464705 0.175369
-0.242542 -0.312203 0.385615
0.024258 -0.455897 0.196971
-0.206570 0.069472 -0.495322
-0.265385 -0.363896 0.337230
0.043488 0.173480 0.464759
0.248257 0.488647 -0.101673
-0.025973 0.319429 -0.384648
0.169458 -0.396230 0.298953
0.081423 -0.429003 0.249872
-0.121151 0.328321 -0.377018
-0.010541 -0.423034 0.259664
-0.095745 -0.075042 -0.494433
0.219910 0.427015 -0.259167
-0.142865 -0.106145 -0.488636
0.001844 0.145896 0.474065
0.158546 0.467763 -0.174304
0.068081 -0.188327 0.458574
-0.087753 0.352919 0.349664
0.031382 0.464095 -0.184082
0.130470 -0.496563 0.028223
0.285763 0.469600 -0.169410
0.171814 0.280264 -0.414151
0.286824 -0.483180 -0.121249
0.277766 -0.496573 0.027989
-0.070356 -0.314787 -0.387621
-0.215095 -0.234089 -0.441396
0.152459 -0.268509 -0.421345
-0.037719 -0.282944 -0.411567
0.072019 -0.463623 -0.182897
-0.032303 -0.461627 -0.187684
0.144964 0.278318 -0.415436
-0.204707 0.183478 -0.465376
0.169938 -0.449798 -0.214853
-0.270254 0.170152 0.466008
-0.067888 0.023915 -0.499774
-0.280816 0.456897 -0.201379
0.180718 -0.047705 -0.497803
-0.228120 -0.022952 0.495420
-0.055450 -0.489738 0.085028
-0.258967 -0.279475 0.409643
-0.039364 0.250117 -0.433042
-0.218976 0.378161 0.322360
0.092963 -0.448222 0.214074
-0.271508 -0.490968 0.077885
0.126191 0.356462 -0.350583
0.196174 0.335537 0.366201
0.128687 -0.486826 0.100780
0.022979 0.136833 -0.481108
0.076959 0.178059 0.463041
-0.267726 -0.417199 -0.273239
0.052079 -0.157038 0.470207
0.147645 -0.164584 0.467604
-0.181442 0.212398 0.448516
-0.269563 0.486850 -0.109346
0.220934 0.356529 -0.350517
-0.109439 0.493508 -0.073436
-0.012990 -0.228434 -0.444373
-0.185342 -0.289585 0.402713
-0.078677 -0.487390 0.098406
-0.133446 0.306137 -0.395353
-0.286560 -0.287333 0.404413
-0.222087 -0.377447 -0.326351
0.180201 0.187956 -0.463509
-0.094993 0.323143 -0.381461
-0.168616 -0.418187 0.267614
-0.064101 0.426443 0.256033
0.092679 0.197912 -0.459358
0.245479 0.490224 0.088690
-0.184723 -0.178331 0.462741
-0.255281 -0.479509 0.130819
0.244055 0.329921 -0.375645
-0.129253 0.244484 0.432109
0.104204 0.114886 -0.486964
-0.081422 0.314508 0.384307
0.025363 0.429375 -0.255297
0.238598 -0.400921 -0.296857
0.277477 -0.341862 0.359445
0.085153 -0.421384 0.262371
-0.207579 0.246344 0.431129
0.149839 0.430617 0.248753
-0.023558 -0.422193 0.261043
-0.040579 0.073846 -0.494689
-0.035159 0.000873 0.495849
0.152909 -0.444282 0.221836
0.146848 0.494825 0.058713
-0.106656 0.135023 -0.481607
0.255327 -0.168829 0.466140
-0.159529 0.015650 0.495583
0.216362 0.027855 0.495036
0.261776 0.372807 0.328599
0.014203 0.039201 0.494480
0.232099 0.260607 -0.427026
-0.250265 0.062237 -0.496369
0.123993 -0.213619 -0.451862
0.206585 -0.475720 -0.148272
-0.189494 0.468366 0.168507
0.197667 -0.364694 -0.340869
-0.252365 -0.402352 0.290610
0.132330 0.372591 -0.333114
0.121277 0.114338 0.482579
0.258213 0.022414 0.495280
0.214884 -0.278118 0.410539
-0.204366 0.116685 -0.486587
0.186436 -0.076019 -0.494264
0.225754 0.127871 -0.483581
-0.213869 -0.491102 -0.081723
0.185784 -0.317810 0.380804
-0.241431 -0.026750 0.495184
-0.047679 0.480976 0.128592
0.251002 0.292849 -0.405378
0.235223 -0.034865 0.494527
-0.039687 0.336753 -0.369770
0.230353 0.496143 0.046443
0.033955 0.445071 0.222173
0.200084 0.309804 0.388058
0.189394 0.496215 0.045556
0.260211 -0.180758 0.461729
0.093556 0.464136 -0.183972
0.147410 0.442261 0.227875
0.126742 0.413796 0.275593
0.096479 -0.298576 -0.400547
-0.053760 0.166274 0.467463
0.050761 -0.168999 0.466081
-0.227359 -0.401143 0.292340
-0.042471 0.377105 -0.328131
0.019509 -0.215095 -0.451199
-0.104277 -0.074197 0.490137
-0.228880 -0.469894 0.161541
-0.181549 -0.418214 0.267570
0.097828 -0.425543 -0.260169
-0.241336 -0.371454 0.328885
-0.073124 0.085159 0.488514
-0.016607 0.310652 0.387382
0.213217 0.162471 0.468890
-0.065059 0.449427 0.213332
0.131822 -0.416842 0.269821
0.135122 -0.450215 -0.214008
0.182078 -0.272060 0.414538
-0.144937 -0.168445 -0.470617
-0.058317 -0.460690 0.186069
-0.218629 -0.366135 -0.339389
0.273845 0.028273 0.495017
0.101892 -0.388575 -0.313221
0.069260 -0.433423 -0.246427
0.143726 -0.490832 -0.083588
-0.056317 0.023436 -0.499783
-0.050885 0.177336 0.463312
-0.182676 -0.215101 0.446687
-0.248217 -0.297691 -0.401253
0.128250 -0.036391 0.494403
0.016834 -0.432334 0.244409
0.285082 -0.132707 0.477610
0.146637 0.486353 -0.111436
0.193177 -0.165010 -0.471906
0.178529 0.260651 0.422407
-0.114656 0.210836 0.449217
-0.267509 -0.373711 -0.330706
-0.086178 0.054197 -0.497397
-0.111054 -0.389197 -0.312396
-0.243796 -0.403233 -0.293792
-0.020586 0.460169 -0.194087
-0.103847 0.481607 0.126307
-0.097304 -0.051334 0.493192
0.001920 0.029260 0.494973
-0.152928 -0.056636 -0.496838
0.250282 0.485808 0.109771
-0.157639 -0.154201 -0.475571
0.286885 -0.068689 -0.495526
-0.288982 -0.137959 -0.480527
-0.134214 -0.025807 0.495261
-0.109190 0.498541 -0.011321
-0.138574 0.394873 -0.306295
0.158449 -0.006971 0.495707
-0.020775 0.183120 0.461142
-0.279528 0.134225 0.477626
-0.216258 0.349252 0.353430
0.017224 0.236643 0.436237
0.081301 -0.046987 0.493545
-0.228828 -0.458702 -0.194701
-0.104224 -0.354847 -0.350984
0.098902 0.124680 -0.484462
0.077163 0.004481 -0.500124
0.286505 -0.033403 0.494645
-0.086614 -0.429829 0.248518
0.161480 -0.420328 -0.268500
0.155711 0.066294 -0.495782
0.120920 -0.374185 -0.330152
-0.201044 -0.480408 0.127787
0.272848 -0.225496 -0.445920
0.003056 0.188580 0.459093
0.185440 -0.446320 0.217966
0.004120 0.134667 0.477491
0.283216 0.347876 0.354844
-0.188145 0.165803 -0.471890
0.218227 -0.028394 -0.499319
-0.042359 0.489065 0.094221
-0.154714 -0.447723 0.215184
0.203089 0.229586 0.439953
-0.012693 0.410025 0.281305
0.144798 0.246732 -0.434983
-0.173496 -0.488868 0.090083
0.248476 0.411384 -0.283515
-0.033314 0.362372 -0.344398
0.001971 -0.382109 -0.320918
0.202124 0.146111 0.473999
0.028996 0.498202 0.016119
0.097206 0.488786 0.095554
-0.197891 0.396701 0.299455
-0.135476 -0.282176 -0.412104
0.060166 0.486943 -0.108955
-0.126233 -0.493963 0.056690
-0.087458 0.170926 -0.470123
0.077059 0.111288 -0.487717
0.065754 -0.435427 0.238653
0.208655 -0.404392 0.287694
-0.130224 -0.208354 -0.454225
-0.127354 0.204126 -0.456768
-0.089699 0.496495 0.042092
0.051364 -0.131452 -0.482513
-0.263701 -0.469523 0.162530
-0.053423 -0.032805 0.494694
-0.198424 0.320899 -0.383386
0.138758 0.080142 0.489378
-0.084748 0.494430 -0.066207
0.072238 0.262084 -0.426154
-0.140721 -0.327055 0.372871
-0.160476 0.465684 -0.179845
0.024007 -0.430585 -0.251377
-0.037984 0.218519 -0.449861
0.061280 0.498245 0.013740
0.274207 -0.477315 0.138009
-0.026929 -0.235960 -0.440411
0.009917 0.258025 0.424008
-0.261755 0.361486 0.340863
0.154225 0.133196 -0.482111
-0.064366 -0.289387 -0.407061
0.186231 -0.489716 -0.090575
-0.098762 -0.497614 0.004786
0.180779 -0.492636 -0.071119
0.003676 -0.286862 0.404766
-0.109993 -0.404505 0.287532
0.089245 0.326339 0.374531
-0.165037 -0.490370 0.081354
0.282599 -0.494803 0.048920
-0.204508 0.365958 -0.340438
0.196810 0.429620 -0.254895
0.266264 0.100836 0.485788
0.230238 -0.191151 -0.461944
0.224478 0.448677 0.214855
-0.128792 -0.378260 -0.325404
-0.179063 -0.497265 -0.015603
-0.133875 -0.365465 0.335498
0.089911 0.494477 0.061119
0.284910 0.376493 0.324304
-0.120726 -0.160842 -0.473470
0.108413 -0.051797 -0.497361
0.234418 -0.461736 -0.187424
0.205647 -0.160802 -0.473485
-0.009125 -0.492187 -0.074217
-0.069823 0.495046 0.057187
-0.215615 -0.493264 0.063160
-0.207203 -0.378501 0.321105
-0.278210 0.166063 -0.471801
0.019214 0.408834 -0.287161
-0.082614 0.442775 0.226832
-0.146525 -0.398802 0.295687
0.121820 0.498070 0.022662
0.003788 0.498117 0.020821
-0.243737 0.052538 -0.497531
-0.262249 -0.181113 -0.465864
0.014267 0.498617 -0.006920
-0.220761 -0.344919 0.356469
-0.207012 0.471440 -0.164507
0.136675 0.215151 -0.451520
-0.263465 0.340504 0.361702
-0.108567 0.274595 0.413769
-0.089375 0.304344 -0.396705
0.192193 -0.487877 0.095836
-0.287885 -0.497408 0.009382
-0.205434 -0.426223 -0.258982
-0.007459 0.180179 0.462245
-0.202719 0.469479 0.165280
-0.014024 -0.485823 -0.109158
-0.220197 0.201169 -0.458001
-0.179169 0.053900 0.492891
-0.211077 0.430839 0.248368
0.243868 -0.456802 -0.199258
-0.131253 0.490648 0.086667
0.177223 -0.208429 0.449974
0.010140 0.468741 -0.171698
0.182452 -0.299790 -0.399579
0.067312 0.485227 0.112542
0.047404 0.403669 0.290219
0.089000 0.459082 -0.196511
0.196990 -0.398288 0.296373
0.109837 -0.162225 -0.472951
-0.247204 -0.162156 -0.472977
0.087408 0.114606 -0.487022
0.230831 -0.025825 -0.499434
0.183012 0.445653 0.220991
0.088873 0.433853 0.243111
-0.246328 0.488554 -0.102173
0.237619 0.338677 0.363356
-0.022371 0.398606 0.296930
0.032646 0.357453 0.345006
0.205699 0.490716 -0.089653
-0.004206 0.378613 0.321834
-0.258433 0.279769 0.410151
0.261452 0.425284 -0.262008
0.026498 -0.442699 0.224842
0.204169 0.370632 -0.335278
-0.111111 0.049991 -0.497738
0.100085 0.190536 -0.462434
-0.095272 -0.402056 0.291033
0.271988 -0.455615 0.197598
0.217641 -0.410144 0.279469
-0.050626 -0.487869 -0.099393
-0.242876 -0.495428 0.043136
-0.175308 -0.257086 -0.428309
0.111503 -0.405755 -0.290449
0.142056 0.135239 -0.481548
-0.259027 0.028379 0.495012
0.259437 -0.274224 0.413109
0.279485 0.309641 0.388188
-0.250890 -0.438859 -0.236947
-0.149124 -0.253818 0.425978
-0.033387 -0.097226 -0.490614
0.148632 -0.480477 -0.131039
-0.033375 0.367010 0.335189
-0.179882 0.112962 -0.487367
-0.062032 0.469062 -0.170844
-0.269583 0.492505 0.074750
0.203553 -0.280440 0.409006
0.129828 0.198578 0.454718
0.104977 -0.291695 0.401122
-0.121084 0.259263 0.423253
-0.019246 0.270091 0.416652
-0.090765 -0.381026 0.318021
0.262916 -0.380837 -0.322401
0.042062 0.374217 -0.331320
0.205120 0.249534 -0.433376
-0.150750 0.130290 -0.482914
-0.253392 -0.298519 0.395974
-0.220059 -0.497213 -0.018477
-0.112091 -0.462485 -0.185627
-0.289513 0.046894 -0.497989
0.006175 -0.064130 0.491593
0.030431 0.383789 0.315801
0.040824 0.193746 -0.461095
0.270656 0.229375 0.440064
0.223899 0.491467 0.081927
0.193794 -0.199963 -0.457990
-0.216448 -0.399971 -0.298116
0.252395 0.027933 -0.499525
0.201214 0.384907 -0.318793
0.034766 -0.496226 -0.037119
0.220100 -0.381192 -0.321987
-0.068604 0.425649 -0.261409
-0.205144 -0.035061 0.494511
-0.038429 0.466028 0.175233
-0.208306 0.339316 -0.367274
0.029851 -0.150616 -0.476665
0.038336 0.283044 0.407860
0.259552 0.019918 -0.499846
-0.252849 -0.213924 0.447267
0.269585 0.449146 -0.218651
0.160753 0.482965 -0.125692
0.146153 0.458751 0.192687
-0.261010 0.062917 0.491917
0.155636 -0.497442 0.008625
0.094980 0.449007 0.214184
-0.260861 0.455827 0.199700
-0.249661 -0.265798 -0.422998
0.010031 -0.474369 -0.152487
-0.016473 -0.495210 -0.049669
0.168950 0.492208 -0.080987
-0.283588 0.114554 0.482527
0.034989 0.433712 0.243357
0.079515 0.064777 -0.496001
0.130868 0.497912 -0.025348
-0.114678 0.079635 -0.493852
0.236558 0.187095 0.459650
0.255086 -0.204851 0.451685
0.250834 -0.244303 -0.436017
-0.290214 -0.103332 -0.489304
0.044248 0.497366 -0.037521
-0.206945 0.489613 -0.096061
0.037250 0.206038 0.451370
0.153051 -0.097689 0.485998
-0.008982 -0.384396 -0.318253
0.238913 0.480935 0.128741
0.069479 0.449572 -0.217701
-0.187805 -0.458967 0.190128
0.232057 0.488491 -0.102437
0.089050 0.247264 0.430568
0.268267 -0.106794 -0.488481
0.250216 0.412518 0.277528
-0.237146 -0.479567 -0.134336
-0.261202 -0.297702 -0.401244
-0.077627 -0.037070 0.494348
-0.086184 -0.294454 0.399040
0.186665 -0.433495 -0.246301
0.197970 0.360626 0.341747
0.141545 0.492811 0.072636
0.218068 -0.009057 -0.500186
-0.048219 0.361437 0.340914
-0.206345 -0.495247 0.044812
-0.157661 0.113245 0.482839
-0.064991 -0.205038 0.451607
-0.109570 0.391066 0.306924
0.034922 -0.303914 -0.396291
0.082861 -0.497407 -0.007696
-0.173071 -0.297479 -0.401402
-0.096731 -0.482518 0.118909
0.101969 0.050170 0.493294
-0.142199 0.094151 0.486966
-0.218055 0.497203 -0.040549
0.184012 -0.158616 -0.474224
0.267288 -0.077488 0.489661
-0.070996 -0.262426 0.420898
-0.146572 -0.122621 0.480394
0.148053 -0.179435 0.462281
-0.104145 -0.323367 -0.380648
0.266408 -0.241324 -0.437586
0.040640 -0.427212 0.252811
0.224284 0.373851 0.327383
0.148134 0.457080 -0.200971
-0.053472 0.288151 -0.408922
0.095230 0.495360 -0.057604
-0.273217 0.194167 0.456697
0.201504 0.447620 0.216999
0.056873 0.407921 0.284492
0.033021 -0.093977 0.486776
-0.183586 -0.074782 -0.494477
-0.266821 0.451416 0.209296
0.270661 0.363197 -0.343487
-0.094936 0.163687 0.468434
-0.233329 0.359911 -0.347115
-0.079216 0.327446 0.373529
0.185606 0.429653 -0.254841
0.237338 -0.478985 -0.136444
0.131809 0.436653 -0.242625
0.053919 -0.084452 0.488653
0.196792 0.131922 -0.482463
0.049210 0.183339 -0.465434
-0.021200 -0.496929 0.020052
-0.228288 -0.034519 -0.499044
0.251749 0.341471 0.360827
-0.212543 -0.268752 -0.421197
0.282043 0.481114 -0.133272
0.078888 0.483088 -0.125177
0.254462 -0.494694 -0.056030
-0.289727 -0.459645 0.188617
-0.068673 0.311154 -0.391568
-0.104377 0.432723 0.245082
0.137042 -0.432331 -0.248331
-0.201456 0.388490 0.310322
-0.126361 0.284197 -0.411555
-0.036454 -0.336408 0.364755
-0.082645 0.231780 0.438798
0.181579 0.476712 0.144039
-0.037723 0.014815 -0.499938
0.049121 0.495396 -0.057271
0.243873 0.428238 0.252903
-0.104556 0.346869 0.355878
-0.102763 0.457595 0.195461
0.147884 0.471925 0.158190
0.138317 -0.453463 0.202395
0.053381 0.004810 0.495920
-0.174220 0.199940 0.454107
0.276202 -0.085000 -0.492718
-0.221514 0.420482 0.265466
-0.195271 0.441916 -0.232629
0.196871 0.118093 0.481686
0.081080 -0.077725 0.489627
0.137372 -0.043626 0.493817
0.216055 0.476365 0.145297
-0.143326 -0.005545 -0.500305
-0.274245 -0.047539 -0.497821
-0.179758 0.270361 -0.420690
0.156342 -0.484435 -0.115784
0.117710 0.472648 -0.161017
-0.055128 -0.186592 -0.463808
-0.024833 0.120297 0.481163
0.063951 0.061657 0.492053
0.259620 0.330555 -0.375101
0.128204 -0.361878 -0.343761
0.117163 -0.006241 0.495721
0.198319 -0.143642 0.474592
-0.269638 -0.244764 -0.435775
-0.082616 -0.395054 -0.304633
-0.180843 0.024658 0.495179
-0.121090 -0.284773 0.406145
-0.046612 -0.453798 -0.206462
-0.246033 -0.112893 -0.487032
0.001567 0.407953 0.284443
-0.114118 0.493359 0.068847
0.072968 0.049621 0.493354
0.106596 0.449174 0.213846
0.190103 0.233473 0.437906
0.245233 0.193732 0.456893
-0.148453 -0.385530 0.312373
-0.217769 -0.310793 0.386714
0.084449 0.285269 0.406304
0.131660 -0.353409 0.348204
-0.078803 0.498323 0.009398
-0.223604 -0.406353 -0.289656
0.237014 0.002628 0.495880
0.231003 0.492713 0.073314
0.081174 0.485964 0.109024
0.114173 -0.483180 -0.121248
0.148358 0.006247 -0.500092
0.038482 0.294640 -0.404026
0.213764 -0.176922 0.463329
0.283185 -0.109138 -0.487924
0.065021 0.142980 -0.479411
0.141322 -0.082925 -0.493076
-0.085931 -0.184955 0.459980
-0.080309 0.202028 0.453170
-0.224018 -0.298138 0.396261
-0.229190 0.179617 -0.466986
0.076479 -0.136729 -0.480903
0.129087 -0.475931 0.142546
-0.188747 -0.085156 0.488552
0.061831 0.123982 -0.484655
0.040460 -0.350473 -0.355476
0.074850 0.453890 0.204274
-0.256957 0.365394 -0.341061
-0.124770 -0.479031 -0.136280
0.045151 -0.462344 0.181662
-0.131163 0.158660 -0.474354
0.029733 -0.414522 -0.277294
0.236227 0.498114 -0.020844
-0.093433 -0.307867 -0.393139
-0.267720 -0.493273 0.063078
0.173320 -0.149910 -0.476881
-0.249064 0.280374 -0.414079
-0.192497 0.497324 -0.038447
-0.253548 0.488147 0.098602
0.004128 -0.470388 -0.164027
0.175579 0.417459 0.270045
0.106324 0.285577 -0.410644
0.101329 -0.471495 -0.160817
-0.128490 -0.490915 0.078191
-0.075951 0.137930 -0.480805
-0.115508 -0.479156 0.131976
-0.230620 -0.408724 0.281500
-0.289287 -0.402207 0.290818
-0.161856 -0.105656 0.484329
0.190178 0.370615 0.331154
-0.025390 -0.421726 -0.266382
0.272085 -0.124384 -0.484301
-0.222734 0.476999 -0.146758
-0.196070 -0.054256 -0.497095
-0.172298 -0.380649 -0.322619
-0.015439 0.494727 0.059391
-0.074543 -0.322819 -0.381144
-0.244989 -0.128146 0.478869
0.283170 0.004371 -0.500126
0.246645 -0.029999 0.494921
0.115205 -0.031456 0.494803
-0.099134 0.497383 0.031131
-0.032837 -0.114148 0.482550
0.198730 0.051273 -0.497634
-0.265542 -0.487940 -0.099053
0.228038 0.270135 0.416625
-0.205168 -0.451148 0.207554
0.204889 -0.030524 0.494878
0.150397 -0.039639 -0.498675
0.119687 -0.252775 0.426576
-0.089982 0.057731 0.492477
-0.283265 0.402435 -0.296311
-0.093607 -0.491947 -0.075881
-0.280849 -0.067757 -0.495636
0.227539 0.374269 -0.331262
-0.134172 -0.357212 0.344501
-0.007145 -0.219562 0.444488
-0.066595 -0.446618 -0.221307
0.208494 0.443553 0.225253
-0.186325 0.109078 0.483829
0.172834 0.330966 -0.374748
-0.201902 -0.477998 -0.140021
0.266427 -0.387498 -0.314638
0.088473 0.494332 -0.067112
-0.085914 -0.360825 0.340620
0.285477 0.163266 -0.472765
-0.008839 0.365494 -0.340951
-0.093188 0.491237 0.083515
-0.001919 0.467215 0.171842
0.110776 -0.341155 0.360133
0.279286 -0.141346 0.475226
0.220625 -0.366201 0.334685
0.234202 -0.375310 0.324628
0.228667 -0.474755 -0.151368
-0.058615 0.482271 0.123900
-0.200747 -0.262294 0.420986
0.187531 0.466560 -0.177510
-0.081546 0.344080 0.358463
-0.159758 -0.317508 0.381064
-0.102535 -0.460035 -0.191503
-0.047399 -0.243403 0.431951
-0.273375 0.065980 0.491586
-0.132052 -0.156724 0.470315
-0.156923 -0.483895 0.113111
-0.163911 -0.488220 -0.097716
-0.226642 -0.254041 -0.430166
0.024947 -0.385704 0.312155
0.110482 -0.422540 -0.265149
-0.233100 0.041789 -0.498402
0.274658 0.044099 0.493950
0.286070 0.344937 -0.361803
-0.287571 0.489672 0.091324
-0.043586 0.275255 -0.417459
0.237869 0.044804 0.493874
-0.097240 -0.341995 0.359316
-0.012943 0.480411 -0.135574
0.240475 0.449638 0.212904
-0.019259 -0.197986 0.454547
-0.057230 -0.133167 -0.481989
0.100065 -0.367016 0.333785
0.046338 0.486013 0.108791
0.268991 0.256229 -0.429537
0.113854 -0.392913 -0.307470
-0.199521 0.267774 -0.422397
-0.202133 0.199538 0.454287
0.030731 0.442148 -0.232187
-0.086595 -0.167517 -0.470966
0.109686 0.295821 -0.403136
0.020318 0.473458 -0.158363
0.075687 -0.411660 0.277301
-0.185644 0.168522 0.466619
-0.082152 -0.364261 -0.341314
0.228179 0.430905 0.248252
0.187114 0.048384 -0.497868
-0.252479 0.471040 -0.165572
-0.010655 0.337498 -0.369045
-0.064787 -0.250713 0.427759
-0.021047 -0.352583 -0.353309
-0.094350 -0.172573 0.464848
0.060457 -0.384914 0.313145
0.038103 -0.292945 -0.404572
0.252872 -0.369071 0.331516
-0.242194 0.492204 0.076833
0.276863 -0.452800 -0.208760
-0.188295 -0.007817 -0.500242
