0.023760 0.385740 0.313528
0.271352 0.093625 0.487056
0.020999 0.494959 -0.061311
0.059577 0.139330 0.476068
0.210174 0.189996 -0.462659
-0.203674 0.498561 -0.003802
-0.221690 -0.443129 0.224025
-0.245574 -0.069948 0.490752
0.218836 -0.216573 -0.450536
-0.027443 -0.336687 0.364483
0.163229 -0.059054 0.492328
0.249589 0.249811 -0.433217
-0.272274 -0.122353 -0.484784
-0.252293 -0.471428 -0.161012
0.049846 0.056430 0.492618
0.083164 -0.255037 -0.429558
0.094357 0.460019 0.189647
-0.044009 -0.345942 -0.360131
-0.083028 0.173082 -0.469379
0.000679 -0.493532 -0.064920
0.244515 -0.100705 -0.489929
-0.035116 0.496751 -0.044727
0.098452 0.391425 0.306448
0.201533 0.233847 -0.442308
-0.027037 -0.105998 0.484258
-0.071988 0.400631 -0.298891
0.273142 0.254897 0.425915
-0.131954 0.332395 0.369047
0.284083 0.407112 0.285655
0.284144 0.467720 0.170378
-0.013113 -0.117885 -0.485846
0.169137 -0.317579 -0.385394
0.115872 -0.487118 0.099550
0.188718 -0.497583 0.002062
-0.163180 -0.497290 -0.014173
-0.265799 0.333687 0.367876
0.232319 0.345974 -0.360793
-0.261583 0.276361 -0.416728
0.044151 0.487205 0.103101
0.212234 -0.174180 0.464294
0.171657 -0.403004 -0.294095
0.232066 0.294280 0.400002
-0.216878 -0.207936 0.450217
0.199317 0.182447 -0.465806
0.163261 -0.489684 0.085343
0.270299 -0.354258 -0.351588
0.179181 0.486434 -0.111097
-0.070215 0.130310 -0.482908
-0.193562 -0.112008 -0.487242
-0.008037 0.497010 0.035743
0.263519 -0.182021 -0.465523
-0.099343 -0.339096 0.362137
-0.121782 -0.211055 -0.453012
0.226100 -0.497219 -0.018110
0.201637 0.406070 0.287036
-0.206264 -0.312071 0.385728
-0.239472 0.176710 0.463547
0.179474 0.498506 -0.000753
-0.224961 0.412325 0.277821
-0.147625 -0.439178 0.231529
0.134926 -0.346087 0.355332
0.058416 0.119340 0.481390
-0.075415 -0.486177 0.103512
0.228654 0.116546 -0.486616
-0.179831 0.342917 -0.363769
0.247752 -0.160827 0.468900
0.274944 -0.277751 0.410781
-0.011470 -0.144845 0.474259
-0.038283 0.032529 -0.499152
0.209152 -0.319934 -0.383517
-0.130251 -0.481564 -0.127104
0.137337 -0.393230 0.302716
-0.134781 -0.245735 0.430614
0.001017 -0.474103 0.148535
0.128327 -0.497403 -0.007909
0.016067 0.437653 0.236485
0.031344 0.399661 0.295531
0.255806 0.497401 0.030919
0.174151 -0.427057 -0.257528
0.125671 0.003195 0.495891
0.002423 0.257943 0.424058
-0.287420 -0.123544 -0.484501
-0.010615 0.143878 0.474681
-0.041830 -0.063990 -0.496043
-0.035004 0.346007 -0.360761
0.266024 -0.229727 -0.443693
-0.002757 0.148839 -0.477742
-0.286377 0.459816 0.190133
0.015728 0.204250 -0.456716
-0.136726 0.425124 0.258333
-0.179745 0.476771 0.143825
-0.221878 -0.471158 0.158174
-0.236095 -0.012360 -0.500038
0.075511 -0.197477 -0.459106
-0.156036 0.115859 -0.486760
0.058679 0.209324 0.449896
-0.103857 -0.321059 0.378017
0.064605 0.055711 -0.497274
-0.266655 -0.497538 -0.000408
0.113565 0.271422 -0.419989
-0.257879 -0.011322 0.495629
0.144464 0.329844 0.371357
-0.129212 0.194489 -0.460785
-0.219631 -0.109190 -0.487912
-0.047672 -0.373638 -0.330790
-0.172417 -0.257984 -0.427762
0.065992 0.493587 -0.072977
0.184433 -0.376653 0.323145
0.035933 0.389858 -0.312584
-0.157743 -0.366422 -0.339094
0.006459 0.321606 -0.382779
-0.002300 0.222150 -0.448072
-0.015242 0.177321 -0.467917
-0.216813 0.046504 0.493690
-0.005588 -0.150998 -0.476549
0.229828 -0.429292 0.249399
0.259133 0.494773 -0.063036
0.092092 -0.376252 0.323587
-0.019623 -0.344254 0.357116
-0.198283 0.441491 -0.233435
-0.268433 -0.297668 -0.401269
-0.215481 0.304603 -0.396510
0.111511 0.483614 0.119034
0.165623 0.357932 0.344514
0.071806 0.199295 -0.458782
0.198029 -0.046355 -0.497949
0.072750 0.208531 0.450252
0.019384 0.496594 -0.046185
0.232110 0.101712 -0.489723
-0.145960 0.109351 0.483764
-0.080928 -0.422563 0.260437
0.071114 -0.473988 0.148912
-0.024638 0.366266 -0.340098
-0.009173 -0.279379 -0.414060
0.089241 -0.036956 -0.498935
-0.200522 -0.134311 -0.481640
-0.255811 -0.197983 0.454548
0.193518 -0.289736 0.402600
0.248529 0.345560 -0.361196
0.145463 0.470902 -0.165940
0.050269 0.301354 -0.398961
-0.238829 0.206420 -0.455811
0.182763 -0.463286 -0.183705
-0.046831 0.348410 0.354294
-0.193398 0.496975 -0.042657
0.238245 0.017517 0.495499
0.082137 0.464111 0.179832
0.240804 0.479859 -0.137384
-0.208942 0.486581 -0.110477
0.107369 0.300781 -0.399394
-0.048468 -0.413397 0.274817
-0.051456 -0.381148 -0.322038
0.042865 -0.446179 0.218233
-0.045459 0.476078 0.146148
-0.176624 -0.140200 -0.479844
0.078532 -0.433212 0.242860
0.058885 -0.407481 0.283277
-0.180237 0.460944 -0.192361
-0.136468 0.491471 -0.085267
0.093328 -0.425320 0.255914
0.231938 0.416957 0.270804
-0.285673 -0.480935 0.125571
0.283321 -0.180884 0.461677
-0.206727 0.438030 0.235826
0.187756 -0.486964 -0.103714
-0.139218 0.471439 -0.164510
-0.226310 0.363367 0.338931
0.210115 -0.026383 0.495214
0.088906 -0.414257 -0.277695
-0.071988 -0.005605 -0.500306
0.227226 0.416948 -0.275559
-0.130215 0.010787 -0.500011
0.090453 -0.022671 -0.499576
-0.037682 0.065805 -0.495853
-0.210363 0.097436 0.486400
0.183218 -0.495202 0.045227
-0.037460 0.403997 -0.294077
0.004398 -0.076115 0.489860
-0.120684 0.010921 0.495795
-0.038839 -0.430280 0.247778
-0.243071 -0.443453 -0.227730
-0.240463 -0.066692 -0.495751
0.124776 0.448445 -0.220213
0.033868 0.316920 -0.386800
0.157184 -0.014727 0.495568
-0.230675 -0.239729 0.434058
-0.161949 -0.096300 -0.490773
-0.286007 -0.260291 -0.426356
0.136311 0.005021 0.495923
0.221841 0.007584 -0.500068
-0.180577 -0.493657 0.059520
0.256387 -0.271641 -0.419436
0.110960 -0.292362 0.400619
-0.163726 0.123736 -0.484723
0.097661 -0.450242 -0.213952
0.123051 0.488256 0.098083
-0.288833 0.479932 -0.137144
-0.043193 0.335683 -0.370701
0.071207 0.015416 0.495594
-0.093603 -0.496630 0.026714
-0.134685 -0.412871 -0.279795
-0.049565 0.488694 -0.101400
0.061176 -0.494912 -0.053340
-0.288573 -0.448934 -0.216607
0.113515 0.107624 -0.488485
0.215394 -0.015939 0.495546
-0.227302 0.334934 -0.371343
0.201307 -0.020121 0.495471
-0.236782 -0.271071 0.415191
0.248574 -0.426132 0.254583
0.161834 0.433441 0.243830
-0.234236 0.102374 -0.489585
0.075513 -0.415739 0.271470
0.177596 0.431109 0.247896
-0.219945 0.496893 -0.043416
0.114837 -0.432493 0.244147
-0.263522 0.456684 -0.201853
0.243549 -0.256329 -0.428771
-0.006939 0.493325 0.069084
-0.217979 -0.496291 -0.036325
-0.144177 0.055137 0.492757
0.213379 0.450926 -0.214685
-0.143177 0.453944 0.204166
0.272446 -0.069194 0.490861
-0.255823 -0.478570 -0.137948
0.037527 -0.260024 0.422420
0.050535 -0.451781 -0.210829
0.119103 -0.477868 -0.140491
-0.185453 -0.490857 0.078527
0.023580 0.213801 -0.452185
0.274668 0.466862 -0.176707
0.062759 0.301024 -0.399210
-0.122979 -0.470345 -0.164152
-0.288305 0.034093 0.494756
0.268453 0.494325 -0.067176
0.010798 0.435706 -0.244424
0.238126 -0.415242 0.272180
-0.060755 0.327143 -0.378028
0.091222 0.308738 -0.393391
0.104502 0.172752 0.465032
0.155874 -0.107000 0.484047
0.132785 0.385718 -0.317776
-0.137995 0.287964 -0.409063
0.255190 0.462193 -0.189149
0.268936 -0.257459 -0.428082
0.070733 -0.383994 -0.318722
0.007978 0.179152 -0.467180
0.146729 -0.496062 0.037271
0.115179 0.147604 0.473544
-0.205310 -0.132014 0.477802
-0.049613 -0.389098 0.307897
0.000224 0.293970 -0.404532
-0.010665 0.441747 -0.232949
-0.051099 -0.462374 -0.185892
-0.087201 0.466722 0.173273
-0.102683 -0.118972 -0.485588
0.046466 0.491694 -0.083970
0.056221 -0.497415 -0.007234
0.195994 0.079365 -0.493891
0.053970 -0.124314 0.479927
-0.149878 0.398243 0.297412
-0.081845 0.399118 0.296251
-0.189455 0.432598 0.245299
-0.162446 -0.435284 0.238925
-0.263787 -0.082784 -0.493100
-0.112028 -0.392671 0.303417
-0.225960 -0.277741 0.410787
0.054482 0.095085 0.486805
-0.191025 0.463940 -0.184493
-0.036655 0.257193 0.424515
0.213166 -0.485213 -0.112070
0.138306 -0.178036 0.462864
-0.055383 -0.155700 0.470668
0.022409 0.452190 -0.211868
-0.213889 0.491494 0.081739
-0.129485 -0.348603 -0.357397
-0.125371 -0.147554 0.473479
0.100423 0.201452 0.453428
-0.082030 -0.231693 0.438511
0.279530 -0.136532 -0.480963
0.011122 0.494537 -0.065213
0.175569 -0.250116 0.428101
0.083526 -0.206774 0.450790
0.274598 0.331050 -0.374676
0.196159 0.338816 -0.367762
0.221076 -0.097710 -0.490530
-0.002334 -0.085171 0.488549
0.037452 0.338032 -0.368524
-0.240914 0.304749 -0.396400
0.251542 0.387800 -0.315164
0.120091 0.413179 -0.280949
0.124670 -0.441802 -0.231080
0.054912 -0.092113 0.487166
0.025459 -0.491883 0.072568
0.150837 0.461465 0.186177
0.147071 0.288848 -0.408396
0.135398 -0.079778 0.489330
0.042239 -0.496469 0.030316
0.155792 -0.397952 0.296793
-0.018164 -0.319106 0.379692
0.049653 -0.298716 0.395825
-0.239359 0.410593 0.280444
-0.272660 0.491797 0.079648
-0.118110 0.251969 -0.431980
-0.061636 0.252789 0.427200
-0.249574 0.071054 0.490942
-0.026550 -0.483304 0.115599
0.186244 -0.454370 0.200372
0.011687 -0.494648 0.050356
-0.282798 -0.489439 -0.091898
0.115035 -0.213848 0.447304
0.237095 0.421923 -0.267521
-0.245371 -0.497409 -0.007579
0.014852 0.171148 -0.470047
-0.031506 -0.287696 -0.408244
-0.047950 -0.162580 -0.472818
-0.040592 -0.018882 0.495493
-0.179485 -0.081073 0.489142
0.099538 -0.082771 -0.493102
-0.242468 0.219817 -0.449221
0.099719 -0.298826 -0.400348
0.099221 0.498641 -0.009082
0.119751 0.497532 0.029302
0.083659 -0.154407 -0.475509
0.202824 -0.213008 -0.452136
-0.084365 -0.483724 0.113832
0.158113 -0.231735 -0.442635
0.087167 -0.243033 0.432163
-0.030629 -0.055671 0.492817
-0.186137 0.215983 0.446908
0.233914 0.366609 -0.339720
0.181678 0.091979 -0.491762
0.011896 0.347211 -0.359589
0.214950 -0.344863 0.356523
0.218889 0.075296 0.490212
0.003563 -0.493592 0.060121
0.037175 -0.112948 -0.487019
0.194616 0.193440 -0.461223
0.197242 -0.001671 0.495803
-0.049614 0.300184 -0.399844
-0.165112 -0.286689 -0.408948
0.150697 0.478856 -0.140671
-0.027307 0.250802 0.428412
0.195441 -0.439566 -0.235618
0.053245 -0.436237 -0.241520
0.239203 0.100078 0.485946
-0.233732 0.001743 -0.500173
-0.158407 -0.126256 0.479391
0.246422 -0.229711 -0.443701
-0.211414 -0.457528 -0.197517
-0.219444 -0.479333 -0.135185
-0.256778 0.286115 -0.410289
-0.257279 0.360401 0.341978
-0.281290 -0.470165 -0.164673
-0.076061 -0.496016 0.037692
0.003791 -0.323077 0.376285
0.238733 0.386990 0.312071
0.219291 -0.037632 0.494303
0.181546 -0.496899 0.020718
0.240951 -0.074693 0.490065
-0.019289 0.451240 0.209653
0.149674 -0.299859 0.394963
-0.106665 -0.101998 0.485095
0.223476 0.495858 -0.052990
0.250401 -0.239374 -0.438613
-0.102523 0.498278 0.011860
-0.276475 0.152755 -0.476391
0.032081 -0.481416 0.123545
0.225224 -0.490957 -0.082720
0.230484 0.195389 0.456149
-0.028154 -0.229079 -0.444033
0.204185 0.344155 -0.362563
0.265590 0.064807 -0.495997
0.027649 0.427840 -0.257814
0.114803 -0.054884 0.492905
-0.221713 -0.490995 0.077728
0.227378 -0.353738 0.347883
0.008920 0.473957 -0.156726
0.131907 -0.299198 -0.400051
-0.121047 -0.474211 0.148182
-0.190019 0.314252 -0.389090
0.062273 0.464649 -0.182605
-0.090192 0.347764 -0.359050
0.241771 0.392263 -0.309568
0.076929 0.276757 -0.416467
-0.211542 -0.006395 0.495718
0.190022 0.144291 -0.479049
0.215447 0.342335 -0.364335
0.196614 0.160335 0.469659
-0.136475 -0.497111 -0.024110
-0.137510 0.225400 0.442157
-0.289046 0.359650 -0.347403
0.083163 0.265716 0.419319
-0.206837 -0.417197 0.269239
0.001715 -0.220715 0.443920
0.125514 0.318440 0.381172
0.035179 0.148789 0.473182
0.171707 0.269953 -0.420959
-0.045593 0.479677 -0.137979
0.121992 -0.106048 0.484247
-0.042731 0.156521 -0.475092
0.221403 -0.325626 -0.378602
-0.080946 -0.035654 -0.498993
-0.035890 -0.106055 -0.488657
0.099255 -0.425361 -0.260486
-0.228697 -0.207161 0.450599
0.050026 0.408507 -0.287628
0.228376 -0.235041 -0.440894
-0.022808 0.339557 -0.367040
0.054594 0.452174 0.207758
-0.024046 -0.194512 0.455995
-0.288476 0.216546 0.446655
-0.053466 -0.050641 0.493249
-0.097180 -0.486073 0.103949
-0.288846 0.473339 -0.158751
-0.101225 -0.425032 0.256386
-0.003193 -0.494670 0.050154
0.006272 -0.093006 0.486979
0.015363 0.363469 -0.343186
-0.059797 -0.229425 0.439628
-0.067316 0.264896 -0.424298
-0.245690 0.374359 0.326791
0.170204 -0.302840 -0.397147
-0.033067 -0.463952 0.177378
-0.131452 -0.402902 0.289823
0.234332 -0.497081 -0.025771
0.208309 0.459542 0.190791
0.156928 0.357530 -0.349543
-0.106252 -0.273560 -0.418130
0.058927 0.497703 0.027191
-0.153732 -0.349265 -0.356717
0.125056 -0.291229 -0.405772
-0.086572 -0.422907 -0.264593
-0.021881 -0.437777 -0.238834
-0.256932 0.408346 0.283848
0.095060 -0.497507 0.007165
0.090133 -0.225995 0.441319
0.091094 0.197422 0.455237
-0.082634 0.102721 -0.489512
-0.182874 -0.370026 0.330462
0.144270 0.208254 0.450376
-0.117978 -0.241644 -0.437418
0.001429 0.403257 -0.295136
-0.197928 -0.470395 -0.164005
-0.160854 -0.456534 0.195551
-0.071998 -0.489896 0.084108
0.101756 0.497281 -0.039414
0.271718 -0.068029 -0.495607
0.039195 0.023823 -0.499776
-0.032117 -0.497333 -0.011817
0.085465 -0.214740 -0.451359
0.258155 -0.493598 -0.064466
-0.179086 0.269109 0.417251
-0.265301 -0.482341 0.119651
0.052514 0.041674 0.494212
-0.246069 0.351160 -0.355744
0.069655 0.494432 0.061434
-0.126545 -0.494557 0.051197
-0.108075 0.193856 -0.461049
-0.277060 0.267830 0.418030
-0.269509 -0.428722 -0.254625
-0.122088 0.460850 -0.192569
0.073241 0.359926 -0.347098
-0.176934 0.262342 -0.425984
0.176489 0.277533 0.411714
0.031525 -0.071822 0.490481
0.262829 -0.442606 -0.229448
0.086184 -0.115115 -0.486504
0.048560 -0.494325 0.053339
0.197677 0.207643 -0.455220
0.189231 -0.021797 -0.499615
-0.199745 -0.463374 0.178918
0.268093 -0.394876 0.300651
-0.110684 -0.495733 -0.043207
-0.241603 -0.291368 0.401369
-0.021908 -0.342351 -0.363454
0.246385 0.332767 0.368710
0.007105 0.000263 -0.500200
-0.224843 -0.268256 -0.421500
-0.119612 0.006772 -0.500083
0.265991 -0.284065 0.406612
0.110011 -0.302714 0.392808
0.099282 -0.188478 0.458511
-0.206511 0.405040 -0.292586
0.163789 -0.376988 0.322775
0.059313 0.437483 -0.241048
-0.106744 0.116711 0.482015
-0.253069 0.203101 -0.457195
-0.278865 0.233057 -0.442697
0.216692 -0.158258 -0.474333
0.263076 0.198061 0.454950
-0.126428 -0.386405 0.311275
0.178608 0.495487 -0.056429
0.129467 0.303807 -0.397111
-0.067593 0.349706 0.352963
-0.166878 0.494473 -0.065805
0.014728 0.447448 0.217349
-0.013185 0.222967 0.443438
0.114168 0.019180 0.495425
0.111500 -0.497009 0.018274
0.157171 -0.485564 -0.110397
-0.185889 0.077175 -0.494208
0.083502 -0.143551 0.474617
-0.288395 0.235840 0.436660
0.077014 -0.422054 -0.265885
-0.090120 0.221911 0.443994
0.087444 -0.354692 -0.351143
0.115263 0.480494 -0.135302
-0.224811 -0.021974 0.495437
0.225056 -0.406777 -0.289026
-0.079910 0.139034 -0.480500
0.254060 0.448739 0.214728
-0.238293 -0.216235 0.446128
0.124668 -0.286075 0.405286
0.240440 -0.485071 0.108164
-0.269799 -0.479014 -0.136339
0.075839 -0.478050 0.135601
-0.019530 -0.006819 -0.500287
0.036808 0.325887 0.374941
0.129525 0.207259 -0.455409
-0.123570 -0.315753 -0.386851
0.061181 -0.412342 -0.280596
-0.181954 -0.490229 -0.087751
-0.150396 -0.093882 -0.491189
-0.272133 0.253285 0.426898
-0.286286 0.491212 0.083690
-0.211133 0.227525 0.441038
0.215701 -0.228931 0.439872
0.027717 0.233540 0.437871
-0.153069 0.496316 -0.048753
0.210753 0.082820 0.488917
-0.165599 0.056327 -0.497224
0.144416 0.341156 -0.365483
-0.198668 0.422465 -0.266632
-0.120894 0.047598 -0.497932
0.159397 0.415603 -0.277482
0.053142 0.320538 -0.383696
0.020814 -0.492173 -0.074316
0.101801 0.469599 -0.169411
0.037830 0.495890 -0.052698
-0.212966 0.497295 0.032218
-0.020800 0.342121 0.360237
0.090990 0.077073 -0.494223
0.105235 0.423356 -0.265169
0.161556 0.187692 0.459426
-0.107383 0.102048 -0.489653
0.122489 0.452230 0.207644
-0.072847 -0.444400 -0.225808
0.139432 0.420164 -0.270405
0.056811 0.384987 -0.318692
-0.220325 0.494700 0.059582
0.045428 -0.083227 0.488831
0.267864 -0.478443 0.134312
0.020376 0.433001 -0.249349
-0.106481 -0.374851 0.325134
0.143557 0.347734 0.354989
-0.084894 0.471460 -0.164453
0.134435 0.394808 0.301964
0.151172 -0.024301 0.495383
0.153509 0.353520 0.349046
0.139678 0.495601 0.053138
0.079875 0.318712 -0.385263
0.111270 -0.047274 -0.497850
-0.170664 -0.476873 -0.144095
-0.261411 -0.141158 -0.479551
0.008503 -0.233355 0.437692
-0.027794 0.427128 -0.258982
-0.241293 -0.341389 -0.364326
0.112270 0.416858 -0.275688
-0.261211 0.161332 -0.473433
-0.165806 -0.481527 -0.127238
-0.066189 0.490654 0.086634
0.275251 -0.015621 0.495552
-0.233846 0.148542 -0.477845
-0.123052 -0.250640 0.427801
0.058661 0.342821 -0.363862
-0.063768 -0.259243 -0.426994
-0.071901 -0.246150 0.430375
-0.289886 0.112775 0.482950
0.150774 -0.477219 -0.142843
0.286293 -0.396902 -0.302184
0.111054 -0.312430 0.385420
-0.276749 0.491637 -0.084304
-0.038430 0.472787 0.155691
-0.026842 -0.095713 0.486412
0.047432 0.381394 -0.323199
-0.079606 0.479767 0.132970
0.171256 -0.083904 0.488733
0.115939 -0.166483 0.466949
0.075185 0.353354 0.349216
-0.142247 0.198609 -0.459068
0.016434 -0.303883 0.391927
-0.197949 -0.184884 -0.464449
0.221299 -0.370278 0.330184
-0.244006 -0.487728 -0.100066
-0.161883 -0.426425 0.254101
-0.034428 -0.443673 0.222992
-0.021870 0.469546 0.165086
0.092020 -0.484658 -0.114721
0.266237 -0.033226 0.494660
0.207693 0.308485 0.389110
0.045455 0.192181 0.457589
0.282313 -0.132682 0.477617
-0.165027 0.496568 0.041196
0.178963 -0.479423 -0.134858
-0.037551 -0.250462 0.427903
0.005340 0.441281 -0.233835
0.220544 -0.424703 0.256926
0.281031 0.493985 -0.070324
0.137819 -0.296341 0.397617
0.209356 0.492341 0.075886
-0.105474 0.029485 -0.499399
0.285404 -0.232788 0.437971
-0.273863 0.469953 -0.168469
-0.288109 -0.022424 0.495429
0.046603 0.443197 -0.230197
0.237436 -0.127830 -0.483482
-0.194422 0.495407 -0.057163
0.268620 0.456286 0.198600
-0.262624 0.108989 -0.488199
0.060102 -0.496368 -0.035376
-0.070464 0.049491 0.493368
-0.088572 -0.356282 -0.349509
-0.072331 0.308853 0.388816
-0.082230 0.436343 -0.243213
0.201855 0.490002 0.089750
0.095267 -0.271843 -0.419312
-0.280129 -0.004362 -0.500283
0.083854 0.482767 0.122104
0.274845 -0.496476 0.030158
-0.265425 -0.495318 -0.048328
0.100426 0.482168 0.124274
0.133204 -0.196356 -0.459608
-0.050928 0.371193 0.330481
-0.014451 -0.307154 0.389459
0.014428 -0.175707 0.463767
-0.290197 -0.465119 -0.179301
-0.159324 -0.496718 -0.031052
0.208909 -0.055166 -0.496997
0.118726 0.458611 -0.197559
-0.018938 -0.492513 -0.071964
0.076194 -0.483932 -0.118186
-0.261328 -0.327735 -0.376692
-0.251717 -0.251155 0.427505
0.165419 0.474988 0.149308
-0.083519 -0.243625 0.431823
-0.192377 -0.495145 0.045757
-0.217391 -0.497409 0.009358
-0.032266 -0.218444 0.445039
-0.115805 0.208560 -0.454768
0.034519 0.123757 0.480340
-0.052528 -0.465658 0.172832
0.233252 -0.342733 -0.363108
0.029473 -0.303208 -0.396854
-0.278968 0.482913 -0.125913
0.205678 0.278146 0.411286
-0.275934 -0.446045 -0.222469
-0.141735 0.412401 -0.282061
0.012670 -0.490197 -0.087977
0.023232 0.334762 -0.371491
-0.275189 0.101661 0.485591
0.277851 -0.497456 -0.004960
0.001959 -0.158736 -0.474188
0.194406 0.218309 -0.449964
0.165044 -0.239638 -0.438474
0.186561 -0.189422 -0.462720
0.126483 0.494736 0.059329
-0.034931 -0.459731 0.188427
0.170564 -0.322338 0.376919
0.168615 -0.193388 0.456464
-0.120823 -0.359005 -0.346713
-0.158658 -0.301363 -0.398325
0.270530 0.495747 0.051332
-0.283944 -0.342546 -0.363278
-0.168084 0.018697 -0.499868
0.286925 0.106343 -0.488753
-0.206611 -0.478589 -0.137880
0.031925 0.351031 -0.355869
-0.040503 0.240551 -0.438527
-0.165082 -0.072819 -0.494815
0.088594 0.472819 -0.160457
0.219116 0.194878 -0.460623
0.195422 -0.174450 -0.468364
0.033043 0.214494 0.447576
-0.090089 0.059630 -0.496746
-0.194493 -0.215911 -0.450833
0.222307 0.290925 -0.406829
-0.234338 0.469599 0.164931
0.078944 -0.467221 -0.173207
0.078261 -0.296698 -0.401948
0.134935 -0.496313 -0.036044
0.105176 0.023125 -0.499788
0.242310 -0.496240 0.035423
0.168361 0.403858 0.289969
0.074692 0.186434 -0.464144
-0.142486 0.496337 -0.048558
0.093770 0.453062 0.205955
0.025520 0.342971 -0.363717
-0.127299 -0.207365 0.450498
0.224664 -0.274145 0.413162
-0.065634 -0.411641 0.277329
0.233232 -0.377501 -0.326288
0.157771 0.175909 0.463847
-0.244678 -0.313491 0.384510
0.012157 -0.362554 0.338712
-0.287883 -0.050545 -0.497496
0.231436 -0.114653 -0.486614
0.067195 0.422019 0.263138
-0.198542 -0.335803 0.365344
0.155934 -0.258967 0.423026
0.112347 -0.473943 -0.153722
0.198219 -0.342881 -0.362974
-0.053945 0.479558 0.133729
-0.119839 -0.369247 -0.335908
-0.126345 -0.338540 0.362679
-0.271323 -0.374150 -0.330194
0.131789 0.222197 -0.448048
0.286446 0.421787 -0.267743
-0.215120 0.476734 -0.147625
-0.186799 -0.356979 -0.348794
-0.141733 0.219666 -0.449295
0.020675 0.095152 0.486794
0.237931 -0.482588 0.118615
0.070078 -0.036440 0.494399
0.246922 0.229727 -0.444338
0.109216 -0.472959 0.152284
-0.067817 -0.356391 0.345301
0.088346 0.387105 -0.316036
-0.139984 -0.496188 -0.037591
-0.239299 -0.497218 -0.018185
0.077705 0.426082 0.256662
-0.149099 -0.013010 0.495599
-0.138361 -0.397020 0.297963
0.219025 0.498550 -0.003203
0.194141 -0.496775 0.023493
-0.112023 0.240998 -0.438271
0.227254 0.439238 -0.237714
-0.107099 -0.456374 0.195907
-0.032835 -0.117274 -0.485991
-0.176639 -0.223744 -0.446843
-0.222099 0.080035 -0.493794
0.127571 0.377558 -0.327631
-0.007828 0.265692 0.419334
0.044178 -0.028575 0.495036
0.033037 -0.342057 -0.363720
-0.074590 -0.366997 -0.338504
-0.056981 0.046590 -0.498013
-0.015417 -0.378198 0.321439
0.182678 0.059666 0.492268
0.156236 0.150013 0.472809
-0.007062 -0.368339 0.332324
-0.114293 -0.076486 0.489806
-0.079477 0.497884 -0.025968
-0.270356 0.494134 -0.068942
0.209387 -0.483972 0.112789
0.133968 0.489022 0.094425
0.003813 -0.363913 -0.341672
-0.134440 0.486089 0.108427
-0.013278 0.484869 -0.117681
0.021806 -0.219493 0.444522
-0.147307 -0.467864 -0.171343
0.004540 -0.405636 0.285915
-0.107017 -0.491817 -0.076778
0.114412 0.017007 -0.499898
0.109555 0.380444 -0.324389
0.033362 0.486417 -0.111169
-0.242496 0.452807 -0.210493
0.136834 0.456149 -0.203047
0.199769 -0.089333 -0.491972
0.037031 0.157956 -0.474597
0.274300 -0.490124 0.082787
0.269661 -0.462657 -0.185215
-0.205042 0.249645 -0.433312
0.058839 -0.067494 0.491107
-0.158148 0.023528 -0.499781
-0.027954 0.498408 0.004654
0.125907 -0.432201 0.244626
0.094980 0.465287 0.177011
0.015528 -0.008312 0.495683
0.246604 -0.015609 -0.499892
0.180338 0.422629 -0.266362
-0.269924 0.072323 -0.494910
0.016910 -0.493416 0.061750
0.241797 -0.166882 -0.471204
0.102091 -0.366684 0.334152
0.254457 -0.393563 -0.306610
0.272290 0.134366 0.477583
-0.005160 -0.486687 -0.105036
-0.090787 0.133743 -0.481961
-0.243938 -0.428246 -0.255455
-0.113066 -0.270708 0.415430
0.005681 -0.496988 0.018753
0.193217 0.498587 -0.005299
0.194781 0.310773 0.387286
0.091706 0.484779 0.114680
-0.027351 0.424074 0.260025
-0.084629 -0.140350 0.475500
0.003265 0.456808 -0.201577
0.090400 -0.490018 -0.089132
-0.138910 -0.485186 -0.112201
-0.173468 0.304800 0.392048
0.046007 0.448193 -0.220707
0.192520 -0.038632 0.494222
-0.185052 0.141607 -0.479790
0.036313 0.492910 0.071952
0.104549 0.073400 0.490538
0.285465 0.009683 -0.500030
-0.117768 0.408748 0.283238
0.228387 0.152852 -0.476358
-0.068745 -0.237212 -0.439751
0.264020 0.470767 -0.166300
0.216683 -0.477721 0.136679
0.028440 -0.454580 -0.204587
0.050707 -0.493857 -0.062678
0.060441 -0.424231 0.257700
0.129241 -0.495055 0.046590
0.262424 0.357712 -0.349366
0.196021 -0.490341 -0.086980
0.093794 -0.310214 0.387151
-0.129986 0.117189 -0.486481
-0.288041 0.497785 -0.028185
-0.159469 0.216222 0.446800
-0.241912 0.012618 0.495719
-0.019471 -0.255425 -0.429322
-0.205532 0.127593 0.479429
-0.119484 -0.387984 -0.314005
0.054270 0.025582 -0.499715
0.250163 -0.461795 0.183125
0.284830 -0.050816 0.493234
-0.274639 -0.086268 -0.492500
-0.227856 -0.137477 -0.480674
-0.257973 -0.379100 0.320437
-0.130761 0.408818 -0.287183
0.028503 0.268609 -0.421846
0.274851 0.160398 -0.473755
0.103304 0.479432 0.134185
-0.170597 0.166221 -0.471746
-0.231334 -0.250934 0.427632
-0.287867 0.341477 -0.365171
-0.124758 -0.322473 0.376803
0.256577 -0.455860 -0.201518
-0.094866 -0.482318 -0.124372
0.229926 0.060403 0.492188
-0.120049 -0.480052 -0.132578
0.217753 -0.376647 -0.327283
-0.053073 0.291026 -0.406753
0.124328 0.419949 -0.270759
0.108349 -0.220860 -0.448361
0.136771 -0.323200 -0.380800
0.043642 -0.495352 0.043836
-0.113269 -0.016997 0.495527
-0.287662 -0.477389 0.137766
-0.252972 0.229641 -0.444380
0.201876 0.255089 0.425798
0.029441 0.420535 -0.269797
0.252964 0.496422 -0.047772
-0.233705 0.445560 0.221180
-0.243742 -0.304803 0.391233
-0.168455 0.096041 -0.490911
0.094659 -0.202786 0.452546
0.078040 -0.088123 0.488002
-0.017888 -0.370014 0.330475
-0.222211 -0.424191 -0.262527
-0.221450 -0.027024 -0.499380
0.206201 -0.488436 0.092592
0.256804 0.406376 -0.290676
-0.123153 -0.099302 -0.490256
0.227127 -0.460810 -0.189645
-0.124390 -0.064325 -0.496007
0.088018 -0.153318 0.471490
0.213069 0.103654 0.485118
0.270976 -0.331243 -0.373515
0.283104 -0.121095 0.480816
0.185003 -0.218564 -0.449570
-0.193467 -0.239412 -0.438593
-0.117642 0.096548 0.486553
-0.188559 -0.406638 -0.289237
-0.129886 -0.495695 -0.043675
-0.180153 -0.494614 -0.057024
-0.277200 -0.048366 -0.497732
-0.270137 -0.270717 0.415425
-0.247189 0.341230 -0.365412
-0.255259 -0.410460 -0.283447
-0.059353 -0.257455 0.423893
0.130478 -0.492450 0.069272
0.042277 0.091480 -0.491867
0.217713 0.339074 0.362997
-0.070705 0.320580 0.379466
-0.246421 0.055378 -0.497301
-0.175231 -0.130741 0.478153
-0.014031 -0.416903 0.269721
0.012789 -0.295566 0.398202
0.282604 0.095175 0.486790
-0.242887 0.328325 0.372733
0.177158 0.489958 -0.094056
-0.185039 0.486461 0.106649
-0.202361 0.443397 0.225570
0.286955 -0.484907 0.108854
-0.096759 -0.098874 0.485750
-0.178343 0.464794 -0.182216
0.160106 -0.298805 -0.400365
-0.284471 0.198517 0.454746
0.223866 0.454052 0.203947
0.061983 0.387225 0.311797
-0.030773 -0.203762 -0.456285
-0.098215 -0.461745 -0.187402
-0.003173 -0.304679 0.391327
-0.118117 0.431762 0.246758
0.017541 -0.264831 -0.423587
-0.220083 0.463455 -0.185786
0.160761 -0.487649 -0.100442
0.189839 0.177388 0.463293
0.060003 -0.386956 0.310584
0.011371 0.431806 0.246681
0.272343 0.223243 0.443293
-0.206653 0.151253 -0.476909
0.138536 0.249584 -0.433347
-0.176374 -0.309100 0.387991
-0.170066 0.244851 -0.436062
0.082631 0.494495 0.060995
-0.069081 0.057657 -0.497032
0.105359 -0.007773 0.495693
-0.104934 -0.181823 -0.465597
-0.100738 0.246976 0.430744
-0.020005 -0.003552 0.495769
-0.232480 -0.358003 -0.347742
0.246537 -0.497593 0.002645
-0.138832 -0.354378 0.347260
-0.164910 -0.228069 -0.444565
0.207351 -0.223456 -0.446994
-0.034264 -0.335924 -0.369275
0.250507 -0.497230 -0.017513
0.227337 -0.204663 0.451763
0.115562 -0.328711 0.371450
0.045854 0.121524 0.480871
-0.224726 0.231216 -0.443604
-0.097808 0.213380 0.448076
-0.269029 -0.453046 0.203323
-0.239096 0.032737 -0.499136
-0.279732 0.251592 -0.432196
0.093835 -0.029313 0.494977
-0.211581 -0.074114 0.490149
-0.075131 -0.202778 -0.456727
-0.188729 0.490507 0.087337
0.088419 -0.461221 0.184656
0.179365 0.243116 0.432829
0.146772 0.301389 -0.398935
0.188851 -0.252641 -0.431019
0.221164 -0.297887 0.396450
-0.263295 -0.381317 -0.321841
0.191606 -0.479794 -0.133514
0.125163 -0.157156 -0.474670
-0.128328 0.257066 -0.429057
-0.246036 0.419597 -0.271336
-0.133471 0.472685 0.155985
0.044316 -0.488283 -0.097415
0.180566 -0.375086 -0.329102
0.094320 0.299822 0.396017
0.182753 0.127778 0.479385
0.002728 0.118686 -0.486117
-0.122767 -0.492713 0.067746
-0.228975 -0.486032 0.104120
0.093652 -0.278612 0.410213
0.179945 0.377363 -0.327847
-0.290012 -0.497298 0.011834
-0.106210 0.435084 0.240965
0.048108 -0.417124 -0.273352
-0.216363 -0.486178 0.103506
0.150732 0.041929 -0.498391
0.181411 0.488101 0.098821
0.258232 -0.472077 -0.159131
-0.210725 -0.441123 0.227835
-0.013757 0.473441 -0.158418
-0.168422 -0.456584 -0.199781
-0.266520 0.190694 0.458256
0.015186 -0.477833 -0.140617
-0.175187 -0.497429 -0.006473
-0.025764 0.375239 0.325765
-0.145695 0.216785 0.446548
-0.193054 0.395537 -0.305462
-0.284283 -0.437370 0.234963
0.171955 -0.496447 0.030806
0.230618 0.496609 0.040691
0.123730 0.498330 -0.016019
-0.231104 0.486563 -0.110553
-0.240957 -0.379844 -0.323558
-0.099792 -0.468095 0.166336
-0.144420 0.020780 0.495353
0.286220 -0.495154 0.045672
-0.017683 0.241507 0.433676
-0.050068 0.200522 0.453846
0.015908 0.304832 -0.396338
-0.221631 0.483291 -0.124323
-0.172128 -0.178332 0.462741
-0.078022 -0.488395 0.092829
-0.167780 0.427640 -0.258143
-0.121582 0.415410 0.273147
-0.150879 0.415898 -0.277060
-0.279441 -0.454659 0.199728
-0.272543 -0.489833 0.084474
-0.085020 -0.442606 0.225018
0.203046 -0.496317 0.033710
-0.231609 -0.392317 -0.308261
0.082737 -0.395688 -0.303793
0.192058 -0.110491 -0.487603
-0.101953 0.484527 -0.119119
-0.141790 0.148465 -0.477871
0.113761 -0.353957 -0.351898
-0.222717 -0.386301 -0.316033
-0.269599 -0.092004 0.487189
0.138921 0.199666 -0.458627
-0.141145 0.129884 0.478884
0.063981 0.246660 0.430937
-0.265808 -0.497264 -0.015647
-0.247472 -0.015590 -0.499893
-0.131114 -0.374377 -0.329928
0.088499 -0.143431 -0.478858
0.023756 0.011828 0.495754
0.242734 0.028434 0.495010
0.081264 -0.366614 0.334229
0.007212 0.483246 -0.124511
-0.172375 0.029097 -0.499430
0.192696 0.480633 -0.134846
-0.082205 0.375894 -0.329468
0.253934 -0.355686 -0.350122
0.170424 -0.489775 -0.090293
-0.289816 -0.478430 -0.138454
0.037221 -0.489666 0.085446
0.263929 -0.285649 -0.409675
-0.217475 -0.416727 0.270010
-0.060172 0.387888 0.311024
0.183469 -0.202840 0.452523
-0.250351 -0.493174 -0.067399
-0.087054 -0.131340 -0.482547
0.047416 -0.184979 -0.464413
-0.252019 0.018249 -0.499876
-0.100361 -0.015310 0.495557
0.195014 0.489316 -0.097787
-0.133776 0.417996 -0.273962
-0.276876 0.017617 0.495495
-0.001137 0.478720 0.136763
-0.087391 0.310611 0.387415
0.147474 -0.312282 0.385547
0.191134 -0.273231 -0.418360
-0.150898 -0.355796 0.345880
-0.132650 0.464456 0.179005
-0.043443 -0.332872 0.367879
-0.276605 0.375189 0.325824
-0.077219 0.421297 -0.268548
0.134220 0.427408 0.254350
-0.273025 0.465415 -0.180562
-0.081182 0.479026 -0.140115
-0.216526 0.498632 -0.007751
-0.245929 0.427939 -0.257652
-0.208753 0.219256 -0.449498
-0.139129 0.352701 0.349887
0.143352 0.304030 0.392662
-0.041354 0.243014 0.432883
0.246627 0.391267 0.306658
0.136221 0.294289 -0.404292
-0.183359 -0.371419 -0.333376
-0.254191 0.486972 -0.108833
0.036306 -0.494261 0.053934
0.224070 0.395236 0.301397
0.041421 -0.097043 -0.490645
0.195204 0.406534 -0.290449
0.105334 -0.077374 0.489677
0.127774 -0.004268 -0.500282
0.070529 -0.459792 0.188290
0.155100 -0.120761 -0.485162
-0.259816 -0.187304 0.459000
-0.015862 0.487388 -0.107082
0.117598 -0.494527 0.051470
-0.026936 -0.071674 0.490502
-0.005184 0.490894 0.085489
0.124482 0.496531 0.041654
0.191941 0.385832 0.313420
0.257868 0.498630 -0.009326
0.073944 -0.484692 0.109762
0.261023 0.330385 -0.375247
-0.056766 0.192469 -0.461628
-0.068896 -0.324924 0.374700
0.210687 -0.249260 0.428592
-0.217460 0.260931 -0.426840
-0.081349 -0.030457 0.494884
0.267962 0.436228 -0.243432
-0.076633 -0.186348 0.459399
-0.161970 -0.475477 -0.149153
-0.167884 -0.376748 -0.327166
0.009460 -0.020491 0.495464
-0.145757 -0.264553 0.419494
-0.211938 -0.497321 -0.012486
-0.128239 0.255448 0.425579
0.204575 -0.493670 0.059402
0.286859 0.161159 -0.473492
-0.130593 -0.140070 -0.479883
-0.128492 0.378914 0.321482
-0.125697 0.058059 0.492442
-0.147941 0.410046 0.281274
-0.263198 0.483489 -0.123488
0.079892 -0.322854 0.376476
0.058436 -0.430155 0.247983
0.131346 -0.078425 -0.493850
-0.150826 0.231783 -0.443325
-0.209105 -0.249591 0.428402
-0.127335 -0.477630 -0.141352
0.246240 -0.273003 0.413915
-0.061862 0.379231 0.321113
-0.174280 0.481668 -0.131152
-0.114143 0.148124 -0.477989
0.088888 0.134575 -0.481731
-0.201674 -0.488702 0.091044
-0.048742 -0.488103 0.094522
0.070151 -0.381217 0.317782
0.120195 -0.122472 0.480435
0.205360 0.383912 0.315658
-0.052298 0.498609 -0.006490
0.141657 0.403213 0.290824
0.140508 -0.487098 0.099634
0.188537 0.485882 0.109415
0.099801 0.157258 -0.474838
-0.136655 -0.015355 -0.499904
-0.202544 0.447946 -0.221177
-0.176907 0.316219 -0.387402
0.170349 0.211208 0.449050
-0.106406 0.377360 -0.327849
-0.087252 0.361595 -0.345256
0.284421 -0.410303 -0.283685
0.268324 -0.275888 -0.416502
0.029970 0.024240 0.495198
-0.108422 -0.430974 -0.250698
-0.066387 -0.425108 0.256262
-0.118783 0.081197 0.489196
-0.162192 -0.032822 0.494692
-0.147630 -0.444536 0.221353
-0.100324 0.477815 -0.144081
0.096847 -0.462811 -0.184845
0.136357 0.101090 0.485727
-0.243984 0.467997 0.169577
-0.195645 0.478884 -0.140578
0.149695 0.258199 -0.428407
-0.209240 0.200371 -0.458333
0.197454 -0.185524 -0.464209
-0.132253 0.388330 -0.314500
0.249334 -0.466421 0.170798
0.229613 0.341601 0.360708
0.286382 0.409115 -0.286760
0.127063 -0.464413 -0.181003
0.166388 -0.326042 -0.378226
-0.157704 0.135606 0.477204
-0.056478 0.136890 0.476813
-0.228046 -0.497079 -0.025933
-0.081367 0.226786 -0.445787
0.205241 0.433179 -0.249058
-0.071311 -0.391574 -0.309246
0.225023 -0.490881 0.078386
0.130228 -0.355666 0.346006
0.171599 0.176398 -0.468235
-0.012983 -0.482532 -0.123595
0.014975 -0.380888 -0.322341
0.172447 0.308679 -0.393435
0.003524 0.129152 0.479058
0.162340 -0.073933 0.490175
-0.007930 0.324192 -0.380561
0.249983 -0.435755 -0.242360
-0.132683 -0.046419 0.493591
0.140190 0.348815 -0.358027
-0.099108 -0.452918 -0.208520
-0.163563 -0.314108 0.383981
-0.204266 -0.394127 0.301591
-0.080451 -0.462374 -0.185894
-0.090053 -0.494855 -0.054045
0.076612 -0.486116 -0.107758
0.126299 -0.488468 0.092404
-0.196452 -0.490015 -0.089151
-0.227738 0.490447 -0.091215
0.236893 0.199798 -0.458572
-0.015037 -0.496833 0.022195
-0.242155 0.262176 0.421477
0.233247 -0.323041 -0.380944
-0.011715 0.332465 -0.373462
-0.200354 -0.338400 -0.367032
-0.077575 -0.496116 -0.038485
-0.108682 -0.466057 0.171766
0.216620 0.485543 -0.114843
0.080755 0.438301 -0.239494
-0.027087 -0.170007 0.465733
0.018618 -0.002482 -0.500250
-0.213764 0.490709 -0.089692
-0.133738 -0.355838 -0.349966
0.162075 0.064864 0.491706
0.212856 0.018483 -0.499872
-0.285315 0.497493 0.029779
-0.144745 0.170565 0.465853
0.070949 -0.231624 -0.442693
-0.223926 0.034841 -0.498965
0.088741 0.087654 -0.492668
0.072036 -0.147531 0.473486
-0.289321 0.469563 -0.169507
0.009888 0.498184 -0.019278
0.152318 0.388027 -0.314879
-0.067097 0.495452 0.054382
0.284882 0.034832 -0.498966
0.112176 0.128514 -0.483404
-0.113460 -0.490393 0.081221
0.057329 0.271375 -0.420020
-0.128435 -0.497409 -0.007591
-0.080505 0.172267 0.465214
-0.285787 -0.461206 0.184695
0.285290 -0.376254 -0.327742
-0.252506 -0.180663 -0.466033
0.057320 -0.299343 -0.399935
0.222091 0.207777 0.450590
0.064280 -0.184609 0.460124
0.092696 -0.309200 -0.392076
0.094109 -0.487124 -0.102950
0.224877 -0.125739 -0.483979
-0.109264 -0.174613 0.464144
0.060400 0.219601 0.445210
-0.064935 0.139282 -0.480431
-0.089209 -0.479606 -0.134196
-0.070282 -0.436036 -0.241870
0.250999 -0.447291 0.216120
0.114907 -0.006691 -0.500292
-0.000977 -0.459833 -0.191987
-0.057313 -0.073965 0.490171
-0.200469 -0.472971 0.152247
0.088724 -0.491732 -0.077366
0.088021 -0.088135 -0.492179
-0.199822 0.482222 -0.128820
0.048774 0.405144 0.288263
0.016969 -0.278769 0.410109
0.282877 -0.472773 -0.157113
0.136167 -0.107837 -0.488234
-0.094085 0.463081 -0.186781
0.048977 -0.337618 0.363576
-0.074406 0.299414 0.396343
0.051465 -0.370550 0.329884
0.130871 0.233339 0.437977
-0.230196 0.253759 0.426609
-0.032831 -0.254169 -0.430088
0.190827 -0.394280 0.301398
0.242750 -0.353465 -0.352403
0.060175 -0.190934 -0.462042
-0.263722 0.013225 -0.499967
-0.113689 0.267368 0.418313
0.170395 0.262642 0.421194
-0.113025 -0.083521 -0.492973
0.133927 0.497567 -0.033026
-0.061672 0.403895 0.289919
-0.125264 0.494881 -0.062032
0.074509 0.498211 0.015588
0.132858 -0.352329 -0.353570
0.183952 0.152839 0.471947
0.075194 -0.469794 0.161807
0.095662 -0.494990 0.047193
0.014887 0.262791 0.421103
-0.171262 -0.018987 0.495491
-0.118361 0.426094 0.256642
-0.134120 0.042821 0.494088
0.135591 -0.451500 0.206770
-0.254534 -0.310393 0.387015
-0.139836 -0.001242 -0.500227
-0.213934 -0.249422 -0.432981
-0.098362 0.052790 0.493011
-0.286982 0.415516 0.272988
0.154812 0.226062 0.441808
0.145267 0.441516 0.229387
-0.115745 -0.335898 0.365251
-0.229994 0.112826 -0.487395
0.122736 -0.017806 0.495512
0.135660 0.461358 -0.191376
-0.131632 -0.330496 0.369919
0.143673 0.112964 -0.487366
-0.108440 -0.446368 -0.221814
-0.164488 -0.269495 0.416231
-0.136392 -0.491635 0.074011
-0.020326 0.215275 0.447225
-0.289896 0.448341 0.215536
0.197685 0.301861 0.394392
-0.170138 -0.386201 0.311531
-0.133873 0.431804 0.246683
0.003469 -0.271238 -0.419681
-0.030798 0.118892 -0.486060
0.256275 0.008379 -0.500054
-0.177405 -0.037939 0.494278
-0.165865 -0.490947 0.078002
0.213718 0.416863 -0.275680
0.081188 -0.492870 -0.069502
-0.108355 -0.436281 0.237031
0.257872 -0.309448 -0.391878
-0.065092 0.104258 -0.489190
-0.050683 -0.266426 -0.422615
-0.133197 -0.057372 0.492571
-0.055495 0.362703 -0.344032
0.217888 0.240278 -0.438684
0.193625 -0.137801 -0.480576
0.219947 0.156840 0.470726
-0.113079 -0.497174 -0.020657
-0.041119 -0.397017 0.297966
0.071307 -0.103745 -0.489206
0.281987 -0.265357 0.418963
-0.286130 -0.291775 0.401061
0.286868 0.315687 -0.387858
0.285688 -0.353879 0.347746
-0.105866 0.142024 0.475246
-0.047777 0.496760 -0.044645
0.024535 -0.457603 0.193169
-0.096190 0.458850 -0.197027
0.015044 -0.138423 -0.480386
0.115492 0.291944 0.401636
0.140639 0.244220 0.432248
0.147463 0.465181 0.177265
-0.166968 -0.046246 0.493605
0.028650 0.361533 0.340815
-0.107386 0.082783 0.488923
0.077041 -0.189585 0.458049
-0.195687 0.473289 0.154234
-0.161484 0.080072 -0.493789
-0.211310 -0.292902 -0.404603
0.250039 0.481299 -0.132665
0.016350 -0.330114 0.370247
0.275564 0.386148 -0.317236
0.085757 -0.461638 -0.187660
-0.287939 0.443484 -0.229651
-0.011439 -0.495582 -0.045070
0.117203 -0.324606 -0.379527
0.133048 -0.409694 0.280113
-0.060704 0.178455 0.462892
-0.018538 -0.495849 0.039245
0.049775 0.495301 -0.058146
-0.064043 0.311524 -0.391289
0.262945 -0.194951 0.455812
-0.080782 -0.487037 -0.103365
-0.191376 0.235724 0.436721
-0.060760 -0.019224 0.495487
0.032560 0.413895 0.275443
-0.151053 -0.451690 -0.211014
0.018607 0.125544 0.479916
-0.039195 0.299017 -0.400725
-0.056193 -0.077257 -0.494051
0.140016 -0.419502 0.265457
0.171576 0.471121 -0.165356
-0.288171 -0.263975 0.419875
-0.285071 -0.193468 0.456430
0.067463 0.141399 -0.479847
-0.153035 0.128159 -0.483502
0.179736 -0.341383 0.359912
-0.224795 0.241070 -0.438229
0.098114 -0.415334 0.272048
0.108923 -0.066707 0.491220
-0.251032 -0.032095 0.494751
-0.035363 0.076725 0.489966
-0.080410 -0.351458 -0.354465
-0.248565 -0.445585 0.219360
0.021603 0.355274 -0.351739
-0.146073 0.398379 -0.301897
-0.065112 -0.267676 0.417432
-0.267846 -0.429161 0.249613
0.133836 -0.456974 0.194571
-0.118105 0.126671 0.479648
0.043690 -0.085815 -0.492578
-0.242052 -0.348524 0.352959
0.019950 0.467334 0.171499
-0.259496 0.446169 -0.224551
0.049124 0.484678 -0.118487
0.148284 -0.491704 -0.077556
0.159509 -0.435760 -0.242351
-0.037606 -0.404432 -0.292203
-0.002224 -0.360280 0.341223
-0.035941 0.496700 0.039570
0.220418 -0.244116 0.431542
-0.225974 -0.478070 0.135536
-0.244498 -0.456330 0.196005
-0.050711 -0.470138 -0.164752
0.269017 -0.132173 -0.482293
0.233569 0.147102 0.473697
0.066495 0.427671 0.253891
0.084450 -0.496853 0.021752
-0.002230 0.498258 -0.017618
-0.221218 -0.074009 -0.494610
-0.182166 0.235676 -0.441323
0.159433 0.425635 -0.261432
-0.195558 0.181628 -0.466147
0.272355 0.359908 -0.347118
0.042318 0.373322 0.328000
0.026323 -0.298003 0.396363
-0.207919 0.480638 -0.134831
0.175785 -0.174637 -0.468294
-0.248895 0.335201 0.366505
0.126712 0.185174 0.460371
-0.289716 -0.076581 0.489792
-0.122385 -0.397152 0.297798
-0.041596 -0.478484 -0.138259
-0.086436 0.332050 -0.373818
0.057303 -0.491623 -0.078118
-0.278868 0.387185 -0.315935
-0.282670 0.350308 -0.356573
0.009604 0.338569 -0.368002
-0.275300 -0.016576 -0.499849
-0.161601 0.364046 0.338234
-0.200653 0.278973 -0.415004
-0.016064 0.318153 -0.385743
-0.177566 -0.076875 -0.494117
-0.137594 -0.269949 0.415931
0.002115 -0.198551 -0.458624
-0.063492 -0.461482 -0.188033
-0.182190 -0.087918 -0.492216
0.198950 0.370651 0.331112
0.143845 -0.336662 -0.368607
-0.057054 0.464270 0.179450
0.054804 -0.287618 -0.408298
0.278564 0.263682 0.420559
0.147661 0.369222 0.332777
-0.035524 -0.140252 0.475528
0.182633 -0.411681 -0.281597
-0.243177 0.472254 0.157236
-0.190968 0.272898 -0.419015
-0.199763 -0.345381 0.356019
-0.027137 0.069557 0.491199
-0.287704 -0.023828 -0.499524
0.023613 0.457945 0.194621
-0.194773 0.436049 -0.243772
0.187826 -0.470969 -0.162342
0.010855 0.050775 -0.497674
-0.000410 0.200207 0.453987
0.241948 0.480049 0.131951
-0.030561 -0.426251 -0.258934
0.049669 -0.367744 -0.337659
0.178054 -0.255051 -0.429550
-0.056627 -0.486421 -0.106303
0.262021 -0.385441 0.312485
0.115024 0.334134 0.367471
0.286593 0.429318 -0.255391
0.036454 -0.329246 -0.375324
-0.179952 -0.343530 -0.362386
0.042618 -0.229411 0.439635
0.226633 0.378534 0.321926
-0.274715 0.456899 -0.201374
-0.088281 -0.415300 0.272097
0.271488 0.488918 0.094921
0.206962 0.296917 0.398158
-0.126602 0.145831 -0.478624
0.268242 -0.269724 0.416080
0.244308 0.254172 0.426357
-0.038906 -0.234228 -0.441323
0.104318 -0.045433 0.493671
-0.280698 -0.464775 0.175182
-0.143507 0.461544 -0.190879
0.027290 0.061138 0.492109
0.269863 0.498030 -0.022703
-0.251702 -0.002747 -0.500254
-0.172537 0.255481 0.425559
0.257641 -0.268802 0.416689
0.100234 -0.496623 0.026882
-0.017921 0.360029 0.342360
-0.201409 -0.358172 0.343550
0.209466 0.409833 -0.285733
0.009684 0.098924 0.486144
-0.223282 -0.391783 0.304530
0.267874 -0.313834 -0.388381
0.159729 0.051177 -0.497642
-0.008844 -0.445525 0.219475
0.286549 -0.154677 0.471022
0.116363 -0.492210 0.070666
-0.244281 -0.162204 -0.472959
0.224179 -0.264113 0.419785
-0.047974 -0.065875 0.491341
0.249652 -0.244741 0.431183
-0.176922 -0.280598 0.408901
-0.240976 0.208946 0.450065
0.176513 -0.101118 -0.489830
0.034549 0.475714 -0.150968
-0.264889 0.498290 -0.016924
-0.038940 0.487029 0.103939
-0.015752 0.095418 0.486748
-0.150435 0.327248 0.373709
0.175021 0.232298 0.438525
-0.016257 0.254137 0.426378
-0.238997 -0.312570 -0.389389
-0.211884 -0.017162 0.495524
0.137029 -0.169201 -0.470334
0.037548 0.419568 0.266850
-0.217083 0.418188 0.268941
0.225784 0.486691 -0.110014
-0.127390 0.423652 -0.264685
-0.043339 -0.495326 -0.048227
0.023554 0.251836 0.427781
0.224174 -0.264177 -0.423986
0.215565 -0.445395 -0.223789
-0.182206 -0.408293 0.282116
-0.264625 -0.438676 0.232483
-0.001084 0.045753 0.493772
-0.230830 -0.099296 -0.490257
-0.095729 -0.361838 -0.343803
-0.202788 -0.168683 0.466190
-0.095884 -0.402650 -0.294565
0.006694 -0.444035 0.222305
-0.149097 -0.060420 0.492130
0.257158 0.466690 -0.177165
-0.027403 -0.240082 0.433855
-0.141763 0.206589 0.451123
0.259015 0.469799 0.164353
0.001385 0.495920 0.049191
0.066745 -0.012429 0.495609
0.231655 -0.069861 -0.495324
-0.251125 0.435081 -0.245610
-0.254836 -0.484748 0.109524
0.244236 -0.337405 0.363784
-0.194639 -0.412967 -0.279649
-0.222263 0.314240 -0.389100
-0.039063 -0.049358 0.493352
-0.075012 0.470216 0.163144
-0.247530 -0.496968 -0.027961
0.248259 -0.378692 -0.324900
-0.196066 0.042014 0.494176
-0.245687 0.493380 0.068706
-0.016708 0.483354 0.119975
-0.119589 -0.229453 -0.443837
0.245022 0.420274 0.265781
-0.056312 -0.001853 0.495800
0.262179 0.484734 -0.118250
0.188415 0.469500 0.165218
-0.095031 0.344168 0.358383
0.108804 -0.390509 -0.310658
0.257581 -0.481681 -0.126678
0.040270 -0.300574 -0.398954
-0.251407 0.110267 -0.487931
0.177799 -0.132532 0.477659
-0.065510 0.117737 -0.486366
-0.060418 -0.303815 0.391979
-0.149375 0.494104 0.063697
-0.106330 0.179360 0.462553
0.010758 0.017028 0.495521
-0.041632 -0.454685 0.199672
-0.113384 -0.424962 -0.261182
-0.171664 -0.366177 -0.339345
-0.026690 -0.186643 -0.463789
0.239038 -0.407115 -0.288514
0.007106 -0.387666 -0.314426
-0.092891 0.040503 0.494339
-0.253763 0.331465 -0.374320
0.206533 -0.330790 0.369667
0.103403 0.290596 0.402579
0.055998 -0.459676 -0.192364
0.184973 0.497471 -0.035185
0.021610 0.297784 -0.401655
-0.138179 0.071372 -0.495047
-0.027502 -0.157842 -0.474461
0.136526 -0.208951 -0.453957
-0.219866 0.187489 0.459502
-0.148965 0.478403 0.137911
0.092705 0.174217 -0.468988
-0.053749 -0.374888 0.325093
-0.175270 -0.383523 -0.319271
0.050692 0.457784 0.195007
-0.136849 0.007337 0.495956
0.147307 0.067343 0.491438
0.241782 -0.194851 -0.460284
-0.064783 0.458954 0.192201
0.094034 0.147908 -0.478050
0.163896 -0.483905 -0.118313
0.110309 -0.465449 -0.178345
-0.141652 -0.434402 0.240599
-0.213926 0.092954 -0.491558
0.101118 0.080591 -0.493714
0.127981 -0.330300 0.370087
-0.010816 0.378070 0.322467
0.243456 -0.056537 -0.496849
0.261358 -0.403907 -0.292899
-0.266262 0.207819 0.450571
0.177843 -0.283855 0.406751
0.029229 -0.473269 -0.155676
-0.001788 -0.399927 -0.298174
0.271569 -0.043679 0.493813
-0.072264 -0.080535 0.489220
0.286630 -0.493984 0.056500
-0.231873 -0.224949 0.441834
0.064099 0.489578 0.091774
-0.165979 -0.450307 0.209426
-0.183072 -0.122921 0.480312
-0.215118 -0.323443 -0.380580
0.113755 -0.273530 -0.418151
0.041708 0.478308 -0.142465
-0.229824 -0.190517 0.457661
-0.133426 -0.419199 -0.270210
0.173206 -0.057151 -0.496782
0.084938 0.437177 0.237314
-0.077826 0.270404 -0.420661
0.022551 0.432880 0.244807
0.009277 -0.497200 -0.019211
-0.150570 0.347586 0.355141
-0.180809 -0.042744 -0.498339
-0.048397 0.491500 0.081701
0.285185 0.498396 0.005354
-0.186762 0.385951 -0.317484
-0.003397 -0.130785 0.478141
-0.248099 0.429022 0.251536
0.181779 -0.135838 -0.481174
0.079338 0.308348 -0.393685
-0.132983 -0.472206 -0.158756
-0.180375 0.452560 -0.211045
-0.034586 0.344363 0.358206
-0.268617 -0.264451 -0.423819
-0.248839 0.489509 0.092101
-0.189108 -0.057685 0.492526
-0.269915 0.485814 -0.113706
-0.178400 0.179152 0.462631
-0.032887 0.197872 0.455035
-0.214961 0.482093 0.124546
0.126529 0.491331 -0.086083
-0.145015 0.443447 0.225468
0.007920 0.210527 0.449356
0.090506 -0.496614 -0.032336
-0.182351 -0.460487 0.186611
-0.122868 0.480604 0.129939
-0.253054 0.267644 0.418144
-0.109306 0.345338 -0.361412
-0.141998 -0.469771 0.161869
-0.016142 -0.148855 -0.477203
0.257195 0.390618 0.307519
-0.239542 -0.493617 -0.064337
-0.170837 0.280174 0.409867
0.230181 -0.450817 -0.212784
-0.027765 -0.491032 0.077513
-0.112613 0.445166 -0.226456
0.239024 -0.209030 -0.453921
0.279807 0.497765 -0.028631
0.228342 -0.325348 0.374336
-0.207518 -0.317747 -0.385261
-0.105525 -0.086549 0.488332
-0.147592 -0.249487 -0.432942
0.176348 0.113238 -0.487309
0.263115 0.374486 -0.331023
-0.266579 0.497368 0.031328
-0.285821 0.398228 -0.302086
-0.255902 0.491163 0.084028
0.067636 -0.290560 -0.406241
0.072456 -0.287681 0.404150
-0.069080 -0.494527 0.051471
-0.126639 0.474717 -0.154236
0.072420 0.453904 -0.208048
-0.153000 -0.045190 0.493690
0.036890 0.397529 -0.302963
-0.214220 -0.361162 -0.344497
0.159493 0.443478 -0.229662
-0.093590 -0.231571 0.438571
0.199429 -0.476660 -0.144868
0.203295 0.496390 -0.048069
0.175550 0.039034 0.494498
-0.119893 -0.312668 0.385216
-0.070655 -0.028171 -0.499329
0.286562 0.488752 -0.101061
-0.174621 -0.252185 0.426915
-0.123861 -0.196363 0.455223
-0.060180 0.482719 0.122277
-0.077493 0.216471 -0.450870
-0.136517 0.334756 -0.371496
-0.010076 -0.138919 -0.480234
0.003463 0.190369 -0.462503
-0.186713 -0.357008 0.344699
-0.007194 -0.395827 0.299459
-0.171429 -0.214608 0.446929
0.020599 -0.450603 -0.213220
0.236421 -0.371908 0.328384
0.184820 -0.384339 -0.318320
0.023496 -0.494975 0.047328
0.072015 -0.474940 -0.150831
0.021079 -0.477317 0.138002
-0.020387 -0.272407 -0.418936
0.057159 -0.144559 0.474339
-0.143636 -0.159880 0.469226
-0.268629 0.399851 0.295279
-0.099991 0.201501 0.453406
-0.085319 0.475719 -0.150953
-0.117852 -0.377696 -0.326061
-0.169532 0.178007 -0.467657
-0.289185 -0.468520 0.165204
-0.274602 0.460415 0.188698
0.285983 0.463044 -0.186880
-0.060267 -0.204434 -0.455984
