-0.284509 0.184142 -0.407826
0.161944 -0.152490 -0.420282
-0.081394 -0.116746 0.427380
0.265417 0.389630 -0.218830
0.190560 0.330229 -0.301418
-0.249049 0.379176 -0.236507
0.140312 0.313384 -0.318935
0.209639 -0.406402 0.178532
0.218480 0.320404 -0.311915
-0.072962 0.393822 0.206581
-0.195299 0.302586 0.325042
-0.064627 -0.423874 0.132879
0.077080 -0.444838 0.000502
-0.103756 0.404142 0.186121
0.124479 -0.161834 0.412565
-0.238871 0.378893 -0.236985
0.013838 0.343953 0.281461
-0.160661 0.442597 0.051936
0.241736 -0.444765 -0.007190
0.117381 0.203777 -0.398285
-0.176431 -0.112842 0.428515
-0.156728 0.436348 0.088936
0.260919 0.378979 0.232486
0.256779 -0.240832 0.372103
0.257922 0.439042 0.075073
-0.107874 -0.424381 0.131135
-0.144621 0.417478 -0.158346
-0.233877 -0.135527 -0.426278
-0.109367 0.195563 -0.402470
0.176546 0.362923 0.256633
0.209429 0.253753 -0.368372
0.032512 0.025623 0.442469
0.241866 0.270644 -0.356094
0.009451 -0.378921 -0.235205
-0.259953 0.025113 -0.446839
-0.137411 0.414114 -0.167430
-0.262506 -0.325248 0.301551
0.119052 0.275308 0.348123
0.068084 0.191804 -0.404385
0.157461 0.178327 -0.410343
-0.207570 0.125080 0.425257
0.184201 0.398524 -0.201706
-0.170222 -0.159774 -0.417660
0.122401 0.345905 0.278946
-0.120889 0.204456 0.393586
0.242692 0.220008 0.385260
0.176969 0.444737 -0.033651
-0.250554 0.021690 -0.446946
-0.227991 0.120836 -0.430844
0.167367 0.120795 -0.430855
-0.209858 0.423822 -0.140726
-0.153088 -0.024309 0.442478
0.119679 0.436230 0.089464
-0.275720 0.074049 0.436941
0.086151 0.433298 0.102581
0.039279 0.258854 0.360552
-0.180291 -0.330520 -0.299924
-0.008367 -0.433563 0.096812
0.110659 -0.423629 -0.138076
0.065180 0.001854 0.443216
0.028490 -0.157310 -0.418547
-0.273874 -0.277161 -0.350244
-0.075655 -0.444258 0.018986
-0.038922 -0.444875 -0.003678
-0.184877 0.305355 -0.326954
-0.256783 -0.313552 0.313388
0.141292 -0.208067 0.391224
-0.093836 -0.029468 0.442189
-0.031364 -0.171166 0.408645
-0.219633 0.199300 0.396213
0.151977 -0.252272 -0.368682
-0.085868 0.364045 0.254982
0.099101 -0.308611 -0.322682
-0.164590 0.352108 0.270949
-0.094169 0.224632 0.382525
-0.149304 0.129861 0.423868
0.187974 -0.359595 -0.264328
-0.046865 0.445516 0.011556
-0.142936 -0.293298 0.332327
0.004838 -0.347703 -0.279659
-0.117417 -0.323819 0.303121
-0.154074 0.207186 0.392195
0.163656 0.302330 0.325268
0.164562 0.202699 -0.398834
0.090597 0.147966 0.417927
-0.100098 -0.320215 -0.311079
-0.189701 0.042730 -0.445386
0.083014 0.093142 -0.437674
0.005045 0.246174 0.369169
-0.118997 -0.417535 -0.155340
0.022046 -0.076966 0.436317
0.098886 0.439616 -0.075800
0.038864 0.328557 -0.303314
-0.040227 -0.353083 -0.272723
0.208029 -0.444131 0.023030
-0.056296 -0.160438 -0.417421
-0.290279 -0.207282 -0.395977
-0.283727 0.413731 0.163962
-0.006431 0.442947 -0.052592
-0.182006 0.326282 0.301540
0.147165 0.353511 0.269140
-0.162950 -0.099310 -0.436066
0.175982 0.082870 -0.439898
-0.287806 -0.126942 -0.428772
-0.231384 0.330960 0.296234
-0.231173 0.258874 0.360538
0.086924 0.260186 -0.364000
-0.199063 -0.280680 0.343161
0.037458 -0.234547 -0.380409
0.008073 0.434236 0.098386
-0.039519 0.024642 -0.446853
-0.153787 0.266874 -0.359019
0.081466 0.422217 -0.145183
0.188856 0.240779 0.372836
-0.126773 -0.175179 0.406909
-0.228217 0.262297 -0.362565
0.249541 -0.268626 0.352511
0.020940 -0.434502 0.092613
0.245195 -0.334288 0.291298
0.006836 0.258236 0.360972
-0.190473 -0.162566 -0.416655
0.193421 0.077384 0.436413
-0.288422 0.441327 -0.065000
-0.225632 -0.429703 0.112817
0.022558 -0.338839 -0.290489
0.232716 -0.226140 -0.385381
0.133575 -0.249599 -0.370499
0.135138 0.312700 0.315265
0.148029 -0.416519 -0.158162
-0.151619 -0.238787 0.373493
0.062118 0.445296 -0.022891
0.118237 -0.414641 -0.163379
-0.276775 0.396485 -0.205708
-0.098483 -0.440223 0.061150
0.258310 0.221479 -0.388743
-0.022469 0.080269 0.435956
-0.234885 0.121748 0.426225
-0.070084 0.004208 0.443142
-0.066163 -0.443199 0.034725
0.111890 0.432654 -0.109816
-0.267660 -0.077249 -0.440625
0.057758 -0.416022 -0.159543
0.089385 -0.207254 0.391638
0.146190 -0.354541 -0.270843
-0.249820 -0.148058 -0.421878
0.184110 0.399985 0.194486
-0.012331 0.265920 -0.359759
-0.028298 0.415022 0.160813
-0.134890 -0.212990 -0.393069
0.148753 0.374970 0.238906
0.197963 -0.214964 0.387637
0.065413 -0.111203 -0.433345
0.284921 0.372348 0.242764
-0.069390 0.379981 0.230792
0.200195 -0.029536 0.442183
-0.122422 -0.151003 -0.420818
-0.194675 -0.360562 0.258598
-0.174645 0.189179 0.401293
0.049018 -0.332318 0.293532
-0.019936 -0.362989 -0.259382
0.017503 0.445506 0.011872
-0.186907 -0.442589 0.041182
0.142684 0.438963 -0.079926
0.036552 0.439561 -0.076147
0.188815 -0.066467 0.437980
0.181644 0.140474 -0.424977
-0.118420 -0.353858 0.267371
0.056781 -0.153770 -0.419822
-0.055036 -0.385961 0.218947
-0.025330 -0.227955 0.379954
-0.193635 -0.420034 0.144046
-0.252723 0.281423 -0.347733
0.159909 -0.328000 -0.302783
0.070889 -0.032928 0.441862
-0.068418 0.089332 -0.438525
0.129970 -0.429697 0.112838
0.213962 0.445378 -0.020300
-0.187557 0.263664 0.357155
0.124581 0.215254 -0.392424
0.097359 0.392125 -0.214265
0.067208 -0.392888 -0.210755
0.005288 -0.238896 -0.377772
0.085595 -0.220365 -0.388796
-0.114085 0.324117 -0.308202
0.031169 -0.444683 0.005437
0.030412 -0.171007 -0.413067
-0.167872 -0.291274 0.334112
-0.266444 0.172151 -0.413015
-0.216573 -0.358867 -0.265267
-0.234794 0.444314 -0.038128
0.129066 0.148783 -0.421986
-0.082570 0.363734 -0.259793
-0.149593 0.357868 0.263523
-0.038216 0.141713 0.420178
0.219392 -0.258679 0.359974
-0.032786 -0.039250 -0.445618
0.086167 -0.302017 0.324640
0.111093 -0.444149 0.022452
-0.245020 -0.354445 0.266615
-0.070107 0.399282 -0.200219
0.112655 0.359121 0.261907
-0.262573 0.445145 0.023341
0.256466 -0.251760 0.364676
-0.144621 -0.394875 -0.206857
0.183366 0.370335 0.245726
-0.000486 0.002060 -0.447563
0.038055 0.033785 0.441878
0.163650 0.415677 -0.163347
-0.213956 0.123492 -0.430072
0.125393 0.433939 -0.104067
0.097791 -0.371387 0.242670
-0.102355 -0.281253 0.342717
0.084887 -0.045950 0.440631
-0.250300 -0.280390 -0.347740
0.237267 0.420265 0.146251
0.010090 -0.332617 0.293192
0.003549 -0.095121 -0.437002
-0.006566 -0.434816 -0.095562
0.008290 -0.309363 0.317577
-0.134852 -0.337071 -0.292494
0.088309 0.036500 -0.445975
0.130710 0.296077 0.330781
0.123939 0.285016 0.340533
-0.114704 0.441157 0.061717
-0.230709 0.441175 -0.065962
0.215159 0.369206 0.247388
-0.248006 -0.385207 -0.224576
-0.125209 -0.339746 -0.289460
0.263878 0.439413 -0.077087
0.051653 -0.357719 0.262393
0.207287 -0.190332 0.400260
-0.070552 -0.286475 -0.342696
-0.085764 0.196192 -0.402150
-0.012654 0.082349 0.435627
0.246518 0.444407 0.032787
0.176943 -0.333935 -0.296051
0.005929 -0.142277 -0.423959
0.208082 0.441356 0.060463
0.239922 0.119564 -0.431213
0.104992 0.238838 0.374124
0.116770 0.438991 0.075399
0.080018 0.146928 0.418300
-0.053324 -0.137388 0.421366
0.245530 -0.408201 -0.178727
0.028050 -0.285191 0.339474
-0.104143 0.416890 0.155625
-0.265703 -0.386270 0.218425
0.286200 0.064502 -0.442807
-0.191124 0.141281 0.420333
0.187256 -0.102715 0.430951
0.043774 -0.298807 -0.331823
0.026914 0.444247 0.034481
0.013077 0.445134 0.023716
-0.025441 -0.050712 0.440181
0.195003 0.445264 -0.023929
0.091536 0.236048 0.375774
-0.165603 -0.427560 -0.124546
0.034973 -0.439290 0.067039
0.285215 -0.395591 0.201097
-0.174250 0.289697 0.336405
-0.197843 -0.048930 -0.444703
0.248328 -0.444151 -0.026733
0.286057 0.443012 -0.051905
-0.126269 -0.095519 0.432560
0.135236 0.414190 -0.167255
0.237409 -0.302507 -0.328561
0.179235 0.127036 0.424689
-0.058440 0.079124 0.436137
0.285439 -0.421251 -0.145018
-0.172644 0.314722 -0.317597
-0.113187 -0.433559 0.096829
0.246722 -0.100167 0.431521
-0.105587 0.210941 0.390281
0.209776 -0.325049 0.301777
-0.027416 0.218978 -0.390222
-0.107950 -0.137825 0.421209
0.193889 -0.374585 0.237965
-0.146890 0.247323 0.368388
-0.125380 0.026700 0.442435
0.198252 0.424196 0.135301
-0.250221 0.201290 0.395199
-0.234974 0.153740 -0.420201
-0.079070 0.347748 -0.280923
-0.188398 -0.441432 -0.057778
-0.264772 -0.186642 -0.406302
0.132284 0.005531 0.443101
-0.012735 -0.326528 0.300099
0.036532 -0.070197 0.437389
-0.237055 -0.330689 -0.299733
0.094200 -0.107362 -0.434266
-0.012643 0.043895 0.440922
-0.218860 0.431540 0.110022
0.188363 0.209677 -0.395279
-0.108469 0.333663 0.293169
0.144304 -0.358436 0.261469
0.042923 -0.340244 -0.288895
-0.109179 0.085867 -0.439300
-0.203194 0.252319 0.364993
-0.031287 -0.439460 0.065966
-0.233564 0.445462 -0.017609
0.069227 -0.431206 0.107356
0.000076 -0.043455 -0.445220
0.084505 0.114661 -0.432637
0.018195 0.401417 -0.196029
0.245795 0.391351 -0.215785
0.220235 -0.057274 0.439436
0.089088 -0.350638 0.271523
0.172182 0.370702 0.245186
-0.078968 -0.331231 -0.299118
0.247899 -0.260157 -0.363323
-0.183098 0.355561 0.266497
-0.096417 0.196677 0.397549
0.226505 -0.390774 0.210551
-0.177060 -0.400949 -0.194936
-0.002664 0.106242 -0.434745
-0.138390 0.239652 0.373601
-0.226563 -0.280598 -0.347578
-0.142239 -0.022329 0.442540
-0.085935 0.240817 -0.377163
0.189744 -0.232817 -0.381432
0.095591 -0.353972 -0.271578
-0.000120 -0.430276 -0.115197
-0.137136 0.172765 0.408396
0.228997 0.417063 0.155146
0.154964 0.401701 -0.195471
0.101811 -0.342080 -0.286813
-0.277142 -0.415983 -0.159652
-0.255926 -0.416975 0.152542
0.270432 0.197852 0.396950
0.102131 0.041523 0.441147
0.236472 0.439188 0.074155
-0.104311 0.153492 0.415937
0.033579 0.165550 -0.415872
0.278173 -0.004332 -0.447460
0.282491 -0.377671 0.232965
-0.034602 -0.444273 -0.022836
-0.060419 -0.100553 0.431435
-0.074696 -0.129420 -0.428052
-0.250766 0.034818 -0.446134
-0.186349 -0.344766 0.279093
0.269409 -0.061443 -0.443129
-0.098421 0.131341 -0.427792
-0.160957 -0.276273 0.346580
-0.159981 -0.173770 0.407518
-0.120803 -0.308358 0.318583
0.258687 0.347178 0.277304
-0.140776 -0.179058 -0.409583
-0.227979 -0.105612 -0.434657
0.187705 0.234257 -0.381187
0.007424 0.189307 0.401238
-0.118820 -0.237038 -0.378935
0.086891 0.388672 -0.220449
0.209879 -0.233432 0.376715
0.091284 -0.056148 -0.443967
-0.155603 -0.426893 -0.126841
-0.225808 0.380049 -0.235030
0.281152 0.018536 -0.447045
0.223410 -0.344306 0.279685
-0.029904 0.032849 -0.446320
0.226096 0.166481 0.411116
0.103847 0.441253 -0.065470
-0.163476 -0.423774 -0.137578
-0.136205 0.026984 -0.446780
-0.030232 0.444642 0.030307
-0.033431 0.396564 -0.205552
-0.043478 0.438680 -0.081712
-0.233264 0.347483 -0.281264
-0.286799 -0.343909 -0.284551
0.054329 0.318938 0.309027
-0.237316 0.323446 0.304519
-0.021156 -0.059453 0.439091
-0.017894 -0.350036 -0.276651
-0.080319 -0.346602 0.276726
0.206745 0.157529 -0.418837
-0.166490 0.222601 -0.388080
0.037673 -0.443549 0.031025
-0.289252 -0.081883 0.435538
-0.089562 -0.145144 -0.422927
0.097772 -0.443222 0.034484
0.240986 -0.443274 0.033938
0.241801 0.443666 -0.044987
0.235052 -0.016589 0.442721
0.172314 0.425893 -0.133813
-0.056545 0.411344 -0.173832
-0.141489 -0.316579 0.310362
-0.117360 0.343944 -0.285827
0.208337 0.432267 0.107195
-0.194854 0.234757 -0.380891
-0.099226 -0.433437 -0.101729
0.078121 -0.109546 -0.433778
-0.158390 -0.375710 0.236281
-0.051542 -0.341595 -0.287363
-0.154503 -0.433575 -0.101113
-0.036235 -0.389225 0.213428
-0.194803 0.419679 -0.152232
0.075478 -0.435875 -0.090824
-0.012019 -0.260834 0.358510
-0.045843 0.269863 0.352346
0.255054 -0.048691 -0.444726
0.131429 0.422783 -0.143610
-0.289676 -0.059654 -0.443412
-0.006739 -0.090180 -0.438107
-0.128109 -0.159823 -0.417642
-0.032953 0.419222 0.149148
-0.050920 -0.270831 0.350801
-0.028118 0.123372 0.425753
0.263611 0.394498 0.205254
-0.088644 -0.186429 -0.406393
0.265740 -0.368137 0.247452
0.147996 -0.429585 -0.117575
0.128501 0.371462 -0.248422
-0.120844 0.336432 -0.294381
-0.277913 0.175794 -0.411439
0.202428 0.246610 -0.373227
0.072083 0.418923 0.149979
0.230222 -0.334674 -0.295213
0.000424 0.107525 0.430105
-0.206891 0.430152 0.114798
0.252484 -0.135094 0.422050
0.022846 0.407774 0.177729
0.021288 0.338537 -0.291993
-0.051920 0.086790 0.434740
-0.026622 0.108919 -0.434147
-0.070871 -0.184183 -0.407366
0.133453 -0.014364 0.442791
-0.265485 0.145646 -0.423115
0.281830 0.220765 0.384812
0.158900 -0.124617 0.425094
-0.273597 -0.376182 -0.239837
0.139385 0.372240 0.242923
-0.036070 -0.234882 0.375857
0.063388 -0.144621 -0.423115
-0.001662 -0.399188 -0.198391
-0.007883 0.212259 0.389610
-0.267296 -0.418165 -0.153592
-0.144882 -0.305928 0.321012
-0.111337 -0.153092 0.415712
-0.226641 0.420507 -0.149933
0.124641 -0.442463 0.042517
-0.174479 0.437336 -0.088872
-0.259806 0.069895 -0.441953
-0.126733 -0.268250 0.352803
-0.036680 -0.304316 -0.326967
-0.005936 0.191734 -0.404421
-0.140632 -0.359565 -0.264367
0.176586 0.162879 -0.416911
0.196752 0.346729 0.277883
-0.032547 0.227359 -0.385266
-0.173896 -0.210642 0.389912
0.238284 -0.424432 -0.135313
0.001210 -0.199142 0.395771
-0.025873 -0.407491 -0.180368
-0.115860 0.101300 -0.435850
0.056173 -0.419706 -0.149311
0.249142 -0.153925 -0.419766
-0.027728 -0.422014 -0.142901
-0.215695 -0.056973 0.439483
-0.269343 0.445544 -0.015009
0.254532 -0.442715 -0.044201
-0.039631 0.415741 0.158818
0.237144 -0.051772 0.440081
0.089673 -0.065646 -0.442463
0.129301 0.202426 0.394620
0.047259 0.442532 -0.056982
0.204825 -0.444518 0.010699
-0.063565 0.178779 0.405794
-0.288007 0.431726 -0.113735
-0.120234 0.047591 -0.444926
0.085503 -0.438562 -0.075985
0.119153 -0.301332 0.325244
-0.289516 0.362132 -0.262150
-0.244767 0.085171 -0.439456
-0.167634 0.354021 -0.272835
-0.058984 -0.349369 -0.277512
-0.003778 -0.259156 -0.364004
-0.242341 0.441028 -0.066891
-0.267122 -0.380745 0.227768
-0.229462 0.338347 -0.292209
0.037039 -0.234576 0.376038
-0.011611 0.275482 -0.352341
0.286834 -0.149262 0.417091
0.132303 -0.284815 -0.344159
0.114033 0.445423 -0.018850
0.190021 0.261560 0.358712
-0.132945 -0.364998 -0.256424
-0.014092 0.204749 -0.397790
0.247929 0.213573 -0.393294
-0.252087 0.444774 0.028912
0.170524 0.010799 0.442935
0.199574 -0.298240 0.327970
0.196303 0.335777 -0.295124
-0.234032 0.073471 -0.441386
-0.173437 0.258801 0.360588
0.050344 0.130351 -0.428079
-0.128968 -0.403646 -0.189252
0.121294 -0.356435 -0.268403
0.283808 -0.383553 0.223020
-0.055348 -0.139532 -0.424948
-0.018807 0.153157 0.416058
0.232663 -0.186196 0.402141
-0.260595 -0.429473 0.113607
0.181997 -0.425691 -0.130980
0.174890 0.255582 -0.367129
0.285873 -0.156304 -0.418909
0.075202 0.012813 -0.447225
0.094635 0.244978 0.369982
-0.015462 0.313840 -0.318479
-0.117675 -0.408108 -0.178943
0.044467 0.376038 0.237334
0.179343 0.005432 0.443104
0.114504 -0.344087 -0.284321
-0.271470 0.221311 0.384489
-0.182042 -0.257463 0.360801
0.087425 -0.139970 -0.424790
0.107689 -0.366029 -0.254908
-0.073975 0.445407 -0.019358
0.124274 -0.279794 0.343848
0.238354 0.445513 0.011653
0.153707 -0.374823 0.237614
0.173191 0.004906 -0.447474
0.139199 0.303898 0.323885
0.192448 0.035508 -0.446069
-0.212048 -0.321719 0.305222
-0.289200 0.080213 -0.440318
0.148583 -0.038956 -0.445646
0.282683 -0.442259 -0.049025
-0.163777 0.253494 0.364195
-0.028457 -0.316095 -0.315199
0.006695 -0.085978 0.434692
-0.162471 -0.313442 -0.317852
0.158716 -0.430462 -0.114558
-0.209190 -0.285352 0.339332
0.156874 -0.079909 0.435851
-0.137336 -0.339061 0.285884
0.243189 0.391277 0.211575
-0.041659 -0.394135 0.203955
0.064386 -0.383744 0.222696
0.214693 -0.104974 -0.434800
0.085274 -0.230397 0.378510
-0.057156 -0.127423 0.424279
0.101636 0.251034 0.365866
0.014972 0.422422 0.140261
0.240840 -0.376815 -0.238766
-0.046818 -0.222640 -0.387451
-0.246819 0.405981 -0.186225
0.124924 0.268078 0.353731
-0.186087 -0.444125 0.023209
0.237147 0.179856 -0.409681
-0.103974 0.384618 -0.227305
-0.064634 -0.079197 0.435964
-0.265886 0.003157 -0.447529
0.202648 -0.018194 0.442670
0.007810 0.183030 -0.408308
0.081566 -0.247744 -0.371759
0.270635 0.415121 -0.164892
0.064918 -0.190374 -0.404592
-0.146109 -0.434638 0.092005
-0.124622 -0.443113 -0.039989
-0.078491 0.442551 -0.056777
-0.140203 -0.381339 -0.231115
-0.207497 0.259439 0.360154
0.193447 0.108489 -0.434243
-0.089773 -0.431146 0.107628
-0.165770 -0.162872 0.412191
-0.012187 0.281822 0.343070
0.206878 -0.439963 -0.067144
0.221998 -0.442485 -0.046634
0.119670 0.013529 0.442849
0.121508 0.408285 0.176548
-0.047973 -0.399816 0.192805
0.201823 -0.441501 -0.057045
-0.277351 -0.380545 0.228105
0.263197 -0.305493 -0.325800
-0.289142 -0.218889 0.385315
-0.192713 0.392471 -0.213586
-0.045182 -0.241170 -0.376227
0.085147 -0.444538 -0.014411
0.176319 -0.222162 -0.387733
0.210051 -0.379012 -0.235051
0.064815 -0.375102 -0.241558
0.219785 -0.379503 0.229867
0.058171 0.345372 0.279632
0.232840 -0.409724 -0.175207
0.130501 -0.444459 0.012582
0.070487 0.437758 0.082631
-0.131151 -0.442233 0.044943
-0.063629 -0.067428 0.437828
-0.275090 0.282655 0.342424
-0.288788 0.290948 -0.339656
-0.006305 0.350554 -0.277305
0.197250 -0.425042 -0.133212
0.209898 -0.171602 0.408456
0.080854 0.339748 -0.290620
-0.128871 0.255913 -0.366904
-0.265075 -0.365235 0.251723
-0.266886 -0.411463 0.166837
0.181362 -0.220637 0.384282
-0.168587 0.435578 0.092383
-0.092382 -0.423774 -0.137579
0.273281 0.361427 0.258835
0.175985 -0.318847 -0.312447
-0.191756 0.323342 -0.308977
0.021337 0.306824 0.321141
0.000678 -0.362573 0.255640
-0.164504 -0.231072 0.378111
0.277092 -0.250962 -0.369572
0.060668 0.424494 -0.138626
-0.082278 -0.178906 -0.409649
-0.123004 -0.275647 -0.351418
0.182454 -0.429021 0.115164
-0.221706 -0.329472 0.296760
-0.191956 -0.437910 -0.080103
0.170723 -0.180504 -0.408957
-0.253205 0.445110 -0.028828
0.251892 0.417134 -0.159301
0.039455 0.326149 0.301691
0.121272 0.426801 0.126331
0.176120 0.154225 0.415673
-0.212958 0.215290 -0.392403
-0.238968 0.057765 0.439520
0.155778 0.388499 -0.220742
0.208951 -0.059239 0.439125
0.146949 -0.299913 -0.330848
-0.142443 -0.127031 -0.428746
-0.182215 0.137009 -0.426145
-0.139358 0.436671 -0.091848
-0.219520 0.268534 0.353377
-0.230892 -0.060953 0.438853
-0.186595 0.442349 -0.058545
0.036129 0.426734 -0.130918
0.167514 0.411560 -0.173332
0.018348 -0.354058 -0.271467
0.028565 0.445876 0.000097
0.183629 0.183712 0.403660
0.048920 0.140068 0.420770
-0.136486 -0.265577 -0.359230
0.054105 -0.284851 -0.344128
-0.110428 -0.441406 -0.058030
0.154897 -0.438866 -0.074067
0.110259 -0.364999 0.252070
-0.281622 -0.364515 0.252783
-0.087217 -0.330803 0.295250
0.168473 -0.312353 -0.318941
0.013071 -0.413002 -0.167634
0.203935 0.441930 -0.061195
-0.013107 0.048699 -0.444822
0.192821 -0.384957 -0.224998
0.116060 -0.231499 0.377858
0.225102 0.116658 -0.432057
-0.194041 -0.147772 0.417627
-0.069101 0.168913 0.410063
-0.077660 0.053156 0.440047
-0.046963 -0.286252 -0.342892
-0.242320 0.442610 -0.056157
-0.204302 0.115648 -0.432351
0.231953 -0.102847 -0.435275
-0.060022 -0.275585 0.347114
0.016394 0.427672 0.123335
-0.108921 -0.167247 0.410341
0.024953 0.439131 0.074512
0.081426 0.410072 -0.176771
-0.189309 -0.185215 -0.406919
0.213181 -0.422441 0.137359
-0.224749 -0.315069 -0.316225
0.094804 -0.362719 -0.259779
-0.285775 0.102474 0.431234
0.256206 0.297680 0.329368
-0.116153 0.384580 -0.227369
-0.175547 0.306209 0.321756
-0.279054 -0.334770 -0.295103
-0.095815 -0.257929 -0.364838
0.114637 -0.116652 -0.431761
0.251383 0.421201 -0.148003
0.109148 -0.382951 0.224036
-0.059583 0.428591 0.120172
0.078809 -0.390311 0.211460
-0.224039 0.445490 0.012385
0.040656 0.364057 0.254964
-0.061704 0.045232 0.440796
0.216090 -0.034366 0.441726
-0.277057 0.409303 -0.178549
-0.105551 -0.431148 0.107616
0.157150 0.115198 -0.432482
0.057624 0.254154 -0.368099
-0.064796 -0.374294 -0.242747
0.015533 -0.121325 0.426050
-0.069329 0.427568 0.123693
-0.167232 0.410657 -0.175419
0.065701 0.403150 0.188273
-0.253729 -0.192362 -0.403579
-0.130872 0.445357 -0.020954
-0.229715 0.364069 -0.259300
0.043744 -0.073809 -0.441170
-0.226484 -0.362008 -0.260824
-0.267219 -0.431477 0.106147
0.004575 0.194619 -0.402951
0.216145 -0.213946 -0.392581
0.142747 0.401636 -0.195597
0.188714 0.414254 -0.167107
-0.276158 0.439992 0.069075
0.251946 0.227230 0.380989
0.149006 0.326323 0.301494
0.115716 0.445077 0.025508
-0.289086 -0.425952 -0.130080
0.283674 0.437502 -0.088128
-0.139262 0.164022 0.412146
0.206844 -0.417384 0.151408
-0.248178 0.296903 0.330052
-0.126782 0.324138 -0.308181
-0.174545 0.275216 0.348194
0.065945 0.107059 -0.434563
0.138699 -0.430824 -0.113311
-0.150847 -0.150029 0.416815
0.112696 -0.419370 0.145891
-0.186108 -0.390870 0.210363
0.124418 0.290103 -0.340401
0.092999 0.328964 0.298499
0.145065 -0.377841 0.232678
0.024849 0.364450 -0.258739
0.198347 -0.375636 -0.240760
-0.010489 0.284001 -0.345733
0.103785 -0.401619 0.189266
0.207671 -0.360372 0.258878
0.007326 0.433932 -0.104098
0.097728 -0.073446 -0.441228
-0.251663 -0.323258 0.303683
-0.247508 -0.444126 0.023158
-0.022370 0.319386 -0.312933
0.050719 -0.093855 0.432932
0.166338 -0.303653 0.323198
0.109752 -0.426499 0.123845
-0.119799 0.017636 0.442720
-0.257619 -0.438223 -0.078129
-0.144146 0.319504 0.308461
0.097510 0.184646 0.403255
-0.226037 0.038728 0.441411
-0.253427 -0.442823 -0.043057
0.187823 0.130628 -0.427999
0.205132 -0.382324 0.225098
-0.196124 0.172318 0.408590
-0.286687 0.123505 0.425715
0.188197 -0.331738 0.294190
-0.159439 -0.291307 -0.338436
0.200821 0.088082 0.434451
0.251623 -0.097760 -0.436412
-0.075676 0.289757 0.336352
0.035782 -0.441950 -0.052299
0.106806 -0.170188 -0.413422
-0.215125 0.005759 0.443093
0.213574 0.445215 0.021140
0.243007 -0.186232 0.402126
0.059112 -0.062020 -0.443037
0.177954 -0.050299 0.440220
0.029206 0.332800 -0.298501
0.149113 -0.422020 -0.142883
0.106127 0.425388 0.131197
0.080756 -0.426199 0.124879
-0.196193 0.388314 0.216702
-0.279312 0.330297 0.296987
-0.225685 -0.424901 0.129344
0.122761 0.301663 0.325856
-0.098745 -0.420851 -0.146131
0.100935 -0.201044 0.394802
0.222758 0.276142 0.347476
0.095828 -0.376001 -0.240142
-0.148762 0.129051 -0.428457
0.191957 -0.258115 0.360358
0.285724 0.427252 0.124782
-0.161133 -0.322654 0.304286
-0.274716 -0.421702 0.139412
0.232098 0.426614 0.126977
-0.051807 -0.124913 -0.429361
0.074261 0.360458 -0.264537
-0.043057 0.092263 0.433517
-0.223861 0.067060 -0.442401
0.258174 0.444487 0.031942
-0.019958 0.135514 0.422226
-0.288550 0.413897 -0.167932
-0.220459 -0.351818 -0.274355
-0.143341 -0.341750 -0.287187
0.156185 -0.129637 -0.427989
-0.088953 0.301426 -0.330418
0.146794 -0.116979 -0.431666
0.090705 -0.356884 0.263470
0.120359 0.293424 0.333119
0.071076 0.423687 0.136747
0.184022 0.336442 0.290017
0.055553 -0.086362 -0.438960
-0.181844 0.320803 -0.311515
-0.241552 -0.250582 -0.369830
-0.026850 -0.217101 -0.390727
-0.255014 -0.440537 -0.063518
0.035606 -0.439383 -0.070807
-0.191925 -0.065853 -0.442430
0.162112 0.017631 0.442720
0.135963 0.228649 -0.384503
-0.152369 -0.298597 0.327655
0.223243 0.023217 0.442545
0.092042 0.321437 0.306528
-0.049766 -0.000806 0.443217
0.030283 0.357503 -0.268346
-0.009967 -0.309960 0.316980
0.081128 0.251428 -0.369952
-0.097858 0.010922 -0.447285
0.074104 -0.262299 -0.361772
-0.199414 -0.290724 0.334596
-0.009324 -0.206029 -0.396615
-0.038964 0.406030 0.181759
0.232237 -0.179200 -0.409522
0.212559 0.429367 0.117502
-0.261455 0.439290 0.073510
-0.049525 0.135472 -0.426592
-0.131517 0.203715 -0.398317
0.105279 0.428776 0.119535
-0.255811 0.354553 0.267796
0.180161 -0.237572 0.374266
0.075434 -0.425594 -0.131312
0.102085 -0.191764 0.399530
-0.234232 0.235738 0.375957
0.066085 -0.161055 -0.417199
-0.124857 -0.110660 0.429149
-0.204043 -0.186984 0.401800
0.242533 0.198903 0.396415
0.114233 0.245119 0.369886
0.268033 0.443544 -0.046271
-0.106994 0.432486 0.106215
0.037307 0.098467 0.432130
0.173192 0.115449 0.428055
-0.077206 -0.197311 -0.401057
0.245193 0.442684 -0.055368
-0.064100 0.363988 -0.259418
0.089889 -0.389484 0.212990
0.051531 -0.444285 0.018125
-0.077235 -0.404313 0.183358
0.215183 -0.257522 -0.365114
0.109375 -0.089848 0.433827
-0.238532 -0.022002 0.442551
-0.201824 -0.437594 -0.082097
0.173024 0.344537 -0.285062
0.274619 0.327788 0.299832
0.268378 0.007679 0.443033
0.221811 -0.056809 -0.443863
-0.045192 -0.043683 0.440846
0.203116 0.443311 0.044380
0.085388 0.402435 -0.194030
-0.176443 -0.296827 -0.333569
0.001031 -0.030728 0.442070
0.266620 0.305470 0.322495
-0.271971 0.089151 0.434212
0.187090 0.349109 -0.279168
0.156870 0.234741 0.376547
-0.154629 0.416173 0.157617
0.204394 0.426923 0.125912
-0.028950 -0.190185 -0.404688
0.156256 0.261196 0.358960
-0.013076 0.232589 -0.382173
-0.055918 -0.186642 0.401948
0.119662 -0.134164 0.422320
0.041054 -0.425223 0.128236
-0.149395 -0.362402 -0.260244
0.173650 -0.444099 0.024022
0.045445 0.344654 -0.284911
-0.029265 0.439392 -0.077218
-0.248631 0.443680 0.040483
-0.159623 0.445660 0.006955
0.136010 -0.198539 -0.400432
-0.149551 -0.349572 0.272897
-0.189454 -0.314110 -0.317184
0.112435 0.442982 0.047860
-0.126539 0.314192 0.313773
0.016040 -0.162788 -0.416575
0.008791 0.396779 -0.205130
-0.022176 0.341128 0.284701
0.249915 0.361835 -0.262587
0.058678 -0.168542 0.409781
0.190680 0.325813 0.302073
-0.128370 0.142300 -0.424320
0.056447 0.406385 0.180939
0.039054 0.390081 0.213714
0.145608 0.225867 -0.386148
-0.278157 -0.439879 -0.067671
0.127483 0.439432 0.072614
-0.179582 0.378856 -0.237048
-0.154462 0.218685 0.386042
-0.015917 0.347715 -0.280965
0.150420 -0.363344 0.254505
-0.254593 -0.331517 0.294440
-0.042094 0.336993 0.289392
0.242233 0.282290 -0.347061
0.067168 -0.362514 -0.260080
0.118736 0.426552 -0.131542
-0.007173 0.009673 -0.447324
0.077851 -0.370111 0.244548
0.226800 0.178335 -0.410339
-0.055616 -0.017207 -0.447055
-0.084727 0.168288 0.410334
0.232477 -0.248492 -0.371251
0.052212 -0.335643 -0.294114
-0.073117 0.444971 -0.031179
0.110203 -0.011407 0.442884
-0.124683 -0.241702 0.371512
0.234535 0.365942 -0.256544
-0.042968 0.445810 -0.006553
0.106866 0.140022 0.420787
0.145967 0.433714 -0.105073
-0.275306 -0.432841 0.100043
-0.118007 -0.133625 0.422477
0.271016 0.348945 0.275026
-0.164706 -0.148072 0.417520
0.271377 -0.060224 0.438969
-0.058658 0.093830 0.433166
-0.040379 0.442477 0.053209
0.060740 -0.273574 0.348673
0.035628 0.400709 -0.197418
0.275154 -0.134665 0.422175
-0.034852 -0.166186 -0.415153
0.265313 0.301518 -0.330337
-0.278028 0.340272 -0.290026
0.058844 -0.193290 0.398753
-0.004876 -0.333037 0.292716
0.093125 -0.148885 0.417227
0.028923 -0.444306 0.017451
-0.222435 -0.288156 0.336860
-0.081140 -0.389151 -0.217907
-0.257424 0.220294 0.385091
0.241005 0.252508 -0.369218
-0.062340 0.232618 -0.382155
-0.108141 -0.024010 -0.446841
-0.123781 -0.439760 0.064072
0.029774 0.392455 0.209263
-0.276159 -0.061622 0.438747
0.022569 0.409015 -0.179214
-0.066035 0.337786 0.288492
0.077081 -0.172388 -0.412469
0.158480 -0.104962 0.430449
-0.125981 0.442335 -0.058636
0.111733 0.163511 0.412330
0.271782 -0.284697 -0.344263
0.282329 -0.027499 -0.446729
0.181443 -0.304774 0.322167
-0.257080 -0.027844 0.442343
-0.053450 -0.197538 0.396588
0.284634 0.323357 0.304608
0.030653 0.049445 0.440398
-0.175984 0.430488 -0.117994
0.009433 -0.434934 -0.095033
0.144515 -0.073609 -0.441202
0.019803 -0.345033 0.278749
0.004907 0.250989 -0.370250
0.169926 0.055447 0.439830
-0.023787 0.270060 0.352194
-0.109952 -0.411341 -0.171471
-0.260244 0.038578 -0.445778
0.049351 -0.427147 -0.125969
0.075096 -0.428793 0.115949
-0.150497 -0.168562 0.409772
-0.216655 0.403567 -0.191803
-0.001038 0.398122 -0.202494
-0.023017 0.445442 -0.018249
0.213337 0.419394 0.148671
-0.238559 0.431344 -0.115049
0.028511 -0.406092 0.179248
0.152288 0.414443 0.162318
0.092471 0.438086 -0.085466
-0.250417 -0.441905 -0.052768
-0.145806 0.375945 0.237471
0.062405 -0.408502 -0.178031
0.087232 -0.255831 -0.366263
0.004954 0.133106 0.422925
-0.022165 0.067137 -0.442389
0.098047 0.100734 0.431623
-0.005054 -0.443833 0.028021
0.272192 0.203422 -0.398466
-0.275644 -0.444480 0.011906
0.217856 0.431349 -0.115032
0.206072 -0.207252 -0.395992
0.184004 0.164665 0.411902
0.218532 -0.400314 0.191829
-0.265485 0.424402 0.134592
0.208714 -0.438787 0.070217
-0.041869 0.413034 -0.169926
0.153039 0.404765 0.184683
0.070296 0.274482 0.348763
0.074062 -0.411067 0.167751
0.101506 0.358011 -0.267692
-0.263569 -0.441318 -0.058586
-0.208716 0.175084 0.407393
0.074465 0.045465 -0.445127
0.111770 -0.215959 0.387048
-0.089940 0.432917 -0.108638
-0.023244 0.265216 -0.360304
0.269226 0.110031 0.429545
0.179962 -0.428568 -0.121077
0.151234 0.052849 0.440076
0.070052 -0.443919 -0.031462
-0.228937 -0.165595 -0.415409
-0.276990 -0.043972 0.440818
0.162512 0.385009 0.222290
-0.204127 0.073723 -0.441346
-0.132555 -0.279292 0.344238
-0.084120 -0.004810 -0.447445
0.126745 0.112242 0.428987
-0.037974 0.268176 -0.358008
-0.056129 -0.023995 0.442488
0.239580 0.042302 0.441073
-0.235007 -0.028163 -0.446666
0.145780 -0.435351 0.088812
0.286673 0.094696 0.432973
-0.109511 0.419545 -0.152604
-0.189587 0.226548 0.381392
-0.140753 0.443338 0.044101
0.241304 0.021076 0.442612
-0.184982 0.078746 -0.440551
0.218327 0.433932 0.099747
0.012344 -0.438421 -0.076879
-0.205919 0.208619 -0.395818
-0.169265 0.079384 0.436096
-0.163644 -0.191776 0.399524
-0.017970 0.417984 -0.156940
-0.016812 -0.020173 -0.446962
0.286265 0.433800 0.100337
-0.174021 -0.144605 -0.423121
0.093515 -0.385945 -0.223327
-0.206015 -0.346669 0.276639
0.022867 0.420672 -0.149474
0.261259 -0.181426 -0.408558
-0.009084 -0.354427 -0.270991
0.096675 -0.437971 -0.079720
-0.067044 -0.434222 0.093866
-0.063640 0.102656 0.431194
0.254296 -0.273200 -0.353316
0.236566 0.062248 0.438810
0.053077 0.245525 -0.373963
0.060808 0.226651 0.381331
0.266920 -0.134354 -0.426618
0.033080 0.444497 -0.036187
0.134177 0.257955 0.361163
-0.113710 0.413259 0.165053
-0.077516 0.223251 -0.387695
0.182596 0.076475 0.436557
-0.154138 -0.390649 -0.215151
-0.161079 -0.363678 0.254014
-0.257570 -0.127305 -0.428666
-0.281760 0.211321 -0.394441
0.183160 0.321889 -0.310430
-0.111592 -0.283668 -0.345170
-0.279681 -0.444809 -0.005784
0.257979 0.376620 -0.240828
0.007933 0.364302 0.254604
-0.054833 0.305499 -0.326820
-0.179807 0.312694 0.315271
-0.228721 0.132162 -0.427553
-0.137824 0.379577 0.231474
-0.130374 -0.135631 -0.426248
0.254469 0.386951 -0.223361
0.061623 0.134780 -0.426792
-0.203168 0.433058 -0.108008
-0.126269 0.185950 0.402691
0.014964 0.439740 0.070665
0.152448 -0.428115 0.118284
0.101440 0.283523 0.341751
0.048771 -0.131797 0.423008
-0.175459 -0.444290 0.017967
-0.271989 0.417953 0.152674
-0.093728 -0.078218 -0.440472
0.013975 0.030572 -0.446535
0.192566 -0.423015 0.135765
-0.047583 -0.444157 0.022200
0.161689 0.435848 -0.095527
0.286569 0.301986 0.325571
0.094855 0.445809 -0.006572
0.250336 -0.145284 0.418523
-0.177136 0.433590 -0.105628
0.277400 -0.290558 0.334743
-0.005266 0.136887 -0.426180
0.113023 -0.218963 -0.389625
-0.128578 -0.399036 -0.198690
-0.171562 0.391159 -0.216161
-0.041648 -0.276782 -0.350538
0.275234 0.438860 0.076221
-0.276820 0.002504 -0.447549
0.006613 0.284015 -0.345722
-0.100738 0.262786 0.357836
0.070041 0.380619 -0.234067
0.054487 0.443996 0.037140
0.018702 -0.397615 -0.201479
0.110809 0.409767 0.173124
-0.208186 -0.374179 0.238562
0.282510 0.019706 0.442655
-0.170203 0.432560 0.105882
0.285887 -0.409133 -0.176574
-0.277728 0.445689 -0.010386
0.030651 -0.224555 0.381965
0.222125 0.444561 -0.035517
0.240841 -0.442974 -0.041459
-0.147222 -0.401807 0.188899
-0.201325 0.293302 -0.337580
-0.039132 0.427927 -0.126811
0.227370 0.040611 0.441233
-0.176599 0.386434 -0.224234
-0.160011 -0.034617 0.441702
0.014338 -0.359874 0.259611
0.266308 0.253646 0.364091
-0.283428 -0.227186 0.380409
-0.136925 0.340698 0.285189
-0.121929 -0.444312 -0.021597
-0.090824 -0.221693 0.383657
-0.166169 0.318730 0.309235
0.284678 0.146645 -0.422756
0.108014 -0.396533 0.199248
-0.271315 0.422654 -0.143968
-0.215520 -0.407570 -0.180185
0.172023 0.441914 -0.061297
-0.138536 -0.070208 0.437387
0.215721 -0.434712 -0.096026
-0.098753 0.442939 0.048323
0.251339 0.439195 -0.078463
0.068561 0.441850 -0.061697
-0.242086 -0.437947 -0.079872
0.104122 0.209778 -0.395227
-0.288983 -0.405109 0.181518
-0.039417 -0.381727 0.226107
-0.096785 -0.425148 0.128497
0.111267 0.439651 -0.075581
0.160644 0.318089 0.309876
-0.012841 -0.221852 -0.387917
-0.111026 -0.369413 0.245575
-0.123069 -0.211032 0.389713
0.214531 -0.394450 0.203337
-0.236022 0.440426 0.066337
0.184374 0.201220 -0.399588
0.024959 0.088962 -0.438608
0.090055 -0.414526 -0.163700
0.067372 -0.414686 0.158901
0.145415 -0.016144 0.442735
-0.002211 0.187530 0.402007
0.258083 -0.386520 -0.222356
0.243057 0.427684 0.123292
-0.274647 -0.148931 -0.421564
0.228367 0.219970 -0.389636
-0.218868 0.358250 0.263031
-0.180317 0.360909 -0.263949
-0.225516 0.277324 0.346559
0.010710 0.444296 -0.038313
-0.131402 0.429941 -0.119879
-0.241949 -0.090495 0.433683
0.063097 -0.335637 0.289767
0.204805 -0.370819 0.243506
-0.200892 -0.077768 0.436190
0.170708 0.415260 0.160152
-0.204775 0.335011 -0.295993
0.262570 0.384556 0.223056
0.124620 0.365897 -0.256610
0.102943 0.247636 -0.372529
-0.019363 -0.378901 0.230885
-0.210849 0.419989 0.147017
0.023853 -0.046390 0.440590
-0.087654 -0.206073 -0.396593
0.226072 -0.385046 0.220495
0.203245 0.171204 -0.413426
0.033645 -0.150351 0.416699
-0.009461 -0.382539 0.224735
0.177667 0.388519 0.216355
-0.220950 0.328820 0.298662
-0.287919 0.443801 0.039197
0.114999 -0.261094 -0.362686
-0.265925 0.282731 -0.346718
-0.060741 0.444160 -0.039760
-0.059085 0.442002 0.056383
0.176119 -0.387599 -0.220531
0.220868 -0.125076 0.424960
-0.048144 0.440687 -0.069041
-0.236501 -0.416427 -0.158419
-0.288809 -0.037333 -0.445799
-0.101417 -0.184802 -0.407098
0.182514 0.266372 -0.359408
0.118172 -0.415808 0.155785
0.118847 -0.152312 -0.420346
-0.069424 -0.341252 -0.287751
-0.164128 -0.439867 0.063394
-0.202731 -0.383786 0.222625
-0.184582 0.349633 -0.278492
0.166259 0.380922 -0.233554
-0.115385 -0.027285 0.442385
-0.036066 0.138768 -0.425592
-0.085898 0.249056 -0.371564
0.192425 -0.435408 0.088557
-0.177977 0.413460 -0.168942
0.263929 0.312435 0.315530
0.169506 -0.417169 0.152004
-0.289675 -0.248760 0.366715
-0.231097 0.281243 -0.347873
-0.057179 0.439263 -0.078035
0.181365 0.107222 -0.434526
0.162328 0.149571 -0.421702
-0.056175 -0.049004 0.440343
-0.102358 -0.007782 -0.447351
-0.128978 -0.443525 0.031276
-0.228371 -0.337029 -0.292541
-0.029225 0.407471 -0.182782
0.191271 -0.091185 -0.437882
-0.086269 -0.419641 0.145137
-0.154143 0.085988 -0.439273
-0.010085 0.246561 -0.373259
0.201631 -0.351762 0.270074
0.128754 -0.443919 0.027108
-0.212021 0.060226 0.439130
0.010306 0.268079 0.353730
-0.222183 0.099640 0.431868
-0.101410 -0.441708 0.050497
0.279696 -0.057982 -0.443677
0.242410 0.437748 -0.087030
0.089545 -0.197529 0.396593
-0.188229 -0.253547 -0.367816
0.039461 -0.310339 -0.320955
0.272195 -0.384361 -0.226007
0.062807 0.110110 0.429527
0.115978 0.077869 0.436336
-0.198624 -0.044807 0.440739
0.031750 -0.347975 0.274955
0.077611 -0.002843 0.443153
-0.083859 -0.228412 0.379684
0.105310 -0.435874 -0.090829
0.099273 0.174326 0.407721
0.226391 -0.424026 -0.136710
-0.129739 -0.438282 0.073403
-0.025379 -0.384897 -0.225100
-0.013424 -0.441059 -0.060221
0.024757 0.292169 -0.338579
0.279614 0.413087 0.165452
-0.111615 -0.318959 -0.312335
0.079905 0.375239 -0.242863
0.025334 0.288465 0.337491
-0.154767 -0.127606 -0.428579
0.197326 -0.336393 0.288910
0.279483 -0.053978 0.439872
0.217459 -0.359641 0.259916
-0.059343 0.420681 -0.149449
-0.260050 -0.424453 0.130886
-0.019001 -0.200966 0.394842
0.062841 0.441638 0.058684
-0.047270 -0.333848 0.291796
-0.235218 -0.198940 0.395874
0.106450 0.313990 -0.318328
0.060914 -0.149970 0.416836
0.258629 -0.305898 0.321042
-0.261216 -0.099404 -0.436045
-0.093776 -0.326864 -0.304072
0.123018 -0.377547 0.233174
-0.174260 0.093569 -0.437578
-0.144875 -0.408461 -0.178126
0.125717 -0.243015 0.370619
-0.239161 0.368387 -0.252947
-0.254771 0.003560 0.443162
-0.147360 -0.255607 0.362062
0.205385 -0.275828 0.346925
0.215917 -0.266740 -0.358328
0.284452 0.267273 -0.358709
0.039506 -0.444357 0.015817
-0.166781 -0.097272 0.432168
-0.094982 -0.245629 0.368843
-0.003295 -0.080666 -0.440084
0.209114 -0.260887 0.358474
0.158821 0.370591 0.245350
-0.133439 0.389386 -0.219243
-0.146727 0.295191 -0.335915
-0.033299 0.087842 -0.438858
0.055624 -0.277249 -0.350176
-0.197544 -0.109419 0.429453
0.196616 -0.305182 -0.326111
0.250023 -0.424119 -0.136390
-0.204574 0.445901 -0.003667
-0.161447 -0.435469 0.088287
-0.153781 0.250908 -0.370306
-0.137214 0.316358 -0.315961
-0.220100 0.445381 -0.020193
0.239612 -0.440461 0.059647
0.242821 -0.428458 0.117103
-0.086896 0.441165 -0.066025
0.246706 0.081729 0.435725
0.159603 0.066232 -0.442533
0.031602 -0.323201 -0.308093
-0.218908 0.371456 -0.248429
0.096632 0.439746 0.070626
-0.226019 -0.219917 0.384708
0.137997 0.266291 0.355118
0.172609 -0.357762 0.262339
-0.180476 0.034839 -0.446132
0.167761 -0.444697 -0.009363
0.088228 -0.111287 0.428967
-0.275660 0.418931 -0.154310
0.093477 -0.401807 0.188898
-0.155273 -0.050026 0.440246
0.061634 -0.423461 -0.138656
0.038131 -0.219088 0.385198
-0.160596 0.323804 -0.308514
-0.288861 -0.393273 -0.210001
0.235922 -0.312089 0.314852
-0.265767 -0.423336 -0.139085
-0.171851 -0.057459 -0.443760
0.185602 0.427541 -0.128140
0.189227 -0.151757 0.416193
0.244731 -0.217913 -0.390246
-0.055514 0.417849 0.152963
-0.209381 0.023224 0.442545
-0.081006 -0.074419 -0.441074
0.183727 0.443973 -0.041737
0.069790 0.384871 0.222523
-0.158907 0.433913 0.099831
-0.216017 0.283210 0.341993
0.134008 0.235712 0.375973
-0.285018 -0.398995 -0.198771
0.271489 0.263700 0.357127
0.247088 0.378824 0.232749
-0.050720 -0.251749 -0.369037
-0.019687 -0.116693 0.427396
0.052128 -0.117727 0.427096
0.123893 -0.350612 0.271555
-0.278030 0.353936 0.268591
0.286922 -0.442406 0.043116
0.249073 0.428738 -0.124019
-0.161796 0.053227 0.440040
-0.192922 0.439275 0.073605
-0.254373 0.247274 -0.372775
-0.226814 -0.110978 0.429056
0.273408 0.058640 0.439382
-0.109645 -0.361179 -0.262044
-0.215668 0.031898 0.442056
-0.274565 0.035915 0.441677
-0.240162 -0.415005 0.158014
-0.102167 0.179444 0.405506
-0.203276 -0.393065 -0.210408
-0.139752 0.399801 0.194846
0.205164 0.416424 0.156919
-0.155329 -0.442794 0.039011
0.145181 -0.163294 -0.416393
0.073036 -0.363214 0.254697
0.189042 -0.269337 -0.356313
-0.101926 0.369742 -0.250952
0.176415 -0.099455 -0.436033
0.248349 -0.417689 -0.154912
0.134014 0.436460 -0.092790
0.037467 -0.165175 -0.415591
0.147708 0.219530 0.385542
-0.153452 -0.441857 0.048925
-0.108718 -0.083491 -0.439602
0.058017 0.444908 0.027491
0.000169 -0.062872 -0.442902
-0.158163 0.295303 -0.335816
-0.082984 -0.057036 0.439473
-0.290174 0.262550 -0.362373
-0.155073 -0.091939 -0.437713
0.209101 0.401520 -0.195826
0.156366 -0.024166 0.442483
-0.281756 0.241665 -0.376587
0.026949 -0.427477 0.120479
-0.075357 0.445682 0.006260
-0.192520 -0.028546 0.442276
0.139904 0.253010 -0.368877
-0.156007 0.120308 0.426644
0.233865 -0.167584 0.410195
0.166094 -0.348010 0.274910
-0.009436 -0.100527 -0.435794
-0.095816 -0.203475 0.393563
-0.015479 0.406597 -0.184803
-0.272016 -0.444792 0.001969
-0.261034 -0.201360 -0.398994
-0.142112 -0.370812 -0.247870
0.285845 0.391451 0.211235
0.004718 -0.286323 0.338476
-0.009882 0.371685 0.243739
-0.288407 0.054442 -0.444279
-0.217357 0.428335 0.121051
-0.206807 0.438467 0.078703
0.166480 -0.397714 0.196930
-0.098033 -0.441961 -0.052182
0.177119 -0.123500 -0.429772
0.184249 0.435535 -0.096930
-0.028906 -0.396623 0.199073
0.166926 0.160006 -0.417945
0.126007 -0.219393 -0.389371
0.004787 -0.145689 0.418378
0.084554 -0.239598 0.372942
-0.048951 -0.170343 -0.413355
0.188039 -0.357974 0.262065
0.023163 0.443860 -0.042929
-0.065060 -0.297619 0.328517
0.160199 0.273178 -0.354129
0.084700 -0.376628 0.234728
-0.007400 -0.416490 -0.158244
-0.103252 -0.129098 -0.428145
-0.251260 0.435120 -0.098787
-0.243673 0.238096 0.374562
0.169756 0.266214 -0.359531
0.155285 0.190619 0.400636
0.021591 0.393682 -0.211209
-0.208374 -0.203540 -0.397883
0.213013 0.442742 -0.054761
0.151441 0.356616 -0.269491
0.104994 -0.387735 -0.220301
-0.083574 -0.104963 0.430449
-0.142451 0.440031 -0.073182
-0.218179 -0.426934 0.122349
0.031103 -0.088424 -0.438499
0.141641 -0.222802 -0.387355
0.271758 0.445579 -0.013894
-0.226262 -0.201116 -0.399119
0.196714 -0.246502 -0.372603
0.196643 -0.436165 -0.089527
-0.141761 -0.162539 -0.416665
-0.289747 0.444384 -0.037388
0.074071 0.414106 0.163096
-0.020000 0.205839 0.392881
-0.116449 -0.182861 -0.407937
-0.232121 -0.367224 -0.253149
-0.073366 0.196356 0.397713
-0.067916 0.410160 0.172215
-0.182798 0.435823 -0.095638
-0.237675 0.369559 0.246867
-0.249665 0.345742 -0.283509
-0.089068 -0.275430 0.347234
0.206722 -0.054960 -0.444133
0.189924 0.303719 -0.328396
-0.031234 0.283962 0.341410
-0.154281 0.381463 0.228286
-0.182172 -0.307057 0.319883
-0.223768 -0.314351 0.312590
-0.048552 -0.358636 0.261211
-0.193235 -0.338511 0.286507
-0.281823 -0.418980 -0.151328
-0.169493 0.152926 -0.420494
0.148106 -0.235477 -0.379859
0.110042 0.306466 0.321499
-0.171130 0.128937 -0.428490
-0.255204 0.292065 0.334317
-0.064329 -0.355865 -0.269137
0.192545 0.218725 -0.390372
-0.210775 -0.354448 0.266610
0.129190 -0.296209 0.329760
0.210617 -0.348069 0.274835
0.112158 -0.419942 -0.148655
0.228755 -0.435594 0.087728
0.228708 0.071758 -0.441657
0.059382 0.442726 -0.054922
0.162919 -0.442404 -0.047490
0.111002 -0.431956 -0.108354
0.208879 -0.290452 0.334836
-0.018764 -0.165745 -0.415344
0.134506 0.445394 0.015434
-0.150814 0.432000 -0.112745
-0.162908 -0.168517 -0.414145
0.125175 -0.192310 -0.403606
-0.286577 0.272639 -0.354547
-0.026196 0.206607 -0.396843
0.244169 -0.238554 0.373651
-0.220327 -0.419682 -0.149377
-0.238471 0.251375 0.365635
-0.214083 0.195528 -0.402488
0.281625 0.132381 -0.427489
0.221905 0.436448 0.088489
-0.068329 0.107791 -0.434399
0.093129 -0.407173 0.176748
0.267328 -0.152177 0.416042
-0.107140 -0.255962 -0.366174
0.121364 0.224616 0.382535
-0.096316 -0.399322 -0.198127
-0.022229 0.100925 0.431580
-0.226023 -0.072989 -0.441300
0.123844 0.352333 0.270658
-0.019635 0.026507 -0.446795
-0.229281 0.213471 0.388992
0.213360 0.406091 -0.185971
0.175715 0.383481 -0.229227
0.130405 0.083203 0.435491
-0.132123 0.444357 0.033323
0.027660 0.433430 -0.106347
0.195971 -0.184092 0.403052
-0.217134 0.310812 -0.321506
-0.142933 -0.440769 0.057699
-0.206940 0.158385 -0.418529
0.236811 0.394464 -0.209675
-0.050105 -0.268491 -0.356969
-0.055933 -0.443749 -0.033258
0.149911 0.286146 -0.343889
0.148464 -0.362956 -0.259429
0.201988 -0.002706 0.443157
0.219197 0.186132 0.402612
0.102499 -0.442186 0.045445
-0.239959 -0.179814 0.404903
-0.047088 -0.304562 -0.326732
-0.202689 0.405558 0.182850
-0.068199 0.052527 -0.444460
0.091950 0.183987 -0.407894
0.037827 0.235784 0.375930
-0.103080 0.347311 0.277132
0.228477 -0.360465 -0.263095
-0.237867 0.435830 0.091256
0.052413 0.219841 -0.389712
0.183757 -0.292414 -0.337460
0.157800 0.161619 0.413011
0.144317 -0.396540 0.199235
-0.033511 -0.305815 0.321125
0.249099 0.372428 -0.247000
0.152945 -0.338674 0.286323
0.077339 0.268935 0.353067
-0.007838 -0.444574 -0.013286
0.103405 0.445614 -0.012781
0.017619 -0.372457 -0.245449
-0.216537 0.299445 0.327812
-0.131971 0.396228 0.201858
-0.126790 -0.259476 0.359433
-0.098842 -0.436967 -0.085937
-0.262911 0.437620 0.083249
-0.057648 0.043836 -0.445281
0.150165 0.427219 0.124894
-0.232017 -0.381890 -0.230185
0.024631 -0.436603 0.083211
0.266280 -0.258293 0.360237
0.095387 0.376341 0.236889
0.272824 -0.434360 0.093248
-0.252117 0.339560 -0.290833
-0.215055 -0.077407 -0.440601
-0.074091 0.156155 -0.419332
-0.269285 0.388617 -0.220543
-0.182485 -0.395818 0.200651
-0.059153 0.057173 -0.443967
0.060171 -0.427374 -0.125185
-0.234989 0.200517 -0.399946
-0.092101 0.290047 -0.340450
-0.221010 0.435491 -0.097125
0.196669 -0.412574 -0.168621
0.121679 -0.428057 0.118481
-0.058784 0.421498 0.142827
-0.038693 -0.083223 0.435308
-0.106089 0.324328 0.303637
0.046615 0.153860 -0.420158
-0.037583 0.368698 -0.252489
-0.235900 -0.287144 0.337753
-0.187165 0.235369 0.376175
0.001544 -0.275327 -0.351666
0.051317 0.437831 -0.086657
-0.019192 -0.356400 0.264094
-0.028125 -0.424979 0.129077
0.004326 -0.442248 -0.049143
-0.194666 -0.443447 -0.036458
0.252646 0.252347 0.364974
0.162415 -0.283038 0.341332
0.235618 -0.015163 -0.447119
-0.203163 -0.291820 -0.337983
0.001654 -0.354552 -0.270830
-0.038033 0.042243 -0.445432
-0.227744 0.430129 -0.119232
0.198241 -0.104467 0.430560
0.122750 0.058322 -0.443785
-0.136204 0.290349 -0.340184
-0.251010 0.431158 -0.115689
0.090438 0.225723 0.381880
-0.076598 -0.381471 0.226539
0.223104 0.418500 -0.155507
0.188152 0.394713 0.204831
-0.189681 0.443368 -0.048137
0.185021 0.413357 0.164827
-0.110994 0.391721 0.210705
-0.063474 0.196871 0.397450
-0.266072 -0.144968 0.418637
0.191283 -0.135726 0.421866
-0.260175 0.171078 0.409127
0.222644 -0.187750 -0.405822
0.207995 -0.433308 0.097954
0.062212 0.433269 -0.107067
-0.006366 -0.214972 -0.391985
0.091311 0.359698 -0.265516
0.045202 -0.105775 0.430267
0.145000 -0.344540 0.279384
0.117488 0.403039 0.188490
0.108224 0.270789 0.351629
0.177574 0.443833 0.038862
-0.288960 -0.442700 -0.044356
-0.073684 -0.442453 0.042621
0.156042 0.241530 -0.376679
0.011422 -0.444717 0.004371
-0.118563 0.417317 0.154438
0.046504 0.437102 0.085564
-0.242252 -0.419321 0.146026
0.190952 -0.092682 0.433194
0.052477 -0.410044 -0.174468
-0.171189 -0.033872 0.441773
-0.192186 -0.433243 0.098244
0.047257 -0.204351 0.393117
-0.038952 0.001451 0.443229
-0.121723 0.305734 0.322231
0.032885 -0.276639 0.346296
0.205996 0.328693 -0.303159
-0.017237 -0.444080 -0.028985
0.147840 -0.430881 0.108762
-0.194050 -0.240792 -0.376484
-0.262219 0.432135 0.107787
-0.223987 -0.437389 -0.083397
0.130015 0.370239 0.245868
-0.018799 0.367662 0.249660
0.160635 -0.395391 -0.205844
-0.212235 0.000283 -0.447605
-0.248494 0.007090 -0.447405
-0.141180 0.349754 -0.278336
-0.016604 -0.246200 0.368455
0.213948 0.156857 0.414726
-0.184402 -0.217032 0.386414
-0.092238 0.037855 0.441493
0.187248 -0.415733 -0.160347
-0.165756 0.193808 0.399011
-0.084391 0.071662 -0.441673
-0.277823 -0.313568 0.313373
-0.242603 -0.366056 -0.254868
0.156483 -0.252927 0.363883
-0.174663 -0.444653 0.006405
0.286646 0.248017 0.367917
-0.281432 0.165447 -0.415917
-0.212634 -0.166916 0.410484
-0.160030 -0.195064 -0.402202
-0.233496 0.443030 -0.051706
0.140346 -0.427802 -0.123714
-0.151600 0.201966 -0.399208
-0.213430 -0.269058 -0.356529
-0.199113 0.104974 0.430675
-0.112431 0.445159 -0.027270
-0.127595 0.400135 -0.198545
-0.168185 -0.437918 0.075698
0.061871 0.097032 -0.436804
0.284885 0.412635 -0.170849
0.136138 0.418986 -0.154158
-0.079544 0.270810 0.351612
0.071928 0.341948 0.283771
-0.142258 -0.251185 -0.369421
-0.042212 -0.263151 0.356758
-0.244678 -0.109556 0.429422
0.126602 0.441838 -0.061774
-0.084325 -0.353923 0.267287
-0.176313 0.427491 -0.128311
-0.272081 -0.435699 0.087256
0.245327 -0.212286 0.389074
-0.290114 0.025915 0.442460
0.254528 0.408241 0.176650
0.171232 0.142146 -0.424375
-0.153278 -0.439431 0.066149
-0.097985 -0.266275 -0.358688
0.100900 -0.210086 0.390195
-0.206013 0.131062 -0.427873
-0.150824 0.443164 0.045940
-0.015766 0.386890 0.219110
0.002640 0.430045 -0.119522
0.047528 0.445523 0.011315
0.032751 -0.160011 0.413221
-0.260315 0.374150 0.240112
0.268541 0.373648 0.240851
0.146785 0.340830 0.285040
0.066032 0.444125 0.035770
-0.121106 -0.377435 -0.237718
-0.250447 0.151907 0.416508
-0.260542 0.101515 -0.435802
-0.164278 0.155332 0.415275
-0.173129 -0.351384 -0.274914
0.133154 -0.379470 -0.234277
0.037277 0.443636 0.040948
-0.199982 0.393853 0.206520
0.132439 -0.444844 0.000337
0.137178 0.064214 -0.442852
0.059509 0.065947 -0.442578
0.214204 -0.430538 -0.114295
0.047213 -0.078976 0.435999
0.202254 0.012515 0.442881
0.105075 -0.035364 -0.445985
0.093762 0.193478 -0.403533
0.228807 0.408289 0.176537
0.279568 -0.189740 -0.404915
-0.263664 -0.443058 0.036225
-0.183251 0.077173 0.436446
-0.284180 -0.208898 0.390800
0.253037 0.060432 0.439098
-0.207205 0.328668 -0.303188
-0.190104 -0.385147 0.220323
-0.179372 -0.428470 0.117060
0.079708 0.445903 -0.003604
-0.246294 0.377663 0.234711
0.177796 -0.262554 -0.361574
