0.104418 0.491681 -0.084050
-0.259681 0.497056 0.035179
-0.022741 -0.313845 0.384207
-0.246637 -0.496620 -0.032264
-0.233057 0.478629 -0.141416
-0.004082 -0.390345 0.306334
0.129467 0.436649 -0.242633
-0.248134 0.497835 -0.027054
0.165462 -0.330292 -0.374376
-0.129116 -0.158718 -0.474193
-0.212616 -0.199262 -0.458305
-0.184845 -0.483296 0.115633
0.243795 0.293209 -0.405106
-0.159577 0.497978 0.023794
-0.092731 -0.185777 0.459637
-0.027994 0.255637 0.425464
-0.131532 -0.439307 0.231284
-0.080871 -0.161438 -0.473247
-0.108038 -0.240224 -0.438166
0.225100 -0.455249 0.198415
-0.112919 -0.490760 0.079091
-0.079849 0.244496 -0.436265
0.063779 0.371804 0.329768
0.090610 -0.376973 0.322792
0.027627 0.328161 0.372882
0.259413 0.362029 0.340306
0.138013 0.267362 -0.422670
-0.130660 0.423002 -0.265751
-0.030481 -0.114883 -0.486559
-0.159455 0.170634 0.465827
-0.279141 -0.365346 -0.340199
0.215069 0.242374 -0.437482
-0.063015 -0.276866 0.411365
-0.207034 0.498132 0.020005
0.078161 -0.133973 0.477261
0.197502 0.321109 0.379044
0.057791 -0.122027 -0.484861
0.179684 -0.464764 0.175212
-0.056493 -0.477935 -0.140250
0.265047 0.441522 -0.233378
0.260031 -0.084629 0.488628
-0.205680 0.104670 -0.489104
0.183457 0.194997 0.456325
0.203617 -0.186628 0.459282
-0.122000 0.477099 0.142636
0.214317 -0.303134 -0.396913
-0.218247 -0.180516 -0.466088
-0.207350 0.276145 0.412685
0.037317 0.497006 0.035786
-0.072856 0.449280 -0.218353
-0.127090 0.445752 0.220791
0.223149 0.491826 0.079442
-0.045352 0.461714 -0.190425
-0.084803 -0.219200 -0.449235
-0.129841 0.474598 -0.154626
0.105997 0.473554 0.153465
-0.209797 0.469905 -0.168597
0.193394 0.130523 0.478733
0.126572 -0.493026 0.065366
0.207160 -0.431765 0.245343
-0.114832 -0.497524 -0.001181
-0.097911 0.367823 -0.338379
0.112488 -0.063930 -0.496050
0.165304 -0.057269 0.492586
0.182342 -0.111813 -0.487289
-0.226758 0.496211 0.045606
-0.158399 0.336848 0.365013
-0.029155 0.412906 0.276940
0.003846 0.462768 -0.187617
0.124069 -0.032416 -0.499139
-0.127850 -0.210947 -0.453061
-0.045657 -0.303356 -0.396736
-0.259781 0.126614 0.479661
0.036921 -0.389789 -0.311611
0.077640 -0.072881 0.490327
-0.079384 0.498472 0.001107
-0.099616 0.172814 0.465009
0.235309 0.070639 -0.495153
-0.086315 -0.078300 -0.493872
-0.153835 -0.099979 -0.490101
-0.062155 0.489369 0.092772
0.286010 -0.203352 0.452310
0.018378 0.124852 0.480080
0.036092 -0.473552 0.150343
-0.229550 -0.315236 -0.387263
-0.031112 -0.318524 0.380192
0.027260 -0.386084 0.311677
0.082877 0.157216 -0.474852
0.091549 0.496142 0.046451
-0.056200 0.329684 0.371502
0.225493 -0.460739 0.185940
-0.072824 0.357457 0.345002
-0.084983 0.332043 -0.373824
0.106936 -0.389042 -0.312602
0.141636 -0.121411 0.480728
-0.036996 0.469088 0.166412
0.041593 0.307455 0.389931
0.008536 0.469911 -0.168580
-0.101203 0.447889 0.216454
0.170536 0.003923 -0.500134
-0.077248 0.260863 0.422278
0.029303 -0.455804 -0.201652
0.274075 0.491532 0.081478
0.116225 0.267360 -0.422671
0.089790 0.048627 -0.497848
0.048629 0.425526 -0.261611
0.087794 -0.001730 0.495802
-0.167556 -0.190305 0.457749
-0.016820 0.426970 0.255113
-0.148903 0.181045 -0.466390
0.063900 -0.181530 -0.465707
0.213639 -0.467538 -0.172288
0.116984 0.126233 -0.484034
0.228951 0.148884 0.473153
-0.254545 0.147420 -0.478185
-0.049195 -0.348927 -0.357064
0.015841 -0.314917 -0.387518
0.001245 0.140169 0.475812
0.221350 -0.432097 0.244798
0.237356 -0.166721 -0.471264
-0.037279 -0.229042 0.439817
0.019773 -0.026317 0.495219
0.230846 0.047987 -0.497900
-0.196614 -0.442733 -0.229190
0.165641 0.488913 -0.100127
0.102138 0.437684 -0.240667
0.071145 -0.488715 -0.095353
0.110012 0.448163 -0.220764
0.056175 -0.392759 -0.307675
0.131318 -0.111957 0.483009
0.272947 -0.163433 0.468001
-0.066158 -0.445030 0.220415
0.115803 0.388311 0.310532
0.186543 -0.194864 -0.460278
0.070706 0.470476 0.162389
-0.249127 0.270673 0.416297
0.129487 -0.422508 0.260527
0.018762 0.194794 0.456416
-0.259270 0.486712 0.105455
0.033405 -0.220173 0.444187
0.181320 -0.083147 -0.493037
0.046152 -0.495108 0.046101
0.264924 0.436209 -0.243468
-0.162634 0.278973 0.410708
0.105667 -0.490551 -0.085529
-0.246924 -0.485338 -0.111474
-0.128330 -0.045281 0.493683
-0.155037 0.214283 0.447670
-0.064078 -0.407780 -0.287507
-0.218811 0.335409 -0.370935
-0.130335 0.498526 -0.011649
0.284278 -0.249941 -0.432665
-0.204263 0.398454 -0.301803
0.136435 -0.186382 -0.463887
-0.083166 -0.468270 0.165869
0.015754 0.391678 -0.310301
-0.207206 -0.359455 -0.346250
-0.095407 0.349090 0.353596
-0.173096 -0.099138 -0.490285
0.159061 -0.495608 0.041471
-0.119383 0.126987 -0.483825
-0.170226 -0.235047 -0.440891
-0.030350 -0.488239 0.093734
0.083056 0.420140 -0.270445
0.172616 0.392208 -0.309636
-0.200340 0.420660 -0.269593
0.284162 -0.071359 0.490548
-0.180047 -0.079767 0.489331
-0.213719 -0.102342 0.485023
0.196040 -0.226172 0.441231
0.145223 -0.466409 0.170829
0.284505 0.087431 0.488123
0.268664 -0.403814 -0.293022
-0.111482 -0.480395 -0.131338
0.275046 0.401515 0.293075
-0.040113 -0.429109 0.249699
-0.020514 0.346433 0.356326
0.191413 0.370725 0.331026
-0.063927 -0.496238 0.035464
0.069646 -0.011377 -0.500082
-0.256091 0.058554 -0.496902
0.102728 -0.266711 -0.422441
-0.154686 -0.230202 0.439245
-0.104735 0.363904 0.338380
0.237092 -0.154241 -0.475559
0.188734 -0.031963 0.494762
-0.040128 -0.209376 0.449508
0.230395 0.155980 -0.475279
-0.248172 0.123818 0.480326
-0.160175 -0.064470 -0.495991
-0.132981 -0.496596 0.027489
0.202789 0.415457 -0.277691
-0.107548 -0.007727 0.495694
-0.287985 -0.267666 -0.421859
-0.066106 0.494751 0.059227
0.064532 0.479510 -0.138529
-0.000502 -0.320881 -0.382762
-0.199809 -0.356686 0.345013
-0.061061 -0.249824 -0.432736
-0.244888 0.488317 -0.103172
-0.219320 -0.086201 -0.492512
0.045572 -0.191622 -0.461733
-0.061030 0.321760 -0.382648
-0.151347 -0.399264 0.295026
-0.229994 -0.285916 0.405390
0.172732 0.478038 0.139233
0.261832 -0.476847 0.139542
0.207522 0.127184 -0.483771
-0.241763 -0.075502 -0.494353
0.024523 -0.375461 0.324461
0.094713 -0.319377 -0.383961
-0.238880 -0.483177 -0.121259
0.016717 -0.474128 -0.153186
0.218977 -0.476415 0.140959
0.231527 0.280414 0.409700
0.132553 -0.461470 -0.188061
0.008667 0.486944 0.104344
-0.029731 0.019252 -0.499858
0.076253 -0.476345 0.141187
-0.158395 -0.036875 -0.498939
0.005358 -0.483520 -0.120015
0.064027 0.094377 -0.491260
0.029291 0.205407 -0.456234
-0.135329 0.273044 -0.418918
0.002948 0.142103 -0.479653
0.090526 0.384077 -0.319834
0.155448 -0.254002 -0.430189
0.079724 -0.059512 0.492261
0.016010 0.100843 -0.489905
-0.230262 0.110673 0.483450
-0.125898 -0.459346 -0.193157
0.073505 0.374099 -0.331450
0.219245 -0.494349 -0.059273
0.179480 -0.490831 -0.083595
0.188194 -0.219932 -0.448850
0.000463 -0.481078 0.124966
-0.068226 -0.285621 0.405586
-0.166488 -0.497297 -0.013789
0.244694 -0.191077 -0.461978
0.200976 -0.349321 0.352183
0.098410 0.197709 -0.459443
-0.267428 -0.159028 0.469521
0.065076 -0.360568 0.340904
0.222806 -0.364448 0.336620
-0.285209 -0.472237 -0.158667
-0.238778 -0.429227 0.249505
0.185528 -0.496995 0.018593
-0.073163 -0.062442 0.491838
-0.223263 0.400113 0.294933
0.165027 -0.277278 -0.415529
-0.288351 0.398730 -0.301457
0.156355 -0.412069 0.276717
-0.165271 0.387765 -0.315209
0.071624 -0.465292 0.173807
0.133674 -0.222081 -0.447718
-0.107005 -0.453737 0.201783
0.147874 -0.037427 0.494319
-0.210462 0.386872 -0.316329
-0.053764 -0.080830 0.489177
-0.163605 0.324600 0.376107
-0.147299 -0.174321 0.464245
-0.138420 0.497919 -0.025191
0.036212 0.052457 -0.497538
0.209991 -0.355898 0.345780
-0.180916 0.178565 -0.467424
-0.046551 0.493923 -0.070902
0.135195 0.008815 -0.500046
0.212730 0.389649 0.308803
-0.012752 0.325662 -0.379299
-0.154498 0.479008 -0.140171
0.169103 -0.227423 0.440615
-0.022988 0.477517 -0.145058
0.008651 -0.467343 0.168339
0.204748 -0.197168 0.454888
-0.124699 -0.134465 -0.481593
-0.045418 0.145647 0.474141
0.187202 -0.395824 0.299463
-0.279297 0.345178 0.357469
-0.178482 0.314255 0.384509
0.112603 -0.142963 -0.479000
-0.064439 -0.374189 -0.330148
0.217886 -0.420357 -0.268456
0.194652 -0.329081 0.371133
-0.191840 0.497299 0.032178
-0.141073 -0.340207 0.361056
0.068750 -0.373880 -0.330508
0.148169 -0.341067 0.360219
-0.123787 -0.104827 -0.488949
0.144359 -0.035278 -0.499010
-0.076596 -0.485275 -0.111773
-0.099482 0.290817 -0.406911
0.092088 -0.444852 -0.224890
-0.062245 -0.493104 -0.067881
-0.196366 0.422333 0.262661
0.197244 0.443587 -0.229456
0.062354 0.487504 -0.106592
-0.111058 0.211880 -0.453132
-0.146105 -0.356321 0.345368
-0.185276 0.037443 -0.498754
-0.173952 -0.425471 0.255667
0.096734 0.334787 -0.371470
-0.203258 -0.223141 -0.447160
0.261105 0.495612 0.052993
-0.167307 -0.464838 0.175016
0.219743 0.226057 0.441811
0.037620 -0.323005 -0.380976
-0.239766 -0.453726 -0.206636
-0.252242 -0.308492 -0.392641
0.149136 -0.431949 -0.248998
0.024210 -0.471132 -0.161870
0.081570 0.063251 0.491881
-0.107066 -0.228159 -0.444518
-0.177877 0.498265 0.012621
0.092923 -0.309703 0.387536
0.253976 -0.488435 0.092595
-0.121927 0.059683 -0.496738
0.003134 0.489830 -0.094799
-0.072923 0.308906 0.388774
0.002216 -0.497561 0.000873
-0.082518 0.216471 0.446689
0.190740 0.025329 -0.499736
-0.165066 -0.052285 0.493115
-0.108186 0.451813 0.208491
0.267506 -0.224328 -0.446535
-0.134007 0.074352 -0.494616
-0.119836 0.498002 0.023497
-0.137641 -0.477015 -0.143581
0.105365 -0.341014 0.360271
-0.096059 -0.376704 0.323089
0.077029 0.403667 -0.294550
-0.235173 0.453142 0.205794
-0.178666 0.449483 -0.217901
-0.224634 0.498044 -0.022411
0.041520 -0.101073 0.485289
0.007635 -0.496839 0.022073
-0.215230 -0.368461 0.332190
0.208616 0.175693 -0.468479
0.062162 -0.211428 -0.452845
-0.146424 -0.253359 0.426242
-0.042785 -0.382306 -0.320688
0.006507 -0.343972 0.357391
0.155603 -0.235298 0.436599
0.208755 0.140210 -0.480175
0.136410 -0.254418 -0.429936
-0.023053 -0.470058 0.161104
-0.205337 0.431205 -0.252296
-0.037709 0.359918 -0.347106
0.162012 -0.450975 -0.212465
-0.073096 -0.186033 0.459530
0.018291 0.352841 -0.354107
-0.061183 -0.401380 0.292000
-0.277831 -0.487039 0.099886
0.078821 -0.049048 -0.497658
0.150111 -0.297532 0.396718
0.139464 0.498489 -0.012470
-0.081163 0.473073 -0.159624
-0.242588 0.216244 0.446791
-0.178761 0.187576 0.459470
-0.163002 0.349784 -0.357084
0.025334 -0.497100 -0.024736
-0.232608 0.428087 -0.257410
0.055781 0.427257 0.254612
-0.290274 0.036568 -0.498825
0.231160 -0.102975 0.484891
-0.194537 0.498121 0.020585
0.226826 -0.388129 -0.313812
-0.051134 -0.398630 0.295932
-0.047653 0.081832 0.489087
-0.131709 0.287622 -0.409294
-0.080429 0.299093 0.396599
0.140543 0.290032 0.402973
0.032356 0.470902 0.161155
-0.051924 0.480160 -0.136396
-0.008487 -0.407848 -0.287404
0.197814 0.394655 -0.306568
-0.210856 -0.120112 -0.485317
-0.098975 -0.271890 -0.419284
0.002433 -0.393283 -0.306981
-0.263835 -0.488909 0.089844
-0.234930 -0.496610 0.027174
-0.001518 -0.449940 0.210246
0.102431 0.000543 -0.500195
0.114588 0.258055 0.423990
0.109721 -0.463912 0.177484
-0.185587 0.496000 0.048207
0.040717 -0.491488 0.074860
-0.019658 0.460273 -0.193855
0.064113 -0.078647 0.489493
-0.117776 -0.254442 -0.429921
0.065557 0.265785 0.419277
-0.059225 -0.373384 0.326754
0.166912 0.153472 -0.476144
-0.166997 0.471988 0.158005
-0.192031 0.242508 -0.437405
0.005616 0.498599 -0.005924
0.261054 0.342146 0.360215
-0.289901 -0.481478 -0.127414
0.179145 0.379048 0.321327
0.273514 -0.459311 0.189362
0.252521 0.037741 -0.498730
-0.006727 -0.093225 0.486933
0.140760 0.364694 -0.341833
-0.216155 0.121216 -0.485418
0.273122 0.155897 -0.475308
0.116583 0.113798 -0.487192
0.177373 0.091596 -0.491843
0.249515 -0.496768 0.023650
-0.147079 -0.241978 -0.437242
-0.030453 -0.238000 0.435049
-0.125760 -0.081738 -0.493280
-0.155230 0.271821 0.415597
0.032873 -0.109802 -0.487767
0.068255 0.390367 0.307851
0.260397 0.475910 -0.150325
-0.054262 0.407621 0.284947
0.056586 0.498355 -0.015468
0.041199 0.445373 0.221559
-0.062427 -0.473185 -0.155920
0.274774 0.023181 0.495245
0.045274 0.394321 -0.306986
-0.200691 -0.146883 0.473697
0.029456 0.488248 0.098121
0.233669 0.459504 0.190881
0.098154 -0.216728 -0.450467
-0.053562 0.498399 0.005161
0.006958 -0.490561 0.080245
-0.137424 -0.181902 0.461253
0.204785 -0.439964 -0.234811
-0.272578 -0.437640 0.234450
-0.004639 0.201871 -0.457708
-0.192402 0.342303 0.360073
-0.222260 0.391481 -0.310548
0.221214 -0.034625 0.494546
-0.033141 -0.348613 0.352873
0.206601 0.233380 -0.442538
-0.245519 0.471607 0.159110
0.173532 -0.401906 -0.295551
0.021802 0.308286 0.389269
-0.216747 -0.074576 -0.494513
0.029768 0.130596 0.478715
-0.182215 0.449790 0.212595
-0.266662 -0.036352 -0.498962
0.053234 0.131881 -0.482475
0.157756 0.498082 0.022507
0.160419 0.477137 -0.146304
-0.072268 -0.435153 -0.243411
0.155858 -0.298496 -0.400611
0.179233 0.356809 -0.350245
-0.078821 -0.478148 -0.139476
-0.174041 0.498639 -0.009123
-0.077361 -0.373389 -0.331081
-0.236261 0.416440 -0.276285
0.205164 0.385038 0.314346
0.181948 -0.002530 -0.500250
-0.208035 0.251693 -0.432138
0.122189 -0.497349 -0.010923
-0.147218 -0.459002 -0.193982
-0.024004 0.498355 0.007612
0.076397 -0.181619 0.461371
-0.160056 0.043026 0.494066
0.257074 -0.491502 0.074780
0.118542 0.028553 -0.499475
-0.277725 -0.291243 -0.405762
0.171343 -0.032732 -0.499124
0.163425 0.498051 -0.022235
0.256662 -0.407044 0.283902
-0.003967 -0.260237 -0.426388
-0.246638 -0.298952 0.395647
0.158544 0.189595 0.458712
-0.188870 0.032326 0.494835
0.122114 0.056046 0.492659
0.177472 -0.496523 0.029102
0.252914 -0.248847 -0.433332
0.184920 -0.244362 0.431401
0.151233 0.460490 0.188516
0.174016 -0.243328 -0.436531
-0.086765 -0.381301 0.317677
-0.226057 0.156172 -0.475212
0.078270 -0.493992 0.056429
-0.088883 -0.118452 -0.485711
0.053885 -0.495894 0.038827
0.117498 0.415933 0.272356
0.192249 0.079083 -0.493932
-0.190750 0.431855 -0.251230
0.190761 0.318037 -0.385842
0.247129 0.396750 0.299390
0.129900 -0.231700 -0.442654
-0.203869 -0.255044 -0.429554
-0.027056 -0.206493 0.450928
-0.120067 -0.241028 -0.437742
0.169855 0.129319 -0.483182
0.013665 0.454254 0.203474
0.247146 0.486995 0.104105
0.070176 0.086337 0.488311
0.209070 0.496164 0.046186
-0.069603 0.443238 -0.230117
-0.272972 0.450838 0.210469
-0.012064 0.479073 -0.139958
-0.136045 -0.287976 0.403927
-0.025961 -0.370721 -0.334189
0.136495 -0.482111 0.120620
0.271946 -0.385759 0.312086
-0.163032 -0.495966 -0.040333
-0.016647 -0.113513 -0.486885
0.004830 0.403903 -0.294212
-0.240310 -0.387994 -0.313991
-0.146236 -0.447357 -0.219806
0.152712 0.179197 0.462614
-0.085439 0.435648 -0.244534
-0.111300 -0.462581 -0.185397
-0.269909 -0.497148 -0.022088
0.160817 0.285033 0.406469
-0.141738 -0.051513 -0.497392
0.284968 0.137450 -0.480937
0.216231 0.046966 -0.497983
-0.212586 0.489529 0.092006
0.023642 0.445118 -0.226547
-0.144670 -0.296545 0.397463
-0.278177 -0.402648 0.290187
0.187561 0.262340 -0.425985
-0.265579 0.376750 0.324004
0.248949 -0.496280 0.034535
0.016160 -0.385609 0.312274
0.147041 0.242786 0.433003
-0.060370 0.449942 -0.216877
0.286378 0.473080 0.154841
0.174969 0.285923 0.405847
-0.019207 -0.497524 0.006794
-0.168122 0.377073 0.323628
-0.164210 -0.465373 -0.178564
-0.253496 -0.435464 -0.242869
-0.063875 0.237068 0.436013
-0.173362 -0.103044 0.484876
-0.188916 0.228713 -0.444838
-0.040250 0.352293 -0.354641
0.176907 -0.094818 -0.491028
-0.049591 -0.497307 -0.013268
-0.081382 0.041538 0.494227
0.002470 -0.495185 0.045388
0.257189 -0.418258 0.267497
0.046484 0.476243 0.145670
-0.023928 0.055256 -0.497311
0.260122 0.492487 -0.079363
0.151461 -0.348799 0.352691
0.139501 -0.424418 -0.262129
-0.170523 0.239563 -0.439094
-0.112580 0.272766 -0.419102
0.106391 -0.419637 -0.269546
-0.163535 -0.142006 0.475043
0.155107 -0.092375 0.487112
-0.199149 -0.281279 -0.412731
0.073381 0.495763 -0.053871
0.198552 0.495130 0.056609
-0.201308 0.464659 0.178517
0.193083 0.428410 -0.256880
-0.282703 0.123066 0.480505
0.156640 0.239279 -0.439257
0.147152 -0.379965 0.319352
0.006000 -0.443218 -0.228206
-0.095465 0.495904 0.049391
0.194147 0.380488 -0.324335
0.217827 -0.471828 0.155993
0.262805 0.307698 -0.394176
-0.128251 0.291448 0.401983
-0.091841 -0.340258 -0.365350
0.220268 0.498409 0.004630
0.032232 0.494879 -0.062050
0.066961 -0.496667 -0.031685
0.107545 -0.044196 -0.498183
0.255207 0.002106 -0.500167
-0.034570 0.372872 0.328523
-0.012862 -0.367789 -0.337607
0.115520 0.423109 -0.265575
-0.194987 0.449693 -0.217434
-0.074664 -0.324278 -0.379823
-0.142126 -0.059523 0.492260
0.176632 -0.382423 0.316269
0.150104 0.325228 0.375538
-0.212336 0.443019 -0.230535
0.026263 0.013452 -0.499962
0.094400 0.466823 0.172979
0.026468 -0.425785 -0.259746
0.064191 0.491524 -0.084960
0.114802 0.389530 -0.312995
0.158344 -0.336322 0.364839
0.280699 -0.098039 -0.490474
0.220835 0.342456 0.359934
-0.217444 -0.295727 0.398080
-0.211739 -0.375414 -0.328720
-0.127805 0.489930 -0.094220
-0.290124 -0.476997 -0.143648
0.111570 0.308111 0.389408
-0.276093 -0.160509 -0.473595
-0.105965 0.468602 -0.172069
0.286172 0.271412 -0.419995
-0.252642 0.465335 -0.180775
-0.129855 -0.493737 -0.063507
-0.288855 0.254439 0.426194
-0.150326 -0.303247 -0.396823
-0.265581 0.402623 0.291605
0.134781 -0.078783 0.489473
0.081196 -0.453538 0.202227
0.118606 -0.354555 -0.351284
-0.120571 0.493421 0.068418
-0.055579 0.439021 -0.238128
-0.146784 -0.310565 0.386886
0.234064 -0.235607 0.436421
-0.054602 0.028277 -0.499497
-0.117143 -0.323472 -0.380554
0.010804 -0.124583 0.479853
0.058980 -0.497211 -0.018596
-0.025060 0.450529 0.211095
0.019066 -0.077547 -0.494001
0.200548 -0.473847 0.149374
-0.068929 -0.117851 0.481711
0.174047 -0.411189 -0.282343
0.138628 -0.351829 -0.354083
0.089518 -0.484143 -0.117180
0.023949 -0.329769 0.370542
-0.203581 -0.463510 0.178554
-0.221877 -0.290315 -0.406412
0.211802 0.410255 -0.285129
0.242925 0.284655 -0.411253
-0.172871 -0.012868 0.495601
0.279474 -0.415194 0.272249
0.000928 -0.414490 -0.277343
-0.154648 -0.301953 0.393383
0.152238 0.307057 -0.394659
-0.206779 -0.497423 -0.006797
0.254688 -0.225215 0.441703
0.230791 0.498434 0.003220
0.026835 -0.241591 0.432990
0.083001 0.116905 0.481969
0.178009 -0.448224 -0.218048
-0.090024 0.498219 0.015145
0.245054 0.338191 0.363797
-0.192198 0.377103 -0.328134
-0.195397 -0.163618 0.467937
-0.033778 0.495138 -0.059656
0.261429 -0.149791 -0.476917
-0.273030 -0.260829 -0.426027
0.256647 -0.460109 -0.191326
0.018824 -0.446407 0.217799
-0.140717 0.127964 0.479341
0.168341 0.481465 -0.132003
0.019774 0.077143 -0.494212
0.183462 0.227208 -0.445579
-0.073592 0.370791 0.330948
0.153384 -0.461335 0.184352
0.235058 0.495799 -0.053537
0.000164 0.168890 0.466482
-0.120043 -0.075605 0.489933
-0.153944 0.007028 -0.500078
-0.259021 0.205455 -0.456214
0.176765 0.478897 -0.140537
0.018624 -0.012915 0.495600
0.123631 0.321644 -0.382747
0.022210 0.022921 -0.499792
0.254618 -0.426896 0.253328
-0.041096 0.094812 -0.491169
0.165647 -0.251783 -0.431542
-0.261301 0.214553 0.447549
0.217094 -0.476177 -0.146617
0.199697 -0.391610 -0.309198
-0.245660 -0.260826 0.421954
0.159460 -0.067571 0.491096
-0.213441 -0.178804 0.462544
0.162801 -0.345999 0.355418
-0.035640 0.453010 0.206061
0.254625 -0.214990 0.446741
-0.198170 -0.497156 -0.021647
-0.047006 0.488106 -0.104061
-0.163414 0.128693 -0.483355
0.047568 0.286980 -0.409718
-0.000319 0.120504 0.481113
-0.202810 0.320197 -0.383988
0.031825 0.286388 -0.410109
0.171268 -0.323418 -0.380602
0.043568 -0.085804 0.488458
0.177418 -0.274585 -0.417413
0.199324 -0.415054 0.272448
0.266846 0.164171 0.468252
0.204391 -0.175846 0.463719
-0.106421 -0.253271 -0.430635
-0.212758 0.335101 0.366595
0.227137 0.260120 0.422731
-0.141954 -0.252968 -0.430820
0.164984 0.209718 -0.454198
0.283702 0.439991 0.232407
-0.058644 -0.464063 -0.181842
0.084648 -0.298512 0.395979
0.182304 -0.299830 0.394984
-0.093497 0.149988 0.472816
-0.290181 0.015479 0.495591
-0.134626 -0.407680 0.282993
-0.289040 -0.319585 0.379281
-0.167515 -0.482578 0.118654
0.121928 -0.487431 -0.101481
0.039790 0.427678 0.253879
-0.183944 -0.477861 0.136220
-0.075298 -0.377799 0.321879
0.163246 -0.236240 -0.440263
-0.116033 -0.407533 -0.287881
-0.003742 0.292336 -0.405765
0.113413 -0.213490 0.447481
0.111032 0.203597 0.452466
-0.216993 0.098669 -0.490361
-0.234846 0.182133 0.461512
-0.223796 -0.476641 -0.144937
0.272666 -0.457589 -0.197369
-0.155055 0.258183 -0.428416
-0.161623 0.350860 0.351778
-0.070891 -0.197819 0.454617
-0.185877 0.472272 0.157182
-0.262026 -0.065057 0.491459
0.247927 0.493460 0.068150
-0.227400 -0.492312 -0.073354
-0.254419 0.404468 0.289160
0.274460 0.235918 -0.441184
0.224080 -0.319708 -0.383697
-0.044921 -0.391186 0.305279
0.079339 -0.346763 -0.359287
-0.168610 0.451384 0.209360
-0.030065 0.266710 0.418713
0.129433 -0.048982 0.493383
-0.048726 0.342605 0.359799
-0.131175 -0.000042 -0.500206
-0.140659 -0.472435 0.154002
-0.219530 0.416817 0.271017
0.042237 -0.263680 -0.424289
0.185964 -0.468489 0.165286
0.216250 -0.467330 0.168374
-0.105886 -0.444533 -0.225539
-0.010349 0.434797 -0.246150
0.117049 0.088814 -0.492425
-0.013714 -0.203292 0.452335
0.144419 -0.491740 -0.077309
0.045058 -0.149620 0.472766
-0.020223 0.014607 -0.499942
0.066180 0.415017 0.273743
0.255702 0.469876 -0.168674
0.233636 0.414572 0.274418
-0.119683 0.487673 0.100866
0.156147 -0.494898 -0.053509
0.200159 0.386306 -0.317038
-0.070960 -0.169539 0.465895
0.205624 -0.335694 -0.369484
0.129296 -0.326958 0.372955
-0.008798 0.071028 -0.495097
0.228104 0.208638 0.450204
0.098595 0.232610 -0.442917
-0.231703 0.352252 0.350348
0.244308 -0.113557 0.482674
0.013358 -0.497162 -0.021311
0.093852 -0.464369 0.176267
0.102967 0.390629 -0.311617
0.126102 -0.195684 -0.459910
-0.135750 -0.202186 -0.456992
0.034037 0.318813 -0.385176
-0.047493 0.401771 -0.297260
0.187214 0.202526 -0.457435
-0.217416 -0.203364 0.452305
0.093527 -0.489733 -0.090495
0.123073 0.043720 -0.498246
-0.039493 0.290077 0.402941
-0.028192 -0.043093 -0.498302
-0.233085 -0.382741 -0.320181
0.211900 0.294475 -0.404151
0.014094 -0.496521 -0.033487
-0.038257 -0.434658 -0.244274
0.069818 -0.088751 0.487871
0.047928 0.488385 -0.102884
0.025043 -0.426016 0.254772
0.156147 -0.495889 -0.041280
0.172526 -0.312100 -0.389763
0.251438 -0.397857 -0.300918
0.094648 -0.427372 -0.256979
0.057791 -0.323280 0.376110
0.231561 -0.415687 0.271544
-0.243746 -0.312892 0.385024
0.188706 -0.495292 -0.048645
-0.039677 0.203371 0.452567
-0.048769 0.025089 0.495160
0.234278 -0.370679 -0.334238
-0.107025 -0.421082 -0.267358
0.242850 -0.497626 0.004510
0.202520 0.405356 -0.292133
0.190555 -0.025053 -0.499469
-0.085874 -0.349461 0.352047
-0.231494 0.255696 -0.429843
0.159226 -0.308237 -0.392844
0.191126 0.233791 0.437739
-0.028639 0.396361 -0.304427
-0.031875 -0.447378 -0.219764
0.065150 0.248718 0.429682
-0.042535 0.409136 -0.286729
0.129823 0.018350 -0.499874
-0.012457 -0.223364 0.442615
0.155968 0.432941 -0.249447
-0.217069 0.230557 -0.443929
0.241715 0.490186 0.088873
0.232384 0.111239 0.483315
-0.024593 -0.020694 0.495460
-0.053536 -0.488019 0.095013
0.262160 -0.451329 0.207149
-0.168713 0.488096 -0.104102
-0.012779 0.416721 -0.275884
-0.280173 0.498555 -0.003500
-0.091922 0.002900 -0.500153
0.236436 0.252464 0.427398
0.088329 -0.288047 -0.407998
-0.023583 0.315918 0.383183
0.165252 0.236113 0.436516
0.028211 -0.079789 0.489328
0.145834 0.479544 -0.138415
0.055851 -0.182254 0.461106
-0.019295 -0.293875 0.399477
-0.280136 -0.472808 0.152779
-0.273230 -0.098416 -0.490409
-0.174933 0.496545 0.041485
0.140587 -0.362689 -0.342929
-0.161745 0.056875 0.492570
-0.081682 0.165230 0.467855
-0.255614 0.463204 0.182006
0.178432 0.323083 -0.381512
0.258365 0.409046 0.282789
0.236919 -0.383960 -0.318761
-0.234921 0.203471 -0.457041
0.221867 -0.452206 -0.209966
0.276023 0.200252 0.453967
0.147205 0.212757 0.448355
-0.036970 0.187907 -0.463530
-0.088558 -0.497608 0.003435
-0.143605 -0.479764 -0.133624
0.153595 0.051726 -0.497597
-0.288353 0.491004 0.084966
-0.060649 0.247210 0.430601
-0.133658 0.377799 0.322782
-0.242692 -0.008174 0.495686
-0.093191 -0.496781 0.023353
-0.041481 -0.408613 -0.286244
0.187050 0.471145 -0.165293
-0.109662 0.493885 -0.071244
0.006311 -0.295779 -0.402591
-0.141660 -0.287066 -0.408684
-0.051756 -0.376435 -0.327531
-0.223550 -0.459974 0.187886
0.114512 -0.398436 0.296188
0.221961 0.466067 -0.178824
-0.283437 0.474995 0.149290
-0.058053 -0.344244 -0.361739
-0.091990 -0.497240 -0.016950
-0.078591 0.333481 0.368063
-0.192682 -0.276399 0.411673
-0.050919 -0.102050 0.485085
-0.275994 0.088729 0.487899
-0.256976 0.483428 -0.123742
-0.273662 0.091675 -0.491826
-0.191593 -0.495900 -0.041148
-0.065075 -0.122366 -0.484781
-0.288002 0.463051 0.182374
0.010811 0.174915 0.464221
-0.001575 -0.236457 0.435934
-0.103531 0.279257 -0.414817
0.160497 -0.492048 0.071607
0.054675 -0.095683 -0.490879
-0.125394 0.117755 -0.486363
0.092727 -0.227758 -0.444729
-0.061499 -0.433584 0.242154
0.264720 -0.295501 -0.402785
0.043300 -0.497062 0.017089
0.080550 -0.238452 -0.439098
-0.225844 -0.107572 0.483928
0.058340 -0.497486 -0.003292
-0.199915 -0.351834 -0.354078
-0.021224 0.441199 -0.233990
0.263277 -0.177619 -0.467175
-0.157012 -0.350656 0.350884
-0.257326 -0.175354 0.463889
0.197802 -0.497275 -0.015054
0.235217 -0.436524 -0.241020
-0.104881 0.444437 -0.227842
-0.095898 0.479855 0.132651
0.128434 -0.064646 0.491519
0.229587 -0.278861 -0.414422
0.285034 0.428858 -0.256146
0.116368 0.024820 0.495172
-0.123466 0.147800 -0.478080
0.049104 -0.456886 0.194767
-0.278111 -0.213604 -0.451869
-0.107737 0.253956 -0.430840
-0.158701 -0.468685 0.164765
0.284902 0.348691 0.354006
-0.206056 0.081595 -0.493568
0.006604 -0.357069 -0.348701
-0.289726 -0.416627 -0.274106
-0.286332 0.472103 -0.162738
-0.287385 0.481938 -0.130016
-0.155023 -0.026720 0.495187
0.187008 -0.417742 -0.272418
0.210387 0.381713 -0.322799
0.107182 0.248235 0.429976
0.161606 0.494767 -0.063088
0.216167 -0.458880 0.190324
-0.210409 -0.492201 -0.074121
-0.067352 -0.245353 0.430832
-0.167782 -0.150946 -0.476565
-0.200439 -0.211963 -0.452605
0.275510 -0.227914 0.440373
0.232948 0.433311 0.244057
0.233906 -0.493706 0.059070
0.088114 -0.297165 -0.401621
0.147534 0.479241 0.134877
-0.144236 -0.311066 -0.390588
0.112677 0.301609 -0.398769
0.001668 0.491518 0.081576
0.037014 -0.464500 -0.180793
0.239095 0.262496 0.421283
0.215606 0.191327 -0.462104
0.171454 0.373889 -0.331682
-0.289973 -0.162541 0.468309
0.073427 0.448864 -0.219281
0.226707 -0.205651 0.451343
0.245558 0.315174 0.383776
0.204684 -0.477877 -0.140458
-0.222795 0.131768 0.478376
0.229900 -0.449747 0.210676
0.234489 -0.394495 -0.305374
0.258029 -0.209935 -0.453515
0.074585 -0.491003 -0.082406
0.109379 -0.459604 -0.192536
-0.110933 -0.400390 0.293416
-0.130636 0.497320 -0.038550
-0.272608 0.118760 0.481528
0.106613 -0.493981 -0.061817
0.200204 -0.424758 -0.261537
0.257657 0.027355 -0.499572
-0.177088 -0.143895 -0.478716
0.244588 0.481026 -0.133560
0.152361 0.498315 0.009843
0.035831 0.354716 0.347818
0.204169 0.326253 -0.378792
0.249308 -0.276825 0.411392
-0.129506 0.166646 -0.471599
0.262479 -0.126336 -0.483838
0.027968 0.176732 0.463539
0.245576 0.344833 -0.361904
-0.244007 0.314435 0.384365
0.185887 0.422204 0.262858
-0.189613 -0.470443 0.160079
0.218489 0.162150 -0.473151
0.283295 -0.347641 0.353819
0.223902 -0.492247 0.070455
0.095632 -0.398966 0.295453
-0.273969 -0.454717 -0.204259
0.239226 0.324559 0.376144
-0.222515 0.312655 -0.390436
-0.288270 0.208021 -0.455033
0.110290 0.199609 -0.458651
-0.203749 -0.490783 -0.083924
-0.235102 -0.262241 0.421020
0.169554 0.471519 0.159365
0.114705 0.360474 -0.346493
-0.007912 0.145017 -0.478848
-0.093806 -0.420142 0.264408
-0.143252 0.495434 0.054508
-0.103456 -0.214923 -0.451277
-0.070116 -0.488498 0.092231
-0.180937 0.342945 0.359491
0.154147 -0.069886 -0.495320
-0.276116 -0.497611 0.003646
0.182514 0.488734 0.095801
0.048396 -0.347356 -0.358678
-0.090453 -0.303545 0.392182
-0.015805 0.279110 0.410612
0.268510 0.414921 0.273889
0.207269 -0.474805 -0.151223
-0.142057 0.469717 0.164590
-0.181581 -0.318661 -0.384532
0.019571 0.453609 -0.208706
-0.226008 -0.373908 -0.330475
-0.196428 0.122645 0.480605
0.118696 -0.425037 0.256379
-0.195720 -0.300509 0.394472
-0.251221 -0.457830 0.192664
0.125715 -0.026382 0.495214
-0.119833 -0.230620 0.439039
0.136756 0.452780 0.206528
-0.043277 0.478196 -0.142834
0.066813 0.080500 -0.493727
-0.005557 -0.238641 -0.438999
0.047962 -0.215469 0.446505
-0.004174 0.386067 0.313146
0.102424 0.092373 -0.491680
0.024360 -0.088766 -0.492070
-0.289256 -0.216049 0.446219
-0.186276 0.064917 0.491700
-0.087588 -0.486812 -0.104438
0.263380 -0.380111 0.319168
0.050351 -0.249427 0.428497
0.153310 -0.048465 0.493425
0.199649 -0.152860 -0.475981
0.130294 -0.427892 -0.256073
-0.079329 -0.488110 -0.098242
0.039779 0.072442 -0.494893
-0.188631 0.299444 -0.400402
0.013811 0.369490 -0.336539
0.218170 -0.039830 -0.498654
-0.049222 0.393586 0.303584
-0.146305 -0.128138 0.478872
0.038197 -0.467312 0.168421
0.021164 0.073858 0.490459
0.171141 0.329680 -0.375852
0.115555 -0.479437 0.131054
-0.190707 -0.025232 0.495307
-0.064049 0.083998 0.488714
-0.246686 0.491874 -0.082928
0.235623 -0.326391 -0.377909
0.251869 0.161319 -0.473437
0.189830 0.245035 -0.435956
0.199074 -0.059169 -0.496564
-0.286184 -0.385374 0.312568
-0.275251 0.065645 0.491622
-0.083857 0.450304 0.211553
-0.210040 0.492310 -0.080396
0.012450 0.357040 0.345431
-0.059970 -0.344263 0.357107
0.046448 0.294539 0.399821
-0.029517 0.429140 0.251330
0.147320 -0.312512 0.385350
-0.197360 -0.487955 -0.098981
-0.082200 0.035567 -0.498906
0.187976 -0.234628 0.436983
-0.247868 -0.277733 -0.415212
-0.058207 0.095549 -0.491014
0.106388 0.488708 -0.101319
-0.077086 0.467336 0.171491
-0.178705 0.494611 -0.064531
-0.137625 0.159874 -0.473935
0.268622 -0.260676 0.422045
0.137006 0.491291 0.083144
0.028603 0.066870 0.491489
0.126795 0.419600 0.266802
0.263298 0.161378 -0.473417
0.123085 -0.464050 0.177116
0.043502 -0.366803 -0.338702
-0.250877 -0.188766 0.458391
-0.223597 -0.495976 -0.040202
0.113537 0.316004 -0.387587
-0.028104 0.119898 -0.485782
-0.211205 0.227708 0.440941
0.017578 0.028646 0.495000
-0.130784 0.338967 0.363094
-0.107799 -0.349026 0.352470
0.088744 -0.040852 -0.498544
-0.079237 -0.491048 0.077417
-0.041546 0.047413 -0.497947
0.201738 0.402159 0.292221
0.063047 -0.426625 0.253774
-0.211949 -0.380885 0.318197
0.198036 -0.000511 0.495824
-0.255381 -0.241351 0.433128
-0.080930 -0.011356 0.495628
0.084767 0.238595 -0.439649
-0.075812 0.286691 -0.409909
0.212542 -0.345546 0.355858
-0.200062 0.036547 0.494646
-0.207147 0.238314 0.435357
-0.032231 -0.387321 0.310127
-0.205540 -0.374817 0.325173
0.177108 0.454799 -0.206055
-0.220734 -0.344602 0.356778
0.023060 -0.180678 0.461763
-0.067336 0.423241 -0.265358
-0.057917 0.388048 0.310837
0.225887 0.497916 0.024564
0.152272 0.229383 -0.444507
0.171713 -0.471144 -0.161836
-0.132516 0.451076 0.209986
0.108039 0.336620 -0.369896
0.104323 0.211423 0.448954
0.051566 0.496934 0.036676
0.254093 0.462281 0.184220
0.147959 -0.489330 0.087400
0.066630 -0.388361 -0.313505
-0.266284 -0.432856 0.243536
0.103960 0.163371 -0.472729
0.045354 0.088108 0.488006
-0.092034 0.425322 0.257988
-0.159463 0.215380 -0.451407
-0.205316 0.432232 0.245938
-0.206789 -0.478018 -0.139947
-0.110152 0.488921 0.094909
-0.227924 0.026418 -0.499648
-0.237835 -0.065811 0.491350
-0.111226 -0.466926 -0.174063
-0.047548 -0.036912 0.494361
-0.132525 -0.424587 -0.261836
0.097826 -0.447280 0.216141
0.093185 0.283415 0.407601
-0.112891 0.320318 -0.383885
0.012429 -0.410092 0.279543
0.148516 0.088963 0.487859
-0.193720 -0.109793 -0.487769
0.169668 0.052491 -0.497535
-0.102460 0.464229 -0.183723
-0.075252 0.198854 0.454594
0.284602 -0.456915 -0.198987
-0.142788 0.012927 0.495705
-0.175702 0.474993 0.149295
-0.251148 -0.244988 -0.435657
-0.143105 -0.386481 0.311180
-0.017296 -0.393518 -0.306669
0.223700 -0.494215 0.054359
-0.267338 0.217428 -0.450398
-0.228292 -0.472293 -0.158505
-0.096526 0.471629 0.159047
-0.220217 0.452143 -0.211972
0.065045 -0.045984 -0.497989
-0.187775 -0.395212 -0.304424
0.253386 -0.448590 0.213253
0.285479 0.498579 -0.004848
-0.051616 -0.053888 0.492985
0.248094 0.105405 0.484702
0.124117 0.464468 -0.183085
0.063570 0.290367 0.402739
-0.202227 0.134463 0.477553
-0.142709 -0.446263 0.218073
-0.093375 -0.202360 0.452723
0.098245 0.445026 0.222265
0.173213 -0.473434 0.150730
-0.042115 -0.222231 -0.447639
-0.092199 -0.496809 -0.029932
-0.272532 0.483382 -0.123936
-0.268141 -0.025948 0.495249
-0.215215 0.363884 -0.342728
-0.221542 -0.056215 0.492738
0.009580 -0.497387 -0.008810
0.247103 0.246507 -0.435112
0.105580 0.390655 0.307469
0.054038 0.496559 -0.046508
-0.257061 -0.496336 0.033279
-0.016446 0.218428 0.445810
0.204582 -0.320739 0.378291
0.130472 0.402847 0.291308
0.201383 0.463941 -0.184491
0.151433 -0.416994 -0.273549
-0.191112 -0.381502 -0.321625
-0.218723 -0.326844 0.373052
0.037896 0.497455 -0.035538
0.283777 -0.461491 0.183936
0.041088 -0.497605 0.004984
-0.175310 0.495742 -0.054065
-0.026537 0.481578 -0.131531
0.083789 0.372779 0.328632
-0.034578 0.492125 0.077376
-0.244191 0.281249 -0.413501
0.031408 -0.444084 -0.226449
0.023535 -0.491028 -0.082230
0.126875 0.354776 0.347756
0.085943 0.373974 -0.331588
-0.194500 -0.332763 -0.372138
0.234568 0.306855 -0.394812
-0.176379 -0.290710 -0.406136
0.004658 0.426220 0.256422
-0.269524 -0.494002 -0.061673
0.208872 0.438841 0.234413
0.145659 -0.484298 0.111417
0.044977 -0.485001 -0.113085
-0.057661 -0.496794 0.023059
-0.233410 -0.491054 0.077383
0.213999 0.105115 -0.489011
-0.090582 0.351583 -0.355332
0.235295 0.323654 -0.381023
-0.199904 0.469037 0.166559
0.048567 -0.487433 0.098227
-0.032177 -0.069742 0.490781
-0.129802 -0.361524 0.339849
0.065936 0.475258 -0.152464
0.115485 0.115510 0.482300
0.083452 -0.464714 0.175346
-0.250182 0.001033 0.495852
0.104780 -0.456235 0.196216
0.174223 -0.481787 0.121984
0.115362 0.495320 0.055298
-0.137395 -0.112276 -0.487179
0.076333 -0.360303 0.341197
0.095533 -0.497522 0.006833
0.255806 -0.099645 0.485588
-0.028729 0.153597 0.471715
-0.113872 0.457026 0.196826
0.147772 -0.149746 0.472722
-0.030342 0.486754 0.105252
0.131583 -0.478924 0.132737
0.117170 -0.310347 0.387050
0.019229 0.316999 -0.386733
-0.094292 0.420149 -0.270430
-0.196214 -0.034962 -0.499024
-0.287061 0.484430 -0.119527
-0.235650 -0.386508 0.311146
-0.143122 -0.221135 -0.448217
-0.181554 -0.436191 0.237202
-0.106351 -0.495452 0.042913
-0.242879 -0.146007 0.473939
0.045571 0.355692 -0.351332
-0.151118 -0.382547 0.316114
0.138482 -0.210119 -0.453433
0.284114 0.209693 -0.454210
-0.037502 -0.380750 0.318367
0.064275 -0.462197 0.182055
-0.096692 -0.473033 0.152043
0.073350 0.496646 0.040240
0.197899 -0.485826 0.104987
0.142559 0.036956 -0.498794
0.105706 -0.310901 0.386632
0.171479 0.472191 -0.162505
0.002465 -0.133937 0.477271
0.050814 0.495338 0.055168
-0.013940 -0.408790 0.281405
0.284556 -0.496368 0.032558
0.021809 0.489832 0.090562
-0.079046 -0.073680 0.490212
0.037677 -0.257108 0.424092
0.277515 -0.371772 0.328534
-0.139322 0.444678 0.222970
-0.088553 -0.029063 0.494997
-0.100947 -0.054723 0.492918
0.020841 0.308255 -0.393755
-0.246069 0.272944 -0.418984
-0.232127 -0.091611 0.487272
-0.152491 -0.257165 -0.428261
0.035013 -0.343036 -0.362834
0.200359 -0.485635 -0.110054
-0.263681 -0.486607 0.101702
-0.127994 -0.388613 0.308506
-0.271854 0.389232 -0.313369
0.017801 -0.357420 -0.348341
0.155473 -0.215408 -0.451059
-0.059058 0.187065 -0.463881
-0.232519 0.484974 0.113750
0.048948 -0.161838 0.468551
0.189857 0.354056 0.348496
-0.220591 0.004079 -0.500131
-0.176503 -0.113625 -0.486858
0.233457 0.494065 -0.069583
-0.049558 -0.217004 0.445749
-0.204424 -0.326448 -0.377858
0.170109 0.383300 0.316370
0.033685 -0.099321 -0.490253
0.036887 0.449796 -0.217202
-0.093813 0.338030 -0.368527
-0.210854 -0.450877 -0.212664
-0.228388 0.490675 -0.089892
0.205387 0.093544 0.487070
0.123809 -0.482581 0.118641
-0.286423 0.178629 -0.467398
-0.076300 0.153766 -0.476043
-0.247191 -0.418382 -0.271447
0.063683 -0.490859 0.078517
-0.068955 -0.084841 0.488597
-0.141323 -0.226317 0.441160
-0.234444 0.286501 -0.410034
0.062067 -0.457257 0.193940
-0.123055 0.440465 0.231520
0.231744 -0.404612 -0.291964
0.097701 -0.408641 0.281618
0.147723 0.389755 -0.312712
0.017874 0.016949 0.495525
0.252164 0.498350 -0.015574
0.285774 -0.186204 0.459459
0.147957 -0.333202 0.367597
-0.242551 -0.203473 0.452259
0.114780 -0.440421 0.229168
-0.285821 0.478465 0.137689
-0.180914 -0.236111 -0.440331
0.017287 -0.248504 -0.433541
0.139522 -0.174968 -0.468169
0.283225 0.386671 -0.316580
0.190752 -0.406789 -0.289008
0.282798 0.079726 -0.493839
0.092206 -0.228289 0.440188
0.042228 -0.409721 -0.284566
0.167599 -0.227493 -0.444868
-0.057777 0.313345 -0.389868
0.044353 0.240703 -0.438440
0.108993 -0.399163 -0.299187
0.219377 -0.297931 0.396417
0.158057 -0.484911 0.108839
0.132199 0.494087 -0.069384
-0.230891 -0.282637 -0.411781
0.215214 0.023624 -0.499779
-0.192106 -0.371109 0.329266
0.178254 -0.233173 -0.441878
0.204416 -0.292085 0.400828
0.157846 0.447966 -0.221138
0.285719 0.311111 -0.391601
0.037994 -0.401814 -0.295673
0.185595 -0.475268 -0.149880
0.044768 0.111985 0.483138
-0.245054 -0.470199 0.160728
0.219451 -0.150424 0.472489
0.044420 -0.395949 0.299306
-0.173579 -0.386180 -0.316173
0.000132 0.359125 0.343288
0.088449 -0.462261 -0.186164
0.286587 -0.341072 -0.364613
0.028797 -0.052776 -0.497255
0.162823 0.163789 -0.472585
-0.135275 -0.171794 0.465117
-0.256595 0.178801 -0.467326
0.073977 -0.155853 -0.475068
-0.182095 -0.454946 -0.203710
0.237258 0.230048 0.439709
-0.241794 0.488427 0.097269
-0.130500 0.486709 -0.109939
0.134908 -0.281712 0.408166
0.156449 -0.004329 -0.500283
-0.150723 0.451637 -0.213102
0.004910 0.287007 -0.409700
0.168407 0.492342 0.075878
0.199930 -0.468403 -0.169781
-0.275162 0.464490 -0.183028
0.223793 0.438880 0.234345
0.239518 -0.202370 -0.456910
-0.175397 -0.482974 -0.121995
-0.240845 0.449806 -0.217180
0.127184 -0.403026 0.289647
0.013314 0.273805 0.414322
-0.085670 -0.217205 0.445650
0.070489 0.298439 -0.401160
-0.116314 0.470284 0.162946
0.003125 0.327135 0.373811
-0.268971 0.004414 0.495912
0.013032 -0.370640 0.329785
0.108893 0.316440 0.382767
-0.011402 -0.376461 0.323357
0.094696 -0.496494 0.029757
0.051824 0.094786 -0.491174
-0.280634 0.276783 -0.416450
0.115958 0.496552 -0.046569
0.114496 0.156788 -0.475000
-0.124414 -0.484297 -0.116441
-0.064141 0.390469 -0.311818
-0.284007 -0.310896 0.386636
-0.260145 -0.460820 0.185724
-0.285631 0.421078 0.264562
-0.073029 -0.494311 -0.059537
-0.256822 0.028663 0.494999
0.192677 -0.315165 0.383073
-0.250699 -0.452129 -0.210123
0.115542 0.139319 -0.480421
0.019640 -0.364106 0.336998
0.108608 0.057046 0.492551
0.259206 0.203072 -0.457207
0.252976 0.452610 -0.210931
-0.189034 0.461382 0.186377
0.064424 -0.458389 -0.195452
0.055968 0.127962 0.479341
-0.067821 0.213046 0.448226
-0.290230 0.485950 0.109089
0.013972 -0.162661 0.468267
-0.045954 -0.460554 0.186433
-0.065168 0.494340 -0.067042
-0.225810 -0.492231 0.070548
-0.258220 -0.367930 -0.337443
0.106446 0.423492 0.260905
-0.289743 0.106120 -0.488800
0.211499 0.138508 0.476319
0.153053 -0.276014 -0.416413
0.002942 0.456013 0.199256
0.216029 0.162344 0.468938
0.010453 0.310410 -0.392129
0.160045 0.489431 0.092474
0.003608 -0.422103 -0.265810
0.197934 0.303565 -0.397293
-0.060437 0.120828 -0.485526
-0.263588 -0.404020 0.288225
0.109850 0.161380 0.469299
-0.154816 0.280073 -0.414278
-0.120552 0.111819 0.483177
0.106948 -0.201158 -0.457454
-0.256878 -0.495349 0.043863
0.074098 -0.414729 -0.276981
-0.017607 0.409825 -0.285744
0.104135 0.141450 0.475421
-0.263070 0.370928 -0.334951
-0.092934 0.404663 0.288902
-0.134362 -0.372497 -0.332120
-0.011952 0.494240 -0.067970
-0.068444 0.378331 -0.326777
0.166617 0.460834 0.187693
0.146311 0.297422 -0.401928
-0.218076 -0.338604 -0.366848
0.051115 -0.118322 0.481581
-0.118896 0.194682 -0.460705
-0.168152 -0.411026 -0.282591
0.049869 0.497470 -0.035195
0.131989 -0.232474 0.438126
0.144813 -0.493841 0.057825
0.074480 -0.230485 -0.443293
0.266103 0.497684 -0.030431
0.112567 0.450808 0.210530
-0.177337 0.028388 -0.499488
-0.113516 -0.111553 -0.487351
-0.126417 -0.497221 0.013549
0.172987 0.496780 0.038577
-0.192511 0.494337 0.062091
-0.160628 -0.496878 0.021198
-0.052495 -0.404033 -0.292731
0.020292 -0.213677 0.447388
-0.281555 -0.336178 -0.369046
-0.173456 0.139550 -0.480357
0.023397 0.478460 0.137708
-0.226631 -0.431930 0.245071
-0.167346 -0.000415 -0.500212
0.176376 0.463886 0.180372
0.206254 0.480349 0.130861
0.249010 0.112154 -0.487536
0.126908 0.497736 -0.029270
0.206906 -0.496254 0.035111
0.207982 -0.471041 -0.162133
-0.054941 0.497381 0.031168
0.051996 -0.446044 0.218490
0.184447 -0.068608 0.490946
-0.183297 -0.187716 -0.463386
-0.030865 -0.491682 -0.077711
0.134314 -0.419104 -0.270354
0.026765 -0.492956 0.066008
-0.180021 -0.059440 -0.496535
-0.056926 -0.229229 0.439725
-0.274498 -0.302355 0.393079
0.039066 0.458964 -0.196773
0.045186 0.164491 0.468132
-0.045101 0.215084 0.447311
0.191382 -0.271359 -0.419608
-0.102792 -0.496940 0.019819
0.211641 -0.399056 -0.299328
0.249249 -0.133206 0.477473
-0.113286 0.395051 0.301643
0.086908 -0.493017 0.065444
-0.260306 -0.269247 -0.420895
-0.239985 0.334257 -0.371924
0.149599 0.254066 0.426422
-0.217875 0.172022 0.465306
0.247618 -0.008559 -0.500209
-0.131325 0.471318 -0.164830
-0.188363 0.495177 -0.059299
0.075876 0.460087 -0.194269
-0.243745 -0.091744 0.487244
-0.254553 -0.287813 -0.408162
0.181757 -0.486382 0.102650
0.158117 -0.479322 0.131430
-0.166124 0.446781 0.218702
-0.105361 -0.362894 0.338336
0.219151 -0.442877 0.224504
0.155642 -0.445874 -0.222816
-0.171624 -0.306272 -0.394410
-0.271047 0.233634 0.437821
0.013081 -0.478225 0.135026
-0.044484 0.212246 -0.452952
0.059646 0.281711 -0.413197
-0.086152 0.109635 0.483696
-0.117070 -0.015551 -0.499895
0.043018 0.205316 -0.456271
-0.149492 0.088072 0.488012
-0.181516 0.393345 0.303903
-0.056650 0.221243 0.444346
0.155201 -0.135361 -0.481320
-0.012828 -0.497099 -0.024797
-0.188637 0.469910 -0.168584
0.169664 0.027623 0.495046
-0.013770 0.060650 -0.496599
0.139385 -0.269030 -0.421028
0.102727 -0.063111 0.491741
0.108604 0.498643 -0.009041
-0.282579 -0.403214 -0.293817
0.245241 0.022461 0.495278
0.141972 0.332023 0.369384
0.283088 -0.447823 0.214962
-0.276195 -0.384750 -0.317841
-0.048254 0.423344 -0.265190
-0.200295 0.495280 0.055568
-0.162077 0.232574 -0.442935
-0.103890 0.421479 0.263955
-0.057922 -0.326297 -0.377994
0.083516 0.364420 0.337850
0.027571 -0.327826 -0.376610
0.050040 -0.405257 -0.291110
0.105238 -0.366326 0.334547
-0.223588 -0.130318 0.478270
0.104179 -0.404996 -0.291455
0.016257 -0.489938 -0.089517
-0.260160 -0.390142 0.306588
0.168757 -0.459373 -0.193091
0.132711 -0.107695 -0.488267
0.166523 -0.478114 -0.139600
-0.288972 -0.120491 0.480982
-0.287371 0.384104 0.315434
-0.119729 0.498534 -0.002305
-0.019183 -0.462151 0.182178
0.080064 -0.496754 0.023969
-0.262041 -0.483438 0.115035
-0.288357 -0.175338 -0.468031
-0.217420 -0.493658 0.059517
-0.168224 -0.153481 0.471434
0.092790 0.268494 -0.421922
-0.073338 -0.496931 -0.028423
-0.228370 -0.219736 0.444402
0.174079 0.055789 0.492687
-0.272120 0.149965 0.472823
0.155042 0.472516 -0.161451
-0.158412 -0.272359 -0.418970
-0.184518 -0.459581 -0.192592
0.069221 -0.304593 0.391391
-0.289713 0.427128 0.254838
-0.247151 -0.381512 -0.321614
0.145895 -0.185585 0.459717
0.192902 0.339603 -0.366995
-0.218912 0.242487 0.433160
0.111981 0.496502 0.042008
0.083026 -0.490001 -0.089216
-0.104250 0.408809 0.283146
-0.216443 0.372300 0.329190
-0.008420 -0.477403 -0.142177
0.108504 0.296954 0.398132
-0.166308 -0.485724 0.105417
0.196985 0.035408 0.494697
-0.255484 -0.488192 -0.097850
0.154235 0.443401 0.225562
0.146359 0.164540 -0.472326
0.132717 0.240571 0.434169
-0.275579 0.335658 -0.370722
0.018549 0.494283 -0.067564
0.137251 -0.026281 0.495222
0.171302 -0.442130 0.225923
-0.193498 -0.082678 0.488910
0.122464 -0.225292 0.441665
-0.060079 -0.484932 -0.113413
0.073902 0.301832 0.394415
0.055625 -0.263159 -0.424607
-0.094086 -0.054948 -0.497020
0.036824 0.486510 -0.110774
0.069145 -0.247002 0.429887
0.063042 0.479675 0.133303
-0.156164 0.119479 -0.485898
-0.208426 -0.293114 -0.404455
0.255366 -0.481520 0.123108
-0.231715 0.171281 0.465584
-0.157659 0.496977 0.036147
0.189338 0.478494 0.137584
-0.206479 0.285723 -0.410548
-0.171248 0.436478 0.238534
-0.094507 -0.132284 -0.482259
-0.182131 0.412110 -0.282477
-0.025942 -0.439337 0.231228
0.146655 -0.386605 0.311025
0.270668 0.363940 0.338343
0.082114 0.212224 0.448594
0.163518 0.155802 0.471042
-0.086116 -0.451372 -0.211659
-0.248399 -0.432871 0.243508
0.224388 -0.102967 -0.489391
-0.085375 -0.471890 -0.159672
0.041586 -0.220540 -0.448529
-0.274426 -0.494064 0.055756
-0.172947 -0.196213 -0.459673
-0.230899 -0.466628 -0.174926
0.242353 -0.488628 0.091475
-0.200963 0.493422 -0.073935
-0.191871 -0.270854 -0.419916
-0.062755 -0.335156 -0.369971
0.118583 0.168382 0.466672
0.171319 0.246843 0.430825
0.100882 -0.395000 -0.304704
0.023602 -0.281004 0.408633
0.205776 -0.487811 -0.099671
-0.031038 -0.089945 -0.491867
0.274378 0.250942 0.428327
-0.232629 -0.360823 -0.344846
0.033543 -0.023775 0.495405
-0.187412 -0.408565 0.281726
-0.062285 -0.413427 -0.278953
-0.089728 -0.198379 -0.458701
0.013104 -0.018572 -0.499760
0.281804 -0.407949 0.282607
-0.212832 0.370794 -0.335099
-0.003782 0.462588 0.183485
-0.205923 -0.493726 -0.063579
0.152367 0.350435 -0.356450
-0.015322 -0.264065 -0.424054
-0.153011 -0.054616 -0.497056
0.074096 0.178406 -0.467491
-0.141745 -0.468776 -0.168701
0.283456 0.289582 -0.407842
0.075108 0.031981 0.494851
-0.083100 0.451711 -0.212935
-0.071840 0.333298 -0.372747
0.266161 0.382351 0.317477
0.080322 0.217161 -0.450530
0.145036 -0.442162 0.225863
0.222708 -0.148023 -0.477456
-0.052012 0.498202 0.016122
0.086082 0.463236 0.181929
0.006212 -0.480288 -0.131723
-0.044468 -0.428362 -0.255253
0.024974 -0.480348 0.128041
-0.037091 -0.396111 0.299103
0.124600 0.361875 0.340464
0.286214 0.339491 -0.367105
0.259715 -0.271100 0.415172
0.161183 -0.412513 -0.280337
-0.040290 0.496607 -0.046065
0.202807 -0.039083 -0.498735
-0.014107 -0.424805 0.256758
0.076099 0.420207 0.265882
-0.068357 0.455306 -0.204924
0.279047 0.117653 0.481791
-0.007880 0.316515 -0.387148
-0.161779 0.393108 0.304217
-0.255544 0.319291 0.380493
-0.173258 -0.327696 -0.376727
0.221727 -0.254459 0.425611
0.271544 -0.379881 -0.323514
-0.233202 -0.091898 -0.491531
0.112952 0.435790 -0.244263
-0.147779 -0.496925 0.020142
0.247293 0.011194 -0.500003
0.249323 0.489132 -0.098852
-0.161533 0.428198 -0.257228
-0.178039 0.334019 -0.372129
0.161971 -0.262618 -0.424936
0.272231 -0.270081 0.415845
-0.227499 0.365762 -0.340655
-0.261999 -0.281180 -0.412800
0.018630 0.237882 -0.440058
-0.093237 0.107653 -0.488479
-0.148921 -0.371100 0.329276
-0.037797 -0.493324 -0.066364
-0.180653 0.274292 -0.418094
-0.039016 -0.410091 0.279546
-0.237759 0.485024 -0.117029
-0.240581 0.379037 -0.325998
-0.105352 -0.048113 -0.497759
0.047348 -0.283296 0.407120
-0.194830 -0.486687 0.101365
0.205534 0.073147 0.490582
0.141976 -0.046873 0.493554
-0.017593 -0.334468 -0.370594
-0.272302 0.213879 0.447852
-0.220031 -0.191378 -0.461842
-0.092771 -0.497436 -0.006080
-0.207413 0.471767 0.158646
0.120478 0.498344 0.008244
0.182696 0.492916 0.071910
-0.244725 -0.497246 0.012987
-0.279036 0.205894 0.451435
0.113437 -0.382456 0.316228
0.286120 -0.181901 -0.465568
-0.063939 -0.283036 -0.411502
0.044973 -0.419351 0.265705
-0.196678 -0.036768 0.494372
0.237644 0.484607 0.115439
-0.074410 0.194108 -0.460944
-0.241472 0.455685 -0.204079
0.150667 0.160822 0.469509
-0.266047 -0.207592 -0.454567
-0.017347 -0.300665 -0.398882
0.082595 -0.370232 0.330234
0.143609 0.212406 -0.452873
0.235791 -0.479873 0.129627
-0.206753 -0.247671 0.429503
-0.040475 0.397528 0.298359
-0.099352 0.206219 -0.455895
-0.236840 0.494377 -0.066695
0.236118 -0.150854 0.472340
0.190631 0.154388 -0.475828
-0.223472 0.380028 0.320184
-0.202718 0.328045 0.372986
-0.251879 0.453948 -0.207950
-0.222982 0.331064 0.370252
0.020865 0.135702 0.477175
0.030229 0.153871 -0.476006
-0.228859 -0.412167 -0.280862
