-0.290288 -0.233546 -0.393215
-0.290288 0.198338 0.412073
-0.290288 -0.452450 0.048593
-0.290288 -0.298826 -0.398987
-0.290288 0.323453 0.371669
-0.290288 0.292287 0.336994
-0.290288 0.386406 0.220204
-0.290288 0.437041 -0.133520
-0.290288 -0.005786 -0.471330
-0.290288 -0.482768 0.040565
-0.290288 0.030528 -0.493102
-0.290288 -0.145585 -0.465073
-0.290288 0.309715 -0.356656
-0.290288 -0.414607 0.187605
-0.290288 0.049754 -0.477737
-0.290288 0.353909 -0.339561
-0.290288 0.432871 0.109999
-0.290288 0.223932 0.404486
-0.290288 0.455740 0.012033
-0.290288 -0.048655 0.464913
-0.290288 0.422782 0.188731
-0.290288 0.341766 -0.309306
-0.290288 0.319646 0.375882
-0.290288 -0.415498 0.271738
-0.290288 -0.402916 0.243210
-0.290288 -0.147057 0.458338
-0.290288 0.479885 0.017917
-0.290288 0.353682 0.344780
-0.290288 0.388286 -0.303363
-0.290288 -0.465694 0.152697
-0.290288 -0.372812 0.292242
-0.290288 0.188919 -0.422094
-0.290288 -0.416533 -0.172471
-0.290288 -0.459344 -0.163155
-0.290288 -0.212330 0.417039
-0.290288 -0.105752 0.477670
-0.290288 0.061529 -0.492431
-0.290288 0.182311 0.452015
-0.290288 -0.427799 0.216247
-0.290288 0.258540 -0.406452
-0.290288 -0.173391 -0.413600
-0.290288 0.415775 0.240534
-0.290288 -0.122311 -0.457441
-0.290288 -0.325634 0.316443
-0.290288 -0.426086 0.155934
-0.290288 0.493525 0.013706
-0.290288 0.204607 -0.415171
-0.290288 0.442860 0.091105
-0.290288 -0.106260 -0.457685
-0.290288 0.076850 -0.463965
-0.290288 0.406637 -0.284927
-0.290288 0.110734 0.469367
-0.290288 0.304679 0.351935
-0.290288 -0.207935 -0.454056
-0.290288 -0.330508 0.348456
-0.290288 -0.232795 0.408498
-0.290288 0.083021 -0.492639
-0.290288 0.414984 -0.260845
-0.290288 -0.430566 -0.174974
-0.290288 0.463699 -0.126822
-0.290288 -0.456673 0.092770
-0.290288 -0.317945 -0.373359
-0.290288 0.491247 0.080655
-0.290288 -0.155146 -0.461107
-0.290288 -0.493162 -0.061597
-0.290288 0.200697 0.408671
-0.290288 -0.159754 -0.428593
-0.290288 0.263368 0.366764
-0.290288 -0.466129 0.024501
-0.290288 -0.421102 0.235466
-0.290288 -0.024917 -0.447193
-0.290288 0.475949 -0.094225
-0.290288 -0.269167 0.381336
-0.290288 -0.225676 0.433354
-0.290288 -0.468881 0.130177
-0.290288 0.118986 -0.431421
-0.290288 0.379242 0.315114
-0.290288 -0.204025 -0.444641
-0.290288 -0.298585 -0.360915
-0.290288 -0.477427 -0.129663
-0.290288 0.388069 -0.224776
-0.290288 -0.367392 0.275474
-0.290288 -0.469960 0.102050
-0.290288 0.020141 0.479569
-0.290288 -0.456453 -0.008693
-0.290288 0.465220 -0.016938
-0.290288 -0.360961 -0.325860
-0.290288 -0.217116 0.438240
-0.290288 0.137487 -0.442396
-0.290288 -0.091946 -0.450015
-0.290288 -0.482284 -0.035843
-0.290288 0.101640 0.470801
-0.290288 -0.454068 -0.133323
-0.290288 -0.404336 -0.290567
-0.290288 -0.221065 -0.404947
-0.290288 -0.428340 0.168818
-0.290288 0.424033 -0.184961
-0.290288 -0.380574 -0.256325
-0.290288 0.470483 -0.146520
-0.290288 0.426580 0.255380
-0.290288 -0.176211 0.454999
-0.290288 0.297719 -0.351602
-0.290288 -0.216574 -0.415946
-0.290288 -0.350151 0.279086
-0.290288 -0.250033 0.408105
-0.290288 0.484940 0.045512
-0.290288 0.392100 0.238158
-0.290288 0.440075 0.156524
-0.290288 0.396116 0.235051
-0.290288 -0.385079 0.303102
-0.290288 -0.465668 -0.018880
-0.290288 -0.236881 0.375041
-0.290288 -0.423257 0.214616
-0.290288 -0.442595 0.205185
-0.290288 -0.225839 0.440739
-0.290288 0.173049 0.452386
-0.290288 0.443200 0.076758
-0.290288 0.303254 0.346652
-0.290288 0.023241 0.455729
-0.290288 -0.288534 0.371147
-0.290288 -0.357704 -0.324795
-0.290288 -0.307098 0.324738
-0.290288 -0.469167 0.062591
-0.290288 -0.396855 -0.252713
-0.290288 0.184215 0.409724
-0.290288 -0.046242 0.477004
-0.290288 -0.468938 0.017803
-0.290288 -0.038047 -0.450316
-0.290288 0.455621 0.068335
-0.290288 0.335371 -0.315498
-0.290288 0.470940 -0.018870
-0.290288 -0.388860 0.242668
-0.290288 -0.348596 0.295545
-0.290288 -0.312275 -0.338015
-0.290288 -0.446959 0.033731
-0.290288 0.434618 -0.181508
-0.290288 -0.245273 0.381712
-0.290288 -0.313534 0.379061
-0.290288 0.442052 -0.149020
-0.290288 -0.141960 0.419864
-0.290288 -0.493363 -0.026311
-0.290288 -0.375240 0.269181
-0.290288 0.054540 0.472187
-0.290288 0.410655 0.265920
-0.290288 0.166508 0.444509
-0.290288 0.396070 0.231286
-0.290288 0.161531 -0.468243
-0.290288 0.233503 0.400885
-0.290288 0.442286 0.095268
-0.290288 -0.466607 -0.063938
-0.290288 0.009914 0.443451
-0.290288 0.485848 0.106286
-0.290288 0.019150 0.484198
-0.290288 -0.453589 0.017582
-0.290288 -0.003284 -0.495518
-0.290288 0.457659 0.015285
-0.290288 -0.448783 -0.125710
-0.290288 -0.376292 0.251595
-0.290288 0.055874 -0.473275
-0.290288 0.035170 -0.446778
-0.290288 0.466215 0.089105
-0.290288 0.432908 0.238029
-0.290288 -0.465559 0.071228
-0.290288 0.460683 0.026467
-0.290288 -0.449732 -0.128663
-0.290288 -0.097688 0.441842
-0.290288 0.399646 -0.265617
-0.290288 0.152431 -0.421531
-0.290288 -0.336186 0.307887
-0.290288 -0.413762 0.268747
-0.290288 0.113295 0.472905
-0.290288 0.201593 0.397429
-0.290288 0.353428 -0.307107
-0.290288 0.018736 -0.451369
-0.290288 -0.185262 0.402831
-0.290288 -0.181102 0.432320
-0.290288 0.311332 -0.330618
-0.290288 0.146988 0.469956
-0.290288 0.493898 -0.042314
-0.290288 -0.462061 -0.104840
-0.290288 -0.240391 0.373385
-0.290288 0.409010 -0.272979
-0.290288 -0.201454 -0.449413
-0.290288 -0.143622 0.461379
-0.290288 0.350959 0.306063
-0.290288 0.274013 0.370740
-0.290288 0.433651 0.101077
-0.290288 0.038737 0.483697
-0.290288 0.418600 -0.267427
-0.290288 -0.393915 -0.283634
-0.290288 0.341368 0.356812
-0.290288 0.272344 -0.389880
-0.290288 -0.292760 0.341018
-0.290288 -0.000032 -0.467722
-0.290288 0.122371 0.430823
-0.290288 -0.440838 -0.198882
-0.290288 -0.457401 -0.186115
-0.290288 -0.425004 0.237722
-0.290288 0.164688 -0.418961
-0.290288 -0.319755 0.369100
-0.290288 0.132152 0.428862
-0.290288 -0.384734 -0.302500
-0.290288 0.245400 -0.420884
-0.290288 -0.389132 -0.245699
-0.290288 0.489460 0.035686
-0.290288 0.307394 0.325993
-0.290288 0.395011 0.205347
-0.290288 -0.108825 -0.484159
-0.290288 0.416550 -0.162471
-0.290288 0.003382 -0.465178
-0.290288 0.433547 0.121214
-0.290288 -0.363455 0.337220
-0.290288 0.433159 -0.234662
-0.290288 -0.421638 0.141345
-0.290288 -0.102112 -0.439551
-0.290288 -0.298309 0.362010
-0.290288 0.463789 0.123767
-0.290288 0.215712 -0.431702
-0.290288 -0.188030 -0.424534
-0.290288 0.457906 -0.035738
-0.290288 -0.357953 0.330512
-0.290288 0.380409 -0.260529
-0.290288 0.402476 0.223051
-0.290288 0.062480 0.466626
-0.290288 -0.473129 -0.030944
-0.290288 -0.047252 0.480946
-0.290288 0.017619 -0.464360
-0.290288 -0.484656 0.063671
-0.290288 -0.478661 0.002246
-0.290288 0.466949 0.051998
-0.290288 -0.376400 0.310736
-0.290288 0.434809 -0.228066
-0.290288 0.236693 0.424227
-0.290288 -0.454414 0.090667
-0.290288 -0.011328 -0.458285
-0.290288 -0.434254 0.239670
-0.290288 0.186860 -0.450115
-0.290288 -0.416158 -0.168824
-0.290288 -0.128537 -0.450008
-0.290288 0.285432 -0.400196
-0.290288 0.002018 0.464348
-0.290288 0.408352 0.222377
-0.290288 0.068108 0.448476
-0.290288 0.321428 -0.359447
-0.290288 0.452206 0.065603
-0.290288 -0.414942 -0.181843
-0.290288 0.476512 -0.006989
-0.290288 -0.462244 0.179421
-0.290288 -0.043904 -0.497746
-0.290288 0.382769 -0.241943
-0.290288 0.082937 -0.479858
-0.290288 0.454043 0.131412
-0.290288 0.367929 -0.254624
-0.290288 -0.278344 0.395605
-0.290288 -0.492593 -0.069786
-0.290288 0.494428 0.052137
-0.290288 -0.142686 0.457301
-0.290288 -0.458959 -0.142533
-0.290288 -0.407736 0.221750
-0.290288 0.289419 0.382909
-0.290288 -0.303443 0.372121
-0.290288 0.003451 0.450395
-0.290288 0.014047 0.468946
-0.290288 -0.220302 0.400106
-0.290288 0.436996 -0.170025
-0.290288 -0.082122 0.460968
-0.290288 0.415356 -0.183821
-0.290288 -0.097540 -0.486724
-0.290288 -0.455484 0.123524
-0.290288 0.430959 0.230379
-0.290288 0.334863 -0.310515
-0.290288 0.126076 0.479588
-0.290288 -0.443810 -0.139916
-0.290288 -0.346235 -0.351115
-0.290288 -0.448285 -0.205500
-0.290288 -0.333715 0.347226
-0.290288 0.449014 0.039558
-0.290288 0.417854 0.198133
-0.290288 0.331950 0.314823
-0.290288 -0.331544 0.314221
-0.290288 0.204554 0.418775
-0.290288 -0.492934 0.049379
-0.290288 0.131492 -0.466170
-0.290288 0.093333 0.475172
-0.290288 0.009011 -0.481851
-0.290288 -0.268611 -0.383961
-0.290288 -0.180669 0.459421
-0.290288 0.196291 -0.410785
-0.290288 -0.329994 0.301233
-0.290288 -0.400336 -0.290081
-0.290288 -0.474852 0.109506
-0.290288 -0.472225 0.061406
-0.290288 0.490265 0.025407
-0.290288 -0.341173 -0.340127
-0.290288 -0.207083 -0.436344
-0.290288 0.108187 -0.484559
-0.290288 -0.209740 0.419889
-0.290288 -0.372132 0.272271
-0.290288 0.028520 0.468300
-0.290288 -0.123482 0.460308
-0.290288 -0.435943 0.218588
-0.290288 -0.461016 -0.053719
-0.290288 -0.340878 -0.345521
-0.290288 0.370981 0.326226
-0.290288 -0.374731 0.254488
-0.290288 -0.279715 0.398574
-0.290288 0.358550 -0.267797
-0.290288 0.245261 -0.415253
-0.290288 0.264645 0.363985
-0.290288 0.038432 -0.498339
-0.290288 0.143140 0.423553
-0.290288 -0.112715 -0.457586
-0.290288 -0.194836 -0.451859
-0.290288 -0.416270 -0.243949
-0.290288 -0.407237 -0.233977
-0.290288 0.004378 -0.448223
-0.290288 0.224608 0.432599
-0.290288 -0.093816 -0.453823
-0.290288 -0.493184 0.052676
-0.290288 0.332578 0.334266
-0.290288 0.460112 0.176725
-0.290288 0.463266 0.181378
-0.290288 0.121018 0.426969
-0.290288 0.142562 -0.439628
-0.290288 0.393857 0.209053
-0.290288 -0.452673 -0.195953
-0.290288 -0.018810 -0.498946
-0.290288 0.447447 -0.176529
-0.290288 -0.055577 -0.489116
-0.290288 0.185982 0.434181
-0.290288 -0.044800 -0.490944
-0.290288 0.373171 0.291443
-0.290288 0.215788 0.412506
-0.290288 0.427964 -0.238751
-0.290288 -0.265993 -0.422041
-0.290288 0.455528 -0.168548
-0.290288 -0.447649 0.094213
-0.290288 0.417636 0.252065
-0.290288 -0.490694 -0.079954
-0.290288 -0.450265 -0.151085
-0.290288 -0.259665 0.405518
-0.290288 0.014750 -0.462461
-0.290288 -0.471085 0.120418
-0.290288 0.483138 -0.030658
-0.290288 -0.458649 0.124402
-0.290288 0.408710 0.211967
-0.290288 0.099281 0.449941
-0.290288 0.288477 0.337952
-0.290288 -0.328158 -0.309769
-0.290288 0.369620 -0.257992
-0.290288 -0.117875 0.473992
-0.290288 0.092162 0.464156
-0.290288 0.325040 -0.361203
-0.290288 -0.041992 0.452396
-0.290288 -0.416471 -0.268357
-0.290288 0.291249 0.355102
-0.290288 0.156110 -0.455268
-0.290288 0.390484 -0.217572
-0.290288 -0.485250 0.090024
-0.290288 -0.109016 0.481268
-0.290288 0.139650 -0.458751
-0.290288 -0.252268 -0.374504
-0.290288 -0.038637 0.472076
-0.290288 -0.055386 0.455806
-0.290288 -0.251618 -0.412785
-0.290288 0.466184 -0.124042
-0.290288 -0.473369 0.068138
-0.290288 0.393103 0.251988
-0.290288 -0.014201 -0.453934
-0.290288 -0.168139 -0.468287
-0.290288 -0.297806 -0.371558
-0.290288 -0.359536 0.337316
-0.290288 -0.236116 -0.407752
-0.290288 0.483819 -0.078870
-0.290288 -0.020903 0.443644
-0.290288 0.280870 -0.371286
-0.290288 0.303136 0.367534
-0.290288 0.465975 -0.065200
-0.290288 -0.307309 -0.393106
-0.290288 -0.479735 0.028754
-0.290288 -0.276069 0.367107
-0.290288 0.429399 0.164322
-0.290288 0.196397 -0.402170
-0.290288 0.451343 -0.010239
-0.290288 -0.445584 0.070567
-0.290288 -0.215400 -0.423209
-0.290288 -0.233502 -0.381189
-0.290288 0.000805 -0.453880
-0.290288 0.144922 -0.473199
-0.290288 0.479534 -0.013494
-0.290288 -0.418698 0.181791
-0.290288 0.029744 -0.467560
-0.290288 -0.287725 0.385383
-0.290288 0.298130 0.359045
-0.290288 0.097556 -0.469969
-0.290288 0.390047 0.276250
-0.290288 0.194463 0.415498
-0.290288 -0.328172 -0.343013
-0.290288 -0.045044 0.472565
-0.290288 -0.487606 0.087508
-0.290288 -0.096350 0.463808
-0.290288 -0.349098 0.326645
-0.290288 0.239053 -0.404374
-0.290288 -0.183575 -0.453745
-0.290288 -0.424824 -0.211799
-0.290288 -0.392670 0.291076
-0.290288 0.357278 0.345176
-0.290288 -0.425174 0.152436
-0.290288 0.470086 -0.010703
-0.290288 -0.204875 0.406699
-0.290288 0.310957 -0.374521
-0.290288 0.251434 0.405938
-0.290288 0.183643 0.414506
-0.290288 0.014611 -0.489960
-0.290288 -0.134840 0.434077
-0.290288 0.497039 -0.001324
-0.290288 -0.153035 -0.426884
-0.290288 0.217752 0.406962
-0.290288 0.146717 -0.466279
-0.290288 0.219381 -0.436686
-0.290288 -0.427944 0.120754
-0.290288 0.424225 0.135819
-0.290288 -0.415764 0.221285
-0.290288 0.313863 -0.370809
-0.290288 -0.285759 0.374510
-0.290288 -0.202964 -0.437213
-0.290288 -0.248138 -0.414393
-0.290288 0.335540 -0.320807
-0.290288 0.470328 0.015950
-0.290288 -0.232141 -0.403860
-0.290288 0.475818 0.110436
-0.290288 -0.120302 0.430399
-0.290288 -0.400830 -0.293422
-0.290288 0.219437 -0.444620
-0.290288 -0.421867 -0.238258
-0.290288 -0.286214 -0.376614
-0.290288 0.047129 0.484820
-0.290288 -0.468353 0.004556
-0.290288 0.348256 0.295160
-0.290288 -0.020477 0.451338
-0.290288 -0.216678 0.395482
-0.290288 -0.485934 0.067752
-0.290288 0.022240 0.488928
-0.290288 -0.446365 -0.048324
-0.290288 0.341635 -0.334386
-0.290288 0.420349 0.238294
-0.290288 -0.209353 0.399405
-0.290288 -0.469319 -0.046712
-0.290288 0.030918 -0.481500
-0.290288 0.047914 0.458902
-0.290288 0.431488 0.137468
-0.290288 0.411558 -0.202276
-0.290288 -0.081151 0.438862
-0.290288 0.286740 -0.372327
-0.290288 -0.012774 0.488861
-0.290288 0.419432 -0.249595
-0.290288 -0.262685 0.397067
-0.290288 0.493911 -0.013375
-0.290288 0.466564 0.114434
-0.290288 0.084997 -0.445585
-0.290288 -0.213630 0.402549
-0.290288 -0.018707 -0.477582
-0.290288 0.212273 -0.439660
-0.290288 0.458222 -0.173544
-0.290288 -0.270261 0.351645
-0.290288 0.475062 -0.003750
-0.290288 0.132705 -0.463220
-0.290288 -0.032245 -0.454421
-0.290288 0.045025 -0.445310
-0.290288 0.172565 0.408693
-0.290288 0.194597 0.426579
-0.290288 -0.193793 -0.438488
-0.290288 0.484322 0.007482
-0.290288 0.118052 0.445659
-0.290288 -0.428112 -0.130527
-0.290288 0.412530 0.210691
-0.290288 -0.216860 -0.397078
-0.290288 0.437988 0.082253
-0.290288 -0.412360 0.234117
-0.290288 -0.018314 0.470409
-0.290288 0.086351 -0.475210
-0.290288 -0.313704 -0.374736
-0.290288 -0.370670 0.329288
-0.290288 0.159073 0.468974
-0.290288 0.035417 0.456532
-0.290288 -0.061483 -0.471938
-0.290288 -0.490560 -0.083669
-0.290288 0.457640 -0.151686
-0.290288 0.275290 0.413226
-0.290288 -0.439758 -0.215530
-0.290288 -0.108451 0.445360
-0.290288 0.167796 -0.416694
-0.290288 -0.479721 -0.024276
-0.290288 0.181854 0.422569
-0.290288 -0.373211 0.245746
-0.290288 0.451611 0.020915
-0.290288 -0.258685 0.408682
-0.290288 -0.391328 -0.255080
-0.290288 0.245483 0.431388
-0.290288 0.439163 0.145085
-0.290288 -0.443016 0.100318
-0.290288 0.463603 0.086526
-0.290288 0.197455 0.440032
-0.290288 0.221421 0.434977
-0.290288 0.439356 0.152120
-0.290288 -0.357859 0.268837
-0.290288 0.385017 0.306122
-0.290288 -0.422524 -0.198037
-0.290288 0.448877 0.184122
-0.290288 -0.474194 0.133191
-0.290288 -0.478560 0.032799
-0.290288 -0.419710 0.263931
-0.290288 0.491106 -0.083496
-0.290288 -0.317262 -0.328069
-0.290288 -0.459924 -0.005639
-0.290288 0.354463 0.334761
-0.290288 0.280373 0.350231
-0.290288 0.493303 -0.049306
-0.290288 -0.304061 -0.378707
-0.290288 0.423810 0.200397
-0.290288 -0.475247 0.058888
-0.290288 0.187759 0.438254
-0.290288 0.465117 -0.036113
-0.290288 -0.442791 -0.078053
-0.290288 0.369844 -0.284106
-0.290288 0.422043 -0.169659
-0.290288 0.447003 -0.064970
-0.290288 0.453076 -0.054108
-0.290288 0.418288 0.204597
-0.290288 -0.393932 0.204994
-0.290288 -0.483682 0.016231
-0.290288 -0.430692 0.246553
-0.290288 -0.099573 0.469729
-0.290288 -0.243166 -0.418856
-0.290288 0.465841 -0.132980
-0.290288 -0.426914 0.144413
-0.290288 0.354941 -0.300593
-0.290288 0.460132 -0.062292
-0.290288 -0.463769 -0.143465
-0.290288 -0.285672 0.394533
-0.290288 -0.374460 -0.250937
-0.290288 -0.347297 -0.303923
-0.290288 -0.435531 -0.187090
-0.290288 -0.254900 0.387503
-0.290288 -0.074011 -0.457819
-0.290288 0.411719 -0.234987
-0.290288 -0.402369 0.280969
-0.290288 0.305827 -0.335311
-0.290288 -0.378240 -0.294744
-0.290288 -0.411710 0.221595
-0.290288 -0.202688 0.446680
-0.290288 0.350153 0.351401
-0.290288 0.428408 0.149614
-0.290288 -0.235881 0.412853
-0.290288 -0.398512 -0.279738
-0.290288 0.406336 0.283170
-0.290288 0.336911 -0.325615
-0.290288 -0.251134 0.374889
-0.290288 0.487533 0.096239
-0.290288 0.416854 -0.270097
-0.290288 -0.369211 0.247900
-0.290288 -0.031187 -0.447391
-0.290288 -0.180060 -0.418189
-0.290288 0.386862 0.226302
-0.290288 -0.077661 -0.474746
-0.290288 0.421901 -0.227900
-0.290288 0.108721 -0.437612
-0.290288 0.046978 -0.462605
-0.290288 -0.430745 -0.207862
-0.290288 0.018428 0.471512
-0.290288 0.161832 0.462830
-0.290288 -0.262235 0.373315
-0.290288 -0.435431 0.225196
-0.290288 -0.059557 -0.464296
-0.290288 0.125810 0.467779
-0.290288 -0.440874 0.221766
-0.290288 0.369776 0.254249
-0.290288 -0.443234 -0.226607
-0.290288 0.401735 -0.218006
-0.290288 -0.159650 -0.441298
-0.290288 0.448171 -0.220221
-0.290288 0.253399 -0.395023
-0.290288 0.387167 -0.268530
-0.290288 0.145573 0.429312
-0.290288 0.278400 0.386211
-0.290288 0.395954 -0.261447
-0.290288 0.445733 -0.210714
-0.290288 0.177816 0.418360
-0.290288 -0.150066 0.462552
-0.290288 0.294727 -0.393862
-0.290288 -0.193653 -0.402996
-0.290288 -0.494544 0.000566
-0.290288 0.474252 0.137119
-0.290288 -0.144662 -0.477286
-0.290288 0.415449 -0.202911
-0.290288 -0.477316 -0.137178
-0.290288 0.189676 0.405704
-0.290288 0.441806 -0.144609
-0.290288 -0.128842 0.444177
-0.290288 0.157832 0.439753
-0.290288 -0.477943 -0.043883
-0.290288 0.321925 0.349630
-0.290288 0.001088 -0.474879
-0.290288 -0.057724 -0.452874
-0.290288 0.458496 0.023910
-0.290288 -0.418797 -0.177104
-0.290288 -0.218530 -0.403110
-0.290288 -0.306013 0.367174
-0.290288 0.482343 0.048250
-0.290288 0.261064 -0.395969
-0.290288 -0.436393 0.161593
-0.290288 -0.352285 0.333809
-0.290288 -0.447771 -0.102102
-0.290288 -0.149192 0.455764
-0.290288 -0.009224 -0.490535
-0.290288 0.320758 -0.318793
-0.290288 0.185524 -0.419482
-0.290288 -0.346543 0.319652
-0.290288 -0.185431 0.454576
-0.290288 -0.406662 0.230043
-0.290288 0.318233 0.348054
-0.290288 0.275874 -0.389325
-0.290288 -0.410128 -0.213275
-0.290288 0.179385 0.406092
-0.290288 0.082174 -0.447355
-0.290288 -0.446570 0.080676
-0.290288 -0.281357 0.365397
-0.290288 -0.265304 0.390108
-0.290288 -0.093934 -0.482485
-0.290288 0.326228 0.321074
-0.290288 -0.333009 -0.356170
-0.290288 0.157806 -0.432771
-0.290288 0.283315 0.348179
-0.290288 -0.388170 -0.271980
-0.290288 0.356457 0.297568
-0.290288 -0.106913 -0.474455
-0.290288 -0.483061 0.044342
-0.290288 0.452580 -0.082610
-0.290288 0.428400 0.198685
-0.290288 -0.131673 -0.470308
-0.290288 -0.239426 -0.378939
-0.290288 -0.262510 0.379776
-0.290288 0.281114 0.378702
-0.290288 0.265411 -0.408417
-0.290288 0.397891 -0.258556
-0.290288 0.292924 0.359265
-0.290288 -0.340410 -0.332534
-0.290288 -0.184984 -0.446734
-0.290288 0.446692 -0.094407
-0.290288 0.322128 -0.339339
-0.290288 0.011486 0.479524
-0.290288 -0.235822 0.418524
-0.290288 -0.370940 0.289328
-0.290288 0.444065 -0.214420
-0.290288 -0.088281 -0.478565
-0.290288 -0.476060 -0.023946
-0.290288 0.071001 0.460458
-0.290288 -0.427320 0.183111
-0.290288 0.468667 0.032456
-0.290288 0.440471 0.148761
-0.290288 -0.459105 -0.176798
-0.290288 0.360699 -0.285252
-0.290288 -0.412026 -0.273318
-0.290288 -0.466515 -0.007196
-0.290288 0.276826 0.372233
-0.290288 -0.449554 -0.158675
-0.290288 0.454900 -0.175842
-0.290288 -0.108667 -0.452793
-0.290288 0.159188 -0.445321
-0.290288 0.266667 0.366405
-0.290288 -0.230685 -0.391625
-0.290288 -0.432173 0.219350
-0.290288 -0.166943 -0.434323
-0.290288 0.216281 -0.419844
-0.290288 -0.002355 -0.475114
-0.290288 0.091056 -0.450483
-0.290288 0.114195 -0.449800
-0.290288 0.154364 -0.435642
-0.290288 0.138297 0.426492
-0.290288 -0.493485 -0.042160
-0.290288 -0.482746 0.117377
-0.290288 0.482370 -0.059177
-0.290288 -0.040444 -0.497329
-0.290288 0.049800 -0.454362
-0.290288 -0.342624 -0.329525
-0.290288 0.283904 0.371783
-0.290288 0.263093 -0.387074
-0.290288 0.348898 -0.342500
-0.290288 -0.392821 0.264033
-0.290288 0.423930 -0.253067
-0.290288 -0.480965 -0.045294
-0.290288 0.073381 -0.471543
-0.290288 -0.253008 0.401380
-0.290288 0.470725 0.158029
-0.290288 0.213842 -0.395960
-0.290288 -0.168994 -0.456710
-0.290288 -0.156641 0.466554
-0.290288 -0.289349 -0.374869
-0.290288 -0.259736 0.411590
-0.290288 0.385512 -0.286089
-0.290288 0.417607 -0.195716
-0.290288 0.086336 -0.448597
-0.290288 0.337795 -0.356809
-0.290288 -0.460375 -0.160083
-0.290288 -0.026341 -0.477933
-0.290288 -0.486631 0.019931
-0.290288 0.303255 0.381039
-0.290288 0.493782 -0.025816
-0.290288 -0.168785 -0.424058
-0.290288 -0.157618 -0.418809
-0.290288 -0.393119 0.237922
-0.290288 -0.448988 0.206132
-0.290288 0.195154 0.429686
-0.290288 0.112119 -0.463881
-0.290288 -0.176519 -0.448643
-0.290288 -0.465550 -0.119153
-0.290288 0.126575 0.463130
-0.290288 0.067454 0.438261
-0.290288 -0.142115 0.452160
-0.290288 -0.167999 0.428624
-0.290288 -0.334067 -0.364869
-0.290288 0.169248 0.410758
-0.290288 -0.300270 -0.380888
-0.290288 -0.398076 -0.209357
-0.290288 0.413552 -0.193887
-0.290288 -0.435585 -0.123035
-0.290288 0.086506 -0.452255
-0.290288 0.317000 -0.380033
-0.290288 -0.411164 -0.266049
-0.290288 0.094627 0.436766
-0.290288 -0.379730 0.237286
-0.290288 -0.474633 -0.101834
-0.290288 0.326728 0.359224
-0.290288 -0.495505 -0.008348
-0.290288 0.192172 -0.460634
-0.290288 -0.445710 -0.067737
-0.290288 0.397623 0.243798
-0.290288 0.452210 0.085520
-0.290288 0.457525 -0.178583
-0.290288 0.462234 -0.115655
-0.290288 0.453947 -0.172146
-0.290288 0.010368 -0.467519
-0.290288 -0.020940 -0.474959
-0.290288 0.151758 0.451586
-0.290288 -0.397495 0.204579
-0.290288 -0.436159 -0.096435
-0.290288 0.444130 -0.053360
-0.290288 0.389988 0.280011
-0.290288 -0.381853 0.278969
-0.290288 -0.060392 0.453002
-0.290288 0.220270 0.399385
-0.290288 0.292326 0.365660
-0.290288 0.012451 0.492489
-0.290288 -0.276667 -0.415863
-0.290288 0.386201 -0.251220
-0.290288 0.443421 0.154425
-0.290288 0.260749 0.406834
-0.290288 0.448094 0.074151
-0.290288 -0.310347 0.347728
-0.290288 -0.459382 0.099827
-0.290288 0.466758 0.133059
-0.290288 0.346163 -0.294332
-0.290288 0.399864 -0.262048
-0.290288 0.005624 -0.468159
-0.290288 0.014771 0.454606
-0.290288 -0.477178 -0.031321
-0.290288 0.487470 0.076403
-0.290288 -0.243168 -0.435013
-0.290288 -0.478889 -0.071994
-0.290288 0.450198 -0.137966
-0.290288 0.427518 0.220109
-0.290288 -0.024693 -0.459921
-0.290288 -0.015271 0.473767
-0.290288 -0.480012 -0.093506
-0.290288 0.444258 -0.039724
-0.290288 -0.115609 0.431931
-0.290288 0.136030 0.475066
-0.290288 -0.032514 -0.450960
-0.290288 0.280812 -0.387512
-0.290288 0.426701 0.174224
-0.290288 -0.122848 -0.472266
-0.290288 -0.461575 -0.033382
-0.290288 -0.434111 0.113325
-0.290288 0.444443 0.133307
-0.290288 0.458335 0.004806
-0.290288 0.454683 -0.039919
-0.290288 0.144642 0.420052
-0.290288 0.090366 -0.469026
-0.290288 -0.340263 -0.349078
-0.290288 -0.381635 0.300929
-0.290288 0.189482 0.434739
-0.290288 -0.161627 0.466853
-0.290288 0.383428 0.249972
-0.290288 -0.465796 0.103595
-0.290288 0.440194 0.211638
-0.290288 0.218227 -0.440021
-0.290288 -0.259142 0.401616
-0.290288 0.023248 0.493280
-0.290288 -0.270539 0.406564
-0.290288 0.392763 0.266175
-0.290288 0.061099 -0.450044
-0.290288 -0.151146 -0.445635
-0.290288 -0.415298 -0.215979
-0.290288 0.479049 0.029351
-0.290288 0.206125 -0.418945
-0.290288 0.390350 -0.287325
-0.290288 0.214507 0.422851
-0.290288 -0.393175 -0.246584
-0.290288 -0.471461 -0.001784
-0.290288 0.478790 -0.058893
-0.290288 0.214116 0.389945
-0.290288 0.404052 0.198657
-0.290288 -0.487210 -0.098387
-0.290288 0.428979 -0.135865
-0.290288 0.401378 -0.268521
-0.290288 0.030134 -0.486861
-0.290288 0.430755 0.140963
-0.290288 -0.374213 -0.276922
-0.290288 0.478657 -0.136263
-0.290288 0.237755 -0.399915
-0.290288 -0.050144 0.442907
-0.290288 -0.442223 0.104019
-0.290288 -0.440676 -0.177563
-0.290288 -0.031098 0.483124
-0.290288 0.282676 -0.409380
-0.290288 -0.446997 -0.073150
-0.290288 -0.255080 0.376882
-0.290288 0.433655 0.181657
-0.290288 -0.476872 0.134623
-0.290288 0.400965 -0.290038
-0.290288 -0.358682 0.286479
-0.290288 0.469982 0.077818
-0.290288 0.409653 -0.278997
-0.290288 -0.028972 0.474914
-0.290288 -0.158144 -0.474099
-0.290288 0.385811 0.257979
-0.290288 -0.029334 0.454251
-0.290288 -0.433544 -0.219466
-0.290288 -0.382393 -0.318499
-0.290288 -0.136113 0.425373
-0.290288 0.456173 0.079495
-0.290288 0.420770 -0.219549
-0.290288 0.353983 0.293071
-0.290288 0.433868 -0.116325
-0.290288 -0.334212 -0.317176
-0.290288 0.274638 0.376445
-0.290288 -0.233603 0.415539
-0.290288 -0.303087 -0.369502
-0.290288 0.157280 0.415038
-0.290288 0.423361 -0.188661
-0.290288 0.129671 0.443992
-0.290288 0.318954 0.366192
-0.290288 0.166010 -0.428625
-0.290288 0.035216 0.476891
-0.290288 -0.365300 -0.309087
-0.290288 0.309594 0.378721
-0.290288 -0.200358 -0.431580
-0.290288 -0.180057 0.424795
-0.290288 0.013612 0.447150
-0.290288 -0.056487 0.465369
-0.290288 0.068739 -0.470957
-0.290288 0.008266 0.476673
-0.290288 0.086210 -0.478285
-0.290288 0.432444 -0.113184
-0.290288 -0.363933 -0.279315
-0.290288 0.129156 -0.429079
-0.290288 0.372256 0.316889
-0.290288 -0.454107 -0.086430
-0.290288 0.450487 -0.187863
-0.290288 0.219839 0.385427
-0.290288 0.332344 0.355432
-0.290288 -0.282982 0.361191
-0.290288 -0.439350 -0.138765
-0.290288 0.483446 -0.001087
-0.290288 -0.388366 0.290133
-0.290288 -0.351581 0.315983
-0.290288 0.457973 -0.084773
-0.290288 0.228750 -0.441411
-0.290288 -0.472608 0.046561
-0.290288 -0.096776 -0.473623
-0.290288 -0.093101 0.482528
-0.290288 0.401351 0.206894
-0.290288 -0.425372 0.174561
-0.290288 -0.248149 -0.409149
-0.290288 -0.347092 0.299936
-0.290288 0.241597 -0.390040
-0.290288 -0.192251 -0.435697
-0.290288 0.085139 -0.471970
-0.290288 -0.307350 -0.377075
-0.290288 -0.428944 -0.143417
-0.290288 -0.250628 -0.402109
-0.290288 -0.360115 -0.290952
-0.290288 -0.341990 0.325743
-0.290288 -0.349146 0.312145
-0.290288 0.352637 -0.287560
-0.290288 0.149851 0.454176
-0.290288 0.429632 -0.221956
-0.290288 0.435648 0.216217
-0.290288 -0.282186 -0.384780
-0.290288 -0.291205 0.399492
-0.290288 0.127483 -0.466970
-0.290288 0.360672 0.316958
-0.290288 0.173093 -0.448797
-0.290288 -0.249295 0.366422
-0.290288 -0.474537 0.050479
-0.290288 -0.297985 0.389439
-0.290288 0.439376 -0.080637
-0.290288 -0.289401 -0.388842
-0.290288 0.463207 0.038996
-0.290288 0.448957 0.092586
-0.290288 0.051034 -0.484449
-0.290288 0.456257 -0.198138
-0.290288 -0.167532 -0.418106
-0.290288 0.418402 0.227047
-0.290288 0.325365 -0.319786
-0.290288 -0.226597 0.408656
-0.290288 0.231771 -0.406373
-0.290288 0.124397 -0.475354
-0.290288 -0.011817 -0.482373
-0.290288 -0.458466 -0.072143
-0.290288 0.155520 0.470486
-0.290288 -0.126426 -0.429077
-0.290288 -0.173274 0.409630
-0.290288 0.336305 -0.299978
-0.290288 -0.385843 -0.309316
-0.290288 0.376288 -0.248563
-0.290288 -0.134949 -0.440451
-0.290288 -0.179931 -0.449418
-0.290288 -0.477441 -0.098925
-0.290288 -0.341933 -0.323038
-0.290288 0.078485 -0.448167
-0.290288 -0.295440 -0.335359
-0.290288 0.435662 -0.100275
-0.290288 0.436828 0.161304
-0.290288 0.110905 0.460515
-0.290288 -0.342874 0.329825
-0.290288 0.429331 -0.170463
-0.290288 0.000685 0.456111
-0.290288 -0.450388 -0.085617
-0.290288 0.075183 0.462046
-0.290288 0.292591 -0.355833
-0.290288 0.440235 0.068383
-0.290288 0.228237 -0.423927
-0.290288 -0.447144 -0.136471
-0.290288 0.357947 0.283909
-0.290288 -0.075598 -0.486122
-0.290288 0.463613 0.081937
-0.290288 -0.458837 0.181316
-0.290288 0.349983 0.348080
-0.290288 -0.063725 0.439609
-0.290288 -0.450015 -0.021638
-0.290288 0.244136 -0.402677
-0.290288 -0.311159 -0.334769
-0.290288 -0.264440 0.408692
-0.290288 -0.430685 -0.160296
-0.290288 0.246752 0.416983
-0.290288 0.409308 0.186116
-0.290288 -0.401984 -0.217645
-0.290288 0.214898 0.396575
-0.290288 0.349320 0.302815
-0.290288 -0.156671 0.437384
-0.290288 -0.043845 -0.452663
-0.290288 0.470563 -0.125276
-0.290288 -0.266438 0.364111
-0.290288 0.286505 0.347417
-0.290288 -0.391490 -0.300446
-0.290288 0.236770 0.400314
-0.290288 -0.474174 0.029141
-0.290288 -0.208086 -0.412664
-0.290288 0.289498 0.352141
-0.290288 0.237641 -0.396223
-0.290288 -0.474716 0.023574
-0.290288 -0.336297 0.290362
-0.290288 -0.384928 -0.315897
-0.290288 0.217223 0.399760
-0.290288 -0.074452 0.441546
-0.290288 -0.447604 -0.034101
-0.290288 -0.154641 -0.444879
-0.290288 0.348838 0.309923
-0.290288 0.189221 -0.409094
-0.290288 0.358029 -0.307341
-0.290288 -0.442444 -0.055925
-0.290288 -0.408436 -0.187367
-0.290288 0.460722 0.032759
-0.290288 -0.446718 -0.171273
-0.290288 0.196860 0.397519
-0.290288 0.161544 -0.434688
-0.290288 0.047791 -0.466484
-0.290288 -0.464822 -0.032692
-0.290288 0.136038 -0.465221
-0.290288 -0.208300 0.449698
-0.290288 -0.297943 0.329535
-0.290288 0.377474 -0.327421
-0.290288 0.041079 0.469244
-0.290288 -0.403206 0.273307
-0.290288 -0.461016 0.006329
-0.290288 0.122914 -0.472404
-0.290288 0.042972 0.446452
-0.290288 -0.461357 0.110185
-0.290288 0.445169 0.161296
-0.290288 0.112603 -0.438102
-0.290288 -0.114984 0.450183
-0.290288 -0.336791 -0.361738
-0.290288 0.378108 0.256925
-0.290288 0.486766 -0.107636
-0.290288 -0.073734 0.464311
-0.290288 0.104829 -0.472421
-0.290288 0.459087 -0.134728
-0.290288 0.236035 0.436386
-0.290288 0.441483 0.220781
-0.290288 0.479179 0.111221
-0.290288 -0.272708 -0.417441
-0.290288 -0.015308 0.477627
-0.290288 -0.439705 0.150419
-0.290288 -0.101439 -0.466169
-0.290288 0.143364 0.467244
-0.290288 -0.413641 0.164275
-0.290288 0.415465 0.170835
-0.290288 -0.413323 -0.177854
-0.290288 -0.450836 0.037305
-0.290288 -0.392666 0.286158
-0.290288 0.453426 -0.143916
-0.290288 0.476476 -0.068056
-0.290288 -0.188645 -0.415141
-0.290288 -0.196622 0.441226
-0.290288 0.180908 -0.419602
-0.290288 0.344772 -0.334380
-0.290288 0.478019 -0.111418
-0.290288 -0.344713 -0.302046
-0.290288 -0.474112 -0.081113
-0.290288 -0.384018 0.307506
-0.290288 0.007534 -0.472281
-0.290288 -0.460471 0.162728
-0.290288 0.020628 -0.447120
-0.290288 0.357427 0.294103
-0.290288 -0.044281 0.482548
-0.290288 -0.164942 0.453514
-0.290288 0.267563 -0.359361
-0.290288 -0.465265 -0.095659
-0.290288 -0.100837 0.431752
-0.290288 0.312710 -0.354616
-0.290288 -0.472893 0.127037
-0.290288 -0.093567 -0.486098
-0.290288 -0.373106 -0.325731
-0.290288 -0.486405 0.033866
-0.290288 -0.440203 -0.083512
-0.290288 0.132571 -0.428664
-0.290288 -0.356166 -0.319687
-0.290288 -0.399852 -0.212474
-0.290288 -0.457254 -0.002994
-0.290288 0.097745 0.447137
-0.290288 0.254511 -0.424394
-0.290288 0.442695 -0.069675
-0.290288 -0.156845 -0.436060
-0.290288 -0.005648 0.484447
-0.290288 0.253658 0.416060
-0.290288 -0.137392 -0.437921
-0.290288 0.182369 0.418393
-0.290288 0.071205 -0.461904
-0.290288 0.056927 0.467198
-0.290288 0.441547 -0.194826
-0.290288 0.459420 -0.193040
-0.290288 0.376593 -0.296308
-0.290288 -0.324142 0.350110
-0.290288 0.440138 0.099262
-0.290288 -0.081767 0.467662
-0.290288 0.115894 0.469252
-0.290288 0.044323 -0.482522
-0.290288 0.442160 0.217503
-0.290288 0.229207 0.411535
-0.290288 0.458789 0.047602
-0.290288 0.449064 -0.107356
-0.290288 0.366044 0.260821
-0.290288 0.327984 -0.327996
-0.290288 -0.156725 0.430373
-0.290288 0.038746 -0.446616
-0.290288 0.341639 -0.337859
-0.290288 -0.388441 -0.294242
-0.290288 -0.313733 0.335491
-0.290288 -0.244210 -0.409744
-0.290288 -0.250340 0.413422
-0.290288 -0.452694 -0.175764
-0.290288 0.179539 0.446544
-0.290288 -0.446338 -0.089703
-0.290288 0.418005 -0.258785
-0.290288 -0.438976 0.131014
-0.290288 -0.316488 0.317530
-0.290288 0.405583 -0.207901
-0.290288 -0.431677 0.163061
-0.290288 -0.372879 -0.285262
-0.290288 0.447100 -0.022818
-0.290288 0.388096 0.260364
-0.290288 0.169012 -0.422395
-0.290288 0.198412 -0.428790
-0.290288 0.109620 -0.449921
-0.290288 -0.445291 -0.064335
-0.290288 -0.387844 -0.239456
-0.290288 0.405448 -0.260740
-0.290288 -0.167260 -0.430935
-0.290288 0.378217 0.250483
-0.290288 0.120363 0.463609
-0.290288 -0.330804 -0.315676
-0.290288 0.242103 0.394684
-0.290288 0.344111 -0.354827
-0.290288 0.344295 0.295447
-0.290288 -0.443005 -0.104423
-0.290288 -0.236990 0.435394
-0.290288 0.439484 -0.201022
-0.290288 -0.138526 0.422159
-0.290288 -0.439665 -0.133573
-0.290288 0.363393 -0.297123
-0.290288 0.272838 0.391730
-0.290288 0.148315 -0.449423
-0.290288 0.461079 0.136307
-0.290288 0.393578 -0.287130
-0.290288 0.068456 0.442487
-0.290288 -0.198434 0.400152
-0.290288 -0.421720 0.158392
-0.290288 0.451739 0.050971
-0.290288 0.335502 -0.303205
-0.290288 0.462498 0.056366
-0.290288 -0.339717 -0.335554
-0.290288 -0.450561 0.040722
-0.290288 0.221832 -0.423721
-0.290288 0.232479 0.417505
-0.290288 0.480134 -0.094093
-0.290288 0.199026 0.454411
-0.290288 -0.087290 0.443283
-0.290288 0.413012 0.230811
-0.290288 -0.381121 -0.233203
-0.290288 -0.063027 0.483012
-0.290288 0.284274 -0.369951
-0.290288 0.325881 -0.347463
-0.290288 -0.453049 -0.032567
-0.290288 -0.305862 -0.359758
-0.290288 -0.451062 -0.050947
-0.290288 -0.397430 0.197676
-0.290288 -0.244954 -0.406122
-0.290288 -0.026021 -0.492252
-0.290288 -0.391679 -0.295900
-0.290288 0.052528 0.460198
-0.290288 0.452268 -0.161415
-0.290288 0.483929 -0.040125
-0.290288 0.337744 0.336128
-0.290288 0.049880 0.467803
-0.290288 -0.485595 -0.012584
-0.290288 0.281991 0.387842
-0.290288 -0.330304 0.317279
-0.290288 0.216638 0.387770
-0.290288 -0.436967 -0.176107
-0.290288 -0.098635 0.472740
-0.290288 -0.442632 -0.217458
-0.290288 0.460395 0.117166
-0.290288 -0.261970 -0.384618
-0.290288 0.182731 -0.422407
-0.290288 0.407394 0.258523
-0.290288 0.012093 -0.482936
-0.290288 0.006543 0.495537
-0.290288 0.395125 0.281485
-0.290288 0.138478 0.471672
-0.290288 -0.139764 -0.430220
-0.290288 -0.108727 0.460034
-0.290288 0.182067 -0.447420
-0.290288 0.440538 -0.077345
-0.290288 0.483136 0.118945
-0.290288 0.378919 0.262937
-0.290288 -0.130779 0.453957
-0.290288 0.314027 -0.362132
-0.290288 0.379746 0.239840
-0.290288 -0.229070 0.431901
-0.290288 0.214087 -0.414550
-0.290288 -0.216230 0.433753
-0.290288 0.223536 0.437809
-0.290288 0.218908 0.395765
-0.290288 0.473085 0.002921
-0.290288 0.088816 0.470263
-0.290288 0.145896 -0.462097
-0.290288 0.127527 -0.445324
-0.290288 0.381104 0.289949
-0.290288 -0.375931 0.236487
-0.290288 0.083735 0.474442
-0.290288 -0.439391 -0.110126
-0.290288 0.319399 -0.372152
-0.290288 -0.416613 0.216633
-0.290288 -0.284215 0.364409
-0.290288 0.301589 -0.359581
-0.290288 -0.447982 -0.028317
-0.290288 0.315728 0.320488
-0.290288 -0.447361 -0.044358
-0.290288 -0.234198 0.423392
-0.290288 -0.176729 0.439381
-0.290288 0.336066 -0.345373
-0.290288 -0.431811 -0.110058
-0.290288 0.322820 0.315692
-0.290288 -0.333835 -0.370515
-0.290288 0.187327 0.402619
-0.290288 0.363668 -0.283948
-0.290288 -0.421404 -0.222000
-0.290288 -0.002345 -0.451536
-0.290288 0.107284 -0.454471
-0.290288 0.448609 -0.165147
-0.290288 -0.257559 0.415291
-0.290288 -0.375546 0.296639
-0.290288 -0.475585 0.016581
-0.290288 0.108976 0.481955
-0.290288 0.273238 -0.411658
-0.290288 0.373424 -0.271598
-0.290288 0.423113 0.174522
-0.290288 0.459812 0.012402
-0.290288 0.267358 0.397522
-0.290288 0.403009 -0.195035
-0.290288 0.318149 0.323295
-0.290288 0.044088 -0.487280
-0.290288 0.475390 0.057518
-0.290288 -0.371371 -0.248133
-0.290288 0.203607 -0.437567
-0.290288 0.364392 0.270319
-0.290288 -0.332434 -0.325042
-0.290288 0.338849 -0.331819
-0.290288 -0.144753 -0.430235
-0.290288 -0.325573 -0.377936
-0.290288 0.392528 -0.298305
-0.290288 0.027421 0.456953
-0.290288 -0.438817 0.105313
-0.290288 -0.470752 0.117143
-0.290288 0.440696 0.119310
-0.290288 0.433314 -0.133917
-0.290288 -0.282893 -0.394678
-0.290288 0.420841 -0.252504
-0.290288 -0.401139 0.235973
-0.290288 -0.440783 -0.114722
-0.290288 0.170317 0.456752
-0.290288 -0.064357 -0.478533
-0.290288 -0.483097 -0.097202
-0.290288 0.224558 -0.406397
-0.290288 0.176406 -0.446301
-0.290288 0.171345 0.421653
-0.290288 0.237403 0.383821
-0.290288 0.196535 -0.406542
-0.290288 -0.450317 0.078387
-0.290288 0.012216 0.474470
-0.290288 -0.443201 0.152042
-0.290288 -0.460616 0.017002
-0.290288 -0.189290 0.420984
-0.290288 0.007907 0.451520
-0.290288 -0.208678 0.402507
-0.290288 0.126706 -0.456726
-0.290288 0.492934 0.029244
-0.290288 -0.340256 0.339994
-0.290288 -0.407272 0.203745
-0.290288 0.247718 0.387357
-0.290288 -0.393602 0.245338
-0.290288 -0.455311 -0.116238
-0.290288 0.461905 0.128813
-0.290288 0.199802 -0.409568
-0.290288 0.373993 -0.283846
-0.290288 -0.281857 0.393644
-0.290288 -0.311810 -0.322542
-0.290288 -0.482616 -0.013997
-0.290288 -0.301017 0.333823
-0.290288 -0.249136 -0.385086
-0.290288 -0.404318 0.215015
-0.290288 0.397947 0.284792
-0.290288 0.354752 0.308730
-0.290288 -0.090381 0.445207
-0.290288 0.410763 -0.198911
-0.290288 -0.330194 -0.332675
-0.290288 0.475324 0.072505
-0.290288 0.421425 -0.246967
-0.290288 -0.473176 -0.073566
-0.290288 -0.293924 -0.370736
-0.290288 0.414849 -0.257473
-0.290288 -0.051910 -0.495580
-0.290288 0.148668 0.457406
-0.290288 -0.170751 0.421388
-0.290288 -0.246937 -0.394465
-0.290288 0.292239 -0.373818
-0.290288 0.219777 0.419934
-0.290288 0.467202 0.100370
-0.290288 -0.220010 0.384828
-0.290288 0.384244 0.289996
-0.290288 -0.006980 0.450587
-0.290288 -0.161663 -0.471617
-0.290288 0.424839 0.147928
-0.290288 -0.469224 0.056008
-0.290288 -0.480997 -0.112374
-0.290288 0.476493 0.011085
-0.290288 -0.103092 -0.459516
-0.290288 0.365317 0.254134
-0.290288 0.151715 -0.439402
-0.290288 0.437048 0.210421
-0.290288 0.237207 0.406361
-0.290288 0.198630 0.400783
-0.290288 -0.351088 -0.284153
-0.290288 -0.021884 0.470332
-0.290288 0.467943 0.003469
-0.290288 -0.335714 -0.300851
-0.290288 -0.174866 0.447461
-0.290288 0.074086 -0.451077
-0.290288 0.452289 0.107982
-0.290288 -0.430839 0.227578
-0.290288 0.003724 0.483154
-0.290288 0.399954 -0.296421
-0.290288 -0.342981 0.285335
-0.290288 0.465975 -0.081178
-0.290288 0.314499 -0.332408
-0.290288 0.210734 -0.414489
-0.290288 -0.202004 0.425091
-0.290288 -0.435060 0.143293
-0.290288 0.126397 -0.478896
-0.290288 0.386012 -0.293820
-0.290288 -0.262575 -0.406848
-0.290288 -0.189804 0.457361
-0.290288 -0.232021 0.437357
-0.290288 -0.356863 0.282583
-0.290288 0.373778 -0.330990
-0.290288 0.046903 -0.452195
-0.290288 0.140780 -0.447393
-0.290288 0.476629 0.018060
-0.290288 -0.293235 0.391394
-0.290288 -0.141315 -0.433011
-0.290288 -0.417227 -0.255979
-0.290288 0.124636 0.473402
-0.290288 0.459759 -0.185139
-0.290288 -0.379243 -0.268789
-0.290288 0.422579 -0.159336
-0.290288 0.347365 -0.338678
-0.290288 -0.202440 0.436368
-0.290288 -0.257639 -0.369586
-0.290288 0.371830 -0.307334
-0.290288 0.355561 -0.289840
-0.290288 0.182611 0.460697
-0.290288 -0.360782 -0.271464
-0.290288 -0.047967 0.451343
-0.290288 -0.288635 0.401641
-0.290288 0.450108 0.125634
-0.290288 -0.406878 -0.215142
-0.290288 0.396785 -0.222065
-0.290288 0.491010 -0.078354
-0.290288 -0.432461 -0.121840
-0.290288 -0.358830 0.334086
-0.290288 0.338220 0.294164
-0.290288 -0.098568 -0.462359
-0.290288 -0.335810 0.323524
-0.290288 -0.316066 0.372551
-0.290288 -0.359743 0.313226
-0.290288 0.428390 0.180274
-0.290288 -0.182554 -0.408336
-0.290288 -0.444101 -0.166194
-0.290288 0.182903 0.426309
-0.290288 0.266685 0.418174
-0.290288 0.156946 0.446869
-0.290288 0.430084 0.243435
-0.290288 0.058255 0.470486
-0.290288 0.424870 0.244697
-0.290288 -0.413279 -0.236060
-0.290288 -0.436636 -0.092879
-0.290288 0.275833 -0.409963
-0.290288 -0.236450 -0.439007
-0.290288 0.422835 -0.162522
-0.290288 0.235651 0.376706
-0.290288 0.115778 -0.464639
-0.290288 0.085414 0.468110
-0.290288 0.363540 0.325283
-0.290288 0.048706 0.440500
-0.290288 0.292955 -0.400760
-0.290288 -0.468912 -0.087313
-0.290288 0.048833 0.479594
-0.290288 -0.125924 0.437889
-0.290288 -0.433000 -0.167807
-0.290288 -0.363638 0.278743
-0.290288 0.443400 0.102248
-0.290288 0.476331 0.051978
-0.290288 -0.123504 -0.440538
-0.290288 -0.452856 0.147271
-0.290288 0.049227 0.446471
-0.290288 0.293697 -0.359756
-0.290288 -0.426189 -0.219140
-0.290288 -0.471468 -0.070712
-0.290288 0.260129 0.402284
-0.290288 -0.291346 -0.349788
-0.290288 -0.146539 -0.426573
-0.290288 0.390112 -0.293794
-0.290288 -0.454041 0.040403
-0.290288 0.048681 0.450959
-0.290288 -0.373069 -0.330398
-0.290288 -0.052545 0.459207
-0.290288 0.048940 0.475821
-0.290288 0.368899 -0.301129
-0.290288 -0.395971 -0.258982
-0.290288 0.469924 -0.109895
-0.290288 -0.462584 0.120386
-0.290288 -0.127711 0.440654
-0.290288 0.447150 -0.018891
-0.290288 0.420470 -0.186572
-0.290288 0.463616 0.028552
-0.290288 0.342868 0.318312
-0.290288 -0.237143 0.389987
-0.290288 -0.442718 -0.108301
-0.290288 0.152235 0.463581
-0.290288 -0.229781 -0.430491
-0.290288 -0.398610 -0.218506
-0.290288 0.436444 -0.200624
-0.290288 0.260921 0.397993
-0.290288 0.146895 0.437282
-0.290288 0.194828 0.401389
-0.290288 0.271424 0.361686
-0.290288 -0.278754 -0.400767
-0.290288 -0.450864 -0.062008
-0.290288 0.110746 -0.476129
-0.290288 -0.408520 -0.191076
-0.290288 -0.448463 -0.132948
-0.290288 0.283627 -0.362964
-0.290288 -0.490603 0.020807
-0.290288 0.069253 0.457229
-0.290288 0.383674 -0.291202
-0.290288 -0.244342 -0.383452
-0.290288 -0.150407 0.470540
-0.290288 0.460234 0.079116
-0.290288 -0.093603 -0.489772
-0.290288 0.204288 0.415312
-0.290288 -0.155631 -0.469962
-0.290288 -0.112147 0.452283
-0.290288 0.485358 0.080307
-0.290288 0.406165 -0.281180
-0.290288 -0.209272 0.425962
-0.290288 0.039419 -0.450757
-0.290288 0.464313 -0.174863
-0.290288 0.448329 0.085824
-0.290288 -0.062028 -0.486775
-0.290288 -0.434781 -0.202732
-0.290288 0.465853 0.006164
-0.290288 -0.017138 0.450343
-0.290288 0.462834 -0.046563
-0.290288 -0.405384 0.208599
-0.290288 -0.099408 -0.471147
-0.290288 0.443759 -0.076976
-0.290288 0.456687 0.076160
-0.290288 -0.435520 0.207366
-0.290288 0.427171 0.227349
-0.290288 -0.372640 0.313837
-0.290288 0.289566 -0.385310
-0.290288 -0.430632 -0.115839
-0.290288 0.250615 0.426056
-0.290288 -0.401533 0.232358
-0.290288 0.472851 0.108285
-0.290288 0.184931 -0.411592
-0.290288 -0.125662 -0.433923
-0.290288 0.438945 0.232595
-0.290288 0.463536 0.148658
-0.290288 -0.286941 0.345049
-0.290288 0.360489 -0.281904
-0.290288 0.365301 -0.288595
-0.290288 -0.165087 -0.459006
-0.290288 -0.463514 -0.036132
-0.290288 0.439653 0.177186
-0.290288 -0.387183 0.264508
-0.290288 0.360092 0.290030
-0.290288 0.412747 0.214140
-0.290288 0.060104 -0.469105
-0.290288 -0.397290 -0.239201
-0.290288 0.392361 0.259188
-0.290288 0.131170 0.432144
-0.290288 -0.418403 -0.211007
-0.290288 0.286389 0.386337
-0.290288 -0.179732 0.444334
-0.290288 0.316190 0.336462
-0.290288 -0.327683 -0.354990
-0.290288 -0.304494 -0.365625
-0.290288 0.200665 -0.402210
-0.290288 0.229006 0.435704
-0.290288 -0.455880 -0.096523
-0.290288 0.399457 0.228312
-0.290288 -0.456169 -0.102111
-0.290288 -0.330611 -0.300795
-0.290288 -0.439757 -0.098744
-0.290288 0.303586 -0.378759
-0.290288 0.273173 -0.359500
-0.290288 -0.397713 0.229551
-0.290288 -0.430654 -0.139739
-0.290288 -0.366442 -0.296469
-0.290288 0.394655 0.245804
-0.290288 0.148500 0.460641
-0.290288 -0.483965 0.093959
-0.290288 0.124906 -0.482508
-0.290288 -0.396352 0.278611
-0.290288 0.420858 -0.194858
-0.290288 0.371473 0.250431
-0.290288 -0.489089 0.049526
-0.290288 -0.188785 -0.452349
-0.290288 -0.452910 -0.207490
-0.290288 0.475389 -0.061685
-0.290288 -0.481906 -0.006402
-0.290288 -0.330029 -0.352352
-0.290288 -0.255837 -0.395994
-0.290288 0.006505 0.454715
-0.290288 0.336247 -0.359653
-0.290288 -0.302988 -0.361582
-0.290288 -0.119489 -0.483232
-0.290288 0.410536 0.228844
-0.290288 -0.444335 -0.022667
-0.290288 -0.439781 0.201240
-0.290288 0.487743 -0.065447
-0.290288 0.053819 -0.454978
-0.290288 -0.184349 0.448156
-0.290288 0.496763 0.016825
-0.290288 0.434524 -0.244571
-0.290288 0.450282 0.061439
-0.290288 -0.466736 -0.153880
-0.290288 -0.463896 0.141968
-0.290288 -0.032496 0.442100
-0.290288 -0.023961 -0.481820
-0.290288 -0.125901 0.454579
-0.290288 0.466431 -0.152805
-0.290288 0.490770 0.076990
-0.290288 0.486022 -0.022029
-0.290288 -0.356417 0.294286
-0.290288 0.101446 -0.451335
-0.290288 -0.385998 0.220473
-0.290288 -0.442707 0.180712
-0.290288 0.426657 0.241317
-0.290288 0.451970 -0.183639
-0.290288 0.199488 0.420177
-0.290288 -0.385339 0.258741
-0.290288 -0.317545 -0.378070
-0.290288 -0.211912 0.412153
-0.290288 0.213463 -0.421793
-0.290288 0.018117 -0.478803
-0.290288 -0.047821 -0.497421
-0.290288 -0.324038 -0.308258
-0.290288 -0.496024 -0.016344
-0.290288 0.425551 -0.137074
-0.290288 0.441424 0.113377
-0.290288 -0.083493 0.488020
-0.290288 0.000395 -0.491767
-0.290288 -0.189205 0.452991
-0.290288 -0.471942 -0.097551
-0.290288 -0.088150 0.434447
-0.290288 -0.401820 -0.262934
-0.290288 0.112511 0.448081
-0.290288 0.321686 0.378367
-0.290288 -0.482272 0.052425
-0.290288 0.088591 0.459804
-0.290288 0.143393 0.463813
-0.290288 0.427579 0.138621
-0.290288 -0.012131 -0.496454
-0.290288 -0.373874 0.308370
-0.290288 0.193651 -0.455987
-0.290288 -0.114003 0.444441
-0.290288 0.244296 -0.407430
-0.290288 -0.351507 -0.310293
-0.290288 0.295355 0.389321
-0.290288 -0.400982 -0.237184
-0.290288 0.443758 -0.048952
-0.290288 0.059512 0.473453
-0.290288 -0.459679 0.026026
-0.290288 -0.443663 0.175876
-0.290288 0.222614 0.428943
-0.290288 0.208354 0.428105
-0.290288 -0.023366 0.494747
-0.290288 -0.046643 0.440644
-0.290288 0.201713 0.402523
-0.290288 -0.043185 0.485599
-0.290288 0.056038 -0.451639
-0.290288 -0.134663 0.428159
-0.290288 0.445944 0.129734
-0.290288 -0.383756 0.255195
-0.290288 0.430644 0.191633
-0.290288 0.388306 0.263664
-0.290288 0.284936 0.368805
-0.290288 -0.426617 -0.226170
-0.290288 -0.362827 -0.335888
-0.290288 -0.054198 0.468841
-0.290288 -0.202958 -0.411353
-0.290288 0.463107 -0.079363
-0.290288 0.040476 -0.486809
-0.290288 -0.474365 -0.088384
-0.290288 0.273083 -0.354274
-0.290288 0.238348 0.409658
-0.290288 -0.318952 0.364164
-0.290288 0.455913 0.001037
-0.290288 0.070886 -0.448837
-0.290288 -0.415590 0.227719
-0.290288 -0.475211 0.116486
-0.290288 -0.371835 0.286240
-0.290288 0.144549 -0.431809
-0.290288 0.436521 0.230313
-0.290288 -0.490746 0.008037
-0.290288 -0.471341 -0.114441
-0.290288 0.436889 0.157661
-0.290288 -0.427438 0.230443
-0.290288 0.115377 -0.439537
-0.290288 0.116302 0.448248
-0.290288 -0.303327 0.357584
-0.290288 0.356766 -0.349955
-0.290288 0.403151 0.288487
-0.290288 -0.375973 -0.286669
-0.290288 0.024902 -0.486270
-0.290288 -0.203679 0.416785
-0.290288 0.228257 -0.400549
-0.290288 -0.248543 0.372530
-0.290288 0.474278 0.083405
-0.290288 -0.463288 -0.006330
-0.290288 -0.424663 0.246661
-0.290288 0.366818 -0.317530
-0.290288 0.462673 0.151791
-0.290288 0.441776 -0.074198
-0.290288 0.413536 -0.211943
-0.290288 0.057461 -0.477000
-0.290288 -0.433303 -0.157844
-0.290288 0.224698 0.426440
-0.290288 -0.493271 -0.065254
-0.290288 -0.310657 0.350917
-0.290288 0.384260 0.271851
-0.290288 0.118516 0.454663
-0.290288 -0.391248 -0.269246
-0.290288 -0.168541 0.425257
-0.290288 -0.147903 -0.442874
-0.290288 -0.437872 0.196655
-0.290288 0.276990 -0.412937
-0.290288 0.081873 0.472059
-0.290288 0.142502 0.455110
-0.290288 0.186511 -0.440244
-0.290288 0.261365 -0.375239
-0.290288 0.056785 0.483203
-0.290288 0.299161 0.335763
-0.290288 -0.003798 0.481216
-0.290288 0.462792 0.052977
-0.290288 -0.107901 0.440313
-0.290288 -0.066128 0.460902
-0.290288 0.139735 0.432533
-0.290288 0.380725 -0.286074
-0.290288 -0.432087 -0.151855
-0.290288 -0.086043 0.481216
-0.290288 -0.326392 -0.350107
-0.290288 -0.135912 -0.475079
-0.290288 0.414977 0.217287
-0.290288 -0.328501 0.320653
-0.290288 0.457091 -0.105862
-0.290288 -0.330312 0.325228
-0.290288 -0.420495 0.170787
-0.290288 -0.350399 -0.326989
-0.290288 -0.465327 -0.173596
-0.290288 -0.425761 0.192491
-0.290288 -0.443445 -0.100604
-0.290288 -0.163108 0.455896
-0.290288 0.445836 -0.087649
-0.290288 -0.410010 -0.209872
-0.290288 0.485231 -0.014643
-0.290288 -0.490499 -0.039857
-0.290288 -0.152901 -0.442069
-0.290288 -0.474677 -0.010461
-0.290288 0.387464 0.235242
-0.290288 -0.409688 -0.228563
-0.290288 0.485019 -0.062412
-0.290288 -0.448095 -0.147392
