0.100867 0.344593 -0.362137
0.194986 -0.435188 0.239107
-0.132880 -0.257537 -0.428035
0.240891 -0.443422 -0.227792
0.237649 0.414614 0.274354
-0.219264 0.494674 0.059760
0.058417 0.496202 0.045719
-0.047256 -0.144389 0.474386
0.043683 0.356197 -0.350841
-0.288115 -0.118963 -0.485590
-0.216074 0.498357 0.007475
-0.038791 -0.242783 0.432307
0.067536 -0.464340 -0.181178
0.013349 0.370306 0.331514
-0.288796 -0.059724 -0.496504
-0.153373 0.454876 -0.205883
-0.038579 0.073873 0.490457
0.062179 0.441806 -0.232839
-0.146990 0.430235 0.249421
-0.278987 0.087601 -0.492680
0.160007 0.259669 0.423006
-0.199884 -0.049736 0.493322
-0.218666 -0.483670 -0.119437
0.155764 0.193588 0.456957
-0.138903 -0.038837 0.494205
-0.091626 0.454234 -0.207313
0.202314 0.292948 0.400933
-0.041458 -0.007391 -0.500261
-0.093420 0.379272 -0.325738
-0.281769 0.478116 -0.143096
0.012815 -0.306225 0.390160
-0.234762 -0.456041 -0.201084
0.243384 0.050468 -0.497699
-0.073393 -0.357842 -0.347907
-0.288898 0.228661 0.440440
-0.289139 -0.259483 -0.426848
0.271955 0.020488 -0.499836
-0.129850 -0.142095 0.475019
-0.252141 -0.196611 -0.459494
0.256979 -0.202334 -0.456926
-0.185124 -0.232357 -0.442308
-0.169268 0.275637 0.413040
0.077714 0.493244 0.069641
-0.082462 0.375391 -0.330023
0.275851 0.394213 -0.307121
-0.047704 0.252851 -0.431474
0.154918 0.449066 -0.218829
-0.052689 0.271174 -0.420153
0.223098 -0.474853 0.146079
-0.204719 0.181933 0.461587
-0.264803 0.403806 -0.294351
-0.114937 0.260801 0.422315
-0.240004 -0.100314 0.485448
0.223156 -0.294395 0.399085
-0.188345 0.220914 -0.448680
-0.110888 -0.476993 0.139063
0.184694 -0.267196 -0.422146
0.136704 0.102594 0.485370
-0.122162 -0.338083 0.363124
-0.033026 -0.495507 0.042401
0.088019 0.438932 -0.238296
0.257946 -0.308046 0.388786
-0.212242 0.306944 0.390338
-0.045372 0.182307 -0.465864
0.141573 -0.325972 0.373800
0.125117 0.452818 -0.210468
0.274629 0.422249 0.262789
-0.032611 0.063372 -0.496205
0.121814 -0.024958 -0.499473
-0.004539 -0.383389 0.315057
-0.017983 0.455795 0.199778
-0.041089 -0.116707 -0.486126
-0.123841 -0.462579 0.181037
-0.123357 -0.307061 -0.393781
-0.101764 -0.334505 -0.370561
-0.044077 0.353123 0.349453
-0.008499 0.432720 0.245086
-0.120666 0.439766 -0.236713
0.019125 -0.370184 0.330288
0.283580 0.487968 0.099458
-0.228772 -0.175870 0.463711
-0.140824 0.216205 0.446808
0.106324 -0.408338 0.282051
0.242794 0.024252 -0.499768
0.119974 0.268607 -0.421848
0.248618 0.481012 0.128463
-0.121221 0.181155 -0.466345
-0.056154 -0.458588 -0.194975
0.285206 0.478898 0.136120
0.062514 0.442207 0.227984
0.285245 0.019256 0.495421
-0.062443 0.065831 -0.495849
0.102290 -0.048639 -0.497702
-0.180472 -0.336355 0.364807
0.225080 -0.362283 -0.343345
-0.183445 0.382739 -0.321512
-0.217578 0.426445 0.256029
0.284068 -0.207442 0.450461
0.195971 0.045940 0.493751
-0.191994 -0.049706 -0.497587
-0.145527 0.083913 -0.493233
0.150393 0.385431 0.313887
-0.224042 -0.048486 0.493423
-0.280542 -0.479210 -0.135628
0.025285 -0.273330 -0.418290
0.176877 0.195092 -0.460534
0.081116 0.164034 0.468304
-0.225716 -0.120606 0.480951
-0.138922 0.420244 -0.270275
-0.273451 -0.439069 0.231737
0.263571 -0.386349 -0.315977
0.058820 -0.482961 0.117044
-0.187057 -0.063083 -0.496141
-0.182641 0.480276 -0.136018
0.218200 0.436829 -0.242290
-0.158841 -0.475490 -0.149106
0.018008 0.283143 0.407791
0.223699 0.314593 0.384240
-0.126020 -0.247638 0.429522
-0.188218 -0.057902 0.492494
-0.207778 0.407554 0.285048
-0.248904 -0.497151 -0.021928
0.065288 0.437053 -0.241864
-0.143549 0.278248 -0.415483
-0.216108 -0.464052 -0.181869
0.103055 0.045146 -0.498130
0.279465 -0.337127 -0.368185
-0.152837 -0.320819 0.378222
0.030599 -0.467573 -0.172188
0.255229 0.285172 0.406372
-0.255508 0.391803 0.305947
0.231589 -0.010443 0.495645
0.154060 0.370438 0.331360
-0.257978 0.475108 -0.152954
0.224171 0.460204 0.189202
-0.027069 -0.490137 -0.088390
-0.047823 -0.105497 0.484362
0.167635 0.118919 -0.486053
-0.271161 0.473769 -0.157343
-0.091821 -0.490916 -0.083007
0.096891 0.330321 -0.375302
-0.000194 0.408914 0.282989
-0.138298 0.119043 -0.486018
-0.128259 -0.364048 0.337063
-0.104813 -0.462712 -0.185082
-0.164341 0.410284 -0.285087
-0.186197 -0.408008 0.282523
0.267972 -0.294371 0.399103
0.206391 0.409194 -0.286647
-0.228394 -0.452446 -0.209480
-0.141131 0.376449 0.324356
0.082284 -0.389539 0.307345
-0.040098 -0.154092 0.471223
-0.067401 0.366137 -0.340240
-0.050946 0.412401 -0.282060
0.232630 -0.495858 -0.041665
0.049186 -0.450413 -0.213606
-0.290026 0.392892 0.304504
-0.000823 0.381962 0.317930
0.035938 0.286250 0.405618
0.254211 0.256479 0.424951
0.058662 0.473850 -0.157077
0.001404 0.477476 0.141269
-0.090223 0.483328 -0.124167
0.090575 0.386631 0.312489
-0.203146 0.440615 0.231216
-0.226554 -0.324250 0.375278
-0.289365 0.394920 -0.306236
-0.161023 -0.198806 -0.458509
-0.232428 -0.386902 -0.315332
-0.087775 0.285425 0.406195
0.035586 -0.496092 -0.038782
-0.152593 0.316659 0.382592
0.083243 -0.444400 -0.225809
-0.234332 -0.234957 -0.440939
0.115288 -0.239373 0.434262
0.068181 -0.016817 -0.499838
0.143161 -0.039827 0.494125
0.108853 0.230249 0.439604
-0.073867 0.460006 0.189678
0.280812 -0.177559 -0.467197
0.128978 -0.478395 0.134469
-0.120851 -0.012466 0.495608
-0.186284 0.076275 -0.494338
-0.217678 -0.496211 -0.037309
-0.203598 0.423829 -0.264394
0.134556 0.495118 0.056692
-0.270648 -0.028968 0.495005
0.249501 0.388239 -0.314614
-0.093843 -0.267000 0.417879
0.021145 0.435783 -0.244276
-0.186145 0.372772 0.328641
-0.123036 0.331488 0.369868
0.174520 0.158906 -0.474269
-0.089930 -0.156194 0.470498
-0.104357 0.294260 -0.404314
0.165760 -0.195939 0.455400
0.010958 -0.054889 0.492904
-0.065452 0.474085 0.151928
-0.178729 0.439152 0.233871
-0.028458 -0.220197 0.444176
0.049902 0.498073 0.022617
0.195372 -0.400563 -0.297332
-0.256790 0.491982 -0.082299
-0.033735 0.155957 0.470995
-0.024281 0.125006 0.480044
0.125280 0.321947 0.378375
0.029945 -0.074997 0.490021
0.238111 0.362543 0.339777
-0.066967 -0.420898 -0.267637
-0.224369 -0.254437 -0.429924
0.035696 -0.497378 -0.009292
0.032248 -0.445738 0.219071
-0.229117 -0.332269 -0.372585
-0.138335 0.129670 0.478935
-0.085899 -0.473099 -0.156167
-0.199646 -0.357592 -0.348164
0.286463 0.315596 0.383440
-0.230770 0.165223 0.467857
-0.077971 -0.457733 0.192880
-0.266944 -0.040318 0.494085
-0.205446 -0.229467 0.439608
-0.029934 -0.440936 0.228190
0.099620 0.498644 -0.008436
0.263499 -0.010671 0.495641
-0.247674 -0.389887 0.306908
0.178182 0.313030 -0.390138
-0.256448 0.045765 0.493770
-0.256609 0.175002 -0.468717
0.234303 -0.234994 -0.440919
0.239583 0.066537 0.491525
-0.139978 0.016563 -0.499906
0.188494 0.488497 0.096931
-0.100987 -0.312406 -0.389519
-0.266272 -0.423482 0.258928
0.247677 -0.281513 0.408297
-0.237978 -0.365479 -0.340063
0.068954 -0.490327 -0.087079
-0.022845 0.486699 0.105517
0.182065 -0.059786 -0.496498
-0.169514 0.481824 0.125518
-0.201312 0.472189 -0.162510
-0.131446 0.035652 0.494686
-0.143511 0.359390 -0.347690
-0.134665 -0.396731 0.298325
0.225310 0.484781 -0.118050
-0.249898 -0.294561 0.398960
-0.084285 0.451301 -0.213849
0.266272 0.276191 -0.416840
-0.086741 -0.408443 0.281901
0.208003 0.453474 0.205120
-0.141106 -0.487996 0.095144
-0.279317 -0.492211 0.070661
-0.189851 0.231218 -0.443603
0.164977 0.476578 0.144525
0.063831 -0.341684 0.359619
0.026763 -0.153933 -0.475653
-0.275004 0.298296 0.397194
0.177176 0.199250 0.454417
0.185466 0.162739 -0.472947
0.199931 -0.493963 0.056694
0.078681 0.488392 0.097434
-0.179840 0.103607 0.485129
-0.272692 -0.494561 -0.057673
0.072054 -0.035686 0.494460
0.233917 -0.266943 -0.422300
0.229284 0.495545 -0.055888
0.262833 -0.216608 0.445944
0.271757 0.379233 -0.325781
0.213229 -0.388071 -0.313890
-0.097695 0.326520 -0.378563
-0.290095 0.108987 -0.488199
-0.100436 0.260942 -0.426834
0.158038 0.330847 -0.374850
-0.069970 -0.469495 0.162605
-0.255113 -0.222968 0.442810
-0.134925 -0.388804 -0.312918
-0.054373 -0.153459 0.471442
-0.120808 0.489479 -0.096840
0.268252 0.496541 -0.046677
-0.213381 0.336761 0.365092
0.101488 0.460453 0.188605
-0.007952 0.344580 0.358010
0.237501 -0.211875 -0.452645
-0.176336 -0.179041 0.462445
-0.202415 0.133982 0.477700
0.105874 -0.091649 -0.491574
0.218217 0.467468 -0.175093
-0.147471 0.036795 -0.498807
-0.062424 -0.345855 -0.360220
0.129408 0.423170 -0.265475
-0.155527 0.485824 -0.113661
0.175441 -0.152760 -0.476011
-0.272854 0.049053 -0.497814
0.065355 -0.045367 0.493676
0.285633 -0.280694 -0.413140
0.080783 0.498415 0.004252
0.098787 -0.369880 0.330623
-0.029422 -0.324530 -0.379595
0.187726 0.496800 0.038337
-0.278245 0.467328 0.171514
-0.089214 0.496671 -0.045467
0.030603 -0.444077 -0.226463
-0.059533 0.441077 -0.234223
-0.206284 0.195820 -0.460231
-0.073562 -0.496638 0.026543
0.145047 0.492376 0.075642
-0.186291 0.427116 0.254859
0.131293 0.424769 0.258952
0.189598 0.121381 -0.485373
-0.050351 -0.098968 -0.490314
-0.260107 0.106277 0.484494
-0.120997 -0.479120 -0.135957
0.028368 -0.259929 -0.426576
0.277774 0.278016 0.411377
0.103934 0.491467 -0.085292
0.168668 0.498176 0.017543
0.107634 -0.341676 0.359627
-0.279786 -0.158879 -0.474144
-0.157499 -0.269797 -0.420560
-0.106807 0.272295 -0.419413
0.152055 0.355067 0.347457
0.164387 -0.308969 0.388090
-0.265028 0.129167 0.479055
0.048567 0.455075 -0.205440
0.184786 -0.008899 -0.500193
-0.055405 0.497499 0.029700
-0.043766 -0.061522 0.491971
0.061583 0.365027 0.337226
-0.221469 -0.416054 -0.274974
0.224880 -0.438627 0.232576
0.241030 -0.183468 -0.464980
0.267917 0.331680 -0.374136
0.210144 -0.267934 0.417262
-0.218755 -0.282520 0.407633
0.276403 -0.469023 0.163862
-0.020739 0.121523 -0.485334
0.099147 0.289153 0.403588
-0.038380 -0.279560 -0.413933
0.269049 -0.484243 0.111651
0.283002 0.024311 -0.499767
-0.170960 0.350231 0.352424
-0.277041 0.352400 -0.354537
-0.097135 0.184800 0.460512
-0.073497 0.486630 0.105846
-0.125419 0.475535 0.147723
-0.143727 -0.215304 0.446586
-0.047728 -0.162914 0.468180
-0.218071 0.238762 -0.439553
0.060982 -0.391202 -0.309739
0.033435 -0.105536 0.484354
0.022114 0.353445 0.349122
-0.057344 0.483578 -0.123112
-0.157038 0.132258 0.478226
0.094732 0.225139 0.442294
0.023450 -0.275331 0.412379
0.004129 0.498290 0.011218
0.150553 -0.280267 -0.413439
-0.033404 -0.465847 -0.177192
0.190348 0.454392 -0.206961
-0.000449 0.470671 0.161823
0.009541 0.377356 -0.327853
0.035845 0.395614 -0.305364
0.213904 -0.219529 -0.449062
0.113798 -0.482334 -0.124314
0.263070 -0.448290 -0.217913
0.091951 -0.460956 -0.189294
0.152521 -0.145857 -0.478118
-0.159583 -0.497484 -0.003429
-0.149885 0.024798 -0.499758
0.240289 -0.483062 0.116620
-0.253434 -0.487866 -0.099405
-0.008421 0.495762 -0.053880
0.051127 -0.383383 -0.319433
0.033769 0.065157 -0.495946
-0.182293 0.114752 0.482480
-0.181974 0.049863 0.493327
-0.036234 0.492720 0.073267
-0.262352 -0.407543 -0.287866
-0.083255 0.139013 -0.480506
0.129474 0.481378 -0.132369
0.085182 -0.149939 -0.476872
-0.106342 0.477247 0.142098
-0.290077 0.445646 0.221006
0.124315 0.385933 -0.317506
-0.143698 0.168377 0.466674
0.152672 -0.428572 0.250579
-0.029099 -0.043912 0.493794
0.260037 -0.381401 0.317551
0.023991 0.035457 -0.498915
-0.086222 0.244322 -0.436365
-0.289897 -0.275143 0.412503
0.084026 -0.107382 0.483968
-0.278699 -0.465190 -0.179094
-0.030731 -0.493114 0.064552
0.129071 0.077747 0.489790
0.271046 0.389010 0.309649
-0.246457 0.025233 0.495153
-0.215630 0.480652 0.129765
-0.130244 0.487261 0.102832
0.133651 0.114272 -0.487092
0.125880 -0.493698 -0.063773
-0.196408 0.280599 -0.413931
0.108750 0.083202 -0.493336
-0.037817 0.479361 -0.139015
-0.127270 0.434338 -0.247021
0.107171 0.305145 0.391773
0.079486 -0.400651 -0.297214
0.065978 -0.366337 -0.339181
0.081719 0.332762 -0.373207
0.068692 -0.452737 -0.208889
0.095110 -0.486270 0.103121
0.100449 -0.252645 -0.431017
-0.118367 0.455412 0.200697
0.236475 -0.493001 0.065592
-0.267720 -0.468931 0.164109
-0.133330 0.043361 -0.498275
0.192987 0.343495 0.358993
0.100770 -0.488539 0.091992
-0.157935 -0.462635 -0.185266
0.119675 -0.063909 -0.496052
-0.198418 0.495868 0.049834
0.064776 -0.409992 -0.284156
0.145155 0.438710 -0.238717
0.102542 -0.166806 0.466838
-0.197584 -0.290597 0.401950
0.117091 -0.479618 -0.134153
0.282744 0.460035 -0.194385
0.155266 0.395778 0.300679
0.286669 0.071057 -0.495093
0.062140 -0.021909 0.495438
-0.029811 0.268859 0.417403
-0.019168 -0.403820 -0.293014
-0.099919 -0.497508 -0.002110
-0.188272 0.464719 0.178373
0.074612 0.244134 -0.436473
-0.079213 -0.233203 -0.441862
0.195520 -0.076663 0.489780
-0.113590 -0.435756 0.238028
0.272472 -0.139990 -0.479907
-0.092330 0.486891 -0.109170
0.138857 -0.148314 -0.477368
0.132630 0.474004 0.152160
0.115335 0.173499 0.464752
-0.103330 -0.349834 0.351684
0.029103 -0.492706 0.067787
0.248979 0.455731 -0.203978
-0.178263 -0.038809 0.494207
0.165105 -0.493953 0.056783
0.128878 -0.270711 0.415429
0.245208 -0.411350 0.277744
0.003517 0.493555 -0.073164
0.152854 0.489973 -0.093968
-0.250105 -0.438053 0.233666
-0.094013 -0.380114 -0.323243
-0.182163 0.483460 -0.123610
-0.047358 0.094975 0.486824
0.052368 -0.497166 -0.021081
-0.137033 0.466569 0.173716
-0.219554 -0.128538 -0.483314
0.087603 0.347488 -0.359319
-0.284624 -0.414037 -0.278030
0.071466 -0.426870 -0.257855
-0.047049 -0.492187 -0.074221
0.028904 0.210863 -0.453633
-0.074529 -0.137357 -0.480711
0.276280 -0.284210 -0.410682
-0.118993 0.122106 -0.485173
0.271975 -0.460062 -0.191440
-0.015932 -0.496465 -0.034177
0.097016 0.402568 0.291678
0.086100 0.009573 -0.500032
0.141649 0.263525 -0.425203
-0.023112 0.444525 0.223281
-0.282878 0.319247 -0.384804
0.104523 -0.433177 -0.246857
-0.229319 0.421307 -0.268531
0.219122 0.130284 0.478789
0.114976 0.281191 -0.413540
0.032686 0.401098 0.293627
-0.077423 -0.435561 -0.242699
0.252138 -0.478188 -0.139333
0.280935 0.270958 -0.420295
0.058075 0.363736 -0.342891
-0.230372 0.085034 -0.493071
0.010533 -0.470916 0.158818
-0.094874 0.098016 -0.490498
-0.079708 0.493957 0.064716
-0.160259 -0.387281 0.310176
0.030023 -0.467433 0.168101
0.189541 -0.388987 -0.312676
0.056313 0.050471 0.493262
0.285862 0.448056 -0.220968
0.282605 -0.175817 0.463729
0.255554 -0.488814 0.090397
-0.141470 0.328296 0.372759
0.265381 -0.205135 0.451566
-0.103473 0.417252 -0.275124
0.040538 -0.021245 -0.499640
-0.132147 0.442125 0.228151
0.139301 -0.468328 0.165714
-0.147608 -0.369130 -0.336044
-0.239712 -0.459187 0.189639
-0.251951 0.489017 -0.099521
-0.062744 -0.327707 -0.376718
0.186728 0.144234 0.474572
-0.252931 0.271984 0.415498
0.143966 -0.490638 0.079799
-0.188167 0.364490 0.337778
0.178908 0.164839 0.468002
-0.002912 -0.430111 0.248056
-0.176927 -0.279935 0.409339
-0.266058 0.243179 -0.437020
-0.043160 -0.234054 0.437312
-0.179579 0.401115 0.293604
0.284352 0.470777 -0.166273
0.043428 -0.354285 -0.351561
-0.158150 0.246537 0.431012
-0.024377 -0.470260 0.160567
-0.286402 0.107740 0.484147
-0.228684 0.365958 0.336270
-0.253140 0.149570 0.472944
-0.047482 0.276111 0.412709
-0.068981 -0.494735 -0.055524
-0.113959 -0.490104 -0.088621
-0.262583 -0.467380 -0.172747
0.118617 -0.001801 -0.500237
0.105375 -0.497211 -0.018590
0.225690 -0.052635 0.493087
-0.226430 0.483007 0.121232
-0.138021 0.453076 -0.209893
-0.010761 0.151493 -0.476827
-0.207441 0.197985 0.454984
-0.028301 0.321683 -0.382714
-0.155834 -0.488832 0.090288
0.094678 -0.307506 -0.393427
0.049647 0.428011 0.253298
0.114529 0.271068 0.416057
-0.109066 -0.265843 0.418643
-0.095215 0.118358 0.481623
0.248402 -0.380487 0.318698
-0.248305 -0.237936 -0.439370
0.081905 -0.423001 0.259718
-0.187416 0.325386 0.375395
-0.184311 -0.247572 0.429560
-0.032421 0.134437 0.477561
0.021032 0.082002 -0.493509
0.195504 0.495971 0.048564
0.005119 0.489057 0.094258
-0.107907 0.492696 0.073431
0.120906 0.383042 0.316672
-0.137325 0.305500 0.391490
0.174881 -0.139536 0.475725
-0.033837 -0.097194 -0.490619
0.286779 0.292400 -0.405717
0.237200 0.203914 -0.456856
0.045379 -0.146069 0.473922
0.049244 -0.173089 -0.468875
-0.250252 -0.202366 0.452721
-0.220964 -0.099089 0.485705
-0.248460 -0.419898 0.264808
-0.288944 0.140450 -0.480109
0.206771 0.005232 -0.500111
0.118821 -0.476830 0.139598
-0.115563 -0.104042 -0.489136
-0.145401 0.337668 -0.368879
0.069548 0.498567 -0.004177
0.146251 -0.120403 0.481007
0.038798 0.022745 0.495265
0.201415 -0.253180 -0.430690
-0.066677 0.045567 0.493792
0.273855 -0.242269 -0.437088
-0.284395 -0.471968 -0.159446
0.044216 -0.286847 -0.408837
-0.079710 0.286817 -0.409825
0.139208 -0.425546 -0.260164
-0.224508 -0.471757 0.156224
-0.218160 0.481980 -0.129838
0.164251 -0.212709 -0.452270
-0.081077 0.498363 -0.015288
-0.224381 -0.019730 0.495478
-0.150270 -0.046982 -0.497881
-0.066263 0.494687 -0.063828
0.206594 0.495063 -0.060351
0.142570 0.476886 -0.147127
-0.286097 0.495759 0.051186
-0.290092 0.341250 0.361026
0.106487 0.034016 -0.499032
0.168137 0.005420 -0.500107
0.144693 0.136433 -0.481218
-0.215056 -0.142176 0.474996
-0.063352 -0.271639 0.414816
0.138070 0.408150 0.284145
-0.077655 0.494724 -0.063487
-0.187083 -0.332640 -0.372249
0.063188 -0.206416 0.450966
0.180886 0.458047 -0.198816
-0.289342 0.404716 0.288831
0.282018 -0.483694 0.113957
-0.223707 -0.487694 -0.100227
-0.257107 -0.495271 0.044586
-0.103942 -0.326838 -0.377504
0.255352 0.332265 0.369164
0.130157 0.003930 0.495904
0.173479 0.187093 0.459651
0.227668 -0.405277 -0.291083
-0.153296 -0.295797 -0.402578
0.015216 0.148445 -0.477878
0.286791 0.373433 -0.332186
0.067214 -0.433036 -0.247102
-0.270437 -0.049980 -0.497557
-0.224343 0.463636 -0.185303
-0.276556 0.435052 -0.245665
-0.077265 -0.314711 -0.387682
-0.078324 0.048823 -0.497832
-0.170385 0.088378 -0.492517
0.165148 -0.496714 0.024860
0.053874 -0.409858 -0.284359
0.076051 -0.252074 -0.431365
-0.255690 0.472062 -0.162848
-0.237069 0.231130 0.439140
-0.114632 0.441649 0.229116
0.169913 0.204842 -0.456469
0.081063 -0.451113 0.207632
-0.063701 0.110004 0.483609
-0.182544 0.277862 0.411484
-0.001246 0.261343 0.421986
-0.061409 0.498496 -0.000241
0.174678 0.256901 0.424693
-0.082763 -0.222921 -0.447276
0.069438 0.428478 0.252484
-0.183384 -0.476763 0.139818
-0.047787 -0.356255 0.345433
0.126766 0.170022 0.466056
0.260728 -0.486390 0.102615
0.122399 0.237041 -0.440540
0.100463 -0.497472 -0.004068
0.007904 -0.215493 0.446493
0.189863 0.465735 -0.179710
-0.091837 -0.181185 -0.465837
-0.075077 0.493196 -0.075247
0.079272 0.076374 0.490026
-0.056329 -0.264014 0.419850
-0.252177 0.405363 -0.292123
-0.010742 -0.479710 -0.133820
-0.028496 0.239454 -0.439156
-0.086149 -0.425965 0.254856
0.054066 -0.056898 -0.496810
-0.147639 0.108111 -0.488383
-0.084419 0.471962 -0.163114
-0.158987 0.253489 -0.431108
-0.250681 -0.243258 0.432034
-0.002244 -0.161031 0.468830
0.265801 -0.440630 0.228772
-0.150075 -0.184914 0.459997
-0.123527 -0.277950 0.410650
-0.050569 0.498051 -0.022250
0.196073 0.498103 -0.021075
-0.220714 -0.166212 0.467042
-0.158902 0.292206 0.401452
-0.025486 0.492020 0.078106
-0.031522 -0.234511 -0.441173
-0.030110 -0.435732 0.238074
-0.083395 -0.488058 -0.098489
0.016391 0.209872 -0.454122
0.250946 0.165240 -0.472085
-0.259089 -0.494676 -0.056251
0.069484 -0.482907 0.117273
-0.278018 -0.179987 0.462051
0.115577 -0.365789 0.335140
0.019558 0.050705 -0.497680
0.219426 -0.380369 -0.322946
-0.290243 -0.440368 0.229269
-0.080043 0.001990 0.495869
0.088345 0.498094 0.022086
0.175849 -0.447688 -0.219135
-0.073407 0.056707 0.492588
0.157783 0.345657 -0.361101
0.241959 0.252056 0.427647
0.166264 0.491077 -0.087555
-0.163839 -0.207907 -0.454425
0.273539 0.242287 0.433266
0.219424 -0.482878 -0.122342
-0.056248 -0.414972 0.272566
-0.100357 -0.219943 -0.448844
0.057893 0.490980 -0.088119
-0.065787 0.140346 -0.480138
0.178443 0.184496 -0.464952
-0.263814 -0.484276 0.111510
-0.139037 0.226015 0.441833
-0.125356 -0.200615 0.453451
-0.254742 -0.113853 -0.486804
0.035803 0.448629 0.214951
0.026725 -0.495178 0.045447
-0.111459 0.297285 0.397900
0.177083 0.151161 0.472458
-0.227181 -0.062072 0.491891
-0.270265 -0.227131 0.440759
-0.266445 0.141759 0.475327
-0.156908 0.116535 0.482057
0.274081 0.012071 0.495744
0.229794 -0.480468 0.127534
-0.014489 -0.119238 0.481328
0.241223 0.453418 0.205234
0.194298 -0.027660 0.495110
-0.289736 -0.383240 -0.319600
-0.097619 0.415582 0.272887
-0.056066 0.423157 -0.265497
0.144689 -0.405916 0.285515
0.268314 -0.324192 0.375328
0.195599 -0.016937 -0.499833
0.007968 -0.388385 -0.313474
-0.275709 -0.430020 -0.252361
0.117841 0.490478 0.087477
-0.166070 -0.496748 0.024093
0.155224 -0.427355 -0.257008
-0.251077 0.451867 -0.212588
0.254596 0.196910 0.455467
-0.254827 -0.128048 -0.483431
-0.021182 -0.288487 0.403542
-0.016011 -0.388607 0.308514
-0.260108 -0.428160 -0.255605
0.162669 0.354018 0.348535
-0.217627 0.068979 -0.495394
0.281040 0.235283 0.436953
-0.158715 -0.126077 -0.483899
0.002606 0.487700 -0.105766
0.058704 -0.190825 0.457532
-0.206837 0.475684 0.147292
-0.157728 0.498598 -0.005901
-0.241327 0.324337 0.376345
0.239797 0.000620 0.495844
0.273806 0.483231 0.120424
0.082308 0.182130 -0.465938
-0.035084 -0.410390 0.279117
0.091971 -0.229733 0.439476
0.130468 -0.492712 0.067752
0.037283 -0.377560 0.322144
0.033685 0.027002 -0.499600
-0.083387 -0.336976 0.364202
0.168058 -0.115934 -0.486309
-0.288410 0.244768 -0.436109
0.169088 0.318109 -0.385780
0.035482 0.307651 0.389775
0.097156 0.328033 0.372998
-0.241357 0.497918 -0.025216
-0.084790 0.418923 -0.272441
-0.288971 -0.333876 0.367018
-0.010130 -0.482548 0.118781
-0.278695 0.255541 -0.429931
-0.038028 -0.068699 -0.495525
-0.029428 -0.490352 0.081460
0.005617 -0.099539 0.485611
0.285659 -0.249058 0.428708
0.065749 0.402669 0.291544
-0.091460 -0.235326 0.436582
-0.240165 0.360436 0.341942
-0.239579 0.171591 0.465468
-0.171385 -0.219485 0.444526
0.216663 0.414734 0.274172
-0.223377 0.154943 0.471304
-0.158070 0.498101 0.021682
-0.030789 0.420095 -0.270519
0.243656 -0.480223 -0.131961
0.129705 0.242361 0.433226
0.088037 -0.316317 0.382085
0.266367 0.148425 0.473293
-0.275930 -0.017366 0.495520
0.128648 0.011195 -0.500003
0.178619 -0.110963 -0.487491
-0.069470 -0.108037 0.483830
-0.032290 -0.494852 -0.054084
-0.069663 -0.483389 -0.120492
0.274811 0.193933 -0.461017
-0.123582 0.395821 0.300621
-0.154019 0.432280 -0.250531
-0.081154 0.450664 0.210822
-0.012265 0.361182 0.341176
-0.207559 0.123511 0.480399
-0.073873 -0.159528 -0.473946
-0.060985 0.382631 0.317150
-0.054741 -0.411902 -0.281262
-0.242749 -0.259787 0.422555
0.065408 0.291425 -0.406452
-0.113585 -0.278339 -0.414787
0.206766 -0.297985 -0.401018
-0.020846 -0.415639 -0.275602
-0.072203 -0.388443 -0.313396
0.070822 0.367472 -0.338766
-0.287413 -0.398510 -0.300052
0.075980 0.456646 0.197737
0.148031 -0.302544 0.392937
-0.158067 0.399654 -0.300287
-0.208637 -0.341698 -0.364046
0.106831 -0.201439 0.453107
-0.017385 -0.091343 -0.491626
-0.246499 -0.495420 0.043209
0.260421 0.494296 0.062371
0.029322 0.042049 0.494172
-0.042838 0.192856 0.457286
0.151178 -0.494195 0.054550
-0.163430 -0.048713 -0.497694
0.083089 -0.445938 0.218691
0.189713 -0.497121 -0.023569
0.048644 0.489914 -0.094310
0.068426 0.326041 0.374801
-0.275566 0.022189 0.495290
-0.112020 -0.464153 0.176841
-0.146832 0.233640 0.437818
0.151815 -0.446165 -0.222226
0.187246 0.495256 -0.058566
0.147556 0.478624 0.137112
-0.217293 -0.186171 0.459473
0.155165 -0.496839 0.022072
0.164110 0.392187 0.305438
-0.205027 -0.337867 0.363334
-0.193926 -0.492977 0.065814
0.020417 -0.493870 0.057557
-0.279346 0.463248 0.181902
0.128701 0.349176 -0.357675
-0.040622 0.465461 -0.180439
-0.160383 -0.485544 -0.110491
0.195562 -0.423609 -0.263530
-0.111806 0.169377 0.466298
0.209934 0.222089 0.443900
-0.277091 0.170520 0.465870
-0.030956 0.352769 -0.354177
0.255504 0.347242 -0.359558
0.135234 0.365838 0.336393
0.095251 0.497273 -0.039591
0.098476 -0.049851 0.493313
-0.006706 0.416232 -0.276583
0.019186 0.473754 -0.157393
0.181224 -0.009456 0.495663
0.096591 0.431476 -0.251850
-0.225743 0.049939 -0.497742
-0.013447 -0.303383 -0.396714
0.162231 -0.069759 0.490779
0.149605 -0.489867 -0.089856
-0.197906 -0.471336 0.157603
0.232491 0.080556 -0.493719
0.144641 0.132851 0.478045
-0.026545 -0.128690 0.478719
-0.287669 -0.371631 -0.333129
-0.057044 -0.453503 0.202304
0.074933 0.495552 0.053694
0.187737 0.479383 -0.138944
-0.006490 -0.008661 0.495677
0.045388 0.045405 -0.498109
0.094650 -0.476038 0.142194
0.275632 0.212693 0.448384
0.207791 0.465937 0.175452
0.188010 -0.043664 0.493814
0.231715 0.248945 0.429544
-0.149205 0.422641 -0.266343
0.021438 -0.457674 -0.197167
-0.173547 0.450338 -0.215995
0.181887 0.130616 -0.482824
-0.186854 0.240857 -0.438352
-0.175762 -0.202998 0.452457
0.261138 -0.416779 0.269925
-0.243232 0.397614 0.298245
0.149497 0.467686 0.170479
0.071507 0.432089 -0.250845
-0.056182 0.467711 -0.174443
0.099218 -0.494773 -0.055059
0.185781 -0.327242 -0.377139
-0.228689 0.455050 -0.205495
-0.043641 -0.213406 0.447522
-0.047943 0.362907 -0.343807
-0.062924 0.083405 0.488816
0.171091 -0.497239 -0.017003
-0.057601 0.224788 0.442479
0.116174 0.070752 -0.495137
0.286368 0.460631 0.188178
0.270612 -0.403846 -0.292979
0.096450 -0.260978 -0.425936
-0.282747 -0.228188 0.440238
-0.277876 -0.419597 0.265301
0.260567 0.234384 0.437427
0.130085 -0.038781 0.494209
0.000204 -0.467044 -0.173722
0.264874 0.181456 0.461766
-0.040590 -0.429119 0.249682
0.012156 -0.395960 -0.303432
0.110377 0.389460 0.309053
-0.117422 0.150939 -0.477018
-0.180479 -0.438794 -0.237061
-0.218853 -0.238012 0.435042
0.137633 -0.160989 -0.473415
0.155691 -0.057064 -0.496792
0.133141 -0.472446 -0.158060
-0.006288 -0.085791 0.488460
0.252007 -0.032235 0.494740
-0.005280 -0.446559 -0.221426
-0.216733 -0.480146 -0.132240
-0.248506 0.390375 -0.311936
0.153085 0.404326 0.289348
0.184571 0.453837 0.204382
-0.084663 0.148963 -0.477699
-0.140301 0.369626 -0.336388
0.241032 0.445628 -0.225579
0.274606 0.083376 0.488821
0.224507 0.447632 0.216976
0.274795 0.380767 0.319323
-0.237769 -0.482376 -0.124162
-0.166724 -0.479661 0.130319
-0.198690 0.106145 -0.488795
0.038635 -0.462182 -0.186354
-0.149759 0.498300 0.010670
0.156163 0.450874 0.210395
-0.069501 -0.491539 -0.078697
0.259689 0.498188 -0.019196
-0.116625 0.314566 -0.388821
0.143518 0.384071 -0.319841
0.161460 0.498322 0.009415
-0.096987 -0.099937 0.485527
-0.256069 -0.091461 -0.491606
-0.167652 -0.143401 0.474658
-0.120448 -0.369158 0.331421
0.162806 0.035356 -0.498923
0.264686 0.363765 0.338523
-0.151855 0.395531 0.301006
0.085423 0.491941 0.078651
-0.244372 0.239323 0.434826
-0.072297 -0.253079 0.426402
0.080794 0.257443 0.424363
0.081200 -0.439749 0.230445
0.113263 -0.462701 -0.185108
-0.107682 0.363321 -0.343349
-0.218081 0.361909 0.340429
0.208892 0.370441 -0.335489
0.158257 0.497583 -0.032670
0.202680 0.311056 -0.391642
0.145328 0.495794 0.050750
0.253293 0.046715 0.493668
-0.170113 0.387164 -0.315962
-0.283003 -0.107972 -0.488202
-0.163893 0.203645 0.452444
-0.032488 0.319094 0.380651
-0.033172 0.441079 0.230274
-0.215860 0.477376 0.141632
-0.034421 0.387528 -0.315506
-0.209425 0.418695 -0.272816
-0.097885 -0.262512 -0.425001
-0.273138 -0.346381 -0.359680
-0.092291 0.142102 0.475223
0.185002 -0.400569 -0.297323
-0.161661 -0.486185 0.103477
0.225353 -0.372088 0.328185
0.201399 -0.066154 0.491301
-0.101537 -0.176699 0.463422
0.248813 0.498510 -0.012014
0.169839 0.326710 -0.378400
-0.238140 -0.394855 -0.304898
-0.237726 0.483829 -0.122057
-0.174256 0.282767 -0.412499
-0.008122 -0.416679 0.270088
-0.236037 0.451251 0.209631
-0.110155 0.475151 -0.152812
-0.281006 -0.439959 -0.234821
0.035331 0.322976 -0.381604
0.171089 0.490754 0.086158
-0.267567 -0.460037 -0.191498
0.085523 0.410210 -0.285194
-0.180411 -0.464950 -0.179715
-0.123272 -0.420725 -0.267899
0.131064 -0.412336 -0.280606
-0.208230 0.318970 -0.385041
0.172009 -0.030147 -0.499240
-0.036829 -0.178048 -0.467014
0.084504 0.498631 -0.007703
-0.230725 -0.028604 0.495034
0.249041 -0.033272 -0.499100
-0.278261 0.479995 0.132145
0.245926 -0.344796 0.356589
-0.239872 -0.157732 -0.474494
-0.266046 0.477645 -0.144640
0.211208 -0.210086 -0.453447
0.217157 -0.028134 0.495072
0.265461 -0.025297 0.495302
0.212815 0.488185 0.098420
0.282770 -0.425011 -0.261096
-0.147970 -0.474282 0.147949
-0.127371 -0.141115 -0.479564
0.131942 0.456852 -0.201480
0.085029 -0.496480 -0.033993
-0.108312 0.308704 -0.393416
0.171948 -0.365397 0.335572
-0.263485 0.498014 -0.023070
0.002276 -0.399478 0.294720
-0.100324 -0.044961 -0.498100
0.061108 -0.485848 0.104896
-0.063454 0.055655 -0.497279
-0.284797 -0.489984 -0.089298
0.129231 -0.252585 0.426686
-0.102975 0.135812 0.477142
0.253897 -0.149295 -0.477068
-0.056120 -0.130089 0.478333
0.129168 0.470077 0.163546
0.072211 0.177867 -0.467716
-0.253452 0.050198 -0.497721
0.071756 0.355874 0.346628
-0.274700 -0.141198 -0.479539
0.109186 -0.235778 -0.440506
-0.289175 0.385391 0.313934
-0.254776 0.363262 -0.343415
-0.035139 0.223714 -0.447301
0.114323 0.025623 -0.499712
0.160539 0.256056 -0.429636
0.066359 0.097277 -0.490652
-0.290174 -0.497551 0.000307
-0.169177 -0.224771 -0.446302
0.206522 0.481779 0.125681
0.284278 0.040253 0.494366
0.113422 0.039229 0.494477
0.211075 0.494217 0.062920
0.007635 -0.497389 -0.008724
0.139375 -0.419497 0.265466
-0.285494 0.338638 -0.367934
0.286069 0.432307 -0.250488
-0.240120 -0.034293 0.494573
0.238273 0.215390 -0.451402
-0.108909 -0.341283 -0.364421
0.265014 0.403908 -0.294204
-0.065052 -0.033562 -0.499087
0.092127 0.223454 -0.447429
-0.088779 -0.496826 0.022365
0.043741 -0.426480 0.254012
0.103445 -0.206642 -0.454993
0.267867 0.463358 0.181638
0.032240 -0.410195 -0.283849
-0.244450 0.457957 -0.199017
-0.213208 0.498182 -0.019319
-0.016102 0.011632 -0.499995
0.238595 0.494107 -0.069201
-0.244681 -0.461784 -0.187308
-0.116359 0.478598 -0.141516
-0.124235 0.027615 -0.499550
-0.286488 0.378261 0.322244
0.249829 -0.454930 0.199126
0.035027 -0.182623 0.460952
-0.271552 0.127461 -0.483695
0.008799 0.468683 0.167587
-0.226666 -0.367378 -0.338085
-0.049394 -0.466037 -0.176639
-0.011263 0.485484 0.111314
0.011054 0.465939 -0.179165
0.080733 -0.211066 0.448675
0.102668 0.408736 0.283257
-0.282416 -0.345292 0.356106
0.094854 -0.330310 -0.374360
0.282622 -0.406454 0.284745
-0.053065 0.446395 0.219485
0.006682 0.227124 0.441249
0.087091 -0.268295 -0.421476
-0.256222 -0.403566 0.288874
-0.250922 0.491709 0.080256
-0.160638 0.355030 0.347495
-0.187463 0.488630 -0.101768
0.071297 -0.325154 0.374502
-0.199472 -0.027910 -0.499341
0.025239 -0.427513 -0.256734
-0.032554 -0.257305 0.423979
-0.013077 0.476431 0.145057
0.111238 0.143810 -0.479181
0.170526 0.482737 -0.126652
-0.226757 0.362571 -0.344178
-0.006199 -0.350616 0.350922
0.136246 -0.010542 -0.500120
0.223133 -0.197933 -0.458901
-0.116744 0.048913 -0.497825
-0.267635 -0.475960 -0.147402
-0.079426 -0.180633 -0.466044
0.226137 -0.497116 -0.023858
-0.247160 0.491165 -0.087044
0.105793 -0.496434 0.031085
-0.256273 -0.442412 -0.229843
0.200128 -0.478294 -0.138949
0.094534 -0.090398 0.487526
-0.125696 -0.351233 -0.354696
0.136141 -0.389056 -0.312583
0.003260 -0.310576 0.386878
0.079956 0.301782 0.394455
-0.086880 0.333314 0.368214
-0.041944 0.488838 -0.100562
-0.064180 0.422098 0.263017
-0.282745 0.129222 -0.483208
0.006272 -0.426777 -0.258017
-0.064624 -0.217138 0.445683
0.164845 0.221343 0.444293
0.032681 0.387326 -0.315759
0.091462 -0.284495 -0.410482
0.097290 0.424488 -0.263312
-0.213028 0.045708 -0.498085
-0.171661 -0.291171 0.401517
0.001073 0.497030 0.035492
-0.193682 0.481600 -0.131437
-0.287817 0.067418 -0.495619
-0.278156 -0.359935 0.341603
0.241737 0.164765 0.468029
0.210218 -0.141495 -0.479448
-0.105691 0.471127 0.160501
0.143733 -0.433851 -0.245680
-0.094917 -0.033007 -0.499112
0.241286 -0.475398 -0.149440
0.052037 -0.420370 0.264034
0.107744 0.481536 0.126563
0.136967 -0.183153 0.460731
-0.249956 0.100603 0.485843
0.257285 0.426467 -0.260067
-0.016288 0.493307 -0.074605
0.059967 0.496518 -0.046888
0.197526 0.469800 0.164348
-0.201323 -0.128058 -0.483428
-0.033348 -0.356642 -0.349140
-0.268731 -0.084197 -0.492857
0.057145 -0.032222 -0.499147
0.080086 -0.027737 0.495104
0.057011 -0.080136 -0.493556
-0.288956 -0.492022 -0.075364
-0.026651 -0.348750 -0.357246
-0.132764 0.135401 -0.481503
-0.284947 -0.082270 0.488969
0.037791 -0.494083 0.055580
0.121489 -0.444633 0.221168
-0.153121 0.374598 -0.330899
0.214930 -0.000418 0.495825
-0.232310 -0.467911 0.166826
-0.244354 -0.169399 0.465943
0.177411 0.045814 -0.498076
-0.212475 0.420031 0.266149
-0.078500 0.476920 0.143284
-0.226512 0.487632 0.101063
0.249433 -0.483644 -0.119562
0.058780 -0.267634 -0.421879
0.073433 -0.497256 -0.016071
0.115180 0.459789 0.190197
-0.002780 -0.295075 -0.403083
0.047369 -0.270791 0.415376
0.112353 0.345881 0.356832
-0.274416 -0.483270 0.115744
0.136223 0.286608 -0.409963
0.034388 -0.489624 -0.091012
0.025851 0.343052 -0.363637
-0.232612 0.194282 -0.460872
0.165573 -0.254113 -0.430122
0.079805 -0.279785 -0.413776
0.268753 -0.208201 -0.454293
-0.174832 0.418404 0.268613
-0.225565 -0.315730 0.382589
0.010811 -0.065893 -0.495838
0.213250 -0.061118 0.492029
-0.144802 0.480607 0.129929
-0.142913 -0.471046 -0.162119
-0.172176 0.175290 -0.468618
-0.217096 -0.335685 -0.369492
0.255605 -0.190692 -0.462150
0.174927 -0.003167 -0.500262
-0.150576 -0.106380 -0.488580
-0.083678 0.468237 -0.173042
-0.218944 0.497036 -0.042090
0.182549 0.348110 0.354603
-0.201790 0.429430 -0.255207
0.005862 -0.152145 0.471895
0.003169 0.063211 0.491885
-0.101551 -0.125114 -0.484128
-0.197127 -0.363016 0.338202
-0.120887 0.378149 -0.326978
-0.181329 -0.446326 0.217954
-0.212948 0.237924 0.435563
-0.187024 0.330390 -0.375243
0.285929 0.334833 -0.371430
-0.016162 0.488608 0.096402
0.123796 -0.090593 -0.491756
-0.050068 0.376736 0.324021
-0.071116 -0.474010 -0.153526
-0.162194 -0.015746 -0.499886
0.105127 -0.433321 0.242653
-0.057490 0.393520 -0.307990
-0.028319 -0.026170 -0.499419
0.041162 -0.248727 0.428898
-0.234721 0.401877 0.292594
-0.007686 -0.453333 -0.207580
0.165098 -0.331612 0.368961
0.286645 0.343623 -0.363082
0.136561 -0.011587 0.495624
0.246643 0.465137 -0.181303
-0.232708 0.195475 0.456110
0.023820 0.469138 0.166268
0.172110 -0.311428 -0.390299
-0.196954 -0.411984 -0.281139
0.145096 -0.494896 -0.053543
0.027154 0.093974 -0.491344
0.140640 0.311002 0.387103
-0.214693 0.013435 0.495682
0.124646 -0.013514 -0.499986
-0.014067 -0.423933 -0.262976
-0.086431 0.485460 0.111431
-0.008236 -0.132649 0.477626
-0.066433 -0.068987 0.490891
0.138599 0.295959 0.398828
-0.050448 0.473436 -0.158435
-0.252662 -0.464312 -0.181244
-0.249918 0.243619 -0.436768
-0.177243 0.330508 0.370756
-0.206269 0.282724 -0.412527
0.244791 0.082619 -0.493420
-0.242025 -0.078441 0.489523
0.236948 0.481465 0.126821
0.032297 -0.462908 0.180160
-0.132029 -0.489402 0.086977
0.258359 0.489725 -0.095406
0.210263 -0.353436 0.348177
0.147139 0.302209 -0.398317
0.158896 0.330809 0.370483
-0.039783 0.401326 -0.297897
-0.172720 0.386465 0.312682
0.213954 -0.265564 -0.423141
0.235315 -0.398318 0.296334
0.229813 0.305580 0.391426
0.133931 0.488531 0.096772
-0.067489 0.374003 -0.331556
0.041950 0.483223 0.120451
0.145751 0.445180 -0.226431
0.143719 0.485934 -0.113199
-0.154611 -0.471422 -0.161030
0.174089 0.038128 0.494575
-0.026938 0.364183 0.338093
-0.048595 0.457408 0.195909
-0.193387 0.442375 -0.231758
0.112765 -0.460535 0.186484
-0.256843 -0.388802 -0.312921
0.132886 -0.338524 0.362695
-0.251759 -0.468284 -0.170127
0.265310 -0.166163 -0.471473
0.240996 0.103697 -0.489308
-0.097877 -0.208689 -0.454074
0.258098 0.294004 -0.404506
-0.008742 -0.339619 -0.365929
0.043363 -0.335631 0.365511
0.134002 0.492080 -0.081731
-0.118368 0.135864 -0.481375
0.193624 -0.337295 0.363891
0.106634 0.482894 -0.125992
-0.115554 -0.079820 -0.493610
-0.171579 -0.349376 0.352130
0.191922 0.373224 0.328114
-0.160940 -0.377537 -0.326247
0.164126 -0.015663 0.495551
0.094067 -0.238807 0.434586
0.200590 0.478097 -0.143159
-0.236285 0.125092 -0.484349
-0.284375 -0.412826 0.275634
-0.150937 0.232756 -0.442845
-0.032972 -0.167379 -0.471017
-0.111272 -0.297921 -0.401069
-0.202109 0.264573 0.420016
0.283391 0.176272 0.463711
-0.056263 0.453459 0.205151
0.174983 -0.495956 -0.040459
0.076471 -0.472004 -0.159343
0.119239 0.357454 -0.349616
-0.015863 -0.476056 -0.147056
-0.265813 -0.494486 0.051852
0.240086 0.194376 0.456604
0.042561 -0.094185 -0.491137
-0.068636 -0.263001 0.420518
0.226763 -0.166884 -0.471203
0.127320 0.293160 -0.405143
0.202757 -0.471937 0.155634
0.226517 0.279729 0.410178
-0.043918 0.496097 -0.050780
0.258077 0.444986 -0.226798
0.258691 0.283459 -0.412043
-0.187229 0.096449 0.486570
0.138899 0.254830 0.425956
0.198954 -0.137588 -0.480640
-0.138589 0.206891 -0.455590
-0.289516 0.461602 0.185849
-0.243321 0.235885 -0.441203
0.020273 0.287228 -0.409554
0.014441 -0.223842 -0.446791
0.102861 0.470923 0.161093
-0.102936 0.403933 -0.294168
-0.067936 -0.410255 0.279311
0.135940 -0.318951 0.379825
0.001405 0.280280 0.409793
0.164441 0.375192 0.325820
0.111327 -0.497574 0.001578
-0.032269 0.471790 0.158579
-0.094070 -0.420979 -0.267514
-0.186407 -0.292248 0.400705
0.084126 -0.497433 -0.006248
-0.006416 0.161853 -0.473253
0.057345 -0.489640 -0.090938
-0.002065 0.108071 -0.488391
0.087199 -0.378146 0.321497
0.222020 0.440849 0.230740
0.140409 0.091231 0.487469
-0.080307 0.498214 0.015437
-0.204437 -0.219364 0.444586
-0.246626 -0.492610 0.068345
-0.245100 0.198084 0.454940
-0.266222 0.340119 -0.366493
0.182136 0.215268 -0.451463
-0.048091 -0.349174 -0.356810
0.119524 0.498046 -0.022360
0.284360 -0.319209 0.379604
-0.156032 0.417674 -0.274490
-0.266862 -0.162652 0.468270
-0.025067 0.101262 -0.489818
0.011845 0.336575 0.365260
-0.139070 0.141790 0.475317
-0.168595 -0.382823 -0.320086
-0.243551 0.498227 0.014694
-0.203749 -0.492164 -0.074379
-0.169734 0.075105 -0.494507
0.271181 -0.496290 0.034301
0.238132 -0.032649 0.494706
-0.019103 0.074169 0.490406
-0.165026 0.472205 0.157376
0.042255 -0.470758 -0.162954
0.065567 -0.192590 -0.461298
-0.258660 0.464638 -0.182632
0.032064 -0.056348 -0.496869
0.198759 0.442593 0.227202
0.056214 0.163572 0.468477
0.284090 0.374550 0.326568
-0.124115 0.421670 -0.267936
-0.242200 -0.022908 -0.499565
0.052116 0.293560 -0.404842
-0.109909 -0.032762 -0.499123
-0.154945 -0.343463 -0.362447
-0.202379 -0.489294 0.087606
0.238480 0.286722 0.405288
-0.114755 -0.075100 0.490006
-0.012234 -0.497408 -0.007668
-0.110679 -0.467784 0.167164
-0.131905 -0.491264 0.076162
-0.148355 0.179556 -0.467011
-0.181821 -0.123100 -0.484607
-0.283306 0.014387 0.495640
-0.199004 0.446409 -0.224095
0.098887 0.491707 0.080270
0.236565 -0.120087 -0.485323
-0.245899 -0.261321 -0.425728
-0.251084 0.018878 -0.499865
-0.033842 0.106905 -0.488636
-0.146923 -0.493905 0.057233
0.262308 0.394826 0.301941
-0.246728 0.164804 0.468015
0.073069 -0.494110 0.055336
0.245497 -0.490580 -0.085326
0.116714 0.496256 0.045052
0.271486 0.296728 -0.402451
0.133043 0.126673 0.479648
0.108498 0.183140 0.461134
-0.168902 -0.337814 0.363386
-0.254150 -0.247702 -0.434030
0.240830 0.401159 0.293546
0.051981 -0.156045 0.470550
-0.166804 0.330638 -0.375030
0.077721 0.032336 0.494835
-0.200989 -0.316941 -0.385903
0.207951 -0.368652 -0.336601
-0.121824 0.353915 0.348640
0.261770 -0.398583 0.295999
0.006627 0.478312 -0.142454
-0.285030 0.498220 0.015102
0.157809 -0.402940 -0.294180
-0.024155 -0.431139 0.246369
-0.101099 0.227455 0.441075
0.026499 -0.349906 0.351614
0.133895 0.414202 0.274977
-0.102717 -0.473943 0.149060
0.125667 -0.143406 -0.478865
0.219097 -0.490414 0.081101
-0.288302 0.328942 0.372174
-0.182033 0.344487 0.358094
-0.265473 -0.200082 -0.457937
0.018585 -0.014332 -0.499950
-0.079048 -0.017097 -0.499826
-0.075764 0.188750 -0.463178
-0.273813 -0.228045 -0.444578
-0.022270 -0.497319 -0.012574
0.075503 0.471403 0.159702
0.130922 -0.288688 -0.407549
0.282179 -0.161474 0.468677
-0.064714 -0.421057 0.262907
-0.000619 -0.397632 -0.301216
-0.035500 -0.416108 -0.274892
-0.202545 -0.459961 -0.191680
-0.053596 -0.489212 -0.092983
0.080340 0.481422 0.126976
-0.145908 0.496554 -0.046557
-0.243520 -0.485459 -0.110896
0.070218 -0.447188 0.216316
-0.154462 0.006248 0.495946
0.084123 -0.362915 0.338313
0.016291 0.093054 0.487155
0.176791 -0.481754 0.122124
-0.250060 -0.398470 0.296145
0.032074 0.420178 -0.270383
-0.011134 -0.431765 -0.249318
-0.001058 -0.021100 -0.499646
0.221409 -0.478277 0.134857
-0.119589 0.455160 -0.205251
-0.127196 -0.103740 0.484731
-0.179418 -0.390992 -0.310017
0.273109 -0.086547 0.488332
0.235669 0.498030 0.023149
0.159599 -0.030502 0.494880
0.217629 0.492991 -0.076435
0.054548 -0.281263 0.408462
0.039657 0.492074 0.077735
-0.093645 0.498293 0.011054
-0.289609 0.165578 0.467724
0.006459 -0.483336 0.115465
-0.027867 -0.334988 -0.370123
0.275564 0.498137 0.019688
0.219977 0.302327 0.394020
-0.144451 0.459338 0.191279
-0.066766 0.356029 0.346469
0.111220 -0.279898 0.409363
-0.228014 0.107799 0.484133
0.118709 -0.129034 -0.483196
-0.044934 -0.314303 -0.388007
0.254817 0.007662 -0.500067
-0.284427 -0.027329 0.495137
0.242908 -0.497176 -0.020545
-0.008547 -0.403683 -0.293195
0.111662 -0.397627 -0.301223
-0.177747 0.224202 -0.447060
-0.277081 0.223555 0.443128
0.244711 -0.377498 -0.326292
0.047923 -0.182666 0.460934
-0.022398 0.248938 -0.433718
0.083465 -0.069822 0.490770
0.167833 -0.242481 -0.436977
0.045115 -0.230199 -0.443444
-0.264207 -0.091845 0.487222
-0.197827 0.219903 0.445051
-0.067921 -0.298428 0.396042
0.134024 -0.374207 -0.330127
0.273704 -0.435984 -0.241961
-0.100382 0.497921 -0.025141
-0.092196 0.004615 0.495916
0.088039 0.162384 -0.473070
-0.269425 -0.109056 -0.487944
-0.089822 -0.083140 -0.493039
0.227652 0.391200 0.306746
0.015188 -0.493725 -0.063589
0.262061 0.060581 0.492169
-0.004419 0.492052 -0.081894
0.207204 0.270617 -0.420520
-0.178465 -0.307320 -0.393575
-0.127588 -0.328623 0.371525
-0.004274 0.459420 -0.195757
0.164281 0.107443 -0.488523
0.042873 -0.492059 -0.075106
-0.230719 0.497435 -0.035979
0.179704 -0.051045 0.493216
0.266700 -0.006808 -0.500287
0.258483 -0.379093 -0.324432
0.284144 -0.361392 0.339994
-0.213891 0.298350 -0.401228
0.139525 0.010229 0.495826
0.267721 0.114182 0.482616
0.015946 -0.361796 -0.343846
0.055835 0.330546 -0.375108
0.167681 0.279209 0.410542
-0.060350 0.173945 -0.469082
0.274763 0.169833 0.466128
0.135633 0.301590 -0.398783
0.227732 -0.229311 0.439684
-0.042287 -0.485331 0.107069
-0.191517 -0.476257 -0.146328
0.148566 0.433418 -0.248666
0.249609 0.323822 0.376811
0.188268 0.343414 -0.363285
0.055421 0.497539 -0.033663
-0.289524 0.412176 0.278046
0.219776 0.047651 0.493566
-0.109228 0.483380 0.119884
0.236610 -0.477889 -0.140415
0.067087 0.002523 0.495878
0.070871 -0.112065 0.482987
-0.059819 0.495999 -0.051692
-0.207290 -0.297989 -0.401015
0.168794 -0.340719 0.360558
-0.093080 -0.496979 -0.027824
0.153235 0.494932 -0.061562
-0.065906 0.338285 -0.368279
-0.121892 0.168794 -0.470859
0.219087 0.245670 0.431484
0.038355 0.314321 -0.389030
0.244458 -0.423005 0.259711
-0.158007 0.494080 0.063866
0.251887 0.158243 0.470298
0.025134 -0.398746 0.295767
0.009389 0.377094 0.323603
-0.186576 -0.354944 -0.350884
-0.069766 0.074487 -0.494597
0.071109 0.398830 -0.301332
-0.087352 -0.171717 -0.469389
0.198120 -0.496813 0.022650
0.201747 -0.487049 -0.103308
0.207255 -0.494894 0.048073
-0.085093 -0.483421 0.115110
0.104702 0.125441 0.479940
-0.137233 -0.270138 0.415807
0.054977 -0.149628 -0.476967
0.182893 -0.168809 -0.470481
-0.141401 0.239743 -0.438991
0.049713 0.077809 0.489779
-0.010321 0.389231 -0.313370
-0.061787 -0.492668 -0.070896
0.102203 -0.480017 -0.132705
0.256029 -0.020187 0.495469
-0.066426 0.489332 0.092947
0.156089 -0.497096 -0.024966
0.137008 -0.497407 0.009391
0.158728 -0.090343 -0.491798
-0.050663 -0.281034 0.408614
-0.108242 -0.484265 0.111555
0.192236 -0.109562 -0.487824
-0.288202 0.024544 -0.499763
0.031415 0.498104 0.021547
-0.170628 0.397306 -0.303243
0.245238 -0.179601 0.462212
0.135728 -0.116523 0.482053
-0.059852 -0.142823 0.474818
-0.149905 0.497492 0.029797
-0.264973 0.414660 0.274284
0.286782 -0.168410 -0.470630
0.260364 0.019331 0.495418
-0.043467 -0.461790 0.183139
-0.284790 -0.093459 0.486884
-0.174967 0.498001 0.023515
-0.135801 -0.339702 0.361548
0.203691 0.299240 -0.400556
0.073920 -0.192538 0.456818
-0.196303 0.317390 -0.386397
-0.028099 0.434664 0.241696
0.266672 0.102722 -0.489512
0.087685 0.489673 0.091319
-0.023961 -0.301017 -0.398601
-0.177719 -0.191996 0.457044
-0.078089 0.473704 0.153031
-0.092302 0.458259 0.193869
0.214342 0.428724 -0.256364
-0.084290 0.269389 -0.421331
0.155849 -0.016276 -0.499862
0.009834 -0.455515 0.197821
0.249831 -0.405712 -0.290506
-0.156113 0.191003 -0.462239
-0.044203 -0.385935 0.311864
0.171369 0.494734 -0.063391
-0.035393 -0.195749 -0.459881
-0.126544 -0.061427 -0.496320
0.053271 -0.282671 -0.411758
-0.250843 -0.482393 0.119435
0.151478 0.238983 -0.439427
0.239439 -0.384255 0.313972
-0.050081 0.080662 0.489288
-0.179466 -0.496964 0.019280
0.147105 0.413737 0.275682
0.125649 0.017813 0.495486
-0.012189 -0.197254 0.454852
0.158112 -0.434045 0.241278
0.071254 -0.160126 0.469142
-0.142452 -0.409905 0.279811
-0.288440 -0.045669 -0.498023
0.054181 0.386979 -0.316194
-0.198454 0.497923 0.024467
0.025260 0.143763 0.474716
0.107404 -0.127618 -0.483533
0.238841 0.272365 -0.419367
0.051683 -0.489842 0.084421
-0.044967 0.461152 0.186929
-0.087845 -0.493176 -0.067381
0.265465 0.069134 -0.495371
-0.287000 0.329146 -0.376310
0.058011 -0.010200 -0.500135
0.036143 0.325020 0.375726
0.056442 -0.387916 0.309380
-0.077669 -0.469769 -0.165822
-0.154639 -0.095801 0.486394
0.096907 -0.362241 0.339057
0.187455 0.428242 0.252895
-0.151626 -0.401006 -0.296744
-0.051619 0.462660 -0.187904
0.282434 0.497828 -0.027224
-0.108215 -0.186227 0.459450
0.232015 -0.462694 0.180728
0.231376 -0.324637 -0.379498
-0.158306 -0.388198 -0.313721
0.197448 -0.098735 -0.490354
0.181467 -0.497454 -0.005070
0.030901 -0.292158 -0.405123
-0.221140 -0.439572 0.230782
0.251248 0.497862 -0.026453
-0.198724 0.395082 0.301601
0.043405 0.361274 0.341081
-0.119244 -0.114143 -0.486735
0.286299 0.497610 0.028330
0.025321 -0.026747 0.495184
0.175217 -0.358563 0.343118
0.110886 0.206554 0.451139
0.102122 -0.497513 0.007027
0.003600 0.304193 0.392532
0.056989 -0.479424 0.131098
-0.084775 -0.192679 0.456759
0.031076 -0.138544 0.475999
-0.034377 -0.359295 0.342310
0.080531 0.310161 0.387773
-0.263619 -0.020537 -0.499671
-0.214229 0.366316 -0.340043
-0.171678 -0.026308 0.495220
0.202980 0.473420 0.153855
0.268747 -0.488266 0.093579
0.100001 0.194314 0.456632
0.086724 -0.289355 0.402887
0.052757 -0.477159 -0.143060
0.083613 -0.180306 -0.466167
0.263184 0.451805 -0.212727
0.058955 0.331178 0.370149
0.207444 0.123045 0.480510
0.180530 -0.022909 0.495420
0.222257 -0.460734 -0.189827
0.154994 -0.260142 0.422352
0.092500 0.301003 0.395076
0.235484 0.297693 0.397615
0.204985 -0.055130 0.492885
0.235771 -0.090189 0.487569
0.087002 0.148743 0.473196
-0.029285 0.211274 0.449021
-0.208912 -0.468302 0.165784
0.166066 -0.392362 -0.308201
-0.001895 0.053881 0.492893
-0.244926 -0.389043 -0.312601
-0.269458 -0.345940 0.355475
-0.255797 -0.477591 -0.141497
-0.098630 -0.013522 -0.499986
-0.052821 -0.116742 -0.486117
-0.175196 0.497077 0.034918
0.123585 -0.219312 0.444612
0.151201 -0.239348 0.434276
-0.029139 0.497274 0.032480
0.069848 -0.036670 -0.498948
0.219778 -0.207463 0.450450
0.188901 0.074222 0.490397
-0.243525 -0.467441 0.168080
0.208785 -0.487618 0.097344
-0.046915 -0.359596 -0.346105
-0.058091 0.492807 0.072666
-0.006314 -0.392583 0.303527
-0.127312 0.128251 0.479272
-0.159178 0.352982 -0.353970
-0.153237 0.489945 -0.094131
0.162831 -0.493563 -0.064711
-0.087908 0.264199 0.420244
0.076234 -0.232915 -0.442014
-0.090346 -0.468837 -0.168523
0.033552 0.076139 -0.494358
-0.176223 -0.495339 0.043956
-0.175589 0.367494 0.334692
0.083483 -0.244909 0.431087
0.129311 -0.422449 0.260624
0.082451 -0.291156 -0.405824
-0.228064 0.418588 0.268334
0.157163 0.498542 -0.002791
0.210697 -0.201890 0.452919
0.022944 0.352769 -0.354178
-0.205190 -0.163741 0.467895
0.060444 0.177881 -0.467710
0.062044 -0.375993 -0.328046
-0.286776 0.219375 0.445329
0.214646 0.202393 0.453006
0.156400 0.057578 0.492494
-0.242882 -0.049853 0.493312
-0.222918 -0.166486 -0.471352
-0.075450 0.085103 -0.493061
