0.286960 0.235108 -0.416524
0.286960 -0.058239 0.492284
0.286960 -0.085543 0.484398
0.286960 0.414792 -0.276467
0.286960 0.452535 0.205432
0.286960 -0.410805 -0.277030
0.286960 -0.026347 -0.456910
0.286960 -0.426061 0.167740
0.286960 -0.352778 0.285667
0.286960 0.469828 0.083964
0.286960 -0.291094 0.383934
0.286960 0.200864 -0.457002
0.286960 0.060780 0.454054
0.286960 -0.463829 -0.097641
0.286960 0.130323 0.463758
0.286960 -0.444612 0.089056
0.286960 0.159266 0.427843
0.286960 0.347203 0.311240
0.286960 -0.455992 0.145445
0.286960 0.411263 0.227497
0.286960 -0.398639 0.235767
0.286960 -0.431218 0.110050
0.286960 -0.213955 0.426691
0.286960 0.081580 -0.480886
0.286960 0.310233 0.345578
0.286960 0.257902 -0.411640
0.286960 0.486555 0.104412
0.286960 0.428830 0.220473
0.286960 -0.445759 0.144933
0.286960 0.123953 -0.436940
0.286960 -0.496189 -0.017375
0.286960 0.444694 0.199717
0.286960 0.418968 0.183896
0.286960 0.368422 -0.324653
0.286960 -0.404689 0.182736
0.286960 -0.039891 0.481219
0.286960 -0.109723 -0.459530
0.286960 0.120263 0.447671
0.286960 -0.464705 -0.032245
0.286960 0.131529 0.439036
0.286960 0.472142 -0.086287
0.286960 0.107276 -0.473229
0.286960 0.337929 0.334547
0.286960 0.388705 0.266266
0.286960 -0.227152 -0.427528
0.286960 0.110341 -0.466929
0.286960 -0.403393 -0.228566
0.286960 0.432861 0.139226
0.286960 -0.420291 -0.241460
0.286960 -0.068440 -0.443567
0.286960 0.163041 0.438069
0.286960 -0.489130 -0.038347
0.286960 0.436827 0.170078
0.286960 -0.082910 0.440301
0.286960 -0.491665 -0.030639
0.286960 0.451174 0.094297
0.286960 -0.023588 0.481347
0.286960 0.455765 -0.094237
0.286960 0.039569 -0.472399
0.286960 -0.151269 -0.438876
0.286960 0.399920 0.287085
0.286960 0.286522 -0.369702
0.286960 0.152198 -0.476523
0.286960 0.221287 0.440474
0.286960 -0.125976 0.448341
0.286960 -0.451702 -0.135588
0.286960 -0.304882 0.388277
0.286960 -0.144317 -0.459384
0.286960 0.044553 0.480568
0.286960 -0.348640 0.304587
0.286960 0.146214 0.432211
0.286960 0.199310 0.447643
0.286960 0.207003 -0.408316
0.286960 -0.080030 0.488964
0.286960 -0.452336 0.121852
0.286960 0.461806 0.093643
0.286960 -0.340266 0.319003
0.286960 0.354807 -0.351994
0.286960 0.019230 0.443318
0.286960 0.495833 0.035655
0.286960 -0.444738 -0.011139
0.286960 0.467597 -0.171072
0.286960 -0.189914 -0.432834
0.286960 -0.324080 -0.363600
0.286960 -0.309352 0.352297
0.286960 -0.482576 -0.072619
0.286960 -0.116039 -0.472926
0.286960 -0.145909 -0.427446
0.286960 0.440481 0.103826
0.286960 0.348740 -0.311509
0.286960 0.231937 0.410872
0.286960 -0.027712 0.459735
0.286960 -0.250751 0.376339
0.286960 0.188255 0.417990
0.286960 0.198517 -0.403114
0.286960 0.260194 -0.369785
0.286960 -0.146363 0.439344
0.286960 0.284329 0.362026
0.286960 0.358945 0.320482
0.286960 -0.130717 -0.480564
0.286960 -0.457979 0.020759
0.286960 0.125692 0.455075
0.286960 -0.307640 0.347025
0.286960 0.388297 -0.303382
0.286960 -0.087693 -0.455979
0.286960 0.450868 0.202543
0.286960 0.012792 0.450445
0.286960 -0.080485 -0.474016
0.286960 0.441028 0.159018
0.286960 -0.491170 0.043189
0.286960 0.475244 0.056046
0.286960 -0.128368 0.451188
0.286960 0.209533 -0.448239
0.286960 -0.450088 -0.035600
0.286960 0.220003 0.400209
0.286960 -0.089885 0.470061
0.286960 0.314040 0.345234
0.286960 0.316548 0.334700
0.286960 -0.406122 -0.280235
0.286960 -0.171277 0.422627
0.286960 0.050130 -0.487121
0.286960 0.047341 0.458965
0.286960 0.085299 -0.490349
0.286960 0.247650 0.426964
0.286960 0.311701 0.377799
0.286960 0.041718 0.458618
0.286960 -0.159223 0.441851
0.286960 -0.482735 -0.068895
0.286960 -0.355667 -0.292744
0.286960 0.134086 0.444453
0.286960 -0.308835 0.368104
0.286960 -0.473720 0.057822
0.286960 -0.196198 0.410827
0.286960 0.420260 0.148359
0.286960 -0.441509 0.195136
0.286960 0.441450 0.088606
0.286960 0.366888 -0.273212
0.286960 0.309090 0.387916
0.286960 -0.290377 -0.365224
0.286960 -0.035601 -0.495600
0.286960 0.478188 0.051886
0.286960 0.207189 -0.437740
0.286960 0.363716 0.338051
0.286960 -0.480072 0.128747
0.286960 -0.011131 -0.449047
0.286960 -0.338586 -0.331087
0.286960 -0.008387 -0.494660
0.286960 -0.031511 -0.459871
0.286960 0.070432 -0.486875
0.286960 0.054489 -0.470789
0.286960 -0.006355 -0.488304
0.286960 0.197689 0.407247
0.286960 0.318436 -0.315399
0.286960 0.453374 -0.031455
0.286960 0.363504 0.263524
0.286960 -0.347538 -0.312443
0.286960 -0.371965 -0.277710
0.286960 0.331092 -0.333115
0.286960 0.383511 -0.263487
0.286960 -0.484117 0.041951
0.286960 -0.294259 -0.349676
0.286960 0.123451 -0.442126
0.286960 -0.078145 -0.446373
0.286960 -0.260899 0.362916
0.286960 0.429932 0.198708
0.286960 0.093073 0.469823
0.286960 -0.015382 0.442837
0.286960 -0.059326 -0.456028
0.286960 -0.434837 0.237435
0.286960 0.394046 -0.220077
0.286960 -0.344557 -0.297625
0.286960 -0.061422 0.439298
0.286960 -0.118335 -0.480907
0.286960 -0.358823 -0.319640
0.286960 -0.398116 -0.262061
0.286960 0.143084 0.469851
0.286960 -0.373610 -0.308502
0.286960 -0.445517 0.148933
0.286960 0.275460 0.383698
0.286960 0.178255 0.440197
0.286960 0.488022 -0.023928
0.286960 0.413889 0.181500
0.286960 0.075500 0.455018
0.286960 0.300870 0.357130
0.286960 0.372665 -0.248863
0.286960 -0.317653 0.373592
0.286960 0.325483 -0.325324
0.286960 0.380682 -0.323327
0.286960 0.467834 -0.124634
0.286960 0.181600 0.423173
0.286960 -0.137018 0.441966
0.286960 0.105105 0.466087
0.286960 -0.337818 0.340353
0.286960 0.438260 -0.190460
0.286960 -0.451556 0.005165
0.286960 -0.403036 0.245031
0.286960 -0.203773 0.412260
0.286960 -0.219071 -0.405725
0.286960 0.113614 -0.433098
0.286960 0.245526 0.419195
0.286960 -0.060666 0.450793
0.286960 0.473374 -0.050857
0.286960 0.225065 0.404912
0.286960 0.415432 -0.176183
0.286960 -0.488625 -0.091962
0.286960 0.444701 0.183190
0.286960 -0.231476 -0.389694
0.286960 0.450179 0.001430
0.286960 -0.388826 0.246073
0.286960 0.466225 -0.040843
0.286960 0.266972 0.406069
0.286960 -0.143410 -0.440558
0.286960 0.185753 0.404060
0.286960 0.074353 0.466173
0.286960 -0.277680 0.379186
0.286960 0.452135 0.040927
0.286960 -0.477660 0.136068
0.286960 0.393954 -0.248390
0.286960 -0.353438 0.326612
0.286960 -0.146862 -0.472599
0.286960 -0.350441 -0.320405
0.286960 -0.442374 -0.158332
0.286960 0.367983 -0.285933
0.286960 -0.424795 -0.258712
0.286960 0.156372 0.460133
0.286960 -0.310906 -0.361683
0.286960 0.255671 0.424383
0.286960 0.168319 0.421339
0.286960 0.322451 0.348165
0.286960 -0.187350 0.446824
0.286960 -0.266697 -0.361086
0.286960 -0.451620 0.085477
0.286960 -0.214932 -0.443170
0.286960 -0.409470 0.260399
0.286960 0.003021 0.456460
0.286960 0.321223 0.361885
0.286960 0.148637 -0.439545
0.286960 0.458310 -0.041481
0.286960 0.022317 -0.478998
0.286960 -0.448848 0.112010
0.286960 0.166138 0.442435
0.286960 -0.466698 -0.129696
0.286960 0.441236 0.097343
0.286960 0.157349 -0.424875
0.286960 0.373286 -0.314465
0.286960 0.227670 0.392112
0.286960 -0.366079 -0.274967
0.286960 0.100202 0.485085
0.286960 -0.059205 -0.459158
0.286960 0.443367 0.074177
0.286960 0.243033 0.379082
0.286960 0.490500 0.078293
0.286960 0.033803 0.470409
0.286960 0.445922 0.149126
0.286960 -0.302301 -0.341847
0.286960 -0.052838 0.456670
0.286960 0.437812 0.109784
0.286960 -0.435746 0.130889
0.286960 -0.005798 0.444772
0.286960 -0.480183 0.055164
0.286960 0.269511 0.368053
0.286960 0.295620 0.363673
0.286960 -0.163762 0.414133
0.286960 0.086623 0.450853
0.286960 -0.181652 0.449862
0.286960 0.290170 -0.392504
0.286960 -0.460529 -0.027459
0.286960 0.457891 -0.148093
0.286960 0.151361 -0.431183
0.286960 -0.229659 0.391782
0.286960 -0.352799 0.347024
0.286960 0.349134 0.333628
0.286960 0.381462 -0.248977
0.286960 0.293434 -0.388398
0.286960 0.440226 0.116520
0.286960 0.151766 0.447322
0.286960 -0.437805 0.178008
0.286960 0.440058 0.075472
0.286960 0.434313 0.236020
0.286960 0.383285 -0.274491
0.286960 -0.056427 -0.454114
0.286960 -0.190843 -0.414878
0.286960 -0.398798 -0.220262
0.286960 -0.011007 0.460489
0.286960 0.344372 -0.312272
0.286960 0.448193 0.077973
0.286960 -0.067894 -0.464918
0.286960 0.291818 -0.344891
0.286960 -0.074128 -0.443887
0.286960 0.447414 -0.023772
0.286960 0.411811 0.221576
0.286960 -0.264605 -0.389511
0.286960 -0.345183 0.302286
0.286960 -0.368669 -0.293301
0.286960 0.071150 -0.466929
0.286960 0.229600 -0.393408
0.286960 0.302713 0.326271
0.286960 -0.462779 -0.003931
0.286960 0.458424 -0.142502
0.286960 0.222995 0.397375
0.286960 0.197360 0.398379
0.286960 -0.195433 0.428683
0.286960 -0.007092 0.495517
0.286960 -0.244440 -0.430730
0.286960 0.071287 -0.455210
0.286960 0.186853 -0.451960
0.286960 -0.434524 0.171542
0.286960 0.483791 0.030629
0.286960 -0.261238 0.418523
0.286960 0.474662 0.017641
0.286960 -0.418785 -0.197153
0.286960 -0.288019 0.361990
0.286960 0.105589 0.455408
0.286960 0.315064 -0.332487
0.286960 -0.434057 -0.244407
0.286960 -0.320985 0.354525
0.286960 -0.120436 0.459359
0.286960 -0.436215 -0.238885
0.286960 0.445551 0.099322
0.286960 0.256816 -0.417092
0.286960 -0.034891 0.451189
0.286960 0.133618 0.434268
0.286960 -0.479321 0.098224
0.286960 -0.031202 -0.476705
0.286960 0.058430 0.463765
0.286960 -0.192339 -0.403923
0.286960 0.015760 0.443489
0.286960 -0.056422 -0.450081
0.286960 0.271518 -0.358842
0.286960 0.177350 -0.435313
0.286960 0.414006 0.213504
0.286960 0.181954 -0.459420
0.286960 -0.443258 -0.048694
0.286960 0.142419 -0.424694
0.286960 -0.335589 0.365172
0.286960 0.406531 0.185361
0.286960 0.236201 -0.395320
0.286960 0.146864 -0.447009
0.286960 0.456128 -0.124280
0.286960 -0.030872 0.483971
0.286960 0.265814 0.368740
0.286960 0.050497 0.482288
0.286960 -0.385051 -0.235284
0.286960 -0.491193 0.031131
0.286960 -0.466363 -0.132925
0.286960 -0.337583 -0.328146
0.286960 -0.437184 0.121166
0.286960 -0.107964 0.435682
0.286960 -0.178925 -0.425185
0.286960 0.065602 0.482221
0.286960 -0.383784 0.280197
0.286960 -0.439649 -0.124492
0.286960 0.366984 -0.282336
0.286960 -0.422400 0.174996
0.286960 0.473195 0.059397
0.286960 -0.477731 0.041327
0.286960 0.273403 0.349826
0.286960 0.247661 -0.417929
0.286960 0.476296 0.039473
0.286960 -0.391188 0.275467
0.286960 -0.088995 0.451874
0.286960 -0.496359 0.028807
0.286960 0.267563 -0.397617
0.286960 -0.463514 0.023685
0.286960 0.357737 0.344275
0.286960 -0.001429 0.473416
0.286960 -0.447119 -0.140381
0.286960 0.310108 -0.345474
0.286960 0.122499 -0.461373
0.286960 0.030137 0.474955
0.286960 0.450653 -0.059943
0.286960 -0.164118 0.460105
0.286960 -0.314086 -0.373571
0.286960 -0.437511 -0.208303
0.286960 0.379494 0.320057
0.286960 -0.214126 0.435949
0.286960 0.102227 -0.442783
0.286960 -0.323356 0.333655
0.286960 0.262399 0.369862
0.286960 -0.477996 -0.081489
0.286960 0.034744 -0.466567
0.286960 -0.060073 -0.480685
0.286960 0.082623 -0.441498
0.286960 0.430117 -0.226753
0.286960 -0.487680 0.087279
0.286960 0.250854 -0.423788
0.286960 -0.414520 -0.207549
0.286960 0.384943 0.268246
0.286960 0.450640 -0.141992
0.286960 0.212944 0.446579
0.286960 0.471623 -0.124586
0.286960 0.380197 -0.240982
0.286960 -0.146815 -0.443487
0.286960 -0.389820 0.232408
0.286960 -0.350397 0.301459
0.286960 -0.338865 -0.334828
0.286960 -0.240974 0.425133
0.286960 -0.313880 -0.341940
0.286960 0.181930 -0.428706
0.286960 -0.236787 -0.426885
0.286960 -0.406249 0.283974
0.286960 -0.437269 -0.164769
0.286960 0.344541 -0.323347
0.286960 0.328745 0.319779
0.286960 -0.072066 0.459641
0.286960 0.413263 0.247930
0.286960 -0.137004 -0.462378
0.286960 0.073507 -0.484340
0.286960 -0.070319 -0.481732
0.286960 0.390573 0.263460
0.286960 -0.052883 0.482276
0.286960 0.455978 0.178318
0.286960 0.286919 0.405103
0.286960 0.445507 -0.026522
0.286960 -0.361980 -0.329584
0.286960 -0.134104 -0.432113
0.286960 -0.485567 0.082289
0.286960 -0.292274 0.377340
0.286960 -0.265859 0.394391
0.286960 0.323750 0.326097
0.286960 -0.368787 0.303357
0.286960 0.337246 -0.332029
0.286960 0.480329 0.095382
0.286960 0.412741 0.188944
0.286960 -0.393256 0.251111
0.286960 0.220600 0.406057
0.286960 0.060094 -0.486224
0.286960 -0.443790 -0.193240
0.286960 -0.231110 -0.423336
0.286960 -0.396572 0.203470
0.286960 -0.041106 -0.493742
0.286960 -0.401897 0.248480
0.286960 -0.484342 -0.114601
0.286960 -0.062215 0.472002
0.286960 -0.407607 0.244674
0.286960 -0.298254 0.368895
0.286960 0.283210 -0.391515
0.286960 0.471408 0.042984
0.286960 0.290325 0.344425
0.286960 -0.496967 0.007247
0.286960 -0.483896 0.055784
0.286960 -0.313050 -0.324669
0.286960 -0.294808 -0.384923
0.286960 0.471355 0.117594
0.286960 -0.020158 0.489185
0.286960 0.393531 0.252529
0.286960 0.253647 -0.417118
0.286960 -0.459739 -0.190298
0.286960 0.390150 0.269380
0.286960 -0.250450 -0.377520
0.286960 -0.479036 0.102781
0.286960 -0.246189 0.415459
0.286960 -0.167371 0.440216
0.286960 -0.455873 -0.051753
0.286960 0.304179 0.367315
0.286960 -0.169933 0.442226
0.286960 0.386736 -0.284512
0.286960 -0.457498 -0.108872
0.286960 -0.359167 0.284726
0.286960 -0.074077 -0.465970
0.286960 -0.032713 0.464977
0.286960 0.310754 0.361413
0.286960 0.174041 -0.439343
0.286960 0.329761 -0.340039
0.286960 -0.473406 -0.086020
0.286960 0.384809 -0.233872
0.286960 -0.479340 -0.118968
0.286960 -0.170853 -0.417381
0.286960 0.263427 -0.383886
0.286960 -0.456638 0.191212
0.286960 -0.460093 0.045465
0.286960 -0.488126 0.015138
0.286960 0.064641 0.450107
0.286960 0.085168 0.443721
0.286960 0.376553 -0.324689
0.286960 -0.406627 0.194392
0.286960 -0.112567 0.429692
0.286960 0.205820 -0.418316
0.286960 0.228688 0.418110
0.286960 -0.477920 -0.059879
0.286960 -0.100952 0.442101
0.286960 -0.437183 0.094220
0.286960 -0.470338 0.064693
0.286960 -0.076897 -0.484194
0.286960 0.370011 -0.291568
0.286960 -0.470665 0.129440
0.286960 0.381246 -0.314928
0.286960 0.300625 0.383465
0.286960 -0.126495 -0.467716
0.286960 0.454843 0.174290
0.286960 -0.390335 -0.310564
0.286960 0.451825 -0.082740
0.286960 -0.297050 -0.372020
0.286960 0.302424 -0.350951
0.286960 -0.357861 -0.309288
0.286960 0.378106 0.244356
0.286960 -0.043553 -0.487919
0.286960 0.164779 0.457070
0.286960 0.344341 -0.285673
0.286960 0.033483 0.442981
0.286960 0.033414 -0.458869
0.286960 0.057087 -0.483529
0.286960 -0.411252 -0.236696
0.286960 0.023636 -0.465829
0.286960 0.429816 -0.162885
0.286960 -0.396280 0.256930
0.286960 -0.045160 -0.495318
0.286960 0.463856 -0.004512
0.286960 -0.142427 0.429360
0.286960 -0.102944 0.460802
0.286960 0.061295 0.444235
0.286960 0.305162 0.356768
0.286960 -0.290740 0.335449
0.286960 0.457826 -0.139448
0.286960 0.019822 -0.449933
0.286960 -0.434713 0.187456
0.286960 -0.319308 0.370871
0.286960 0.423934 -0.248203
0.286960 -0.343498 -0.358874
0.286960 -0.258969 0.389478
0.286960 -0.280917 -0.359785
0.286960 0.412525 0.178578
0.286960 0.065619 0.453896
0.286960 -0.423112 -0.161233
0.286960 -0.214549 -0.447520
0.286960 0.034216 0.459612
0.286960 0.239361 0.423053
0.286960 0.343912 0.324080
0.286960 0.466729 0.049504
0.286960 0.095987 -0.471591
0.286960 -0.023331 -0.493713
0.286960 -0.461027 -0.030815
0.286960 0.051996 -0.459950
0.286960 -0.202074 0.406923
0.286960 -0.104989 -0.436269
0.286960 -0.271918 0.356100
0.286960 0.116038 0.476011
0.286960 -0.462724 -0.043346
0.286960 -0.086016 -0.460131
0.286960 0.142695 -0.478946
0.286960 0.465255 0.064013
0.286960 0.317422 0.362087
0.286960 -0.454985 0.188313
0.286960 0.477925 -0.109612
0.286960 -0.414492 0.231588
0.286960 0.078552 -0.441222
0.286960 0.395811 0.291722
0.286960 -0.015874 0.455237
0.286960 0.261023 -0.364528
0.286960 0.488268 0.049049
0.286960 0.420825 -0.221389
0.286960 -0.453769 -0.118667
0.286960 0.268933 -0.401576
0.286960 0.098894 -0.470008
0.286960 0.212767 -0.416957
0.286960 -0.407454 0.278882
0.286960 -0.453012 0.106122
0.286960 -0.318858 -0.320249
0.286960 -0.186022 0.437553
0.286960 -0.177000 -0.428084
0.286960 -0.294845 0.357108
0.286960 -0.363948 0.270158
0.286960 0.072841 -0.488698
0.286960 0.060972 0.439090
0.286960 -0.378229 -0.295751
0.286960 0.314294 -0.388015
0.286960 -0.113248 -0.486859
0.286960 -0.357973 -0.280300
0.286960 -0.122246 0.452506
0.286960 -0.345486 0.296176
0.286960 -0.245334 0.399099
0.286960 0.151642 0.459657
0.286960 -0.145632 0.450334
0.286960 -0.233157 0.381894
0.286960 -0.221938 0.437086
0.286960 -0.262711 0.414957
0.286960 0.240040 -0.422603
0.286960 -0.108846 0.462872
0.286960 -0.179198 0.455809
0.286960 -0.496386 0.022574
0.286960 0.437352 0.160637
0.286960 -0.398322 -0.202804
0.286960 0.480213 0.031333
0.286960 -0.093201 -0.478486
0.286960 0.405832 0.275439
0.286960 0.425045 0.249627
0.286960 -0.439517 0.124012
0.286960 -0.402194 -0.277425
0.286960 0.422744 0.216762
0.286960 -0.381560 -0.266172
0.286960 0.193289 -0.460538
0.286960 0.388760 0.299013
0.286960 0.336489 -0.302288
0.286960 -0.439632 -0.205187
0.286960 0.148523 -0.456315
0.286960 -0.309252 -0.323177
0.286960 -0.223496 0.383947
0.286960 -0.026629 0.493966
0.286960 0.237475 -0.398544
0.286960 -0.427522 -0.130564
0.286960 -0.116089 -0.462631
0.286960 0.432281 -0.222597
0.286960 -0.381181 0.247565
0.286960 -0.445682 0.121623
0.286960 0.339133 0.338543
0.286960 -0.054677 0.467885
0.286960 0.047363 0.443074
0.286960 0.325697 0.346523
0.286960 0.104208 0.434501
0.286960 -0.118737 -0.445320
0.286960 0.179714 0.457427
0.286960 -0.419689 -0.171873
0.286960 0.469047 0.149843
0.286960 -0.455292 -0.070912
0.286960 0.159806 -0.444370
0.286960 0.427100 0.215940
0.286960 -0.140946 0.463778
0.286960 -0.451795 -0.093859
0.286960 0.342022 -0.291927
0.286960 0.320014 0.358522
0.286960 -0.235738 -0.435470
0.286960 0.154604 -0.455118
0.286960 0.191178 0.412440
0.286960 0.002214 -0.468650
0.286960 -0.095957 0.466693
0.286960 0.270863 0.400080
0.286960 0.463584 -0.097527
0.286960 -0.360465 0.311477
0.286960 -0.307570 0.323095
0.286960 -0.360624 0.340325
0.286960 0.446324 0.092196
0.286960 0.120133 -0.451787
0.286960 0.296107 0.370857
0.286960 0.064938 -0.469640
0.286960 0.174486 0.413872
0.286960 -0.478591 -0.105244
0.286960 0.343905 -0.316024
0.286960 0.459654 -0.032803
0.286960 -0.154241 0.470259
0.286960 -0.040430 0.446024
0.286960 0.314408 0.314348
0.286960 -0.434715 0.134331
0.286960 -0.031929 -0.490581
0.286960 0.158565 -0.471876
0.286960 0.179269 0.425460
0.286960 -0.194948 -0.456854
0.286960 0.370980 0.305920
0.286960 0.479532 0.018459
0.286960 -0.179663 0.461945
0.286960 0.448945 0.141084
0.286960 -0.373831 0.321414
0.286960 -0.291516 0.387366
0.286960 -0.001920 0.443968
0.286960 -0.236708 -0.379910
0.286960 0.274453 -0.414490
0.286960 0.423401 -0.150739
0.286960 -0.087239 -0.441000
0.286960 -0.360276 0.326775
0.286960 -0.004709 -0.475004
0.286960 -0.183296 -0.430877
0.286960 0.122658 -0.466765
0.286960 -0.133550 0.436875
0.286960 -0.255136 -0.408533
0.286960 0.333797 0.364743
0.286960 0.450119 0.019175
0.286960 0.300094 0.391779
0.286960 -0.438177 0.090301
0.286960 -0.400052 -0.231158
0.286960 0.393460 0.233199
0.286960 0.035408 0.466585
0.286960 -0.280891 0.344622
0.286960 -0.018980 -0.476144
0.286960 0.468422 -0.059876
0.286960 0.163689 0.450393
0.286960 0.165395 -0.451860
0.286960 -0.478412 0.071082
0.286960 0.113451 0.463166
0.286960 0.281232 -0.395525
0.286960 -0.158144 -0.450269
0.286960 -0.402868 0.235294
0.286960 0.295307 -0.362094
0.286960 -0.112533 -0.469880
0.286960 -0.395703 -0.294623
0.286960 -0.150999 -0.461556
0.286960 0.397564 -0.225250
0.286960 -0.128739 0.459208
0.286960 -0.302411 -0.337986
0.286960 0.433614 -0.183159
0.286960 0.469179 -0.049605
0.286960 0.261983 -0.379708
0.286960 0.465389 0.170835
0.286960 -0.037444 0.460146
0.286960 0.288473 -0.360876
0.286960 -0.461617 -0.180833
0.286960 -0.362753 -0.303649
0.286960 -0.236752 -0.399578
0.286960 -0.253086 -0.402240
0.286960 0.487463 0.032643
0.286960 0.273500 -0.411497
0.286960 0.468656 0.074686
0.286960 0.325554 0.318961
0.286960 0.101956 0.467871
0.286960 -0.442415 -0.214588
0.286960 -0.470474 0.159911
0.286960 -0.245612 -0.393920
0.286960 -0.446020 0.177575
0.286960 0.177932 0.416829
0.286960 0.400247 0.195306
0.286960 -0.090774 -0.457229
0.286960 0.077210 -0.473093
0.286960 -0.489861 -0.051224
0.286960 -0.479759 -0.036595
0.286960 -0.441553 -0.182026
0.286960 0.057978 0.459842
0.286960 0.062757 0.457907
0.286960 0.028505 0.489597
0.286960 -0.311143 0.321653
0.286960 -0.396229 -0.230129
0.286960 0.483779 -0.057043
0.286960 -0.077141 -0.459915
0.286960 0.383515 -0.270786
0.286960 0.022094 -0.473127
0.286960 0.484106 -0.078899
0.286960 0.390714 -0.267869
0.286960 0.046190 0.489194
0.286960 0.400793 -0.235549
0.286960 0.294134 -0.391751
0.286960 -0.424830 0.141472
0.286960 0.160287 -0.431671
0.286960 -0.073280 0.437467
0.286960 -0.296461 -0.355927
0.286960 -0.089362 -0.447787
0.286960 -0.321049 -0.335665
0.286960 -0.416200 -0.210591
0.286960 -0.495791 -0.040720
0.286960 -0.462984 0.177494
0.286960 0.412200 -0.249754
0.286960 0.298236 0.395542
0.286960 0.225388 0.382808
0.286960 -0.483028 0.116427
0.286960 0.439084 -0.114082
0.286960 0.213589 0.438900
0.286960 -0.248720 0.428756
0.286960 -0.273183 0.394341
0.286960 -0.446072 0.200268
0.286960 0.295068 0.385704
0.286960 0.422513 0.153681
0.286960 -0.449771 0.173864
0.286960 -0.188666 -0.438274
0.286960 -0.466320 -0.153766
0.286960 0.040021 0.487047
0.286960 0.094052 0.465382
0.286960 0.404740 -0.191473
0.286960 0.100749 -0.457044
0.286960 -0.115041 -0.446124
0.286960 -0.226539 -0.439343
0.286960 -0.355456 0.331377
0.286960 0.468563 0.137691
0.286960 0.424908 -0.206025
0.286960 -0.480520 -0.049287
0.286960 -0.285605 0.353228
0.286960 0.036784 0.493484
0.286960 -0.290690 -0.348886
0.286960 -0.357248 0.309844
0.286960 0.459675 -0.094532
0.286960 -0.395400 -0.239760
0.286960 0.426041 -0.184482
0.286960 -0.238029 -0.406209
0.286960 -0.113723 0.473281
0.286960 0.433939 -0.241814
0.286960 -0.323425 0.362624
0.286960 0.287621 0.393033
0.286960 0.248839 0.375289
0.286960 -0.181224 -0.412239
0.286960 -0.179672 -0.461648
0.286960 0.090476 0.448571
0.286960 0.425611 -0.167299
0.286960 0.434752 0.204556
0.286960 -0.316467 -0.322945
0.286960 -0.466079 -0.058594
0.286960 0.441699 -0.064960
0.286960 0.426855 0.153613
0.286960 0.179500 0.412256
0.286960 0.355715 -0.333409
0.286960 -0.448002 -0.149086
0.286960 0.163740 -0.468230
0.286960 0.396434 0.209346
0.286960 0.092718 -0.450141
0.286960 -0.396598 -0.210748
0.286960 0.398069 -0.257685
0.286960 -0.459346 -0.058805
0.286960 -0.272837 -0.365980
0.286960 0.439490 -0.216049
0.286960 -0.231142 -0.384233
0.286960 0.446440 -0.116584
0.286960 0.341411 -0.331850
0.286960 -0.041059 -0.498002
0.286960 0.344748 -0.341744
0.286960 0.099709 0.432894
0.286960 -0.095668 -0.485209
0.286960 -0.354179 0.308642
0.286960 -0.293269 -0.342889
0.286960 0.099682 0.454105
0.286960 0.449350 -0.051985
0.286960 0.444213 -0.182006
0.286960 -0.453127 0.173953
0.286960 0.322550 -0.358973
0.286960 0.303623 0.361833
0.286960 0.202774 -0.453839
0.286960 0.386544 -0.313748
0.286960 -0.432589 -0.114001
0.286960 0.420061 -0.269092
0.286960 -0.463549 -0.147126
0.286960 -0.344161 -0.319440
0.286960 -0.449466 0.032008
0.286960 -0.398973 0.254130
0.286960 0.466874 0.167562
0.286960 0.200197 0.423959
0.286960 0.356629 0.280631
0.286960 -0.062427 -0.459361
0.286960 -0.493002 -0.011308
0.286960 -0.269145 0.414231
0.286960 0.233533 -0.432211
0.286960 -0.481384 -0.060567
0.286960 -0.225879 0.433996
0.286960 -0.203073 -0.426291
0.286960 -0.330674 0.356916
0.286960 -0.286267 -0.361567
0.286960 0.455436 0.098093
0.286960 0.455209 -0.028803
0.286960 -0.445988 0.138355
0.286960 -0.062592 0.478317
0.286960 -0.458707 -0.116150
0.286960 -0.404326 -0.247535
0.286960 0.442563 0.078261
0.286960 -0.129960 0.436951
0.286960 0.280587 0.392552
0.286960 -0.353978 -0.336707
0.286960 0.474952 -0.047706
0.286960 -0.030312 0.480746
0.286960 0.196173 0.445792
0.286960 -0.003729 0.468300
0.286960 0.484767 0.045086
0.286960 0.177064 -0.467312
0.286960 0.281320 0.363320
0.286960 0.423061 -0.234541
0.286960 0.163005 -0.444046
0.286960 0.218851 -0.417847
0.286960 0.310323 0.318348
0.286960 -0.173082 0.426061
0.286960 0.362337 -0.273579
0.286960 -0.455347 -0.083884
0.286960 -0.456595 -0.124043
0.286960 -0.474998 0.049614
0.286960 0.133555 0.450153
0.286960 0.430433 -0.185693
0.286960 0.432104 0.149280
0.286960 0.429386 -0.140264
0.286960 0.438807 -0.204653
0.286960 0.160876 -0.447594
0.286960 -0.163195 0.418334
0.286960 0.483528 0.012781
0.286960 -0.447401 0.212286
0.286960 -0.252275 -0.391628
0.286960 0.217578 0.436163
0.286960 0.276777 -0.355182
0.286960 0.460887 0.172713
0.286960 -0.179469 0.438394
0.286960 -0.481577 0.067974
0.286960 -0.125533 0.475027
0.286960 -0.421605 0.260926
0.286960 -0.369115 -0.275050
0.286960 -0.493881 0.055904
0.286960 -0.317305 -0.333857
0.286960 0.454826 -0.025704
0.286960 0.464914 0.069712
0.286960 -0.038151 0.474160
0.286960 -0.110861 -0.442867
0.286960 -0.386929 -0.276912
0.286960 0.487044 0.092937
0.286960 0.441433 0.107299
0.286960 0.447200 0.195684
0.286960 -0.175980 -0.424322
0.286960 0.429343 -0.253556
0.286960 -0.421279 -0.264614
0.286960 0.170968 0.441023
0.286960 -0.050768 -0.469893
0.286960 0.091758 -0.441663
0.286960 -0.461079 -0.120189
0.286960 -0.280678 -0.347938
0.286960 0.092817 0.433630
0.286960 -0.298307 -0.340315
0.286960 -0.169201 0.451197
0.286960 -0.407169 0.219886
0.286960 -0.462421 -0.173035
0.286960 0.147736 -0.477515
0.286960 -0.433315 0.101988
0.286960 0.078650 -0.463227
0.286960 -0.443392 0.142921
0.286960 0.144378 0.455612
0.286960 0.457702 0.190758
0.286960 -0.357835 0.275928
0.286960 -0.453759 -0.103782
0.286960 -0.403153 0.251880
0.286960 0.032547 -0.471198
0.286960 0.461270 0.041970
0.286960 -0.389834 0.291367
0.286960 -0.113133 -0.474840
0.286960 0.267479 -0.413976
0.286960 0.183787 0.448285
0.286960 -0.353194 -0.284930
0.286960 0.468765 -0.142880
0.286960 -0.051997 0.465939
0.286960 -0.294670 0.383386
0.286960 0.375134 0.318910
0.286960 -0.252697 -0.406317
0.286960 0.440238 -0.124072
0.286960 -0.120493 0.478598
0.286960 -0.436550 -0.224387
0.286960 0.318609 -0.339842
0.286960 0.217849 0.423623
0.286960 -0.359084 -0.334686
0.286960 0.127956 0.438242
0.286960 0.279806 0.403565
0.286960 0.111695 0.469790
0.286960 -0.070131 -0.454668
0.286960 0.476685 -0.077852
0.286960 0.292576 0.348462
0.286960 -0.449171 -0.214067
0.286960 0.343383 0.352897
0.286960 0.440284 -0.208446
0.286960 0.386560 -0.224870
0.286960 -0.027080 0.444369
0.286960 -0.140709 -0.464764
0.286960 -0.476669 -0.112119
0.286960 -0.112477 0.443192
0.286960 -0.064924 0.461856
0.286960 0.382067 0.300951
0.286960 -0.037084 0.454260
0.286960 -0.453807 -0.108343
0.286960 -0.401463 0.291301
0.286960 0.194869 0.419733
0.286960 -0.294693 0.364276
0.286960 0.205454 0.451154
0.286960 0.361890 -0.320793
0.286960 -0.449404 -0.069343
0.286960 -0.141269 0.420759
0.286960 -0.362413 -0.272527
0.286960 0.073017 -0.452221
0.286960 0.487596 0.036129
0.286960 -0.027926 -0.451593
0.286960 -0.453504 0.192095
0.286960 -0.423905 -0.249635
0.286960 -0.345124 0.305976
0.286960 0.199175 -0.442082
0.286960 0.267559 0.402920
0.286960 -0.492807 -0.014970
0.286960 0.384342 0.263946
0.286960 -0.366228 0.314687
0.286960 0.454778 -0.142922
0.286960 0.275279 -0.371917
0.286960 0.113540 0.446395
0.286960 -0.370863 -0.319875
0.286960 -0.338171 0.333253
0.286960 -0.357890 -0.325883
0.286960 0.452694 0.032196
0.286960 -0.123111 -0.445464
0.286960 0.360801 0.298041
0.286960 0.469552 0.033767
0.286960 -0.201274 0.400817
0.286960 0.445771 -0.030126
0.286960 0.261295 0.379699
0.286960 0.079188 0.484799
0.286960 -0.349493 0.333040
0.286960 -0.367154 0.318264
0.286960 -0.170187 -0.445158
0.286960 0.145795 0.467332
0.286960 -0.382592 0.225707
0.286960 -0.474680 0.075192
0.286960 0.442869 -0.133628
0.286960 -0.475781 0.100234
0.286960 -0.068770 -0.490695
0.286960 -0.453744 -0.034337
0.286960 -0.115021 -0.449367
0.286960 0.113547 -0.474047
0.286960 -0.415477 0.269163
0.286960 0.147415 -0.471406
0.286960 0.188243 -0.439067
0.286960 -0.446454 0.057019
0.286960 0.476672 0.011650
0.286960 -0.073912 -0.453883
0.286960 -0.462855 0.148699
0.286960 -0.186430 -0.424447
0.286960 0.471462 0.029954
0.286960 -0.362596 -0.264544
0.286960 0.410142 0.240157
0.286960 -0.468446 -0.118731
0.286960 -0.257876 0.401504
0.286960 0.474688 -0.001277
0.286960 -0.314388 -0.360834
0.286960 0.241799 0.399530
0.286960 0.465512 -0.080842
0.286960 -0.457313 -0.026175
0.286960 -0.234761 -0.393123
0.286960 -0.385105 0.287318
0.286960 0.096052 -0.463350
0.286960 -0.452211 -0.086446
0.286960 0.143580 -0.445131
0.286960 -0.444122 -0.151830
0.286960 0.326836 -0.365357
0.286960 0.220622 -0.433242
0.286960 -0.385390 0.262973
0.286960 -0.469145 0.115501
0.286960 0.214820 0.395764
0.286960 0.151103 0.431715
0.286960 -0.142380 0.460066
0.286960 -0.460697 -0.167120
0.286960 -0.460699 -0.046446
0.286960 -0.289457 0.359026
0.286960 -0.433390 -0.197443
0.286960 -0.061681 0.454441
0.286960 0.097850 0.459942
0.286960 0.456728 -0.198116
0.286960 -0.449361 -0.124987
0.286960 0.399734 -0.209380
0.286960 0.252050 -0.378962
0.286960 -0.268357 -0.393428
0.286960 -0.480061 0.022599
0.286960 0.343547 -0.295257
0.286960 0.327327 -0.307783
0.286960 0.340603 -0.345436
0.286960 0.363016 -0.290183
0.286960 -0.371020 -0.300315
0.286960 0.293445 0.343676
0.286960 -0.301407 0.338935
0.286960 0.208922 -0.402224
0.286960 -0.334826 -0.326040
0.286960 -0.004805 0.454638
0.286960 0.373445 0.254561
0.286960 -0.372268 -0.252901
0.286960 0.436739 0.139696
0.286960 -0.471771 -0.107757
0.286960 0.406325 -0.245863
0.286960 0.329639 0.348200
0.286960 -0.020565 0.482583
0.286960 0.440880 0.081290
0.286960 -0.444979 0.007154
0.286960 -0.255278 0.404208
0.286960 0.423062 0.259666
0.286960 -0.454747 -0.132026
0.286960 -0.444108 0.151989
0.286960 0.390085 -0.306233
0.286960 -0.272008 0.390501
0.286960 -0.060211 -0.446886
0.286960 -0.094055 0.444572
0.286960 0.347667 -0.358350
0.286960 -0.073164 -0.461095
0.286960 -0.297145 0.396314
0.286960 -0.245449 0.373926
0.286960 0.236453 0.400999
0.286960 0.147420 -0.431066
0.286960 -0.461549 0.169816
0.286960 0.218873 -0.448733
0.286960 -0.481598 -0.122625
0.286960 0.398673 0.254532
0.286960 0.308925 -0.338246
0.286960 -0.269497 -0.371011
0.286960 -0.459575 -0.015538
0.286960 -0.204154 0.435621
0.286960 -0.456698 0.009567
0.286960 -0.168229 0.436336
0.286960 -0.437148 -0.104386
0.286960 -0.262381 0.402813
0.286960 0.118522 -0.435846
0.286960 -0.429267 0.159980
0.286960 0.440881 0.067275
0.286960 0.434969 0.136879
0.286960 -0.473368 0.097280
0.286960 0.248089 -0.421378
0.286960 0.370128 -0.334914
0.286960 -0.010063 -0.498072
0.286960 0.187305 0.449346
0.286960 -0.366289 0.260962
0.286960 -0.421289 -0.245297
0.286960 -0.453578 -0.062846
0.286960 0.359192 -0.282488
0.286960 0.421744 -0.203463
0.286960 0.322705 0.352002
0.286960 -0.422384 -0.168081
0.286960 0.272325 -0.393554
0.286960 -0.060754 -0.495716
0.286960 0.157210 0.448230
0.286960 0.072552 0.456332
0.286960 0.276143 -0.409400
0.286960 -0.321441 0.326069
0.286960 0.358452 -0.316554
0.286960 0.405186 -0.276077
0.286960 -0.359465 0.323441
0.286960 0.488149 0.022788
0.286960 0.260640 -0.391463
0.286960 -0.431028 -0.142422
0.286960 -0.417243 -0.213509
0.286960 -0.410180 0.277426
0.286960 -0.416847 0.214304
0.286960 -0.000328 0.453560
0.286960 0.371630 0.292496
0.286960 0.455586 -0.169711
0.286960 0.102481 0.452353
0.286960 -0.484534 -0.033202
0.286960 0.396648 -0.246717
0.286960 -0.253373 0.372984
0.286960 0.300611 0.374219
0.286960 0.353046 -0.330221
0.286960 -0.269330 -0.407731
0.286960 -0.046849 -0.486576
0.286960 -0.422742 0.235100
0.286960 -0.415793 0.208300
0.286960 0.188068 -0.448505
0.286960 0.424777 -0.228378
0.286960 0.431302 0.214624
0.286960 -0.450549 0.103918
0.286960 -0.424415 0.171506
0.286960 0.101545 -0.435795
0.286960 0.397147 0.276866
0.286960 -0.031803 -0.452590
0.286960 0.433144 0.228957
0.286960 0.327203 -0.354714
0.286960 -0.437569 -0.142918
0.286960 -0.391997 0.288574
0.286960 -0.349464 -0.308669
0.286960 -0.355306 0.345356
0.286960 0.080935 0.443006
0.286960 0.242030 -0.425994
0.286960 -0.107434 0.477753
0.286960 0.052365 -0.484669
0.286960 -0.410429 -0.280736
0.286960 -0.420921 0.230798
0.286960 0.497027 0.032455
0.286960 -0.482355 -0.109307
0.286960 0.175909 0.457462
0.286960 0.025021 0.454093
0.286960 -0.429053 0.216777
0.286960 -0.251032 0.366208
0.286960 -0.368652 -0.303719
0.286960 0.373030 0.269473
0.286960 -0.373569 -0.273467
0.286960 0.479925 -0.135548
0.286960 -0.391522 -0.253860
0.286960 0.298901 -0.349775
0.286960 -0.350642 0.323702
0.286960 0.238053 -0.414748
0.286960 0.140863 0.420578
0.286960 0.425381 0.212191
0.286960 0.461309 -0.086814
0.286960 0.242898 0.421790
0.286960 0.430962 0.118567
0.286960 -0.421667 -0.155932
0.286960 -0.239710 0.386509
0.286960 0.470059 0.064395
0.286960 -0.377221 0.321570
0.286960 -0.467567 -0.114446
0.286960 -0.492136 -0.026747
0.286960 0.248647 -0.378536
0.286960 -0.140166 0.454411
0.286960 -0.077702 -0.456386
0.286960 0.126783 0.433215
0.286960 -0.020117 0.478636
0.286960 0.271848 0.352925
0.286960 -0.384942 -0.291543
0.286960 -0.289518 -0.371959
0.286960 0.450762 -0.048779
0.286960 0.261145 -0.395845
0.286960 0.133616 -0.438801
0.286960 0.118603 -0.459721
0.286960 -0.475169 -0.105494
0.286960 0.485688 -0.084840
0.286960 0.469325 0.110980
0.286960 0.425702 0.255705
0.286960 -0.086235 -0.444754
0.286960 0.108619 0.468267
0.286960 0.209535 -0.396593
0.286960 0.031326 -0.484071
0.286960 0.206564 -0.430272
0.286960 0.275229 -0.391635
0.286960 -0.200620 -0.440650
0.286960 0.133879 -0.449455
0.286960 0.299201 0.343025
0.286960 0.239367 -0.407969
0.286960 0.483226 0.071382
0.286960 -0.452642 0.146384
0.286960 0.051175 0.452806
0.286960 -0.435987 0.184335
0.286960 -0.442921 0.223570
0.286960 0.436122 -0.164362
0.286960 -0.188123 -0.462574
0.286960 -0.365693 0.329184
0.286960 -0.397751 0.222135
0.286960 -0.197491 -0.441590
0.286960 0.437647 0.187930
0.286960 -0.434345 -0.235588
0.286960 0.299488 0.363955
0.286960 0.052082 -0.454349
0.286960 0.438381 0.152954
0.286960 -0.140271 -0.444448
0.286960 -0.347304 0.343452
0.286960 0.123056 0.432322
0.286960 -0.137241 0.465256
0.286960 0.485217 0.097889
0.286960 -0.442344 -0.185659
0.286960 0.485089 0.027464
0.286960 -0.108997 -0.446757
0.286960 -0.235748 -0.403544
0.286960 0.331064 -0.307994
0.286960 -0.426876 -0.220178
0.286960 -0.164769 0.434214
0.286960 -0.335087 0.297491
0.286960 0.131766 -0.463981
0.286960 0.415544 0.161081
0.286960 -0.414667 0.262757
0.286960 -0.344110 0.354583
0.286960 -0.345069 -0.283320
0.286960 -0.450209 -0.146516
0.286960 -0.078425 0.470149
0.286960 -0.016371 0.466945
0.286960 -0.356769 0.339414
0.286960 -0.157747 -0.471296
0.286960 0.442496 -0.230669
0.286960 -0.457595 0.052687
0.286960 -0.316640 0.344121
0.286960 0.155392 -0.459685
0.286960 0.206932 0.432954
0.286960 0.455502 0.086720
0.286960 0.400061 -0.268517
0.286960 0.386391 0.220616
0.286960 0.302678 -0.344351
0.286960 -0.012950 -0.477196
0.286960 -0.463234 0.062651
0.286960 0.400616 0.225802
0.286960 -0.067000 0.452904
0.286960 -0.270905 0.377142
0.286960 0.443735 0.155335
0.286960 0.379134 -0.298359
0.286960 0.211151 -0.432511
0.286960 0.370001 0.280191
0.286960 -0.060723 0.462276
0.286960 -0.462760 -0.142167
0.286960 -0.301651 -0.358075
0.286960 0.016087 0.494328
0.286960 -0.382166 0.276325
0.286960 0.390245 -0.241870
0.286960 0.411407 -0.245819
0.286960 0.323804 0.312559
0.286960 0.181113 -0.409140
0.286960 -0.128612 -0.473790
0.286960 0.428619 -0.156834
0.286960 0.211987 -0.399523
0.286960 -0.367226 -0.336738
0.286960 0.234719 0.436489
0.286960 -0.105744 0.440412
0.286960 0.449567 -0.020849
0.286960 -0.263640 0.384429
0.286960 0.023677 0.471763
0.286960 -0.328911 -0.306282
0.286960 -0.132828 0.458782
0.286960 0.241222 0.425567
0.286960 -0.207203 -0.449753
0.286960 -0.065167 -0.478588
0.286960 -0.190289 0.435642
0.286960 0.060105 -0.453350
0.286960 -0.084801 -0.466464
0.286960 0.123838 -0.431760
0.286960 -0.494167 -0.007184
0.286960 0.095109 -0.483436
0.286960 0.391410 -0.289943
0.286960 0.440175 0.189940
0.286960 0.173191 -0.456745
0.286960 -0.114255 -0.482702
0.286960 -0.370489 0.307270
0.286960 0.091809 -0.438061
0.286960 0.033680 -0.497811
0.286960 0.020910 0.465037
0.286960 0.354278 -0.303927
0.286960 -0.325579 -0.305729
0.286960 0.072109 0.487354
0.286960 -0.390130 -0.297974
0.286960 -0.044083 0.479010
0.286960 -0.465993 0.013794
0.286960 -0.425733 -0.252479
0.286960 0.070323 0.463462
0.286960 0.275639 0.369455
0.286960 -0.491600 0.046451
0.286960 -0.395655 0.253712
0.286960 0.022335 0.468574
0.286960 -0.029920 0.489194
0.286960 0.419423 -0.205901
0.286960 -0.378603 -0.292303
0.286960 -0.375510 -0.304841
0.286960 0.086291 -0.448988
0.286960 0.456802 0.047682
0.286960 0.316464 -0.358006
0.286960 0.168329 0.435521
0.286960 0.047080 -0.453255
0.286960 0.435640 0.149634
0.286960 -0.275189 -0.381584
0.286960 -0.157211 -0.419425
0.286960 -0.198014 -0.428966
0.286960 -0.195369 -0.438773
0.286960 0.390458 0.241696
0.286960 0.223239 -0.399510
0.286960 0.135304 0.460814
0.286960 0.251679 -0.414189
0.286960 0.190129 0.451988
0.286960 0.434628 0.114827
0.286960 0.141787 -0.428100
0.286960 -0.178185 0.416851
0.286960 0.379750 -0.285596
0.286960 0.098817 -0.441301
0.286960 -0.208447 -0.400727
0.286960 -0.402525 -0.191921
0.286960 -0.027207 0.470070
0.286960 0.318036 0.315056
0.286960 0.235979 -0.407165
0.286960 0.440078 0.230191
0.286960 0.451386 0.062883
0.286960 0.384557 0.257375
0.286960 -0.479258 -0.114966
0.286960 -0.389997 0.220490
0.286960 -0.066929 0.483459
0.286960 -0.412299 -0.254638
0.286960 -0.271651 -0.404205
0.286960 0.091950 0.445524
0.286960 -0.199479 -0.421971
0.286960 -0.425921 0.206822
0.286960 -0.000203 -0.470587
0.286960 0.205997 -0.425805
0.286960 0.343474 0.284516
0.286960 -0.410940 -0.228935
0.286960 0.462691 0.154402
0.286960 0.212515 0.399508
0.286960 -0.384077 0.239692
0.286960 0.126540 0.479161
0.286960 -0.393020 -0.256802
0.286960 0.295084 -0.369042
0.286960 -0.277150 -0.351422
0.286960 0.412536 -0.189027
0.286960 -0.459131 -0.174284
0.286960 0.333608 -0.298619
0.286960 -0.481178 -0.025355
0.286960 -0.170572 0.454999
0.286960 -0.121574 0.447074
0.286960 0.413011 -0.193272
0.286960 0.443831 0.196228
0.286960 0.298545 0.354221
0.286960 0.273284 -0.408134
0.286960 0.430516 -0.119901
0.286960 0.126274 0.468742
0.286960 -0.257939 -0.369920
0.286960 -0.017267 0.446062
0.286960 -0.161124 0.428386
0.286960 0.352887 -0.323902
0.286960 -0.334964 -0.352468
0.286960 0.450164 0.046399
0.286960 0.188826 -0.427105
0.286960 -0.455301 0.088256
0.286960 -0.429629 0.156124
0.286960 -0.259344 -0.426644
0.286960 -0.442401 -0.148790
0.286960 0.446823 0.121978
0.286960 -0.472455 0.089371
0.286960 0.460317 -0.075536
0.286960 -0.443468 -0.226084
0.286960 -0.389079 -0.243794
0.286960 0.455278 0.144183
0.286960 0.046169 -0.480814
0.286960 -0.100605 -0.450232
0.286960 -0.022576 0.449616
0.286960 0.221402 0.393216
0.286960 0.247477 0.415917
0.286960 0.016727 -0.451405
0.286960 -0.397860 -0.298654
0.286960 0.413106 0.238595
0.286960 0.345578 0.327044
0.286960 -0.385775 0.270139
0.286960 -0.087641 0.447714
0.286960 -0.149306 -0.451305
0.286960 -0.204239 -0.417258
0.286960 0.008678 0.486631
0.286960 0.007688 -0.461859
0.286960 0.384465 -0.316591
0.286960 0.326598 0.315427
0.286960 -0.422355 0.179293
0.286960 -0.116622 -0.485670
0.286960 0.484053 -0.094351
0.286960 0.409389 -0.236707
0.286960 0.385490 0.307748
0.286960 0.363687 0.292750
0.286960 0.330461 -0.374353
0.286960 0.104267 -0.488314
0.286960 0.460174 -0.060059
0.286960 -0.447306 0.005218
0.286960 0.361748 -0.311987
0.286960 -0.339792 0.322404
0.286960 0.444380 0.160495
0.286960 0.429333 0.158030
0.286960 0.218801 0.417565
0.286960 -0.439763 -0.110328
0.286960 -0.219957 -0.395514
0.286960 0.333185 -0.371887
0.286960 0.357724 -0.323033
0.286960 -0.134549 0.444373
0.286960 -0.432219 -0.237776
0.286960 0.356200 -0.345203
0.286960 0.456646 0.127524
0.286960 0.309463 -0.375181
0.286960 -0.138210 0.461440
0.286960 -0.451917 -0.122195
0.286960 0.331159 0.314110
0.286960 -0.436764 0.222978
0.286960 -0.434302 0.227406
0.286960 0.165909 -0.465204
0.286960 -0.203263 -0.438048
0.286960 0.460781 0.003391
0.286960 -0.414990 0.266034
0.286960 0.464483 -0.161587
0.286960 -0.471998 -0.012099
0.286960 -0.445676 0.033994
0.286960 -0.126892 -0.436828
0.286960 0.423643 0.246163
0.286960 0.101242 -0.479523
0.286960 0.280050 -0.409842
0.286960 0.055528 -0.493576
0.286960 0.454318 0.067643
0.286960 -0.450540 -0.171359
0.286960 0.349259 0.318772
0.286960 -0.239827 0.408441
0.286960 0.010891 -0.492757
0.286960 0.438949 0.216979
0.286960 -0.236805 0.434655
0.286960 -0.096258 0.459518
0.286960 0.390840 -0.273650
0.286960 -0.368779 -0.271699
0.286960 0.386057 -0.261154
0.286960 0.340068 0.357906
0.286960 0.258632 -0.427679
0.286960 -0.361803 -0.288940
0.286960 -0.451346 -0.028494
0.286960 0.298791 -0.400878
0.286960 0.371866 0.317623
0.286960 0.233678 -0.412640
0.286960 -0.488527 0.066093
0.286960 -0.222169 -0.417822
0.286960 -0.491768 -0.043916
0.286960 0.082743 -0.464596
0.286960 0.082973 0.470118
0.286960 -0.213430 0.414563
0.286960 0.076153 -0.453057
0.286960 0.195579 -0.424953
0.286960 -0.177402 0.453004
0.286960 -0.107330 -0.472587
0.286960 0.439634 0.133971
0.286960 -0.386510 -0.302931
0.286960 0.073254 -0.444943
0.286960 -0.420117 0.242755
0.286960 -0.223573 -0.387392
0.286960 -0.254008 -0.420210
0.286960 -0.316064 0.359119
0.286960 -0.202446 -0.429854
0.286960 -0.361412 0.300338
0.286960 -0.335231 0.334601
0.286960 0.484096 0.006709
0.286960 -0.055129 -0.463772
0.286960 0.321593 -0.323526
0.286960 0.313566 0.348590
0.286960 -0.011318 0.484891
0.286960 0.256959 -0.368335
0.286960 -0.451442 -0.042906
0.286960 -0.464730 0.139641
0.286960 -0.136038 0.468649
0.286960 -0.487232 0.038202
0.286960 0.199975 0.410033
0.286960 0.160215 -0.468953
0.286960 0.451762 0.015640
0.286960 0.171079 -0.453528
0.286960 -0.448501 -0.197958
0.286960 0.299423 0.350244
0.286960 0.036180 0.453822
0.286960 -0.266002 -0.371489
0.286960 -0.491835 -0.075642
0.286960 -0.443371 0.186344
0.286960 0.431350 -0.116663
0.286960 -0.221218 0.433516
0.286960 0.480075 0.079818
0.286960 0.488628 -0.101483
0.286960 -0.368765 0.258146
0.286960 -0.387009 -0.283167
0.286960 -0.351983 -0.343923
0.286960 0.460333 0.149351
0.286960 0.007401 0.495932
0.286960 -0.277172 -0.377083
0.286960 -0.335544 -0.360879
0.286960 0.235136 -0.428164
0.286960 0.278940 -0.390088
0.286960 -0.172797 0.444505
0.286960 -0.238297 0.412675
0.286960 -0.051127 0.475061
0.286960 0.288814 -0.407777
0.286960 0.466440 -0.016184
0.286960 0.376559 -0.328111
0.286960 0.425489 0.191685
0.286960 -0.463169 -0.050411
0.286960 -0.330464 0.334402
0.286960 0.452227 0.059077
0.286960 -0.201325 0.432870
0.286960 0.484848 -0.001610
0.286960 -0.372277 0.310453
0.286960 0.459256 0.032708
0.286960 -0.449267 -0.046113
0.286960 -0.399429 -0.198203
0.286960 -0.284211 0.405686
0.286960 -0.420817 0.226507
0.286960 0.395554 0.226504
0.286960 -0.098972 0.468162
0.286960 0.461285 0.007377
0.286960 0.454078 0.049802
0.286960 -0.453317 -0.005919
0.286960 0.219956 -0.394057
0.286960 -0.306294 0.380390
0.286960 -0.403750 0.280024
0.286960 0.156012 0.427674
0.286960 0.308888 -0.363955
0.286960 0.078042 -0.455829
0.286960 0.487469 -0.089012
0.286960 -0.341997 0.336412
0.286960 0.029075 0.460368
0.286960 -0.319215 -0.354996
0.286960 -0.397215 -0.252352
0.286960 0.205080 0.429145
0.286960 0.449250 -0.038655
0.286960 -0.397528 0.272445
0.286960 -0.446787 0.114580
0.286960 0.399844 0.233096
0.286960 0.452629 0.147625
0.286960 -0.087270 0.459667
0.286960 -0.246057 0.426609
0.286960 0.473811 -0.069608
0.286960 0.445683 -0.192870
0.286960 -0.093735 0.469446
0.286960 0.218587 -0.401625
0.286960 0.048759 0.447243
0.286960 0.369288 -0.270147
0.286960 0.257382 -0.393283
0.286960 -0.091695 0.456168
0.286960 0.369262 -0.278744
0.286960 0.199535 0.444220
0.286960 -0.291448 0.399964
0.286960 0.347743 -0.293834
0.286960 -0.243935 0.402613
0.286960 -0.093909 0.480848
0.286960 0.297908 -0.379694
0.286960 -0.444546 -0.122449
0.286960 -0.199251 -0.451835
0.286960 -0.467142 -0.019607
0.286960 0.390097 0.278245
0.286960 -0.266557 0.405278
0.286960 0.470290 0.096579
0.286960 0.038062 -0.450095
0.286960 -0.450383 0.020601
0.286960 -0.083753 0.449749
0.286960 0.156479 0.424352
0.286960 -0.365886 -0.287345
0.286960 0.239533 -0.411817
0.286960 -0.376603 -0.280496
0.286960 -0.146934 -0.422576
0.286960 0.384890 0.291302
0.286960 -0.209716 -0.405137
0.286960 0.430058 -0.148370
0.286960 -0.214832 0.387989
0.286960 0.119130 -0.455128
0.286960 0.283519 -0.355089
0.286960 -0.093805 0.448782
0.286960 -0.455578 -0.190400
0.286960 -0.453255 0.157502
0.286960 -0.324227 -0.373579
0.286960 -0.207130 -0.418963
0.286960 -0.479084 0.109027
0.286960 0.401942 -0.264480
0.286960 -0.212800 0.444571
0.286960 0.064445 -0.446098
0.286960 0.381377 -0.233256
0.286960 0.376307 -0.264960
0.286960 0.158265 0.436435
0.286960 0.372700 0.288735
0.286960 0.452680 0.167813
0.286960 0.366733 0.300854
0.286960 0.034102 -0.454996
0.286960 -0.215447 -0.423676
0.286960 -0.289008 0.402961
0.286960 0.387718 0.240190
0.286960 0.281182 -0.369315
0.286960 -0.331735 0.298178
0.286960 -0.262033 0.371169
0.286960 0.477387 -0.105917
0.286960 0.229050 -0.411712
0.286960 0.322244 -0.340243
0.286960 0.257558 -0.399851
0.286960 -0.458134 0.140446
0.286960 0.030201 -0.450319
0.286960 -0.444156 -0.072534
0.286960 -0.322213 -0.379357
0.286960 -0.220954 -0.436762
0.286960 0.053206 -0.489891
0.286960 0.322565 0.376308
0.286960 0.072344 -0.494550
0.286960 -0.385413 0.230759
0.286960 -0.327788 0.317890
0.286960 -0.361096 0.281497
0.286960 0.438971 -0.099405
0.286960 0.181048 -0.417150
0.286960 -0.085196 0.465677
0.286960 0.387534 0.233770
0.286960 -0.402685 -0.200275
0.286960 0.283805 -0.360638
0.286960 0.352114 0.332559
0.286960 0.378749 -0.280645
0.286960 -0.041912 0.452185
0.286960 0.316403 -0.367248
0.286960 0.436850 0.223302
0.286960 0.087601 -0.462013
0.286960 0.021733 0.495064
0.286960 0.431506 0.206637
0.286960 -0.459324 0.061094
0.286960 -0.020791 0.446643
0.286960 -0.428104 0.236511
0.286960 -0.210735 0.395650
0.286960 -0.466492 -0.111315
0.286960 -0.443427 0.167038
0.286960 -0.312108 0.330795
0.286960 -0.326623 -0.361192
0.286960 0.195486 -0.429155
0.286960 -0.233132 0.413101
0.286960 0.323899 0.341264
0.286960 0.075907 0.472081
0.286960 -0.300243 0.326647
0.286960 0.066543 -0.486864
0.286960 0.195674 -0.439051
0.286960 -0.446096 -0.026342
0.286960 0.430784 -0.213948
0.286960 0.088292 0.445634
0.286960 0.169116 -0.468271
0.286960 -0.446578 -0.164566
0.286960 -0.149198 0.449402
0.286960 -0.131306 0.454705
0.286960 -0.184411 -0.412958
0.286960 0.257206 0.416204
0.286960 -0.020304 0.475387
0.286960 -0.479804 0.049475
0.286960 0.461059 0.119798
0.286960 0.476170 -0.146283
0.286960 0.163536 -0.436521
0.286960 -0.470690 0.032376
0.286960 -0.109293 0.470436
0.286960 0.457894 -0.111635
0.286960 0.124285 -0.445423
0.286960 -0.459183 0.158932
0.286960 0.159095 -0.439536
0.286960 -0.457678 -0.120801
0.286960 0.138532 -0.460072
0.286960 0.080542 -0.453420
0.286960 -0.457077 0.048343
0.286960 0.061138 0.466351
0.286960 0.232287 -0.425778
0.286960 -0.481500 -0.097313
0.286960 -0.467926 0.020011
0.286960 -0.458969 -0.164281
0.286960 0.165570 -0.418580
0.286960 -0.402706 -0.215881
0.286960 0.459785 0.169245
0.286960 -0.240310 0.372799
0.286960 -0.419379 -0.181185
0.286960 -0.097291 0.481646
0.286960 -0.033334 0.470984
0.286960 -0.231947 -0.406978
0.286960 -0.147721 0.446219
0.286960 -0.176405 -0.436044
0.286960 -0.156145 0.441515
0.286960 0.471500 -0.120553
0.286960 0.400176 -0.249484
0.286960 0.127539 -0.445409
0.286960 -0.403952 0.192019
0.286960 -0.484538 -0.058765
0.286960 -0.319499 0.346537
0.286960 -0.116391 -0.442941
0.286960 0.452428 -0.118128
0.286960 -0.060317 -0.443492
0.286960 0.196391 0.433804
0.286960 0.484310 0.087090
0.286960 -0.100233 0.458017
0.286960 0.178596 -0.428014
0.286960 0.486459 0.052073
0.286960 -0.086099 0.471055
0.286960 0.439503 -0.154834
0.286960 0.254451 -0.423961
0.286960 0.489740 -0.038435
0.286960 0.070036 -0.471095
0.286960 -0.439742 0.190033
0.286960 0.370907 0.259435
0.286960 0.317462 -0.346276
0.286960 -0.397995 -0.226574
0.286960 0.185815 0.425642
0.286960 -0.431733 0.181430
0.286960 -0.073249 -0.471560
0.286960 -0.409921 -0.200542
0.286960 -0.139131 0.427349
0.286960 -0.275770 0.363876
