-0.290288 0.440861 0.214329
-0.290288 -0.453527 -0.037542
-0.290288 0.403353 -0.287361
-0.290288 -0.415335 0.178039
-0.290288 -0.478080 0.133248
-0.290288 0.451559 -0.080193
-0.290288 0.352686 -0.292223
-0.290288 -0.207110 0.409324
-0.290288 -0.417410 -0.166050
-0.290288 -0.079846 -0.457118
-0.290288 0.248875 0.413118
-0.290288 -0.451914 0.197714
-0.290288 -0.459243 0.084485
-0.290288 -0.453227 0.049834
-0.290288 -0.318188 -0.374002
-0.290288 0.199601 0.409023
-0.290288 -0.056347 0.480517
-0.290288 -0.052062 -0.488994
-0.290288 0.291672 -0.404022
-0.290288 0.482134 -0.006004
-0.290288 0.446152 -0.176039
-0.290288 0.289845 -0.381498
-0.290288 0.358604 0.288330
-0.290288 -0.032045 0.480895
-0.290288 -0.457615 0.057400
-0.290288 -0.221277 0.428625
-0.290288 -0.086081 0.457591
-0.290288 -0.387329 0.292524
-0.290288 0.459072 -0.067282
-0.290288 -0.004292 0.490350
-0.290288 -0.099490 -0.470036
-0.290288 -0.460465 -0.058723
-0.290288 -0.224772 0.404434
-0.290288 -0.394510 0.271890
-0.290288 0.421475 -0.236322
-0.290288 0.480183 -0.124855
-0.290288 0.027458 0.484746
-0.290288 -0.445597 -0.152811
-0.290288 -0.406045 0.225023
-0.290288 0.404403 -0.247887
-0.290288 -0.125266 -0.429916
-0.290288 -0.345045 0.279449
-0.290288 0.456245 -0.030369
-0.290288 0.261587 0.403257
-0.290288 -0.436233 0.141927
-0.290288 -0.444852 0.131699
-0.290288 0.364211 -0.263109
-0.290288 -0.463906 0.072818
-0.290288 0.299611 -0.358465
-0.290288 -0.469258 -0.067470
-0.290288 0.441214 -0.137970
-0.290288 0.431863 0.196086
-0.290288 0.479859 0.012729
-0.290288 -0.449477 0.009365
-0.290288 -0.044887 0.451169
-0.290288 0.001289 -0.472534
-0.290288 -0.189879 -0.446833
-0.290288 0.314976 0.342370
-0.290288 0.142388 0.466306
-0.290288 0.280574 0.349947
-0.290288 -0.113616 0.461018
-0.290288 -0.076967 -0.453490
-0.290288 0.454594 0.082192
-0.290288 -0.221107 -0.434734
-0.290288 -0.262609 0.414742
-0.290288 0.003947 0.483172
-0.290288 0.360504 0.308225
-0.290288 -0.036397 -0.492799
-0.290288 -0.148262 0.460766
-0.290288 0.159077 -0.429861
-0.290288 0.289200 -0.348687
-0.290288 0.001544 -0.468611
-0.290288 -0.071547 -0.459556
-0.290288 -0.236983 0.397181
-0.290288 -0.383296 -0.300559
-0.290288 -0.082828 -0.440531
-0.290288 -0.469133 -0.049424
-0.290288 -0.040898 -0.497709
-0.290288 0.183501 -0.439362
-0.290288 0.273278 -0.408910
-0.290288 0.058552 0.450849
-0.290288 0.235456 -0.435022
-0.290288 -0.446485 0.146116
-0.290288 0.353630 0.314505
-0.290288 -0.353628 0.269777
-0.290288 -0.488302 -0.064935
-0.290288 0.431252 0.183207
-0.290288 -0.180843 0.446396
-0.290288 -0.034767 0.443087
-0.290288 -0.391370 0.258883
-0.290288 -0.364289 -0.304442
-0.290288 0.398177 -0.203247
-0.290288 -0.479528 -0.053702
-0.290288 0.168435 0.433383
-0.290288 0.222029 0.423774
-0.290288 0.428213 0.122361
-0.290288 0.076095 -0.448498
-0.290288 -0.416642 0.233944
-0.290288 0.195062 -0.416994
-0.290288 -0.269567 -0.388823
-0.290288 0.187362 0.459147
-0.290288 0.202207 -0.416341
-0.290288 -0.314757 -0.366876
-0.290288 -0.402760 0.197664
-0.290288 0.375790 0.270540
-0.290288 -0.264549 0.356021
-0.290288 -0.361702 0.311572
-0.290288 -0.420042 0.207312
-0.290288 -0.154395 0.463717
-0.290288 0.409615 0.173684
-0.290288 0.491425 -0.021010
-0.290288 -0.400983 -0.249674
-0.290288 -0.472464 -0.123517
-0.290288 0.282256 -0.361463
-0.290288 -0.418480 0.210513
-0.290288 -0.110982 0.459164
-0.290288 0.460160 0.018275
-0.290288 0.053140 0.464957
-0.290288 -0.461040 -0.019913
-0.290288 -0.375871 -0.249822
-0.290288 -0.103354 -0.452787
-0.290288 0.109057 -0.479018
-0.290288 -0.215838 -0.409745
-0.290288 0.298298 0.329658
-0.290288 0.145698 -0.446551
-0.290288 0.307297 0.383045
-0.290288 0.134060 -0.427050
-0.290288 0.481576 -0.075342
-0.290288 -0.178578 -0.445967
-0.290288 -0.471015 0.104138
-0.290288 -0.467293 0.030528
-0.290288 0.083301 0.455732
-0.290288 -0.347363 0.306296
-0.290288 -0.061343 0.445616
-0.290288 -0.478498 0.010746
-0.290288 0.201280 0.434189
-0.290288 0.447908 -0.108685
-0.290288 0.296967 -0.336731
-0.290288 0.468105 -0.125953
-0.290288 -0.457821 0.040932
-0.290288 -0.462363 0.021230
-0.290288 0.397743 0.214356
-0.290288 0.318171 0.326730
-0.290288 0.235275 0.395938
-0.290288 -0.183569 -0.412301
-0.290288 0.304765 -0.374519
-0.290288 0.095497 -0.477608
-0.290288 0.101289 0.450838
-0.290288 -0.232775 0.380419
-0.290288 -0.301420 -0.391726
-0.290288 0.182380 0.430358
-0.290288 -0.329780 0.346809
-0.290288 0.455178 0.131220
-0.290288 0.031712 -0.467919
-0.290288 -0.094294 -0.479756
-0.290288 0.164928 -0.444678
-0.290288 -0.432331 0.234516
-0.290288 0.393188 -0.285951
-0.290288 -0.076155 -0.448829
-0.290288 -0.492352 -0.062102
-0.290288 0.461199 -0.143716
-0.290288 0.417353 0.165593
-0.290288 -0.481214 0.087885
-0.290288 -0.069586 0.487026
-0.290288 0.167931 -0.467483
-0.290288 0.260942 -0.363997
-0.290288 -0.371665 -0.293940
-0.290288 0.260023 -0.419408
-0.290288 -0.437207 -0.232766
-0.290288 -0.340402 0.306873
-0.290288 -0.440124 -0.097823
-0.290288 0.452718 0.136918
-0.290288 -0.330410 0.362701
-0.290288 0.281632 0.343998
-0.290288 -0.177997 -0.463111
-0.290288 -0.438648 -0.203708
-0.290288 0.447689 -0.011756
-0.290288 -0.436645 -0.206441
-0.290288 0.396074 0.222564
-0.290288 -0.446415 0.199137
-0.290288 0.148764 0.430245
-0.290288 0.364154 -0.288978
-0.290288 0.471361 -0.125886
-0.290288 -0.009126 0.456436
-0.290288 0.270299 -0.413200
-0.290288 0.375493 -0.271804
-0.290288 -0.374321 -0.301739
-0.290288 -0.295958 0.365990
-0.290288 0.482886 -0.039241
-0.290288 -0.144523 0.443589
-0.290288 -0.283157 -0.394269
-0.290288 -0.019196 0.459212
-0.290288 -0.298355 -0.355819
-0.290288 0.463642 -0.049566
-0.290288 -0.449521 -0.188550
-0.290288 0.427689 0.221442
-0.290288 -0.404834 -0.199598
-0.290288 -0.321606 -0.373298
-0.290288 -0.186949 -0.414124
-0.290288 -0.102495 0.450287
-0.290288 -0.283924 0.397027
-0.290288 0.407193 0.183243
-0.290288 0.423439 0.220887
-0.290288 0.486964 -0.044671
-0.290288 0.442112 0.175473
-0.290288 0.279999 0.408895
-0.290288 0.456886 0.188895
-0.290288 -0.442670 0.171541
-0.290288 0.368764 -0.274916
-0.290288 0.009745 0.479370
-0.290288 -0.426518 -0.233168
-0.290288 0.337883 -0.299947
-0.290288 -0.409741 -0.242932
-0.290288 0.045943 -0.495589
-0.290288 0.244599 0.394537
-0.290288 0.235762 -0.407455
-0.290288 0.014263 -0.457022
-0.290288 0.480501 0.088621
-0.290288 -0.307380 0.320574
-0.290288 -0.070520 0.483637
-0.290288 0.330251 0.338944
-0.290288 -0.478693 -0.079431
-0.290288 -0.084315 0.486917
-0.290288 0.432153 -0.173299
-0.290288 -0.370534 -0.263362
-0.290288 -0.319655 0.325600
-0.290288 -0.030784 0.467941
-0.290288 -0.304917 -0.330146
-0.290288 -0.430202 -0.149931
-0.290288 -0.452474 -0.024404
-0.290288 0.001530 -0.447649
-0.290288 -0.481735 0.102870
-0.290288 -0.405162 -0.271455
-0.290288 -0.137068 -0.454198
-0.290288 0.016675 -0.491632
-0.290288 -0.404299 -0.276414
-0.290288 0.312815 -0.341512
-0.290288 0.388526 -0.243038
-0.290288 0.466328 -0.093754
-0.290288 -0.007826 0.490937
-0.290288 -0.489048 0.052747
-0.290288 0.231635 -0.405096
-0.290288 0.262556 0.399143
-0.290288 -0.092411 -0.456016
-0.290288 -0.262482 0.404717
-0.290288 0.439542 0.231890
-0.290288 0.319987 0.359786
-0.290288 -0.466742 0.156540
-0.290288 0.454934 0.068208
-0.290288 0.484693 -0.000373
-0.290288 -0.421177 -0.146180
-0.290288 -0.385475 0.247534
-0.290288 0.162874 -0.458857
-0.290288 0.262482 0.419142
-0.290288 0.361754 -0.274590
-0.290288 -0.489924 -0.047761
-0.290288 0.216495 -0.444917
-0.290288 0.203179 -0.453144
-0.290288 0.396004 0.241244
-0.290288 -0.373496 -0.267398
-0.290288 0.388374 0.297368
-0.290288 0.164125 0.419385
-0.290288 0.244817 -0.377656
-0.290288 -0.480111 0.066130
-0.290288 -0.018999 0.471261
-0.290288 0.487912 0.019099
-0.290288 0.131249 -0.468029
-0.290288 -0.455986 0.081292
-0.290288 -0.277757 -0.379538
-0.290288 -0.485081 0.020201
-0.290288 -0.470395 -0.071963
-0.290288 0.356249 0.293482
-0.290288 0.260741 0.396476
-0.290288 0.449916 -0.020199
-0.290288 0.128177 -0.434843
-0.290288 -0.302321 -0.343104
-0.290288 -0.393858 -0.214157
-0.290288 -0.090389 -0.489149
-0.290288 0.188536 -0.426987
-0.290288 -0.312904 -0.354847
-0.290288 0.159997 -0.455676
-0.290288 -0.145485 -0.438057
-0.290288 0.462981 -0.066783
-0.290288 0.065474 0.479343
-0.290288 0.122643 -0.438586
-0.290288 -0.279244 0.360169
-0.290288 0.164445 -0.432432
-0.290288 -0.470242 -0.091797
-0.290288 -0.492119 -0.035389
-0.290288 0.418151 -0.236886
-0.290288 0.421533 -0.191712
-0.290288 -0.312822 0.371511
-0.290288 0.063578 0.488299
-0.290288 0.361950 -0.285878
-0.290288 0.465548 0.152554
-0.290288 0.255021 -0.418704
-0.290288 0.359728 0.276224
-0.290288 0.440456 0.076118
-0.290288 -0.448600 0.024898
-0.290288 0.472799 0.139440
-0.290288 -0.445145 -0.066285
-0.290288 -0.496170 0.005518
-0.290288 -0.422806 -0.243713
-0.290288 -0.236355 -0.438687
-0.290288 -0.434985 0.138084
-0.290288 -0.396058 0.204728
-0.290288 0.395249 0.278369
-0.290288 0.027480 -0.467887
-0.290288 0.468469 -0.031819
-0.290288 -0.021487 0.466243
-0.290288 0.267931 0.384902
-0.290288 -0.075988 -0.467653
-0.290288 -0.378829 0.288825
-0.290288 -0.426673 -0.240421
-0.290288 -0.192588 0.444036
-0.290288 0.431000 0.179863
-0.290288 0.390359 0.217144
-0.290288 0.452415 0.188451
-0.290288 0.403301 -0.208097
-0.290288 -0.346265 0.344302
-0.290288 0.464270 -0.075666
-0.290288 -0.402421 -0.273622
-0.290288 -0.409274 0.272181
-0.290288 -0.371857 0.299351
-0.290288 0.327521 0.373257
-0.290288 0.059873 -0.457893
-0.290288 -0.464998 0.048220
-0.290288 -0.393053 0.301713
-0.290288 -0.260319 -0.422964
-0.290288 0.244660 0.406424
-0.290288 -0.448777 0.041162
-0.290288 0.465134 -0.170056
-0.290288 -0.441009 0.195687
-0.290288 0.245832 -0.434567
-0.290288 -0.138121 0.476097
-0.290288 0.350519 0.342164
-0.290288 -0.052433 -0.464638
-0.290288 0.308811 -0.329659
-0.290288 -0.409024 0.213740
-0.290288 0.043030 -0.484217
-0.290288 0.051877 -0.482158
-0.290288 -0.470709 -0.138378
-0.290288 -0.166801 -0.449040
-0.290288 0.258702 0.365969
-0.290288 -0.057811 0.446754
-0.290288 -0.413213 -0.177404
-0.290288 0.112743 -0.457542
-0.290288 -0.445590 0.118629
-0.290288 0.088603 0.435110
-0.290288 -0.325456 0.301886
-0.290288 0.400412 0.233047
-0.290288 0.357752 0.336263
-0.290288 -0.055246 0.484154
-0.290288 0.293014 -0.366346
-0.290288 0.151593 -0.453205
-0.290288 0.443297 -0.166147
-0.290288 -0.442307 0.110351
-0.290288 -0.123238 0.464370
-0.290288 -0.085424 0.450154
-0.290288 -0.193612 -0.419641
-0.290288 0.353286 -0.335127
-0.290288 -0.476153 0.138135
-0.290288 -0.328997 -0.351006
-0.290288 -0.017820 -0.493592
-0.290288 -0.200385 -0.411929
-0.290288 0.453134 0.140453
-0.290288 0.387769 -0.290671
-0.290288 -0.186778 0.429476
-0.290288 0.452057 0.132233
-0.290288 0.218615 0.404548
-0.290288 -0.411747 0.216636
-0.290288 -0.023442 0.460828
-0.290288 -0.150727 0.452347
-0.290288 0.428543 -0.197116
-0.290288 0.064444 0.460045
-0.290288 0.275724 0.356982
-0.290288 -0.251417 0.411469
-0.290288 0.452606 0.148951
-0.290288 -0.313664 0.361242
-0.290288 -0.293659 -0.362207
-0.290288 -0.207378 -0.396958
-0.290288 0.045068 -0.466338
-0.290288 0.114797 -0.475482
-0.290288 -0.205613 0.414209
-0.290288 0.285255 0.404699
-0.290288 -0.318429 0.375232
-0.290288 0.352253 -0.338437
-0.290288 -0.468363 0.042765
-0.290288 -0.288675 -0.366428
-0.290288 0.441067 0.191731
-0.290288 0.443764 0.206779
-0.290288 -0.339859 -0.322885
-0.290288 -0.340788 -0.346578
-0.290288 -0.036026 0.454753
-0.290288 0.469200 0.071554
-0.290288 -0.363536 0.288061
-0.290288 0.445626 0.065638
-0.290288 -0.407003 0.198470
-0.290288 -0.425219 0.129597
-0.290288 -0.157913 0.459013
-0.290288 -0.371804 0.242590
-0.290288 -0.376347 -0.304344
-0.290288 0.431937 0.176529
-0.290288 0.375234 0.322014
-0.290288 -0.466771 -0.150913
-0.290288 -0.077839 0.470539
-0.290288 -0.150766 -0.441226
-0.290288 -0.064917 -0.475904
-0.290288 0.406443 0.210146
-0.290288 -0.457007 0.177475
-0.290288 0.482162 0.020271
-0.290288 -0.355470 0.298999
-0.290288 0.006671 0.486029
-0.290288 -0.083049 -0.480896
-0.290288 -0.366856 -0.287593
-0.290288 0.425228 -0.196541
-0.290288 -0.128657 -0.438659
-0.290288 0.350245 -0.325203
-0.290288 -0.455351 0.098183
-0.290288 0.222794 -0.447181
-0.290288 0.080937 0.466628
-0.290288 0.102158 0.441216
-0.290288 0.312786 -0.326937
-0.290288 -0.311369 0.349901
-0.290288 0.445232 0.125245
-0.290288 -0.230705 0.401297
-0.290288 -0.350212 -0.283826
-0.290288 -0.029558 -0.464314
-0.290288 -0.198292 -0.446227
-0.290288 -0.439711 0.126986
-0.290288 0.337871 -0.320902
-0.290288 -0.084858 0.441698
-0.290288 0.039821 -0.485419
-0.290288 0.421266 -0.188512
-0.290288 -0.252736 -0.385007
-0.290288 -0.377840 0.318513
-0.290288 -0.274439 0.384137
-0.290288 0.336159 0.359414
-0.290288 -0.334651 0.364777
-0.290288 0.442688 -0.180948
-0.290288 -0.173215 -0.439328
-0.290288 0.368471 -0.333199
-0.290288 -0.025838 0.458444
-0.290288 0.392381 -0.259930
-0.290288 -0.460397 -0.074978
-0.290288 0.451393 0.192940
-0.290288 -0.407166 -0.183208
-0.290288 0.439361 0.106574
-0.290288 0.039245 0.461754
-0.290288 -0.426588 0.214053
-0.290288 -0.496770 0.020882
-0.290288 0.120679 -0.479331
-0.290288 -0.342453 -0.308950
-0.290288 0.447739 -0.112833
-0.290288 -0.461060 -0.164640
-0.290288 -0.471421 -0.142062
-0.290288 0.111698 -0.481419
-0.290288 0.443267 0.169044
-0.290288 0.449010 -0.131278
-0.290288 -0.018703 0.455749
-0.290288 -0.206298 -0.422846
-0.290288 0.455921 -0.035542
-0.290288 0.414661 -0.221399
-0.290288 -0.275291 -0.360482
-0.290288 -0.377624 0.269952
-0.290288 0.030359 0.464673
-0.290288 0.424180 0.199390
-0.290288 -0.473377 -0.136499
-0.290288 -0.357232 0.288004
-0.290288 0.373749 0.274653
-0.290288 -0.024893 -0.455326
-0.290288 0.476558 0.015756
-0.290288 -0.257668 0.417301
-0.290288 0.161011 -0.418257
-0.290288 -0.301459 -0.377988
-0.290288 0.461509 -0.138519
-0.290288 0.483190 -0.113182
-0.290288 0.455318 0.100918
-0.290288 0.423367 -0.174150
-0.290288 0.211979 -0.415244
-0.290288 -0.262138 -0.368230
-0.290288 0.153432 -0.457864
-0.290288 -0.390429 -0.231368
-0.290288 0.414833 -0.167435
-0.290288 0.384393 -0.272152
-0.290288 -0.450865 -0.140454
-0.290288 -0.159274 -0.428322
-0.290288 0.420832 -0.241972
-0.290288 0.105203 -0.459685
-0.290288 -0.256730 0.387415
-0.290288 -0.297539 -0.340643
-0.290288 0.364620 0.297764
-0.290288 0.446575 -0.182705
-0.290288 0.485796 0.104565
-0.290288 -0.438550 0.138233
-0.290288 0.356095 -0.296896
-0.290288 0.280326 0.380231
-0.290288 0.380433 0.303844
-0.290288 -0.382885 0.233183
-0.290288 0.188532 -0.430660
-0.290288 0.139412 -0.460225
-0.290288 0.176840 0.441551
-0.290288 0.070525 -0.463317
-0.290288 0.480127 0.115136
-0.290288 0.158526 -0.422464
-0.290288 0.217156 0.389276
-0.290288 0.327951 -0.336473
-0.290288 -0.281073 0.388362
-0.290288 0.160383 0.429265
-0.290288 -0.361416 0.259366
-0.290288 -0.223516 -0.420299
-0.290288 0.281569 0.374312
-0.290288 0.146643 -0.427864
-0.290288 0.478597 0.093132
-0.290288 0.457372 -0.097541
-0.290288 0.456537 0.158400
-0.290288 -0.263081 0.401462
-0.290288 0.445316 0.219428
-0.290288 -0.002648 0.478637
-0.290288 0.464889 -0.084205
-0.290288 -0.307772 -0.370614
-0.290288 0.419600 -0.212314
-0.290288 0.342033 -0.348571
-0.290288 0.319986 -0.366881
-0.290288 0.133199 0.477208
-0.290288 0.392930 0.223170
-0.290288 -0.464194 -0.153671
-0.290288 0.311977 -0.338010
-0.290288 -0.036386 0.479184
-0.290288 -0.426986 -0.172439
-0.290288 -0.466017 -0.032804
-0.290288 -0.453950 0.017616
-0.290288 -0.249516 0.394829
-0.290288 -0.429671 -0.157096
-0.290288 0.368380 0.295399
-0.290288 0.032011 0.494281
-0.290288 0.419391 -0.258715
-0.290288 -0.433899 -0.209080
-0.290288 0.027885 0.494998
-0.290288 -0.398746 0.259747
-0.290288 0.188440 0.407208
-0.290288 -0.354178 -0.323203
-0.290288 -0.057046 -0.481966
-0.290288 -0.279132 0.407199
-0.290288 -0.485166 -0.044120
-0.290288 -0.356351 0.336686
-0.290288 0.418100 -0.193233
-0.290288 0.447902 0.121542
-0.290288 -0.458976 0.033018
-0.290288 -0.344478 -0.332636
-0.290288 -0.241880 -0.403959
-0.290288 -0.421719 0.143659
-0.290288 -0.314395 -0.324791
-0.290288 -0.127520 0.463548
-0.290288 0.380313 0.299698
-0.290288 0.305544 -0.357770
-0.290288 0.460694 0.121445
-0.290288 0.126252 0.443986
-0.290288 0.383216 -0.277832
-0.290288 0.470519 -0.080223
-0.290288 0.016135 -0.487728
-0.290288 -0.270104 -0.365420
-0.290288 -0.169401 0.465158
-0.290288 0.395282 -0.211827
-0.290288 0.327639 -0.306148
-0.290288 0.465401 0.174150
-0.290288 0.412466 -0.255545
-0.290288 0.111355 0.474777
-0.290288 -0.491907 0.007123
-0.290288 0.376307 0.256281
-0.290288 0.088668 0.443800
-0.290288 0.163839 -0.448085
-0.290288 -0.254178 0.401633
-0.290288 -0.417503 -0.263202
-0.290288 -0.282842 0.367136
-0.290288 0.422807 -0.177587
-0.290288 -0.085112 -0.443181
-0.290288 0.040130 -0.469227
-0.290288 -0.429573 -0.215797
-0.290288 0.356647 0.316033
-0.290288 -0.398588 0.295595
-0.290288 -0.445630 -0.214570
-0.290288 -0.233537 -0.394313
-0.290288 0.426004 0.217001
-0.290288 0.130607 -0.456689
-0.290288 -0.233791 0.434973
-0.290288 -0.241406 -0.376834
-0.290288 -0.209068 0.414385
-0.290288 -0.047306 -0.468227
-0.290288 0.378964 -0.312276
-0.290288 0.372114 -0.320681
-0.290288 -0.222198 0.407749
-0.290288 -0.106222 0.447302
-0.290288 -0.271139 -0.414815
-0.290288 0.057486 0.482964
-0.290288 -0.384176 0.286613
-0.290288 0.258462 0.423578
-0.290288 0.280688 -0.408789
-0.290288 0.095937 -0.451748
-0.290288 0.468163 -0.019374
-0.290288 0.386627 -0.233392
-0.290288 -0.484461 0.039919
-0.290288 -0.326644 0.309558
-0.290288 -0.248769 -0.394699
-0.290288 0.240568 0.386280
-0.290288 -0.131794 -0.458952
-0.290288 0.250429 0.409367
-0.290288 -0.460444 0.005781
-0.290288 0.005119 0.474696
-0.290288 -0.425348 0.252353
-0.290288 0.003253 0.464270
-0.290288 0.234729 0.403293
-0.290288 0.039330 0.443119
-0.290288 0.325247 0.343232
-0.290288 0.063388 0.454492
-0.290288 -0.091414 -0.474067
-0.290288 -0.376286 0.280116
-0.290288 -0.488539 0.041403
-0.290288 0.492209 -0.014949
-0.290288 -0.317893 -0.333676
-0.290288 -0.178324 -0.442527
-0.290288 -0.047596 0.462830
-0.290288 -0.063944 0.443017
-0.290288 0.359943 -0.320909
-0.290288 -0.467806 -0.120078
-0.290288 -0.453225 -0.067839
-0.290288 0.435439 -0.186204
-0.290288 0.425543 -0.155430
-0.290288 0.439088 -0.103803
-0.290288 0.072909 -0.470953
-0.290288 0.437351 0.193084
-0.290288 -0.388584 -0.280424
-0.290288 0.143780 0.431362
-0.290288 -0.455970 -0.123990
-0.290288 0.084186 -0.492897
-0.290288 -0.391619 0.266319
-0.290288 -0.358172 0.279935
-0.290288 -0.059002 0.486457
-0.290288 -0.338325 0.323216
-0.290288 -0.127244 0.458410
-0.290288 -0.366291 0.306516
-0.290288 -0.417643 0.198928
-0.290288 0.174535 -0.430407
-0.290288 -0.429161 -0.175688
-0.290288 -0.354886 -0.271551
-0.290288 0.349241 0.319275
-0.290288 -0.350405 -0.339410
-0.290288 0.465848 -0.177940
-0.290288 -0.490536 0.033666
-0.290288 -0.410165 -0.186074
-0.290288 0.385165 -0.259936
-0.290288 0.322584 -0.315360
-0.290288 0.009411 0.493936
-0.290288 -0.080098 0.468120
-0.290288 -0.470978 -0.062485
-0.290288 -0.325309 -0.355310
-0.290288 -0.171264 0.447150
-0.290288 0.279994 0.354891
-0.290288 0.403348 0.213722
-0.290288 0.043184 -0.478534
-0.290288 -0.444094 -0.030234
-0.290288 -0.102231 0.483121
-0.290288 0.120146 0.428346
-0.290288 -0.476216 -0.138435
-0.290288 -0.178054 0.418898
-0.290288 0.050239 -0.479050
-0.290288 0.496836 0.020247
-0.290288 -0.308584 -0.337014
-0.290288 0.292712 0.369905
-0.290288 -0.169080 -0.452439
-0.290288 0.079651 0.439144
-0.290288 -0.123854 0.458104
-0.290288 -0.261819 -0.373362
-0.290288 -0.190937 -0.442009
-0.290288 -0.423845 0.192549
-0.290288 0.458348 -0.074990
-0.290288 0.497296 -0.037154
-0.290288 -0.079033 0.486335
-0.290288 0.486912 0.079452
-0.290288 -0.405298 -0.234417
-0.290288 0.242189 0.383282
-0.290288 0.113357 0.432369
-0.290288 0.479970 -0.113579
-0.290288 -0.046124 -0.493589
-0.290288 0.486037 -0.047715
-0.290288 -0.163070 -0.461149
-0.290288 -0.417498 0.172985
-0.290288 -0.330469 0.297920
-0.290288 -0.285354 -0.402862
-0.290288 -0.388520 0.239271
-0.290288 -0.462837 0.052658
-0.290288 0.071318 -0.456472
-0.290288 0.001944 0.446854
-0.290288 0.015084 0.494462
-0.290288 -0.415046 -0.193705
-0.290288 -0.250214 0.425663
-0.290288 0.440179 0.113810
-0.290288 0.365103 0.286221
-0.290288 0.459846 -0.105827
-0.290288 -0.069677 0.459611
-0.290288 0.452852 -0.024063
-0.290288 -0.372221 -0.249358
-0.290288 0.213219 -0.401175
-0.290288 0.430249 -0.247864
-0.290288 0.386932 -0.238040
-0.290288 0.175058 -0.427059
-0.290288 0.411983 0.231341
-0.290288 -0.186688 -0.455056
-0.290288 0.485913 -0.085479
-0.290288 0.414601 0.233205
-0.290288 -0.149808 -0.465902
-0.290288 0.421197 0.201221
-0.290288 0.420943 0.185165
-0.290288 -0.470671 0.001418
-0.290288 0.140387 0.469339
-0.290288 0.495462 -0.033842
-0.290288 0.249627 0.402467
-0.290288 0.004654 -0.472433
-0.290288 0.432545 -0.210741
-0.290288 0.256033 0.399669
-0.290288 -0.043882 -0.489546
-0.290288 0.318495 0.341004
-0.290288 -0.261754 0.408437
-0.290288 0.157974 0.442445
-0.290288 -0.133704 0.460006
-0.290288 -0.444249 0.127849
-0.290288 -0.086181 0.479273
-0.290288 -0.431401 -0.177899
-0.290288 0.375051 -0.295951
-0.290288 0.416410 0.179783
-0.290288 0.441676 0.130666
-0.290288 -0.030635 0.442900
-0.290288 0.389078 -0.258584
-0.290288 0.474307 -0.127855
-0.290288 0.437840 -0.182495
-0.290288 -0.480947 0.056638
-0.290288 -0.006536 0.469591
-0.290288 0.458092 0.171579
-0.290288 -0.447299 0.150003
-0.290288 -0.424731 0.163606
-0.290288 -0.239216 0.424475
-0.290288 0.116018 0.481777
-0.290288 -0.249239 -0.422401
-0.290288 -0.204988 -0.436846
-0.290288 0.430210 0.217710
-0.290288 -0.125334 0.443805
-0.290288 0.352711 -0.302852
-0.290288 0.459932 -0.146788
-0.290288 -0.066142 0.485088
-0.290288 0.371853 0.289718
-0.290288 -0.330601 0.320768
-0.290288 -0.415537 -0.189430
-0.290288 0.259806 -0.400428
-0.290288 -0.017760 0.482687
-0.290288 -0.366476 0.319972
-0.290288 -0.339109 0.313146
-0.290288 -0.304762 0.366918
-0.290288 0.075868 -0.466294
-0.290288 0.356170 -0.302820
-0.290288 0.462169 -0.162730
-0.290288 -0.153968 0.426961
-0.290288 0.341567 0.290512
-0.290288 -0.001427 -0.465776
-0.290288 0.439639 0.154338
-0.290288 -0.456978 -0.069486
-0.290288 0.270920 -0.390980
-0.290288 -0.132564 0.430528
-0.290288 0.473378 -0.046862
-0.290288 -0.438126 0.093396
-0.290288 0.484244 -0.050921
-0.290288 -0.028126 0.476804
-0.290288 -0.301560 -0.382123
-0.290288 0.278516 0.373596
-0.290288 -0.452935 0.184634
-0.290288 -0.103386 0.435660
-0.290288 -0.147250 0.440625
-0.290288 -0.325869 0.346872
-0.290288 0.411807 0.265422
-0.290288 -0.000938 0.457966
-0.290288 -0.334227 -0.319712
-0.290288 0.137144 -0.456700
-0.290288 0.396842 -0.217580
-0.290288 0.298302 0.383854
-0.290288 -0.448482 -0.128416
-0.290288 -0.367533 0.264182
-0.290288 0.333526 0.305982
-0.290288 -0.169515 -0.419866
-0.290288 -0.467611 0.138134
-0.290288 -0.306494 -0.356320
-0.290288 0.473974 -0.131503
-0.290288 -0.202860 0.446755
-0.290288 -0.322825 0.333906
-0.290288 0.448431 -0.185932
-0.290288 -0.437399 -0.119944
-0.290288 0.224823 -0.395288
-0.290288 -0.462614 0.092592
-0.290288 -0.453684 -0.086576
-0.290288 -0.070488 -0.472749
-0.290288 -0.458815 0.182260
-0.290288 -0.023730 -0.488250
-0.290288 -0.186066 -0.445080
-0.290288 0.485196 -0.009880
-0.290288 0.415918 -0.180775
-0.290288 -0.398032 -0.287512
-0.290288 0.449680 0.022574
-0.290288 0.383410 -0.310190
-0.290288 0.383901 -0.303559
-0.290288 0.143627 -0.463482
-0.290288 0.177301 0.451126
-0.290288 -0.472761 -0.133075
-0.290288 -0.349989 0.301298
-0.290288 -0.380587 -0.248194
-0.290288 -0.187467 0.438836
-0.290288 -0.422449 0.209376
-0.290288 -0.393042 -0.219534
-0.290288 0.145555 -0.470922
-0.290288 -0.427533 0.122017
-0.290288 -0.459326 -0.112719
-0.290288 0.030383 -0.492552
-0.290288 0.259675 0.392692
-0.290288 0.231138 0.409138
-0.290288 0.098195 -0.465670
-0.290288 0.304132 0.390220
-0.290288 0.153182 0.454408
-0.290288 -0.445889 -0.165780
-0.290288 0.422424 0.243393
-0.290288 0.473892 -0.120857
-0.290288 0.432938 -0.178937
-0.290288 -0.118358 -0.477649
-0.290288 0.469510 -0.095196
-0.290288 -0.314199 0.325753
-0.290288 -0.099180 0.475061
-0.290288 -0.463226 -0.171354
-0.290288 -0.344763 -0.336192
-0.290288 -0.473722 -0.072927
-0.290288 -0.377044 -0.308403
-0.290288 -0.463342 0.131555
-0.290288 -0.075523 -0.479467
-0.290288 0.015044 0.453721
-0.290288 -0.309038 0.330145
-0.290288 -0.462172 -0.182201
-0.290288 -0.319349 -0.378885
-0.290288 -0.089297 0.486025
-0.290288 -0.141668 -0.433514
-0.290288 0.215579 -0.398063
-0.290288 0.203349 -0.445301
-0.290288 0.340421 -0.344646
-0.290288 0.265292 0.365376
-0.290288 -0.457419 -0.197356
-0.290288 0.069576 0.443284
-0.290288 -0.116705 -0.473676
-0.290288 0.457954 -0.195687
-0.290288 -0.319099 -0.330912
-0.290288 -0.220952 0.394082
-0.290288 0.115120 -0.480885
-0.290288 0.245112 0.377563
-0.290288 0.005544 -0.454974
-0.290288 -0.362971 0.332963
-0.290288 0.447114 -0.070965
-0.290288 -0.458267 -0.146931
-0.290288 0.265406 0.413125
-0.290288 -0.094277 -0.465792
-0.290288 -0.449310 0.086827
-0.290288 0.474269 -0.117733
-0.290288 -0.474366 -0.078725
-0.290288 -0.040200 -0.486164
-0.290288 0.007455 0.457595
-0.290288 -0.270457 -0.368609
-0.290288 -0.304892 -0.376210
-0.290288 -0.067862 -0.450357
-0.290288 -0.467538 -0.113143
-0.290288 0.345528 -0.284090
-0.290288 0.079063 0.444770
-0.290288 0.277839 -0.374752
-0.290288 0.148623 0.456647
-0.290288 -0.232955 0.390932
-0.290288 -0.467361 -0.001704
-0.290288 0.255450 0.390180
-0.290288 0.461721 0.037864
-0.290288 0.318105 -0.384922
-0.290288 0.010615 -0.459060
-0.290288 -0.481345 -0.089892
-0.290288 -0.028536 -0.451808
-0.290288 -0.482660 -0.098500
-0.290288 -0.493697 0.020199
-0.290288 0.483067 0.106406
-0.290288 -0.475279 -0.084060
-0.290288 0.442764 -0.208451
-0.290288 -0.277295 -0.389659
-0.290288 0.334767 0.331983
-0.290288 0.061928 0.481941
-0.290288 -0.292328 -0.348428
-0.290288 -0.353373 0.301582
-0.290288 -0.202932 0.404392
-0.290288 0.044556 -0.451504
-0.290288 0.482487 -0.042481
-0.290288 0.319406 -0.319617
-0.290288 0.363987 0.301146
-0.290288 0.473614 -0.153876
-0.290288 -0.406528 0.277139
-0.290288 0.482296 0.081719
-0.290288 0.430321 -0.157350
-0.290288 -0.427501 0.245443
-0.290288 0.368935 0.263361
-0.290288 0.208857 -0.425212
-0.290288 -0.200901 0.419985
-0.290288 -0.273511 0.365139
-0.290288 0.311666 -0.348219
-0.290288 0.323255 0.349598
-0.290288 0.367798 0.292183
-0.290288 0.288122 0.338321
-0.290288 0.092926 -0.449134
-0.290288 0.267571 -0.386791
-0.290288 0.495350 0.047506
-0.290288 -0.397261 -0.258848
-0.290288 0.066238 -0.458733
-0.290288 0.449889 0.045012
-0.290288 -0.460508 -0.002229
-0.290288 0.489338 -0.009061
-0.290288 0.314531 -0.333603
-0.290288 0.168802 -0.451684
-0.290288 0.144838 0.443247
-0.290288 0.424925 0.240506
-0.290288 -0.451330 0.083923
-0.290288 -0.357133 -0.285819
-0.290288 0.271407 0.401102
-0.290288 0.047267 0.453780
-0.290288 0.472787 0.011202
-0.290288 -0.083595 0.445139
-0.290288 0.378435 -0.264461
-0.290288 -0.009521 0.488136
-0.290288 -0.376040 -0.274730
-0.290288 0.261565 -0.389985
-0.290288 -0.437781 0.219137
-0.290288 -0.195221 -0.407255
-0.290288 -0.389125 0.246015
-0.290288 -0.259570 0.376913
-0.290288 0.477228 -0.051394
-0.290288 -0.176947 -0.438070
-0.290288 -0.355604 -0.278153
-0.290288 -0.307146 0.353000
-0.290288 -0.228015 -0.414457
-0.290288 -0.393510 0.213591
-0.290288 0.460776 0.145270
-0.290288 0.120523 0.467672
-0.290288 -0.336790 -0.293048
-0.290288 -0.406518 0.251150
-0.290288 -0.456019 0.091728
-0.290288 0.252104 0.380615
-0.290288 0.474419 -0.003995
-0.290288 0.315951 0.331853
-0.290288 0.041655 0.459347
-0.290288 -0.416075 0.167046
-0.290288 -0.388054 -0.228311
-0.290288 0.378070 -0.251359
-0.290288 -0.143331 0.432794
-0.290288 0.175334 -0.437290
-0.290288 -0.012677 0.459012
-0.290288 -0.343280 -0.355361
-0.290288 -0.054904 -0.468280
-0.290288 -0.412947 0.259651
-0.290288 -0.463953 0.017940
-0.290288 -0.047557 0.491250
-0.290288 0.344590 0.343657
-0.290288 -0.418892 -0.200627
-0.290288 0.463465 -0.166039
-0.290288 -0.461565 -0.079248
-0.290288 -0.119411 0.465671
-0.290288 -0.432955 -0.216112
-0.290288 -0.228124 -0.390994
-0.290288 -0.396743 -0.280396
-0.290288 0.397782 0.209731
-0.290288 -0.321421 -0.360059
-0.290288 0.339931 -0.351768
-0.290288 0.315346 0.347274
-0.290288 0.116015 -0.433924
-0.290288 0.269618 -0.399294
-0.290288 -0.339837 -0.353551
-0.290288 -0.175460 -0.450285
-0.290288 0.066540 0.442876
-0.290288 -0.349913 -0.349876
-0.290288 -0.205728 0.422248
-0.290288 -0.425988 -0.131740
-0.290288 0.456837 -0.087092
-0.290288 -0.013061 -0.492187
-0.290288 -0.319983 0.335981
-0.290288 0.336527 -0.347652
-0.290288 0.172417 -0.424084
-0.290288 0.069365 -0.453188
-0.290288 0.298313 0.394756
-0.290288 -0.341158 0.321031
-0.290288 -0.304474 -0.364728
-0.290288 0.433851 0.213955
-0.290288 -0.109497 0.434130
-0.290288 0.425481 -0.207335
-0.290288 -0.144129 -0.444637
-0.290288 -0.449907 0.100084
-0.290288 -0.040816 -0.491509
-0.290288 0.385396 -0.284831
-0.290288 0.237141 -0.416652
-0.290288 -0.303865 0.334772
-0.290288 0.133737 -0.442919
-0.290288 -0.338536 -0.334480
-0.290288 0.017953 -0.472594
-0.290288 0.428577 -0.222846
-0.290288 0.418118 -0.229929
-0.290288 -0.413538 0.237534
-0.290288 0.001801 0.455646
-0.290288 0.206907 0.433709
-0.290288 -0.165651 0.426614
-0.290288 0.207850 -0.444833
-0.290288 0.075385 0.468262
-0.290288 -0.292417 0.353064
-0.290288 -0.192251 0.437561
-0.290288 -0.247176 -0.379747
-0.290288 -0.425492 0.222467
-0.290288 0.466783 0.140530
-0.290288 -0.285086 0.343873
-0.290288 0.128748 0.424616
-0.290288 0.341950 -0.307894
-0.290288 -0.446951 0.044607
-0.290288 0.118296 -0.451467
-0.290288 -0.250872 -0.426253
-0.290288 0.479637 0.078664
-0.290288 0.488096 0.024072
-0.290288 -0.341348 0.285216
-0.290288 0.389809 0.307055
-0.290288 -0.402776 0.288690
-0.290288 -0.005637 0.462210
-0.290288 0.441691 0.227604
-0.290288 0.268652 -0.421417
-0.290288 0.025884 -0.493297
-0.290288 0.346503 0.280333
-0.290288 -0.327839 -0.309187
-0.290288 -0.236986 0.402138
-0.290288 -0.238454 -0.413932
-0.290288 -0.126252 0.455354
-0.290288 -0.167570 0.411080
-0.290288 -0.134939 -0.447902
-0.290288 -0.297845 0.386635
-0.290288 -0.442564 -0.162925
-0.290288 0.335512 0.300427
-0.290288 -0.211937 -0.399118
-0.290288 -0.366224 -0.269450
-0.290288 -0.453095 -0.128693
-0.290288 0.039004 -0.455253
-0.290288 -0.403444 -0.224160
-0.290288 0.474171 0.114324
-0.290288 -0.284659 -0.366789
-0.290288 0.257633 -0.366838
-0.290288 -0.249474 -0.382223
-0.290288 -0.351139 -0.287367
-0.290288 0.244760 -0.422535
-0.290288 -0.327340 0.319724
-0.290288 0.053105 0.492254
-0.290288 0.486019 -0.041578
-0.290288 -0.477076 -0.019432
-0.290288 0.175356 -0.411835
-0.290288 -0.439944 0.086049
-0.290288 0.089107 0.461071
-0.290288 0.207221 -0.451130
-0.290288 -0.479485 0.035260
-0.290288 -0.408263 0.202469
-0.290288 0.068921 0.461820
-0.290288 -0.459036 -0.193789
-0.290288 -0.136080 0.448277
-0.290288 0.464155 0.161224
-0.290288 0.379118 0.285157
-0.290288 -0.436023 0.203626
-0.290288 -0.262267 0.392800
-0.290288 -0.064860 0.446015
-0.290288 0.450681 0.062930
-0.290288 -0.448550 -0.106206
-0.290288 -0.353643 -0.283080
-0.290288 -0.318751 -0.384441
-0.290288 -0.497187 0.008841
-0.290288 -0.374151 -0.263252
-0.290288 0.460159 0.078572
-0.290288 0.401639 0.192711
-0.290288 0.322040 0.335034
-0.290288 -0.173724 -0.436293
-0.290288 -0.313062 -0.320773
-0.290288 -0.415377 -0.272539
-0.290288 -0.305290 0.349192
-0.290288 0.240704 -0.413831
-0.290288 -0.463175 0.078200
-0.290288 0.491445 -0.053609
-0.290288 0.292393 0.348075
-0.290288 -0.275981 0.359292
-0.290288 0.387724 0.258561
-0.290288 0.188335 0.454430
-0.290288 -0.333682 -0.322832
-0.290288 0.295300 0.345276
-0.290288 0.410855 0.178238
-0.290288 0.486759 -0.063348
-0.290288 -0.323851 -0.342204
-0.290288 -0.142683 0.473159
-0.290288 0.433400 0.120894
-0.290288 0.451921 -0.027994
-0.290288 0.426387 0.131839
-0.290288 -0.188580 0.445561
-0.290288 0.470141 -0.035471
-0.290288 0.436758 0.123833
-0.290288 -0.484530 -0.000351
-0.290288 0.370277 -0.258227
-0.290288 0.223976 -0.408266
-0.290288 0.312412 0.332196
-0.290288 -0.367531 0.330791
-0.290288 -0.400692 0.269823
-0.290288 -0.384799 -0.225932
-0.290288 0.494275 -0.006443
-0.290288 -0.243404 0.407251
-0.290288 -0.470339 -0.149105
-0.290288 -0.057407 -0.485918
-0.290288 -0.435725 -0.134731
-0.290288 0.190975 0.424916
-0.290288 -0.443421 0.073865
-0.290288 -0.235550 0.430640
-0.290288 -0.484905 0.084758
-0.290288 -0.459614 0.096783
-0.290288 -0.013485 -0.449401
-0.290288 -0.189968 -0.424080
-0.290288 0.287905 -0.362342
-0.290288 0.057617 0.459953
-0.290288 0.232064 0.430112
-0.290288 0.465766 0.068161
-0.290288 0.449298 -0.178598
-0.290288 -0.415946 -0.223321
-0.290288 0.136930 -0.452734
-0.290288 -0.253994 0.384932
-0.290288 0.356953 0.278220
-0.290288 0.191449 0.434184
-0.290288 0.419153 -0.179696
-0.290288 0.438402 -0.140104
-0.290288 0.134520 -0.465606
-0.290288 0.165111 -0.417577
-0.290288 -0.209515 -0.431918
-0.290288 -0.473525 0.080221
-0.290288 -0.447242 -0.171025
-0.290288 -0.317576 -0.313955
-0.290288 0.461679 -0.039889
-0.290288 0.397833 -0.213976
-0.290288 0.123618 -0.453929
-0.290288 -0.122484 -0.457011
-0.290288 -0.278072 0.392563
-0.290288 0.007025 -0.450123
-0.290288 0.196733 -0.435216
-0.290288 -0.467043 0.168651
-0.290288 -0.335128 0.312858
-0.290288 -0.008216 0.484838
-0.290288 -0.469070 -0.166785
-0.290288 0.286900 -0.346404
-0.290288 0.492742 0.022620
-0.290288 -0.430432 -0.231728
-0.290288 -0.435750 0.236777
-0.290288 0.451433 -0.053028
-0.290288 0.023413 0.486817
-0.290288 0.370634 -0.262902
-0.290288 -0.345865 -0.311171
-0.290288 0.353098 0.270986
-0.290288 0.280903 0.397674
-0.290288 0.104111 -0.453658
-0.290288 0.218838 0.413413
-0.290288 0.193351 -0.434917
-0.290288 0.424119 0.224887
-0.290288 -0.351870 -0.347071
-0.290288 -0.338043 0.299887
-0.290288 -0.234270 -0.401146
-0.290288 0.016313 0.457748
-0.290288 0.459425 -0.031078
-0.290288 -0.427462 0.161776
-0.290288 -0.443495 -0.040019
-0.290288 -0.441597 0.131288
-0.290288 0.449671 -0.035804
-0.290288 0.491159 -0.066327
-0.290288 -0.061953 0.474303
-0.290288 0.325949 -0.316124
-0.290288 0.130010 0.444527
-0.290288 0.485870 0.027880
-0.290288 0.216202 -0.412390
-0.290288 -0.040867 0.459288
-0.290288 -0.491190 -0.001263
-0.290288 -0.246983 0.378125
-0.290288 0.153678 0.420592
-0.290288 -0.003255 0.452056
-0.290288 0.379236 0.311296
-0.290288 -0.097458 -0.482415
-0.290288 0.374318 0.325663
-0.290288 -0.321973 -0.313338
-0.290288 0.491621 -0.082672
-0.290288 -0.139787 0.445532
-0.290288 -0.328608 -0.370566
-0.290288 -0.443256 -0.045048
-0.290288 0.326982 -0.354824
-0.290288 0.452505 -0.131929
-0.290288 0.289945 -0.406529
-0.290288 0.161507 -0.425827
-0.290288 0.211892 -0.431975
-0.290288 0.456528 0.027687
-0.290288 -0.150984 0.463636
-0.290288 0.425904 0.152372
-0.290288 -0.445291 0.189362
-0.290288 0.383234 0.240005
-0.290288 0.274696 -0.368838
-0.290288 0.332456 -0.352309
-0.290288 -0.155599 -0.434266
-0.290288 0.249080 -0.433243
-0.290288 -0.357890 0.340181
-0.290288 -0.430735 -0.119390
-0.290288 0.330169 0.306318
-0.290288 -0.290450 -0.375541
-0.290288 0.368248 -0.268910
-0.290288 -0.380662 0.242989
-0.290288 -0.396094 -0.220884
-0.290288 -0.281589 -0.402652
-0.290288 -0.360498 -0.329404
-0.290288 -0.257523 0.374373
-0.290288 0.190940 0.414225
-0.290288 0.183429 -0.417854
-0.290288 -0.341557 0.311015
-0.290288 -0.422692 -0.149223
-0.290288 0.167080 -0.456990
-0.290288 -0.268930 0.383457
-0.290288 0.265235 -0.363356
-0.290288 0.443091 -0.126101
-0.290288 0.420440 -0.153288
-0.290288 0.006326 0.454181
-0.290288 -0.449866 -0.164224
-0.290288 -0.194307 0.429054
-0.290288 0.078996 0.474297
-0.290288 -0.258614 -0.366062
-0.290288 -0.250099 0.386068
-0.290288 0.047587 0.444590
-0.290288 0.258719 0.381421
-0.290288 0.480361 -0.015960
-0.290288 0.420625 0.250657
-0.290288 0.467866 0.085680
-0.290288 -0.468287 0.063302
-0.290288 0.205823 -0.397847
-0.290288 -0.378881 0.273242
-0.290288 0.131009 0.468097
-0.290288 -0.381956 0.277653
-0.290288 -0.062321 0.470741
-0.290288 -0.236277 -0.392623
-0.290288 -0.407116 0.211160
-0.290288 0.377070 -0.324362
-0.290288 -0.340736 -0.301609
-0.290288 -0.102861 -0.470509
-0.290288 -0.074130 0.482210
-0.290288 0.452107 -0.113346
-0.290288 0.461331 0.005144
-0.290288 -0.226909 0.401535
-0.290288 0.087379 0.438387
-0.290288 0.087983 -0.440666
-0.290288 -0.482234 0.099163
-0.290288 -0.436923 -0.176468
-0.290288 0.011527 -0.482588
-0.290288 -0.473616 -0.099048
-0.290288 -0.157257 -0.464876
-0.290288 0.112297 0.454328
-0.290288 0.337550 -0.334285
-0.290288 0.194675 -0.438049
-0.290288 0.124585 -0.481120
-0.290288 -0.296345 0.375730
-0.290288 -0.165385 -0.471260
-0.290288 0.404522 0.247369
-0.290288 -0.321775 -0.365084
-0.290288 -0.134830 0.437141
-0.290288 -0.460340 -0.031947
-0.290288 0.265182 0.371376
-0.290288 0.444049 0.087731
-0.290288 -0.423508 -0.143203
-0.290288 -0.377270 -0.300721
-0.290288 0.490716 -0.087199
-0.290288 -0.010048 -0.469121
-0.290288 0.046625 -0.462868
-0.290288 0.104637 -0.436009
-0.290288 -0.436620 0.152173
-0.290288 0.079508 -0.463908
-0.290288 -0.429033 0.236424
-0.290288 0.473849 0.151089
-0.290288 0.364610 -0.273319
-0.290288 0.135975 0.424695
-0.290288 0.409321 0.185891
-0.290288 0.473164 0.031843
-0.290288 0.445977 0.050086
-0.290288 -0.111348 0.440310
-0.290288 0.181227 -0.457859
-0.290288 0.073601 -0.489051
-0.290288 0.477202 -0.009038
-0.290288 -0.049897 0.459388
-0.290288 0.096904 0.477877
-0.290288 -0.449712 -0.121767
-0.290288 -0.265714 0.372849
-0.290288 0.116049 0.446556
-0.290288 0.060947 -0.493081
-0.290288 -0.412691 0.186425
-0.290288 -0.367900 -0.320272
-0.290288 0.019949 -0.456184
-0.290288 -0.451108 0.021762
-0.290288 -0.448164 0.114361
-0.290288 -0.433184 -0.161589
-0.290288 -0.444815 0.104962
-0.290288 0.142369 -0.449355
-0.290288 0.449130 0.153731
-0.290288 0.051631 0.440469
-0.290288 -0.463439 0.044351
-0.290288 0.445331 -0.045696
-0.290288 0.406822 0.274911
-0.290288 0.445150 -0.204490
-0.290288 0.282437 0.403056
-0.290288 -0.102050 -0.443673
-0.290288 -0.412478 -0.196107
-0.290288 -0.468699 -0.099649
-0.290288 -0.221432 -0.401414
-0.290288 0.360484 0.294733
-0.290288 -0.419052 0.168932
-0.290288 0.200939 -0.449163
-0.290288 0.317731 -0.380538
-0.290288 -0.125191 0.461099
-0.290288 0.254915 -0.429813
-0.290288 0.178268 -0.446610
-0.290288 -0.351958 0.294381
-0.290288 -0.492046 0.039850
-0.290288 0.402010 -0.280935
-0.290288 -0.487962 0.073116
-0.290288 0.390520 -0.304819
-0.290288 -0.378911 0.231108
-0.290288 0.290995 0.335699
-0.290288 -0.454615 0.199557
-0.290288 -0.285377 0.403846
-0.290288 -0.413720 -0.214970
-0.290288 -0.267688 0.416367
-0.290288 0.450438 -0.189911
-0.290288 0.242533 0.400186
-0.290288 0.412891 -0.176662
-0.290288 -0.128950 -0.450066
-0.290288 -0.399343 0.281861
-0.290288 0.315729 0.335088
-0.290288 0.304399 0.339659
-0.290288 0.476508 -0.034590
-0.290288 0.138949 0.454148
-0.290288 -0.146970 -0.434530
-0.290288 0.484880 0.095236
-0.290288 0.292894 -0.349311
-0.290288 -0.416050 -0.266180
-0.290288 0.152804 -0.465290
-0.290288 0.155740 -0.420762
-0.290288 0.434514 0.180749
-0.290288 -0.471278 -0.020932
-0.290288 -0.228692 0.422158
-0.290288 -0.449343 -0.115498
-0.290288 0.391704 -0.300878
-0.290288 -0.265278 -0.379394
-0.290288 -0.439231 0.149155
-0.290288 -0.227437 0.385775
-0.290288 0.027998 -0.495879
-0.290288 0.445876 -0.018345
-0.290288 -0.404412 0.254788
-0.290288 -0.387519 -0.264667
-0.290288 0.346426 -0.326951
-0.290288 0.495616 0.025363
-0.290288 -0.207054 0.403869
-0.290288 -0.436918 0.145273
-0.290288 0.308730 -0.350156
-0.290288 -0.380961 -0.302808
-0.290288 0.059313 -0.462317
-0.290288 -0.447593 -0.028879
-0.290288 -0.301719 -0.355157
-0.290288 -0.211625 -0.414672
-0.290288 -0.398866 -0.299036
-0.290288 0.439744 -0.211512
-0.290288 -0.373031 0.295621
-0.290288 -0.172829 0.431305
-0.290288 -0.371360 0.263910
-0.290288 -0.461326 0.109861
-0.290288 -0.110799 -0.481416
-0.290288 -0.409350 0.236273
-0.290288 -0.463359 -0.025473
-0.290288 -0.488639 -0.056358
-0.290288 -0.466170 -0.044730
-0.290288 0.400343 0.218473
-0.290288 -0.417997 -0.195220
-0.290288 -0.161093 0.440102
-0.290288 -0.385187 -0.232082
-0.290288 0.302552 0.371515
-0.290288 0.156245 -0.453287
-0.290288 -0.396353 0.267010
-0.290288 0.368097 0.325735
-0.290288 -0.060563 0.453420
-0.290288 -0.282618 -0.389566
-0.290288 -0.013095 -0.459220
-0.290288 -0.439349 0.068952
-0.290288 0.173252 -0.439513
-0.290288 -0.354088 -0.311123
-0.290288 0.056058 -0.449177
-0.290288 0.217576 -0.405697
-0.290288 -0.445889 0.008588
-0.290288 -0.306920 0.341583
-0.290288 -0.057267 0.477326
-0.290288 0.276072 0.395681
-0.290288 0.162513 0.448868
-0.290288 -0.425249 0.238708
-0.290288 -0.414455 0.161845
-0.290288 0.163677 0.439360
-0.290288 -0.324908 0.325361
-0.290288 0.005476 -0.483689
-0.290288 -0.241157 0.384264
-0.290288 -0.423063 -0.152919
-0.290288 0.441324 0.137803
-0.290288 0.388951 -0.284503
-0.290288 0.437474 -0.199979
-0.290288 -0.434965 -0.238693
-0.290288 -0.348578 -0.313495
-0.290288 -0.443431 0.044047
-0.290288 0.020991 -0.466733
-0.290288 -0.246774 -0.431401
-0.290288 -0.052307 -0.473456
-0.290288 0.490133 -0.024743
-0.290288 0.265214 0.402626
-0.290288 0.147852 -0.458484
-0.290288 -0.420444 -0.162971
-0.290288 -0.453629 0.164091
-0.290288 -0.445115 0.218481
-0.290288 0.210199 0.442203
-0.290288 -0.249773 0.419727
-0.290288 0.476994 0.087561
-0.290288 0.328771 0.328891
-0.290288 0.470001 0.094301
-0.290288 -0.394192 0.216930
-0.290288 0.231299 0.405186
-0.290288 0.447076 0.182079
-0.290288 -0.355738 0.317624
-0.290288 -0.109152 0.449655
-0.290288 0.289135 0.363363
-0.290288 0.410411 -0.194048
-0.290288 0.365121 -0.259262
-0.290288 0.301887 0.393682
-0.290288 0.324992 -0.369462
-0.290288 0.194767 0.453303
-0.290288 -0.195335 -0.450458
-0.290288 -0.117769 0.441777
-0.290288 0.399766 0.281540
-0.290288 0.457803 -0.038738
-0.290288 0.346531 -0.291299
-0.290288 -0.077603 -0.492648
-0.290288 -0.421203 -0.256023
-0.290288 -0.473537 0.032233
-0.290288 0.456316 -0.061124
-0.290288 0.176073 -0.433483
-0.290288 -0.386523 0.277008
-0.290288 -0.451267 -0.078598
-0.290288 -0.428612 -0.146796
-0.290288 -0.254111 0.414447
-0.290288 0.428628 0.145395
-0.290288 0.036178 -0.449122
-0.290288 -0.105011 0.443603
-0.290288 0.221590 -0.432447
-0.290288 0.467882 0.113083
-0.290288 0.405574 -0.226048
-0.290288 -0.131664 -0.447983
-0.290288 0.158857 0.437536
-0.290288 -0.286647 0.356763
-0.290288 -0.463677 0.056272
-0.290288 -0.447904 -0.217561
-0.290288 0.458636 0.103907
-0.290288 -0.382413 -0.266149
-0.290288 0.450574 -0.075986
-0.290288 -0.478777 0.108964
-0.290288 0.134688 0.468815
-0.290288 0.055757 -0.467501
-0.290288 -0.367997 -0.277631
-0.290288 -0.137533 -0.479897
-0.290288 -0.447333 0.097366
-0.290288 -0.482342 0.073439
-0.290288 -0.197606 0.409232
-0.290288 0.194787 -0.448240
-0.290288 -0.442478 -0.112167
-0.290288 0.383460 -0.236434
-0.290288 0.320770 0.322722
-0.290288 0.047377 0.467031
-0.290288 0.384897 0.284295
-0.290288 0.014648 -0.463867
-0.290288 -0.177538 -0.454965
-0.290288 -0.465387 0.024092
-0.290288 -0.465447 -0.036042
-0.290288 -0.296729 0.392291
-0.290288 0.231068 -0.386417
-0.290288 -0.457064 0.074195
-0.290288 0.373273 0.266267
-0.290288 0.398705 0.289233
-0.290288 0.384320 0.251852
-0.290288 0.424778 -0.186352
-0.290288 -0.454968 -0.169297
-0.290288 -0.160488 0.413704
-0.290288 0.325817 -0.322759
-0.290288 0.092660 0.460028
-0.290288 0.306348 -0.367187
-0.290288 0.449994 -0.100567
-0.290288 0.381725 -0.265389
-0.290288 0.020820 0.483300
-0.290288 -0.092231 -0.462500
-0.290288 0.430000 -0.127104
-0.290288 0.297418 -0.350265
-0.290288 0.241131 0.427359
-0.290288 0.350081 -0.351709
-0.290288 0.361651 -0.304621
-0.290288 0.365807 -0.295179
-0.290288 -0.444060 0.027242
-0.290288 0.310033 -0.360354
-0.290288 0.187923 0.445190
-0.290288 -0.114374 0.449872
-0.290288 0.464245 0.108425
-0.290288 0.454935 0.010288
-0.290288 0.285286 0.351193
-0.290288 -0.079173 -0.480862
-0.290288 -0.239984 -0.430118
-0.290288 0.264357 -0.369433
-0.290288 0.264865 -0.377045
-0.290288 -0.382852 -0.240506
-0.290288 0.477956 -0.024251
-0.290288 -0.451331 0.205572
-0.290288 -0.464774 -0.128236
-0.290288 -0.338758 -0.297196
-0.290288 0.458621 0.037943
-0.290288 0.473469 0.110374
-0.290288 0.007609 0.469919
-0.290288 0.187163 0.423667
-0.290288 -0.334115 -0.336419
-0.290288 0.286849 -0.396771
-0.290288 -0.277836 -0.415114
-0.290288 -0.311026 0.327621
-0.290288 0.086274 -0.460782
-0.290288 -0.227280 0.440235
-0.290288 -0.453404 -0.002156
-0.290288 -0.462622 0.124254
-0.290288 -0.437671 0.173940
-0.290288 -0.289242 0.388659
-0.290288 0.243776 -0.429299
-0.290288 0.276836 0.361237
-0.290288 -0.322838 0.370328
-0.290288 -0.240276 -0.433706
-0.290288 0.414664 -0.217995
-0.290288 -0.465693 0.084243
-0.290288 0.353958 0.342401
-0.290288 0.140080 -0.443801
-0.290288 -0.340655 0.325210
-0.290288 -0.464113 -0.049513
-0.290288 -0.489706 0.037732
-0.290288 -0.268176 -0.375203
-0.290288 0.398683 -0.281513
-0.290288 0.276762 -0.377874
-0.290288 -0.046516 -0.457000
-0.290288 0.295918 0.352802
-0.290288 -0.317229 0.353869
-0.290288 0.330736 0.309463
-0.290288 0.467079 0.009209
-0.290288 -0.144861 0.465870
-0.290288 0.473734 0.043004
-0.290288 -0.427439 -0.183351
-0.290288 0.254605 -0.377671
-0.290288 0.191611 0.400596
-0.290288 0.433125 -0.108941
-0.290288 -0.218396 -0.438639
-0.290288 -0.233964 0.384408
-0.290288 0.136363 -0.436862
-0.290288 -0.027419 -0.495700
-0.290288 -0.492238 -0.038921
-0.290288 -0.448641 0.076465
-0.290288 -0.377064 0.243373
-0.290288 0.305033 -0.353500
-0.290288 -0.412690 0.171578
-0.290288 0.252411 -0.412823
-0.290288 0.327093 -0.361000
-0.290288 0.452230 -0.165564
-0.290288 -0.422734 0.220547
-0.290288 0.085587 -0.485628
-0.290288 0.370827 0.273351
-0.290288 -0.248461 -0.388382
-0.290288 -0.490257 0.058357
-0.290288 0.411512 0.246696
-0.290288 -0.471655 0.005394
-0.290288 0.153848 -0.448219
-0.290288 0.257344 0.374974
-0.290288 0.065806 -0.452370
-0.290288 -0.274622 0.372728
-0.290288 0.397442 0.297453
-0.290288 -0.466201 0.090069
-0.290288 0.182102 0.423768
-0.290288 -0.241988 0.391424
-0.290288 -0.048182 -0.475453
-0.290288 0.353154 -0.322622
-0.290288 -0.455663 -0.155126
-0.290288 0.111931 -0.437706
-0.290288 -0.483194 0.033143
-0.290288 0.478242 -0.141351
-0.290288 0.447498 -0.004316
-0.290288 -0.434434 -0.146840
-0.290288 0.215718 0.422684
-0.290288 0.342468 0.321525
-0.290288 0.429899 0.129681
-0.290288 0.197704 -0.425774
-0.290288 -0.261562 0.418057
-0.290288 0.178537 -0.426257
-0.290288 0.146696 0.449477
-0.290288 -0.442288 -0.156191
-0.290288 0.024583 0.458061
-0.290288 -0.251844 -0.378159
-0.290288 -0.470374 0.097249
-0.290288 0.477017 0.058772
-0.290288 -0.456064 -0.083492
-0.290288 -0.119097 0.452003
-0.290288 0.496695 0.002954
-0.290288 -0.010942 0.449238
-0.290288 0.373073 -0.259926
-0.290288 0.287254 0.374791
-0.290288 0.113528 -0.462109
-0.290288 0.246734 0.425510
-0.290288 0.355968 0.345130
-0.290288 -0.289401 -0.362387
-0.290288 0.354574 0.288881
-0.290288 -0.364338 0.329682
-0.290288 0.274225 -0.359204
-0.290288 -0.462738 -0.118547
-0.290288 0.461747 0.105088
-0.290288 -0.442742 -0.159671
-0.290288 0.391757 0.246191
-0.290288 -0.333755 0.361616
-0.290288 -0.443563 0.078025
-0.290288 -0.375777 0.291354
-0.290288 0.431431 -0.134101
-0.290288 0.378755 0.320875
-0.290288 -0.374814 0.246199
-0.290288 0.206035 0.413865
-0.290288 0.428722 -0.219006
-0.290288 -0.221215 -0.393163
-0.290288 -0.351492 0.287532
-0.290288 0.180571 0.450823
-0.290288 -0.065748 0.470227
-0.290288 -0.354824 0.276213
-0.290288 0.475243 0.135886
-0.290288 0.337248 -0.308242
-0.290288 -0.468135 0.015534
-0.290288 0.455276 0.002313
-0.290288 0.413905 0.244867
-0.290288 0.453173 -0.127816
-0.290288 0.107845 0.447134
-0.290288 -0.163985 0.443226
-0.290288 0.296229 -0.378011
-0.290288 0.452860 -0.110086
-0.290288 0.111156 0.461528
-0.290288 -0.050688 0.474229
-0.290288 0.197698 -0.443016
-0.290288 0.494220 0.028221
-0.290288 0.135231 0.433045
