-0.288907 -0.443163 -0.039461
-0.019150 0.378512 -0.237629
-0.067113 0.437738 -0.087071
0.058507 0.241557 -0.376660
-0.132287 0.228537 -0.384569
0.213840 -0.136497 -0.425996
-0.236181 0.390939 -0.216593
-0.222490 -0.129310 0.423730
0.097443 -0.102216 -0.435416
-0.190966 -0.438155 0.074202
0.177360 0.111992 0.429059
0.109888 -0.362222 -0.260510
0.007810 0.064119 -0.442867
0.241789 -0.331573 -0.298730
-0.168423 0.443938 0.037746
-0.042045 -0.231526 -0.382195
0.125437 -0.225216 -0.385927
-0.132130 0.391320 0.211490
0.190760 -0.302179 -0.328851
-0.098596 -0.441747 0.050092
0.003592 -0.109305 -0.433832
0.025991 0.432915 -0.108648
-0.194294 0.429595 0.116714
-0.074336 -0.444150 0.022409
0.155291 0.439325 -0.077639
-0.199575 -0.211612 -0.393771
0.169917 -0.102253 0.431055
0.170202 0.390005 -0.218196
-0.051821 -0.424718 -0.134328
0.221227 -0.329357 -0.301243
-0.111303 -0.277330 0.345760
-0.263560 -0.101547 0.431212
0.053320 0.445541 0.010742
-0.241493 -0.057867 -0.443695
-0.112155 -0.416143 -0.159207
0.261367 -0.039892 0.441204
0.199015 0.298106 0.328992
0.190589 0.280950 0.343747
-0.027022 -0.339582 0.285292
0.050471 -0.082222 0.435484
0.245307 -0.382121 -0.229794
-0.188042 -0.288303 0.336731
-0.258644 -0.228659 -0.383891
-0.260126 -0.419057 -0.151114
0.241555 -0.422571 0.136998
-0.191187 0.243275 0.371140
0.069911 -0.442234 -0.049288
-0.115080 -0.108029 -0.434117
0.202523 -0.174457 0.407221
-0.217009 0.442351 -0.058537
-0.207737 0.379820 0.231065
0.187483 -0.441810 -0.053771
0.102272 -0.429501 0.113511
-0.257335 -0.444671 0.005837
0.235166 -0.401076 -0.194687
-0.160075 -0.441865 0.048839
-0.095553 0.398795 0.196821
0.240967 -0.415581 0.156415
0.045115 0.443608 0.041246
0.006777 -0.235101 -0.380081
-0.217520 -0.387668 -0.220414
0.253580 0.232228 -0.382386
-0.063544 -0.313654 -0.317639
0.091328 0.080716 0.435885
0.271901 -0.254068 0.363108
-0.131807 0.289283 0.336770
-0.158475 0.421332 0.143286
0.116752 0.345748 0.279148
-0.231885 -0.429249 0.114380
-0.279720 0.363492 -0.260149
-0.212154 0.309017 -0.323301
-0.118392 -0.093053 0.433111
-0.282166 -0.114970 -0.432250
-0.217922 0.154389 -0.419968
0.170825 -0.086209 -0.438994
-0.268637 -0.332345 -0.297854
0.058565 -0.162230 -0.416776
0.280415 -0.076856 0.436334
-0.117798 -0.439432 -0.070495
0.284119 0.400255 0.193954
-0.210013 -0.031504 0.441997
0.254844 -0.438922 0.069364
-0.274000 0.082993 0.435524
-0.108479 -0.008024 0.442990
-0.035722 -0.155395 0.414883
-0.196147 -0.402043 0.188435
-0.188118 -0.289566 -0.339971
-0.104588 0.430238 0.114502
-0.007674 -0.410603 -0.173176
0.074653 0.072869 0.437128
-0.145116 0.059939 0.439176
-0.052985 -0.387824 -0.220151
-0.199669 -0.031541 0.441993
-0.113276 0.395685 -0.207278
0.253404 -0.395229 0.201808
-0.258694 -0.434368 -0.097563
0.279346 0.402342 -0.194212
-0.095185 -0.259360 -0.363865
0.046728 -0.253750 0.363324
-0.010984 0.320454 0.307511
0.054533 0.376108 0.237232
-0.132664 0.364539 -0.258608
-0.046689 -0.092676 0.433195
0.255488 0.089431 0.434150
-0.239291 -0.344006 0.280072
-0.116323 0.030527 0.442186
-0.060316 0.251427 -0.369953
-0.116635 -0.442756 0.039413
-0.209231 -0.426955 0.122274
0.004260 -0.272170 -0.354116
-0.086832 0.440987 -0.067149
0.218371 0.384500 -0.227504
0.102223 0.075082 0.436778
0.250552 0.183464 -0.408120
0.246873 -0.444091 0.024299
-0.076292 -0.346222 -0.281568
-0.172259 -0.328304 0.298085
-0.112056 0.441597 -0.063297
0.164387 -0.268946 -0.356617
0.038151 0.066313 -0.442520
0.258239 -0.216085 0.386974
-0.227235 -0.140054 0.420406
-0.287802 -0.210981 0.389739
0.082384 -0.132074 -0.427281
0.251759 0.158018 -0.418661
0.084065 -0.314314 -0.316980
0.119664 -0.426104 0.125206
0.004057 0.153779 0.415834
0.275273 0.266795 0.354726
-0.066542 -0.174401 -0.411598
0.084193 -0.028320 -0.446651
-0.037938 -0.398002 -0.200719
-0.222761 0.439539 0.071935
-0.171107 -0.341381 0.283252
-0.083230 -0.137864 -0.425548
0.153000 0.319703 0.308262
0.196753 0.439245 0.073793
0.084331 0.370150 -0.250352
-0.132480 0.421197 -0.148015
0.242924 -0.040288 -0.445520
-0.074382 -0.076362 0.436412
-0.092456 -0.145129 -0.422933
-0.042993 0.022754 -0.446913
-0.163801 0.312597 -0.319722
-0.248847 0.372885 -0.246327
-0.239537 -0.328328 -0.302411
-0.274166 -0.384391 -0.225956
0.078278 -0.004678 -0.447449
0.084303 0.430735 -0.117145
-0.206403 -0.142135 0.419657
0.281820 -0.444859 -0.000158
0.022966 0.211857 -0.394168
0.200843 -0.203486 -0.397911
0.067544 0.316334 -0.315985
-0.289333 0.358697 -0.266807
0.096421 0.310662 -0.321656
0.138226 -0.325400 0.301379
-0.267944 0.193083 0.399380
-0.120011 0.286073 0.339600
0.218248 0.102701 -0.435537
0.255730 0.103507 -0.435357
-0.117329 -0.299780 0.326612
-0.112139 -0.442471 -0.046781
0.155769 -0.274447 -0.352349
0.131836 0.269478 -0.356999
0.146365 -0.261125 0.358312
0.226109 0.118513 0.427165
-0.187768 -0.391750 0.208635
-0.121049 0.378591 0.233142
-0.042729 -0.443279 -0.038231
0.140199 -0.339803 -0.289395
-0.283848 -0.010791 -0.447257
0.261135 -0.347592 -0.279803
0.257034 -0.341222 -0.287786
-0.289535 -0.441977 0.047652
-0.050427 0.185568 0.402856
0.137430 -0.229977 -0.383111
-0.207499 -0.439853 0.063482
0.073692 0.051768 0.440178
0.026453 0.353123 -0.273993
-0.280161 -0.029752 -0.446516
0.049183 -0.419972 0.144219
-0.130160 -0.068309 -0.442041
-0.164314 0.318619 0.309346
-0.290176 0.351997 0.271092
-0.205181 -0.210867 0.389797
-0.016296 0.442073 -0.060293
-0.107073 -0.170621 0.408881
-0.098933 -0.378942 0.230816
0.135487 0.331396 0.295739
-0.170577 0.206914 -0.396687
0.026435 0.284889 0.340644
0.257870 0.194810 0.398501
-0.168497 0.430001 0.115319
0.209705 -0.057951 -0.443682
0.074814 -0.260961 0.358423
0.161717 -0.399046 -0.198669
-0.282930 0.032200 0.442028
-0.140122 0.445214 -0.025509
-0.067501 0.063848 0.438557
-0.075803 0.396727 0.200879
0.048755 0.043677 0.440943
-0.207252 0.039565 -0.445685
0.049248 0.024234 -0.446866
-0.114970 -0.129913 0.423555
-0.211857 0.300488 -0.331245
-0.133538 -0.438086 -0.078991
-0.049186 -0.166429 -0.415048
0.121934 -0.442186 0.045446
0.255639 0.423117 0.138330
-0.165162 0.209766 0.390880
-0.196068 -0.084809 0.434954
-0.255010 0.033981 0.441859
-0.045752 -0.214855 0.387701
0.168177 0.048405 -0.444849
0.218518 0.356013 -0.270267
0.073101 -0.314416 -0.316878
0.286578 -0.063185 0.438500
-0.071003 -0.011413 -0.447237
0.245799 -0.097849 0.432039
0.101981 -0.333002 0.292756
-0.240393 -0.369906 -0.249203
0.172858 0.101850 -0.435727
0.007682 0.445611 0.008520
-0.178078 -0.433801 0.095750
0.038857 -0.444665 0.006019
0.140960 -0.332321 0.293528
-0.250045 0.061884 -0.443221
0.258066 -0.197270 -0.401078
0.252380 -0.444603 -0.012364
-0.116273 0.402907 0.188751
0.060922 -0.058180 0.439292
0.137785 -0.321257 -0.310036
0.247824 -0.368623 -0.251091
-0.150547 0.188656 0.401520
0.096379 0.435520 0.092644
0.197777 -0.220738 -0.388575
0.220489 -0.237151 -0.378869
-0.051095 0.414665 -0.166159
0.246786 0.278324 0.345783
-0.235901 0.404938 0.184281
0.013265 0.107251 -0.434520
-0.259188 0.096912 -0.436831
0.163454 0.345502 -0.283818
0.085317 0.439908 0.069608
-0.183693 0.442448 0.053516
-0.125266 0.134798 0.422434
0.071168 0.434785 0.095929
0.275829 0.052152 0.440142
0.105405 -0.420314 -0.147621
0.108078 0.445357 0.016617
0.152689 -0.265708 -0.359128
0.200961 0.272585 0.350235
-0.176260 0.243882 0.370727
0.242486 -0.376943 0.234196
0.020101 -0.413994 0.160823
-0.084283 0.161516 0.413048
0.170052 -0.443847 0.027874
-0.261835 0.431140 0.111399
0.027633 0.137454 0.421662
0.258535 0.427751 0.123062
-0.099576 0.396502 -0.205674
-0.134966 -0.090935 -0.437938
0.081659 0.352484 0.270464
-0.254403 0.189340 0.401224
-0.239929 0.231860 0.378251
0.195910 -0.404532 -0.187205
-0.260264 0.326500 0.301293
0.150287 0.207731 -0.396270
0.005220 -0.339724 0.285131
-0.107529 -0.088610 0.434104
-0.209143 -0.018761 0.442653
-0.145226 -0.233341 -0.381122
0.051874 -0.021104 0.442579
0.014108 0.094859 -0.437290
0.240236 0.070414 -0.441870
0.181825 0.125391 -0.429520
0.089391 -0.434253 0.093727
0.077177 -0.179900 0.404866
0.134812 -0.333623 -0.296405
0.038448 0.349208 0.274687
0.260254 0.329033 0.298421
0.011901 -0.019818 0.442619
0.012771 0.338547 0.287629
-0.257093 -0.343493 -0.285087
-0.133946 -0.335469 0.289958
-0.162100 0.133415 0.422836
-0.038129 0.400185 0.194092
0.246023 0.323731 0.304234
0.141264 -0.343046 0.281310
0.141857 -0.379872 -0.233597
-0.110994 0.292575 -0.338221
-0.278398 -0.444653 -0.010768
0.265170 -0.186091 0.402187
-0.060785 0.369682 0.246687
-0.087993 -0.203606 -0.397850
-0.138508 -0.246572 -0.372556
-0.167398 -0.433038 -0.103515
-0.265049 0.420558 -0.149791
-0.169067 -0.435762 0.086977
-0.288633 0.311930 -0.320389
0.143217 0.315005 -0.317313
0.057028 -0.351315 -0.275003
0.265966 -0.159505 -0.417757
-0.058055 0.444882 -0.032123
-0.228592 -0.336458 0.288835
0.089521 0.417460 -0.158394
0.094142 -0.426332 -0.128772
-0.255162 0.141483 -0.424614
0.183805 0.200239 0.395734
-0.201474 0.064790 0.438408
0.201591 0.409466 -0.178172
0.118996 0.239850 0.373467
-0.250524 0.380604 0.229738
-0.133886 -0.391674 -0.213138
0.176554 -0.042330 0.440973
-0.075669 0.364198 0.254757
-0.197645 -0.431926 0.104138
0.183021 -0.165176 0.411237
0.026363 -0.444246 -0.023716
-0.040570 -0.405010 0.181747
0.285896 -0.444253 -0.023501
-0.193984 -0.246163 0.368480
0.200787 -0.241098 -0.376276
-0.245543 0.193701 0.399065
0.051793 -0.341304 0.283339
0.064609 -0.405314 0.181046
0.035242 -0.371869 0.241961
0.056806 0.008815 0.442997
-0.083070 0.183204 0.403879
-0.099398 0.442551 0.052419
0.098312 0.360612 -0.264338
-0.279923 0.445425 -0.018794
0.127301 -0.028305 0.442299
0.239078 0.141521 -0.424600
-0.289962 -0.003501 0.443132
-0.169144 -0.345444 -0.282572
0.035331 -0.348026 0.274890
0.257247 -0.288746 0.336340
-0.288725 -0.221241 -0.388278
0.221970 0.391303 -0.215878
-0.187401 -0.380471 0.228230
-0.090298 0.399951 -0.198906
-0.253207 -0.363169 0.254763
-0.045517 -0.068434 0.437668
-0.164832 -0.295694 0.330215
-0.239236 -0.306651 0.320289
0.134820 0.365225 0.253246
-0.136588 -0.436129 -0.089684
0.004126 -0.013084 0.442831
-0.039456 0.443216 0.045394
0.240424 -0.306196 0.320744
0.032984 -0.403737 -0.189044
0.174709 0.424328 0.134845
0.191284 -0.210980 -0.394093
-0.041126 0.115339 -0.432440
-0.213925 0.393256 0.207691
0.039124 0.286790 -0.343321
0.046451 0.351261 -0.276393
0.215581 -0.321367 -0.309927
-0.234736 -0.157518 -0.418472
-0.242743 0.144404 -0.423562
0.132741 -0.403247 0.185822
-0.077271 0.065209 -0.442695
0.046069 0.426488 0.127412
-0.003007 -0.365435 -0.255782
0.178997 0.439632 0.071347
-0.134886 0.364452 0.254382
0.209957 0.250739 0.366067
-0.170248 -0.251510 -0.369200
0.215404 0.439144 -0.078782
-0.201664 -0.105439 0.430342
-0.116759 0.375229 -0.242879
0.112683 -0.263122 0.356781
0.234950 -0.408262 -0.178585
0.095814 0.033701 0.441886
0.286597 -0.424480 0.130793
-0.234135 0.140561 -0.424946
-0.162079 0.442992 0.047760
-0.289793 0.145122 -0.423304
0.055329 -0.074218 -0.441106
0.160714 0.366247 0.251742
-0.082132 0.299973 0.327346
0.189470 -0.419331 0.145999
0.008357 -0.208213 0.391149
-0.231953 0.444585 -0.035257
0.054405 -0.334328 0.291251
0.091750 0.048346 -0.444855
0.258810 0.379139 -0.236568
0.088056 -0.109794 0.429369
-0.080334 -0.381876 -0.230208
-0.262927 -0.376231 0.235400
0.023082 -0.290166 -0.339441
0.141424 -0.392755 -0.211017
-0.054869 -0.443368 0.032945
0.014846 0.304099 0.323708
-0.247084 0.438752 -0.081256
-0.046665 -0.436781 0.082416
-0.219097 0.213724 -0.393217
0.211271 0.064230 -0.442850
0.128575 -0.153091 0.415713
0.006078 -0.375008 0.237343
-0.215988 0.013821 0.442840
-0.075236 -0.403209 -0.190263
-0.059151 0.158395 -0.418525
-0.044136 0.445776 0.003280
-0.066240 0.267839 -0.358270
0.038884 -0.438498 0.072041
-0.006741 -0.066135 -0.442386
0.096832 -0.335310 -0.294491
0.023584 0.441017 -0.066956
0.281582 -0.338406 0.286626
0.129396 -0.379209 -0.234718
0.066685 -0.440179 -0.065778
-0.135948 -0.361891 -0.260996
0.156739 -0.409857 -0.174901
-0.160526 0.438118 0.080907
0.284338 -0.355903 0.264734
-0.035378 0.158987 0.413959
-0.261822 0.408296 0.176523
-0.240683 0.433938 -0.104075
0.259180 0.232697 0.377755
-0.223729 -0.295332 0.330534
-0.057844 0.100804 0.431608
-0.223112 -0.265178 0.355185
-0.064328 -0.319148 0.307792
-0.211595 -0.437984 0.075283
0.019504 -0.250045 -0.370195
-0.064822 0.310577 0.317388
0.075354 -0.225247 -0.385909
-0.078316 0.248990 0.367255
0.264403 0.439885 -0.074107
0.230937 0.433517 0.101604
-0.190862 0.087744 -0.438880
-0.072164 0.304270 0.323558
0.239757 0.169139 0.409966
0.202819 -0.260372 -0.363177
0.118107 0.057680 -0.443887
0.172107 0.445017 0.026333
0.161131 0.407359 0.178687
0.263764 -0.197780 0.396465
-0.006094 0.303738 0.324027
0.011248 0.394357 -0.209884
0.104671 0.008171 0.443018
0.098831 -0.437572 0.077888
0.142600 0.440651 -0.069271
-0.122410 -0.444610 0.007779
-0.082382 -0.360394 0.258847
-0.290037 0.443552 0.041837
0.204639 0.443052 0.047126
-0.224415 -0.174747 -0.411449
0.128336 0.003603 0.443161
-0.270832 0.442415 0.053778
-0.181125 0.165328 -0.415968
0.065508 0.239094 0.373972
0.217183 -0.443306 0.033592
0.043451 0.039524 -0.445689
0.245462 -0.357015 -0.267654
-0.193030 0.445280 -0.023409
0.266147 0.418508 0.151130
-0.108326 0.438323 0.079611
0.264195 0.111195 -0.433638
-0.142843 -0.102442 -0.435366
-0.155901 0.425624 0.130383
0.193500 -0.437790 -0.080865
-0.228586 0.217666 0.386645
-0.203833 -0.167882 0.410066
-0.147207 -0.434019 0.094773
-0.051234 -0.102257 0.431054
0.155288 0.351002 0.272374
-0.032021 0.419016 -0.154074
-0.068079 0.219986 0.385273
-0.104685 -0.370885 0.243409
-0.171157 -0.154336 -0.419618
-0.185681 -0.385885 -0.223429
0.086810 0.008838 0.442997
0.013226 0.342243 -0.287789
-0.102145 0.432788 -0.109219
0.045337 0.437602 -0.087682
0.165405 0.374055 0.240253
-0.075707 -0.381854 0.225892
0.134986 -0.037291 -0.445803
0.186011 -0.275363 -0.351639
0.010582 -0.414342 -0.164211
-0.210953 -0.402280 -0.192323
0.176085 -0.345553 -0.282431
0.072826 0.205558 -0.397378
0.108270 0.215806 -0.392098
0.271264 0.433792 -0.104724
0.055819 0.437379 -0.088679
-0.191613 0.445672 -0.010946
-0.284671 0.013544 -0.447202
0.247525 -0.245464 0.368955
-0.272823 -0.096944 -0.436595
0.119568 0.443037 -0.051640
0.276494 -0.138961 0.420800
0.154823 0.443293 0.044578
-0.165237 0.438644 -0.081942
0.163751 -0.038203 -0.445717
-0.094266 0.011476 -0.447267
0.154756 -0.440776 -0.062010
0.140194 -0.159446 0.413424
-0.204193 -0.391654 -0.213178
-0.067559 -0.284176 -0.344723
-0.136198 -0.147356 -0.422131
0.179581 0.324548 0.303417
-0.265262 -0.249871 0.365960
0.040911 -0.093504 0.433010
-0.020747 -0.154076 0.415358
0.027388 0.093369 -0.437623
-0.219665 0.398030 0.198322
-0.049093 -0.381504 -0.230838
0.162144 0.149076 -0.421881
0.092623 -0.418793 0.147492
-0.274318 0.414431 0.162345
-0.027879 0.002826 -0.447539
-0.184376 -0.124948 0.424998
0.271217 -0.043383 0.440874
0.082972 -0.351242 0.270743
0.276070 0.422916 -0.143242
-0.023140 0.410020 0.172538
0.249101 0.445877 0.000056
-0.028913 -0.356056 -0.268890
0.168303 0.239229 -0.378242
0.215330 0.068394 0.437837
0.282700 -0.404927 -0.186292
-0.244370 0.119459 -0.431244
0.235778 0.418729 -0.154871
-0.267355 0.364392 0.254471
-0.242266 -0.426741 0.123011
-0.204376 0.430734 0.112796
-0.032534 -0.112309 -0.433023
0.052252 0.344848 -0.284661
-0.222687 0.377794 -0.238844
0.027881 0.041021 0.441194
-0.140509 -0.015937 0.442741
0.163387 0.383006 -0.230030
-0.190370 0.369836 -0.250814
0.282863 0.414560 -0.166401
0.186678 0.300915 -0.330868
0.271491 0.406371 -0.185325
-0.057914 0.329157 -0.302633
0.232037 0.440182 -0.072229
-0.110379 0.220237 -0.389478
0.259306 0.359840 0.260980
0.113289 -0.385391 0.219912
0.000677 0.168957 -0.414398
0.062124 -0.345014 0.278772
0.025624 -0.148526 -0.421709
0.171274 -0.384702 -0.225429
0.196361 -0.279685 -0.348286
-0.284463 0.082227 0.435646
0.242392 0.338094 0.288142
0.183143 -0.443235 -0.038704
-0.233984 0.090148 -0.438343
0.043196 0.119315 0.426932
-0.019061 -0.258223 0.360284
-0.288059 0.285435 0.340163
-0.288172 -0.362779 0.255337
0.192910 0.418303 0.151700
-0.202354 -0.191716 0.399555
0.109247 -0.365128 0.251880
-0.277301 0.203180 0.394236
-0.165058 -0.390519 -0.215406
0.231238 0.334501 -0.296571
-0.101700 0.405550 -0.187221
-0.188291 0.416902 -0.159946
0.097657 -0.369183 0.245914
0.052005 -0.070939 0.437271
-0.142213 0.112480 -0.433271
-0.024081 -0.180223 0.404726
-0.149015 -0.039648 -0.445580
0.253062 0.373110 -0.245997
0.187905 -0.247238 0.367750
-0.164118 0.058443 0.439413
0.241942 -0.340071 -0.289091
0.005083 0.108254 0.429942
-0.256687 0.414783 -0.165832
0.064201 -0.305587 -0.325707
0.091743 0.265253 0.355922
0.220396 -0.272443 0.349550
0.106846 -0.373647 0.239344
-0.047993 -0.203940 -0.397680
0.027603 -0.344134 0.279907
0.082159 0.414962 -0.165333
-0.244022 0.258290 -0.365288
0.229308 0.385200 -0.226320
0.045062 -0.370519 0.243947
-0.125622 -0.319890 0.307050
0.273312 -0.425258 -0.132470
0.175994 0.083420 0.435457
-0.058707 -0.302271 -0.328770
-0.263696 -0.011654 -0.447229
-0.103542 0.210202 -0.395011
-0.016618 0.445091 -0.029427
-0.097644 0.439283 0.073552
0.030262 -0.223227 -0.387103
-0.226233 -0.164307 -0.415967
-0.056642 -0.251438 -0.369249
0.212139 -0.047126 -0.444873
-0.180062 -0.282962 0.341391
-0.207073 0.276610 0.347113
-0.077587 0.214739 0.388346
-0.074911 -0.290975 -0.338729
-0.175955 -0.363899 -0.258041
0.018379 0.202881 -0.398741
-0.053224 -0.328283 0.298109
-0.145786 0.286064 0.339608
0.001457 0.348263 -0.280258
-0.208930 0.202761 -0.398803
0.041154 0.068978 0.437744
-0.082066 0.322123 0.305842
-0.284382 -0.173414 0.407672
-0.065696 -0.419842 0.144580
0.147625 0.438034 -0.085746
-0.027776 0.432459 -0.110692
-0.018183 0.221204 -0.388906
-0.264024 0.183367 0.403809
0.034391 -0.337398 0.287770
0.125701 -0.423201 0.135197
-0.257195 0.370794 0.245051
0.173899 -0.387967 0.215556
-0.057146 -0.412089 0.165389
-0.036144 -0.165782 0.410975
-0.279140 0.398221 0.197947
0.026581 0.253362 -0.368638
0.217949 -0.260736 0.358576
0.099185 0.442231 -0.059292
-0.248973 -0.314410 -0.316884
-0.002446 -0.443753 0.028867
-0.099741 -0.157498 0.414126
-0.155806 0.301742 0.325786
-0.132390 0.148786 -0.421985
-0.030285 -0.439460 0.065962
-0.090125 -0.042687 0.440940
0.205853 -0.009994 0.442928
0.161422 0.445809 -0.006575
-0.091291 0.433779 -0.104783
0.112912 -0.444331 0.016643
0.262019 0.249217 -0.371455
-0.217040 0.445718 -0.009471
-0.097168 -0.331781 -0.298494
-0.238366 0.054661 -0.444258
0.229800 -0.057254 -0.443792
0.123911 -0.443442 0.032162
0.113793 -0.064884 -0.442584
-0.013525 0.204523 0.393552
-0.127309 0.280552 0.344055
0.068347 -0.217463 -0.390512
-0.095344 -0.029502 -0.446539
0.224328 -0.287473 -0.341816
0.079372 0.439665 -0.075494
-0.108063 -0.328695 0.297641
0.121225 0.351856 0.271273
0.283116 -0.437463 0.078576
0.106209 0.158861 -0.418358
-0.186923 -0.131951 -0.427317
0.136584 -0.435950 0.086134
0.286665 -0.284798 -0.344174
0.120375 0.098535 0.432115
-0.039199 0.431791 -0.113510
0.037652 0.444612 0.030621
0.194325 0.445909 -0.000969
0.099975 0.443670 -0.044939
-0.099479 -0.137605 -0.425641
-0.283350 -0.256070 -0.366101
0.205230 -0.369728 -0.249465
-0.287364 -0.243977 -0.374319
-0.214839 -0.217352 0.386224
-0.208658 0.290881 -0.339715
-0.129261 0.376159 -0.241510
0.133569 0.392975 0.208243
0.224991 0.424531 -0.138498
0.278920 -0.120735 -0.430575
0.250522 -0.277777 -0.349766
-0.134199 0.357760 -0.268015
-0.075553 -0.128558 0.423949
0.220830 -0.173166 -0.412133
-0.169113 -0.443196 -0.039110
0.225594 0.168785 0.410119
-0.055372 0.146375 -0.422853
-0.021939 0.179715 -0.409742
-0.109084 -0.421752 -0.143627
0.090263 -0.440235 -0.065425
0.113048 0.422876 0.139000
-0.094528 -0.354768 -0.270551
-0.158672 0.098794 -0.436410
0.154851 0.183859 0.403596
0.062237 -0.339523 -0.289713
0.217598 -0.440242 0.061026
0.017748 -0.443929 0.027005
0.186911 0.383118 0.225487
-0.082041 0.445393 -0.019812
-0.037303 0.302314 -0.329636
0.284528 -0.183655 0.403241
0.071910 0.355499 0.266577
0.020556 0.358165 0.263140
0.199343 -0.443824 -0.032475
-0.092078 -0.102423 -0.435370
-0.253907 0.173008 -0.412645
0.123981 0.032366 -0.446366
-0.078532 0.418052 0.152398
-0.281549 0.243255 -0.375506
-0.012835 -0.443483 0.031725
0.198245 -0.008634 -0.447324
0.010294 -0.027320 -0.446737
0.116496 -0.087572 -0.438690
0.021399 0.314787 -0.317532
-0.028911 0.193016 -0.403768
0.283912 -0.014203 -0.447149
-0.089799 0.000153 -0.447600
0.174879 -0.360133 0.259231
0.088574 0.198728 -0.400857
0.130515 -0.305665 -0.325628
-0.227885 -0.444677 -0.009977
0.062518 0.338173 0.288053
0.215465 0.415010 0.160846
0.178582 -0.209714 -0.394738
-0.003686 -0.432263 -0.106983
-0.277738 -0.280592 0.343229
0.142976 0.326839 -0.305263
-0.272820 0.057044 -0.443988
-0.220453 0.157466 0.414506
0.151624 0.306980 -0.325338
0.225663 0.443836 0.038832
0.041877 -0.122937 0.425582
0.200602 -0.190768 -0.404391
0.157836 0.412865 0.165964
-0.101792 0.372750 0.242172
-0.107491 -0.412481 0.164483
0.222925 -0.377421 -0.237741
0.014606 0.029046 -0.446679
-0.065053 -0.442867 0.038243
0.153907 0.106429 -0.434703
0.243110 0.444712 0.029563
-0.066710 -0.186625 0.401955
0.030243 -0.444839 0.000493
0.032109 -0.382140 -0.229762
0.115692 0.341773 -0.288323
0.070248 -0.124475 -0.429488
-0.226141 0.014422 0.442821
-0.129823 -0.436123 0.085358
-0.141049 -0.374429 -0.242548
-0.022220 -0.123430 0.425439
-0.201172 0.421999 -0.145789
0.163938 -0.387943 0.215597
-0.061516 0.308187 -0.324131
-0.249789 -0.248367 -0.371336
0.111563 0.223735 -0.387409
-0.162748 0.445296 0.018546
-0.009264 0.208196 -0.396033
-0.236324 0.171734 0.408843
0.090973 0.347600 -0.281114
-0.104205 -0.134621 0.422187
0.006069 0.412759 0.166208
-0.285833 -0.085019 -0.439260
0.108476 -0.443940 0.026885
0.194751 -0.032381 -0.446267
0.110640 -0.346224 -0.281566
-0.078089 0.331923 -0.299496
0.189549 0.152772 0.416196
0.008482 -0.426173 0.124968
0.015997 0.302394 -0.329565
-0.017450 0.122074 -0.430484
0.279492 0.423007 0.138635
0.127392 0.204222 0.393705
0.002283 -0.410075 0.170043
0.082209 0.196027 0.397880
-0.113172 0.135026 0.422368
-0.257283 -0.179959 -0.409193
-0.172337 0.330422 -0.301198
-0.203381 -0.408513 -0.178006
-0.188370 0.000124 0.443246
-0.245257 0.095317 -0.437188
0.035231 0.327042 0.300678
0.067686 -0.077570 -0.440575
-0.161158 0.214487 -0.392828
0.074809 -0.436449 -0.088253
-0.090561 0.442487 -0.057452
-0.011021 -0.444823 -0.005337
-0.270946 0.423849 -0.140649
-0.040099 0.177033 -0.410903
0.261213 -0.441669 0.050910
-0.189701 0.402307 -0.194281
0.263510 -0.392102 0.207945
-0.155883 -0.444087 0.024418
-0.106314 -0.230777 0.378285
-0.240142 0.158827 0.414016
0.077267 -0.148612 -0.421679
-0.227727 -0.019795 0.442620
-0.188405 -0.170601 0.408890
0.200863 -0.088085 0.434222
0.034597 0.208214 -0.396024
0.197683 0.405301 0.183443
-0.041890 0.375153 -0.242991
-0.108413 -0.404641 0.182599
-0.022655 -0.289413 -0.340106
-0.041618 -0.199735 0.395469
0.109433 0.040719 -0.445576
0.204353 0.396083 0.202144
0.089747 0.426122 -0.133024
0.270020 0.155396 -0.419605
0.123856 0.254346 -0.367969
0.250040 0.309657 -0.322662
0.165505 -0.411445 0.166877
0.187602 0.155210 -0.419672
0.076452 0.373204 0.241505
-0.257165 0.302702 0.324940
-0.167178 0.076715 0.436519
0.224291 0.359024 0.262032
0.213421 0.428594 -0.124513
0.046186 0.245605 0.369556
0.060509 -0.438222 -0.078132
0.102363 0.307602 0.320363
0.266795 -0.117661 -0.431468
-0.130854 0.074765 0.436828
0.071682 -0.349663 0.272779
-0.210150 -0.444762 -0.007295
0.098492 -0.280278 0.343473
0.017522 -0.431997 -0.108170
-0.058848 -0.444555 0.009528
-0.037686 -0.432236 -0.107102
0.143208 0.069153 0.437717
0.246338 -0.003660 -0.447481
0.146951 0.272712 0.350137
-0.207897 -0.051445 -0.444465
0.215896 0.434443 -0.101813
0.251534 -0.274020 0.348327
0.249598 -0.182369 -0.408150
-0.183346 0.425175 0.131928
-0.100174 0.445526 0.011244
0.147231 -0.022052 0.442549
-0.030860 0.204568 -0.397882
0.203159 0.445855 -0.005128
-0.268838 0.373827 -0.244941
0.006937 0.017686 0.442719
-0.276383 0.414051 -0.167576
-0.255018 0.282888 -0.346597
0.005340 -0.161304 -0.417109
0.071832 -0.062647 -0.442938
0.186306 -0.294104 0.331617
0.185299 0.412175 -0.171912
0.003210 0.127731 0.424487
0.026533 0.047930 -0.444894
-0.093718 -0.073013 0.436943
0.125139 0.445469 0.013059
0.259068 -0.376909 0.234254
-0.134965 0.265467 0.355757
-0.027482 -0.063127 -0.442862
-0.165158 -0.335238 0.290220
0.210296 0.199315 -0.400558
0.137105 0.227998 0.380535
-0.088852 -0.263819 0.356240
-0.122564 -0.218194 -0.390080
-0.189176 -0.100624 -0.435772
0.049338 -0.132460 0.422815
0.275921 0.436516 0.088185
0.209583 -0.295989 0.329955
0.116492 0.048538 0.440484
-0.158090 -0.433686 0.096262
-0.247848 0.209709 0.390909
-0.004800 0.370039 0.246162
-0.001699 0.441728 -0.062471
0.202221 0.390795 0.212506
-0.243995 -0.334439 -0.295479
0.219443 -0.329186 0.297084
-0.197354 -0.053651 0.439903
0.202160 0.416301 0.157261
0.127413 0.110098 0.429530
0.071739 -0.415750 -0.160299
0.202087 -0.425329 0.127873
0.019343 0.378166 -0.238215
0.053122 -0.197927 0.396390
-0.208033 0.303401 0.324323
0.282410 -0.007893 0.442994
-0.035499 0.443717 -0.044442
-0.128164 0.302995 -0.329035
0.052326 0.234264 -0.381183
0.117839 -0.429713 -0.117136
0.115436 0.166880 -0.415296
-0.073849 0.236068 -0.380116
0.273326 0.100574 0.431659
0.285387 0.116196 -0.432192
0.284624 0.059757 0.439205
0.128672 0.407647 -0.182377
-0.230102 0.180749 0.404941
0.148771 0.176050 0.406975
-0.255130 -0.444547 -0.014133
-0.207938 0.128085 -0.428738
-0.019905 -0.415980 0.155306
-0.227434 0.328788 0.298698
0.005162 -0.356797 -0.267935
-0.234709 0.151491 -0.421011
-0.073256 0.431110 0.111500
-0.252117 -0.345836 0.277712
0.004712 0.240374 -0.377464
-0.176627 0.241457 -0.376728
-0.093727 0.340910 -0.289302
-0.263625 0.070519 -0.441854
0.015877 -0.395732 0.200820
0.247856 0.110360 -0.433825
0.233829 0.440440 0.066245
0.013835 0.432159 0.107678
-0.166479 0.247515 -0.372611
0.224388 -0.444169 0.021797
-0.058845 0.375674 0.237870
0.161899 -0.322025 -0.309269
-0.288918 0.218757 -0.390353
0.187130 0.403401 -0.192135
-0.026612 -0.440930 -0.061036
-0.072702 0.413517 0.164457
-0.050468 0.180703 -0.409315
-0.216171 -0.302734 -0.328361
0.277811 0.003759 0.443156
0.014151 -0.196404 -0.401519
0.055954 -0.049229 0.440321
-0.289671 -0.343311 -0.285321
-0.234106 -0.050448 -0.444559
0.277778 0.090972 -0.438159
-0.085839 0.044073 -0.445259
0.060774 -0.422144 0.138186
-0.060863 -0.106787 0.430041
-0.012514 0.420089 -0.151093
0.061929 -0.204013 0.393289
-0.107445 0.401182 -0.196488
-0.263010 -0.350890 0.271197
0.174307 -0.153142 -0.420048
-0.075143 0.309364 -0.322955
0.129778 -0.390216 0.211646
-0.093937 -0.425730 -0.130847
-0.021569 -0.323974 -0.307320
-0.200867 -0.412123 0.165310
-0.038947 -0.376608 -0.239116
-0.257278 0.351777 -0.275729
-0.068315 -0.396694 -0.203287
0.138484 -0.364088 0.253411
0.047504 0.197719 0.397018
0.019628 0.127351 0.424597
0.243945 0.114065 0.428457
0.166829 -0.099497 -0.436024
0.082519 -0.266738 0.353976
0.256015 0.247045 0.368578
-0.208388 -0.435427 -0.092826
-0.191662 0.388747 0.215969
0.178218 -0.369944 0.244794
0.051004 0.417370 -0.158645
-0.277500 0.116872 0.427642
-0.096788 0.048461 -0.444844
-0.131451 -0.300549 -0.330288
0.226720 0.092864 0.433382
0.077251 0.095442 -0.437159
-0.151242 -0.283255 0.341164
-0.160389 -0.441518 -0.056865
0.031026 -0.406419 0.178491
-0.156437 -0.053548 -0.444266
0.064777 0.025766 0.442465
0.150569 0.155635 0.415166
-0.115731 0.090625 -0.438236
0.187207 -0.412004 -0.169939
0.061837 0.397628 0.199110
-0.150063 -0.103520 0.430771
-0.114350 0.385337 -0.226089
0.033332 -0.433064 -0.103399
0.006633 0.275735 -0.352145
-0.038907 -0.354353 -0.271086
-0.013356 -0.439183 -0.072067
0.148268 -0.175996 -0.410908
-0.062586 0.435765 -0.095899
-0.245851 -0.294817 -0.335341
0.201759 0.442054 -0.060413
0.145177 -0.386831 -0.221830
-0.247488 0.442800 0.049787
-0.286145 0.434493 0.097237
-0.157876 -0.290234 -0.339381
-0.157659 0.443290 -0.048955
0.198881 0.402181 -0.194528
-0.026436 0.444369 0.033188
-0.181100 0.408218 0.176704
0.093545 -0.256800 -0.365605
-0.023008 0.416616 -0.160739
0.201778 -0.071578 0.437170
-0.110248 -0.290020 0.335217
0.030288 -0.397232 0.197877
0.014299 0.436988 0.086074
-0.099916 0.008867 0.442996
0.122093 0.082919 0.435536
-0.119171 0.445401 -0.019566
0.123682 -0.360920 0.258073
0.051329 -0.408489 -0.178063
-0.236510 0.354171 0.268289
0.112514 -0.248877 -0.370989
-0.076806 -0.434457 0.092813
0.173696 -0.255445 0.362172
-0.085871 -0.303984 0.322906
0.269326 0.372770 0.242143
-0.047005 0.021819 0.442589
0.183707 0.358418 -0.267167
-0.284555 0.424259 -0.139437
0.139276 -0.115532 0.427733
0.059373 -0.230630 0.378372
-0.116771 -0.165097 -0.415625
-0.120199 0.113068 0.428747
-0.287241 0.282342 -0.347020
-0.278069 -0.415238 -0.161721
0.050609 -0.375588 0.236486
-0.150435 -0.251923 -0.368919
0.031896 -0.278976 -0.348836
-0.203150 0.030354 -0.446556
-0.044048 0.055748 0.439802
-0.181698 -0.269643 -0.356076
-0.206939 -0.404269 0.183459
-0.066834 -0.046998 0.440532
0.178237 0.027532 -0.446763
-0.202939 0.170726 -0.413632
0.228842 -0.433458 -0.101638
0.198067 -0.129971 0.423538
0.022719 -0.432962 0.099501
0.138653 0.116939 -0.431976
-0.008315 0.410390 -0.176037
0.029067 0.247151 0.368505
-0.097052 0.340380 0.285550
0.014939 0.364012 -0.259383
0.016157 0.242959 -0.375707
0.007828 -0.070422 0.437353
-0.085344 0.322234 -0.310084
0.135059 0.300091 0.327242
0.023372 -0.079752 -0.440229
0.059267 0.113962 0.428487
-0.279661 -0.392492 0.207180
-0.012829 0.413982 -0.167736
0.254148 0.170174 -0.413871
0.157897 -0.274504 0.347952
-0.017502 0.426065 0.128865
0.067076 -0.409138 0.172208
-0.105647 -0.103293 -0.435176
-0.050993 0.316821 0.311144
0.115752 -0.380218 0.228658
0.238678 -0.188995 0.400930
0.057220 0.272913 0.349980
-0.098984 -0.253158 0.363727
0.027812 0.445557 0.010258
0.202444 0.033019 -0.446304
-0.228021 -0.071651 -0.441512
-0.075743 -0.399745 0.192945
0.031111 -0.244092 0.369887
-0.277077 -0.438138 -0.078667
0.015606 0.058920 0.439337
-0.237347 0.360446 0.260198
-0.258490 -0.142765 -0.423784
0.266114 -0.385817 0.219191
-0.114182 -0.141539 0.419872
-0.036526 0.262823 0.357807
0.269527 0.433764 0.100498
0.229658 -0.225204 0.381581
0.173123 0.437939 0.081818
-0.001358 -0.381547 -0.230764
0.241917 0.364554 0.254233
-0.245795 -0.041811 0.441022
0.223157 0.423503 0.137257
0.097552 0.277814 -0.350533
-0.074128 -0.058051 0.439313
0.088263 0.411825 0.168368
0.156640 0.274189 -0.353345
0.286377 -0.087946 0.434253
-0.065559 -0.134237 0.422299
-0.273981 0.253663 0.364079
-0.043101 -0.444446 -0.017335
0.233599 0.408333 -0.180789
0.024873 -0.261302 0.358192
0.127607 0.371671 0.243761
-0.085386 0.162354 -0.417100
0.171723 0.022628 0.442563
0.056733 -0.303875 0.323002
0.175148 -0.442949 0.037373
0.175742 -0.441108 0.055559
-0.260408 -0.326312 -0.304698
-0.230058 0.173249 -0.412541
-0.095197 -0.418210 -0.153465
0.018755 0.345181 0.279879
-0.247631 0.269359 0.352737
-0.140444 0.411153 0.169921
-0.288663 0.208566 0.391491
-0.204918 0.445269 0.019423
0.021130 -0.403178 -0.190334
0.007470 -0.422426 -0.141757
-0.055716 0.029259 -0.446659
-0.184232 0.444409 -0.037126
0.105036 -0.393056 -0.210426
0.033404 -0.437075 0.081026
-0.169742 -0.126251 -0.428973
-0.077970 -0.203609 -0.397848
-0.072040 0.295359 -0.335767
0.258455 -0.084781 -0.439313
-0.242009 -0.434239 0.093789
-0.063743 -0.329554 0.296666
0.239034 -0.387099 -0.221377
-0.112271 -0.380397 -0.232710
-0.086358 0.408425 0.176224
0.058355 -0.425591 0.126969
0.152366 0.169251 -0.414271
-0.142943 0.136153 -0.426394
-0.076007 0.442606 0.051840
0.011895 0.239673 0.373587
-0.225294 -0.043994 0.440816
-0.285397 0.113619 -0.432940
-0.082022 0.395421 -0.207797
0.187840 0.428929 0.119008
0.207863 -0.135865 0.421826
-0.066673 -0.045069 -0.445068
0.072451 0.038836 -0.445754
-0.229655 -0.265281 -0.359459
-0.188650 -0.332162 -0.298062
-0.180372 0.111376 -0.433592
-0.225901 0.076948 0.436482
-0.020850 0.359631 0.261250
-0.047094 0.444275 0.034188
-0.251744 0.367314 -0.254525
-0.048304 0.291462 0.334849
0.280249 0.445261 0.019653
-0.171688 0.264158 -0.361125
-0.084374 -0.095120 -0.437002
0.019390 0.060567 -0.443430
0.280105 0.239818 0.373489
0.039154 0.089312 -0.438530
0.222893 0.200557 0.395572
-0.102494 0.442712 -0.055071
0.224126 -0.107462 0.429890
0.285406 0.385364 0.221690
-0.121659 -0.020124 0.442610
-0.091971 -0.439848 0.063514
0.246288 -0.080605 -0.440094
0.110546 -0.054929 0.439783
-0.135018 -0.378722 0.231188
-0.003639 -0.444510 0.010956
-0.221972 -0.330962 0.295070
-0.211817 -0.335833 0.289545
0.087782 -0.187423 0.401610
0.153496 0.064680 -0.442778
0.027332 0.004551 0.443131
0.108869 0.056580 0.439708
0.084524 0.064221 -0.442851
0.084211 0.114257 0.428401
0.247626 0.444548 -0.035655
0.083391 0.249856 -0.371020
0.218977 0.379494 -0.235969
0.025781 -0.429627 -0.117430
0.087538 0.421625 -0.146826
0.093969 0.242330 -0.376135
-0.086072 0.445040 -0.030444
0.119938 0.156134 -0.419339
0.042932 0.415593 -0.163581
0.266617 0.444405 0.032809
-0.259582 -0.386696 0.217705
-0.247817 0.359824 -0.265354
-0.143417 0.146599 -0.422772
-0.232070 -0.354405 -0.271020
0.124885 -0.095271 -0.436969
-0.148385 0.003944 0.443150
-0.225726 0.301449 -0.330398
-0.203675 -0.378912 -0.235219
0.091368 0.342554 0.283084
0.098209 0.056473 0.439725
-0.019384 -0.071692 -0.441506
0.171938 0.371115 -0.248931
0.172910 -0.400743 -0.195339
-0.200213 -0.434884 0.090904
-0.139969 -0.403330 -0.189984
-0.074949 -0.336530 -0.293107
0.087983 0.407694 0.177914
-0.077206 0.058088 0.439469
-0.184450 0.445475 0.012862
-0.214697 0.120118 -0.431052
0.242596 -0.269177 0.352083
-0.019120 -0.240123 0.372585
0.170720 -0.444654 0.006362
-0.233079 0.264136 0.356789
-0.254946 0.237724 -0.379136
-0.222720 0.265988 0.355353
0.260108 0.433136 -0.107662
-0.197071 0.265706 0.355571
0.286417 -0.098419 -0.436265
0.075027 -0.439705 0.064420
0.283208 -0.312028 -0.319266
0.271462 0.349831 -0.278237
-0.095605 -0.018672 -0.447009
0.144216 -0.031220 -0.446377
-0.120291 -0.379039 0.230652
-0.051552 -0.444070 -0.029308
0.219064 -0.075990 -0.440825
-0.188944 -0.442056 -0.051169
-0.235646 -0.040688 -0.445482
-0.157156 0.178926 0.405730
0.046084 -0.068058 -0.442081
-0.049717 0.338415 0.287778
0.175665 0.445596 0.009004
-0.094851 -0.341286 -0.287713
-0.004321 -0.234846 -0.380232
-0.112590 0.170933 -0.413543
0.275911 -0.444251 0.019209
0.239721 -0.428894 -0.119954
-0.116280 -0.311709 0.315231
-0.004179 0.115315 0.428094
0.187109 -0.442802 0.038933
0.128100 0.171982 -0.413089
-0.254132 -0.153589 -0.419887
0.079048 -0.363793 -0.258198
-0.144308 -0.227834 0.380026
-0.120664 -0.046112 0.440616
0.130628 0.377418 -0.239479
-0.038340 0.396891 -0.204910
0.194575 0.445241 0.020313
0.027778 -0.444160 0.022076
-0.168086 -0.185337 0.402513
0.224762 -0.308592 -0.322702
-0.005032 0.431097 0.111545
0.210001 -0.435560 0.087878
0.270504 -0.359575 0.260001
0.277755 0.287409 0.338422
-0.263646 -0.170694 -0.413203
0.101510 -0.213852 -0.392629
-0.050620 0.195359 -0.402574
-0.132966 0.039012 -0.445737
0.198541 0.388654 -0.220480
0.017397 0.143752 -0.423797
0.227798 -0.443245 0.034247
0.270517 -0.112430 0.428635
-0.215780 0.327220 0.300476
-0.269870 0.323297 0.304668
-0.142781 -0.332072 0.293811
0.107774 0.276587 0.347131
-0.111583 0.418941 0.149928
-0.029476 -0.070078 0.437408
0.160858 -0.438114 0.074462
0.104855 -0.424644 -0.134582
0.282952 0.380171 0.230471
-0.010269 0.396026 -0.206608
0.275688 -0.288976 -0.340490
-0.265630 -0.217064 -0.390748
-0.274406 -0.136098 0.421758
-0.127055 -0.185861 -0.406639
0.212172 0.365809 0.252386
-0.103977 -0.082770 -0.439751
0.027564 -0.166306 -0.415101
0.172150 0.445290 -0.023101
-0.000545 -0.039446 0.441246
0.047736 -0.386759 0.217598
-0.220858 -0.253298 0.363631
-0.280943 -0.303860 -0.327369
-0.045632 -0.153128 -0.420053
-0.284322 0.377187 -0.239870
-0.012608 -0.444456 -0.017037
0.232127 0.338687 0.287470
0.146312 0.209306 0.391115
-0.287968 0.055683 -0.444161
0.256113 -0.229219 -0.383560
0.118868 -0.357008 -0.267663
0.127301 -0.325519 -0.305597
0.093824 0.274279 0.348921
0.009812 0.443418 -0.047610
0.174077 -0.064700 -0.442613
-0.288469 -0.230144 0.378659
0.176621 -0.123502 0.425418
0.151017 -0.439160 -0.072212
-0.047389 -0.280482 -0.347668
-0.047707 -0.439580 -0.069561
0.126050 0.436168 0.089742
-0.263540 0.441144 0.061805
-0.026633 -0.442800 0.038954
-0.183603 0.010915 0.442931
0.265936 -0.027080 -0.446745
-0.054202 -0.421077 -0.145504
-0.098591 -0.373089 -0.244520
0.167243 -0.328427 -0.302299
-0.222030 -0.032723 0.441882
0.143435 0.346655 0.277979
0.273395 0.392720 0.208744
0.231822 -0.442024 0.047154
-0.207685 0.051961 -0.444513
0.139393 0.155634 -0.419519
0.018070 0.445738 -0.008838
-0.267895 -0.443384 0.032767
-0.136049 0.265718 -0.359915
0.117362 -0.444279 -0.022647
-0.289571 -0.437946 -0.079876
0.147230 -0.442610 0.040963
0.231145 -0.274130 0.348242
0.250740 -0.369442 0.245532
-0.226364 0.417290 -0.158867
0.196124 0.429585 -0.121105
0.016723 -0.444395 0.014625
0.034109 -0.269851 0.351561
-0.069554 0.444529 -0.035857
-0.136516 -0.273422 0.348791
-0.147098 0.368315 0.248698
-0.221854 -0.148420 -0.421748
-0.017907 0.335677 0.290884
0.177373 -0.436464 0.083836
-0.266381 0.147757 0.418002
0.009960 -0.081461 -0.439958
-0.032571 -0.283668 -0.345170
0.125876 -0.040357 0.441160
0.250105 0.169796 0.409681
-0.244248 -0.184178 -0.407368
-0.167807 -0.024804 -0.446816
-0.273827 0.261067 -0.363401
0.024597 0.111532 0.429193
0.105637 -0.444091 -0.028627
-0.148406 -0.048255 0.440413
0.030513 0.442309 -0.058800
0.286540 -0.432869 -0.104268
0.224505 -0.084513 -0.439373
0.163488 0.080444 -0.440282
-0.157866 0.068723 -0.442138
0.250329 0.441108 -0.066384
0.156616 0.359111 0.261921
0.238324 0.159854 -0.418000
0.082940 0.206736 -0.396777
-0.016939 0.036015 -0.446021
0.139433 -0.214008 -0.392550
-0.006923 0.362609 0.257095
0.047353 0.431639 0.109681
-0.008328 -0.332092 0.293788
0.101082 -0.358590 0.261271
-0.168415 -0.006792 0.443029
-0.269559 0.347064 0.277451
-0.138201 0.221572 -0.388688
0.165271 -0.281855 -0.346603
-0.063210 0.184169 0.403462
0.179956 -0.306231 -0.325062
-0.290124 0.098898 -0.436387
0.205279 0.419488 0.148409
0.013198 -0.221749 0.383624
-0.246100 -0.360815 -0.262580
-0.194223 -0.393878 -0.208812
0.209839 0.349832 -0.278236
-0.205140 -0.263545 0.356452
-0.120264 -0.436497 0.083687
-0.051126 0.338932 -0.291545
0.260131 -0.127402 -0.428638
-0.256976 0.428041 0.122065
0.193267 -0.239670 0.372893
0.086992 -0.050733 0.440179
-0.129465 0.388214 -0.221224
0.190468 -0.023860 0.442492
0.073638 0.269735 -0.356799
0.185550 -0.351822 -0.274349
-0.238283 0.445138 -0.027926
0.268823 0.276308 -0.351701
0.015464 0.207238 0.392168
-0.122052 0.317148 -0.315171
-0.060460 0.432530 0.106017
-0.238874 -0.232114 0.377495
0.237955 0.124843 0.425326
-0.155149 0.433168 -0.107516
0.221734 -0.344128 -0.284268
-0.018505 -0.372991 -0.244664
-0.071091 0.290170 0.335988
0.121444 0.310107 0.317858
-0.201636 -0.429299 0.114206
-0.200843 -0.271883 0.349985
-0.185592 -0.199577 -0.399903
0.039642 -0.026002 0.442425
0.089293 -0.183487 -0.407667
-0.044991 -0.397029 0.198275
0.248067 0.046254 0.440699
0.030119 0.176849 0.406629
-0.125717 0.271050 0.351426
-0.212637 -0.360336 -0.263284
-0.127816 0.029875 0.442248
-0.068239 -0.000540 -0.447579
-0.229398 -0.390821 -0.214813
-0.278387 -0.433314 0.097924
0.022733 -0.412283 -0.169295
-0.273384 0.445820 -0.006235
-0.010260 0.390725 -0.216978
-0.277388 0.159923 0.413622
0.006809 0.428295 -0.125542
0.251468 -0.285727 -0.343355
-0.239733 -0.112542 -0.432955
-0.147152 -0.178689 -0.409743
0.270722 0.356027 -0.270250
-0.121531 -0.431400 0.106489
0.090457 -0.356549 0.263902
-0.219054 0.264109 -0.361163
-0.147764 0.071781 0.437300
-0.269260 -0.090930 0.433586
-0.279181 0.032573 -0.446346
0.233984 0.239342 -0.378166
-0.179512 -0.022571 -0.446886
0.179967 -0.091864 -0.437730
-0.063834 0.020390 -0.446987
0.267853 -0.430652 -0.113903
-0.289289 0.441560 0.059175
0.226825 0.429717 0.116295
-0.072190 0.109794 -0.433951
0.061979 0.440178 0.067900
0.087758 0.208445 0.391553
-0.093372 -0.088524 -0.438477
0.170818 -0.028383 -0.446645
-0.154926 -0.434273 -0.097988
-0.030543 0.439677 0.071064
-0.174889 -0.227915 0.379977
0.103221 -0.148390 0.417405
0.195445 0.362013 0.257971
-0.128794 0.324806 -0.307513
-0.014777 0.265299 -0.360240
0.286401 0.445623 0.008146
0.139949 -0.444148 0.022480
-0.231938 0.037135 0.441561
-0.127902 0.445676 -0.010801
-0.271834 -0.401427 -0.193996
-0.194652 -0.098714 0.431846
-0.023239 -0.274205 0.348184
-0.191681 -0.069104 -0.441915
0.276706 -0.184586 -0.407191
-0.032873 0.404419 0.185482
0.236515 0.257846 -0.365590
0.275117 -0.331086 0.294929
0.150353 -0.366702 0.249565
-0.010826 -0.417621 -0.155101
0.139483 0.000647 0.443254
0.146888 -0.241371 0.371737
-0.075309 -0.417987 -0.154084
0.237525 0.103988 0.430896
0.162091 0.370339 -0.250074
-0.148149 -0.261222 -0.362600
-0.179891 -0.437387 0.079053
-0.220061 0.017774 -0.447069
0.185675 0.249678 0.366788
-0.195647 -0.092310 -0.437630
0.234311 -0.444253 0.019118
-0.045423 -0.435895 -0.090735
-0.002235 0.253213 -0.368739
-0.078000 0.427654 0.123395
-0.084781 -0.414014 0.160768
0.097559 -0.236977 0.374618
-0.237234 -0.242180 -0.375540
0.211246 -0.209066 -0.395068
-0.117268 0.091296 0.433733
0.171681 0.442053 0.056066
-0.209730 0.293961 0.332646
0.186579 0.220886 0.384741
-0.162244 -0.261590 -0.362322
-0.264703 -0.323339 0.303601
-0.015597 0.199144 -0.400646
0.273696 -0.444652 0.006427
0.062189 0.125350 -0.429532
0.269147 -0.086752 -0.438873
-0.188489 0.010733 -0.447291
-0.146668 0.422164 0.140977
0.226969 -0.199193 0.395745
-0.054667 -0.069986 -0.441776
-0.205206 -0.042442 0.440963
0.184899 -0.023032 -0.446872
0.129107 0.004560 -0.447485
-0.106295 -0.304597 0.322343
0.183347 0.344506 -0.285103
-0.129226 -0.373759 0.239180
0.273977 -0.266666 0.354031
0.165322 -0.093268 0.433063
0.063873 -0.182416 -0.408130
-0.154265 0.435669 -0.096327
-0.256852 -0.154561 0.415183
0.175951 -0.247141 0.367816
0.223844 0.428405 -0.125164
-0.276695 0.043284 -0.445334
0.206964 -0.341565 0.283043
-0.000111 -0.279613 -0.348342
0.073274 0.026667 -0.446790
-0.037375 -0.315435 0.311505
-0.214400 -0.388535 0.214595
0.228557 -0.414294 0.159990
-0.261247 -0.266106 0.354466
-0.249277 0.444027 0.036808
-0.207933 0.444534 0.031449
0.247336 -0.198346 0.396177
0.211349 0.399252 0.195924
0.212644 -0.033273 -0.446183
-0.108110 -0.400804 -0.195221
-0.075625 -0.444127 -0.027500
0.010073 0.038293 0.441452
-0.178170 0.014596 -0.447169
0.030803 -0.299324 -0.331368
-0.019107 0.025724 -0.446820
0.183836 0.346246 0.278506
0.052030 0.429002 0.118756
-0.235761 0.139148 0.421101
0.053197 -0.251197 -0.369412
-0.232824 0.346823 -0.282115
0.273121 0.378361 0.233531
0.262148 0.307325 0.320640
0.089447 -0.053109 -0.444308
0.051557 0.421761 -0.146450
0.005671 0.378665 0.233017
-0.130483 0.007337 -0.447397
-0.074197 -0.034366 -0.446080
0.131924 -0.258641 0.360000
-0.240947 0.439701 0.070914
0.249374 -0.441914 0.048323
0.259940 -0.402533 0.187472
-0.134595 0.441765 -0.062233
0.215734 -0.292971 -0.336969
-0.156146 0.432061 0.108114
-0.208000 -0.253604 -0.367777
0.226981 0.438350 -0.083798
0.148239 -0.204074 0.393258
-0.005556 -0.217402 -0.390548
0.184443 0.440122 -0.072608
0.226893 0.298509 0.328636
-0.163411 0.284226 -0.345559
0.270372 -0.400185 0.192081
0.007459 0.258448 -0.365181
0.127822 -0.411665 -0.170722
0.149082 0.419663 -0.152277
-0.168292 0.104037 -0.435238
-0.008334 -0.390583 0.210926
-0.198474 0.095906 -0.437056
0.176044 0.273385 0.349615
-0.110558 -0.246291 -0.372747
-0.136220 0.369943 -0.250656
-0.177006 0.382333 0.226814
-0.289670 0.402272 -0.194349
0.030558 -0.441871 -0.053135
-0.054295 -0.084364 -0.439407
-0.247739 -0.397127 0.198083
-0.150923 0.415960 0.158209
0.006936 -0.377885 -0.236956
0.004070 -0.440547 0.059101
0.209552 0.387240 0.218518
0.097082 -0.444052 0.025523
0.229796 -0.189854 -0.404857
-0.255675 0.410255 -0.176348
0.010633 -0.385448 0.219815
-0.175404 0.441254 -0.065464
0.201444 0.103583 -0.435340
0.021925 -0.229228 -0.383555
-0.077257 -0.431689 -0.109548
-0.262092 0.018958 -0.447032
-0.169331 -0.377614 -0.237414
-0.192920 -0.361011 -0.262292
0.105216 0.017605 -0.447075
0.012907 -0.363532 -0.258582
-0.036936 0.130694 -0.427980
-0.024855 -0.271682 -0.354494
0.127596 0.316451 0.311514
0.147685 0.238922 0.374074
0.274860 -0.203988 0.393302
-0.048122 0.132186 -0.427546
0.005300 -0.427442 -0.124953
0.202546 -0.391144 0.209824
0.048342 0.275096 -0.352641
0.108397 0.119252 0.426950
-0.149462 -0.350101 0.272215
-0.254248 -0.436899 -0.086244
0.271012 -0.001824 -0.447538
0.235422 -0.439840 -0.067918
-0.137640 -0.443663 -0.034177
0.165210 -0.213851 -0.392630
-0.270818 -0.420446 0.142903
-0.156952 0.011414 0.442916
-0.264436 0.173311 -0.412514
-0.074080 -0.006853 0.443027
0.189102 -0.263590 -0.360771
0.146089 -0.423782 -0.137550
0.182046 0.188511 -0.405936
0.086165 0.435669 0.091977
0.166029 -0.203696 0.393451
0.050618 0.445130 -0.028198
-0.251259 -0.442725 0.039743
0.111078 -0.442537 -0.046080
0.152421 0.434426 0.097536
0.015850 -0.129428 0.423696
-0.055020 -0.381873 0.225860
-0.267476 0.411642 -0.173144
0.126437 -0.124377 0.425163
-0.255678 0.223275 -0.387681
0.252111 -0.442902 0.037874
-0.129463 0.374571 0.239493
-0.048735 0.311334 -0.320984
0.163187 0.323497 0.304468
0.029487 -0.114593 -0.432359
-0.070407 0.260104 0.359702
-0.263744 -0.081844 0.435544
0.193184 -0.150306 0.416715
0.101243 0.338301 0.287908
0.054411 -0.443913 -0.031524
-0.077916 -0.392270 -0.211969
0.150607 -0.195873 -0.401790
-0.220580 0.226543 0.381395
-0.221200 -0.376544 0.234871
-0.248941 -0.323066 -0.308228
-0.251557 -0.247950 0.367266
-0.132001 -0.406419 -0.182845
-0.065514 0.165153 0.411691
-0.078578 -0.297780 0.328376
-0.109028 0.442795 0.049846
0.110306 0.442447 -0.057873
-0.256740 0.379617 -0.235761
-0.031445 0.004803 0.443123
-0.239418 -0.436367 -0.088620
0.120997 -0.284149 -0.344746
0.276324 0.007860 -0.447381
0.215493 0.430651 0.113081
0.095164 -0.355188 -0.270010
-0.176909 0.329795 0.297556
-0.030828 0.440357 -0.071122
-0.204235 -0.432436 -0.106207
0.274113 -0.164305 -0.415967
0.035989 -0.006825 -0.447381
-0.004863 0.416438 -0.161233
-0.285707 0.352110 -0.275300
0.132997 -0.424702 -0.134383
0.131465 0.443916 -0.042340
-0.009637 -0.055834 -0.444017
-0.207423 0.443392 0.043523
0.132285 0.422122 -0.145446
0.143332 0.091045 0.433789
0.070182 0.412523 0.166754
0.092451 -0.438717 -0.075010
-0.094200 0.332803 0.294144
0.257222 -0.432708 0.100638
0.039487 0.391198 0.211730
-0.059774 0.445517 -0.015882
-0.048389 0.099395 -0.436276
-0.187712 -0.444832 0.000714
0.194037 0.395182 0.203912
-0.225808 0.372471 -0.246937
0.019051 0.334116 -0.297008
-0.019805 -0.409766 -0.175112
-0.186490 -0.055404 -0.444085
-0.009472 0.426432 -0.131956
-0.132293 -0.021578 -0.446918
0.222008 -0.444111 -0.027992
-0.031969 -0.389158 0.213541
0.258574 -0.419996 0.144151
-0.033346 0.341849 -0.288237
-0.047445 -0.192202 0.399307
-0.184758 -0.349669 0.272772
-0.058309 0.375314 -0.242754
0.249397 0.288891 0.337116
0.275692 0.137263 0.421718
0.160278 0.444242 0.034541
0.139197 0.033668 0.441889
-0.245006 -0.422153 0.138160
-0.187466 0.406968 -0.183944
0.137930 -0.207225 0.391653
-0.086624 -0.221577 0.383726
-0.178901 0.154479 0.415582
0.183035 -0.197362 -0.401032
-0.249911 0.445569 0.009853
-0.239023 0.403846 -0.191160
0.261434 -0.312536 -0.318758
-0.219444 0.246132 -0.373551
0.167547 -0.215133 0.387537
-0.220189 -0.338615 -0.290742
0.220158 -0.008580 -0.447326
-0.176676 -0.176440 0.406363
-0.234427 -0.100320 -0.435840
0.022964 -0.325551 -0.305560
-0.279379 -0.441255 0.054630
0.283572 -0.295139 -0.335057
-0.104301 -0.245469 0.368952
0.038213 -0.001981 0.443180
-0.237899 -0.197673 0.396520
-0.279166 -0.389441 -0.217416
-0.106975 -0.287528 -0.341767
0.219248 0.333269 0.293615
-0.099980 -0.437998 0.075195
0.171626 0.037706 -0.445861
0.048482 0.425048 -0.136720
0.154053 -0.132089 0.422923
0.175885 -0.417184 -0.156316
0.221038 0.445196 -0.026094
0.074162 0.172397 0.408556
-0.287785 0.066931 -0.442422
0.283958 -0.264166 -0.360324
-0.157614 0.445314 -0.022326
-0.223962 -0.284886 0.339743
0.275758 0.440868 -0.067899
0.260916 0.435896 -0.095315
-0.015382 0.029168 0.442314
0.008057 -0.315459 -0.315835
-0.114463 0.046192 0.440705
