-0.290288 -0.008836 -0.481933
-0.290288 0.288453 -0.361386
-0.290288 -0.334948 0.298252
-0.290288 0.446236 0.126356
-0.290288 -0.218785 -0.442299
-0.290288 -0.438591 -0.185145
-0.290288 -0.226549 0.440946
-0.290288 0.464861 0.109940
-0.290288 -0.473514 -0.113599
-0.290288 0.432070 0.240542
-0.290288 -0.463852 -0.006566
-0.290288 0.377254 0.322705
-0.290288 0.456442 -0.045185
-0.290288 -0.249470 -0.380117
-0.290288 -0.487243 0.003090
-0.290288 0.309585 -0.337146
-0.290288 0.028281 0.470262
-0.290288 0.309544 0.373982
-0.290288 0.450903 0.145604
-0.290288 -0.032607 0.447380
-0.290288 0.303538 -0.393070
-0.290288 -0.486087 -0.058871
-0.290288 0.439765 0.142172
-0.290288 -0.350465 -0.325752
-0.290288 -0.328170 0.363026
-0.290288 0.113069 -0.473782
-0.290288 0.459343 0.165094
-0.290288 -0.353051 0.319719
-0.290288 0.440190 0.224704
-0.290288 -0.361483 0.305679
-0.290288 -0.327129 -0.369807
-0.290288 0.225997 0.400553
-0.290288 0.450364 -0.165898
-0.290288 0.176725 -0.449455
-0.290288 -0.327022 -0.318303
-0.290288 -0.191454 -0.412799
-0.290288 -0.442051 -0.063401
-0.290288 -0.265198 -0.400991
-0.290288 0.461274 0.137200
-0.290288 -0.392206 0.275036
-0.290288 0.410359 0.280262
-0.290288 -0.352484 -0.334715
-0.290288 -0.386025 -0.253924
-0.290288 -0.094845 0.439281
-0.290288 0.448032 -0.079803
-0.290288 -0.282667 -0.364731
-0.290288 -0.380549 -0.245962
-0.290288 -0.223619 -0.391337
-0.290288 0.058679 0.440072
-0.290288 -0.280190 -0.358904
-0.290288 -0.092262 0.466738
-0.290288 -0.210020 0.394519
-0.290288 0.420770 0.248627
-0.290288 -0.469643 -0.165991
-0.290288 0.445103 0.027313
-0.290288 0.459477 -0.115290
-0.290288 -0.317121 -0.326714
-0.290288 -0.072254 0.448682
-0.290288 0.418353 -0.203065
-0.290288 0.199551 -0.401286
-0.290288 0.184654 0.458432
-0.290288 -0.392486 0.239808
-0.290288 0.273296 0.399143
-0.290288 0.445101 -0.148800
-0.290288 -0.313969 0.351326
-0.290288 0.308702 -0.326265
-0.290288 -0.185804 0.420503
-0.290288 0.253976 0.424940
-0.290288 0.455332 0.137682
-0.290288 -0.121674 0.427203
-0.290288 -0.477078 0.032847
-0.290288 -0.477566 0.062201
-0.290288 0.139698 0.438271
-0.290288 -0.358977 0.311250
-0.290288 0.089926 -0.480526
-0.290288 -0.061890 -0.452181
-0.290288 0.356147 0.317098
-0.290288 -0.212997 0.399834
-0.290288 -0.445394 0.162515
-0.290288 0.190961 0.445117
-0.290288 -0.265581 0.370996
-0.290288 -0.403275 0.186529
-0.290288 -0.224311 0.390159
-0.290288 -0.136583 0.476431
-0.290288 -0.088080 0.478017
-0.290288 0.477874 0.120786
-0.290288 0.436683 -0.226173
-0.290288 0.249108 -0.392188
-0.290288 0.237661 -0.380632
-0.290288 -0.013018 0.463791
-0.290288 -0.315459 -0.365056
-0.290288 -0.147668 -0.461049
-0.290288 0.388721 -0.284076
-0.290288 -0.189338 0.435162
-0.290288 -0.415560 -0.192580
-0.290288 0.434640 -0.147134
-0.290288 -0.116085 0.455726
-0.290288 0.467021 0.161451
-0.290288 -0.460223 0.082558
-0.290288 0.457919 -0.051392
-0.290288 -0.408942 0.215602
-0.290288 0.366369 -0.327462
-0.290288 0.417533 -0.168738
-0.290288 -0.297858 0.334376
-0.290288 -0.375268 -0.301274
-0.290288 -0.344801 0.315874
-0.290288 -0.199725 -0.399921
-0.290288 -0.387974 -0.266165
-0.290288 0.428231 0.236580
-0.290288 -0.073248 -0.471493
-0.290288 0.131238 0.469682
-0.290288 0.156098 -0.462619
-0.290288 -0.374908 -0.241938
-0.290288 -0.212324 -0.427063
-0.290288 -0.204815 -0.404299
-0.290288 0.140398 0.430935
-0.290288 -0.436470 0.181844
-0.290288 0.267042 0.380470
-0.290288 -0.275079 0.376414
-0.290288 -0.446591 0.184725
-0.290288 0.374844 0.240507
-0.290288 0.354983 0.339672
-0.290288 -0.369805 0.282484
-0.290288 0.384963 -0.241781
-0.290288 0.424888 0.166053
-0.290288 0.450467 0.067613
-0.290288 0.393792 0.209981
-0.290288 0.046859 -0.482160
-0.290288 -0.084702 -0.478211
-0.290288 -0.305643 0.364202
-0.290288 0.091065 -0.473607
-0.290288 -0.491804 -0.044249
-0.290288 -0.113390 0.475306
-0.290288 0.150283 -0.460872
-0.290288 0.484235 -0.097648
-0.290288 0.383610 -0.280614
-0.290288 0.242616 0.419268
-0.290288 -0.446855 0.069103
-0.290288 0.467978 -0.083739
-0.290288 0.455557 -0.054584
-0.290288 0.027275 -0.454288
-0.290288 -0.473738 -0.029799
-0.290288 -0.023424 0.451742
-0.290288 0.053204 -0.493588
-0.290288 0.398897 -0.236857
-0.290288 -0.463663 0.107167
-0.290288 0.136549 -0.467012
-0.290288 0.426266 -0.253006
-0.290288 0.412449 0.206328
-0.290288 0.302656 -0.371085
-0.290288 -0.296901 0.351544
-0.290288 -0.240453 -0.407165
-0.290288 -0.373474 -0.307679
-0.290288 0.169989 -0.469866
-0.290288 0.481210 0.124048
-0.290288 0.088679 0.461967
-0.290288 0.017373 -0.485657
-0.290288 0.484356 -0.115092
-0.290288 0.442858 0.110672
-0.290288 0.113663 -0.476937
-0.290288 -0.035558 0.477723
-0.290288 0.377011 0.251082
-0.290288 -0.344893 0.307062
-0.290288 0.050855 -0.463653
-0.290288 -0.212693 0.396112
-0.290288 0.165094 -0.471438
-0.290288 -0.037332 -0.488497
-0.290288 -0.442656 -0.141714
-0.290288 -0.136797 0.455287
-0.290288 -0.215634 -0.404343
-0.290288 0.207177 -0.424119
-0.290288 0.335163 -0.336748
-0.290288 0.178675 0.437900
-0.290288 0.173619 -0.439783
-0.290288 -0.226690 -0.400712
-0.290288 -0.484145 -0.075834
-0.290288 -0.074903 0.454630
-0.290288 0.449222 0.044400
-0.290288 -0.219466 0.439613
-0.290288 -0.380996 0.249361
-0.290288 -0.468493 -0.068133
-0.290288 -0.385743 -0.224252
-0.290288 -0.017479 0.472983
-0.290288 -0.125600 0.425139
-0.290288 0.484223 -0.084989
-0.290288 -0.295367 0.332003
-0.290288 0.339316 0.286774
-0.290288 0.347807 0.302150
-0.290288 0.470899 -0.056629
-0.290288 -0.448421 -0.200066
-0.290288 0.398460 0.234756
-0.290288 -0.098131 -0.457675
-0.290288 0.038015 -0.457372
-0.290288 -0.429672 0.157701
-0.290288 -0.475842 -0.094814
-0.290288 -0.411530 0.249435
-0.290288 0.291806 -0.365565
-0.290288 0.218939 -0.391114
-0.290288 0.454344 -0.008873
-0.290288 -0.484593 -0.102856
-0.290288 0.303322 0.347184
-0.290288 -0.370825 0.267174
-0.290288 -0.227313 -0.384786
-0.290288 0.329670 0.321922
-0.290288 0.351788 -0.348555
-0.290288 0.463402 0.004481
-0.290288 0.291360 0.380374
-0.290288 -0.319121 0.324202
-0.290288 0.444662 0.174622
-0.290288 0.434936 -0.233814
-0.290288 0.428720 -0.218131
-0.290288 0.420518 0.177009
-0.290288 -0.350433 0.300573
-0.290288 -0.260331 0.400654
-0.290288 0.401208 0.292652
-0.290288 0.110679 -0.464956
-0.290288 -0.181742 0.423345
-0.290288 -0.076270 -0.493755
-0.290288 0.320665 0.313522
-0.290288 -0.085179 -0.465675
-0.290288 0.359199 0.302456
-0.290288 0.047332 -0.469437
-0.290288 -0.446034 0.064645
-0.290288 -0.441266 0.178082
-0.290288 -0.150163 -0.468626
-0.290288 -0.460884 -0.147878
-0.290288 0.270097 0.359528
-0.290288 0.100987 0.441711
-0.290288 0.445005 -0.046594
-0.290288 0.459902 -0.188369
-0.290288 0.291757 0.374906
-0.290288 -0.364442 -0.313065
-0.290288 -0.417636 0.200329
-0.290288 0.277472 -0.372473
-0.290288 0.296670 -0.372834
-0.290288 0.338044 0.340713
-0.290288 -0.129605 0.425121
-0.290288 -0.189458 0.439708
-0.290288 0.462514 -0.034374
-0.290288 0.347105 -0.295517
-0.290288 0.441991 0.204109
-0.290288 0.264845 0.417533
-0.290288 -0.453894 0.011434
-0.290288 0.457044 -0.095207
-0.290288 -0.441724 0.118537
-0.290288 0.056500 0.462000
-0.290288 0.496938 -0.001965
-0.290288 0.447473 0.215796
-0.290288 -0.405102 -0.196549
-0.290288 -0.316437 0.361767
-0.290288 0.318156 -0.317816
-0.290288 0.431420 -0.207295
-0.290288 0.266744 0.362280
-0.290288 0.410479 -0.236196
-0.290288 -0.099577 -0.436122
-0.290288 0.430262 0.200482
-0.290288 0.450978 -0.133422
-0.290288 -0.433387 0.208157
-0.290288 -0.461782 0.112068
-0.290288 0.030589 -0.494014
-0.290288 0.188474 -0.423919
-0.290288 -0.428180 -0.194500
-0.290288 -0.028362 -0.495180
-0.290288 -0.128130 0.459162
-0.290288 -0.179788 0.416466
-0.290288 -0.377703 -0.280037
-0.290288 -0.455770 0.070599
-0.290288 -0.251823 -0.396542
-0.290288 0.323147 -0.311562
-0.290288 -0.146552 0.455333
-0.290288 -0.454892 -0.120431
-0.290288 -0.070664 0.462246
-0.290288 -0.445783 0.059794
-0.290288 0.489624 0.090594
-0.290288 0.209039 0.442144
-0.290288 0.458738 -0.082781
-0.290288 -0.092848 0.472657
-0.290288 0.419292 -0.183175
-0.290288 -0.275988 -0.398937
-0.290288 0.379359 0.279660
-0.290288 0.408117 -0.208253
-0.290288 0.147559 -0.455744
-0.290288 0.231791 0.411868
-0.290288 -0.121866 -0.432103
-0.290288 0.024976 0.494814
-0.290288 0.316833 0.320292
-0.290288 -0.156716 -0.443416
-0.290288 -0.350800 0.342816
-0.290288 0.380946 0.229589
-0.290288 0.345750 0.339152
-0.290288 -0.049228 0.452980
-0.290288 0.043792 -0.485616
-0.290288 0.341414 -0.356056
-0.290288 0.342224 0.315095
-0.290288 -0.191625 -0.408655
-0.290288 0.257090 0.404675
-0.290288 -0.461038 -0.120897
-0.290288 -0.157022 -0.430286
-0.290288 -0.320870 0.350824
-0.290288 -0.175817 0.418964
-0.290288 0.299918 -0.373259
-0.290288 0.225566 -0.396868
-0.290288 0.390051 0.250278
-0.290288 0.114978 0.440469
-0.290288 -0.315554 0.312019
-0.290288 -0.009380 -0.500140
-0.290288 -0.410083 0.237551
-0.290288 0.032765 -0.488570
-0.290288 -0.259580 0.417119
-0.290288 0.055509 0.471954
-0.290288 -0.414876 0.251332
-0.290288 0.347648 -0.316043
-0.290288 -0.030072 0.477981
-0.290288 -0.051763 -0.484269
-0.290288 0.405796 0.200048
-0.290288 0.229937 0.414774
-0.290288 0.101323 -0.467401
-0.290288 0.143095 0.458714
-0.290288 -0.352979 -0.293949
-0.290288 -0.065758 -0.481546
-0.290288 -0.152597 -0.455469
-0.290288 -0.113161 -0.441742
-0.290288 -0.473160 0.051748
-0.290288 0.079622 0.441810
-0.290288 -0.439232 -0.097360
-0.290288 -0.448082 -0.119623
-0.290288 0.389388 0.246639
-0.290288 0.083380 -0.459830
-0.290288 -0.115478 -0.485474
-0.290288 0.203809 -0.447000
-0.290288 -0.079532 0.466511
-0.290288 -0.427715 0.220734
-0.290288 -0.431223 -0.142990
-0.290288 -0.450832 -0.047978
-0.290288 0.313195 -0.344519
-0.290288 0.249114 -0.396786
-0.290288 -0.362622 0.280713
-0.290288 0.333315 0.327257
-0.290288 0.453261 -0.094065
-0.290288 0.460978 -0.099811
-0.290288 0.400907 0.271912
-0.290288 0.265784 -0.363627
-0.290288 -0.041812 -0.492906
-0.290288 -0.381285 -0.298712
-0.290288 -0.328031 -0.344873
-0.290288 -0.222281 -0.433364
-0.290288 0.225814 -0.387824
-0.290288 0.470561 -0.063109
-0.290288 0.271572 -0.419758
-0.290288 -0.344642 0.330705
-0.290288 0.153317 0.422293
-0.290288 -0.339773 -0.295901
-0.290288 0.425226 -0.214291
-0.290288 -0.275087 0.356371
-0.290288 0.309532 0.359165
-0.290288 0.375890 0.311828
-0.290288 0.250562 0.424370
-0.290288 -0.383383 0.266814
-0.290288 0.298137 0.371919
-0.290288 -0.407333 -0.240889
-0.290288 -0.302751 0.358886
-0.290288 0.435731 -0.210078
-0.290288 0.443968 0.147710
-0.290288 0.189582 0.401189
-0.290288 -0.381788 0.236698
-0.290288 -0.152558 0.425536
-0.290288 -0.452937 -0.113407
-0.290288 -0.033395 0.465715
-0.290288 -0.331255 0.350049
-0.290288 0.321150 0.329427
-0.290288 0.450597 0.125876
-0.290288 -0.051863 -0.472344
-0.290288 0.361796 -0.263228
-0.290288 0.483336 0.036871
-0.290288 0.229335 0.439265
-0.290288 -0.383397 0.225458
-0.290288 -0.043672 0.447402
-0.290288 0.049686 0.483147
-0.290288 -0.486992 0.057689
-0.290288 -0.467345 -0.132771
-0.290288 -0.425370 0.201127
-0.290288 -0.192385 0.428242
-0.290288 0.238728 0.400037
-0.290288 -0.481233 0.109810
-0.290288 -0.330746 -0.305717
-0.290288 -0.310834 0.316187
-0.290288 0.336265 0.323452
-0.290288 -0.449512 0.198086
-0.290288 -0.218078 -0.397205
-0.290288 -0.371947 0.280280
-0.290288 0.460149 0.038110
-0.290288 -0.049647 0.492781
-0.290288 0.439825 0.121501
-0.290288 0.280501 -0.408868
-0.290288 -0.480479 0.038977
-0.290288 -0.376840 -0.248977
-0.290288 0.427853 0.167611
-0.290288 0.465752 -0.011786
-0.290288 -0.395342 -0.303866
-0.290288 -0.338499 -0.320766
-0.290288 -0.459040 0.171664
-0.290288 0.487403 -0.062322
-0.290288 -0.467989 -0.097382
-0.290288 -0.042354 -0.457703
-0.290288 0.486529 0.063975
-0.290288 -0.492322 0.032198
-0.290288 0.485622 0.045145
-0.290288 -0.493018 -0.040625
-0.290288 0.058030 0.444131
-0.290288 -0.201686 0.448191
-0.290288 0.469725 0.035171
-0.290288 -0.480411 -0.067056
-0.290288 -0.467494 0.082266
-0.290288 -0.436924 -0.127778
-0.290288 -0.376419 0.298595
-0.290288 -0.317362 -0.354787
-0.290288 0.490776 -0.024568
-0.290288 0.039124 -0.461155
-0.290288 -0.423868 -0.248544
-0.290288 -0.032411 0.456897
-0.290288 0.222710 -0.395421
-0.290288 -0.325438 0.368036
-0.290288 0.488630 -0.097272
-0.290288 0.461268 0.067119
-0.290288 -0.293865 0.391434
-0.290288 0.013729 -0.487711
-0.290288 -0.346917 0.349434
-0.290288 -0.451654 0.161947
-0.290288 -0.466951 0.057912
-0.290288 0.259824 0.390881
-0.290288 -0.133649 -0.467897
-0.290288 -0.125860 -0.466550
-0.290288 -0.213127 -0.399331
-0.290288 0.409029 -0.204370
-0.290288 -0.401402 -0.221106
-0.290288 0.171142 0.449734
-0.290288 -0.404091 0.218596
-0.290288 0.334912 -0.364486
-0.290288 0.330624 0.317132
-0.290288 -0.469302 0.067312
-0.290288 0.220249 0.423459
-0.290288 -0.054334 0.452194
-0.290288 -0.468437 0.139368
-0.290288 -0.020931 -0.447340
-0.290288 -0.246191 0.417228
-0.290288 0.415419 -0.227740
-0.290288 0.220184 -0.415010
-0.290288 0.405003 -0.266562
-0.290288 0.338257 0.337135
-0.290288 0.413439 0.182268
-0.290288 -0.429128 0.228957
-0.290288 -0.053255 -0.475316
-0.290288 0.111090 -0.483841
-0.290288 -0.446063 0.001904
-0.290288 0.232171 0.417380
-0.290288 -0.449321 0.175469
-0.290288 0.457496 -0.118977
-0.290288 -0.125071 -0.433348
-0.290288 0.292729 0.354052
-0.290288 -0.412066 -0.170289
-0.290288 0.443232 -0.178298
-0.290288 0.456642 0.006050
-0.290288 -0.454374 -0.023870
-0.290288 0.231326 -0.442973
-0.290288 0.415686 -0.164254
-0.290288 0.195268 0.416732
-0.290288 -0.411980 0.187544
-0.290288 -0.035839 0.491269
-0.290288 -0.338242 -0.337343
-0.290288 -0.369334 0.317873
-0.290288 0.130227 -0.476470
-0.290288 -0.130920 0.468968
-0.290288 0.139852 -0.447258
-0.290288 -0.464723 0.032880
-0.290288 -0.071316 0.440717
-0.290288 0.157884 -0.443980
-0.290288 0.023838 -0.479601
-0.290288 -0.425935 0.239087
-0.290288 0.461214 -0.134008
-0.290288 -0.470856 0.099010
-0.290288 -0.400740 0.220134
-0.290288 -0.126302 -0.437623
-0.290288 0.293850 0.382580
-0.290288 -0.496039 0.032269
-0.290288 -0.270482 -0.394970
-0.290288 0.327214 0.355022
-0.290288 0.052126 -0.486612
-0.290288 -0.119905 -0.484447
-0.290288 0.454571 -0.117712
-0.290288 0.121958 0.426484
-0.290288 -0.382823 -0.270442
-0.290288 0.358003 -0.274738
-0.290288 -0.452207 0.177384
-0.290288 -0.132273 0.460956
-0.290288 0.354160 0.269029
-0.290288 0.245933 -0.430017
-0.290288 -0.466576 -0.022770
-0.290288 0.470860 0.157662
-0.290288 0.440128 -0.152883
-0.290288 0.249725 0.398604
-0.290288 0.484447 -0.029803
-0.290288 0.294587 -0.377036
-0.290288 -0.402274 -0.254120
-0.290288 -0.417519 0.245795
-0.290288 -0.468007 -0.018721
-0.290288 0.288683 -0.394854
-0.290288 -0.395863 -0.212770
-0.290288 0.057898 -0.471360
-0.290288 -0.205158 0.438970
-0.290288 -0.207313 0.418368
-0.290288 -0.297106 -0.358884
-0.290288 0.367873 0.257857
-0.290288 0.435814 -0.229794
-0.290288 0.042289 -0.471387
-0.290288 -0.483607 -0.002634
-0.290288 -0.403056 -0.232573
-0.290288 -0.082773 0.486959
-0.290288 0.183582 0.453662
-0.290288 -0.468499 -0.002059
-0.290288 0.419776 -0.253367
-0.290288 0.456367 0.014242
-0.290288 0.427792 -0.168250
-0.290288 -0.379333 -0.292094
-0.290288 0.185670 0.433386
-0.290288 0.444300 -0.210425
-0.290288 -0.422413 0.152146
-0.290288 0.345634 0.351123
-0.290288 0.283540 -0.367788
-0.290288 0.052615 -0.444929
-0.290288 0.255919 0.412664
-0.290288 0.351916 -0.330889
-0.290288 0.255041 -0.423479
-0.290288 0.447311 0.048921
-0.290288 -0.313147 0.376249
-0.290288 -0.157857 0.444973
-0.290288 -0.492941 -0.066266
-0.290288 -0.309749 -0.360517
-0.290288 -0.488705 -0.006536
-0.290288 -0.059693 0.464744
-0.290288 -0.311232 -0.365029
-0.290288 0.058538 0.491444
-0.290288 -0.276631 -0.390992
-0.290288 0.164734 -0.440513
-0.290288 -0.097742 0.435908
-0.290288 0.305975 0.343729
-0.290288 0.378104 -0.263837
-0.290288 0.434231 -0.119613
-0.290288 -0.040842 0.493964
-0.290288 -0.341066 0.337957
-0.290288 -0.493614 0.041091
-0.290288 0.241095 -0.437536
-0.290288 -0.088077 0.484737
-0.290288 -0.008402 -0.469699
-0.290288 0.345293 0.333037
-0.290288 0.131969 0.476523
-0.290288 0.109012 -0.458536
-0.290288 -0.475459 0.140188
-0.290288 -0.392024 -0.237508
-0.290288 0.215638 0.409681
-0.290288 -0.448359 0.172144
-0.290288 0.015953 0.490193
-0.290288 0.312051 -0.324349
-0.290288 -0.380503 -0.250903
-0.290288 0.476337 0.060906
-0.290288 0.449702 -0.073458
-0.290288 0.269841 -0.368349
-0.290288 -0.349912 -0.344913
-0.290288 -0.465229 -0.015585
-0.290288 0.220173 -0.403841
-0.290288 0.114006 -0.442674
-0.290288 -0.178086 -0.451103
-0.290288 0.172441 -0.443491
-0.290288 0.147606 0.418297
-0.290288 0.146371 -0.462912
-0.290288 -0.484781 0.090191
-0.290288 -0.298992 -0.393137
-0.290288 0.080131 -0.488660
-0.290288 0.003619 0.469675
-0.290288 0.459087 -0.027315
-0.290288 0.491067 0.010729
-0.290288 0.415582 0.210202
-0.290288 -0.059618 0.480416
-0.290288 0.047686 0.469149
-0.290288 0.017108 -0.449366
-0.290288 -0.161192 -0.425805
-0.290288 0.394513 -0.293520
-0.290288 -0.237640 -0.379361
-0.290288 0.359194 0.262521
-0.290288 0.262392 -0.425792
-0.290288 -0.304770 -0.390173
-0.290288 0.016944 0.462443
-0.290288 -0.459461 -0.191480
-0.290288 -0.458989 0.099925
-0.290288 0.479529 0.029669
-0.290288 0.425838 0.221003
-0.290288 0.268402 -0.390193
-0.290288 0.067768 -0.494380
-0.290288 -0.443644 -0.203212
-0.290288 -0.442611 0.182611
-0.290288 -0.442681 0.095009
-0.290288 0.137661 0.474221
-0.290288 0.448699 -0.191539
-0.290288 0.198533 -0.452614
-0.290288 -0.439505 -0.071902
-0.290288 -0.442906 -0.115122
-0.290288 -0.445346 0.022263
-0.290288 -0.434893 0.175274
-0.290288 0.124985 -0.471830
-0.290288 -0.451273 0.039636
-0.290288 0.317822 -0.346964
-0.290288 -0.124217 -0.477685
-0.290288 -0.143817 -0.451299
-0.290288 -0.375512 -0.268562
-0.290288 -0.328566 0.301642
-0.290288 0.157103 0.453143
-0.290288 0.007104 -0.486628
-0.290288 0.408558 0.197562
-0.290288 0.201263 -0.436308
-0.290288 0.144032 -0.451894
-0.290288 -0.154729 -0.420665
-0.290288 -0.396269 0.202640
-0.290288 -0.415908 -0.188452
-0.290288 0.472130 0.016892
-0.290288 -0.166465 -0.470535
-0.290288 -0.437337 0.234349
-0.290288 0.451580 -0.172282
-0.290288 0.146649 0.429290
-0.290288 -0.051099 -0.458859
-0.290288 0.199886 -0.433366
-0.290288 0.448649 -0.140453
-0.290288 0.344790 -0.347999
-0.290288 0.008290 -0.450282
-0.290288 0.007979 0.451839
-0.290288 -0.250380 -0.393253
-0.290288 0.056161 -0.452344
-0.290288 0.178738 -0.424785
-0.290288 -0.472625 0.044467
-0.290288 -0.331950 0.301602
-0.290288 -0.265386 0.413019
-0.290288 -0.364586 -0.303179
-0.290288 0.491967 0.037266
-0.290288 -0.459255 0.073774
-0.290288 0.426507 -0.141820
-0.290288 -0.447939 -0.033795
-0.290288 0.037067 -0.491979
-0.290288 0.312754 0.331020
-0.290288 -0.465459 0.017182
-0.290288 -0.414032 0.263932
-0.290288 0.430942 -0.122992
-0.290288 0.448104 0.082347
-0.290288 0.046636 0.455442
-0.290288 -0.229436 -0.437152
-0.290288 0.034505 0.449946
-0.290288 0.175073 -0.411783
-0.290288 0.477862 -0.010191
-0.290288 0.039821 -0.465293
-0.290288 -0.458637 -0.041145
-0.290288 -0.225066 0.436810
-0.290288 0.493575 0.016883
-0.290288 0.075818 0.466620
-0.290288 0.202704 -0.432191
-0.290288 0.489161 -0.079038
-0.290288 -0.471644 -0.144375
-0.290288 0.474815 0.147880
-0.290288 0.316107 -0.380727
-0.290288 0.415102 -0.216560
-0.290288 -0.157843 0.436075
-0.290288 0.023202 -0.475855
-0.290288 0.101799 0.455674
-0.290288 0.445630 -0.213313
-0.290288 -0.467721 0.007277
-0.290288 -0.045988 0.492887
-0.290288 0.427509 0.209229
-0.290288 0.263416 0.379016
-0.290288 -0.470293 -0.152111
-0.290288 0.340201 0.310411
-0.290288 -0.411991 -0.196942
-0.290288 0.413739 -0.204036
-0.290288 0.071907 0.450942
-0.290288 -0.278498 -0.405189
-0.290288 0.282183 -0.402550
-0.290288 0.475673 0.024408
-0.290288 -0.486760 0.079268
-0.290288 -0.354952 0.340292
-0.290288 -0.006543 0.483145
-0.290288 0.364209 -0.260468
-0.290288 0.338937 -0.367350
-0.290288 -0.143628 0.452972
-0.290288 0.409242 -0.187738
-0.290288 -0.340977 -0.314314
-0.290288 0.104593 -0.442019
-0.290288 -0.372797 -0.253641
-0.290288 -0.443767 0.140902
-0.290288 -0.388137 0.218359
-0.290288 0.222893 0.390765
-0.290288 0.176822 0.435028
-0.290288 0.141493 0.427496
-0.290288 -0.250156 0.395496
-0.290288 0.065036 0.439351
-0.290288 -0.455348 -0.020592
-0.290288 0.332988 -0.305362
-0.290288 -0.378525 -0.304236
-0.290288 -0.161678 0.468028
-0.290288 0.128933 -0.469456
-0.290288 -0.071351 -0.453515
-0.290288 -0.427200 0.167558
-0.290288 -0.099913 -0.447046
-0.290288 -0.132665 -0.476247
-0.290288 0.102100 0.461568
-0.290288 -0.471865 -0.041168
-0.290288 -0.435599 0.115112
-0.290288 -0.280353 0.368337
-0.290288 0.061043 0.482211
-0.290288 -0.091444 -0.469782
-0.290288 0.404479 0.204568
-0.290288 -0.353357 -0.352297
-0.290288 0.303249 0.366633
-0.290288 -0.288286 -0.398311
-0.290288 0.088838 0.452136
-0.290288 -0.134589 0.447474
-0.290288 0.433920 0.101320
-0.290288 0.273193 0.351793
-0.290288 0.004470 0.450710
-0.290288 0.070912 0.447549
-0.290288 -0.126102 -0.449482
-0.290288 0.282120 0.352009
-0.290288 -0.287178 -0.380549
-0.290288 -0.423723 -0.137826
-0.290288 0.429292 0.228511
-0.290288 -0.455774 -0.094898
-0.290288 -0.256343 -0.427275
-0.290288 0.346096 -0.341797
-0.290288 0.300823 -0.363921
-0.290288 0.346343 -0.319181
-0.290288 -0.233031 0.419382
-0.290288 0.110420 -0.444966
-0.290288 -0.317654 0.371267
-0.290288 -0.451152 -0.064921
-0.290288 -0.254142 -0.405581
-0.290288 0.389163 0.295286
-0.290288 0.185954 0.442663
-0.290288 0.047358 -0.472884
-0.290288 -0.012095 0.442885
-0.290288 -0.453172 -0.123122
-0.290288 -0.429695 0.192609
-0.290288 0.445385 0.017371
-0.290288 0.455732 0.075184
-0.290288 -0.240194 0.372804
-0.290288 -0.151360 -0.432095
-0.290288 0.280569 -0.349035
-0.290288 -0.329644 -0.302103
-0.290288 -0.298487 0.386876
-0.290288 -0.308234 -0.323762
-0.290288 -0.229108 0.409247
-0.290288 -0.291601 -0.405476
-0.290288 0.365731 -0.310383
-0.290288 -0.339670 0.302062
-0.290288 0.433302 -0.227479
-0.290288 -0.083693 0.464015
-0.290288 -0.212956 0.403484
-0.290288 0.029144 -0.450362
-0.290288 -0.294684 0.398583
-0.290288 -0.260961 -0.402090
-0.290288 -0.250694 -0.405107
-0.290288 0.350992 -0.298688
-0.290288 -0.308399 0.387082
-0.290288 -0.209182 -0.453160
-0.290288 0.333615 0.362522
-0.290288 0.277583 -0.410572
-0.290288 0.117952 -0.431850
-0.290288 -0.389362 0.298425
-0.290288 0.459792 -0.086425
-0.290288 -0.415371 0.171603
-0.290288 -0.147826 -0.434228
-0.290288 0.443130 0.137899
-0.290288 -0.431928 0.204971
-0.290288 -0.104657 -0.440028
-0.290288 -0.259549 0.406303
-0.290288 0.449370 -0.188280
-0.290288 0.361883 -0.336488
-0.290288 0.377071 0.319032
-0.290288 0.234752 0.392561
-0.290288 0.460561 0.180569
-0.290288 0.137868 -0.426097
-0.290288 -0.458341 -0.002141
-0.290288 -0.466185 -0.163299
-0.290288 -0.301666 0.334801
-0.290288 0.073452 -0.447167
-0.290288 -0.039769 0.490640
-0.290288 0.116224 0.473823
-0.290288 0.240878 0.387785
-0.290288 -0.057273 -0.446861
-0.290288 0.417678 0.160903
-0.290288 0.257516 -0.400189
-0.290288 -0.336016 0.334158
-0.290288 0.221784 -0.407561
-0.290288 0.149678 -0.432985
-0.290288 -0.403065 0.287094
-0.290288 -0.434196 -0.229508
-0.290288 -0.459385 -0.157599
-0.290288 -0.437701 0.109223
-0.290288 -0.410664 0.223631
-0.290288 0.300279 0.329059
-0.290288 0.479501 -0.005667
-0.290288 -0.134759 0.451128
-0.290288 0.037256 -0.488851
-0.290288 0.275764 0.354288
-0.290288 0.230497 -0.403035
-0.290288 0.314466 -0.326726
-0.290288 -0.119155 -0.451398
-0.290288 0.036819 0.447611
-0.290288 0.451030 0.168040
-0.290288 -0.473187 -0.120010
-0.290288 -0.430528 -0.127688
-0.290288 0.102762 0.464835
-0.290288 -0.388911 -0.226920
-0.290288 0.298257 -0.378830
-0.290288 0.471231 0.146387
-0.290288 0.037383 -0.449424
-0.290288 0.308750 -0.375065
-0.290288 -0.457772 0.021449
-0.290288 0.015989 0.483980
-0.290288 0.436995 0.153745
-0.290288 0.484960 0.112035
-0.290288 -0.255871 0.391638
-0.290288 0.012462 0.470778
-0.290288 -0.037934 -0.456238
-0.290288 0.458645 0.124791
-0.290288 -0.320466 -0.372750
-0.290288 -0.442897 0.175191
-0.290288 0.117266 -0.443789
-0.290288 -0.486869 -0.085605
-0.290288 0.173609 -0.450241
-0.290288 0.217537 0.412950
-0.290288 0.301769 -0.367672
-0.290288 0.211756 -0.436795
-0.290288 -0.085277 -0.469575
-0.290288 -0.425833 -0.216038
-0.290288 0.099885 -0.486054
-0.290288 -0.274332 -0.368551
-0.290288 -0.107246 -0.450808
-0.290288 -0.451646 -0.006565
-0.290288 -0.405071 0.281609
-0.290288 -0.458903 0.141363
-0.290288 0.120009 -0.458765
-0.290288 0.257215 0.386331
-0.290288 -0.382457 -0.280708
-0.290288 0.442050 -0.064632
-0.290288 -0.203774 -0.425674
-0.290288 -0.467983 0.062010
-0.290288 0.463618 0.057208
-0.290288 0.109342 0.441850
-0.290288 0.036258 -0.462406
-0.290288 -0.480893 0.045310
-0.290288 0.463728 0.037834
-0.290288 -0.458853 0.190120
-0.290288 -0.101016 0.441794
-0.290288 -0.485466 0.054991
-0.290288 -0.183162 -0.413333
-0.290288 -0.405466 -0.289813
-0.290288 0.451421 -0.037806
-0.290288 0.330677 0.360039
-0.290288 -0.057755 0.447324
-0.290288 -0.373759 -0.250638
-0.290288 0.380919 -0.308457
-0.290288 -0.113477 0.468190
-0.290288 -0.271318 0.356248
-0.290288 -0.446333 -0.061328
-0.290288 -0.105503 0.474428
-0.290288 -0.286814 -0.350304
-0.290288 0.413304 0.243599
-0.290288 0.207438 -0.427997
-0.290288 -0.398457 -0.217957
-0.290288 0.232802 0.377724
-0.290288 0.355891 0.296152
-0.290288 -0.199295 -0.450745
-0.290288 0.467356 -0.029759
-0.290288 0.437919 0.099429
-0.290288 -0.413099 -0.190259
-0.290288 -0.328087 -0.366270
-0.290288 -0.426491 0.141678
-0.290288 -0.016681 0.464644
-0.290288 -0.260676 -0.389945
-0.290288 0.206497 0.424678
-0.290288 -0.097526 0.442277
-0.290288 -0.426698 0.159385
-0.290288 -0.099507 0.459548
-0.290288 0.309306 0.369700
-0.290288 0.379136 0.241311
-0.290288 -0.365643 -0.275509
-0.290288 -0.342181 0.342242
-0.290288 0.160853 -0.439184
-0.290288 -0.014003 -0.459719
-0.290288 -0.387839 0.294305
-0.290288 -0.214510 -0.410496
-0.290288 -0.096821 0.469979
-0.290288 0.434556 -0.213969
-0.290288 0.296955 -0.364312
-0.290288 0.110686 -0.471081
-0.290288 0.228024 -0.394877
-0.290288 0.303476 0.326180
-0.290288 -0.479966 0.015858
-0.290288 0.469375 -0.010363
-0.290288 0.422989 -0.204894
-0.290288 -0.290345 -0.364704
-0.290288 0.276339 -0.375562
-0.290288 0.215148 0.438275
-0.290288 -0.404104 -0.279515
-0.290288 0.439485 0.221102
-0.290288 -0.227575 -0.403733
-0.290288 0.441608 -0.181976
-0.290288 0.451079 0.089840
-0.290288 -0.459899 -0.078284
-0.290288 0.458533 -0.185082
-0.290288 0.055553 0.487912
-0.290288 0.013319 0.464519
-0.290288 0.477826 0.012985
-0.290288 0.151754 -0.470026
-0.290288 -0.329938 0.297423
-0.290288 -0.475994 -0.135162
-0.290288 0.251402 0.367039
-0.290288 -0.347435 -0.309185
-0.290288 -0.231452 0.379897
-0.290288 -0.409782 0.270981
-0.290288 -0.458600 0.054999
-0.290288 -0.331368 -0.358276
-0.290288 0.310849 0.349825
-0.290288 0.318066 -0.372699
-0.290288 -0.195324 0.401143
-0.290288 0.439594 -0.097261
-0.290288 -0.465753 -0.038442
-0.290288 -0.443698 0.062364
-0.290288 0.133725 0.464734
-0.290288 -0.375437 -0.310757
-0.290288 0.237645 0.410563
-0.290288 -0.385558 -0.306265
-0.290288 0.337386 0.294227
-0.290288 -0.231326 0.422210
-0.290288 0.077208 -0.464922
-0.290288 -0.215839 0.401628
-0.290288 -0.250477 -0.401691
-0.290288 0.043617 0.445038
-0.290288 0.442960 -0.056126
-0.290288 0.156214 0.466487
-0.290288 -0.393773 0.258909
-0.290288 0.183701 0.418371
-0.290288 -0.097450 -0.467073
-0.290288 -0.288715 -0.346486
-0.290288 0.184483 0.403372
-0.290288 0.481301 -0.091102
-0.290288 0.470319 0.160707
-0.290288 -0.427318 0.195088
-0.290288 -0.332774 0.305698
-0.290288 -0.473276 0.081705
-0.290288 0.098815 0.473327
-0.290288 -0.494597 0.044695
-0.290288 0.098954 -0.479266
-0.290288 0.291016 -0.376035
-0.290288 0.277766 -0.350584
-0.290288 -0.260833 -0.411075
-0.290288 -0.490054 -0.083018
-0.290288 0.264607 0.388926
-0.290288 -0.382108 -0.238320
-0.290288 0.033275 -0.464133
-0.290288 -0.121186 -0.479508
-0.290288 -0.395928 0.231046
-0.290288 0.273038 -0.387775
-0.290288 0.323961 0.348289
-0.290288 -0.266091 -0.369292
-0.290288 0.048084 -0.486021
-0.290288 0.027200 -0.469804
-0.290288 -0.450525 0.194984
-0.290288 -0.143511 0.473491
-0.290288 0.478575 0.017123
-0.290288 0.189222 0.421864
-0.290288 0.450348 -0.154498
-0.290288 -0.437912 0.176835
-0.290288 0.428256 0.239952
-0.290288 -0.355527 0.302258
-0.290288 0.390814 -0.290021
-0.290288 0.120892 -0.442380
-0.290288 -0.399119 0.287993
-0.290288 0.214651 0.399542
-0.290288 -0.386093 0.222104
-0.290288 -0.377352 -0.271393
-0.290288 0.451378 0.046503
-0.290288 0.266564 -0.405843
-0.290288 -0.379860 0.297863
-0.290288 -0.251700 -0.417293
-0.290288 0.369037 -0.269131
-0.290288 0.487862 0.010802
-0.290288 0.479978 -0.086156
-0.290288 0.049768 0.479330
-0.290288 -0.367566 -0.279799
-0.290288 0.410917 -0.175800
-0.290288 0.252017 -0.399268
-0.290288 -0.250073 -0.426714
-0.290288 -0.400747 -0.257943
-0.290288 -0.449175 -0.107094
-0.290288 -0.339722 -0.357519
-0.290288 0.357249 -0.288462
-0.290288 -0.451182 0.013916
-0.290288 0.098106 -0.472632
-0.290288 -0.314925 0.373623
-0.290288 -0.147625 -0.440670
-0.290288 -0.207474 0.425566
-0.290288 -0.051663 0.471659
-0.290288 -0.467697 0.135745
-0.290288 0.428278 0.233260
-0.290288 -0.201374 -0.413193
-0.290288 0.183094 0.431372
-0.290288 -0.334560 -0.352546
-0.290288 -0.185061 -0.407889
-0.290288 -0.128867 -0.472285
-0.290288 0.366146 0.308539
-0.290288 0.419074 0.203937
-0.290288 0.270032 -0.417019
-0.290288 0.252572 -0.427740
-0.290288 -0.046820 0.449632
-0.290288 -0.276824 -0.415490
-0.290288 -0.197071 0.412362
-0.290288 0.397655 0.256920
-0.290288 0.241712 -0.418532
-0.290288 -0.134387 -0.429792
-0.290288 0.356836 -0.340171
-0.290288 -0.249814 -0.371634
-0.290288 0.285466 0.398436
-0.290288 -0.397700 -0.226250
-0.290288 0.468954 -0.090454
-0.290288 -0.446076 0.074086
-0.290288 -0.139860 -0.427885
-0.290288 -0.256333 -0.416572
-0.290288 0.462996 0.048449
-0.290288 0.311400 -0.328388
-0.290288 0.252210 0.370983
-0.290288 -0.469898 0.159873
-0.290288 0.130075 -0.458701
-0.290288 -0.167453 -0.433792
-0.290288 -0.140570 -0.464952
-0.290288 -0.065974 -0.442761
-0.290288 -0.064860 0.475370
-0.290288 -0.272641 -0.417799
-0.290288 0.425173 0.183735
-0.290288 -0.394790 0.220729
-0.290288 -0.149040 0.451053
-0.290288 0.119865 0.462428
-0.290288 0.469900 0.073863
-0.290288 -0.336582 0.364095
-0.290288 -0.229924 -0.405956
-0.290288 0.284397 0.395217
-0.290288 0.216889 0.392679
-0.290288 0.456054 0.117791
-0.290288 0.299501 0.349798
-0.290288 0.458560 0.104618
-0.290288 0.201855 0.436787
-0.290288 0.094777 -0.448913
-0.290288 -0.301710 -0.389359
-0.290288 0.237526 -0.393509
-0.290288 0.280308 -0.352903
-0.290288 0.390508 0.226861
-0.290288 -0.260283 -0.381399
-0.290288 -0.033246 -0.447238
-0.290288 0.096313 -0.482238
-0.290288 -0.406707 -0.225628
-0.290288 0.060720 0.485441
-0.290288 -0.373092 -0.322049
-0.290288 -0.149788 0.432092
-0.290288 0.457906 0.062152
-0.290288 0.455958 0.142986
-0.290288 -0.188605 -0.455088
-0.290288 -0.223107 -0.404645
-0.290288 -0.220927 -0.393882
-0.290288 -0.374716 -0.295080
-0.290288 0.415556 -0.212821
-0.290288 -0.435729 -0.242003
-0.290288 0.444818 0.067840
-0.290288 0.478794 -0.140473
-0.290288 -0.154751 -0.459529
-0.290288 0.357823 -0.307512
-0.290288 0.463748 0.051545
-0.290288 0.446644 0.211371
-0.290288 0.088630 0.434539
-0.290288 -0.306537 -0.332592
-0.290288 0.236663 0.421094
-0.290288 0.186702 -0.435204
-0.290288 -0.477840 0.119618
-0.290288 0.384633 0.297508
-0.290288 0.486359 -0.094952
-0.290288 0.423515 0.241982
-0.290288 0.309375 -0.381122
-0.290288 -0.371869 0.312039
-0.290288 0.151664 -0.445193
-0.290288 0.450585 -0.081552
-0.290288 0.424142 0.209798
-0.290288 0.283265 -0.373895
-0.290288 -0.385220 -0.238463
-0.290288 -0.359188 0.316106
-0.290288 0.392782 0.262069
-0.290288 0.222049 -0.439004
-0.290288 0.494079 -0.041795
-0.290288 0.160175 0.454102
-0.290288 -0.159411 -0.473387
-0.290288 0.155951 0.437324
-0.290288 -0.137557 0.432270
-0.290288 0.039297 0.473114
-0.290288 0.403223 0.262720
-0.290288 -0.433240 -0.113135
-0.290288 0.245931 0.418275
-0.290288 0.176886 0.461846
-0.290288 -0.245288 -0.397152
-0.290288 -0.354700 -0.320946
-0.290288 -0.124444 0.464510
-0.290288 0.290635 0.386963
-0.290288 -0.139649 0.474575
-0.290288 0.028199 -0.459883
-0.290288 0.277073 -0.385264
-0.290288 -0.060932 0.447688
-0.290288 -0.393997 0.216161
-0.290288 -0.464135 -0.174540
-0.290288 0.239256 -0.403781
-0.290288 -0.467929 -0.057383
-0.290288 -0.455768 -0.036799
-0.290288 0.450895 -0.181472
-0.290288 -0.171720 -0.418227
-0.290288 0.391563 -0.281584
-0.290288 0.171115 0.461740
-0.290288 0.180713 0.448995
-0.290288 0.476254 -0.003978
-0.290288 0.137346 0.449645
-0.290288 0.270469 0.414628
-0.290288 -0.017636 0.452370
-0.290288 0.440507 0.208253
-0.290288 -0.212602 0.439335
-0.290288 0.132494 0.423664
-0.290288 0.303414 0.388349
-0.290288 0.342616 -0.362023
-0.290288 -0.300148 0.352523
-0.290288 0.078519 -0.483908
-0.290288 -0.420396 -0.170592
-0.290288 -0.463824 0.149864
-0.290288 0.169562 -0.427295
-0.290288 -0.327337 -0.373304
-0.290288 0.091162 -0.443210
-0.290288 0.247189 -0.413847
-0.290288 -0.293386 -0.342157
-0.290288 -0.307445 -0.391758
-0.290288 -0.018863 0.445215
-0.290288 0.305222 -0.346831
-0.290288 -0.299608 0.348529
-0.290288 -0.146130 0.445539
-0.290288 -0.474714 0.084580
-0.290288 -0.319240 0.355488
-0.290288 0.453269 -0.107436
-0.290288 0.259375 -0.413927
-0.290288 -0.002938 0.484155
-0.290288 -0.468033 0.118711
-0.290288 0.019824 0.494889
-0.290288 0.091216 0.470622
-0.290288 -0.357283 0.335635
-0.290288 0.387085 0.287240
-0.290288 -0.253682 0.422755
-0.290288 -0.175535 0.407130
-0.290288 -0.212084 -0.394847
-0.290288 0.428599 -0.138106
-0.290288 0.455667 0.199814
-0.290288 0.104702 0.443730
-0.290288 -0.025088 0.471149
-0.290288 0.251895 0.395485
-0.290288 0.313492 -0.338378
-0.290288 -0.067095 0.441415
-0.290288 0.174930 0.437633
-0.290288 0.442755 -0.096632
-0.290288 0.271698 0.356788
-0.290288 0.478816 -0.020889
-0.290288 0.062315 0.467378
-0.290288 0.355673 0.312330
-0.290288 0.012238 -0.447744
-0.290288 0.135795 0.423493
-0.290288 -0.483652 0.100021
-0.290288 0.286478 -0.384218
-0.290288 0.443297 0.199578
-0.290288 0.320510 0.378512
-0.290288 -0.262630 -0.419441
-0.290288 -0.324320 0.306740
-0.290288 0.367809 0.250041
-0.290288 -0.253875 -0.392547
-0.290288 0.399976 0.269014
-0.290288 -0.176478 0.457996
-0.290288 -0.472745 0.152252
-0.290288 0.477487 0.001457
-0.290288 -0.298496 0.376834
-0.290288 -0.326362 -0.334231
-0.290288 -0.457417 0.017764
-0.290288 -0.440172 0.064068
-0.290288 0.008138 0.459172
-0.290288 -0.170519 -0.442794
-0.290288 0.246084 -0.425583
-0.290288 -0.275508 -0.356130
-0.290288 0.445951 -0.172239
-0.290288 0.379834 -0.238649
-0.290288 -0.315265 -0.329788
-0.290288 -0.411734 0.267048
-0.290288 0.250250 -0.410495
-0.290288 0.155080 0.441762
-0.290288 0.325493 0.352349
-0.290288 -0.248401 0.387129
-0.290288 0.211450 -0.408907
-0.290288 -0.304387 0.327874
-0.290288 0.011815 0.489904
-0.290288 0.436474 -0.098481
-0.290288 -0.412558 0.257611
-0.290288 -0.456751 -0.012939
-0.290288 -0.406366 0.239257
-0.290288 -0.306376 -0.351543
-0.290288 0.221751 -0.389136
-0.290288 0.454920 0.011326
-0.290288 0.339695 -0.326809
-0.290288 -0.214640 0.414213
-0.290288 -0.179749 0.433715
-0.290288 -0.478902 -0.016060
-0.290288 0.360600 -0.280156
-0.290288 0.478203 0.047344
-0.290288 -0.232657 -0.392123
-0.290288 -0.396017 0.264199
-0.290288 -0.391609 -0.282504
-0.290288 0.081831 0.469000
-0.290288 0.291451 0.390877
-0.290288 -0.389494 0.249965
-0.290288 -0.395287 0.241926
-0.290288 0.288921 0.377010
-0.290288 -0.421017 0.188947
-0.290288 -0.318726 0.367247
-0.290288 0.110006 -0.461748
-0.290288 0.167949 0.433375
-0.290288 -0.456134 0.187999
-0.290288 -0.472313 0.091267
-0.290288 -0.403070 -0.242808
-0.290288 0.456811 -0.140618
-0.290288 0.163339 0.437847
-0.290288 -0.288430 0.357560
-0.290288 0.487341 0.023165
-0.290288 0.451169 -0.111293
-0.290288 -0.312619 -0.371845
-0.290288 0.431507 0.179097
-0.290288 -0.120429 0.474410
-0.290288 -0.383093 0.298114
-0.290288 -0.135055 0.462194
-0.290288 -0.144945 -0.459217
-0.290288 0.333349 0.312273
-0.290288 -0.022459 -0.477878
-0.290288 -0.162265 0.434779
-0.290288 0.354908 0.327076
-0.290288 -0.395472 -0.269562
-0.290288 -0.422274 -0.206883
-0.290288 0.167843 0.445444
-0.290288 -0.479686 -0.057902
-0.290288 -0.450951 -0.074972
-0.290288 -0.100104 -0.472886
-0.290288 0.405466 -0.205070
-0.290288 0.107562 -0.447859
-0.290288 -0.378073 0.316987
-0.290288 -0.234442 -0.400691
-0.290288 0.428663 0.132837
-0.290288 0.259884 0.379844
-0.290288 -0.429565 0.234959
-0.290288 0.388790 -0.241544
-0.290288 0.452906 -0.190796
-0.290288 0.447090 0.103068
-0.290288 -0.398746 0.260876
-0.290288 -0.022634 -0.462599
-0.290288 0.061345 -0.490978
-0.290288 -0.454646 -0.176997
-0.290288 -0.452377 -0.054887
-0.290288 -0.490188 0.001196
-0.290288 -0.373800 0.296610
-0.290288 0.460731 0.108650
-0.290288 0.425774 -0.145090
-0.290288 -0.311944 -0.343599
-0.290288 0.382598 0.249974
-0.290288 -0.424456 -0.158479
-0.290288 -0.459093 -0.154333
-0.290288 0.029040 0.473977
-0.290288 0.396795 -0.290038
-0.290288 0.021823 -0.492821
-0.290288 0.361689 0.313575
-0.290288 0.348338 0.288170
-0.290288 -0.201940 0.396233
-0.290288 -0.435199 -0.223688
-0.290288 0.432765 -0.193017
-0.290288 -0.029804 0.462661
-0.290288 0.225713 0.413513
-0.290288 0.378767 -0.248182
-0.290288 -0.217735 0.410064
-0.290288 -0.378527 -0.300943
-0.290288 -0.463246 -0.013242
-0.290288 -0.444782 -0.125094
-0.290288 -0.147162 0.464849
-0.290288 0.283387 -0.347410
-0.290288 0.344770 -0.353724
-0.290288 -0.343826 0.333956
-0.290288 0.113676 -0.481178
-0.290288 0.369535 -0.311344
-0.290288 0.232404 -0.394626
-0.290288 -0.351892 -0.297522
-0.290288 0.186142 -0.410295
-0.290288 -0.146857 -0.471856
-0.290288 0.001976 0.494730
-0.290288 -0.417025 0.178283
-0.290288 0.372426 0.255971
-0.290288 0.231720 0.424969
-0.290288 0.447101 0.179053
-0.290288 0.219506 -0.424852
-0.290288 -0.439682 0.184262
-0.290288 -0.235187 0.382360
-0.290288 0.132938 -0.430830
-0.290288 0.497504 0.023658
-0.290288 -0.452627 -0.035603
-0.290288 0.051664 0.486399
-0.290288 0.475586 -0.068750
-0.290288 -0.415268 0.183066
-0.290288 -0.423637 0.250797
-0.290288 -0.435612 -0.148795
-0.290288 -0.463272 -0.167344
-0.290288 0.421017 0.148671
-0.290288 0.469198 -0.048644
-0.290288 -0.212862 -0.434295
-0.290288 0.280924 0.387147
-0.290288 -0.468940 -0.137161
-0.290288 -0.328977 0.344564
-0.290288 -0.352656 -0.311427
-0.290288 -0.451120 0.052725
-0.290288 0.376907 0.298354
-0.290288 -0.298737 -0.400108
-0.290288 -0.120409 0.433731
-0.290288 -0.486381 0.018556
-0.290288 0.418396 0.180601
-0.290288 0.045906 0.440869
-0.290288 0.141488 0.466544
-0.290288 -0.318504 -0.365057
-0.290288 -0.473115 -0.055758
-0.290288 -0.342869 0.302578
-0.290288 0.093028 -0.452542
-0.290288 0.191651 0.411256
-0.290288 -0.344500 -0.353749
-0.290288 -0.492198 0.056210
-0.290288 -0.107236 0.446009
-0.290288 -0.375678 0.306719
-0.290288 -0.282584 0.360367
-0.290288 0.310652 0.323164
-0.290288 -0.239551 -0.404032
-0.290288 0.095021 0.469285
-0.290288 -0.445813 -0.019067
-0.290288 -0.430174 -0.229336
-0.290288 -0.412088 0.220862
-0.290288 0.320793 -0.330496
-0.290288 -0.197975 0.402834
-0.290288 -0.350011 0.272666
-0.290288 0.399415 0.214639
-0.290288 -0.410001 -0.236354
-0.290288 0.470418 -0.035186
-0.290288 0.436908 0.218635
-0.290288 -0.019440 0.494201
-0.290288 -0.408706 0.281146
-0.290288 -0.444849 -0.026172
-0.290288 -0.003254 0.492761
-0.290288 -0.466714 -0.115922
-0.290288 -0.496913 0.003674
-0.290288 0.192809 -0.453399
-0.290288 0.429023 -0.212278
-0.290288 0.408989 -0.266246
-0.290288 -0.461886 -0.046410
-0.290288 -0.352951 0.316226
-0.290288 0.158124 -0.436229
-0.290288 0.349345 -0.288896
-0.290288 0.427526 0.252427
-0.290288 -0.360677 -0.312005
-0.290288 0.417492 -0.234959
-0.290288 -0.180378 -0.434168
-0.290288 -0.274519 -0.394301
-0.290288 0.470706 0.005496
-0.290288 0.383369 0.281080
-0.290288 -0.407044 0.221604
-0.290288 -0.467462 0.079026
-0.290288 0.461322 0.019493
-0.290288 0.493766 0.013140
-0.290288 -0.397715 -0.293886
-0.290288 -0.483253 0.040391
-0.290288 0.337845 -0.354853
-0.290288 0.434618 0.163972
-0.290288 -0.456586 0.153136
-0.290288 -0.466019 0.131312
-0.290288 -0.359644 -0.279031
-0.290288 -0.476322 0.112237
-0.290288 -0.430848 0.224513
-0.290288 -0.452626 -0.089370
-0.290288 0.228509 -0.440515
-0.290288 0.496931 -0.033641
-0.290288 0.472718 0.075465
-0.290288 0.449092 0.107245
-0.290288 -0.352704 -0.331657
-0.290288 0.364315 0.302563
-0.290288 -0.126986 0.452407
-0.290288 -0.067762 -0.488417
-0.290288 -0.282098 -0.361718
-0.290288 -0.435551 -0.185238
-0.290288 -0.305647 0.350936
-0.290288 -0.010772 0.495246
-0.290288 -0.441477 -0.110630
-0.290288 -0.234543 0.388572
-0.290288 0.137803 -0.433862
-0.290288 0.189440 0.432495
-0.290288 -0.466725 0.099340
-0.290288 -0.369895 -0.276476
-0.290288 -0.397148 0.223719
-0.290288 0.308928 -0.388409
-0.290288 0.070135 -0.445828
-0.290288 0.213994 -0.418830
-0.290288 -0.454519 -0.049635
-0.290288 -0.036328 -0.471948
-0.290288 0.133149 0.447278
-0.290288 0.316228 -0.353009
-0.290288 -0.059806 0.439490
-0.290288 -0.469632 -0.118351
-0.290288 0.452723 -0.061339
-0.290288 -0.137846 0.463880
-0.290288 0.302209 -0.338541
-0.290288 0.407247 -0.250741
-0.290288 0.276642 0.362815
-0.290288 -0.332966 0.294352
-0.290288 0.494356 -0.055699
-0.290288 -0.442158 0.079829
-0.290288 -0.455350 -0.000298
-0.290288 -0.325766 0.344418
-0.290288 -0.254729 -0.386908
-0.290288 -0.345089 0.278701
-0.290288 -0.181718 0.430352
-0.290288 -0.464604 0.171879
-0.290288 0.484182 0.085633
-0.290288 0.230527 0.397912
-0.290288 -0.252180 0.413842
-0.290288 -0.451129 0.123839
-0.290288 -0.309399 0.347338
-0.290288 -0.413372 0.202069
-0.290288 0.160954 0.434599
-0.290288 -0.120472 0.455893
-0.290288 -0.179949 -0.447829
-0.290288 -0.336998 -0.362720
-0.290288 -0.454108 -0.157781
-0.290288 0.399580 0.224599
-0.290288 -0.320089 -0.322575
-0.290288 -0.388358 -0.257510
-0.290288 0.273549 0.409212
-0.290288 -0.029971 0.465927
-0.290288 -0.096253 -0.463370
-0.290288 0.209317 -0.432724
-0.290288 0.282902 -0.384656
-0.290288 -0.080335 0.474320
-0.290288 0.369855 0.286142
-0.290288 0.105689 -0.475220
-0.290288 -0.210640 -0.444026
-0.290288 0.183571 0.445529
-0.290288 -0.152339 0.452270
-0.290288 0.458782 -0.159088
-0.290288 -0.326215 0.354338
-0.290288 -0.393613 0.255279
-0.290288 -0.425759 0.254079
-0.290288 0.463737 0.041097
-0.290288 -0.104122 0.442284
-0.290288 0.463965 0.179419
-0.290288 -0.200179 0.407491
-0.290288 -0.392918 -0.299156
-0.290288 0.315294 -0.364775
-0.290288 0.035595 -0.474395
-0.290288 0.372661 -0.316510
-0.290288 -0.391380 0.221512
-0.290288 0.224892 0.410570
-0.290288 -0.285117 -0.398910
-0.290288 0.415454 0.230560
-0.290288 0.141016 -0.479281
-0.290288 0.016440 0.494418
-0.290288 0.417213 -0.264606
-0.290288 0.271795 -0.371477
-0.290288 -0.439922 0.082636
-0.290288 0.403498 0.268165
-0.290288 -0.406515 -0.185504
-0.290288 -0.406988 -0.261562
-0.290288 0.427933 -0.158654
-0.290288 -0.126330 -0.470097
-0.290288 0.161672 0.430010
-0.290288 0.294295 -0.388495
-0.290288 -0.418787 -0.181173
-0.290288 -0.399871 -0.291471
-0.290288 0.414042 -0.237418
-0.290288 0.032124 0.446286
-0.290288 0.423692 -0.259468
-0.290288 0.361610 0.275592
-0.290288 0.043316 -0.461232
-0.290288 0.444209 0.041076
-0.290288 -0.424699 0.144762
-0.290288 -0.357841 0.307565
-0.290288 0.371387 -0.299070
-0.290288 0.348373 -0.284989
-0.290288 -0.429363 -0.118692
-0.290288 0.136034 0.458595
-0.290288 0.359132 -0.316297
-0.290288 -0.019062 0.455742
-0.290288 0.025725 0.466908
-0.290288 -0.375798 0.313997
-0.290288 -0.370186 -0.307129
-0.290288 -0.158940 -0.461684
-0.290288 -0.382168 0.284554
-0.290288 0.279996 -0.413176
-0.290288 0.410390 -0.183380
-0.290288 -0.188917 -0.420260
-0.290288 -0.023173 0.442543
-0.290288 0.323862 -0.318778
-0.290288 -0.407985 -0.222126
-0.290288 -0.369636 -0.296886
-0.290288 0.469160 -0.136956
-0.290288 -0.358462 0.340593
-0.290288 -0.086440 0.471226
-0.290288 0.488614 -0.091912
-0.290288 -0.428040 -0.255410
-0.290288 -0.192643 0.417978
-0.290288 -0.204767 0.413470
-0.290288 -0.287257 -0.359326
-0.290288 0.460241 0.118434
-0.290288 -0.046510 -0.476571
-0.290288 0.027360 0.488593
-0.290288 0.459147 -0.002856
-0.290288 -0.113466 -0.445617
-0.290288 -0.020131 0.481523
-0.290288 -0.485329 0.037769
-0.290288 0.390833 0.305727
-0.290288 -0.447099 0.118489
-0.290288 0.462078 -0.084207
-0.290288 -0.097943 -0.489218
-0.290288 0.012886 -0.497046
-0.290288 -0.297924 0.362272
-0.290288 -0.038511 0.470400
-0.290288 0.417305 -0.249054
-0.290288 -0.069306 -0.482403
-0.290288 0.277365 -0.395423
-0.290288 0.298626 0.342698
-0.290288 0.020897 -0.486315
-0.290288 0.271002 0.387066
-0.290288 0.248002 -0.381429
-0.290288 0.074588 -0.482912
-0.290288 -0.313234 0.334465
-0.290288 0.406392 0.190154
-0.290288 -0.293049 0.349726
-0.290288 0.069754 -0.479972
-0.290288 -0.292977 0.361733
-0.290288 -0.258694 0.387158
-0.290288 -0.447688 -0.153459
-0.290288 -0.302124 -0.357687
-0.290288 -0.298089 0.368720
-0.290288 0.459578 0.090493
-0.290288 0.377920 -0.278184
-0.290288 0.434121 0.151975
-0.290288 -0.326011 -0.376572
-0.290288 -0.493720 0.009302
-0.290288 0.187049 -0.454715
-0.290288 0.421539 0.181487
-0.290288 -0.391736 -0.285897
-0.290288 0.430191 0.194243
-0.290288 0.371466 -0.333955
-0.290288 0.096887 0.482455
-0.290288 0.484743 -0.033980
-0.290288 0.192343 -0.404499
-0.290288 0.238350 -0.433635
-0.290288 0.241942 -0.407226
-0.290288 0.463468 0.016192
-0.290288 -0.384439 -0.227392
-0.290288 0.482411 -0.041469
-0.290288 0.470335 0.001626
-0.290288 0.427678 0.173404
-0.290288 0.449595 -0.092048
-0.290288 -0.455450 -0.151870
-0.290288 0.178812 -0.467228
-0.290288 0.034969 -0.496900
-0.290288 0.080079 -0.476592
-0.290288 0.471026 0.031945
-0.290288 -0.038175 0.479711
-0.290288 0.431837 -0.167921
-0.290288 0.391128 -0.219047
-0.290288 -0.074272 -0.489243
-0.290288 -0.435432 -0.156436
-0.290288 0.135818 -0.470331
-0.290288 -0.064089 -0.488281
-0.290288 0.339065 -0.308732
-0.290288 0.077103 -0.443261
-0.290288 -0.433822 -0.193699
-0.290288 0.020099 0.487164
-0.290288 -0.452322 -0.198465
-0.290288 -0.455999 -0.107466
-0.290288 -0.487995 0.063480
-0.290288 -0.314756 -0.386735
-0.290288 0.363537 -0.281622
-0.290288 0.484911 -0.051727
-0.290288 -0.447106 0.097398
-0.290288 -0.458145 0.085960
-0.290288 -0.088869 -0.480832
-0.290288 0.146840 0.440207
-0.290288 -0.129685 -0.436357
-0.290288 0.412620 -0.187020
-0.290288 -0.466663 -0.092208
-0.290288 -0.028688 -0.456778
-0.290288 0.468542 -0.017674
-0.290288 -0.493185 -0.061543
-0.290288 0.212305 0.429638
-0.290288 0.013243 -0.466218
-0.290288 0.316780 -0.339870
-0.290288 -0.018332 -0.486128
-0.290288 -0.468401 -0.072259
-0.290288 -0.276383 -0.364691
-0.290288 -0.221437 0.391526
-0.290288 -0.420884 -0.191875
-0.290288 0.302365 -0.397836
-0.290288 -0.161015 0.464077
-0.290288 0.373562 -0.284100
-0.290288 -0.169361 -0.414966
-0.290288 -0.334325 -0.342706
-0.290288 -0.367536 0.260894
-0.290288 0.466002 0.001304
-0.290288 0.106457 -0.485623
-0.290288 -0.033523 0.475270
-0.290288 0.479415 -0.060638
-0.290288 -0.270917 0.364486
-0.290288 0.102655 -0.445256
-0.290288 -0.432569 -0.221215
-0.290288 0.377737 -0.308188
-0.290288 0.192442 -0.412398
-0.290288 0.332921 0.303180
-0.290288 0.436306 0.203506
-0.290288 0.421487 0.198104
-0.290288 0.271173 -0.407864
-0.290288 0.137274 -0.460068
-0.290288 0.443897 -0.143488
-0.290288 -0.110626 -0.450117
-0.290288 0.479321 -0.068677
-0.290288 0.435678 0.231158
-0.290288 0.379453 0.267153
-0.290288 0.417968 -0.179167
-0.290288 0.465047 -0.041436
-0.290288 -0.463633 -0.146562
-0.290288 -0.443558 0.121193
-0.290288 0.333129 -0.298134
-0.290288 -0.076236 -0.450659
-0.290288 0.253750 0.391784
-0.290288 0.198156 -0.444528
-0.290288 -0.031180 0.453082
-0.290288 0.411945 -0.229945
-0.290288 0.412405 -0.173059
-0.290288 -0.367898 0.325136
