0.061915 -0.419180 -0.150772
-0.212322 -0.194778 0.397995
-0.112143 0.445902 -0.003622
-0.162880 0.202883 -0.398740
-0.238102 0.231146 0.378673
-0.266973 0.431453 0.110319
0.166954 0.176335 0.406852
0.032881 -0.161078 -0.417190
-0.265265 0.316941 -0.315377
-0.228125 0.349052 0.274889
-0.260445 -0.382600 0.224630
-0.168843 0.357577 -0.268251
-0.055966 0.245706 0.369487
-0.109379 -0.378102 0.232236
-0.247184 0.045734 -0.445102
-0.044901 0.422493 0.140061
-0.145338 0.431723 -0.113746
0.098661 0.310181 -0.322137
-0.170968 -0.011837 0.442870
0.042119 0.178071 0.406100
-0.116458 0.123688 -0.430015
-0.218774 -0.378509 -0.235901
0.237661 -0.275425 0.347237
0.253498 0.384545 -0.227428
-0.253816 -0.393104 0.205978
-0.099566 0.334187 0.292574
-0.113504 0.369424 0.247067
0.069029 -0.444864 -0.004056
-0.270960 -0.221705 -0.388003
-0.069322 -0.379309 -0.234549
0.272753 0.176714 -0.411041
-0.215866 -0.337133 -0.292423
0.267923 0.414487 -0.166569
-0.004213 -0.425646 -0.131134
-0.224214 -0.353599 -0.272058
-0.174872 -0.286699 -0.342498
0.032412 -0.404499 -0.187281
0.140417 -0.265531 -0.359265
-0.286072 0.241827 0.372123
-0.177816 -0.348413 0.274391
-0.088512 -0.199805 -0.399786
-0.068711 0.345794 -0.283442
0.171948 0.129193 -0.428416
-0.228379 -0.444086 0.024436
0.017789 -0.402806 0.186841
-0.264785 -0.010740 0.442905
-0.159241 0.049116 -0.444782
0.286100 0.433187 -0.107434
-0.044437 0.413665 0.164116
0.168006 -0.317084 0.309857
-0.018141 -0.175818 0.406632
0.243674 0.337715 0.288572
-0.059068 -0.044300 0.440787
-0.049124 -0.133856 0.422410
-0.016672 0.445155 0.023036
-0.086089 -0.385120 -0.224724
0.090297 0.163296 0.412408
-0.274614 0.163309 -0.416756
0.034235 0.209048 0.391246
0.102397 0.436830 -0.091133
0.191776 -0.310881 -0.320413
-0.047309 -0.266991 0.353779
-0.187105 -0.057263 -0.443791
-0.042644 0.060001 -0.443520
0.043287 0.428446 -0.125025
0.213023 0.037612 -0.445870
-0.017986 0.337049 0.289328
-0.251416 0.368729 0.248089
0.159341 0.263468 -0.361660
-0.095310 -0.423854 0.132949
-0.233565 0.444869 -0.032253
0.089054 -0.391073 -0.214318
-0.032422 -0.118828 -0.431129
-0.283989 0.316369 0.311596
0.151796 0.159472 -0.418137
0.248361 0.400329 0.193810
-0.004128 -0.409474 -0.175786
-0.209042 0.095538 0.432785
0.261210 -0.440169 -0.065839
0.157910 0.387107 0.218742
-0.055336 -0.091840 0.433382
-0.047565 0.363778 -0.259728
-0.003514 0.045746 0.440747
0.040671 0.196153 -0.402170
0.025002 -0.426384 0.124240
0.003601 -0.403034 -0.190669
0.192925 0.432222 0.107395
-0.210954 -0.369881 0.244886
0.029703 0.165059 0.411731
0.281366 -0.439273 0.067148
-0.199394 0.036470 0.441624
-0.225431 -0.067098 0.437880
0.264934 -0.444235 -0.024062
0.040962 0.391711 0.210724
-0.228082 0.413422 -0.169030
-0.165436 0.075362 -0.441087
-0.189265 -0.371787 -0.246435
-0.289644 0.420915 -0.148798
0.178218 0.251811 0.365338
0.051540 0.357008 0.264631
-0.183273 0.443679 0.040495
0.076345 0.318683 -0.313636
0.037970 -0.119974 -0.430796
0.237143 0.445093 0.025002
0.066218 -0.353416 0.267940
0.130984 -0.126779 -0.428819
0.103588 -0.242611 0.370894
0.175827 -0.101605 0.431199
0.018121 0.388937 -0.220001
0.100644 0.368239 0.248810
-0.073630 -0.031954 0.441954
-0.138752 0.147349 -0.422502
-0.075140 -0.070667 -0.441668
-0.037444 0.026957 0.442427
0.193748 -0.236713 -0.379128
0.244638 0.443565 0.041702
0.009126 -0.073521 0.436862
0.284135 0.445352 0.016773
0.163958 -0.028171 -0.446665
-0.002793 0.327062 -0.305009
-0.221622 -0.227186 -0.384762
0.104568 0.318426 0.309539
-0.240980 -0.287072 -0.342169
0.144054 0.408231 0.176672
0.002702 -0.421620 0.139640
-0.164385 -0.096646 -0.436661
-0.230077 -0.377795 -0.237108
-0.138627 -0.196275 -0.401585
0.166816 0.231987 0.378176
0.031412 -0.324728 -0.306494
-0.120375 0.272560 -0.354608
-0.248136 0.056191 0.439760
0.004691 -0.121071 -0.430477
0.074545 0.175346 0.407280
0.163149 -0.100781 0.431384
0.202721 0.056501 -0.444074
-0.160104 -0.067047 -0.442241
-0.247956 -0.403158 0.186028
0.240671 -0.420320 -0.147605
0.158955 0.437041 -0.090192
0.187019 -0.323574 0.303366
0.198473 0.068704 -0.442141
-0.174240 -0.442943 0.037434
0.060039 0.419161 -0.153671
0.128256 0.438374 0.079290
-0.102011 0.152141 0.416423
0.051481 -0.374027 0.238786
0.101464 -0.379996 -0.233388
0.286207 0.024879 -0.446846
0.068251 0.021502 0.442599
-0.025919 -0.441618 0.051448
-0.014082 0.224830 0.382408
-0.087017 0.301612 -0.330254
-0.044700 -0.439571 -0.069620
0.117232 -0.439201 0.067603
0.168074 -0.368343 -0.251502
-0.004070 -0.180835 -0.408814
0.167238 0.398920 -0.200929
0.008295 -0.043590 0.440854
-0.051111 -0.037749 0.441406
0.249931 0.445273 0.019288
-0.243376 -0.391928 0.208286
0.081607 -0.253082 -0.368131
-0.095222 0.415701 -0.163280
0.248479 -0.178324 -0.409901
-0.114456 0.381105 -0.233244
-0.004620 0.035914 -0.446030
0.252440 0.426863 -0.130471
0.272905 -0.136202 -0.426082
-0.215403 0.337030 -0.293703
-0.139915 0.060293 -0.443473
0.187673 -0.046058 0.440621
0.129913 -0.048892 -0.444707
0.223227 0.260531 -0.363766
0.133314 -0.430788 -0.113436
0.081214 -0.124194 0.425217
-0.085321 0.327943 -0.304010
0.044616 0.352319 0.270677
-0.182243 0.346553 0.278110
-0.007724 -0.222344 0.383273
0.246834 0.031837 -0.446416
-0.149944 -0.441194 -0.059370
0.011898 -0.127254 0.424328
0.188956 -0.425201 0.128313
0.166865 0.312500 -0.319819
0.109251 -0.440643 0.058495
0.080694 0.257961 -0.365512
-0.117910 0.372023 -0.247596
-0.098620 -0.267749 -0.357545
0.140140 -0.323554 0.303386
-0.229851 0.442809 0.049692
0.055244 0.003400 0.443168
-0.081153 -0.232875 -0.381398
0.249833 0.265972 0.355365
-0.165824 0.419941 0.147150
0.103907 -0.175833 -0.410979
0.003292 -0.084653 -0.439342
-0.034714 0.309904 0.318061
0.142181 -0.441993 0.047485
0.173874 -0.383738 -0.227060
0.127990 0.261292 -0.363248
0.103743 -0.187365 -0.405988
0.271659 -0.313768 0.313172
0.033208 -0.301807 -0.329178
0.020952 -0.063544 0.438443
-0.180196 -0.443305 -0.037956
0.182213 0.013644 0.442846
-0.029371 0.200964 -0.399718
0.115979 -0.421946 0.138737
0.045626 0.414125 0.163053
-0.014694 -0.177956 -0.410060
-0.100940 -0.094539 -0.437132
-0.079751 -0.444270 0.018599
-0.029346 -0.418231 0.149053
0.020900 0.399147 -0.200484
-0.275582 -0.396527 -0.203613
-0.093399 0.163908 0.412187
-0.180237 0.244734 0.370148
0.060456 -0.004360 -0.447459
-0.186382 -0.113236 -0.432754
0.037455 -0.254494 0.362818
0.037536 0.330847 0.296363
-0.289363 0.402154 -0.194582
0.195334 -0.271437 0.350330
0.164428 0.167502 -0.415027
-0.049135 0.443757 -0.044022
-0.064826 0.437163 0.085292
-0.116827 -0.225689 0.381294
-0.141258 0.126361 -0.429238
0.132016 -0.383353 0.223357
0.141732 -0.391612 -0.213259
0.266432 -0.317474 -0.313819
-0.250405 -0.070626 -0.441674
0.007697 -0.430518 0.110010
-0.161610 -0.162713 0.412249
0.037706 0.389549 -0.218966
-0.028915 -0.221824 -0.387933
0.286630 0.310756 0.317209
-0.015290 0.357921 0.263455
-0.115027 0.297750 -0.333659
0.006051 0.049461 0.440396
0.012808 0.441233 0.061243
-0.005268 -0.228360 -0.384068
-0.158332 -0.441878 0.048701
-0.116964 0.152061 0.416452
-0.223250 -0.211275 0.389589
0.122087 -0.442150 -0.050182
0.126253 -0.404612 0.182667
-0.097552 -0.107035 0.429986
0.063117 0.313449 -0.318870
0.124747 -0.394437 -0.207716
-0.104613 -0.088395 0.434152
-0.072499 0.445720 0.005062
0.125218 0.066433 0.438147
0.245722 -0.169045 -0.413916
-0.068595 -0.138922 0.420814
-0.115709 -0.444821 0.001052
0.270708 -0.440301 -0.065010
-0.031955 0.417443 -0.158443
-0.071115 -0.069019 0.437575
-0.274425 0.124878 0.425316
-0.189318 -0.307257 -0.324037
0.014801 -0.094213 0.432852
0.101386 -0.414315 0.159930
-0.105327 -0.252024 0.364497
-0.175355 -0.125388 -0.429223
0.205314 0.292632 0.333817
-0.238287 -0.365769 0.250938
0.271119 -0.152925 -0.420126
0.025589 0.445292 -0.023026
0.128297 -0.264313 -0.360210
0.285207 0.142999 -0.424068
-0.245482 0.255591 0.362769
0.123336 0.440083 -0.072853
0.277225 -0.223795 -0.386768
0.139954 -0.372514 -0.245365
0.004009 0.288512 -0.341804
-0.026579 -0.370271 -0.248666
-0.104284 -0.024521 0.442472
0.240462 0.064170 0.438506
-0.155254 -0.443120 -0.039915
-0.037006 0.417640 0.153542
-0.073227 0.119838 -0.431133
-0.201257 0.445229 0.020679
0.142062 -0.415410 0.156889
0.026861 0.172027 -0.413069
-0.154467 -0.345449 0.278212
-0.071154 0.317465 0.310500
0.238834 0.426603 -0.131366
0.079767 -0.413949 0.160947
0.189524 -0.166576 0.410632
0.007131 0.387839 0.217505
-0.284508 0.169958 -0.413965
-0.195945 0.053888 -0.444331
-0.233673 0.328762 0.298728
-0.090799 0.340035 -0.290294
-0.249575 -0.054113 -0.444213
-0.071684 -0.360796 0.258254
0.168244 -0.339706 0.285151
0.147626 0.426833 -0.130575
0.217460 0.378944 0.232546
-0.018406 -0.444036 -0.030223
-0.185209 -0.415391 0.156941
0.080126 0.244777 -0.374472
-0.211727 0.445259 0.019735
0.076984 -0.073566 -0.441209
-0.057661 -0.110517 -0.433544
-0.287727 0.273868 -0.353593
0.226506 0.442847 0.049296
0.248247 -0.054951 -0.444134
-0.160026 -0.312927 -0.318367
-0.238222 0.440749 -0.068650
-0.157545 0.386810 0.219245
0.037937 0.429652 0.116520
0.133502 -0.001776 -0.447540
-0.012782 0.434743 0.096118
0.250741 -0.262947 0.356916
0.239760 -0.251415 -0.369264
0.245032 -0.378138 0.232175
-0.152145 0.409530 0.173672
-0.074388 0.391336 -0.215814
0.008960 -0.383896 0.222438
0.222543 0.445266 0.019497
-0.224027 0.047160 -0.444967
0.140696 0.061815 -0.443232
-0.072123 0.379924 0.230889
0.192173 0.408799 0.175360
0.236517 0.302421 0.325187
-0.142884 -0.384878 -0.225132
-0.166763 0.283620 -0.346029
0.008048 -0.437289 0.079670
0.179538 -0.081590 -0.439938
0.148333 0.415330 -0.164311
-0.097949 -0.444254 0.019086
-0.287068 -0.365935 0.250693
0.274244 -0.343740 -0.284769
0.023215 -0.308465 -0.322829
-0.039341 -0.416353 0.154272
-0.200449 -0.328856 0.297458
-0.269853 0.026128 0.442453
0.030137 0.445804 0.002388
-0.227312 0.296680 -0.334602
-0.157892 -0.177867 -0.410098
-0.072063 0.327334 -0.304701
0.174538 -0.363170 0.254761
0.109037 0.263326 0.357418
0.229424 0.183153 0.403901
0.165754 -0.272390 -0.353945
-0.015905 -0.015785 -0.447100
-0.025395 -0.266753 0.353964
0.190727 0.025412 -0.446829
0.165640 0.392062 0.210036
0.151991 -0.113263 0.428393
-0.169659 -0.403275 0.185758
-0.219574 0.238380 0.374395
0.101086 0.432631 -0.109918
-0.083601 -0.438108 -0.078857
-0.281634 0.205584 0.393011
-0.192367 0.281033 -0.348035
-0.016764 -0.339644 -0.289575
-0.215609 0.278140 -0.350280
-0.155628 0.445279 0.019090
0.034220 0.354360 -0.272399
0.145653 0.188425 0.401620
0.188075 -0.161753 -0.416947
0.137941 0.117822 -0.431719
-0.128440 -0.440913 0.056793
0.066913 0.396116 -0.206432
-0.267998 0.390603 -0.217185
-0.246517 0.379025 -0.236761
0.113598 0.037138 0.441561
0.191785 -0.236705 0.374779
-0.228027 -0.422363 0.137577
-0.048265 -0.248371 0.366980
-0.147558 0.433111 0.103419
0.144488 0.177444 0.406372
0.224099 -0.083610 -0.439575
-0.087056 -0.137626 0.421280
0.108408 -0.347216 -0.280287
0.257630 -0.427968 -0.123140
-0.217746 -0.010934 -0.447252
-0.178435 0.409717 0.173239
0.158072 -0.194335 -0.402574
0.026848 0.247213 0.368463
-0.290009 -0.323396 0.303544
0.061983 0.438887 0.076054
0.244700 0.416029 -0.162371
-0.163989 -0.355556 0.265182
-0.072599 0.435160 0.094253
0.100528 -0.177431 0.405934
-0.035575 -0.319934 -0.311360
0.044707 -0.440851 -0.061536
0.192632 0.439919 -0.073892
0.181494 -0.069521 -0.441849
0.102913 0.046339 0.440691
0.256242 0.391547 -0.215398
-0.139139 0.159507 -0.418125
0.063675 0.305149 0.322782
0.280031 -0.111296 0.428964
0.041086 0.047618 -0.444924
-0.102729 -0.434266 -0.098019
-0.140850 -0.297980 -0.332553
-0.153514 -0.280485 0.343312
0.258759 0.420909 0.144463
-0.080765 0.313047 -0.319271
-0.197229 -0.441343 0.054078
-0.001101 0.437148 0.085360
0.023574 0.004822 0.443123
-0.150673 -0.230958 -0.382532
-0.064236 0.388220 -0.221214
0.165372 0.005513 -0.447455
-0.250008 -0.424814 -0.133999
0.175741 0.174810 -0.411865
-0.250702 -0.255202 0.362337
0.239611 -0.396391 -0.203880
-0.078433 0.045378 -0.445136
-0.167805 -0.433929 -0.099530
0.275444 -0.272384 -0.353950
0.179517 -0.319122 0.307818
-0.018512 0.419328 -0.153206
0.177531 -0.111645 -0.433216
0.238043 0.402465 -0.193972
-0.055611 -0.050407 -0.444563
-0.218471 0.354722 0.267578
-0.247046 -0.440687 -0.062568
0.205773 0.390392 -0.217542
0.230811 0.120517 -0.430936
-0.071648 0.399925 0.194602
-0.012034 -0.288707 -0.340728
0.198342 0.443341 0.044070
0.115736 0.441323 -0.065023
0.066325 -0.025211 0.442450
-0.208787 -0.416633 0.153492
-0.080086 -0.171255 0.408607
-0.165327 0.349744 -0.278349
-0.059435 -0.301966 -0.329039
0.246684 0.412361 0.167129
0.076524 -0.296028 0.329921
0.148851 -0.232571 -0.381578
0.243100 -0.050259 0.440224
0.098121 -0.278184 0.345097
-0.131111 -0.428647 -0.120806
0.253544 -0.439847 0.063519
-0.177611 -0.374687 0.237815
-0.212835 0.220328 -0.389424
-0.101814 -0.406891 0.177401
0.093421 -0.184591 -0.407189
0.246606 -0.067245 -0.442210
-0.066644 0.444225 -0.039072
0.048831 0.361477 -0.263114
-0.245196 0.416702 0.156148
0.007467 0.251807 -0.369694
-0.069316 -0.322156 0.304784
-0.139862 0.359824 -0.265354
0.245321 -0.375136 -0.241507
-0.099774 0.445818 -0.006280
-0.251872 0.310429 0.317537
0.233701 -0.057468 -0.443758
0.021376 0.308012 -0.324307
-0.147908 0.345108 -0.284327
0.199680 -0.244345 0.369716
-0.270613 0.305101 -0.327178
0.157335 0.015378 -0.447145
0.274067 0.012389 -0.447239
-0.045647 -0.444358 0.015800
0.094248 -0.239179 0.373226
0.150722 0.211855 -0.394169
0.138428 0.294957 0.331767
-0.167002 -0.227139 -0.384790
-0.124781 -0.406021 -0.183764
-0.116766 -0.009781 0.442935
-0.038707 0.406457 -0.185126
0.068977 -0.340468 0.284287
-0.271527 0.199648 -0.400389
-0.045203 -0.365661 0.251095
-0.058015 0.057639 0.439540
0.259605 -0.191783 0.399521
-0.009433 -0.094896 -0.437053
-0.254377 -0.283770 0.340727
0.188674 -0.433724 -0.100444
0.012918 -0.329060 0.297227
-0.160933 -0.364792 -0.256728
-0.265170 -0.239768 -0.377180
0.266563 0.172030 0.408714
0.103847 -0.078244 -0.440468
0.159054 0.109192 -0.434086
-0.116641 0.169458 -0.414181
-0.275823 0.094016 0.433125
-0.032064 -0.380625 -0.232323
-0.130207 0.314630 0.313335
-0.106902 0.201972 0.394851
-0.253831 -0.413176 -0.167230
-0.100179 0.398965 -0.200840
0.135110 -0.423953 0.132609
-0.114031 0.434783 -0.100292
0.061593 0.029418 0.442291
0.276145 0.302882 -0.329134
-0.032700 0.173509 -0.412428
0.045485 -0.150992 0.416468
-0.265502 -0.432000 0.103807
0.134130 -0.253613 0.363417
-0.193955 0.130719 -0.427972
-0.260828 0.103228 -0.435419
-0.262198 0.371652 0.243789
-0.133762 0.173318 -0.412511
-0.086800 0.012733 0.442874
0.077824 0.090145 -0.438344
0.085823 0.287846 0.338037
0.042093 0.395775 -0.207101
-0.266060 -0.378057 0.232312
-0.228329 0.431057 0.111682
-0.133720 0.414230 -0.167163
0.103574 0.199742 -0.400341
-0.093591 -0.325122 -0.306048
0.208572 -0.392039 0.208068
-0.130829 -0.250237 -0.370065
0.209166 -0.075762 -0.440861
0.139228 -0.237771 -0.378502
0.163189 0.177036 -0.410902
-0.115876 0.127945 0.424425
-0.207993 -0.308386 0.318554
0.077351 -0.004858 0.443090
-0.039616 -0.363453 -0.258698
0.215239 -0.236420 -0.379301
-0.036064 0.319662 -0.312657
0.256749 -0.348963 0.273682
-0.133611 -0.435446 0.088387
0.096239 0.046983 -0.444984
-0.282568 -0.428371 0.117400
-0.012430 0.072322 -0.441568
0.020966 -0.433109 -0.103196
0.265952 0.431731 -0.113718
0.283768 0.222403 -0.388197
0.261015 -0.264371 0.355812
0.281072 -0.428880 -0.120004
0.000861 0.174684 0.407566
0.205586 -0.441872 -0.053123
0.248564 0.131858 0.423288
0.091552 0.353494 -0.273515
0.189763 0.097675 -0.436660
0.209808 -0.396671 -0.203331
-0.074478 0.441634 0.058709
0.051550 -0.077601 -0.440570
-0.285523 -0.153219 -0.420020
0.174810 0.194187 -0.403171
0.141477 -0.087558 -0.438693
0.016888 -0.109098 0.429524
-0.014940 -0.064258 0.438330
-0.217940 -0.389593 -0.217160
-0.186593 -0.394310 0.203612
0.120712 0.238781 -0.378511
-0.269945 -0.409850 0.170564
-0.256442 0.430063 -0.119457
-0.138028 -0.157675 0.414062
-0.156591 0.260163 0.359662
0.123097 0.429467 0.117155
0.117851 -0.329397 0.296845
0.236402 -0.098239 -0.436305
0.249896 -0.406373 0.178597
0.154585 -0.128851 0.423864
0.041600 -0.439040 -0.072971
0.052094 0.118897 0.427053
-0.098073 0.077493 -0.440749
0.001460 -0.222169 -0.387729
0.168468 0.201963 -0.399209
0.046463 -0.218908 -0.389658
-0.020848 -0.022514 0.442535
-0.270873 -0.423757 -0.137636
-0.091729 -0.000138 0.443238
0.215807 -0.035700 0.441600
0.032500 -0.391686 -0.213114
0.064102 -0.322165 0.304775
0.232733 0.442726 -0.054929
0.152259 -0.442549 -0.045955
-0.023978 -0.437666 -0.081643
0.137103 0.256825 -0.366284
-0.027244 0.407540 -0.182623
-0.241543 -0.135046 -0.426418
-0.238430 -0.176327 0.406412
-0.257440 -0.304147 0.322762
-0.116801 0.269247 0.352825
0.135544 -0.436916 -0.086167
-0.259257 -0.334048 -0.295923
0.012466 -0.419164 -0.150817
-0.090599 -0.277275 -0.350155
-0.042424 0.063147 0.438668
0.093315 0.261242 0.358929
-0.116825 0.015471 0.442788
0.099177 0.390266 0.213401
0.100394 0.056793 -0.444028
-0.253300 -0.393394 -0.209762
-0.214865 0.365793 -0.256762
-0.205543 -0.333955 -0.296028
0.078154 -0.409024 0.172473
0.025326 0.291004 -0.339606
0.162296 0.258769 0.360610
-0.140901 -0.424141 -0.136316
0.130322 0.413969 -0.167765
-0.003723 0.444987 0.026655
-0.131366 0.408852 -0.179591
0.076131 0.335662 -0.295254
-0.071020 0.251926 0.365260
-0.287282 -0.392787 0.206601
0.129944 -0.444839 -0.004836
0.222113 -0.429612 -0.117485
0.230006 -0.382275 -0.229533
0.217817 -0.008511 0.442975
0.045139 -0.418946 0.147068
0.148739 -0.259172 -0.363993
-0.177071 0.081652 -0.440091
0.253502 0.349766 0.273967
0.228306 -0.094586 0.432768
-0.187970 0.038142 0.441466
0.221395 0.232096 -0.382464
0.166224 0.226475 -0.385789
-0.269879 -0.381440 -0.230945
-0.029992 0.445705 0.005524
0.127500 0.369630 -0.251117
0.079247 -0.286944 0.337929
0.013363 -0.128815 -0.428228
0.193889 0.161834 0.412934
0.241386 0.423612 0.136954
-0.076663 -0.409346 0.171727
-0.040017 -0.218329 -0.390000
-0.032886 0.361594 0.258588
-0.192217 -0.444226 -0.024340
-0.144356 0.335458 0.291133
0.258862 0.323405 -0.308914
-0.033864 -0.155003 -0.419378
-0.147231 0.253635 0.364098
-0.006478 0.055816 -0.444149
-0.083356 -0.413343 -0.166846
-0.119349 0.444348 0.033418
0.002526 0.433868 0.100034
-0.251285 0.385193 -0.226332
0.230664 0.391791 0.210567
-0.063048 -0.409258 -0.176284
0.114570 -0.010543 -0.447264
0.109818 -0.018723 0.442654
0.144886 -0.425056 -0.133166
0.168763 -0.074288 -0.441094
0.210291 0.204888 -0.397719
-0.002482 -0.295737 -0.334530
-0.038930 -0.141033 0.420054
-0.182935 -0.189645 -0.404963
0.043426 0.435817 -0.095667
-0.268002 -0.428644 0.116461
0.208413 0.441058 0.062348
0.227831 0.365744 0.252482
-0.165767 -0.040127 0.441182
-0.013099 0.437004 0.086005
-0.106198 -0.444859 -0.004201
-0.113610 0.435128 0.094397
0.130275 -0.068215 0.437703
0.182525 -0.433177 0.098538
-0.191366 0.412180 0.167548
0.263464 -0.027595 -0.446720
-0.249722 -0.283276 -0.345501
-0.109260 0.291859 -0.338853
-0.196942 -0.338579 -0.290783
-0.127328 0.225099 0.382249
0.217085 -0.381314 -0.231159
-0.224432 0.197212 0.397276
-0.045597 0.426753 -0.130852
-0.067419 0.082502 0.435602
-0.179835 0.178359 0.405976
0.197609 -0.113477 0.428330
0.032561 -0.322970 0.303970
-0.001625 -0.410718 0.168556
0.251262 -0.394768 0.202713
-0.045426 0.215034 0.388196
-0.128712 -0.352475 0.269154
0.197287 0.171241 0.409056
-0.167022 -0.184981 -0.407020
-0.276251 0.430127 -0.119237
-0.231556 -0.335630 0.289775
-0.218106 0.131431 0.423412
-0.164357 0.023297 -0.446896
0.284863 0.094798 -0.437303
-0.288533 -0.254927 0.362524
-0.207292 0.187518 -0.406366
-0.167928 0.104931 0.430685
0.183489 0.210225 0.390646
0.195150 0.026091 0.442455
0.203491 0.430498 -0.117962
0.091408 0.085017 -0.439490
-0.276721 0.441634 -0.063065
-0.116181 0.073731 -0.441345
-0.039666 -0.088009 -0.438592
-0.040302 0.245341 -0.374089
-0.215090 -0.273953 -0.352733
0.063687 -0.057423 -0.443765
0.080585 0.227928 0.380576
0.057455 0.443531 0.042055
-0.209909 0.432695 0.105280
0.285989 0.038076 0.441472
0.236811 0.159721 -0.418048
0.211191 0.438917 0.075860
0.124734 -0.283390 0.341059
0.179228 0.375085 -0.243090
-0.027737 0.372836 0.242047
0.179241 -0.427791 -0.123752
0.001832 -0.112764 0.428537
-0.046941 0.193932 0.398948
0.124788 0.116472 -0.432111
0.028208 -0.214621 0.387840
0.192965 -0.409748 0.170799
0.124211 -0.157027 0.414296
-0.269350 -0.106706 0.430059
-0.241956 0.146241 0.418548
-0.286088 -0.442272 0.044534
-0.288964 0.363103 0.256367
0.122138 0.028923 0.442338
0.012954 0.050176 -0.444682
0.117334 -0.099525 -0.436018
-0.200386 -0.433534 0.096944
0.235524 -0.443931 0.026984
0.261268 0.259456 -0.364496
0.077131 0.401752 0.191018
0.274480 0.317639 0.310326
-0.214730 0.250905 0.365954
-0.014269 -0.013280 0.442825
0.168724 0.375680 -0.242215
-0.278940 0.435462 -0.097256
-0.264756 -0.373616 -0.243744
-0.237114 0.046439 -0.445035
0.115004 0.083402 0.435460
-0.246002 0.183109 0.403920
0.234353 0.434977 -0.099424
0.225955 -0.229596 -0.383337
0.272752 -0.438262 0.073530
-0.042336 -0.071416 -0.441549
-0.144865 -0.032805 -0.446227
-0.097782 -0.344179 0.279849
0.021794 0.180270 -0.409502
-0.081133 0.212223 0.389628
0.233123 0.142650 -0.424194
0.075676 0.280224 -0.348663
0.286793 -0.129590 0.423649
-0.023677 -0.308860 -0.322433
-0.236004 0.025742 -0.446819
0.214566 -0.345581 -0.282395
0.149921 0.290749 0.335478
-0.245182 0.391832 -0.214840
-0.227658 -0.147071 -0.422233
0.174077 -0.443871 -0.031976
0.182657 -0.029871 0.442151
-0.241991 0.093100 -0.437683
0.009528 0.221259 0.384520
0.006311 -0.060549 -0.443270
-0.150615 0.065309 -0.442679
-0.134358 0.445896 -0.003812
-0.260866 0.370547 -0.249768
-0.164441 -0.015818 -0.447099
-0.179032 -0.004707 -0.447448
-0.072721 0.443430 -0.047474
0.050979 0.138047 0.421490
0.190111 -0.010566 -0.447264
0.091276 -0.443554 -0.035322
-0.199664 0.194373 -0.403077
0.254618 0.358518 0.262684
0.092502 -0.371740 0.242151
0.071481 -0.201158 0.394744
0.170377 -0.429330 0.114099
0.032844 0.416606 -0.160769
-0.084784 0.083382 -0.439816
-0.124288 -0.341124 -0.287896
0.126205 0.445851 0.000878
-0.065039 0.387611 0.217890
0.009616 0.351229 -0.276435
0.259441 -0.050861 0.440167
0.178726 0.067038 -0.442405
0.212413 -0.290628 0.334681
0.057995 -0.444672 0.005795
-0.154579 0.217163 -0.391296
0.005009 -0.427888 0.119065
0.143253 -0.211574 -0.393790
-0.009393 0.156938 -0.419050
0.143601 -0.444864 -0.004039
0.057394 -0.124839 0.425029
0.009300 0.402002 0.190527
0.127330 -0.442395 0.043233
0.039251 -0.288113 0.336898
0.263339 -0.211825 -0.393662
-0.158980 -0.220281 -0.388846
-0.218778 -0.443154 0.035209
-0.166901 -0.193073 0.398863
-0.086094 0.390601 -0.217189
-0.178112 -0.136099 -0.426112
-0.257696 0.035995 0.441669
-0.112326 -0.421380 0.140307
-0.117789 -0.293306 0.332320
0.095653 -0.308612 0.318329
-0.075347 -0.442512 0.041997
-0.034013 -0.143667 -0.423459
0.261737 0.224903 0.382365
-0.255494 -0.408683 -0.177614
-0.210613 0.177240 -0.410814
0.273718 0.429834 -0.120247
0.004353 0.329232 0.298194
0.286564 0.409854 0.172922
-0.030184 0.137414 -0.426027
-0.115832 -0.418534 -0.152566
0.134521 -0.369703 0.245148
-0.241634 -0.337271 -0.292266
-0.202730 -0.442979 -0.041406
0.167101 0.417127 0.154966
-0.249485 -0.104814 -0.434835
0.286908 -0.226149 0.381022
-0.222493 0.289764 0.336346
0.094857 -0.344982 0.278814
0.037387 -0.444802 0.001677
-0.055077 -0.405078 -0.185944
0.212534 -0.442647 0.040566
0.174583 -0.061305 0.438797
-0.219070 0.423236 0.137999
-0.267270 -0.438957 0.069141
-0.048033 0.361777 0.258320
0.027159 0.336551 -0.294246
-0.089226 -0.406495 0.178315
-0.194471 -0.276813 0.346161
-0.203361 -0.115274 0.427808
-0.079145 -0.444873 -0.003752
-0.077394 0.419458 -0.152847
-0.233882 0.442245 -0.059203
-0.236912 0.077594 -0.440733
-0.238958 0.310615 -0.321704
-0.089051 -0.442521 0.041898
0.286485 0.400601 0.193275
-0.138856 -0.333464 0.292232
0.032246 -0.281739 0.342340
0.169268 -0.442785 0.039108
0.270011 -0.436090 0.085509
0.014189 0.358560 -0.266983
0.208666 0.409912 -0.177142
0.094812 -0.118892 -0.431111
-0.209342 -0.343061 0.281290
-0.278449 -0.441370 -0.058259
0.266182 -0.107015 -0.434343
0.267073 -0.348092 0.274805
-0.144625 0.039881 0.441302
-0.256953 0.445929 -0.002754
-0.131408 -0.360133 0.259230
-0.021709 -0.129207 0.423760
-0.024544 0.424660 -0.138055
-0.097722 -0.435990 0.085954
0.076707 0.356512 -0.269624
-0.243090 -0.444197 -0.025268
0.120655 0.337220 -0.293487
0.065319 0.403072 0.188426
-0.121279 0.347630 0.276721
-0.126742 -0.176556 0.406312
0.021659 -0.045278 0.440695
-0.168888 0.239738 0.373543
-0.033860 -0.078456 0.436081
0.099869 -0.438315 -0.077547
0.156985 -0.293040 0.332555
0.131985 -0.140027 -0.424769
-0.016198 -0.094778 0.432725
-0.041054 -0.313899 0.313042
0.161126 -0.322470 -0.308824
0.056463 -0.192365 0.399224
0.007899 -0.280971 0.342936
0.260684 -0.238043 0.373988
0.178315 0.440276 -0.071638
-0.252074 -0.411806 0.166042
-0.216115 -0.029659 -0.446525
-0.035977 -0.402135 0.188254
0.131031 -0.016403 0.442727
0.070094 -0.373038 -0.244594
-0.160922 0.171897 0.408772
-0.089715 -0.393185 0.205819
-0.221529 -0.396973 -0.202739
-0.160798 0.276571 -0.351497
-0.217545 -0.131538 0.423083
-0.263214 0.277010 0.346803
-0.177836 0.438741 -0.081328
-0.051751 -0.023207 0.442513
0.284885 -0.438915 -0.073757
-0.133857 0.445200 -0.025976
-0.023008 0.444168 0.035318
0.166888 0.407750 0.177785
-0.050107 -0.425567 -0.131405
0.148929 -0.439250 0.067291
-0.182367 0.388730 -0.220352
0.003552 0.187897 0.401848
-0.255592 -0.407124 0.176861
0.096732 0.058815 0.439354
0.117104 0.125506 -0.429487
-0.085021 -0.421974 0.138659
-0.286024 0.239333 -0.378171
-0.181642 -0.041712 -0.445385
-0.112227 0.442514 -0.057166
-0.183593 0.402118 0.190299
0.004414 0.311162 -0.321157
0.049198 -0.416384 -0.158538
-0.096838 0.050185 0.440328
-0.226101 -0.287497 -0.341795
0.093708 0.443964 0.037478
-0.255380 0.065892 0.438233
-0.040152 -0.402044 -0.192786
0.037513 -0.430568 -0.114192
-0.246085 -0.330122 -0.300376
-0.115733 -0.426626 0.123409
-0.290288 0.151334 -0.431654
-0.290288 -0.143239 -0.424827
-0.290288 0.006604 0.482764
-0.290288 0.238571 -0.383215
-0.290288 0.015953 0.491837
-0.290288 -0.466339 -0.171023
-0.290288 -0.446182 -0.212499
-0.290288 0.490585 0.053175
-0.290288 0.298795 0.361076
-0.290288 -0.279181 -0.374334
-0.290288 0.492376 -0.036559
-0.290288 -0.444893 -0.019166
-0.290288 -0.469378 -0.054590
-0.290288 -0.439038 -0.181403
-0.290288 -0.426635 0.146175
-0.290288 -0.398057 0.205997
-0.290288 0.445883 -0.074364
-0.290288 -0.467434 0.003725
-0.290288 -0.252385 0.424045
-0.290288 0.353528 -0.333514
-0.290288 -0.465996 0.081958
-0.290288 -0.386140 0.308693
-0.290288 -0.005730 -0.492102
-0.290288 -0.442732 0.145354
-0.290288 0.495518 0.039537
-0.290288 0.425655 0.130378
-0.290288 -0.474530 0.065422
-0.290288 -0.301728 0.325075
-0.290288 0.356934 -0.343132
-0.290288 -0.131674 0.444364
-0.290288 0.030236 0.481570
-0.290288 -0.044790 -0.481142
-0.290288 0.359550 -0.326815
-0.290288 -0.471978 -0.004490
-0.290288 0.246013 0.376283
-0.290288 0.177532 0.439561
-0.290288 0.342266 -0.301237
-0.290288 -0.061924 -0.461478
-0.290288 0.133938 -0.436166
-0.290288 0.167448 0.453720
-0.290288 0.313848 0.347789
-0.290288 -0.320471 0.329650
-0.290288 0.268510 0.358986
-0.290288 -0.100792 0.483440
-0.290288 -0.340609 -0.297327
-0.290288 -0.413542 0.235499
-0.290288 -0.395010 0.211564
-0.290288 -0.353570 -0.286402
-0.290288 0.455363 -0.062411
-0.290288 -0.236465 -0.411340
-0.290288 -0.475875 -0.055737
-0.290288 -0.422213 -0.219765
-0.290288 0.392005 -0.270952
-0.290288 -0.295135 -0.344473
-0.290288 0.228899 -0.428733
-0.290288 0.363467 0.258265
-0.290288 -0.222005 -0.411339
-0.290288 -0.489342 -0.028498
-0.290288 0.487938 0.083473
-0.290288 0.185264 0.407039
-0.290288 0.306256 0.322559
-0.290288 0.288858 0.393408
-0.290288 0.122529 0.447627
-0.290288 0.041529 -0.451687
-0.290288 -0.379537 0.305458
-0.290288 -0.239494 0.416223
-0.290288 -0.286541 -0.376893
-0.290288 -0.267054 0.409474
-0.290288 0.098936 0.458915
-0.290288 -0.042434 -0.454103
-0.290288 0.419804 0.215834
-0.290288 -0.385059 -0.297560
-0.290288 -0.081558 -0.465939
-0.290288 -0.401033 -0.289608
-0.290288 -0.476386 -0.111579
-0.290288 0.156287 -0.424889
-0.290288 0.365222 -0.303404
-0.290288 -0.397823 0.225704
-0.290288 0.171132 0.447286
-0.290288 0.292165 -0.339629
-0.290288 -0.224731 -0.407546
-0.290288 -0.299600 -0.333242
-0.290288 0.294703 0.395386
-0.290288 -0.471845 -0.056685
-0.290288 0.150101 -0.440123
-0.290288 0.113478 -0.481725
-0.290288 0.068810 0.456985
-0.290288 0.289458 0.402237
-0.290288 0.373592 -0.262849
-0.290288 -0.440521 0.059853
-0.290288 -0.111415 0.429231
-0.290288 0.044909 -0.455603
-0.290288 0.291305 0.337883
-0.290288 -0.045914 -0.491408
-0.290288 0.329570 0.328764
-0.290288 -0.423211 -0.171599
-0.290288 0.453211 -0.003117
-0.290288 0.256385 0.407693
-0.290288 -0.202843 0.397876
-0.290288 0.071207 0.487474
-0.290288 0.256758 0.388642
-0.290288 0.278058 -0.406687
-0.290288 0.312116 -0.382531
-0.290288 0.430156 0.162739
-0.290288 -0.434657 0.130245
-0.290288 0.196235 0.454614
-0.290288 0.118190 -0.479135
-0.290288 0.007251 0.486682
-0.290288 0.412532 -0.249488
-0.290288 0.442168 -0.145465
-0.290288 0.446539 0.189933
-0.290288 -0.209925 -0.427693
-0.290288 -0.194038 0.410297
-0.290288 -0.447552 -0.080235
-0.290288 -0.076621 0.465763
-0.290288 -0.259958 -0.426474
-0.290288 0.238434 -0.409599
-0.290288 0.358380 0.263623
-0.290288 0.162969 0.432041
-0.290288 -0.468238 0.140642
-0.290288 -0.215368 -0.396144
-0.290288 0.441170 0.144874
-0.290288 0.070886 -0.451019
-0.290288 -0.070423 0.437656
-0.290288 -0.046822 -0.457383
-0.290288 -0.077698 0.451602
-0.290288 0.043310 -0.464248
-0.290288 0.036302 -0.453414
-0.290288 -0.440443 -0.068661
-0.290288 -0.362080 0.304121
-0.290288 0.487313 0.029111
-0.290288 0.240706 0.383192
-0.290288 -0.127552 -0.469724
-0.290288 0.337132 0.350963
-0.290288 -0.452198 -0.064223
-0.290288 -0.349025 -0.314586
-0.290288 0.430432 -0.135237
-0.290288 -0.424793 0.161678
-0.290288 0.377003 -0.302438
-0.290288 0.243739 -0.413724
-0.290288 -0.456850 -0.199116
-0.290288 0.480276 -0.034948
-0.290288 -0.312429 0.365000
-0.290288 -0.354658 -0.344820
-0.290288 -0.484671 0.080560
-0.290288 0.366304 0.299278
-0.290288 0.398898 0.247444
-0.290288 0.149309 -0.455250
-0.290288 0.148829 0.456024
-0.290288 0.091721 -0.489141
-0.290288 0.080150 0.485598
-0.290288 0.308513 -0.325023
-0.290288 0.357774 -0.311073
-0.290288 0.467759 0.159022
-0.290288 -0.384554 0.305912
-0.290288 -0.172303 0.427909
-0.290288 0.156298 0.443728
-0.290288 0.135821 -0.462040
-0.290288 0.481146 -0.050159
-0.290288 0.107263 0.476653
-0.290288 -0.292879 0.354243
-0.290288 -0.454315 -0.043933
-0.290288 0.469722 -0.060290
-0.290288 -0.451768 0.166557
-0.290288 -0.456889 -0.142889
-0.290288 0.353207 -0.308120
-0.290288 -0.109545 0.451552
-0.290288 -0.116690 0.443276
-0.290288 -0.456285 -0.192766
-0.290288 -0.002251 -0.464079
-0.290288 -0.012429 0.464564
-0.290288 0.477346 0.137833
-0.290288 -0.147930 0.445455
-0.290288 -0.364246 -0.259709
-0.290288 -0.487254 0.067337
-0.290288 -0.283239 0.381600
-0.290288 0.023409 -0.462364
-0.290288 -0.195253 -0.452694
-0.290288 0.472643 0.008746
-0.290288 -0.218467 0.430951
-0.290288 -0.034138 -0.458143
-0.290288 0.419905 0.160011
-0.290288 -0.107362 0.478550
-0.290288 -0.421687 0.142347
-0.290288 0.253807 -0.376020
-0.290288 0.441935 0.176277
-0.290288 -0.034175 0.458326
-0.290288 -0.086772 0.457118
-0.290288 -0.226304 -0.401226
-0.290288 -0.400560 0.253387
-0.290288 0.410044 -0.188147
-0.290288 -0.290746 -0.402678
-0.290288 0.427767 0.198434
-0.290288 -0.383653 0.260361
-0.290288 -0.383519 -0.316895
-0.290288 0.471309 0.131091
-0.290288 0.265520 0.397503
-0.290288 0.189481 -0.409876
-0.290288 0.464298 0.033551
-0.290288 -0.091113 0.439475
-0.290288 -0.454506 -0.125196
-0.290288 -0.329628 -0.330574
-0.290288 0.257964 -0.394616
-0.290288 -0.342521 -0.334839
-0.290288 0.373256 -0.312264
-0.290288 0.026963 -0.462272
-0.290288 0.389203 -0.303041
-0.290288 -0.414098 -0.230348
-0.290288 0.341261 0.295221
-0.290288 0.410542 0.279930
-0.290288 0.329824 0.342865
-0.290288 -0.270510 0.391017
-0.290288 -0.113266 0.475953
-0.290288 -0.451787 0.063815
-0.290288 -0.035642 0.465791
-0.290288 -0.218220 -0.438795
-0.290288 -0.478677 0.120026
-0.290288 -0.333365 -0.350399
-0.290288 0.436354 0.197985
-0.290288 -0.361236 0.324362
-0.290288 -0.220550 0.440287
-0.290288 0.167036 -0.418951
-0.290288 0.455654 0.031263
-0.290288 -0.036677 -0.450073
-0.290288 0.410922 -0.240571
-0.290288 0.200585 0.453145
-0.290288 0.314545 -0.367414
-0.290288 0.456344 -0.003482
-0.290288 0.487194 -0.102034
-0.290288 0.150075 0.472230
-0.290288 0.122878 -0.448766
-0.290288 -0.042532 0.491363
-0.290288 0.432265 0.217228
-0.290288 -0.091309 0.460082
-0.290288 0.166772 -0.460133
-0.290288 -0.486753 -0.085930
-0.290288 0.400509 -0.291398
-0.290288 -0.211980 -0.398995
-0.290288 0.297969 0.369434
-0.290288 0.417613 0.266316
-0.290288 -0.462878 0.131348
-0.290288 0.391646 -0.264583
-0.290288 0.189238 -0.422336
-0.290288 -0.421655 0.261863
-0.290288 -0.476487 -0.016031
-0.290288 0.027613 0.489978
-0.290288 0.482995 -0.025509
-0.290288 -0.058027 0.452429
-0.290288 0.354406 0.299645
-0.290288 -0.247267 0.394526
-0.290288 0.269823 0.353696
-0.290288 0.361898 -0.332038
-0.290288 0.401135 -0.247532
-0.290288 -0.451905 0.185993
-0.290288 0.284996 -0.380570
-0.290288 -0.155405 0.438383
-0.290288 0.459359 -0.138468
-0.290288 -0.084695 0.488287
-0.290288 0.403321 0.234717
-0.290288 0.483566 -0.090534
-0.290288 0.373974 -0.321684
-0.290288 -0.471596 0.097044
-0.290288 -0.346411 0.326149
-0.290288 -0.004852 0.482916
-0.290288 -0.379309 -0.296730
-0.290288 0.146376 0.469247
-0.290288 0.435397 0.235767
-0.290288 -0.244368 0.387761
-0.290288 0.250805 0.378323
-0.290288 -0.423984 -0.233840
-0.290288 0.335713 -0.348038
-0.290288 -0.424988 -0.190317
-0.290288 0.450735 -0.089748
-0.290288 -0.335909 0.295742
-0.290288 0.483762 -0.034614
-0.290288 0.251696 0.370865
-0.290288 0.305540 -0.326993
-0.290288 -0.480360 0.035272
-0.290288 0.304736 0.384056
-0.290288 0.400918 -0.254440
-0.290288 0.111660 0.434636
-0.290288 -0.472858 0.010059
-0.290288 -0.109905 -0.461945
-0.290288 -0.316989 -0.384032
-0.290288 -0.494479 0.047627
-0.290288 0.282776 0.401941
-0.290288 0.102171 -0.439121
-0.290288 0.314847 -0.339838
-0.290288 -0.429409 0.143485
-0.290288 0.309109 0.382258
-0.290288 0.193124 0.436852
-0.290288 0.069930 -0.470384
-0.290288 0.360130 0.303159
-0.290288 0.300860 -0.346810
-0.290288 -0.003804 0.462464
-0.290288 0.193228 0.432077
-0.290288 -0.287082 -0.349711
-0.290288 -0.352811 0.343947
-0.290288 -0.457268 -0.050045
-0.290288 0.217650 -0.443864
-0.290288 0.285650 -0.410120
-0.290288 -0.357144 -0.275446
-0.290288 0.028000 0.457613
-0.290288 0.433946 -0.224350
-0.290288 0.310815 0.317561
-0.290288 -0.259052 0.383645
-0.290288 -0.353391 0.281944
-0.290288 -0.286086 0.369663
-0.290288 0.465415 -0.119300
-0.290288 -0.451576 -0.124574
-0.290288 -0.217041 0.439596
-0.290288 -0.451781 0.146190
-0.290288 0.484898 0.085392
-0.290288 0.431941 0.244022
-0.290288 -0.014697 -0.453103
-0.290288 -0.049639 0.440767
-0.290288 -0.200727 0.406011
-0.290288 -0.136445 -0.442157
-0.290288 0.472404 -0.158629
-0.290288 0.199691 0.421269
-0.290288 0.228921 -0.439897
-0.290288 -0.474857 0.002866
-0.290288 0.411282 -0.196498
-0.290288 0.430148 -0.209992
-0.290288 0.162142 0.425356
-0.290288 0.206633 0.440090
-0.290288 0.450134 0.024294
-0.290288 -0.447686 0.023919
-0.290288 -0.453159 -0.035655
-0.290288 0.207144 0.412700
-0.290288 -0.494852 0.002439
-0.290288 0.248395 -0.396700
-0.290288 0.456679 0.034857
-0.290288 -0.385781 0.293587
-0.290288 -0.055253 0.485098
-0.290288 -0.287726 0.373945
-0.290288 0.407936 -0.225252
-0.290288 0.463844 0.072280
-0.290288 -0.039364 -0.469245
-0.290288 0.123131 -0.434846
-0.290288 0.393746 -0.290070
-0.290288 0.442040 0.080344
-0.290288 -0.450289 0.114814
-0.290288 0.372599 0.326582
-0.290288 0.126330 0.473673
-0.290288 0.341884 -0.342003
-0.290288 -0.490708 -0.076873
-0.290288 0.450222 0.208909
-0.290288 -0.446099 0.189991
-0.290288 -0.328376 -0.346479
-0.290288 -0.292753 -0.390737
-0.290288 0.080429 -0.493446
-0.290288 0.245371 0.393108
-0.290288 0.392334 0.262866
-0.290288 0.064479 0.439727
-0.290288 -0.038407 0.468456
-0.290288 0.453654 0.080028
-0.290288 -0.228210 0.424298
-0.290288 -0.406164 -0.246155
-0.290288 0.483427 0.111678
-0.290288 -0.122990 0.470316
-0.290288 0.445546 -0.173062
-0.290288 -0.018830 -0.488131
-0.290288 -0.402352 0.210020
-0.290288 -0.407249 -0.260245
-0.290288 -0.287983 0.340058
-0.290288 -0.461854 0.077194
-0.290288 0.322669 -0.340214
-0.290288 -0.305648 -0.384967
-0.290288 0.124890 0.455348
-0.290288 -0.027461 0.448959
-0.290288 -0.430957 -0.140863
-0.290288 -0.453602 0.143517
-0.290288 0.018457 0.452924
-0.290288 0.470011 -0.069752
-0.290288 0.124115 -0.474131
-0.290288 0.463053 -0.154914
-0.290288 -0.108755 0.481555
-0.290288 0.360271 0.318410
-0.290288 -0.455076 -0.004410
-0.290288 0.354397 -0.323528
-0.290288 0.325684 -0.338183
-0.290288 0.093617 -0.453122
-0.290288 0.316477 0.313840
-0.290288 -0.033148 -0.450812
-0.290288 -0.359977 0.292272
-0.290288 0.443782 -0.123846
-0.290288 -0.488095 0.074829
-0.290288 0.434624 -0.203599
-0.290288 0.453728 0.188893
-0.290288 0.043108 0.449900
-0.290288 -0.270536 0.384762
-0.290288 -0.168491 -0.427902
-0.290288 -0.214419 -0.428080
-0.290288 0.017938 0.482867
-0.290288 -0.071292 -0.471537
-0.290288 0.358598 0.315009
-0.290288 0.261617 0.413186
-0.290288 -0.280236 -0.382485
-0.290288 -0.447071 -0.044341
-0.290288 0.081061 -0.445766
-0.290288 -0.255801 -0.367198
-0.290288 0.068764 -0.458617
-0.290288 -0.447416 -0.048564
-0.290288 -0.183818 -0.413593
-0.290288 -0.170384 -0.417036
-0.290288 -0.080453 0.439385
-0.290288 0.459806 0.016314
-0.290288 -0.466525 0.132317
-0.290288 -0.252569 0.411672
-0.290288 0.225957 0.405874
-0.290288 -0.478090 -0.058785
-0.290288 -0.239485 0.408622
-0.290288 0.161282 -0.422830
-0.290288 0.229455 0.434479
-0.290288 -0.436583 -0.212251
-0.290288 -0.055592 -0.489925
-0.290288 -0.367526 -0.332335
-0.290288 -0.401235 0.289520
-0.290288 -0.347363 0.353269
-0.290288 -0.457219 0.082556
-0.290288 -0.140725 -0.471624
-0.290288 0.369958 -0.276365
-0.290288 -0.160917 -0.464976
-0.290288 0.316725 -0.353567
-0.290288 -0.242616 -0.420071
-0.290288 -0.363545 0.315430
-0.290288 0.269644 0.407460
-0.290288 -0.288393 -0.346501
-0.290288 -0.146106 0.463152
-0.290288 0.328855 -0.304542
-0.290288 -0.438229 0.163708
-0.290288 0.031288 -0.489829
-0.290288 0.441898 -0.219405
-0.290288 0.318029 0.376407
-0.290288 0.462949 0.154593
-0.290288 -0.312986 -0.326262
-0.290288 0.379473 0.243438
-0.290288 -0.262177 -0.365202
-0.290288 -0.276045 0.386621
-0.290288 0.373218 0.285609
-0.290288 0.199475 0.438160
-0.290288 -0.046352 -0.485153
-0.290288 -0.392111 -0.214304
-0.290288 -0.131287 -0.440323
-0.290288 0.403922 -0.209308
-0.290288 -0.230542 -0.433732
-0.290288 -0.249161 0.410891
-0.290288 -0.290599 -0.366323
-0.290288 0.269987 0.397901
-0.290288 0.247723 0.372281
-0.290288 -0.399593 -0.276060
-0.290288 -0.011631 0.480912
-0.290288 -0.423275 0.232726
-0.290288 -0.426599 -0.169340
-0.290288 0.187124 0.445493
-0.290288 -0.396025 -0.205085
-0.290288 -0.423214 -0.249908
-0.290288 0.439029 -0.155224
-0.290288 0.117462 -0.464882
-0.290288 -0.105597 0.457132
-0.290288 0.414206 0.196989
-0.290288 -0.266549 0.374895
-0.290288 -0.468770 -0.058788
-0.290288 -0.375243 0.263337
-0.290288 0.141511 -0.425192
-0.290288 -0.488249 0.047984
-0.290288 -0.447252 0.076523
-0.290288 0.463484 0.168810
-0.290288 0.024300 -0.481890
-0.290288 0.293226 0.375801
-0.290288 0.159287 -0.471459
-0.290288 -0.385254 0.312633
-0.290288 -0.157602 -0.422140
-0.290288 -0.175151 0.438067
-0.290288 0.460713 -0.113766
-0.290288 0.042143 -0.467316
-0.290288 -0.361109 -0.280763
-0.290288 0.327616 -0.346002
-0.290288 -0.285280 0.391542
-0.290288 -0.078927 -0.481448
-0.290288 0.399209 -0.220534
-0.290288 0.046955 0.466915
-0.290288 0.452181 0.185569
-0.290288 -0.471154 0.022543
-0.290288 0.128479 0.465166
-0.290288 -0.424471 -0.186833
-0.290288 0.481010 0.022548
-0.290288 -0.275938 0.369520
-0.290288 -0.365441 0.299902
-0.290288 0.033021 0.460986
-0.290288 -0.452826 0.196078
-0.290288 -0.490124 0.042577
-0.290288 -0.403816 0.249710
-0.290288 -0.331044 -0.326239
-0.290288 -0.203156 0.448569
-0.290288 -0.308296 0.347723
-0.290288 -0.447941 0.142720
-0.290288 -0.435277 0.195090
-0.290288 -0.148470 0.432984
-0.290288 0.192134 -0.407261
-0.290288 -0.422906 -0.230250
-0.290288 0.131953 0.473867
-0.290288 -0.061548 0.489962
-0.290288 0.225385 0.396802
-0.290288 -0.488222 -0.096563
-0.290288 0.414282 0.177103
-0.290288 0.440144 -0.094939
-0.290288 0.444933 -0.179982
-0.290288 -0.196337 -0.459520
-0.290288 -0.276703 -0.370856
-0.290288 -0.473541 -0.154306
-0.290288 0.466038 -0.072186
-0.290288 0.460663 -0.100384
-0.290288 -0.439712 -0.197624
-0.290288 0.448504 -0.189109
-0.290288 0.120678 -0.474020
-0.290288 -0.340420 -0.349966
-0.290288 0.095594 -0.490680
-0.290288 -0.328787 0.352807
-0.290288 -0.306654 0.340734
-0.290288 -0.460619 0.080568
-0.290288 -0.074126 0.460908
-0.290288 0.448167 0.169413
-0.290288 0.165344 0.445774
-0.290288 -0.099717 0.468224
-0.290288 0.212340 0.427196
-0.290288 0.338943 -0.309767
-0.290288 0.298065 -0.349838
-0.290288 0.446782 0.075578
-0.290288 0.399827 0.294916
-0.290288 -0.355115 0.316666
-0.290288 -0.134336 -0.454809
-0.290288 0.091596 0.487315
-0.290288 -0.443933 0.086600
-0.290288 -0.261670 -0.373016
-0.290288 0.251279 0.419731
-0.290288 -0.126067 0.426404
-0.290288 0.071916 -0.464187
-0.290288 0.475272 0.011053
-0.290288 -0.332096 -0.371286
-0.290288 -0.349969 -0.327922
-0.290288 -0.466592 0.112774
-0.290288 0.291510 0.371131
-0.290288 0.489116 -0.059606
-0.290288 0.454791 0.173555
-0.290288 0.450158 -0.186178
-0.290288 0.352634 -0.304181
-0.290288 0.275885 -0.377065
-0.290288 -0.283259 0.397932
-0.290288 0.098771 0.433598
-0.290288 -0.408022 0.281277
-0.290288 0.454524 0.192876
-0.290288 0.181399 -0.458649
-0.290288 0.077809 0.468822
-0.290288 -0.384194 -0.281010
-0.290288 -0.250405 0.374214
-0.290288 -0.171259 0.450590
-0.290288 0.113887 -0.446841
-0.290288 0.195701 -0.459710
-0.290288 0.139178 -0.479195
-0.290288 0.495390 0.045690
-0.290288 0.077418 0.461573
-0.290288 -0.065853 -0.495798
-0.290288 0.463568 0.096317
-0.290288 0.324260 0.318923
-0.290288 0.461575 0.117954
-0.290288 0.401079 0.238624
-0.290288 -0.142798 -0.449208
-0.290288 -0.383308 0.287510
-0.290288 0.448587 0.110131
-0.290288 0.367448 0.280449
-0.290288 0.173174 0.459031
-0.290288 0.002881 -0.485024
-0.290288 0.069362 0.476976
-0.290288 0.299333 0.340132
-0.290288 -0.344499 0.342801
-0.290288 -0.105084 -0.473203
-0.290288 0.009906 -0.490058
-0.290288 -0.195665 0.414897
-0.290288 0.454984 0.089671
-0.290288 -0.058249 0.445161
-0.290288 0.384292 -0.281155
-0.290288 -0.369069 0.324819
-0.290288 0.273418 -0.394571
-0.290288 -0.467731 -0.152437
-0.290288 0.495433 -0.035083
-0.290288 -0.255918 -0.419294
-0.290288 -0.256321 -0.385873
-0.290288 -0.244787 0.391267
-0.290288 0.337914 0.294153
-0.290288 0.388305 0.262325
-0.290288 0.445923 0.206663
-0.290288 0.406516 -0.244697
-0.290288 -0.330701 0.327250
-0.290288 -0.022958 0.477994
-0.290288 0.214103 -0.431550
-0.290288 -0.459490 0.086823
-0.290288 -0.387170 -0.271028
-0.290288 0.348379 -0.357138
-0.290288 0.493184 -0.027811
-0.290288 0.039681 0.473929
-0.290288 -0.302370 -0.331201
-0.290288 0.196647 0.445702
-0.290288 -0.482081 0.015579
-0.290288 0.220927 -0.391613
-0.290288 -0.467406 -0.051610
-0.290288 -0.246219 -0.434158
-0.290288 0.283355 0.360033
-0.290288 0.458596 -0.191468
-0.290288 0.463507 0.020272
-0.290288 0.270196 0.367628
-0.290288 0.359097 0.329866
-0.290288 -0.087176 0.474519
-0.290288 0.234644 0.423783
-0.290288 -0.444062 0.092909
-0.290288 0.097492 0.470870
-0.290288 -0.156001 0.426330
-0.290288 0.124297 0.439646
-0.290288 0.494171 0.062732
-0.290288 -0.196670 -0.411339
-0.290288 0.453435 0.003563
-0.290288 -0.177493 0.453358
-0.290288 0.458379 0.145907
-0.290288 -0.148312 0.427867
-0.290288 0.407258 -0.211052
-0.290288 0.419746 -0.160687
-0.290288 -0.437016 0.126422
-0.290288 -0.289881 0.386675
-0.290288 -0.290206 -0.383407
-0.290288 -0.400390 -0.272410
-0.290288 -0.424888 -0.180255
-0.290288 0.466090 0.105790
-0.290288 -0.280829 0.349237
-0.290288 -0.449397 0.066185
-0.290288 0.252831 0.385072
-0.290288 0.484429 -0.073321
-0.290288 -0.446476 -0.182521
-0.290288 0.333933 0.306025
-0.290288 -0.371797 -0.290486
-0.290288 0.488703 -0.046019
-0.290288 -0.411203 0.224988
-0.290288 0.210859 -0.422175
-0.290288 -0.012291 -0.464802
-0.290288 -0.453383 -0.052925
-0.290288 0.414976 0.245461
-0.290288 0.478570 -0.041652
-0.290288 -0.487944 0.079327
-0.290288 0.346868 -0.321813
-0.290288 0.291965 0.356608
-0.290288 0.237809 0.420285
-0.290288 -0.456760 0.099774
-0.290288 0.366235 0.286577
-0.290288 -0.130400 0.453012
-0.290288 0.374724 -0.250473
-0.290288 -0.286651 -0.370819
-0.290288 -0.183824 0.451355
-0.290288 -0.053968 -0.476650
-0.290288 0.268100 -0.392273
-0.290288 -0.360599 -0.314469
-0.290288 -0.425907 0.223173
-0.290288 -0.055144 0.440203
-0.290288 -0.249447 0.391117
-0.290288 0.396015 0.220606
-0.290288 -0.456495 -0.189056
-0.290288 0.242332 0.394869
-0.290288 -0.426538 0.195793
-0.290288 -0.259034 0.408122
-0.290288 -0.004492 0.469262
-0.290288 -0.199138 0.427341
-0.290288 0.457133 0.023164
-0.290288 0.304043 -0.365034
-0.290288 0.244460 0.400157
-0.290288 0.469055 0.097754
-0.290288 -0.485804 0.015559
-0.290288 -0.481712 0.053090
-0.290288 -0.397487 0.221869
-0.290288 0.263599 -0.419881
-0.290288 0.013938 0.482573
-0.290288 0.341833 0.304758
-0.290288 0.260653 -0.375319
-0.290288 -0.067187 0.473348
-0.290288 -0.344108 -0.346039
-0.290288 0.165890 0.424146
-0.290288 0.285289 -0.391775
-0.290288 0.271449 -0.359910
-0.290288 -0.333653 0.333781
-0.290288 0.270534 0.411648
-0.290288 0.463799 -0.102772
-0.290288 0.488218 0.025205
-0.290288 0.144359 -0.468333
-0.290288 0.102526 -0.442536
-0.290288 0.352550 -0.275601
-0.290288 0.458773 -0.060060
-0.290288 0.452843 -0.074015
-0.290288 0.399636 0.234124
-0.290288 0.047821 0.441772
-0.290288 0.439262 0.130953
-0.290288 -0.327942 0.332867
-0.290288 0.292730 -0.363725
-0.290288 0.087760 0.487717
-0.290288 -0.016667 -0.481492
-0.290288 -0.413960 -0.237490
-0.290288 -0.330262 0.365559
-0.290288 -0.380393 0.267106
-0.290288 -0.129853 -0.452474
-0.290288 0.422810 -0.211663
-0.290288 -0.433715 -0.244903
-0.290288 0.402759 -0.241772
-0.290288 -0.309745 -0.342226
-0.290288 0.281662 -0.367019
-0.290288 -0.206716 -0.453878
-0.290288 0.017559 0.467844
-0.290288 0.152092 -0.471790
-0.290288 -0.224760 0.408797
-0.290288 -0.468533 0.029374
-0.290288 0.283612 0.378686
-0.290288 0.458271 0.159496
-0.290288 -0.124829 0.449291
-0.290288 -0.185770 0.410752
-0.290288 -0.008778 0.479702
-0.290288 -0.402533 0.221933
-0.290288 0.268537 -0.421873
-0.290288 0.454161 -0.024222
-0.290288 -0.319953 0.377524
-0.290288 -0.434069 0.216280
-0.290288 -0.460944 0.013631
-0.290288 -0.222689 0.442508
-0.290288 0.143081 -0.440247
-0.290288 0.267249 -0.399023
-0.290288 -0.343100 -0.294831
-0.290288 0.456444 0.018214
-0.290288 -0.233529 0.389501
-0.290288 -0.074838 -0.443589
-0.290288 0.318148 0.329142
-0.290288 0.396322 0.253653
-0.290288 0.447913 -0.128584
-0.290288 0.173694 -0.457596
-0.290288 0.383938 0.275042
-0.290288 -0.073628 -0.447699
-0.290288 -0.418880 0.220930
-0.290288 -0.454272 -0.047733
-0.290288 -0.356344 -0.310900
-0.290288 0.323913 0.376279
-0.290288 -0.232254 -0.420330
-0.290288 0.396263 -0.234214
-0.290288 0.437461 0.121419
-0.290288 -0.107541 -0.445774
-0.290288 0.405747 -0.291005
-0.290288 -0.484830 0.099359
-0.290288 0.236046 0.379218
-0.290288 0.331992 -0.306402
-0.290288 0.066148 -0.461178
-0.290288 -0.336049 -0.355432
-0.290288 0.131495 -0.461240
-0.290288 -0.444417 0.098725
-0.290288 0.144597 -0.475428
-0.290288 0.416129 -0.264575
-0.290288 -0.399912 0.286362
-0.290288 0.089921 0.456908
-0.290288 -0.047707 0.450446
-0.290288 0.457463 0.118358
-0.290288 0.112407 0.443746
-0.290288 -0.489774 0.017125
-0.290288 0.442097 -0.133906
-0.290288 -0.467435 0.023142
-0.290288 -0.375863 0.322077
