-0.290288 0.482140 -0.030603
-0.290288 0.296139 -0.340981
-0.290288 0.294510 -0.384593
-0.290288 -0.276590 0.354934
-0.290288 0.259396 0.387830
-0.290288 -0.429837 0.152664
-0.290288 0.229108 0.435006
-0.290288 -0.094930 -0.478225
-0.290288 0.431250 -0.127954
-0.290288 -0.008828 -0.475380
-0.290288 0.454054 0.142632
-0.290288 0.157895 -0.437094
-0.290288 0.476127 0.044954
-0.290288 0.317430 0.381942
-0.290288 0.261124 -0.423915
-0.290288 0.139140 -0.439766
-0.290288 -0.265304 -0.401221
-0.290288 0.107228 -0.469600
-0.290288 0.388013 0.256386
-0.290288 -0.399970 0.234464
-0.290288 -0.358898 0.313663
-0.290288 -0.106841 -0.438486
-0.290288 -0.299143 -0.351491
-0.290288 0.437357 -0.230373
-0.290288 -0.092230 -0.452402
-0.290288 0.393213 0.236920
-0.290288 -0.264399 0.380288
-0.290288 -0.154256 -0.458461
-0.290288 0.476237 -0.148576
-0.290288 0.307164 0.332994
-0.290288 0.398273 0.221698
-0.290288 -0.351248 -0.332767
-0.290288 -0.111826 -0.477010
-0.290288 -0.340246 -0.357502
-0.290288 0.310340 0.365018
-0.290288 0.367570 0.324068
-0.290288 -0.213451 -0.439340
-0.290288 0.319697 0.315556
-0.290288 -0.332151 -0.353026
-0.290288 0.137412 0.458979
-0.290288 0.358726 0.328651
-0.290288 -0.326171 0.312941
-0.290288 0.107976 0.453252
-0.290288 -0.320847 -0.377879
-0.290288 0.112104 0.465553
-0.290288 0.416247 -0.219158
-0.290288 0.464110 0.144944
-0.290288 -0.494139 -0.041879
-0.290288 -0.452188 -0.117465
-0.290288 0.266976 -0.363855
-0.290288 -0.234194 -0.432106
-0.290288 0.292163 0.361952
-0.290288 -0.445620 -0.205537
-0.290288 -0.110388 -0.445320
-0.290288 -0.458753 0.093166
-0.290288 -0.446880 0.087753
-0.290288 0.019559 -0.461552
-0.290288 -0.479961 -0.089792
-0.290288 -0.120873 0.470292
-0.290288 -0.468388 -0.055918
-0.290288 -0.299708 -0.379663
-0.290288 0.270002 -0.405476
-0.290288 -0.292307 -0.347335
-0.290288 -0.362062 0.277374
-0.290288 -0.410835 -0.282365
-0.290288 -0.278866 0.405465
-0.290288 0.190128 0.423086
-0.290288 -0.028324 0.463348
-0.290288 -0.260074 -0.417938
-0.290288 -0.448928 0.195419
-0.290288 -0.319216 -0.328012
-0.290288 0.114572 -0.435489
-0.290288 -0.348862 -0.326681
-0.290288 0.298910 0.368685
-0.290288 0.417739 0.257430
-0.290288 -0.480729 0.099408
-0.290288 -0.395333 0.276149
-0.290288 -0.006660 -0.463195
-0.290288 -0.300845 -0.369448
-0.290288 0.445416 0.049172
-0.290288 -0.450420 -0.135048
-0.290288 -0.374364 -0.302429
-0.290288 -0.056356 -0.470560
-0.290288 -0.337669 0.300201
-0.290288 -0.484071 0.076266
-0.290288 0.450771 -0.161161
-0.290288 0.206420 -0.435555
-0.290288 -0.113037 -0.460684
-0.290288 -0.220531 -0.448425
-0.290288 -0.276914 0.373479
-0.290288 0.345125 0.313403
-0.290288 -0.298146 -0.400413
-0.290288 -0.002702 0.474710
-0.290288 -0.360656 0.327999
-0.290288 0.008758 0.468185
-0.290288 -0.373330 0.249012
-0.290288 0.312874 -0.368960
-0.290288 0.040448 0.488708
-0.290288 -0.424791 0.130660
-0.290288 0.116087 0.481713
-0.290288 0.082985 -0.443540
-0.290288 -0.187995 0.432384
-0.290288 -0.401523 -0.222833
-0.290288 -0.206006 -0.420817
-0.290288 -0.224688 -0.386390
-0.290288 -0.179590 0.450967
-0.290288 0.017360 0.483737
-0.290288 0.035233 0.453922
-0.290288 0.396007 -0.287229
-0.290288 0.054732 -0.449798
-0.290288 -0.051531 0.466714
-0.290288 0.038654 -0.477295
-0.290288 -0.009743 0.495371
-0.290288 0.039902 -0.480833
-0.290288 0.333824 0.298463
-0.290288 -0.469212 0.160094
-0.290288 0.155828 0.457643
-0.290288 0.423805 -0.246222
-0.290288 0.469323 0.141502
-0.290288 0.395675 0.232748
-0.290288 0.334652 -0.296932
-0.290288 -0.435444 -0.150584
-0.290288 -0.081134 0.481929
-0.290288 -0.454474 -0.197569
-0.290288 -0.123770 -0.476157
-0.290288 0.271808 -0.369349
-0.290288 -0.332066 -0.298267
-0.290288 -0.359749 -0.333004
-0.290288 0.134710 0.457000
-0.290288 0.477130 -0.089248
-0.290288 0.325164 -0.341927
-0.290288 0.249856 0.407824
-0.290288 0.069226 0.467814
-0.290288 -0.211268 0.438872
-0.290288 -0.180716 -0.419812
-0.290288 0.356415 -0.276009
-0.290288 0.431062 0.199444
-0.290288 0.427264 -0.176274
-0.290288 0.158832 0.445165
-0.290288 0.429880 -0.198585
-0.290288 0.255907 -0.402836
-0.290288 -0.139088 -0.459927
-0.290288 0.461186 -0.003976
-0.290288 -0.073788 0.449443
-0.290288 -0.424143 -0.233015
-0.290288 -0.332022 0.297743
-0.290288 -0.208192 -0.440986
-0.290288 -0.288729 0.371026
-0.290288 0.214524 -0.427328
-0.290288 0.028796 -0.478981
-0.290288 0.167055 -0.464504
-0.290288 -0.457400 -0.179275
-0.290288 0.345989 -0.295344
-0.290288 -0.356042 -0.288815
-0.290288 0.497374 -0.036643
-0.290288 -0.129127 -0.432219
-0.290288 0.408037 -0.206137
-0.290288 0.487484 -0.078333
-0.290288 0.172791 -0.447138
-0.290288 -0.228036 -0.405423
-0.290288 0.190486 -0.421940
-0.290288 0.013072 0.482661
-0.290288 0.000032 0.486366
-0.290288 -0.405517 -0.224636
-0.290288 -0.219104 -0.445457
-0.290288 -0.234204 0.431703
-0.290288 0.445680 0.167642
-0.290288 -0.260254 0.361001
-0.290288 0.144104 -0.455597
-0.290288 0.381470 -0.279315
-0.290288 0.456903 -0.118108
-0.290288 0.058279 0.486916
-0.290288 0.255295 -0.391447
-0.290288 -0.436978 -0.098775
-0.290288 -0.196227 -0.430522
-0.290288 -0.071007 -0.447035
-0.290288 0.010385 -0.499972
-0.290288 -0.459023 0.034845
-0.290288 0.449956 -0.098376
-0.290288 -0.153881 -0.431816
-0.290288 -0.376188 -0.305565
-0.290288 0.436358 -0.157752
-0.290288 -0.411961 -0.218867
-0.290288 -0.217439 0.445149
-0.290288 -0.109782 0.474254
-0.290288 -0.412394 -0.257726
-0.290288 0.342891 0.296642
-0.290288 -0.058127 0.439515
-0.290288 0.465259 0.170781
-0.290288 -0.457969 -0.004252
-0.290288 -0.253990 -0.391591
-0.290288 0.046419 -0.476667
-0.290288 0.473594 0.013424
-0.290288 0.427558 0.124409
-0.290288 -0.242299 0.383658
-0.290288 0.005901 -0.485778
-0.290288 0.496873 -0.003359
-0.290288 -0.277597 -0.351032
-0.290288 -0.469720 -0.115695
-0.290288 0.249737 -0.424272
-0.290288 0.492321 0.032099
-0.290288 -0.455446 -0.108471
-0.290288 -0.328250 -0.318100
-0.290288 -0.413960 -0.182679
-0.290288 0.087875 -0.442474
-0.290288 -0.483049 0.092782
-0.290288 -0.058021 -0.495921
-0.290288 -0.191672 -0.406235
-0.290288 -0.471472 -0.129064
-0.290288 0.447153 -0.113103
-0.290288 -0.054183 -0.453649
-0.290288 -0.318036 -0.319070
-0.290288 -0.387728 -0.262525
-0.290288 0.491333 -0.046209
-0.290288 -0.130790 0.432209
-0.290288 -0.490164 -0.046574
-0.290288 -0.364229 0.283421
-0.290288 0.306023 0.369329
-0.290288 0.455823 0.071620
-0.290288 0.053238 -0.491704
-0.290288 -0.144782 -0.426911
-0.290288 -0.421805 0.150024
-0.290288 -0.103946 0.434551
-0.290288 0.415349 -0.262754
-0.290288 0.335769 0.363301
-0.290288 0.476830 0.116393
-0.290288 -0.292806 0.346826
-0.290288 -0.186209 -0.440610
-0.290288 0.458984 -0.176026
-0.290288 -0.411547 -0.197607
-0.290288 -0.431939 0.119469
-0.290288 0.319675 -0.347882
-0.290288 -0.101339 0.484993
-0.290288 -0.260377 0.385483
-0.290288 -0.297615 0.381702
-0.290288 -0.454280 0.031844
-0.290288 -0.410194 0.190972
-0.290288 0.481245 -0.048631
-0.290288 0.371445 0.262548
-0.290288 -0.260089 0.379249
-0.290288 -0.259163 0.422832
-0.290288 -0.472586 -0.029758
-0.290288 0.385595 -0.286836
-0.290288 0.151629 -0.456198
-0.290288 -0.454428 0.095613
-0.290288 -0.443941 -0.193094
-0.290288 -0.127449 0.431378
-0.290288 0.142179 0.445097
-0.290288 -0.418485 -0.205417
-0.290288 0.322680 0.368774
-0.290288 -0.494353 0.019414
-0.290288 0.259168 -0.392429
-0.290288 0.426617 0.194637
-0.290288 0.452547 0.120661
-0.290288 0.183586 0.406199
-0.290288 0.085389 -0.483875
-0.290288 -0.442644 0.047646
-0.290288 0.069421 -0.490444
-0.290288 0.385278 0.301056
-0.290288 -0.076996 -0.440761
-0.290288 -0.361393 0.322322
-0.290288 0.106008 0.470656
-0.290288 -0.461906 -0.177566
-0.290288 0.274597 -0.397268
-0.290288 0.420384 -0.164386
-0.290288 -0.452719 -0.205754
-0.290288 -0.430293 -0.166189
-0.290288 0.045396 -0.489697
-0.290288 -0.451434 0.048798
-0.290288 0.391460 0.219660
-0.290288 0.457829 0.049427
-0.290288 0.460900 -0.162434
-0.290288 -0.007728 -0.487613
-0.290288 -0.444877 0.015301
-0.290288 -0.155983 0.420493
-0.290288 -0.200596 -0.434834
-0.290288 -0.268766 0.365767
-0.290288 -0.358983 0.320416
-0.290288 -0.315017 -0.367507
-0.290288 -0.197246 0.428982
-0.290288 -0.119571 -0.477310
-0.290288 0.369185 0.282111
-0.290288 -0.041408 0.478114
-0.290288 -0.116046 0.474742
-0.290288 -0.253938 0.425260
-0.290288 -0.429807 0.175942
-0.290288 -0.438653 -0.077248
-0.290288 -0.253106 0.412044
-0.290288 -0.238542 -0.427215
-0.290288 0.146096 -0.442582
-0.290288 -0.437310 0.150300
-0.290288 -0.388638 0.238874
-0.290288 0.201359 0.429340
-0.290288 0.458210 -0.159965
-0.290288 0.430546 -0.143276
-0.290288 -0.306686 0.388033
-0.290288 -0.389082 0.279354
-0.290288 -0.021497 -0.478946
-0.290288 0.479239 0.028930
-0.290288 0.233042 -0.424268
-0.290288 -0.330233 0.307961
-0.290288 0.032335 0.481197
-0.290288 0.421167 -0.256846
-0.290288 -0.312062 0.347676
-0.290288 -0.374130 -0.274071
-0.290288 0.443557 0.046335
-0.290288 -0.450630 -0.160586
-0.290288 0.475040 -0.105928
-0.290288 -0.140537 0.445877
-0.290288 -0.335936 0.327364
-0.290288 -0.458933 -0.017630
-0.290288 -0.296964 0.376231
-0.290288 -0.430106 -0.129339
-0.290288 -0.342505 -0.306181
-0.290288 0.428943 0.120824
-0.290288 -0.403319 0.217681
-0.290288 -0.085501 -0.466965
-0.290288 -0.426405 0.224146
-0.290288 0.094756 0.443358
-0.290288 -0.467290 0.152125
-0.290288 0.289885 0.347328
-0.290288 0.087280 -0.481045
-0.290288 0.411074 0.253178
-0.290288 -0.328123 0.310360
-0.290288 -0.097175 -0.490288
-0.290288 -0.423732 -0.201428
-0.290288 0.394244 0.259746
-0.290288 -0.332511 -0.359493
-0.290288 0.199017 -0.407168
-0.290288 0.012544 -0.457889
-0.290288 0.375141 -0.310414
-0.290288 -0.304688 0.376687
-0.290288 -0.283254 0.378573
-0.290288 -0.488213 0.033745
-0.290288 0.226047 -0.434746
-0.290288 0.059534 -0.488390
-0.290288 -0.483390 -0.068070
-0.290288 0.344995 -0.349859
-0.290288 -0.440828 0.060316
-0.290288 -0.086617 -0.444042
-0.290288 0.367150 0.317833
-0.290288 -0.016640 0.448808
-0.290288 -0.359923 -0.294143
-0.290288 -0.463021 0.163019
-0.290288 0.387109 -0.255536
-0.290288 -0.024349 -0.476499
-0.290288 0.383580 0.250262
-0.290288 -0.218654 -0.412730
-0.290288 0.454608 0.093859
-0.290288 0.013345 -0.452447
-0.290288 -0.216362 0.391855
-0.290288 -0.276492 0.400390
-0.290288 -0.327393 0.350006
-0.290288 -0.099673 -0.444060
-0.290288 0.417484 -0.258058
-0.290288 -0.201006 0.401042
-0.290288 -0.184029 0.448349
-0.290288 0.215635 -0.431657
-0.290288 -0.200456 0.445076
-0.290288 -0.026196 0.488924
-0.290288 0.446046 -0.161520
-0.290288 -0.414463 -0.211594
-0.290288 -0.076846 -0.489935
-0.290288 -0.374484 -0.290763
-0.290288 0.439645 -0.183279
-0.290288 0.155976 -0.465283
-0.290288 0.430566 -0.177611
-0.290288 -0.045276 0.489350
-0.290288 0.390395 -0.265001
-0.290288 -0.494882 -0.052753
-0.290288 -0.090336 0.442451
-0.290288 -0.203231 0.411145
-0.290288 0.350410 0.309549
-0.290288 -0.294682 -0.392427
-0.290288 0.454590 -0.173229
-0.290288 0.456423 -0.157022
-0.290288 -0.320095 -0.313702
-0.290288 -0.175059 -0.467512
-0.290288 0.137669 0.471416
-0.290288 0.331058 0.315374
-0.290288 0.472373 0.143885
-0.290288 -0.450043 0.060022
-0.290288 -0.249557 0.390432
-0.290288 0.002364 -0.458764
-0.290288 0.469105 0.082972
-0.290288 0.101655 0.472051
-0.290288 -0.317099 -0.337440
-0.290288 -0.363228 0.271354
-0.290288 -0.288374 -0.376579
-0.290288 -0.142641 -0.465359
-0.290288 0.296910 -0.353308
-0.290288 -0.441443 0.195353
-0.290288 -0.449542 -0.062159
-0.290288 -0.407879 -0.278511
-0.290288 -0.099813 -0.462719
-0.290288 -0.446747 0.060272
-0.290288 -0.428625 -0.181807
-0.290288 0.400846 -0.267988
-0.290288 -0.409721 -0.178958
-0.290288 -0.145242 -0.445834
-0.290288 0.153756 -0.422547
-0.290288 0.412968 -0.230320
-0.290288 -0.332654 0.364645
-0.290288 -0.485257 -0.100472
-0.290288 -0.368310 -0.276566
-0.290288 -0.440765 -0.084228
-0.290288 -0.496815 -0.024113
-0.290288 -0.416355 0.235138
-0.290288 0.106562 0.446485
-0.290288 0.353578 -0.343409
-0.290288 0.045399 0.456341
-0.290288 -0.186389 0.415479
-0.290288 0.190173 0.410069
-0.290288 -0.013659 -0.493301
-0.290288 -0.381984 0.305586
-0.290288 -0.060041 -0.455346
-0.290288 0.470432 -0.138591
-0.290288 -0.256914 0.377523
-0.290288 -0.437714 -0.182333
-0.290288 -0.432430 -0.177451
-0.290288 -0.468183 -0.118604
-0.290288 0.484519 -0.117361
-0.290288 0.256864 0.385252
-0.290288 -0.016134 -0.499806
-0.290288 -0.240092 -0.436269
-0.290288 -0.266262 0.363420
-0.290288 -0.363889 0.274481
-0.290288 0.008176 0.462325
-0.290288 -0.188216 -0.454627
-0.290288 0.414783 0.177943
-0.290288 -0.462530 0.140522
-0.290288 -0.479138 0.112806
-0.290288 0.351753 0.301166
-0.290288 -0.244260 -0.379292
-0.290288 0.325764 -0.367788
-0.290288 0.454998 -0.176393
-0.290288 0.419306 0.211979
-0.290288 0.004935 -0.449514
-0.290288 -0.421063 -0.214788
-0.290288 0.242205 -0.411699
-0.290288 0.436216 -0.218687
-0.290288 0.381824 0.286107
-0.290288 -0.151318 -0.451733
-0.290288 0.007216 -0.493758
-0.290288 -0.331162 -0.309868
-0.290288 -0.423767 -0.166232
-0.290288 0.084105 0.435364
-0.290288 -0.221911 0.406417
-0.290288 0.464938 -0.155465
-0.290288 -0.418624 -0.162997
-0.290288 0.328836 0.349992
-0.290288 -0.324914 -0.351130
-0.290288 0.392107 -0.239632
-0.290288 -0.113266 0.456959
-0.290288 0.337209 0.296208
-0.290288 -0.399294 -0.273979
-0.290288 -0.409834 0.199088
-0.290288 -0.380936 -0.240995
-0.290288 0.457402 -0.163068
-0.290288 -0.145795 -0.441452
-0.290288 0.436698 -0.102884
-0.290288 0.484328 -0.086402
-0.290288 0.462924 0.013070
-0.290288 0.404435 -0.222273
-0.290288 0.396630 -0.283500
-0.290288 0.472387 0.096460
-0.290288 0.464128 0.179657
-0.290288 0.443119 0.208106
-0.290288 0.240536 0.409508
-0.290288 0.277230 0.376060
-0.290288 -0.428798 0.208144
-0.290288 -0.441719 -0.087713
-0.290288 -0.054725 -0.491905
-0.290288 -0.414435 -0.177439
-0.290288 -0.147422 0.456256
-0.290288 0.347889 0.317413
-0.290288 -0.440053 0.226115
-0.290288 -0.312138 -0.350668
-0.290288 -0.226124 -0.393072
-0.290288 0.486143 0.087278
-0.290288 0.338845 0.299963
-0.290288 0.418137 0.225363
-0.290288 0.432574 0.206561
-0.290288 -0.001976 0.460890
-0.290288 -0.424972 -0.242069
-0.290288 -0.199761 0.448872
-0.290288 -0.442268 0.208221
-0.290288 -0.186447 0.450979
-0.290288 -0.035860 -0.490422
-0.290288 -0.425681 0.189200
-0.290288 -0.255673 -0.423323
-0.290288 0.492035 0.076734
-0.290288 -0.456675 -0.052414
-0.290288 0.237496 0.411381
-0.290288 0.070671 0.470799
-0.290288 0.416908 -0.267970
-0.290288 0.419507 -0.247469
-0.290288 -0.449647 -0.103856
-0.290288 -0.187719 -0.424532
-0.290288 0.128090 0.436134
-0.290288 0.179194 0.444019
-0.290288 -0.028043 0.443201
-0.290288 -0.083886 -0.491697
-0.290288 0.455675 -0.186634
-0.290288 0.090620 -0.440128
-0.290288 -0.210528 0.394991
-0.290288 -0.311209 0.365179
-0.290288 -0.469918 0.006906
-0.290288 0.305680 -0.354145
-0.290288 0.336320 -0.300288
-0.290288 0.423907 0.160134
-0.290288 -0.343065 0.357499
-0.290288 -0.370384 -0.272501
-0.290288 0.470974 -0.094368
-0.290288 -0.169779 -0.428068
-0.290288 -0.466885 0.057865
-0.290288 -0.153840 -0.465425
-0.290288 0.047333 0.451857
-0.290288 -0.243799 0.380316
-0.290288 -0.179819 0.460975
-0.290288 0.466362 -0.042569
-0.290288 0.070309 -0.456367
-0.290288 -0.456863 0.097540
-0.290288 0.402395 0.285781
-0.290288 0.085581 -0.457835
-0.290288 0.437022 0.158165
-0.290288 0.119649 0.432297
-0.290288 0.190369 -0.408733
-0.290288 0.257736 -0.400053
-0.290288 0.482925 -0.075769
-0.290288 0.435673 0.146880
-0.290288 0.410634 0.208501
-0.290288 -0.377974 -0.301291
-0.290288 0.376906 -0.299439
-0.290288 0.352808 0.323120
-0.290288 0.322774 -0.356464
-0.290288 -0.307141 -0.339100
-0.290288 -0.460153 -0.095170
-0.290288 -0.355536 0.284730
-0.290288 0.489695 0.005758
-0.290288 -0.291003 -0.384777
-0.290288 -0.273056 -0.368967
-0.290288 0.235647 0.381442
-0.290288 0.479250 -0.116265
-0.290288 0.258744 0.421063
-0.290288 0.257293 0.371918
-0.290288 -0.005267 -0.475262
-0.290288 0.457815 -0.131983
-0.290288 0.251271 0.413969
-0.290288 -0.238201 0.386524
-0.290288 -0.471549 0.048884
-0.290288 -0.480899 0.034116
-0.290288 0.001448 0.458132
-0.290288 0.378875 -0.311175
-0.290288 0.171448 0.457616
-0.290288 0.445447 -0.126687
-0.290288 -0.463493 0.166213
-0.290288 -0.076233 0.437961
-0.290288 -0.444115 0.187563
-0.290288 0.084574 -0.447115
-0.290288 -0.283688 0.386867
-0.290288 0.096141 0.467068
-0.290288 -0.189284 0.452354
-0.290288 -0.449883 -0.150475
-0.290288 0.092361 -0.489487
-0.290288 0.475306 0.146807
-0.290288 0.352726 0.288267
-0.290288 0.071381 -0.442595
-0.290288 0.449627 -0.123652
-0.290288 0.440912 -0.221578
-0.290288 0.288744 -0.388749
-0.290288 0.236285 0.414456
-0.290288 0.081046 -0.486883
-0.290288 0.158682 0.448684
-0.290288 -0.338421 0.311380
-0.290288 -0.103267 0.447068
-0.290288 -0.014973 -0.457019
-0.290288 0.422322 -0.216733
-0.290288 -0.307448 -0.392614
-0.290288 -0.469700 -0.151363
-0.290288 0.274101 -0.417425
-0.290288 0.273694 -0.410037
-0.290288 -0.478225 -0.021631
-0.290288 -0.065639 0.479751
-0.290288 -0.144977 -0.460340
-0.290288 0.178076 -0.459178
-0.290288 0.441160 0.201576
-0.290288 -0.225562 -0.396252
-0.290288 0.339548 0.286837
-0.290288 -0.445194 0.129575
-0.290288 0.107635 -0.459206
-0.290288 0.428898 -0.191629
-0.290288 0.088212 0.452083
-0.290288 0.373936 -0.264129
-0.290288 -0.417334 -0.200932
-0.290288 0.420860 -0.233249
-0.290288 -0.415542 0.231165
-0.290288 -0.444262 0.123541
-0.290288 0.344059 -0.331641
-0.290288 0.489601 -0.007210
-0.290288 0.357034 -0.286133
-0.290288 -0.356239 -0.301730
-0.290288 0.190858 -0.437416
-0.290288 0.009894 0.465260
-0.290288 -0.409425 -0.191106
-0.290288 -0.037146 0.447076
-0.290288 0.153529 -0.442499
-0.290288 0.132615 0.436716
-0.290288 0.251461 -0.387315
-0.290288 0.133737 0.460528
-0.290288 0.118727 -0.450697
-0.290288 -0.446342 -0.221817
-0.290288 -0.385844 -0.223706
-0.290288 0.327913 -0.332786
-0.290288 -0.037264 0.443567
-0.290288 -0.472301 -0.120902
-0.290288 0.370528 -0.309650
-0.290288 -0.407525 0.235355
-0.290288 0.378770 -0.287792
-0.290288 0.389129 0.242169
-0.290288 -0.404376 -0.283161
-0.290288 -0.228610 -0.435355
-0.290288 -0.011939 -0.476660
-0.290288 0.094848 -0.475539
-0.290288 -0.345017 0.332919
-0.290288 0.166918 0.457254
-0.290288 -0.386901 0.299536
-0.290288 0.095383 -0.485493
-0.290288 -0.223587 0.421770
-0.290288 -0.473713 -0.054737
-0.290288 -0.197557 0.412442
-0.290288 -0.255773 -0.414487
-0.290288 0.037756 0.464023
-0.290288 0.176597 -0.447082
-0.290288 0.371376 -0.271438
-0.290288 -0.247042 0.380382
-0.290288 -0.321579 0.331877
-0.290288 0.102887 0.431618
-0.290288 0.405212 -0.260398
-0.290288 -0.399451 0.220810
-0.290288 0.443913 0.164972
-0.290288 0.328124 -0.306547
-0.290288 -0.366303 0.326117
-0.290288 -0.319469 0.370569
-0.290288 0.389204 0.295355
-0.290288 -0.491601 0.059498
-0.290288 0.068252 -0.450867
-0.290288 -0.438035 -0.167279
-0.290288 -0.447862 0.053591
-0.290288 -0.044807 0.453147
-0.290288 0.026313 -0.488712
-0.290288 0.157743 -0.433569
-0.290288 -0.039596 -0.486662
-0.290288 -0.490396 0.008283
-0.290288 -0.397829 0.283399
-0.290288 0.361281 0.322171
-0.290288 0.122054 -0.430517
-0.290288 0.182118 0.410485
-0.290288 -0.101886 0.468834
-0.290288 -0.107063 0.448001
-0.290288 -0.482968 0.073120
-0.290288 0.429958 -0.252457
-0.290288 0.115523 0.459969
-0.290288 -0.366291 0.334425
-0.290288 0.448065 0.142258
-0.290288 -0.435901 0.216129
-0.290288 -0.402616 -0.208582
-0.290288 -0.173867 -0.450694
-0.290288 0.453668 0.090777
-0.290288 0.384775 -0.251521
-0.290288 -0.347775 0.346189
-0.290288 -0.291398 -0.378088
-0.290288 -0.467781 -0.132638
-0.290288 0.379428 -0.317142
-0.290288 0.226447 0.432929
-0.290288 0.402249 0.221592
-0.290288 -0.467614 0.122354
-0.290288 0.122482 0.445611
-0.290288 0.093421 -0.462219
-0.290288 0.143768 0.455582
-0.290288 0.479712 0.055813
-0.290288 0.311397 0.373848
-0.290288 0.280655 0.407487
-0.290288 0.313134 0.380253
-0.290288 -0.212930 0.409786
-0.290288 -0.407574 -0.227024
-0.290288 0.332448 0.305826
-0.290288 -0.475984 0.049575
-0.290288 -0.337994 0.346862
-0.290288 0.437671 -0.139890
-0.290288 -0.468797 -0.111012
-0.290288 -0.139852 -0.428759
-0.290288 -0.466470 0.046724
-0.290288 -0.012952 -0.489631
-0.290288 0.027500 -0.484822
-0.290288 0.449026 0.057295
-0.290288 -0.037604 0.461043
-0.290288 0.481585 -0.127684
-0.290288 -0.204514 0.427733
-0.290288 0.143360 0.433738
-0.290288 -0.044041 0.444078
-0.290288 0.034249 -0.483404
-0.290288 -0.458161 0.125948
-0.290288 0.449726 -0.083882
-0.290288 0.361299 0.267617
-0.290288 0.120453 -0.435401
-0.290288 0.037358 -0.470435
-0.290288 0.042098 0.465710
-0.290288 -0.431827 -0.213008
-0.290288 0.295314 0.369221
-0.290288 0.452438 -0.151106
-0.290288 -0.450268 -0.146447
-0.290288 0.158822 0.440682
-0.290288 0.439140 0.211100
-0.290288 0.100098 0.457223
-0.290288 0.351429 0.332147
-0.290288 0.185439 -0.464161
-0.290288 -0.183470 -0.416015
-0.290288 -0.488791 -0.006592
-0.290288 -0.212182 -0.449015
-0.290288 0.049731 0.440642
-0.290288 -0.301532 0.326052
-0.290288 -0.334389 -0.356615
-0.290288 0.453266 0.132364
-0.290288 0.069854 0.454786
-0.290288 0.056227 0.454404
-0.290288 0.237471 0.389655
-0.290288 0.214972 -0.407848
-0.290288 0.298024 -0.350195
-0.290288 -0.469918 0.030157
-0.290288 0.088240 -0.484902
-0.290288 -0.322705 0.335326
-0.290288 -0.192179 -0.430143
-0.290288 -0.056488 -0.482144
-0.290288 -0.388737 0.285414
-0.290288 -0.449509 0.027045
-0.290288 0.394811 -0.258486
-0.290288 -0.088398 -0.458896
-0.290288 0.495057 0.047323
-0.290288 -0.419768 0.225706
-0.290288 0.080980 0.480635
-0.290288 0.238694 -0.410567
-0.290288 0.042075 -0.454288
-0.290288 -0.379093 0.270635
-0.290288 0.100246 -0.448596
-0.290288 0.458556 0.184571
-0.290288 -0.343604 0.327994
-0.290288 0.148322 -0.453327
-0.290288 0.355799 -0.270807
-0.290288 0.084894 -0.451148
-0.290288 0.095515 0.452485
-0.290288 -0.457434 0.173697
-0.290288 -0.388158 -0.230921
-0.290288 0.432322 -0.124805
-0.290288 0.111179 0.479331
-0.290288 -0.351582 0.307246
-0.290288 -0.462669 0.008679
-0.290288 -0.461428 -0.003185
-0.290288 -0.371305 0.328301
-0.290288 0.382132 -0.286049
-0.290288 -0.484152 0.041149
-0.290288 0.261055 -0.396221
-0.290288 -0.017721 -0.474919
-0.290288 0.268026 -0.398191
-0.290288 0.402780 0.288964
-0.290288 0.353907 0.315501
-0.290288 0.262123 -0.400084
-0.290288 0.328377 0.360910
-0.290288 0.470448 -0.120071
-0.290288 -0.434497 0.138784
-0.290288 -0.289281 -0.389448
-0.290288 -0.464730 0.037701
-0.290288 0.006535 0.453838
-0.290288 -0.271592 0.372629
-0.290288 0.460336 0.017263
-0.290288 -0.471477 -0.060773
-0.290288 0.384763 0.256301
-0.290288 -0.171920 -0.421230
-0.290288 -0.467103 0.034357
-0.290288 0.203040 -0.413030
-0.290288 -0.159944 0.443845
-0.290288 0.351916 -0.330684
-0.290288 -0.301240 0.344223
-0.290288 0.400344 -0.261164
-0.290288 0.158911 0.470087
-0.290288 -0.310354 -0.372596
-0.290288 -0.352134 -0.336183
-0.290288 -0.297063 0.360428
-0.290288 0.244122 -0.417761
-0.290288 -0.445509 -0.163025
-0.290288 0.418275 0.166232
-0.290288 -0.481502 -0.025103
-0.290288 0.152754 0.457198
-0.290288 0.106345 -0.444091
-0.290288 0.265681 0.418303
-0.290288 0.168714 -0.448308
-0.290288 0.052880 0.441105
-0.290288 -0.250242 -0.384129
-0.290288 -0.183712 -0.419242
-0.290288 -0.431889 0.216619
-0.290288 0.404171 -0.265595
-0.290288 -0.454078 0.137761
-0.290288 0.350338 -0.309913
-0.290288 -0.485364 0.003741
-0.290288 0.428194 0.201464
-0.290288 0.463300 0.107135
-0.290288 -0.311736 -0.382803
-0.290288 -0.481413 -0.019836
-0.290288 -0.235055 0.392066
-0.290288 0.144075 -0.469132
-0.290288 -0.461982 -0.118393
-0.290288 0.156955 0.417870
-0.290288 -0.454677 0.125761
-0.290288 0.417185 0.231955
-0.290288 0.486699 -0.010261
-0.290288 0.020603 0.457394
-0.290288 0.345085 0.351592
-0.290288 -0.454045 0.168493
-0.290288 0.393629 0.248931
-0.290288 0.217199 0.425182
-0.290288 0.290686 -0.350597
-0.290288 0.421416 -0.194028
-0.290288 0.449812 0.090489
-0.290288 -0.441641 -0.060236
-0.290288 -0.432894 0.236439
-0.290288 0.145789 -0.424879
-0.290288 -0.305364 -0.379493
-0.290288 -0.315087 -0.325381
-0.290288 0.212220 -0.401255
-0.290288 0.400901 -0.223381
-0.290288 0.046343 -0.445320
-0.290288 0.357071 0.311938
-0.290288 0.290159 -0.344446
-0.290288 0.106630 -0.440512
-0.290288 0.045580 0.444341
-0.290288 0.301355 -0.347558
-0.290288 0.353346 0.304521
-0.290288 0.033206 0.450467
-0.290288 0.261530 -0.387291
-0.290288 0.271397 -0.396040
-0.290288 -0.414928 -0.204555
-0.290288 -0.472325 0.026149
-0.290288 -0.318852 0.342103
-0.290288 -0.011632 0.456647
-0.290288 -0.367355 -0.265662
-0.290288 -0.482719 -0.048045
-0.290288 0.268744 -0.383594
-0.290288 -0.086702 -0.490065
-0.290288 -0.433776 -0.195926
-0.290288 -0.426447 -0.216055
-0.290288 0.402288 -0.287951
-0.290288 -0.007332 0.493011
-0.290288 -0.399024 0.251346
-0.290288 -0.452145 -0.209459
-0.290288 0.141820 -0.471844
-0.290288 0.427041 0.220121
-0.290288 -0.109786 -0.456902
-0.290288 0.482578 0.041324
-0.290288 0.465792 -0.149998
-0.290288 0.483792 0.095337
-0.290288 0.464244 0.081939
-0.290288 0.153808 0.419058
-0.290288 -0.301138 0.355137
-0.290288 0.495126 -0.058115
-0.290288 -0.123797 -0.445639
-0.290288 -0.457546 0.106057
-0.290288 -0.442730 -0.048191
-0.290288 0.181368 0.447331
-0.290288 -0.109491 0.470906
-0.290288 0.211573 -0.446759
-0.290288 -0.288894 -0.342222
-0.290288 0.390800 0.269567
-0.290288 0.441319 0.187466
-0.290288 -0.298477 0.353382
-0.290288 -0.252494 0.383216
-0.290288 -0.440245 0.180507
-0.290288 -0.220230 0.423874
-0.290288 0.217421 0.420079
-0.290288 0.387315 -0.263281
-0.290288 -0.432155 0.147958
-0.290288 0.383959 0.230652
-0.290288 0.123851 -0.446712
-0.290288 0.426154 -0.215915
-0.290288 0.368622 -0.281662
-0.290288 0.367481 0.265341
-0.290288 -0.274548 -0.373169
-0.290288 0.491782 0.027042
-0.290288 0.407808 -0.237397
-0.290288 0.307237 0.378528
-0.290288 0.488649 0.072825
-0.290288 -0.002048 -0.460887
-0.290288 0.349101 -0.299568
-0.290288 -0.074465 0.478373
-0.290288 0.318143 -0.362128
-0.290288 0.326990 -0.370819
-0.290288 0.252923 0.396308
-0.290288 -0.187389 -0.457716
-0.290288 0.183798 0.449632
-0.290288 0.232897 0.420774
-0.290288 0.166641 -0.461255
-0.290288 -0.471102 -0.158665
-0.290288 -0.398854 -0.277340
-0.290288 -0.470046 0.081299
-0.290288 0.381220 -0.295447
-0.290288 0.360102 -0.280218
-0.290288 0.327297 -0.310274
-0.290288 -0.140077 0.464207
-0.290288 -0.139567 0.467613
-0.290288 -0.112997 0.432366
-0.290288 0.473852 0.038271
-0.290288 -0.417708 0.150724
-0.290288 0.288833 0.398511
-0.290288 0.364560 0.333979
-0.290288 0.048299 -0.486999
-0.290288 0.309309 0.347158
-0.290288 0.447280 0.177025
-0.290288 0.385636 -0.305341
-0.290288 -0.110324 -0.462882
-0.290288 -0.380587 0.294133
-0.290288 -0.339718 0.307052
-0.290288 0.317525 0.369106
-0.290288 0.378305 0.319931
-0.290288 -0.389724 0.213934
-0.290288 0.390321 -0.297518
-0.290288 0.038741 0.453151
-0.290288 -0.374335 0.269896
-0.290288 0.414158 0.174627
-0.290288 0.161089 0.442988
-0.290288 0.014138 -0.489976
-0.290288 -0.132249 -0.440262
-0.290288 0.454893 -0.014008
-0.290288 0.214358 0.406141
-0.290288 -0.237595 -0.410374
-0.290288 0.120336 0.427064
-0.290288 0.435449 -0.242201
-0.290288 -0.002658 0.494945
-0.290288 0.340423 0.307848
-0.290288 0.375252 0.252294
-0.290288 0.452577 0.087752
-0.290288 -0.416289 -0.269808
-0.290288 0.452590 0.004013
-0.290288 0.193439 0.404223
-0.290288 -0.313114 -0.361663
-0.290288 0.409814 0.235503
-0.290288 0.456474 0.107901
-0.290288 -0.410535 -0.263202
-0.290288 -0.286476 -0.364448
-0.290288 0.472214 0.000647
-0.290288 -0.457362 -0.133299
-0.290288 -0.213455 -0.412418
-0.290288 -0.137270 -0.455437
-0.290288 -0.406140 -0.202534
-0.290288 -0.380276 -0.262107
-0.290288 -0.443392 -0.043775
-0.290288 -0.404391 0.212942
-0.290288 -0.461102 -0.105924
-0.290288 0.478316 0.068289
-0.290288 -0.434307 0.166540
-0.290288 -0.269494 0.375305
-0.290288 -0.305265 -0.353365
-0.290288 0.438410 0.232321
-0.290288 -0.034084 0.488054
-0.290288 0.472194 0.059309
-0.290288 0.292527 0.401025
-0.290288 0.205053 -0.431775
-0.290288 0.245817 -0.393389
-0.290288 -0.479120 0.044745
-0.290288 0.060927 0.439842
-0.290288 0.241437 -0.436013
-0.290288 0.040689 -0.489933
-0.290288 0.432450 -0.250031
-0.290288 0.363748 -0.298138
-0.290288 -0.239142 -0.413664
-0.290288 -0.265427 0.409786
-0.290288 -0.491125 -0.050267
-0.290288 0.474547 0.125973
-0.290288 -0.447506 0.017143
-0.290288 -0.247368 -0.381807
-0.290288 0.403175 -0.210251
-0.290288 -0.452118 0.204113
-0.290288 -0.427926 -0.126188
-0.290288 0.017530 -0.464351
-0.290288 -0.432122 -0.226917
-0.290288 0.430484 0.146403
-0.290288 -0.270034 -0.375672
-0.290288 -0.081494 0.467628
-0.290288 -0.465875 0.169824
-0.290288 0.128745 0.456951
-0.290288 -0.368587 -0.254006
-0.290288 0.068033 0.478700
-0.290288 -0.471588 -0.135056
-0.290288 -0.414015 0.238411
-0.290288 0.134629 0.469085
-0.290288 -0.250855 0.375697
-0.290288 -0.433667 -0.165621
-0.290288 -0.139681 0.471387
-0.290288 -0.373752 -0.281890
-0.290288 0.314881 0.315962
-0.290288 -0.271065 -0.366354
-0.290288 0.374096 -0.275726
-0.290288 -0.068384 -0.482561
-0.290288 -0.443133 0.173242
-0.290288 -0.473103 -0.156024
-0.290288 0.425587 0.235103
-0.290288 0.485411 0.033273
-0.290288 -0.278959 0.397446
-0.290288 0.397772 -0.275128
-0.290288 -0.458665 -0.109282
-0.290288 0.375610 0.299747
-0.290288 -0.480022 0.085377
-0.290288 -0.163794 -0.429685
-0.290288 0.322227 -0.329158
-0.290288 -0.247618 -0.396621
-0.290288 0.113774 -0.473591
-0.290288 -0.445514 0.210064
-0.290288 0.476448 -0.060656
-0.290288 -0.173540 -0.439512
-0.290288 0.372656 -0.299599
-0.290288 -0.028637 0.453590
-0.290288 0.107349 0.443022
-0.290288 0.231885 -0.405581
-0.290288 0.448861 0.102730
-0.290288 0.462644 0.113837
-0.290288 0.134919 0.465775
-0.290288 0.479702 -0.077754
-0.290288 -0.303788 -0.376046
-0.290288 -0.451857 -0.090106
-0.290288 0.453192 -0.006758
-0.290288 -0.107652 -0.442184
-0.290288 0.457763 -0.122797
-0.290288 0.302943 0.342584
-0.290288 0.349959 -0.333404
-0.290288 0.318756 -0.338215
-0.290288 0.138538 -0.469183
-0.290288 0.456009 0.139815
-0.290288 -0.250116 0.424374
-0.290288 0.427345 0.144858
-0.290288 0.282160 -0.404961
-0.290288 0.250828 0.404540
-0.290288 -0.205436 -0.431396
-0.290288 0.454492 -0.061919
-0.290288 -0.431446 0.132418
-0.290288 -0.260174 -0.365960
-0.290288 0.197700 0.430360
-0.290288 -0.183120 0.452045
-0.290288 -0.293586 -0.374581
-0.290288 -0.394264 0.222507
-0.290288 -0.017451 0.458120
-0.290288 -0.445237 0.137025
-0.290288 -0.428645 0.193977
-0.290288 -0.285011 -0.383237
-0.290288 -0.196133 -0.412847
-0.290288 0.465952 0.108925
-0.290288 0.020059 0.481622
-0.290288 0.280961 -0.370764
-0.290288 0.422124 -0.198025
-0.290288 -0.331422 -0.317322
-0.290288 -0.243173 0.415964
-0.290288 -0.167237 -0.454110
-0.290288 -0.308244 0.364139
-0.290288 -0.395562 -0.249982
-0.290288 0.348392 -0.305886
-0.290288 0.198531 0.405943
-0.290288 -0.483432 -0.091187
-0.290288 0.377571 -0.266131
-0.290288 -0.393648 -0.214735
-0.290288 0.160638 0.423442
-0.290288 0.273799 0.376789
-0.290288 -0.434756 -0.115486
-0.290288 0.364004 -0.303484
-0.290288 -0.228379 0.403858
-0.290288 0.348790 -0.328351
-0.290288 -0.180982 -0.457153
-0.290288 0.442123 -0.137483
-0.290288 0.304208 0.334964
-0.290288 0.179925 -0.438877
-0.290288 -0.326505 0.337293
-0.290288 0.221516 -0.448266
-0.290288 -0.387284 -0.242133
-0.290288 0.380539 0.247176
-0.290288 0.349691 0.294170
-0.290288 -0.290052 0.401618
-0.290288 0.143496 0.427018
-0.290288 -0.264612 0.406602
-0.290288 0.471470 -0.123164
-0.290288 -0.409089 -0.274602
-0.290288 0.234185 0.409295
-0.290288 -0.396334 0.286262
-0.290288 0.345277 -0.359917
-0.290288 -0.093322 0.482477
-0.290288 -0.155616 0.445283
-0.290288 0.478940 0.074840
-0.290288 0.315524 -0.377410
-0.290288 0.196871 -0.417487
-0.290288 0.403137 0.209465
-0.290288 -0.451607 -0.131935
-0.290288 -0.191894 -0.446833
-0.290288 -0.332637 0.353745
-0.290288 0.301536 -0.343699
-0.290288 -0.178773 0.428431
-0.290288 0.260618 0.409138
-0.290288 -0.233576 -0.391896
-0.290288 -0.347299 0.328430
-0.290288 -0.407819 0.176795
-0.290288 0.452098 0.173440
-0.290288 0.336198 -0.329951
-0.290288 0.038268 0.469843
-0.290288 -0.061250 0.453315
-0.290288 -0.229425 -0.393195
-0.290288 0.374507 0.266532
-0.290288 -0.234452 -0.398575
-0.290288 -0.107946 -0.484888
-0.290288 -0.053393 -0.456659
-0.290288 0.053452 0.485664
-0.290288 0.479365 0.080737
-0.290288 -0.169553 0.419438
-0.290288 0.458602 -0.074940
-0.290288 -0.462829 -0.138781
-0.290288 -0.359902 -0.319331
-0.290288 -0.296723 0.349964
-0.290288 -0.470901 0.144809
-0.290288 0.299615 -0.358164
-0.290288 -0.483586 -0.035710
-0.290288 0.374251 0.248331
-0.290288 -0.438741 -0.163528
-0.290288 -0.466919 -0.153434
-0.290288 -0.415985 -0.207881
-0.290288 0.418215 -0.264731
-0.290288 -0.457754 -0.138702
-0.290288 0.414843 0.192795
-0.290288 0.246687 -0.376866
-0.290288 -0.220092 0.391913
-0.290288 0.346606 -0.346601
-0.290288 -0.146187 0.444732
-0.290288 -0.311369 0.329418
-0.290288 0.152430 -0.425911
-0.290288 -0.261117 0.375374
-0.290288 -0.446519 -0.088949
-0.290288 -0.248822 -0.419533
-0.290288 0.441389 -0.084120
-0.290288 0.338662 -0.316275
-0.290288 0.419591 0.220830
-0.290288 -0.166983 -0.430509
-0.290288 -0.296228 0.356062
-0.290288 -0.145986 0.424312
-0.290288 0.443502 -0.050731
-0.290288 -0.196005 0.404867
-0.290288 -0.220591 0.426948
-0.290288 0.134985 0.453087
-0.290288 0.349623 0.352529
-0.290288 -0.051521 0.476282
-0.290288 -0.172555 0.464363
-0.290288 -0.482141 0.102650
-0.290288 0.489228 0.034147
-0.290288 0.008892 -0.451551
-0.290288 -0.331949 0.310966
-0.290288 0.229703 -0.394303
-0.290288 -0.320112 -0.321933
-0.290288 0.463062 -0.068056
-0.290288 0.083144 -0.480223
-0.290288 -0.274414 0.389031
-0.290288 -0.262644 -0.420522
-0.290288 -0.443837 0.032347
-0.290288 0.490332 0.011669
-0.290288 -0.213262 -0.400783
-0.290288 0.233455 0.384539
-0.290288 -0.218069 -0.415996
-0.290288 0.451673 -0.055016
-0.290288 0.443775 0.183944
-0.290288 -0.470292 -0.012212
-0.290288 0.485376 -0.049699
-0.290288 0.466268 -0.111286
-0.290288 -0.429952 0.226735
-0.290288 -0.287715 -0.385284
-0.290288 0.044744 0.480682
-0.290288 0.320728 -0.326208
-0.290288 0.201450 -0.410194
-0.290288 0.040599 -0.497969
-0.290288 -0.449088 -0.172287
-0.290288 -0.433536 0.200659
-0.290288 -0.214674 0.434668
-0.290288 -0.476847 0.038801
-0.290288 0.114999 -0.459835
-0.290288 -0.207097 -0.402955
-0.290288 -0.270634 0.381015
-0.290288 -0.269927 -0.358246
-0.290288 -0.172305 -0.414794
-0.290288 -0.117582 -0.483717
-0.290288 0.354075 0.281625
-0.290288 -0.007534 0.453625
-0.290288 -0.329274 -0.321848
-0.290288 0.495388 0.034350
-0.290288 -0.354958 0.304767
-0.290288 -0.229071 -0.410400
-0.290288 0.340034 -0.329978
-0.290288 -0.292294 -0.338586
-0.290288 -0.013277 0.451310
-0.290288 -0.494197 -0.060316
-0.290288 0.421088 -0.223890
-0.290288 -0.404075 0.244170
-0.290288 -0.441881 0.051201
-0.290288 0.223793 -0.440026
-0.290288 -0.209546 -0.451512
-0.290288 0.451252 0.064008
-0.290288 0.415213 0.188523
-0.290288 0.469278 -0.100342
-0.290288 -0.437897 -0.104927
-0.290288 -0.111569 -0.486725
-0.290288 0.125234 -0.449968
-0.290288 -0.387013 -0.284755
-0.290288 0.437584 0.161634
-0.290288 0.309067 -0.374886
-0.290288 0.436527 0.093623
-0.290288 -0.468432 0.038043
-0.290288 -0.424742 -0.146740
-0.290288 -0.229427 0.389963
-0.290288 0.177574 0.450589
-0.290288 0.208539 0.412291
-0.290288 -0.285982 0.400560
-0.290288 0.318636 -0.315297
-0.290288 0.200924 -0.448300
-0.290288 0.034253 0.458741
-0.290288 -0.165457 -0.464542
-0.290288 -0.476474 -0.036483
-0.290288 -0.344897 0.348295
-0.290288 -0.033495 -0.497953
-0.290288 -0.437490 -0.224188
-0.290288 -0.420527 -0.167675
-0.290288 0.253299 -0.425329
-0.290288 0.410324 0.270867
-0.290288 0.047077 -0.452397
-0.290288 0.027663 -0.473587
-0.290288 -0.247838 -0.387914
-0.290288 0.461525 0.110167
-0.290288 0.251948 -0.390694
-0.290288 -0.027688 -0.477712
-0.290288 -0.050665 0.441342
-0.290288 0.483852 -0.098020
-0.290288 -0.415183 -0.248135
-0.290288 -0.379275 0.280033
-0.290288 -0.027767 0.482102
-0.290288 -0.019306 -0.466277
-0.290288 -0.260514 -0.387323
-0.290288 0.464873 0.137039
-0.290288 0.448831 -0.072300
-0.290288 -0.491085 0.046717
-0.290288 0.224802 0.427106
-0.290288 -0.236931 -0.437817
-0.290288 0.144851 0.446821
-0.290288 0.372364 -0.306792
-0.290288 -0.302216 0.365696
-0.290288 -0.405917 -0.247448
-0.290288 0.410715 0.274547
-0.290288 0.454099 -0.066451
-0.290288 0.439127 0.165608
-0.290288 0.228251 0.382150
-0.290288 0.252238 0.389425
-0.290288 0.457267 0.074426
-0.290288 0.084773 -0.471499
-0.290288 -0.290426 -0.368780
-0.290288 -0.385690 0.242637
-0.290288 0.260378 -0.371217
-0.290288 0.191785 0.413791
-0.290288 0.488047 0.097825
-0.290288 0.433289 0.131559
-0.290288 -0.110670 -0.473233
-0.290288 -0.459960 0.182593
-0.290288 -0.069914 0.482461
-0.290288 0.111984 -0.469717
-0.290288 -0.240322 0.423981
-0.290288 -0.083866 -0.453783
-0.290288 0.471573 0.010874
-0.290288 -0.199113 0.409479
-0.290288 -0.397690 0.202392
-0.290288 0.391082 -0.255447
-0.290288 -0.188317 -0.411343
-0.290288 -0.394472 -0.301847
-0.290288 0.418656 0.185682
-0.290288 0.248842 -0.402234
-0.290288 -0.448167 0.046028
-0.290288 0.455181 -0.137912
-0.290288 0.127798 -0.468931
-0.290288 -0.048217 -0.449831
-0.290288 0.134255 0.439813
-0.290288 -0.470793 -0.020572
-0.290288 -0.010056 0.481440
-0.290288 -0.124160 0.448448
-0.290288 0.358113 0.270304
-0.290288 -0.284673 -0.395111
-0.290288 -0.435952 -0.111884
-0.290288 0.084126 -0.466958
-0.290288 0.314261 0.325588
-0.290288 0.378298 0.285174
-0.290288 0.275967 -0.376102
-0.290288 -0.246272 -0.421898
-0.290288 0.351747 -0.345975
-0.290288 0.433384 -0.236714
-0.290288 -0.260885 0.365761
-0.290288 0.094974 0.470580
-0.290288 -0.000974 -0.472907
-0.290288 0.407161 -0.227254
-0.290288 0.426054 0.141238
-0.290288 -0.200097 0.404898
-0.290288 0.329704 -0.339735
-0.290288 0.397177 0.275348
-0.290288 -0.341390 0.340972
-0.290288 0.205581 0.418667
-0.290288 0.375259 -0.328666
-0.290288 0.183210 0.444088
-0.290288 -0.469133 0.063989
-0.290288 -0.301604 -0.397848
-0.290288 -0.445907 0.133667
-0.290288 -0.277718 -0.362234
-0.290288 0.482890 0.121310
-0.290288 -0.350331 0.286287
-0.290288 -0.385623 0.274648
-0.290288 -0.489183 0.086823
-0.290288 0.353421 -0.287059
-0.290288 -0.425308 0.147646
-0.290288 0.207587 0.446961
-0.290288 -0.444750 -0.081988
-0.290288 -0.369078 0.262564
-0.290288 0.177239 -0.451240
-0.290288 -0.018849 -0.497162
-0.290288 -0.415767 0.213380
-0.290288 0.432476 -0.233440
-0.290288 0.009546 -0.448272
-0.290288 0.424216 0.166544
-0.290288 0.487960 0.040800
-0.290288 -0.441773 0.055272
-0.290288 -0.483838 0.055390
-0.290288 0.026716 0.454020
-0.290288 0.394305 0.214566
-0.290288 -0.378990 -0.237237
-0.290288 0.485149 -0.089488
-0.290288 -0.137804 0.457628
-0.290288 -0.400131 -0.266830
-0.290288 -0.031839 0.457437
-0.290288 -0.408208 0.246692
-0.290288 0.406279 -0.195175
-0.290288 0.427547 0.229298
-0.290288 0.064567 0.488749
-0.290288 0.397437 -0.225435
-0.290288 -0.358159 0.291086
-0.290288 0.005541 0.485342
-0.290288 -0.451401 -0.034992
-0.290288 0.425143 -0.234674
-0.290288 -0.183498 0.459444
-0.290288 -0.143515 -0.434711
-0.290288 0.258124 -0.426506
-0.290288 0.413880 -0.241700
-0.290288 -0.444040 -0.219020
-0.290288 0.393081 0.226301
-0.290288 0.388903 -0.283166
-0.290288 0.219310 -0.404658
-0.290288 -0.464712 0.000005
-0.290288 -0.021118 0.458847
-0.290288 0.171608 0.428723
-0.290288 -0.217043 -0.433212
-0.290288 -0.142737 0.452347
-0.290288 0.410454 0.246904
-0.290288 0.437066 0.171638
-0.290288 0.129187 -0.479126
-0.290288 0.220257 0.422323
-0.290288 -0.454324 -0.092396
-0.290288 0.424578 0.227201
-0.290288 -0.399511 0.196162
-0.290288 0.273470 0.369614
-0.290288 -0.474869 -0.073301
-0.290288 -0.438810 0.176717
-0.290288 -0.167271 -0.457866
-0.290288 -0.496601 0.001867
-0.290288 0.258853 0.368690
-0.290288 0.194161 -0.416025
-0.290288 0.093605 -0.458225
-0.290288 0.470790 0.022009
-0.290288 -0.346589 0.319862
-0.290288 -0.187699 -0.418451
-0.290288 -0.464462 0.105633
-0.290288 -0.302168 -0.360977
-0.290288 -0.470342 -0.163173
-0.290288 0.032538 0.476690
-0.290288 -0.174096 -0.427634
-0.290288 -0.453856 0.083752
-0.290288 0.130731 0.443884
-0.290288 0.245562 -0.401060
-0.290288 0.387336 0.283623
-0.290288 -0.450696 0.004877
-0.290288 0.341803 0.328024
-0.290288 -0.416894 -0.223611
-0.290288 0.497625 0.019146
-0.290288 0.399481 0.228144
-0.290288 -0.460207 -0.052605
-0.290288 0.242134 0.386661
-0.290288 0.207263 0.436890
-0.290288 -0.448560 -0.190587
-0.290288 -0.232469 0.394528
-0.290288 -0.280128 0.375772
-0.290288 0.440433 0.198279
-0.290288 -0.439434 0.210792
-0.290288 -0.298043 0.337579
-0.290288 0.222054 0.436687
-0.290288 -0.451835 0.019889
-0.290288 -0.187722 0.458347
-0.290288 -0.481790 -0.042237
-0.290288 -0.072302 0.444779
-0.290288 0.447101 -0.155133
-0.290288 -0.358600 0.270754
-0.290288 0.167343 0.412355
-0.290288 0.430537 0.139972
-0.290288 0.010051 -0.478433
-0.290288 -0.389536 0.293121
-0.290288 -0.270299 -0.371067
-0.290288 -0.192855 0.404732
-0.290288 0.169549 -0.424511
-0.290288 0.416734 0.200498
-0.290288 -0.428332 0.155450
-0.290288 0.192238 0.456878
-0.290288 -0.127418 -0.445496
-0.290288 0.243492 -0.398296
-0.290288 0.296270 -0.358976
-0.290288 0.277345 0.406143
-0.290288 -0.472476 0.111563
-0.290288 0.218079 -0.447692
-0.290288 0.119348 0.465083
-0.290288 -0.152525 -0.468556
-0.290288 0.019985 0.494413
-0.290288 0.144459 -0.478940
-0.290288 0.492665 0.073508
-0.290288 0.455807 0.123855
-0.290288 0.424086 0.206525
-0.290288 0.270024 0.366571
-0.290288 0.459551 0.158999
-0.290288 -0.461732 0.171882
-0.290288 -0.342714 -0.309756
-0.290288 -0.367243 0.278429
-0.290288 -0.203894 -0.404520
-0.290288 -0.371014 0.271101
-0.290288 -0.081293 0.459309
-0.290288 0.232950 -0.396056
-0.290288 0.426039 -0.183210
-0.290288 -0.434543 -0.172939
-0.290288 0.329858 0.331397
-0.290288 -0.445078 -0.092159
-0.290288 0.142081 -0.461659
-0.290288 -0.312514 0.362190
-0.290288 0.367289 0.331885
-0.290288 0.445229 -0.157613
-0.290288 -0.209297 0.449542
-0.290288 0.131484 0.463740
-0.290288 0.345023 0.335189
-0.290288 -0.471263 0.138066
-0.290288 0.069909 0.482976
-0.290288 -0.449164 -0.177706
-0.290288 0.386432 0.298204
-0.290288 -0.347041 0.310355
-0.290288 -0.428472 -0.133171
-0.290288 -0.301089 0.329293
-0.290288 -0.305642 0.335374
-0.290288 0.200120 -0.430514
-0.290288 -0.405432 0.273592
-0.290288 0.254749 0.369045
-0.290288 0.108917 -0.475751
-0.290288 0.366893 0.291436
-0.290288 0.163729 -0.454037
-0.290288 0.425693 -0.201547
-0.290288 0.482048 0.038123
-0.290288 0.015387 -0.478864
-0.290288 0.173016 -0.419610
-0.290288 0.450823 -0.106137
-0.290288 -0.441036 -0.174321
-0.290288 0.119000 0.480110
-0.290288 0.163290 -0.460070
-0.290288 0.130811 -0.466237
-0.290288 -0.078241 -0.458207
-0.290288 -0.340258 0.319173
-0.290288 -0.372664 0.293515
-0.290288 -0.184040 -0.460448
-0.290288 -0.450455 -0.154052
-0.290288 -0.143381 0.447684
-0.290288 0.374313 -0.244444
-0.290288 0.213301 0.403334
-0.290288 -0.293559 0.351415
-0.290288 0.354634 -0.315957
-0.290288 0.454413 -0.195901
-0.290288 0.439159 -0.098944
-0.290288 -0.017515 0.484330
-0.290288 0.012154 0.471320
-0.290288 -0.217773 0.417218
-0.290288 0.253151 -0.369561
-0.290288 -0.107433 -0.474888
-0.290288 -0.200371 -0.446330
-0.290288 0.123883 -0.436632
-0.290288 -0.042883 -0.469316
-0.290288 0.200311 0.409646
-0.290288 0.232984 0.433891
-0.290288 0.167562 0.429581
-0.290288 -0.367323 -0.336196
-0.290288 0.379023 -0.240180
-0.290288 0.302388 0.393190
-0.290288 -0.118605 -0.439381
-0.290288 -0.316720 -0.322513
-0.290288 0.287415 -0.363146
-0.290288 -0.461760 -0.089177
-0.290288 -0.416735 -0.233536
-0.290288 0.488097 -0.028734
-0.290288 0.229488 -0.438004
-0.290288 -0.321982 0.355523
-0.290288 0.420755 -0.243596
-0.290288 -0.335571 -0.348340
-0.290288 0.337121 -0.336079
-0.290288 0.426046 0.132038
-0.290288 -0.425676 0.169383
-0.290288 -0.440396 0.171882
-0.290288 -0.314188 -0.384783
-0.290288 -0.317544 0.326025
-0.290288 0.441982 -0.090773
-0.290288 0.456668 0.021256
-0.290288 0.223893 0.402751
-0.290288 0.223046 0.424086
-0.290288 0.237418 0.401628
-0.290288 -0.468591 -0.065744
-0.290288 0.244743 -0.414141
-0.290288 0.389667 -0.237110
-0.290288 -0.110402 0.447675
-0.290288 0.396609 0.210180
-0.290288 0.060334 0.453697
-0.290288 0.495353 -0.033918
-0.290288 0.381818 0.237206
-0.290288 0.440121 0.141077
-0.290288 0.152909 -0.452085
-0.290288 0.280119 0.374524
-0.290288 -0.211832 -0.416129
-0.290288 0.295459 0.393154
-0.290288 -0.070099 0.469387
-0.290288 0.080443 -0.447522
-0.290288 -0.212013 0.415429
-0.290288 0.393898 -0.294994
-0.290288 0.418827 -0.155890
-0.290288 0.100191 -0.455977
-0.290288 0.103107 -0.468387
-0.290288 0.404499 0.212465
-0.290288 0.217281 0.403795
-0.290288 -0.460122 -0.028535
-0.290288 0.468639 0.025964
-0.290288 -0.356179 0.311102
-0.290288 -0.431315 0.123510
-0.290288 0.233185 0.401834
-0.290288 0.422190 -0.182987
-0.290288 -0.294997 -0.336106
-0.290288 -0.357843 0.262628
-0.290288 0.438381 -0.119398
-0.290288 -0.454398 -0.055123
-0.290288 -0.148521 -0.427626
-0.290288 0.321452 0.360068
-0.290288 0.065498 -0.464278
-0.290288 -0.320117 -0.348257
-0.290288 0.490343 -0.024760
-0.290288 -0.463035 -0.016303
-0.290288 0.435586 0.212115
-0.290288 0.062598 -0.469868
-0.290288 0.478144 -0.108801
-0.290288 0.021441 0.478456
-0.290288 0.430449 -0.210724
-0.290288 -0.457097 0.045981
-0.290288 0.457969 -0.044854
-0.290288 0.128365 0.475013
-0.290288 -0.496382 0.016496
-0.290288 -0.253671 -0.399383
-0.290288 0.210638 0.446146
-0.290288 -0.147709 -0.434930
-0.290288 0.387826 0.219983
-0.290288 0.013974 -0.472074
-0.290288 0.225240 0.412245
-0.290288 0.283307 -0.364077
-0.290288 -0.281826 -0.362665
-0.290288 -0.459463 -0.079925
-0.290288 -0.446600 0.110593
-0.290288 0.288554 -0.400830
-0.290288 0.466443 0.012475
-0.290288 0.222005 -0.398513
-0.290288 -0.273660 0.398817
-0.290288 0.435449 -0.206875
-0.290288 -0.077048 0.446772
-0.290288 -0.287525 0.403977
-0.290288 -0.115659 0.439473
-0.290288 -0.443265 0.116760
-0.290288 0.075371 0.459871
-0.290288 -0.126694 -0.436755
-0.290288 0.028846 0.476742
-0.290288 0.342481 -0.305512
-0.290288 -0.279032 -0.403013
-0.290288 -0.404587 -0.237874
-0.290288 0.124737 0.472874
-0.290288 -0.465638 -0.135119
-0.290288 -0.202529 0.451756
-0.290288 -0.335258 0.290244
-0.290288 -0.113101 -0.469617
-0.290288 -0.287080 0.388302
-0.290288 0.063565 0.444296
-0.290288 -0.420972 -0.207530
-0.290288 -0.216879 0.397701
-0.290288 0.411047 -0.247885
-0.290288 0.349509 0.285698
-0.290288 0.319896 0.379160
-0.290288 0.239000 -0.396257
-0.290288 -0.399801 0.241593
-0.290288 -0.261415 0.406799
-0.290288 0.218032 -0.410546
-0.290288 -0.465102 0.098176
-0.290288 0.418066 -0.236478
-0.290288 0.186647 -0.434734
-0.290288 -0.139905 0.426640
-0.290288 -0.146526 0.436029
-0.290288 0.429110 -0.235063
-0.290288 0.270499 0.410440
-0.290288 0.429382 0.182527
-0.290288 0.258758 -0.385014
-0.290288 -0.035243 0.458684
-0.290288 -0.453749 -0.049742
-0.290288 -0.330509 -0.313967
-0.290288 0.490313 -0.068790
-0.290288 -0.450011 -0.081105
-0.290288 0.484403 -0.082909
-0.290288 -0.351420 -0.328995
-0.290288 0.431198 -0.246514
-0.290288 0.459056 -0.068489
-0.290288 0.062121 -0.462478
-0.290288 -0.342730 -0.334454
-0.290288 -0.290434 -0.365177
-0.290288 -0.366631 -0.311276
-0.290288 0.326851 0.353742
-0.290288 0.232269 0.424899
-0.290288 0.443941 0.115775
-0.290288 0.108235 0.449253
-0.290288 0.156402 0.438669
-0.290288 0.477828 -0.043348
-0.290288 -0.306674 -0.344923
-0.290288 -0.392724 -0.218398
-0.290288 -0.455360 -0.012566
-0.290288 0.284398 0.353847
-0.290288 -0.464377 -0.065653
-0.290288 -0.044155 -0.474754
-0.290288 -0.033442 -0.458278
-0.290288 0.426276 -0.258169
-0.290288 0.420471 -0.151090
-0.290288 -0.364564 -0.338270
-0.290288 0.451982 -0.070523
-0.290288 0.447155 -0.118824
-0.290288 -0.091735 -0.477709
-0.290288 -0.378976 -0.267776
-0.290288 0.271395 -0.413205
-0.290288 0.089515 -0.460535
-0.290288 0.239581 -0.390128
