0.286960 0.335438 0.353751
0.286960 -0.339277 0.327327
0.286960 0.456670 -0.170184
0.286960 0.398909 -0.225519
0.286960 0.450223 0.154333
0.286960 -0.240787 -0.423857
0.286960 -0.271114 -0.386650
0.286960 0.487663 -0.050645
0.286960 -0.100485 0.471169
0.286960 -0.291569 0.338818
0.286960 -0.450678 -0.080552
0.286960 0.362286 -0.312724
0.286960 -0.333836 -0.329684
0.286960 0.069571 -0.473951
0.286960 0.397707 -0.244775
0.286960 0.451355 0.061108
0.286960 -0.468146 -0.138116
0.286960 -0.451840 -0.186653
0.286960 0.184974 -0.456836
0.286960 -0.154377 -0.428915
0.286960 -0.484300 -0.000859
0.286960 -0.232697 0.437985
0.286960 0.459918 0.105612
0.286960 -0.274190 -0.416766
0.286960 -0.452443 0.101403
0.286960 -0.459902 -0.085350
0.286960 0.333720 0.337220
0.286960 -0.365494 -0.292577
0.286960 -0.234118 -0.431930
0.286960 0.427050 -0.223747
0.286960 0.268869 0.355374
0.286960 -0.488998 0.058420
0.286960 0.448378 0.047699
0.286960 0.078634 0.437097
0.286960 0.421194 -0.263853
0.286960 -0.081308 -0.462941
0.286960 0.487952 -0.012591
0.286960 0.466778 -0.053476
0.286960 -0.411096 0.277116
0.286960 -0.110335 -0.442789
0.286960 0.308175 0.327907
0.286960 -0.406625 0.251648
0.286960 0.230065 0.424562
0.286960 0.486443 0.092754
0.286960 -0.360251 -0.283907
0.286960 0.017487 -0.477704
0.286960 -0.358624 0.336862
0.286960 0.050055 0.464463
0.286960 0.317390 0.363957
0.286960 -0.432860 0.122193
0.286960 0.479626 0.027102
0.286960 -0.320244 -0.360640
0.286960 -0.443292 -0.081373
0.286960 -0.265413 0.389455
0.286960 -0.350130 0.311123
0.286960 0.463307 0.116286
0.286960 0.462934 -0.178332
0.286960 0.363043 -0.307452
0.286960 0.178061 0.437599
0.286960 0.422657 0.166190
0.286960 -0.418106 0.247631
0.286960 -0.228248 0.420229
0.286960 0.444872 -0.036623
0.286960 0.163110 0.463809
0.286960 -0.467906 -0.058487
0.286960 0.372151 0.313781
0.286960 -0.127424 0.440234
0.286960 -0.192705 -0.447446
0.286960 -0.439952 0.088725
0.286960 -0.429204 -0.229985
0.286960 0.471269 -0.050330
0.286960 -0.381120 0.305058
0.286960 0.443326 -0.083557
0.286960 -0.425235 -0.227627
0.286960 -0.328132 -0.337368
0.286960 0.455761 0.156966
0.286960 0.023569 -0.450331
0.286960 -0.446956 -0.168887
0.286960 0.284496 -0.365968
0.286960 -0.443364 -0.199411
0.286960 0.442689 0.161144
0.286960 0.199121 -0.440217
0.286960 0.324185 0.375874
0.286960 -0.314976 0.351402
0.286960 -0.452124 0.175665
0.286960 0.035961 0.456049
0.286960 -0.127926 -0.481734
0.286960 -0.424353 -0.205808
0.286960 0.442425 -0.077112
0.286960 0.019646 -0.467378
0.286960 -0.111095 0.464000
0.286960 0.099629 -0.460791
0.286960 0.480662 -0.132422
0.286960 -0.449546 0.180522
0.286960 -0.391946 0.230806
0.286960 0.331462 0.295986
0.286960 -0.465475 0.044429
0.286960 0.261094 0.394543
0.286960 0.450039 -0.131661
0.286960 0.034861 -0.467622
0.286960 0.385501 0.243822
0.286960 0.347613 -0.340674
0.286960 -0.399858 0.250545
0.286960 0.088994 0.452809
0.286960 0.498222 0.009189
0.286960 -0.118532 0.444277
0.286960 0.024704 0.472526
0.286960 0.391012 -0.311046
0.286960 -0.256699 -0.398777
0.286960 0.459649 0.140273
0.286960 0.326889 -0.360102
0.286960 -0.330148 0.317995
0.286960 -0.196932 0.454862
0.286960 -0.461988 0.018120
0.286960 0.220927 0.385838
0.286960 -0.050942 0.471035
0.286960 0.248337 -0.409139
0.286960 0.249873 0.405275
0.286960 0.146531 -0.427074
0.286960 0.445277 -0.191087
0.286960 0.470211 -0.103311
0.286960 -0.329888 0.369550
0.286960 0.177718 -0.458017
0.286960 0.351630 0.306956
0.286960 -0.450855 -0.120960
0.286960 0.369541 0.316104
0.286960 -0.304801 -0.341558
0.286960 -0.119481 0.448984
0.286960 0.416977 -0.252049
0.286960 -0.139321 0.453057
0.286960 0.457437 0.007291
0.286960 0.220649 0.429909
0.286960 0.370005 0.296665
0.286960 0.034262 0.478820
0.286960 -0.350194 0.321326
0.286960 0.349224 0.302498
0.286960 -0.030802 0.478689
0.286960 -0.314079 -0.378547
0.286960 0.447244 -0.142501
0.286960 -0.340177 0.332091
0.286960 0.345345 0.342044
0.286960 -0.247688 -0.426713
0.286960 0.461287 0.130520
0.286960 0.457252 0.048856
0.286960 0.141385 -0.476636
0.286960 0.359799 -0.341039
0.286960 -0.317130 0.342702
0.286960 -0.449146 0.093912
0.286960 0.241261 0.382232
0.286960 0.349540 0.332402
0.286960 -0.439759 0.212724
0.286960 0.183060 0.407542
0.286960 -0.199348 0.435176
0.286960 -0.010540 0.479654
0.286960 0.271284 -0.374791
0.286960 0.217378 0.438014
0.286960 0.167477 0.429758
0.286960 -0.158719 0.465775
0.286960 0.001303 0.448963
0.286960 0.452660 0.029395
0.286960 0.468475 -0.142555
0.286960 -0.194225 0.407887
0.286960 0.491200 0.018208
0.286960 0.271066 -0.410721
0.286960 -0.405637 0.185977
0.286960 0.123438 -0.478200
0.286960 -0.482447 -0.056709
0.286960 -0.363134 -0.328656
0.286960 0.117959 -0.467697
0.286960 -0.284587 -0.350153
0.286960 -0.366914 -0.329291
0.286960 0.149414 -0.461228
0.286960 0.440769 -0.131976
0.286960 -0.418825 -0.269989
0.286960 -0.143132 -0.450551
0.286960 -0.386496 -0.294872
0.286960 -0.061442 -0.475491
0.286960 -0.190872 0.425145
0.286960 -0.447537 0.205684
0.286960 -0.463065 0.138607
0.286960 0.025331 0.444401
0.286960 -0.130926 -0.449799
0.286960 0.414127 0.223527
0.286960 0.192375 0.423830
0.286960 -0.408552 -0.262331
0.286960 0.293682 -0.387377
0.286960 0.115896 -0.449023
0.286960 0.316525 0.352169
0.286960 0.398138 0.297480
0.286960 -0.222962 -0.400359
0.286960 0.325803 -0.321616
0.286960 0.317094 -0.377490
0.286960 -0.214423 -0.428851
0.286960 0.446719 0.115587
0.286960 -0.189242 0.434536
0.286960 0.438981 0.214522
0.286960 0.368893 0.254190
0.286960 0.442712 0.084437
0.286960 0.460140 -0.153867
0.286960 0.234100 0.432624
0.286960 0.092185 -0.450996
0.286960 -0.425339 -0.166669
0.286960 0.442490 -0.214546
0.286960 -0.033502 -0.499038
0.286960 0.436186 -0.194216
0.286960 -0.441244 0.071220
0.286960 0.101646 0.436461
0.286960 0.429789 -0.254091
0.286960 0.305757 0.386306
0.286960 -0.403501 -0.193736
0.286960 -0.136780 0.426912
0.286960 -0.140253 0.443931
0.286960 -0.430316 0.131662
0.286960 0.164269 -0.429753
0.286960 -0.299971 0.337133
0.286960 -0.323938 -0.314872
0.286960 0.381391 0.240475
0.286960 -0.344059 0.315029
0.286960 0.212643 0.437447
0.286960 -0.090855 0.460272
0.286960 -0.060321 -0.459369
0.286960 -0.428378 0.135336
0.286960 0.472194 0.083787
0.286960 0.206983 -0.407659
0.286960 -0.474762 0.039925
0.286960 -0.355532 -0.276423
0.286960 -0.432147 0.236401
0.286960 0.132447 -0.458458
0.286960 -0.040293 -0.473869
0.286960 0.444261 0.222597
0.286960 -0.283170 0.391045
0.286960 -0.385040 0.243741
0.286960 -0.301632 -0.346300
0.286960 0.490394 0.076932
0.286960 -0.477218 0.125665
0.286960 -0.407732 -0.203752
0.286960 -0.438574 0.115441
0.286960 0.281997 -0.348845
0.286960 -0.313358 0.340588
0.286960 -0.297745 0.389723
0.286960 0.390542 0.288778
0.286960 -0.410915 -0.245566
0.286960 -0.382808 -0.246874
0.286960 0.231818 -0.406640
0.286960 0.151263 -0.422515
0.286960 0.033572 -0.452386
0.286960 -0.115846 -0.477600
0.286960 -0.001982 -0.447580
0.286960 -0.230978 -0.430210
0.286960 -0.218260 -0.449395
0.286960 0.199520 0.423772
0.286960 -0.183262 0.427153
0.286960 -0.282228 -0.368011
0.286960 -0.224065 0.390118
0.286960 -0.452519 0.074437
0.286960 0.442572 -0.065020
0.286960 -0.284073 0.369051
0.286960 0.121108 -0.458601
0.286960 0.446623 -0.180635
0.286960 0.440744 -0.221450
0.286960 0.333640 0.307395
0.286960 0.283183 0.384295
0.286960 0.437235 -0.173754
0.286960 0.176319 -0.452316
0.286960 -0.409965 0.196243
0.286960 -0.360608 -0.301810
0.286960 0.434599 -0.157246
0.286960 0.089534 -0.453161
0.286960 0.186206 -0.419625
0.286960 -0.467457 -0.000800
0.286960 0.440394 0.148174
0.286960 -0.207310 -0.433429
0.286960 -0.205846 0.439455
0.286960 0.461458 -0.150474
0.286960 0.379413 -0.276445
0.286960 -0.341822 0.302852
0.286960 -0.226699 0.381848
0.286960 0.158173 -0.443343
0.286960 -0.025477 -0.464674
0.286960 0.468282 0.029614
0.286960 -0.266196 -0.421566
0.286960 -0.406067 -0.254612
0.286960 -0.022600 0.489979
0.286960 0.341981 -0.291196
0.286960 -0.335241 0.290682
0.286960 0.139849 0.445833
0.286960 0.449164 0.006965
0.286960 -0.458802 0.118396
0.286960 -0.057556 -0.496130
0.286960 -0.462564 -0.041473
0.286960 -0.433747 0.144268
0.286960 -0.451861 -0.207882
0.286960 0.074917 -0.480039
0.286960 0.092554 0.465184
0.286960 0.438862 -0.157072
0.286960 -0.184482 -0.417368
0.286960 0.279717 -0.409545
0.286960 0.455695 -0.165023
0.286960 0.320183 0.332015
0.286960 -0.439353 0.177523
0.286960 0.130807 -0.440974
0.286960 0.288415 -0.377393
0.286960 0.128373 0.465033
0.286960 -0.454734 0.185607
0.286960 0.269737 -0.400343
0.286960 -0.208526 0.398528
0.286960 -0.494290 0.034463
0.286960 0.335009 -0.351654
0.286960 -0.416760 0.212105
0.286960 0.390192 0.245832
0.286960 -0.164279 0.435855
0.286960 0.052914 0.477357
0.286960 0.096764 -0.465749
0.286960 0.087150 -0.445637
0.286960 0.309395 0.364431
0.286960 0.431806 -0.194186
0.286960 0.104448 -0.473438
0.286960 0.164636 0.427612
0.286960 -0.200931 0.448517
0.286960 -0.469298 -0.109659
0.286960 0.383114 -0.313253
0.286960 0.455975 0.175207
0.286960 0.070522 -0.485812
0.286960 0.289420 -0.406986
0.286960 -0.433498 -0.120859
0.286960 0.133424 0.440473
0.286960 0.446708 -0.007325
0.286960 0.447243 0.066699
0.286960 -0.423846 0.165656
0.286960 0.478488 0.098542
0.286960 0.073888 -0.485322
0.286960 -0.264840 -0.399549
0.286960 0.484421 -0.052858
0.286960 -0.107192 0.443082
0.286960 -0.055499 0.479616
0.286960 0.381980 -0.295821
0.286960 -0.436822 -0.231473
0.286960 0.493195 0.025569
0.286960 0.455025 0.090661
0.286960 -0.457600 -0.036346
0.286960 0.239281 0.395080
0.286960 0.366935 -0.255863
0.286960 -0.307931 0.355978
0.286960 0.464062 0.147215
0.286960 -0.025840 -0.447319
0.286960 0.491826 -0.018995
0.286960 0.498550 -0.004504
0.286960 -0.243493 -0.435657
0.286960 -0.493733 0.040564
0.286960 0.100718 0.445365
0.286960 0.366191 0.290616
0.286960 0.384515 0.295264
0.286960 0.118896 -0.461407
0.286960 0.454436 0.203020
0.286960 -0.485593 0.051264
0.286960 -0.400093 -0.214423
0.286960 -0.401901 0.202504
0.286960 0.110762 -0.441935
0.286960 -0.475295 -0.139027
0.286960 0.389858 0.280479
0.286960 0.052246 0.473767
0.286960 0.492639 -0.042595
0.286960 -0.413426 -0.205857
0.286960 0.137295 0.432212
0.286960 -0.268554 -0.375771
0.286960 -0.449892 0.117110
0.286960 -0.480048 -0.043954
0.286960 0.418510 -0.224871
0.286960 -0.359491 -0.264997
0.286960 0.450626 -0.172511
0.286960 0.456707 -0.155348
0.286960 -0.392383 -0.231249
0.286960 -0.241209 0.413480
0.286960 0.029763 -0.484903
0.286960 -0.446849 -0.137041
0.286960 0.018078 -0.486197
0.286960 -0.328521 0.357536
0.286960 0.341348 0.331031
0.286960 -0.481070 0.034308
0.286960 0.253999 0.404471
0.286960 -0.258416 0.412189
0.286960 -0.457128 0.022787
0.286960 0.437612 -0.120419
0.286960 0.489293 -0.032687
0.286960 0.458442 -0.136939
0.286960 -0.454853 -0.029018
0.286960 0.362711 -0.333953
0.286960 0.133948 0.427257
0.286960 -0.409562 -0.176650
0.286960 0.348837 0.342017
0.286960 0.289079 -0.362287
0.286960 -0.389229 0.229139
0.286960 0.380433 -0.323987
0.286960 0.452583 -0.125715
0.286960 0.223899 -0.436515
0.286960 0.239480 0.386265
0.286960 -0.173113 -0.463905
0.286960 -0.247974 0.408609
0.286960 0.225734 -0.425727
0.286960 0.248933 -0.395515
0.286960 0.426490 -0.140354
0.286960 -0.011783 -0.466830
0.286960 0.277297 0.359677
0.286960 -0.389889 -0.300774
0.286960 0.161249 0.447872
0.286960 -0.226687 -0.395674
0.286960 -0.229728 0.394475
0.286960 0.064268 0.443896
0.286960 -0.096524 0.432828
0.286960 0.268722 -0.395417
0.286960 -0.077049 -0.471334
0.286960 0.199231 -0.419757
0.286960 0.055875 -0.473210
0.286960 0.477456 0.102121
0.286960 0.423396 -0.142315
0.286960 0.256945 0.419577
0.286960 0.406639 0.255181
0.286960 0.172771 0.459668
0.286960 0.464508 -0.004982
0.286960 -0.287474 -0.353732
0.286960 -0.465507 0.020730
0.286960 -0.428810 -0.191940
0.286960 0.473137 0.041675
0.286960 -0.234102 -0.418014
0.286960 -0.355524 -0.318076
0.286960 -0.231660 -0.386472
0.286960 -0.354682 -0.326984
0.286960 0.022581 -0.465369
0.286960 -0.344143 0.357122
0.286960 0.287412 -0.385742
0.286960 -0.332674 -0.309140
0.286960 0.057091 0.488897
0.286960 0.460387 0.158473
0.286960 0.466703 -0.066202
0.286960 -0.453272 -0.128609
0.286960 0.097609 -0.446391
0.286960 0.140296 0.473975
0.286960 0.148494 0.421317
0.286960 -0.101272 0.441378
0.286960 -0.301117 -0.341834
0.286960 -0.237459 -0.439154
0.286960 0.458841 0.027907
0.286960 -0.226235 0.387029
0.286960 -0.082241 0.474745
0.286960 -0.008066 -0.465588
0.286960 0.031234 0.490361
0.286960 0.440830 -0.164492
0.286960 -0.032025 -0.475507
0.286960 0.372208 -0.315014
0.286960 0.016142 0.455330
0.286960 -0.356741 0.321703
0.286960 0.001760 0.492211
0.286960 0.493076 0.037536
0.286960 -0.433510 -0.151547
0.286960 -0.457751 -0.123181
0.286960 0.072001 -0.466051
0.286960 -0.464743 0.014658
0.286960 0.333283 -0.348075
0.286960 0.371795 -0.281135
0.286960 -0.398463 0.223417
0.286960 -0.444929 -0.219009
0.286960 -0.223706 -0.419959
0.286960 -0.039780 0.486836
0.286960 0.027574 -0.459908
0.286960 -0.464451 0.076819
0.286960 -0.458195 -0.187417
0.286960 -0.444519 0.025161
0.286960 -0.406127 0.277040
0.286960 -0.387783 -0.221420
0.286960 0.058125 -0.478289
0.286960 0.346164 -0.360205
0.286960 0.138110 -0.425945
0.286960 0.288550 -0.369389
0.286960 -0.219907 0.390598
0.286960 -0.493256 0.025503
0.286960 0.110747 0.456930
0.286960 0.316314 -0.316879
0.286960 -0.421599 -0.245806
0.286960 0.458213 0.059000
0.286960 -0.209842 0.419353
0.286960 -0.053120 0.455859
0.286960 0.173615 0.432423
0.286960 -0.457082 -0.096633
0.286960 -0.372827 -0.331291
0.286960 -0.118052 -0.482134
0.286960 -0.474307 0.029221
0.286960 0.470303 0.051340
0.286960 0.127650 0.452852
0.286960 0.168959 0.410392
0.286960 0.388482 0.261268
0.286960 0.438228 -0.149839
0.286960 0.403767 -0.213768
0.286960 -0.466019 -0.067701
0.286960 -0.427351 0.174600
0.286960 0.409396 0.261700
0.286960 0.142254 0.438605
0.286960 0.324305 -0.338930
0.286960 -0.076238 -0.474828
0.286960 -0.080602 0.458333
0.286960 0.335588 0.332536
0.286960 -0.230189 0.411627
0.286960 -0.041197 0.457843
0.286960 0.100692 0.484490
0.286960 0.080137 -0.484013
0.286960 -0.431265 -0.208652
0.286960 0.351121 0.327280
0.286960 0.017801 0.470717
0.286960 0.219292 0.413328
0.286960 0.081265 0.438581
0.286960 -0.049383 -0.496763
0.286960 -0.335571 0.365343
0.286960 -0.205668 0.428464
0.286960 0.374856 -0.300121
0.286960 0.285410 -0.410692
0.286960 -0.324095 -0.379679
0.286960 -0.237134 0.391054
0.286960 0.199249 -0.433786
0.286960 0.182830 -0.453037
0.286960 -0.068106 0.475227
0.286960 -0.432136 -0.110410
0.286960 -0.356443 -0.279647
0.286960 0.187939 0.428783
0.286960 0.130143 0.462456
0.286960 -0.143877 0.446392
0.286960 -0.418685 0.180518
0.286960 -0.264280 0.407583
0.286960 0.144810 0.431759
0.286960 -0.146243 -0.449193
0.286960 0.433195 0.197473
0.286960 -0.461991 0.180830
0.286960 0.385080 0.308677
0.286960 0.484689 -0.049490
0.286960 -0.009976 -0.491478
0.286960 0.120069 0.442522
0.286960 -0.159082 -0.422051
0.286960 -0.379210 -0.253909
0.286960 -0.463831 0.010586
0.286960 -0.213180 0.420544
0.286960 0.351966 0.341936
0.286960 0.348533 0.283398
0.286960 -0.151604 -0.435286
0.286960 0.356657 -0.337886
0.286960 -0.255648 0.419879
0.286960 0.317886 0.380596
0.286960 -0.310190 -0.350945
0.286960 -0.469331 -0.006792
0.286960 -0.369422 0.267088
0.286960 0.440298 0.191943
0.286960 -0.304777 -0.354588
0.286960 -0.395762 0.278563
0.286960 0.266524 0.400819
0.286960 -0.183411 0.414822
0.286960 -0.103308 -0.475715
0.286960 0.466688 -0.098704
0.286960 0.157477 0.419807
0.286960 0.424272 0.203031
0.286960 0.112642 -0.445969
0.286960 -0.165433 0.424836
0.286960 -0.444644 0.156836
0.286960 -0.427576 0.193046
0.286960 -0.304431 0.374479
0.286960 -0.459813 -0.077516
0.286960 -0.319639 0.340732
0.286960 -0.472159 -0.107733
0.286960 0.326585 0.373849
0.286960 -0.450487 0.164574
0.286960 0.427242 0.226101
0.286960 0.460315 0.069227
0.286960 0.033866 -0.456229
0.286960 0.240009 -0.421827
0.286960 0.015431 0.474467
0.286960 -0.416171 0.176866
0.286960 -0.120196 0.426741
0.286960 -0.182570 -0.444458
0.286960 0.035885 -0.462737
0.286960 0.113038 0.478485
0.286960 0.311003 0.317335
0.286960 -0.379196 0.248633
0.286960 -0.374695 -0.272906
0.286960 -0.342647 0.309206
0.286960 -0.496569 -0.014965
0.286960 0.003934 -0.498976
0.286960 -0.276594 -0.351805
0.286960 0.388428 0.238201
0.286960 -0.046391 -0.466837
0.286960 -0.434795 0.188278
0.286960 0.457571 -0.185282
0.286960 -0.185887 0.417239
0.286960 -0.434895 -0.218501
0.286960 0.035514 -0.492445
0.286960 -0.481411 -0.010164
0.286960 -0.347116 -0.305280
0.286960 -0.370515 -0.311883
0.286960 -0.014318 0.488940
0.286960 -0.176453 0.406701
0.286960 0.478200 -0.046698
0.286960 -0.453717 -0.182082
0.286960 -0.442104 -0.172039
0.286960 -0.473558 0.036651
0.286960 -0.452476 0.145340
0.286960 -0.369403 -0.278170
0.286960 0.435876 0.111010
0.286960 -0.103258 -0.471920
0.286960 -0.487946 0.094662
0.286960 -0.383527 0.261545
0.286960 0.413365 0.253796
0.286960 0.030036 -0.450897
0.286960 0.096355 0.465902
0.286960 -0.350241 -0.283111
0.286960 0.441416 0.120221
0.286960 0.034780 -0.496599
0.286960 0.427844 -0.247942
0.286960 -0.437455 -0.169857
0.286960 0.269071 -0.420408
0.286960 -0.470337 -0.062493
0.286960 0.482933 0.028943
0.286960 -0.002831 0.448665
0.286960 0.040086 0.469619
0.286960 -0.304650 0.359785
0.286960 -0.371012 -0.273887
0.286960 -0.398347 -0.276665
0.286960 0.026976 -0.446950
0.286960 0.275589 -0.409802
0.286960 0.400041 0.281224
0.286960 -0.248674 0.427953
0.286960 0.458790 -0.059235
0.286960 -0.444044 0.152909
0.286960 0.409183 -0.275278
0.286960 0.317832 -0.353651
0.286960 0.121326 -0.484695
0.286960 -0.380386 0.316586
0.286960 -0.433018 0.185394
0.286960 -0.186534 0.424779
0.286960 -0.034631 -0.456714
0.286960 0.111181 -0.472797
0.286960 0.345533 -0.347661
0.286960 0.447660 -0.111981
0.286960 -0.166474 0.461055
0.286960 -0.444154 0.123367
0.286960 0.457091 0.195492
0.286960 0.305814 -0.346366
0.286960 -0.351842 0.294907
0.286960 0.333561 -0.304436
0.286960 0.331961 -0.367153
0.286960 0.206629 0.397404
0.286960 0.377297 0.299263
0.286960 -0.475806 -0.054616
0.286960 0.442001 0.215472
0.286960 0.127185 -0.434852
0.286960 -0.184677 0.403713
0.286960 0.448311 -0.052159
0.286960 -0.217488 -0.416838
0.286960 0.099482 -0.438373
0.286960 -0.308116 -0.362092
0.286960 -0.468898 -0.029057
0.286960 -0.250017 0.377528
0.286960 -0.342176 -0.326665
0.286960 0.439698 0.094087
0.286960 -0.457506 -0.197321
0.286960 -0.078806 -0.493572
0.286960 0.442088 0.189260
0.286960 0.254726 -0.412300
0.286960 0.209858 -0.396399
0.286960 0.456127 -0.158509
0.286960 -0.446210 0.071238
0.286960 -0.337621 0.306463
0.286960 0.449224 0.039023
0.286960 0.397695 -0.256186
0.286960 0.473289 0.009778
0.286960 -0.201241 -0.452057
0.286960 0.294521 0.365698
0.286960 0.459335 -0.092179
0.286960 -0.358613 -0.332690
0.286960 0.357254 0.316552
0.286960 -0.382029 -0.264192
0.286960 -0.429596 -0.179453
0.286960 -0.441900 0.198541
0.286960 0.381961 -0.308964
0.286960 0.015745 0.444061
0.286960 0.046834 -0.463301
0.286960 0.280784 0.403045
0.286960 -0.443089 0.207703
0.286960 0.453530 -0.028699
0.286960 0.449117 -0.185609
0.286960 -0.482515 -0.019836
0.286960 0.410113 -0.227748
0.286960 -0.019449 -0.471936
0.286960 0.379948 -0.292293
0.286960 -0.169309 0.417830
0.286960 0.109154 -0.466962
0.286960 0.387943 0.230749
0.286960 -0.441096 0.159367
0.286960 -0.279220 -0.348918
0.286960 0.399982 0.241850
0.286960 -0.015748 0.492047
0.286960 0.446349 0.059603
0.286960 -0.448581 -0.073508
0.286960 -0.115270 -0.463197
0.286960 -0.367517 -0.321702
0.286960 -0.291898 0.349406
0.286960 0.430578 0.225824
0.286960 -0.486758 0.034007
0.286960 -0.252324 -0.368810
0.286960 0.367495 -0.330233
0.286960 -0.422841 0.155033
0.286960 0.386634 0.298221
0.286960 -0.178227 -0.429573
0.286960 0.375647 -0.290847
0.286960 0.056328 -0.483691
0.286960 -0.355623 0.309662
0.286960 0.252607 -0.423975
0.286960 0.329843 -0.304370
0.286960 -0.244352 -0.392772
0.286960 -0.449017 0.089738
0.286960 -0.372781 -0.302259
0.286960 -0.301769 0.330165
0.286960 0.090506 -0.472976
0.286960 -0.395776 0.290477
0.286960 -0.441658 0.056709
0.286960 0.186838 -0.406674
0.286960 0.441833 0.078975
0.286960 -0.465957 0.049321
0.286960 0.413145 -0.179720
0.286960 0.262723 0.418732
0.286960 0.391786 0.294738
0.286960 0.425434 0.179602
0.286960 -0.118113 -0.456087
0.286960 -0.105824 -0.464541
0.286960 0.419038 0.209158
0.286960 0.332777 -0.361758
0.286960 -0.068530 -0.452687
0.286960 0.097658 0.447564
0.286960 -0.461112 -0.025672
0.286960 -0.437161 0.173055
0.286960 0.430808 -0.216051
0.286960 -0.341757 0.298285
0.286960 0.197860 0.416353
0.286960 0.459748 -0.072403
0.286960 -0.197125 0.428398
0.286960 0.029957 -0.477288
0.286960 -0.436448 0.135457
0.286960 -0.159441 0.458432
0.286960 0.484419 0.041867
0.286960 0.454549 0.124457
0.286960 0.471645 0.155063
0.286960 0.148968 0.450287
0.286960 0.166841 0.454213
0.286960 0.017088 -0.474212
0.286960 -0.157179 -0.467689
0.286960 -0.241265 -0.376850
0.286960 0.023259 -0.459789
0.286960 -0.101543 0.445878
0.286960 0.369240 -0.293270
0.286960 -0.470872 0.058895
0.286960 -0.270256 -0.414604
0.286960 0.483766 0.048851
0.286960 0.426984 0.201036
0.286960 -0.464448 -0.093087
0.286960 -0.258824 0.393032
0.286960 0.336352 0.347614
0.286960 -0.437915 -0.162256
0.286960 -0.485585 -0.054829
0.286960 0.090628 -0.446255
0.286960 0.233455 -0.433856
0.286960 -0.254223 0.399473
0.286960 -0.320714 0.318503
0.286960 0.012706 0.451848
0.286960 -0.456273 0.075667
0.286960 -0.444072 0.053244
0.286960 -0.248164 0.397298
0.286960 0.398156 0.202114
0.286960 -0.352308 -0.350751
0.286960 0.419412 0.165704
0.286960 0.401242 0.192727
0.286960 -0.444515 0.032253
0.286960 -0.198990 -0.433964
0.286960 -0.336327 -0.301490
0.286960 0.086780 0.447449
0.286960 0.117660 0.447614
0.286960 0.440813 0.230071
0.286960 0.064569 -0.444178
0.286960 -0.106727 -0.475368
0.286960 -0.311876 0.381281
0.286960 -0.289572 -0.345810
0.286960 0.492768 0.059287
0.286960 0.297050 0.392528
0.286960 0.157794 -0.459049
0.286960 -0.178810 0.413439
0.286960 -0.349515 -0.342813
0.286960 0.448841 -0.092431
0.286960 0.266576 -0.364794
0.286960 0.222160 0.432546
0.286960 -0.088384 -0.452187
0.286960 0.142343 0.462976
0.286960 -0.209316 0.391675
0.286960 0.433374 -0.211632
0.286960 0.436828 0.162257
0.286960 0.282247 0.373668
0.286960 -0.236862 0.408932
0.286960 0.266402 -0.361403
0.286960 -0.208920 0.444369
0.286960 -0.465612 -0.089716
0.286960 0.458771 -0.108917
0.286960 0.463525 0.063597
0.286960 -0.464861 -0.105733
0.286960 0.492522 0.073957
0.286960 0.348448 -0.328579
0.286960 -0.471384 -0.079851
0.286960 -0.290609 0.396202
0.286960 0.421433 0.241799
0.286960 -0.362144 -0.335298
0.286960 0.224384 0.437324
0.286960 -0.061366 -0.496019
0.286960 -0.478148 -0.126134
0.286960 -0.414664 -0.195621
0.286960 -0.492911 0.059889
0.286960 -0.344380 0.322445
0.286960 0.437583 -0.166373
0.286960 -0.445750 -0.070963
0.286960 -0.445490 0.019455
0.286960 -0.063280 0.474738
0.286960 0.417424 -0.245691
0.286960 0.175259 -0.439401
0.286960 0.436918 -0.132758
0.286960 -0.364673 -0.296553
0.286960 0.136256 0.450888
0.286960 -0.496556 -0.031251
0.286960 0.436805 -0.234336
0.286960 0.357557 -0.299029
0.286960 0.377179 0.260794
0.286960 -0.306570 0.334044
0.286960 0.396482 0.213155
0.286960 -0.234726 0.379717
0.286960 0.065085 -0.482482
0.286960 0.465717 -0.073104
0.286960 0.275616 0.354892
0.286960 0.220611 -0.416559
0.286960 0.247944 0.388195
0.286960 0.012711 -0.470939
0.286960 -0.173311 0.423344
0.286960 0.229125 -0.409651
0.286960 0.073138 0.466264
0.286960 -0.461366 -0.178109
0.286960 0.425498 0.145498
0.286960 0.307863 0.335648
0.286960 0.201216 -0.425732
0.286960 -0.331919 0.336953
0.286960 0.162627 0.439501
0.286960 0.415964 -0.233528
0.286960 -0.233818 0.407087
0.286960 -0.322463 -0.324554
0.286960 0.142363 0.469479
0.286960 0.187395 0.415767
0.286960 0.213343 0.442692
0.286960 -0.129356 -0.470197
0.286960 -0.387416 0.218431
0.286960 0.470234 -0.120789
0.286960 0.472132 0.013547
0.286960 -0.447493 0.196939
0.286960 0.141411 -0.428165
0.286960 0.464258 0.009568
0.286960 0.376496 0.251523
0.286960 -0.466681 0.112957
0.286960 0.455185 0.133901
0.286960 0.472940 0.076125
0.286960 0.086287 -0.440175
0.286960 0.497446 0.021331
0.286960 0.443451 -0.187557
0.286960 0.293876 -0.358130
0.286960 -0.055418 0.464783
0.286960 0.173966 0.411980
0.286960 -0.492218 -0.034707
0.286960 -0.482598 0.082155
0.286960 -0.471521 -0.103108
0.286960 0.378467 0.265767
0.286960 0.082417 -0.443702
0.286960 -0.271551 -0.418488
0.286960 -0.464945 -0.151211
0.286960 0.074365 0.442456
0.286960 0.465576 0.060674
0.286960 0.372768 -0.247895
0.286960 -0.107356 -0.441438
0.286960 -0.367637 -0.268824
0.286960 -0.358489 0.327861
0.286960 -0.184259 -0.456140
0.286960 0.452521 -0.067600
0.286960 0.451264 0.009709
0.286960 -0.120676 0.479454
0.286960 -0.411643 -0.171665
0.286960 0.261007 0.411349
0.286960 0.416041 -0.255720
0.286960 -0.209846 0.431764
0.286960 0.388636 0.301619
0.286960 0.334700 0.292065
0.286960 -0.424430 -0.179980
0.286960 -0.217685 -0.412888
0.286960 0.123615 0.430906
0.286960 -0.460527 -0.097190
0.286960 0.429455 0.160688
0.286960 0.365038 0.330746
0.286960 0.384108 0.250681
0.286960 -0.038999 -0.445925
0.286960 0.453496 0.018758
0.286960 0.379484 -0.261471
0.286960 0.432613 -0.231013
0.286960 0.472404 -0.124808
0.286960 0.447554 0.110514
0.286960 -0.492407 -0.043571
0.286960 -0.363648 0.301592
0.286960 -0.044239 -0.497129
0.286960 0.436179 0.224433
0.286960 0.039610 0.443224
0.286960 -0.437557 0.195809
0.286960 -0.449006 -0.083164
0.286960 0.453793 -0.039909
0.286960 -0.462861 0.053640
0.286960 0.358607 0.335214
0.286960 0.404527 -0.233014
0.286960 0.304809 0.382810
0.286960 0.276871 -0.363923
0.286960 0.132755 0.477190
0.286960 -0.308102 0.340088
0.286960 0.106070 -0.438630
0.286960 0.176029 -0.430992
0.286960 -0.402837 0.256829
0.286960 0.440925 0.151262
0.286960 -0.258745 -0.405802
0.286960 0.482954 -0.062952
0.286960 -0.420839 0.170465
0.286960 -0.141843 0.467681
0.286960 0.335522 -0.301372
0.286960 -0.134264 -0.434429
0.286960 0.464157 0.110395
0.286960 0.457435 -0.098796
0.286960 0.238603 0.391926
0.286960 -0.261685 -0.373983
0.286960 -0.177564 0.442832
0.286960 -0.470600 -0.053661
0.286960 -0.443488 0.040973
0.286960 -0.478877 -0.012062
0.286960 0.060445 -0.450604
0.286960 0.366515 -0.305935
0.286960 0.275309 -0.366804
0.286960 -0.204764 -0.398315
0.286960 -0.153610 0.433353
0.286960 -0.117260 -0.459462
0.286960 0.341420 0.305895
0.286960 0.070369 -0.449352
0.286960 -0.377087 0.305052
0.286960 -0.356584 -0.302337
0.286960 0.448166 0.172293
0.286960 -0.061304 -0.469165
0.286960 0.101839 -0.481138
0.286960 0.025306 -0.468259
0.286960 0.461003 -0.181182
0.286960 -0.310924 0.385447
0.286960 0.337621 0.324607
0.286960 0.340059 0.295132
0.286960 -0.380911 -0.238312
0.286960 -0.296364 0.379188
0.286960 -0.424809 -0.260863
0.286960 -0.433092 -0.103581
0.286960 -0.450440 0.080287
0.286960 0.406080 0.269376
0.286960 -0.365326 -0.309793
0.286960 -0.008575 0.459669
0.286960 -0.474477 -0.082189
0.286960 -0.453753 -0.166850
0.286960 0.328945 0.362856
0.286960 -0.480799 -0.128130
0.286960 0.445528 0.175612
0.286960 0.462012 0.058957
0.286960 -0.362056 -0.332016
0.286960 0.462903 -0.107623
0.286960 0.460251 -0.163709
0.286960 0.209901 0.404298
0.286960 -0.422613 0.159484
0.286960 -0.118656 -0.470057
0.286960 -0.386899 0.259315
0.286960 -0.458685 -0.111746
0.286960 0.416355 0.264454
0.286960 0.318522 0.367711
0.286960 -0.268173 0.391533
0.286960 -0.305051 0.340701
0.286960 0.473572 -0.080674
0.286960 0.332891 0.300815
0.286960 -0.360945 -0.274695
0.286960 -0.239191 -0.382910
0.286960 0.001915 0.468516
0.286960 -0.214977 0.412199
0.286960 -0.397739 -0.279878
0.286960 -0.291698 -0.348816
0.286960 0.379122 0.244322
0.286960 0.282161 -0.386951
0.286960 -0.446794 -0.192165
0.286960 0.386384 -0.305241
0.286960 0.223835 -0.397971
0.286960 0.454995 -0.075458
0.286960 -0.396700 0.210595
0.286960 0.399544 0.225002
0.286960 -0.116328 0.428124
0.286960 -0.037834 0.442464
0.286960 -0.065210 -0.495854
0.286960 0.486084 -0.111881
0.286960 -0.242119 0.418598
0.286960 0.448222 -0.160178
0.286960 -0.372358 0.278974
0.286960 -0.042364 -0.489573
0.286960 0.026831 -0.489618
0.286960 0.457493 -0.028326
0.286960 0.031503 -0.468907
0.286960 0.216291 0.411294
0.286960 -0.438868 0.218297
0.286960 0.468544 0.055267
0.286960 0.171182 0.426137
0.286960 0.331695 -0.357773
0.286960 -0.430838 0.138887
0.286960 0.465761 0.143536
0.286960 0.181813 0.414705
0.286960 0.251724 -0.405035
0.286960 -0.454717 -0.010763
0.286960 0.383179 -0.277772
0.286960 -0.271480 -0.356276
0.286960 0.248774 0.399301
0.286960 -0.384360 -0.306630
0.286960 -0.462827 0.032925
0.286960 -0.447708 0.013203
0.286960 -0.453469 0.030603
0.286960 0.294115 -0.342271
0.286960 0.433681 -0.204728
0.286960 -0.086893 -0.444788
0.286960 -0.344612 0.304625
0.286960 -0.450062 -0.039079
0.286960 0.391850 0.291613
0.286960 -0.480703 -0.067878
0.286960 0.118074 -0.431900
0.286960 -0.311253 0.371121
0.286960 0.009213 0.495729
0.286960 0.328615 -0.363013
0.286960 -0.446917 0.183406
0.286960 -0.272866 -0.365334
0.286960 0.439887 -0.135594
0.286960 -0.234123 0.411711
0.286960 0.383675 -0.274382
0.286960 -0.447484 0.155063
0.286960 -0.493763 0.050263
0.286960 -0.420405 -0.249585
0.286960 0.031696 0.476723
0.286960 0.422145 0.217067
0.286960 0.095107 -0.471835
0.286960 0.338768 0.351692
0.286960 0.448659 0.193214
0.286960 -0.259527 -0.386416
0.286960 -0.377957 0.298358
0.286960 -0.131801 -0.472718
0.286960 0.289045 0.357163
0.286960 -0.147805 0.420074
0.286960 0.454607 -0.183249
0.286960 -0.176731 0.461811
0.286960 -0.391910 0.297625
0.286960 -0.457632 0.059627
0.286960 0.457174 0.116545
0.286960 -0.181062 -0.448019
0.286960 -0.464397 0.169437
0.286960 0.274508 -0.387444
0.286960 0.052373 0.459690
0.286960 0.372498 0.288771
0.286960 0.112626 -0.437897
0.286960 0.458858 -0.126529
0.286960 -0.070570 -0.450183
0.286960 0.437390 -0.089504
0.286960 0.416473 0.260174
0.286960 -0.333281 -0.303609
0.286960 0.411582 -0.183442
0.286960 0.451559 0.168647
0.286960 -0.059592 -0.447932
0.286960 0.457651 0.001397
0.286960 0.468647 -0.013492
0.286960 -0.109279 -0.467692
0.286960 0.407341 0.220588
0.286960 0.455808 0.009907
0.286960 -0.342389 -0.361734
0.286960 -0.025334 0.476833
0.286960 0.373526 0.279294
0.286960 0.147078 0.428819
0.286960 -0.205155 0.410350
0.286960 0.012552 0.443140
0.286960 0.007182 0.461518
0.286960 0.144551 -0.459926
0.286960 0.441122 -0.118401
0.286960 -0.455105 -0.195263
0.286960 -0.461345 0.132339
0.286960 0.472393 -0.005873
0.286960 -0.449765 -0.035539
0.286960 0.446149 0.182066
0.286960 -0.435038 -0.128236
0.286960 0.465775 -0.091361
0.286960 0.161600 0.451449
0.286960 0.248218 0.422650
0.286960 -0.035683 0.453241
0.286960 -0.376803 -0.324849
0.286960 0.306577 -0.350297
0.286960 0.272845 -0.377674
0.286960 -0.457674 0.158824
0.286960 0.365540 -0.269228
0.286960 -0.488378 -0.032526
0.286960 0.201009 -0.457836
0.286960 0.497162 0.003073
0.286960 -0.203839 0.421473
0.286960 -0.054504 -0.493445
0.286960 0.485365 -0.010546
0.286960 0.018575 0.465653
0.286960 0.475819 0.013374
0.286960 -0.332204 0.330015
0.286960 0.451219 -0.162530
0.286960 -0.401551 -0.245417
0.286960 0.490016 0.061507
0.286960 -0.430671 -0.117960
0.286960 -0.149781 0.437416
0.286960 0.478225 0.072241
0.286960 0.469664 -0.060216
0.286960 -0.314052 0.344616
0.286960 0.266956 -0.384757
0.286960 -0.186049 -0.431705
0.286960 -0.132066 0.451218
0.286960 0.446753 0.135401
0.286960 -0.236639 0.414228
0.286960 -0.460407 0.106946
0.286960 -0.307102 -0.344081
0.286960 -0.489937 0.034246
0.286960 0.295384 0.359579
0.286960 0.303595 0.379468
0.286960 0.102840 0.431653
0.286960 -0.231571 -0.390045
0.286960 -0.471238 0.004486
0.286960 -0.067283 0.440669
0.286960 -0.431638 -0.220292
0.286960 0.432922 0.140367
0.286960 -0.058543 -0.473579
0.286960 -0.432168 -0.155117
0.286960 -0.430444 0.242729
0.286960 -0.447366 -0.188766
0.286960 -0.201087 0.414370
0.286960 -0.289297 0.381797
0.286960 0.204672 -0.426926
0.286960 0.038022 -0.479094
0.286960 0.448295 0.123582
0.286960 -0.470679 0.147043
0.286960 -0.129619 -0.462066
0.286960 0.096376 0.473143
0.286960 0.185649 -0.451748
0.286960 0.483064 -0.003008
0.286960 -0.032677 -0.494008
0.286960 0.162831 0.412619
0.286960 0.080064 -0.446218
0.286960 0.399656 0.208386
0.286960 0.287460 -0.357136
0.286960 -0.162058 0.448616
0.286960 -0.197257 0.424262
0.286960 0.493670 -0.010550
0.286960 0.261327 0.415780
0.286960 -0.210426 0.406154
0.286960 -0.350835 -0.309004
0.286960 0.490593 -0.053123
0.286960 -0.458343 -0.064635
0.286960 -0.487696 0.027518
0.286960 -0.138119 -0.426400
0.286960 -0.343749 -0.288891
0.286960 -0.248886 0.412740
0.286960 -0.438772 -0.220180
0.286960 -0.392699 -0.261954
0.286960 0.369290 0.249271
0.286960 -0.370582 0.270376
0.286960 -0.377407 0.237028
0.286960 -0.429758 -0.225685
0.286960 0.142767 -0.464431
0.286960 -0.349363 -0.318002
0.286960 0.278261 -0.351442
0.286960 0.401972 -0.231328
0.286960 0.307838 0.321322
0.286960 0.457165 0.113270
0.286960 0.397385 -0.259418
0.286960 0.419320 0.150456
0.286960 0.441092 -0.073701
0.286960 -0.452129 0.205348
0.286960 -0.170699 -0.460188
0.286960 0.476180 0.068849
0.286960 0.435339 -0.229355
0.286960 0.469881 -0.020744
0.286960 -0.395651 0.256910
0.286960 0.122040 0.454781
0.286960 0.320854 0.356958
0.286960 -0.120814 -0.460420
0.286960 0.029689 0.468263
0.286960 -0.134830 0.474036
0.286960 -0.331850 0.362415
0.286960 0.218584 -0.432228
0.286960 0.275517 -0.359557
0.286960 -0.351589 0.345001
0.286960 0.351480 -0.289376
0.286960 -0.006114 0.495634
0.286960 -0.329223 -0.322575
0.286960 -0.334181 0.334193
0.286960 0.446698 -0.187449
0.286960 -0.428887 -0.239398
0.286960 0.357473 -0.334468
0.286960 -0.472608 0.068114
0.286960 0.489938 0.002810
0.286960 -0.403689 -0.287621
0.286960 0.444689 0.088035
0.286960 -0.388533 -0.269273
0.286960 0.099684 0.466145
0.286960 -0.024361 -0.459263
0.286960 0.424139 0.136353
0.286960 0.230191 -0.424333
0.286960 -0.203194 -0.417112
0.286960 -0.454450 0.147896
0.286960 -0.476197 0.103846
0.286960 0.460473 0.161686
0.286960 0.076407 0.468189
0.286960 -0.302020 0.343582
0.286960 0.220605 0.420907
0.286960 -0.252785 0.374693
0.286960 -0.301214 -0.394956
0.286960 -0.098879 0.452894
0.286960 -0.228001 -0.389686
0.286960 0.399486 -0.262129
0.286960 -0.408110 -0.189016
0.286960 -0.292598 -0.395964
0.286960 -0.259113 0.369966
0.286960 0.048967 0.460741
0.286960 0.425960 -0.178022
0.286960 0.046473 -0.456641
0.286960 -0.213827 0.399678
0.286960 -0.437514 0.183721
0.286960 0.274572 0.413120
0.286960 -0.079249 -0.489699
0.286960 -0.291147 -0.393052
0.286960 -0.092169 0.467390
0.286960 -0.174834 -0.429444
0.286960 -0.185592 0.450700
0.286960 0.462911 -0.023684
0.286960 -0.383940 -0.237331
0.286960 -0.039095 0.480368
0.286960 -0.181390 -0.415567
0.286960 0.346430 -0.324517
0.286960 0.167460 -0.422812
0.286960 0.454818 0.191993
0.286960 0.418109 0.212843
0.286960 0.436702 -0.215503
0.286960 -0.335432 0.328148
0.286960 -0.316907 0.322718
0.286960 -0.023290 0.494545
0.286960 -0.011758 0.463887
0.286960 -0.379655 0.295573
0.286960 0.378764 0.234092
0.286960 0.410541 0.228811
0.286960 0.141834 0.435360
0.286960 -0.343922 -0.334745
0.286960 -0.440996 0.135886
0.286960 0.119404 0.436060
0.286960 -0.291188 0.355090
0.286960 -0.478242 -0.026032
0.286960 -0.035885 -0.446498
0.286960 0.171066 -0.462053
0.286960 -0.411854 -0.261701
0.286960 0.401077 -0.281897
0.286960 0.481486 0.126560
0.286960 0.141756 0.454510
0.286960 -0.386523 0.263410
0.286960 0.146459 -0.434006
0.286960 0.196872 0.433199
0.286960 0.198312 0.437490
0.286960 -0.058254 0.468625
0.286960 -0.480533 -0.088732
0.286960 0.319154 -0.313180
0.286960 -0.262146 -0.363126
0.286960 -0.033191 -0.483285
0.286960 -0.483078 -0.062334
0.286960 0.416336 0.184316
0.286960 -0.050020 0.490427
0.286960 0.132571 -0.435250
0.286960 0.381062 0.253663
0.286960 -0.453518 0.126729
0.286960 -0.166679 -0.456669
0.286960 0.376853 -0.242870
0.286960 0.459273 -0.112502
0.286960 -0.421635 0.201566
0.286960 0.329998 0.337025
0.286960 0.451902 -0.193321
0.286960 0.440450 0.111551
0.286960 -0.387326 0.238706
0.286960 0.441924 0.098727
0.286960 0.425298 0.257171
0.286960 -0.020076 -0.486453
0.286960 0.434861 -0.123347
0.286960 -0.445198 -0.000633
0.286960 -0.285815 0.381130
0.286960 -0.125371 0.462204
0.286960 0.147652 0.472980
0.286960 0.444256 -0.226652
0.286960 -0.474760 -0.004763
0.286960 -0.385283 0.268470
0.286960 0.418810 -0.272188
0.286960 -0.076836 -0.486520
0.286960 0.172231 0.409062
0.286960 0.473318 -0.142462
0.286960 -0.476351 -0.040759
0.286960 0.469383 0.108576
0.286960 -0.450951 -0.169075
0.286960 0.440433 -0.168027
0.286960 0.278269 0.349894
0.286960 -0.471444 -0.096540
0.286960 0.371875 -0.301426
0.286960 -0.212601 0.389581
0.286960 0.401327 0.277905
0.286960 -0.464691 0.126591
0.286960 -0.389738 0.225921
0.286960 -0.436927 0.210969
0.286960 -0.447034 0.137643
0.286960 -0.337822 -0.314440
0.286960 0.037649 0.449168
0.286960 -0.441614 -0.061399
0.286960 0.427291 -0.146376
0.286960 -0.261489 0.416593
0.286960 -0.447363 0.066145
0.286960 0.276267 0.396724
0.286960 0.489224 -0.016507
0.286960 -0.352548 0.304386
0.286960 -0.069124 -0.482927
0.286960 0.363444 -0.329775
0.286960 0.468928 0.025774
0.286960 0.147538 -0.437886
0.286960 -0.266188 0.355964
0.286960 0.389504 -0.307466
0.286960 0.326583 -0.311059
0.286960 -0.362772 0.289877
0.286960 -0.453013 0.070523
0.286960 0.411136 0.192950
0.286960 0.305296 -0.327483
0.286960 0.413557 0.258282
0.286960 -0.024839 -0.468429
0.286960 -0.229712 -0.419212
0.286960 0.463195 -0.041890
0.286960 -0.396570 0.246542
0.286960 -0.402852 0.276103
0.286960 0.446048 0.033015
0.286960 0.470962 -0.068548
0.286960 -0.465719 -0.175851
0.286960 -0.318069 0.371752
0.286960 0.259991 0.382435
0.286960 -0.464920 0.099143
0.286960 -0.297768 0.357103
0.286960 -0.340859 0.311931
0.286960 0.496019 -0.015348
0.286960 -0.293603 0.393569
0.286960 -0.273657 0.393420
0.286960 -0.327299 0.304991
0.286960 -0.188867 -0.406113
0.286960 0.449112 -0.047715
0.286960 0.458581 0.033441
0.286960 -0.412480 0.177522
0.286960 0.276216 -0.391138
0.286960 0.206229 -0.444767
0.286960 -0.049400 0.483649
0.286960 -0.474109 -0.078211
0.286960 0.233070 0.379792
0.286960 -0.036930 0.456481
0.286960 0.082200 0.483337
0.286960 0.091760 0.438851
0.286960 0.412474 -0.264751
0.286960 -0.343788 -0.341383
0.286960 0.452032 -0.070573
0.286960 -0.083121 -0.443446
0.286960 0.314300 0.365302
0.286960 0.328473 0.353667
0.286960 0.200598 -0.452146
0.286960 0.182005 -0.420205
0.286960 0.452819 -0.082811
0.286960 0.355456 0.345038
0.286960 -0.213838 0.395361
0.286960 0.493609 -0.026880
0.286960 -0.219831 0.442853
0.286960 0.298324 -0.400214
0.286960 -0.360268 -0.316684
0.286960 0.201734 0.404336
0.286960 0.360055 -0.337841
0.286960 -0.064097 0.485979
0.286960 -0.444961 -0.101759
0.286960 -0.085678 0.468987
0.286960 0.106591 0.474915
0.286960 0.397557 0.238201
0.286960 -0.195241 0.446357
0.286960 0.040293 0.463483
0.286960 0.140435 0.426325
0.286960 -0.353522 0.270392
0.286960 -0.464342 -0.141686
0.286960 -0.461608 -0.082059
0.286960 -0.413221 0.267802
0.286960 0.412203 0.215732
0.286960 -0.465356 -0.124088
0.286960 0.358798 0.338441
0.286960 0.410859 0.231864
0.286960 0.111376 0.445298
0.286960 0.067076 0.469738
0.286960 0.478912 -0.109899
0.286960 0.122414 -0.469996
0.286960 0.355026 0.291848
0.286960 -0.224497 -0.430370
0.286960 0.489623 -0.061657
0.286960 -0.307108 -0.393743
0.286960 0.000086 0.461702
0.286960 -0.333259 -0.324468
0.286960 0.183389 -0.423753
0.286960 0.078526 0.442032
0.286960 0.170890 0.413291
0.286960 -0.436761 0.221662
0.286960 0.452708 0.048109
0.286960 0.449289 -0.124408
0.286960 -0.410554 0.263086
0.286960 0.244149 0.418526
0.286960 -0.426172 -0.242521
0.286960 0.478540 0.133750
0.286960 0.447575 -0.044046
0.286960 0.399750 0.221453
0.286960 -0.455422 -0.172487
0.286960 0.161145 0.430083
0.286960 -0.449250 0.193644
0.286960 0.489133 0.024636
0.286960 0.480707 -0.013870
0.286960 -0.318828 -0.313925
0.286960 0.410605 0.185031
0.286960 -0.379266 -0.279107
0.286960 0.378442 0.302439
0.286960 0.351184 -0.315404
0.286960 -0.343117 0.325506
0.286960 0.473422 -0.112873
0.286960 -0.377593 -0.256686
0.286960 -0.418158 -0.226446
0.286960 -0.379543 -0.295106
0.286960 -0.480764 -0.083538
0.286960 0.076721 -0.487189
0.286960 0.045536 0.448621
0.286960 0.088798 0.435953
0.286960 0.120469 0.431906
0.286960 -0.215184 0.415633
0.286960 -0.032199 -0.459572
0.286960 0.112079 -0.433407
0.286960 0.019867 -0.471717
0.286960 0.007770 -0.494283
0.286960 -0.449532 0.020161
0.286960 0.409523 -0.180104
0.286960 -0.140944 -0.479243
0.286960 -0.293416 0.389519
0.286960 0.166492 0.448973
0.286960 0.165929 -0.465878
0.286960 -0.467876 0.134457
0.286960 -0.412790 -0.216829
0.286960 -0.459605 0.025138
0.286960 -0.186853 -0.410102
0.286960 -0.167983 0.444426
0.286960 -0.218876 -0.442256
0.286960 -0.300677 -0.385177
0.286960 0.420807 -0.246403
0.286960 -0.299443 -0.333334
0.286960 0.497245 -0.021585
0.286960 0.455324 -0.112965
0.286960 -0.314619 0.360090
0.286960 -0.406956 0.256815
0.286960 0.374481 -0.309340
0.286960 -0.304678 -0.362559
0.286960 -0.290273 0.362272
0.286960 -0.370318 0.259306
0.286960 -0.442318 -0.125592
0.286960 0.071599 -0.452398
0.286960 0.397299 -0.298923
0.286960 0.317582 -0.331870
0.286960 -0.156395 0.448907
0.286960 0.418398 0.241408
0.286960 -0.435258 0.228526
0.286960 -0.337837 0.356882
0.286960 -0.394234 0.220920
0.286960 0.435277 0.153041
0.286960 0.124316 -0.438088
0.286960 -0.062966 -0.484910
0.286960 0.023673 -0.491002
0.286960 0.435076 0.137432
0.286960 0.268037 0.390180
0.286960 -0.247495 -0.422556
0.286960 -0.140126 0.456629
0.286960 0.397718 0.254256
0.286960 0.403535 -0.278430
0.286960 -0.243915 0.410789
0.286960 0.491861 -0.080501
0.286960 0.467794 0.021217
0.286960 0.134107 -0.446464
0.286960 0.091163 -0.469437
0.286960 0.153699 0.430754
0.286960 0.020835 -0.477320
0.286960 -0.111132 -0.436653
0.286960 0.429003 0.187661
0.286960 0.133159 -0.477884
0.286960 0.074505 0.461422
0.286960 -0.410933 -0.226161
0.286960 -0.181018 0.444173
0.286960 -0.230998 -0.426795
0.286960 0.393895 -0.250874
0.286960 0.460218 0.055638
0.286960 -0.135267 0.452321
0.286960 0.468761 -0.034086
0.286960 -0.456363 -0.134065
0.286960 0.098548 0.437977
0.286960 -0.266003 -0.402807
0.286960 -0.276693 0.365567
0.286960 0.210649 -0.437467
0.286960 -0.447586 0.085821
0.286960 0.392292 0.253558
0.286960 0.278352 -0.399853
0.286960 -0.435221 -0.159097
0.286960 0.231689 -0.420298
0.286960 0.463036 -0.017873
0.286960 0.236822 0.400036
0.286960 -0.388202 0.266344
0.286960 -0.214180 -0.414751
0.286960 0.306592 -0.364779
0.286960 -0.381380 0.278312
0.286960 -0.311701 -0.327830
0.286960 0.155919 0.433561
0.286960 -0.259261 -0.396111
0.286960 0.140153 -0.480004
0.286960 0.446904 0.165258
0.286960 0.466731 -0.037526
0.286960 0.331422 0.304281
0.286960 0.444733 -0.207928
0.286960 -0.072703 0.490072
0.286960 0.347694 0.305875
0.286960 0.115223 -0.434153
0.286960 0.141244 -0.470568
0.286960 -0.217138 -0.404211
0.286960 0.462755 -0.160179
0.286960 -0.434662 0.138024
0.286960 0.429397 -0.136845
0.286960 -0.446296 0.170781
0.286960 -0.428038 0.201477
0.286960 -0.366142 -0.303195
0.286960 0.427458 -0.207400
0.286960 0.434270 -0.103886
0.286960 0.451972 -0.210909
0.286960 -0.221721 0.417659
0.286960 -0.387909 -0.308096
0.286960 0.302232 -0.384919
0.286960 0.350036 0.294656
0.286960 0.428470 0.130800
0.286960 0.206180 0.406644
0.286960 0.364618 0.265011
0.286960 0.467236 0.033957
0.286960 -0.455785 -0.100453
0.286960 -0.039871 -0.453569
0.286960 -0.247055 -0.404484
0.286960 0.341310 0.289864
0.286960 -0.483925 0.036025
0.286960 0.389974 0.297395
0.286960 0.344610 0.285278
0.286960 0.275885 -0.394827
0.286960 -0.095697 0.452291
0.286960 -0.018636 -0.480510
0.286960 -0.363579 0.271843
0.286960 0.482331 0.100518
0.286960 -0.176601 0.416475
0.286960 0.447150 -0.121824
0.286960 -0.414892 0.215099
0.286960 0.016058 0.449793
0.286960 0.061807 -0.488031
0.286960 -0.384836 -0.317535
0.286960 0.477033 0.017175
0.286960 -0.131856 -0.482202
0.286960 0.418730 -0.185009
0.286960 -0.385441 0.231286
0.286960 0.466735 -0.159469
0.286960 -0.484114 -0.067205
0.286960 0.431466 0.136790
0.286960 -0.043341 -0.449103
0.286960 0.172319 0.465038
0.286960 -0.356545 0.288389
0.286960 0.354937 0.320962
0.286960 -0.008582 0.443163
0.286960 -0.455474 0.088612
0.286960 0.290572 -0.357493
0.286960 0.002266 -0.456442
0.286960 -0.425053 0.226413
0.286960 0.434666 -0.240292
0.286960 0.461756 0.086315
0.286960 0.467265 -0.166136
0.286960 0.244531 0.423519
0.286960 -0.302748 0.338611
0.286960 0.400722 -0.243934
0.286960 -0.165471 0.432452
0.286960 -0.474388 0.049110
0.286960 0.235906 -0.436935
0.286960 -0.454267 -0.000246
0.286960 0.441515 -0.206056
0.286960 0.410344 -0.239188
0.286960 -0.480589 0.064114
0.286960 0.376577 0.288249
0.286960 -0.390531 0.288970
0.286960 0.472165 -0.001526
0.286960 0.169700 -0.446717
0.286960 0.305992 0.389790
0.286960 -0.043309 0.493757
0.286960 -0.127373 -0.477890
0.286960 0.468697 0.009209
0.286960 0.060963 -0.461039
0.286960 0.318048 0.334571
0.286960 0.135551 -0.465178
0.286960 -0.421699 0.219535
0.286960 -0.233857 0.391437
0.286960 -0.057485 0.485468
0.286960 -0.461055 -0.124075
0.286960 0.295876 -0.378252
0.286960 0.054293 0.468552
0.286960 0.451937 -0.106715
0.286960 0.004379 -0.484863
0.286960 0.443552 -0.124829
0.286960 -0.218808 -0.427422
0.286960 -0.491650 -0.018268
0.286960 -0.147896 -0.459716
0.286960 0.430311 -0.209848
0.286960 0.428098 -0.228157
0.286960 0.268581 -0.391086
0.286960 -0.338227 0.296892
0.286960 -0.350434 0.341868
0.286960 -0.394421 -0.285254
0.286960 -0.294746 -0.399383
0.286960 0.035360 0.459185
0.286960 0.416784 -0.165983
0.286960 0.265637 -0.399702
0.286960 -0.048898 -0.488351
0.286960 -0.442705 -0.176647
0.286960 0.150616 0.464973
0.286960 -0.131298 -0.478651
0.286960 0.086812 -0.471422
0.286960 0.431699 0.118259
0.286960 -0.397819 -0.218002
0.286960 0.491034 -0.013651
0.286960 -0.035891 -0.476310
0.286960 0.217808 -0.448676
0.286960 0.410133 -0.247358
0.286960 0.042676 0.461560
0.286960 0.407882 -0.253582
0.286960 -0.386080 -0.290474
0.286960 0.247135 -0.379879
0.286960 0.298063 -0.367845
0.286960 0.066735 -0.495407
0.286960 -0.393557 -0.241514
0.286960 0.011702 -0.492461
0.286960 0.380449 0.273302
0.286960 -0.466015 -0.031156
0.286960 0.087801 0.464573
0.286960 -0.458864 -0.194190
0.286960 0.285837 0.359721
0.286960 0.417032 0.197710
0.286960 -0.425003 0.201577
0.286960 -0.330009 -0.329253
0.286960 -0.457208 -0.058598
0.286960 -0.024790 0.465903
0.286960 -0.217948 0.398173
0.286960 0.054044 -0.450869
0.286960 -0.448007 0.129278
0.286960 0.237509 0.411192
0.286960 -0.439334 0.067354
0.286960 -0.464433 -0.044113
0.286960 -0.076337 -0.478889
0.286960 0.224638 0.409681
0.286960 0.287651 -0.397977
0.286960 0.455078 0.059814
0.286960 -0.279305 -0.413916
0.286960 0.194836 -0.425485
0.286960 0.364918 -0.316457
0.286960 0.350018 -0.299919
0.286960 0.020362 -0.455030
0.286960 0.025313 -0.462101
0.286960 -0.439467 -0.109924
0.286960 -0.034206 0.489554
0.286960 0.336292 -0.363364
0.286960 -0.240224 0.433342
0.286960 0.225170 0.391835
0.286960 0.471852 0.093608
0.286960 0.285693 0.347745
0.286960 0.420657 0.250944
0.286960 0.419678 0.183418
0.286960 -0.344432 0.347386
0.286960 0.302718 -0.395319
0.286960 0.048233 -0.475014
0.286960 0.443765 0.056688
0.286960 -0.240030 -0.415652
0.286960 0.439486 0.174465
0.286960 -0.148063 -0.465555
0.286960 -0.002519 -0.478158
0.286960 -0.131775 0.432204
0.286960 -0.002160 -0.482672
0.286960 0.466912 0.149517
0.286960 -0.283076 -0.382951
0.286960 -0.444396 0.181711
0.286960 0.464308 -0.154170
0.286960 -0.381154 -0.306194
0.286960 0.164688 -0.434001
0.286960 0.401520 0.291047
0.286960 -0.005716 -0.497669
0.286960 0.011390 -0.455345
0.286960 0.477557 0.129033
0.286960 -0.245069 -0.424918
0.286960 0.195036 -0.407691
0.286960 -0.231696 -0.439070
0.286960 0.209717 -0.421135
0.286960 0.079083 -0.489154
