0.208500 -0.110312 0.483354
0.239692 0.498142 0.019419
-0.083048 -0.191960 0.457059
0.185368 -0.497248 -0.016533
0.009927 -0.121689 -0.484942
0.053082 0.497079 -0.041698
-0.157397 -0.457528 -0.197517
-0.186074 0.408429 0.283722
-0.172528 -0.044098 -0.498193
0.135066 -0.422503 -0.265206
0.171049 0.445254 -0.226289
0.068962 -0.241088 -0.437711
0.271948 0.290236 0.402830
0.043854 -0.481225 -0.128332
-0.047560 -0.331948 -0.372877
0.281911 -0.282754 0.407478
-0.099330 -0.461062 -0.189041
-0.019703 -0.283334 0.407095
-0.060289 0.029996 0.494940
0.234774 0.439929 0.232516
-0.229239 0.259850 -0.427460
0.045136 -0.360369 -0.345312
-0.175647 -0.136425 0.476584
0.253441 0.201409 -0.457901
-0.219189 0.148482 -0.477865
0.181645 0.360785 0.341584
0.123979 -0.470168 -0.164665
0.060260 -0.330819 -0.373899
0.229301 0.245325 0.431666
-0.168030 0.426758 -0.259589
0.220842 0.436588 0.238341
0.108654 0.385645 0.313639
0.273002 0.498052 0.022885
-0.257939 0.027850 -0.499532
0.065406 -0.455655 0.197510
-0.052523 0.040612 -0.498498
0.011132 0.127090 0.479548
-0.138979 -0.358785 -0.346939
-0.228262 -0.492300 -0.073440
-0.239536 -0.040957 -0.498533
-0.129068 -0.353296 -0.352577
-0.219689 -0.463993 0.177267
-0.150560 0.478938 0.135974
-0.036706 -0.349064 0.352433
-0.168875 -0.494920 -0.053246
0.258622 -0.379282 -0.324213
0.277627 0.339546 0.362570
0.152083 -0.003576 0.495769
0.047681 0.474448 0.150875
0.183352 0.373508 0.327783
-0.113535 0.458101 -0.198695
-0.236016 -0.014215 -0.499955
0.239704 -0.231038 0.438834
0.066022 -0.488225 0.093815
-0.202866 -0.457344 0.193745
0.191036 -0.047276 -0.497850
-0.065745 0.497129 0.034274
-0.033898 0.465642 0.176160
0.110884 -0.429733 0.248676
-0.051342 -0.453997 -0.205987
-0.245618 -0.495586 -0.045018
0.243261 -0.289103 0.403078
0.203141 -0.417597 0.268582
-0.232127 -0.363671 0.337478
0.001920 -0.191263 -0.461894
0.006730 -0.423259 0.259294
-0.070044 0.230636 -0.443890
0.056679 -0.093508 0.486874
0.252231 -0.197616 -0.459043
-0.193858 0.257965 -0.428541
-0.259228 0.455327 -0.204878
0.130100 -0.158335 0.469759
-0.194220 -0.430556 0.247325
-0.037360 0.287773 -0.409194
-0.074788 0.198442 -0.459137
-0.165289 -0.410558 0.278878
-0.081661 0.413755 0.275655
0.092233 -0.201930 0.452903
0.237859 -0.003268 -0.500264
-0.116998 -0.300348 0.394594
0.152938 -0.494513 -0.058142
0.123882 0.226015 0.441833
-0.183491 -0.387542 -0.314587
0.252188 0.058172 0.492429
0.078155 -0.379441 -0.324027
-0.150342 -0.485427 -0.111047
-0.073344 -0.215676 -0.450939
-0.216628 -0.008409 0.495682
-0.202814 -0.022768 -0.499571
0.053417 -0.149787 -0.476918
0.226390 0.463947 -0.184476
-0.146250 -0.496895 0.020807
-0.248839 0.438154 -0.239773
-0.188241 -0.180796 -0.465983
-0.222624 0.053753 -0.497433
0.077255 -0.350758 0.350784
0.218446 -0.254482 -0.429897
-0.142705 -0.366361 -0.339156
-0.243742 0.051982 -0.497576
0.055723 0.084754 -0.493111
0.259109 0.316039 0.383086
-0.245791 -0.111128 0.483183
-0.067447 0.385048 -0.318616
0.218091 -0.497470 -0.004225
0.133816 -0.468310 -0.170051
0.274866 -0.462912 -0.184603
0.060910 0.105614 0.484652
0.203280 -0.409059 0.281021
0.001676 0.178032 -0.467647
-0.208988 -0.420178 0.264348
-0.108498 -0.307921 0.388880
-0.065842 0.372194 0.329314
0.281528 -0.472831 -0.156945
0.022136 -0.497436 -0.006091
-0.007888 -0.360745 0.340709
0.170212 0.119039 -0.486020
0.120661 0.249109 -0.433620
-0.272153 0.483947 0.117828
-0.243012 -0.399156 0.295181
0.285625 -0.227155 0.440747
-0.007258 0.064611 -0.496025
-0.059129 0.395478 0.301076
-0.116779 0.085991 0.488371
-0.254017 -0.497366 -0.009990
0.202475 -0.488606 0.091603
0.182668 0.453721 0.204617
-0.164660 0.242662 0.433068
0.080426 -0.451753 -0.210885
0.208509 0.352065 0.350541
-0.252131 -0.399821 -0.298314
0.256975 0.224632 0.442561
0.054217 0.483617 -0.122948
-0.281781 0.418130 -0.273742
0.094608 0.074877 0.490284
0.215900 -0.021380 0.495448
-0.059322 0.372923 -0.332749
-0.077211 -0.020839 -0.499658
0.088195 -0.384403 -0.318244
0.187959 0.298820 0.396816
0.036508 0.179870 0.462361
-0.110046 -0.496118 0.036748
-0.063249 -0.453531 -0.207103
-0.267803 -0.026517 0.495203
0.088666 0.165205 0.467864
-0.226750 -0.281318 -0.412704
0.028092 0.487097 0.103617
-0.257243 0.278137 0.411292
0.186204 -0.496703 0.025109
-0.228552 -0.134115 -0.481700
0.259880 0.210508 0.449364
-0.142804 -0.332576 0.368134
0.141981 -0.188984 0.458300
0.094857 0.373190 -0.332454
0.207639 -0.343930 -0.362024
0.222403 0.180799 0.462013
0.170661 -0.493381 -0.065969
-0.125520 0.387419 0.311571
0.242239 0.491678 -0.084064
-0.040615 -0.196915 -0.459358
0.087997 -0.497431 -0.006341
-0.247017 -0.032439 0.494723
-0.215871 -0.252027 0.427005
-0.135383 0.470399 0.162611
-0.174754 0.323611 0.377003
-0.112389 0.352503 0.350091
-0.209259 -0.419556 -0.269669
-0.185136 0.178221 -0.467568
-0.272603 0.042160 -0.498372
-0.139670 0.036664 0.494641
0.273245 -0.080140 -0.493555
0.213633 -0.150887 0.472329
-0.190598 0.287400 0.404814
0.215518 -0.012895 -0.500014
-0.288378 -0.011339 -0.500084
-0.032049 0.118426 0.481607
0.147736 0.267642 -0.422485
-0.103627 0.472558 0.156352
0.106966 -0.014516 0.495571
0.129168 -0.479416 -0.134885
0.278239 0.383835 0.315748
0.078199 -0.358961 0.342679
0.252088 -0.487725 0.096721
-0.024822 -0.457885 -0.196661
-0.030155 0.369740 0.332174
-0.124055 0.497802 -0.027804
0.252517 -0.221306 0.443629
-0.008057 0.396284 -0.304524
0.091327 0.437288 0.237121
0.196585 -0.360757 -0.344913
0.020475 0.092571 -0.491638
0.218998 0.486428 0.106808
0.077349 0.409527 -0.286170
0.109426 0.196076 -0.460124
-0.288085 -0.086597 -0.492443
0.086196 0.355017 0.347508
0.232266 0.446217 0.219847
0.177961 0.144498 -0.478992
0.075812 -0.487016 0.099980
-0.137535 0.287696 -0.409245
0.279454 0.234798 -0.441826
-0.286103 0.068231 -0.495502
-0.164282 0.444178 -0.228333
0.145100 -0.128682 0.478721
0.071887 -0.144368 0.474391
-0.234580 0.171142 0.465636
-0.031219 0.465578 -0.180129
-0.043776 0.386682 -0.316566
-0.247154 0.375228 0.325778
0.248271 0.497752 -0.028901
0.183213 -0.329024 0.371181
0.252933 0.413298 -0.280778
0.045947 -0.469069 -0.167850
0.120635 0.445137 0.222039
0.079258 -0.324024 -0.380054
0.153601 -0.330184 -0.374475
0.064179 0.468790 -0.171568
-0.117468 -0.481429 0.123490
-0.216933 0.121476 0.480882
0.285501 -0.477255 -0.142713
-0.261848 -0.428446 0.250786
-0.005242 0.051195 0.493183
0.123846 0.260852 0.422285
-0.250154 0.498594 -0.010137
-0.245142 -0.493504 -0.065119
0.264862 0.497329 -0.038332
0.257419 0.496327 -0.048657
-0.103315 -0.096168 -0.490796
-0.076981 0.428204 0.252961
-0.187677 -0.114263 -0.486707
0.276796 0.488985 0.094602
-0.121536 -0.044222 -0.498180
0.153262 0.102571 0.485375
-0.153556 0.102640 -0.489529
-0.049787 -0.329813 0.370505
0.273055 -0.039485 0.494152
0.011076 0.326733 0.374174
-0.004826 0.129938 0.478871
-0.219434 0.371985 -0.333784
-0.126952 0.498343 -0.015729
-0.141178 0.465744 0.175913
0.028396 -0.254405 -0.429944
-0.198619 0.484130 0.117167
-0.149362 0.173782 0.464646
-0.208746 0.079715 0.489451
-0.144761 -0.212932 0.447755
-0.185223 0.483308 -0.124250
0.096256 -0.002049 0.495796
-0.246318 0.036637 -0.498820
0.101165 0.111026 -0.487772
0.108689 -0.037954 -0.498857
-0.110648 -0.389130 0.307858
-0.228722 -0.130015 0.478353
0.181203 -0.407868 0.282723
0.154974 -0.448942 -0.216591
0.153743 0.185134 -0.464686
0.037267 0.390813 0.307259
-0.017999 0.100846 -0.489905
0.043111 0.138477 0.476329
-0.049599 0.205549 -0.456175
-0.159029 -0.269907 -0.420493
0.239706 -0.494315 0.053432
-0.063263 0.478488 -0.141878
-0.049426 -0.474883 -0.150997
0.107744 0.495691 0.052026
0.080657 -0.122780 -0.484683
-0.216464 0.237541 -0.440254
-0.044621 0.327011 0.373923
0.117660 0.039177 -0.498614
-0.243063 -0.141621 0.475149
-0.231216 0.190692 0.458257
-0.261502 0.478635 0.137070
0.191117 0.267536 0.418210
-0.234254 0.202871 -0.457291
0.119377 0.097501 -0.490606
-0.239849 -0.335282 0.365812
-0.003732 0.422232 0.262814
0.191479 -0.055083 0.492889
-0.071743 0.483405 0.119793
-0.198182 0.332782 0.368696
-0.015177 -0.219554 0.444492
0.069481 -0.288116 -0.407949
0.105053 0.066939 0.491482
0.003758 -0.170384 -0.469890
-0.155480 0.217998 -0.450118
-0.124703 0.337639 0.364297
0.192595 -0.200210 0.453620
0.264995 0.109671 -0.488056
-0.032443 -0.471329 0.157628
0.241811 -0.266660 0.418103
-0.034680 0.340072 0.362093
-0.169987 -0.425838 -0.259655
0.216026 0.385344 0.313989
-0.094405 -0.207392 0.450485
-0.022198 0.489339 0.092915
0.189651 -0.320294 0.378673
0.012867 -0.464306 -0.181259
0.084276 0.304509 -0.396581
0.282955 0.414413 0.274659
-0.262487 -0.367280 -0.338200
0.005373 -0.476997 -0.143648
0.121082 0.181304 -0.466282
0.202870 -0.492415 0.069476
-0.125053 -0.493677 -0.063921
0.080073 0.254080 -0.430769
0.149874 0.431586 -0.251670
-0.205210 -0.355671 -0.350137
-0.090435 0.447641 -0.221756
0.144344 -0.074359 0.490113
0.072628 0.494843 -0.062384
-0.207395 0.176926 0.463466
0.111588 -0.488598 0.091650
-0.197648 0.226993 -0.445685
0.249573 0.083708 0.488764
0.089774 -0.267960 -0.421680
0.060539 0.031977 0.494851
-0.106288 0.056548 0.492605
0.070570 0.111807 0.483180
-0.045208 -0.395316 -0.304285
0.200587 0.488977 -0.099756
-0.065385 0.319743 -0.384378
-0.200873 -0.453775 -0.206519
0.015080 0.401982 0.292455
-0.162762 0.408484 0.283639
0.225955 0.405169 0.288231
-0.157231 -0.464679 -0.180365
0.286932 -0.483852 -0.118567
-0.231769 -0.156723 0.470315
0.166072 -0.273381 0.413666
-0.186318 -0.332884 0.367870
0.216534 0.299384 -0.400448
0.080828 0.129922 0.478875
-0.001590 0.481603 0.126322
-0.273035 0.262608 -0.425808
0.062848 -0.487184 -0.102662
0.286793 0.130204 0.478808
0.042189 -0.497549 0.006240
-0.211033 -0.009947 -0.500146
-0.211520 -0.390200 -0.311068
0.172780 0.017226 0.495512
0.250012 -0.478087 -0.139697
-0.088376 -0.433819 -0.245736
-0.086649 0.197624 0.455146
0.116209 -0.063116 -0.496138
-0.118221 0.491002 -0.087989
0.003146 0.159793 0.469825
-0.060515 -0.162983 -0.472667
0.014972 0.337652 -0.368894
-0.171845 0.366963 0.335237
-0.245092 -0.215791 0.446347
0.254202 -0.474530 -0.152019
0.151245 0.223629 -0.447342
-0.172078 -0.039035 0.494189
-0.153212 0.183273 -0.465462
0.250964 0.373559 0.327723
0.249937 0.347075 0.355666
-0.044759 0.414828 0.274029
0.128376 -0.475655 0.143451
-0.167794 0.495241 -0.058703
-0.271013 0.484750 -0.118183
0.213533 -0.121705 0.480647
-0.199233 0.125429 0.479943
-0.145147 -0.492078 0.071434
-0.210556 -0.335092 -0.370029
-0.021629 -0.344466 0.356910
0.139370 -0.151946 0.471963
-0.183448 -0.357342 -0.348421
0.221924 0.463356 0.181643
-0.046331 0.487928 -0.104809
-0.202880 0.317956 -0.385911
-0.130032 -0.344086 -0.361883
-0.260204 0.461194 0.186828
-0.163179 -0.448303 0.213892
-0.095975 -0.496803 0.022863
0.146612 0.380809 -0.323932
-0.252766 0.328226 0.372822
0.105516 -0.108944 -0.487970
-0.031167 -0.359583 -0.346119
-0.136121 0.086271 0.488323
0.094247 0.298443 -0.401158
0.128587 -0.017188 0.495523
-0.237914 -0.139132 -0.480169
-0.164299 -0.496602 -0.032479
0.105130 -0.441845 0.226464
-0.145209 0.123434 -0.484806
-0.190427 -0.468208 -0.170347
0.205884 -0.422671 0.260258
0.107491 -0.157702 0.469978
0.237842 0.485526 -0.114917
-0.204190 -0.240697 0.433502
-0.135641 -0.110205 0.483376
0.119437 0.027978 0.495030
-0.286147 -0.359616 0.341955
-0.288025 -0.327150 -0.377222
0.081534 0.049847 0.493329
0.006297 -0.490051 -0.088979
-0.125561 -0.061033 0.492041
0.143235 0.485169 0.112818
0.057914 0.202756 0.452843
0.277570 -0.424845 -0.261386
0.169222 -0.431508 -0.249767
-0.109367 -0.087857 0.488058
-0.264341 -0.125548 -0.484025
0.198784 0.498401 0.005040
-0.100662 0.448233 0.215756
0.030711 -0.098308 -0.490427
0.184905 0.000383 0.495840
0.181496 -0.497201 0.013991
-0.048910 0.033412 0.494786
0.214173 -0.240472 0.433631
-0.123437 -0.402001 0.291112
-0.040276 0.098882 -0.490316
-0.139306 -0.141843 0.475088
-0.269679 -0.454194 -0.205514
0.020773 -0.434056 -0.245323
0.228123 -0.224006 -0.446705
-0.013685 0.406943 0.285879
-0.200059 0.142608 0.475068
0.165645 -0.078722 -0.493799
-0.122710 0.442214 -0.232063
0.255749 0.190466 -0.462463
0.180380 -0.495968 -0.040302
-0.218269 0.492812 -0.077478
-0.258554 -0.393970 -0.306070
-0.017964 -0.422988 0.259739
0.194321 -0.416588 -0.274165
0.010648 0.185837 0.460122
-0.102425 -0.484933 -0.113408
0.178676 0.475520 -0.151603
-0.288753 -0.021417 -0.499632
0.259882 -0.435586 0.238351
-0.209989 0.228557 -0.444914
0.093080 -0.241810 0.432864
-0.099541 -0.156679 0.470331
0.179792 0.284373 0.406931
0.258127 0.353120 0.349457
-0.092661 -0.054938 0.492900
-0.111596 0.349283 -0.357571
-0.184086 0.210017 -0.454050
0.268418 0.415881 -0.277085
-0.058316 0.329209 -0.376256
0.199502 -0.325530 -0.378689
-0.031951 0.492639 -0.078481
-0.277930 0.498272 0.012224
0.097735 0.189869 -0.462712
-0.233436 0.085587 0.488440
0.053017 -0.069730 -0.495347
-0.070110 0.066005 -0.495824
0.050077 -0.353229 -0.352645
-0.272407 -0.489660 0.085483
0.088518 -0.114762 0.482422
0.015363 0.436117 0.239164
0.050705 0.461503 0.186087
0.071424 -0.295550 0.398214
-0.012871 -0.272749 -0.418697
0.168617 -0.495667 -0.044026
0.036274 -0.476816 0.139644
0.024429 0.406323 -0.290751
-0.019646 -0.282470 -0.411898
-0.259425 -0.387042 -0.315169
0.142773 0.472103 0.157672
0.204725 -0.025398 0.495294
0.171196 -0.128127 -0.483412
-0.271511 0.458627 0.192984
0.273189 0.484455 0.115987
0.139380 0.243378 0.432691
-0.034690 -0.012248 -0.500043
0.044233 0.080830 -0.493679
-0.223941 0.495626 0.052827
-0.241370 -0.456111 0.196494
0.101145 0.415256 0.273381
0.056229 0.040723 -0.498489
-0.086937 0.090996 0.487509
-0.070418 0.448705 0.214798
-0.176998 0.493370 -0.074238
-0.244619 -0.486443 0.102391
-0.027911 0.231973 0.438696
-0.207887 0.032156 0.494843
-0.208218 0.318020 0.381507
0.035529 0.131106 0.478577
-0.039382 -0.496102 -0.038655
-0.273366 -0.147145 -0.477725
0.205752 -0.475400 0.144286
0.143091 0.093512 -0.491441
-0.236437 -0.338784 -0.366685
0.076834 -0.480465 -0.131084
-0.062647 -0.335536 0.365594
-0.208337 -0.176953 0.463316
0.026181 -0.309309 -0.391989
0.130717 0.346705 0.356046
-0.165317 0.168662 -0.470904
0.241838 -0.406200 0.285108
0.070015 0.485132 0.112997
-0.165409 0.482142 0.124366
0.177585 -0.424354 -0.262243
0.000826 0.498204 0.015964
0.029502 -0.465328 0.173710
0.057305 -0.124239 0.479948
-0.122288 0.234465 0.437384
-0.047665 -0.496641 0.026474
0.044255 -0.013229 -0.499999
-0.153085 0.048272 -0.497877
-0.026728 0.494193 0.063087
-0.224070 0.424203 -0.263780
0.235680 -0.038201 0.494256
-0.196779 -0.327916 0.372132
-0.124542 -0.433760 -0.245840
-0.272460 -0.170986 0.465396
0.040607 -0.448435 -0.217618
0.218570 0.393721 0.303405
-0.177604 -0.060779 0.492078
0.129202 -0.479616 0.130467
-0.290135 -0.340595 -0.365045
0.024974 -0.428231 0.251138
0.176770 0.064761 -0.496004
0.109862 0.181984 -0.465999
-0.223315 0.226471 0.441593
0.143008 -0.146109 -0.478040
0.102153 0.380202 0.319982
-0.264510 -0.221947 -0.447789
-0.007261 -0.410735 -0.283030
0.285616 -0.328205 -0.376267
0.138086 0.017965 0.495479
-0.091475 0.397574 0.298297
-0.263618 -0.062349 -0.496221
0.152860 0.497429 -0.036106
0.056401 0.414684 0.274248
-0.152507 -0.423255 -0.264066
-0.248345 -0.432489 -0.248055
-0.043547 -0.427900 -0.256058
-0.061057 -0.441627 -0.231436
-0.025178 0.291549 -0.406359
0.240116 0.089826 0.487711
0.236364 -0.015740 0.495549
0.092955 -0.496175 0.036226
-0.125009 -0.387727 -0.314345
-0.052350 0.223936 0.442928
-0.060970 0.245260 -0.435827
0.128937 -0.453930 0.201353
0.091911 -0.415556 -0.275727
-0.043034 0.286486 0.405453
-0.247665 0.171484 -0.469931
0.159786 0.360095 0.342292
-0.096485 -0.341579 -0.364153
-0.006454 0.320251 -0.383943
-0.161097 0.186672 0.459809
-0.139372 0.461569 -0.190813
-0.069278 -0.005687 0.495731
0.142305 -0.227241 0.440705
0.249290 -0.084057 0.488711
-0.179423 0.477232 0.142156
-0.212872 0.404365 0.289297
0.046160 -0.484284 -0.116505
-0.235632 -0.069281 0.490848
-0.165067 -0.100956 -0.489869
0.250630 0.476824 -0.147331
0.167597 -0.446904 -0.220727
-0.290030 -0.266709 0.418071
0.018993 0.102756 0.485331
0.031651 0.329309 0.371842
-0.234030 -0.423970 -0.262912
0.040141 0.498540 -0.011344
-0.027000 -0.252121 -0.431336
0.190168 0.462132 -0.189311
0.082368 -0.466463 0.170685
-0.138068 -0.484642 -0.114796
-0.136166 0.323183 0.377390
0.047710 -0.424014 -0.262834
-0.030227 -0.461327 -0.188405
-0.175446 -0.487051 -0.103299
0.167682 0.422763 -0.266142
0.048529 -0.399781 -0.298368
0.028106 -0.358223 -0.347516
0.240401 -0.488285 0.093467
0.201144 -0.091151 -0.491659
-0.135016 -0.497200 0.014007
0.261905 0.390330 -0.311992
-0.252697 -0.331557 0.369008
0.017680 0.489372 -0.097460
-0.282942 -0.490670 0.079616
0.252881 -0.172166 -0.469221
0.076530 -0.074016 -0.494609
0.153564 -0.394192 0.301509
0.160198 0.493241 0.069667
-0.023032 0.413287 -0.280794
-0.083976 -0.481139 -0.128643
-0.174934 -0.165614 -0.471679
-0.159613 -0.497355 -0.010607
0.095941 0.126322 0.479731
-0.183193 -0.075150 -0.494414
-0.246496 0.456257 -0.202806
0.068788 0.498519 -0.001490
-0.015974 0.479431 0.134190
-0.093955 -0.117848 0.481712
0.257752 -0.454365 -0.205104
-0.289107 -0.127152 -0.483644
0.175470 0.222026 -0.448133
0.267596 -0.492795 -0.070016
0.247638 -0.187511 0.458914
0.285332 0.335580 -0.370789
0.284833 0.261858 -0.426303
0.121483 0.395410 -0.305620
0.284522 0.481287 0.127467
0.042580 -0.337484 -0.367862
0.263426 -0.219945 -0.448843
-0.133655 -0.387226 0.310245
0.100585 -0.434629 0.240170
0.284749 -0.118272 0.481595
-0.186885 -0.423624 0.258696
-0.042478 0.374427 -0.331087
-0.028420 -0.477314 0.138012
0.014405 0.439046 -0.238080
-0.177412 0.440161 -0.235961
0.129037 -0.111058 0.483197
0.227489 0.068182 0.491348
-0.129531 0.077307 0.489866
-0.025636 0.440732 -0.234878
0.002268 -0.495875 -0.041451
0.272237 -0.308890 0.388150
0.155288 0.493764 -0.071949
0.073717 0.417119 -0.275315
-0.060114 0.003419 -0.500143
0.191136 -0.455520 -0.202332
-0.031723 -0.221967 -0.447778
-0.020021 -0.016372 -0.499858
0.015305 -0.381877 -0.321188
0.002728 0.441900 0.228608
0.165011 -0.420525 0.263779
-0.049471 0.494225 -0.068106
-0.049237 0.186269 0.459960
0.254946 -0.073517 -0.494695
-0.077869 0.406951 -0.289853
-0.080706 0.006290 -0.500092
-0.190859 0.101054 0.485735
0.147704 0.448828 0.214547
0.266109 -0.237404 0.435391
0.067141 -0.067809 -0.495631
-0.018875 -0.430400 0.247581
-0.072254 0.280409 -0.414056
-0.148262 -0.477343 0.137919
-0.009444 -0.357278 -0.348487
-0.231652 -0.422542 0.260471
0.093412 0.064189 0.491779
0.276659 -0.350660 -0.355284
0.156582 -0.238589 -0.439026
-0.274711 -0.397143 0.297808
-0.166208 -0.189688 -0.462601
-0.086257 -0.172249 -0.469190
-0.076562 0.322729 -0.381816
-0.271640 0.246043 0.431288
-0.066421 0.298245 0.397229
0.225628 -0.291657 -0.405473
-0.218805 0.090859 -0.491997
0.235907 -0.476382 -0.145875
-0.232001 0.418881 -0.272510
0.109385 0.314508 -0.388870
0.275054 0.317139 -0.386613
0.124410 -0.490568 0.080205
0.133814 -0.428940 -0.254244
-0.127116 0.475805 0.146940
0.139853 -0.299799 -0.399572
-0.250916 0.458910 0.192307
-0.287350 -0.348583 -0.357418
0.176883 0.261901 -0.426275
-0.040799 0.192429 0.457477
-0.057143 -0.145610 -0.478193
0.111022 -0.313771 -0.388431
0.050768 0.385785 0.313474
0.084381 -0.038574 0.494226
-0.102862 0.390309 -0.312018
0.262028 0.496080 0.047223
0.202187 0.498500 -0.012222
-0.178456 -0.097365 0.486066
0.230610 0.437060 -0.241852
-0.209236 0.455355 0.200833
-0.153068 -0.435395 0.238714
-0.093066 0.496811 0.038197
-0.098927 0.158267 -0.474490
0.156149 0.496342 -0.048515
-0.012442 0.149254 0.473040
-0.222868 0.298153 -0.401376
0.046243 0.395850 0.300583
-0.279427 0.097782 0.486341
0.011231 0.285106 -0.410955
-0.161134 -0.368685 0.331943
-0.263450 -0.150370 0.472507
-0.178631 -0.443734 -0.227160
0.072048 0.472991 -0.159894
-0.025232 -0.079368 -0.493688
-0.233681 -0.007730 0.495694
-0.001998 0.406114 -0.291050
-0.061093 0.184825 0.460502
-0.071935 0.098301 0.486251
0.229896 -0.497360 -0.010304
0.053626 -0.234133 0.437267
-0.213487 0.430426 0.249088
-0.289623 0.328929 0.372185
0.275789 0.205409 -0.456233
0.061366 -0.181081 0.461595
0.096470 -0.033784 0.494614
0.275698 -0.370265 0.330198
0.045388 -0.418014 0.267898
0.015911 0.142014 0.475249
-0.189569 0.119212 0.481420
0.061369 0.189797 -0.462742
0.191947 0.398008 -0.302363
-0.105688 -0.422713 0.260190
0.129812 -0.463590 0.178343
0.260962 0.402918 0.291215
0.047971 0.494708 -0.063635
0.157256 -0.401508 -0.296078
-0.103555 -0.011814 -0.500063
-0.147936 0.473708 -0.157543
-0.076501 0.231755 0.438811
-0.112046 -0.480318 -0.131617
-0.001300 0.419792 -0.271017
-0.198910 0.294697 -0.403983
-0.096741 -0.430644 0.247181
-0.256149 0.371927 -0.333848
-0.101651 -0.228060 -0.444570
0.202533 -0.455692 0.197426
0.068919 -0.163366 -0.472523
-0.064049 -0.015575 0.495552
0.174441 -0.252412 -0.431159
-0.206494 -0.376923 -0.326961
0.016408 0.311506 0.386701
0.065020 0.496852 -0.043800
0.067358 -0.017190 -0.499821
-0.094850 0.417014 0.270718
-0.100428 0.156034 0.470971
0.213195 0.489049 0.094300
-0.162875 -0.345688 0.355720
-0.179936 -0.207569 -0.454577
0.066927 0.248821 0.429619
0.152497 -0.457362 0.193707
-0.242541 -0.364977 0.336036
-0.187634 0.422184 0.262886
-0.189707 -0.348310 0.353167
0.010850 0.393025 0.304328
0.032119 0.113819 -0.487187
0.072924 -0.233915 0.437391
-0.124916 0.480973 -0.133731
-0.010579 -0.150859 0.472338
-0.287715 -0.171321 -0.469538
-0.163351 0.282065 0.408545
-0.026084 -0.149482 -0.477011
0.220033 0.495651 0.052520
0.065434 0.410756 -0.284413
0.193986 0.248932 -0.433721
0.206605 0.361102 -0.345800
0.079107 0.473443 0.153789
-0.201186 -0.202427 0.452695
0.200161 0.379557 0.320733
0.194079 0.417705 0.269672
0.205449 0.133530 0.477838
-0.102123 -0.416506 0.270372
0.247242 -0.413633 0.274480
0.178832 -0.100809 0.485345
-0.055207 0.397885 -0.302517
0.114483 0.453008 -0.210046
-0.289174 -0.371469 0.328869
-0.095621 0.145212 0.474274
-0.024372 -0.441411 -0.231874
0.130305 -0.456466 -0.200064
-0.115481 0.282313 -0.412799
-0.289344 0.248915 -0.433731
-0.006744 -0.421726 -0.266382
-0.287904 -0.019034 0.495490
-0.208840 -0.237425 -0.439639
-0.138485 -0.455820 -0.201613
-0.276326 0.271354 0.415882
0.269039 0.165096 0.467905
-0.109459 -0.466217 -0.176120
0.014205 -0.495235 -0.049355
-0.105668 0.360183 0.342202
-0.170500 -0.297602 0.396666
-0.154160 -0.473173 0.151584
0.140485 0.274503 -0.417955
0.038432 -0.361547 0.339824
0.277392 0.027053 0.495072
0.100769 0.458536 0.193204
0.045435 0.319121 0.380629
-0.212605 -0.210481 0.448963
0.097177 0.233696 0.437789
0.232823 -0.493321 -0.066381
-0.021509 -0.375652 0.324250
0.186703 0.496966 -0.042740
0.064990 -0.454647 -0.204426
0.142023 -0.363465 0.337706
0.167761 0.450734 -0.215112
-0.104082 -0.004545 0.495751
-0.265636 0.493022 -0.076255
0.232647 0.167655 -0.471251
-0.206144 -0.485260 -0.111845
0.140700 0.498463 0.001625
0.003550 0.324877 -0.379973
-0.024903 -0.473012 -0.156420
-0.243359 0.496008 -0.051606
-0.121703 -0.025907 0.495252
-0.113519 0.099650 -0.490155
0.227301 -0.408022 -0.287140
-0.199958 0.131306 -0.482633
-0.071857 -0.481367 -0.127814
-0.141731 0.389457 -0.313086
-0.286276 -0.495927 -0.040819
-0.014449 -0.452241 -0.209896
-0.288526 0.497593 0.028545
0.198364 0.218748 -0.449748
-0.215234 0.359763 0.342633
-0.059985 0.194349 0.456616
0.035842 -0.485860 -0.108982
-0.105200 0.342651 0.359758
0.179049 -0.220642 -0.448476
-0.202444 -0.247421 -0.434201
0.145062 0.049653 -0.497765
-0.121294 0.070143 -0.495225
-0.275755 0.478333 -0.142385
-0.060118 -0.201456 0.453100
-0.210806 0.425236 0.258137
-0.229309 -0.244482 0.431332
0.002518 -0.445479 0.219561
0.220576 0.455989 -0.203403
0.256103 -0.464379 0.176240
-0.253615 0.341268 -0.365374
0.115105 -0.497061 0.017119
-0.147741 -0.464208 0.176694
-0.148488 -0.494384 -0.059036
-0.279272 0.464405 -0.183256
-0.172643 0.352199 -0.354732
0.252064 0.302079 0.394218
-0.026186 0.143626 -0.479232
-0.000161 0.282466 0.408265
0.132268 0.325010 0.375735
-0.114140 -0.066782 -0.495742
-0.111091 0.294047 0.400165
0.246868 -0.381210 -0.321965
0.234174 -0.495878 0.038976
-0.111346 -0.049786 -0.497578
0.159902 -0.475545 0.143811
-0.218707 -0.071668 -0.495014
-0.130958 0.115882 -0.486755
-0.149912 -0.247535 -0.434132
-0.072087 -0.238547 -0.439048
-0.228746 -0.349876 0.351643
0.112632 -0.469973 -0.165229
-0.290138 0.449535 -0.217784
-0.195077 -0.288486 -0.407691
-0.224283 0.288902 0.403764
-0.170168 0.223371 0.443225
0.024923 0.476326 0.145429
0.277464 0.460409 -0.193552
-0.092231 -0.483932 -0.118184
0.233902 0.057503 0.492502
-0.289088 -0.404428 0.287642
-0.191648 0.279771 -0.414478
0.148416 0.359228 0.343183
-0.289545 0.407934 0.284472
-0.057998 0.486453 -0.111014
0.033366 0.261620 -0.426445
-0.211064 -0.196115 0.455327
0.112043 0.302178 0.394139
-0.070450 -0.419376 0.265664
0.113460 0.466465 -0.177763
-0.277457 0.430847 -0.252883
-0.208191 0.378872 0.321532
-0.015850 0.479923 -0.137174
-0.114617 0.315080 -0.388380
-0.118109 0.130185 0.478813
0.112734 -0.383847 0.314483
-0.163368 0.490444 0.087640
-0.210531 0.496079 0.047231
-0.032654 0.229742 -0.444331
-0.215504 0.114520 -0.487040
-0.243884 -0.149238 -0.477086
-0.006373 -0.403984 0.288277
0.226266 -0.481671 0.122471
0.182235 0.417817 0.269502
0.159446 0.347197 0.355541
0.135739 -0.491736 0.073421
0.004900 -0.456795 0.194969
-0.216379 0.188810 0.459006
-0.239348 -0.066791 -0.495741
0.191353 0.498116 -0.020796
0.249848 0.342829 -0.363855
-0.028609 0.394022 -0.307361
-0.248080 -0.462311 -0.186043
0.125561 -0.497242 -0.016863
0.087764 0.491239 -0.086616
-0.274295 -0.325859 0.373898
0.085910 0.455793 -0.203839
0.221901 0.265128 0.419678
0.262728 -0.332609 0.368106
0.062695 -0.275128 0.412512
0.251378 0.494787 0.058976
0.132814 -0.074741 0.490058
-0.065526 0.448538 -0.220007
0.100723 -0.167937 0.466447
0.176415 -0.454924 -0.203762
0.180747 0.028253 -0.499499
-0.098886 0.480235 -0.136152
0.155388 0.494701 0.059574
-0.138950 0.146384 0.473916
-0.066893 0.426984 -0.259219
-0.254383 0.348110 0.354603
0.275542 0.131536 0.478446
-0.209198 0.159852 -0.473943
0.078627 -0.084176 0.488693
-0.120903 -0.447413 0.215877
0.097985 0.350445 -0.356440
-0.223487 -0.412233 -0.280762
0.205706 -0.227288 -0.444977
0.161743 -0.028333 -0.499322
-0.177104 -0.497438 -0.005970
0.162830 -0.424126 -0.262640
-0.223816 0.166382 -0.471690
0.133101 -0.495002 0.047082
-0.288353 0.082145 -0.493489
-0.016362 0.332156 -0.373727
0.031184 0.414983 0.273795
0.216858 0.000088 -0.500203
-0.246397 0.496182 0.045955
-0.096020 -0.299435 -0.399863
0.266110 0.258467 0.423739
-0.166655 0.212065 -0.453041
0.238143 -0.496369 -0.035355
0.149687 0.309229 -0.393020
0.247964 0.466417 -0.177892
0.272181 -0.494879 0.048219
0.039706 -0.237570 -0.439563
0.237803 0.408568 0.283512
0.028022 0.479222 -0.139472
-0.193739 0.496020 -0.051499
-0.051320 -0.172136 0.464999
-0.093063 -0.421774 -0.266310
0.081390 0.401288 -0.297951
-0.067015 -0.299283 0.395397
-0.056147 -0.180910 0.461666
-0.257978 -0.032306 -0.499144
-0.157809 0.230963 0.439228
0.070017 0.098492 0.486219
-0.068324 -0.311281 0.386346
-0.069943 0.007217 0.495961
-0.151229 0.042591 0.494113
-0.220051 -0.389562 0.307316
-0.169851 0.449244 -0.218434
0.023493 0.153977 0.471599
0.050933 -0.233732 -0.441584
0.230794 0.418688 -0.272827
-0.161610 -0.112324 0.482932
0.125915 0.427421 -0.258503
-0.172338 0.451426 0.209275
0.197046 0.184075 -0.465127
-0.040189 -0.100596 -0.489954
0.065056 -0.202695 -0.456764
-0.208236 -0.068658 -0.495532
-0.189231 0.194888 0.456374
0.123056 -0.366515 0.334338
0.248706 0.313801 -0.389477
0.080814 -0.312586 -0.389376
0.014705 0.497803 -0.027766
-0.128111 0.482579 0.122784
-0.266332 -0.286240 0.405177
-0.056304 -0.022131 -0.499600
0.286451 0.441573 -0.233280
0.128460 0.379270 -0.325741
0.250028 0.498199 0.016276
-0.058155 -0.380124 0.319153
0.271854 0.371203 0.330468
-0.225786 -0.395072 0.300405
0.179785 -0.302008 0.393342
0.273923 0.196962 0.455443
-0.008901 0.432680 0.245156
0.141781 -0.251711 -0.431586
-0.070153 0.311305 -0.391454
0.074187 -0.029773 0.494939
-0.090899 0.231572 -0.443429
-0.093959 0.464702 0.178414
-0.231926 0.498631 -0.007702
0.274218 0.270724 0.416267
-0.017222 -0.342970 -0.362893
-0.090146 0.373990 -0.331570
0.229623 0.144198 -0.479074
0.078048 -0.341413 0.359882
0.089608 0.495841 -0.053149
0.044161 0.116607 -0.486603
-0.031525 0.497686 -0.030386
-0.058741 -0.409157 -0.285421
-0.175251 0.279938 -0.414367
-0.122565 0.384689 -0.319066
-0.221341 0.040859 -0.498478
0.021321 -0.279226 -0.414167
0.015117 0.358232 0.344205
0.097804 0.249447 -0.433426
0.191073 0.498635 -0.007927
-0.134640 -0.418415 0.267240
0.088523 0.494514 0.060863
-0.119548 -0.323215 -0.380787
-0.113419 -0.113139 0.482762
0.055594 0.302386 -0.398183
-0.120109 0.485480 0.111333
-0.153543 0.357660 -0.349416
0.151076 -0.065983 0.491325
0.045487 0.372755 0.328660
-0.201946 -0.497102 0.016202
0.003882 -0.497030 0.017805
0.032283 -0.419771 -0.269344
-0.155812 -0.405719 0.285797
0.283591 -0.251667 -0.431613
0.115023 0.061269 0.492095
-0.136109 -0.497389 -0.008675
0.191735 0.322039 -0.382408
-0.180250 0.416107 0.272093
0.091204 0.109430 0.483745
0.286958 -0.496818 -0.029815
-0.250564 0.479739 0.133074
0.220634 -0.182492 -0.465346
-0.063562 -0.395838 -0.303594
-0.238186 0.498335 0.008710
-0.189635 0.237276 0.435904
0.176235 0.372931 -0.332740
0.144191 -0.005675 -0.500307
0.002215 -0.405983 -0.290147
-0.080387 -0.452147 0.205326
-0.196389 -0.069878 -0.495322
0.032590 0.101221 -0.489826
-0.131942 -0.120358 0.481019
0.284478 0.497531 -0.033827
-0.215208 -0.437311 0.235075
0.166177 0.492136 -0.081406
0.164462 -0.426620 0.253782
0.177195 -0.274776 0.412745
-0.286270 0.352213 -0.354719
0.024210 -0.138043 -0.480502
-0.288312 0.479275 0.134752
0.086076 0.245875 -0.435474
-0.149388 0.404142 -0.293870
-0.203442 -0.027838 0.495096
-0.083137 -0.202300 0.452748
0.149457 -0.244370 0.431396
-0.016685 -0.414230 -0.277736
-0.041933 -0.178404 -0.466880
0.268654 -0.466652 0.170182
-0.095125 0.103229 -0.489406
0.224912 0.411241 -0.283720
0.265885 0.311020 -0.391669
-0.161063 -0.336685 -0.368586
-0.216211 -0.186640 0.459277
0.279959 0.399983 -0.299816
0.141260 0.452921 -0.210240
-0.046333 0.490160 -0.092883
-0.287273 0.055724 0.492694
0.154724 -0.491686 -0.077684
-0.148408 0.093737 0.487037
-0.097220 -0.260064 -0.426494
-0.276134 0.452413 0.207272
-0.029832 0.484789 0.114633
-0.127429 -0.163406 -0.472508
-0.114402 -0.497109 -0.024227
-0.197755 0.476526 -0.148306
0.155923 0.048940 -0.497823
0.244687 -0.201664 0.453013
-0.209224 -0.298550 0.395950
-0.021767 -0.497402 0.009515
-0.289383 0.443666 -0.229305
0.154666 -0.332545 0.368161
0.075685 0.370058 -0.335912
0.055228 0.254976 -0.430256
-0.187104 -0.497538 -0.000423
-0.117669 0.338201 -0.368360
-0.010937 -0.497141 0.015340
-0.039692 -0.059180 0.492309
0.017725 -0.193121 -0.461060
0.032456 -0.372755 0.327449
-0.134369 0.218523 -0.449859
0.138420 -0.276175 0.411821
-0.272473 0.349442 0.353235
-0.176521 -0.230916 0.438894
-0.133468 0.065612 -0.495881
-0.028626 0.414878 0.273954
0.219265 -0.290028 0.402379
-0.289898 0.427673 -0.258088
-0.269351 0.148601 0.473239
0.003802 -0.374031 0.326040
0.280148 -0.264242 -0.423947
0.184404 0.447017 0.218224
0.039346 -0.494666 -0.056380
0.149549 -0.488166 -0.097976
0.071467 -0.279724 -0.413819
0.075738 -0.005466 0.495735
-0.257887 -0.419014 -0.270491
0.144773 -0.175925 -0.467810
-0.217666 0.382126 0.317739
0.059151 -0.026660 -0.499397
-0.288954 -0.381425 0.317520
0.232491 0.498296 0.010883
-0.023287 -0.273184 -0.418393
0.201587 0.417101 -0.275340
0.285159 0.073003 -0.494811
-0.034946 -0.485071 0.108165
-0.118402 -0.490803 0.078843
-0.021411 0.392188 0.305436
0.159127 0.117171 -0.486485
-0.202334 -0.346869 -0.359178
0.130120 -0.496256 0.035056
-0.020063 0.337967 0.364000
0.117328 0.490779 0.086041
0.151798 -0.301121 -0.398518
-0.161821 0.498426 -0.013872
0.164852 -0.371334 -0.333475
-0.288836 -0.074834 0.490045
-0.051146 -0.371771 0.328535
0.046840 -0.384293 -0.318373
0.251053 0.486923 -0.109037
0.285507 0.474754 -0.154114
-0.178869 -0.497069 -0.026444
0.231081 -0.131164 -0.482601
0.134400 -0.497105 -0.024490
0.279731 -0.480077 0.128956
0.074935 -0.270270 0.415720
0.024374 -0.287757 0.404093
0.066202 -0.014256 0.495576
-0.156826 -0.102798 0.484928
-0.250613 -0.179205 0.462377
0.004193 -0.311742 -0.390049
-0.215496 -0.351668 0.349898
0.127229 0.489703 0.091174
-0.182618 -0.454648 -0.204424
-0.238917 -0.167497 0.466599
-0.123175 -0.476444 -0.145651
0.139501 0.341153 0.361114
-0.162560 -0.385787 0.312051
-0.012104 0.366508 -0.339831
-0.247926 -0.013324 0.495593
-0.055175 -0.317130 -0.385753
0.042332 -0.490690 0.079498
-0.132262 -0.369767 0.330747
-0.060493 -0.325095 -0.379083
0.148863 -0.340258 -0.365350
-0.003988 -0.494273 0.053826
0.108626 0.498588 -0.010281
-0.072396 -0.048323 -0.497736
-0.146071 0.223159 0.443337
-0.289928 -0.395645 0.299687
-0.177413 0.495995 -0.051729
0.185527 0.257780 0.424157
-0.182979 0.268563 -0.421877
-0.136713 0.448185 -0.220723
-0.210912 -0.216812 -0.450429
0.047504 -0.451623 0.206494
-0.203993 0.117181 -0.486483
-0.038807 -0.233878 0.437413
-0.156978 -0.430458 0.247487
-0.263937 -0.394007 0.301741
-0.234065 0.102046 -0.489653
-0.267141 -0.412723 0.275781
-0.198816 -0.483247 -0.121004
0.071974 0.414630 0.274329
0.042626 0.344322 -0.362401
-0.109117 0.456829 0.197297
0.274648 -0.333356 0.367464
0.056057 -0.441318 -0.232062
0.057899 0.473919 -0.156851
0.102911 -0.495771 0.039964
-0.128402 -0.452354 0.204866
-0.023716 0.458211 0.193983
-0.000007 -0.234162 0.437250
0.174908 -0.346963 -0.359082
-0.194493 0.369344 0.332635
-0.101639 0.038196 -0.498693
-0.149912 0.417332 -0.275010
-0.011299 -0.450287 0.209472
-0.041881 0.006891 -0.500081
0.175601 0.251877 0.427756
0.019746 0.103124 -0.489428
0.142134 0.048847 0.493437
0.181349 0.124242 0.480225
-0.040997 0.395166 0.301490
0.060202 -0.001059 0.495814
-0.098688 0.497372 -0.037385
0.124037 0.460804 0.187764
-0.269487 0.075217 0.490225
-0.176067 -0.250822 0.427696
-0.221574 -0.026768 -0.499392
0.150873 -0.482266 0.119968
0.144866 0.007345 0.495956
-0.112196 -0.167999 0.466426
-0.203116 -0.496202 0.035977
0.019928 0.462626 -0.187994
-0.076927 -0.433068 -0.247046
-0.247088 -0.131621 0.477910
-0.267413 0.408511 0.283598
-0.063967 -0.478460 -0.138346
0.057287 0.364954 -0.341546
0.109220 -0.061493 0.491975
-0.268241 -0.335316 -0.369826
0.282914 0.470837 -0.166114
0.142292 -0.295320 0.398387
-0.167351 -0.256023 0.424714
0.169486 0.318369 -0.385557
0.259016 0.234386 -0.442042
-0.141499 0.124503 0.480163
0.250841 -0.415637 -0.275606
-0.148328 -0.083324 0.488817
-0.054502 0.079601 -0.493857
-0.274402 -0.225875 -0.445720
0.213735 -0.277247 -0.415551
-0.203471 -0.486350 0.102782
0.082038 -0.474255 -0.152817
-0.146546 -0.108794 0.483672
-0.111480 0.231020 0.439198
0.105386 -0.205267 0.451511
-0.074397 -0.375334 -0.328813
0.099867 -0.494377 0.052861
-0.075629 -0.077326 0.489684
0.060593 -0.063042 0.491751
-0.061006 0.437896 0.236060
0.242539 0.446567 -0.223795
-0.241232 -0.190751 0.457563
-0.031290 -0.317475 -0.385477
0.272237 0.496075 -0.050981
0.240464 -0.165361 -0.471774
-0.132716 -0.200551 0.453477
-0.125476 0.409718 0.281770
-0.236832 0.478568 -0.141615
0.185127 0.484140 -0.120749
-0.054257 -0.496615 -0.032323
0.192240 -0.464047 0.177122
-0.015866 -0.432013 -0.248886
0.117809 0.498171 0.017804
0.021148 -0.388543 -0.313264
-0.219740 0.496439 -0.047620
-0.029322 -0.495579 0.041741
-0.155512 -0.261512 -0.425611
-0.230600 -0.383119 -0.319741
-0.059037 -0.422023 -0.265932
0.098539 0.177238 -0.467946
-0.052565 0.498547 -0.003027
0.234301 0.167271 0.467089
0.244355 0.438552 -0.239018
-0.092131 0.294964 0.399524
-0.185301 0.477249 -0.145939
-0.043120 0.202445 0.452983
-0.053779 0.462110 -0.189370
-0.252390 -0.352513 -0.353381
0.224492 0.451332 0.209467
-0.128046 -0.422664 0.260270
0.269536 -0.491282 -0.080473
-0.078167 -0.493052 0.065127
-0.033160 -0.494370 -0.059133
-0.245390 -0.048011 0.493462
0.076745 -0.225923 -0.445695
-0.217991 0.219795 -0.449232
0.248461 -0.373458 -0.331000
0.230394 0.222058 -0.448117
0.259701 0.460996 0.187303
0.102947 0.412167 -0.282396
0.002663 0.478632 0.137082
-0.070369 0.064324 0.491765
0.233368 -0.181292 0.461507
-0.101270 0.323167 0.377402
0.142049 0.497903 0.024720
-0.003447 0.199886 -0.458536
0.206026 0.263759 0.420513
0.204055 0.492217 0.076746
0.109703 -0.458176 -0.195963
-0.190457 -0.433983 -0.245450
-0.182555 0.298114 0.397321
-0.043913 0.215386 -0.451405
-0.151980 -0.293307 0.399906
0.202706 -0.496771 0.023575
0.060982 0.053041 -0.497491
-0.190913 -0.095744 -0.490869
0.056754 0.498397 0.005277
0.140756 0.139586 -0.480348
0.259024 0.471630 -0.164000
0.238454 -0.314628 -0.387747
0.151526 0.090261 0.487636
0.167966 -0.481259 0.124204
-0.112968 -0.065013 0.491466
0.184683 -0.384050 -0.318656
0.102855 0.498250 0.013417
-0.085369 -0.389836 0.306972
-0.169414 -0.148944 -0.477175
0.094610 -0.473848 0.149373
-0.108054 0.373907 0.327318
-0.075349 -0.062240 0.491867
0.247507 -0.493530 0.060697
0.179829 0.496891 0.037210
0.067290 -0.463310 -0.183649
0.211907 -0.423710 -0.263365
-0.002464 0.372043 -0.333720
-0.123492 0.195516 0.456092
0.268129 0.358476 0.343955
0.270896 -0.479645 -0.134054
0.106803 0.497402 0.030907
-0.252853 -0.327779 -0.376653
0.206638 0.105471 -0.488936
0.276036 0.385512 -0.318034
-0.254477 -0.421899 0.261525
0.234560 -0.480017 0.129154
-0.256757 -0.445092 0.220297
0.205352 0.464797 -0.182210
-0.224922 -0.487991 -0.098810
-0.062258 -0.134295 -0.481645
0.164059 0.219137 -0.449556
-0.177710 0.105625 -0.488904
-0.289370 0.474069 -0.156360
0.152598 -0.265400 0.418935
-0.219790 0.498551 -0.011091
0.091121 0.212091 -0.453028
0.024506 -0.172258 -0.469186
0.232912 0.271594 0.415736
-0.276609 -0.395614 -0.303891
0.178616 -0.431677 0.245486
0.264804 -0.394572 0.301033
-0.089168 0.428841 -0.256174
0.254475 -0.484436 -0.115781
0.144361 -0.465214 0.174014
-0.038780 0.129502 0.478975
-0.028753 -0.260898 0.421907
0.084796 0.472281 -0.162221
-0.018682 0.151084 -0.476968
-0.182355 0.465068 0.177536
-0.265589 0.050921 0.493213
0.083260 -0.249155 0.428652
0.176224 -0.356649 -0.349133
-0.241277 -0.417730 0.268364
-0.121835 -0.496032 -0.039518
0.040285 0.209962 -0.454077
-0.249116 -0.116307 -0.486221
0.065794 -0.389892 0.306903
-0.288534 0.275803 -0.417097
0.256141 -0.241638 0.432963
0.072231 0.492168 -0.081221
0.277668 0.482553 -0.127425
-0.126429 0.398466 0.297116
-0.076789 0.153987 -0.475966
0.042696 0.092714 0.487213
0.140750 0.004057 -0.500132
0.283647 -0.453997 -0.205985
0.283336 -0.495773 -0.042717
0.283968 -0.079656 0.489347
-0.274993 0.489588 0.091727
-0.005427 0.214544 0.447553
0.056570 -0.246014 -0.435059
-0.256638 0.206315 0.451246
0.213377 -0.456950 0.194623
-0.014761 0.088664 0.487911
-0.213653 -0.220033 0.444256
0.019519 0.481587 -0.131489
-0.060395 0.409015 0.282834
0.072123 0.291377 -0.406488
-0.027781 -0.484694 -0.114548
0.109251 0.264838 -0.424336
0.021347 0.288370 -0.408757
-0.178980 -0.451768 0.206171
0.105709 0.436960 -0.242041
-0.117914 0.272079 0.415441
0.220692 0.151962 0.472214
-0.273327 -0.490436 -0.086326
0.281659 0.427703 0.253836
0.095307 -0.493649 -0.064115
-0.170585 0.038985 0.494503
-0.023274 -0.201236 0.453192
-0.026884 0.147098 0.473698
0.144947 -0.391895 -0.308820
-0.287760 0.117926 0.481726
-0.155327 0.018576 0.495452
-0.007848 -0.113955 0.482590
0.202782 0.059205 -0.496808
0.267490 -0.339846 0.361407
0.095050 0.309776 -0.392608
-0.274242 -0.480532 -0.130841
0.142345 -0.477690 -0.141137
0.184512 -0.005917 -0.500311
-0.289419 -0.340046 0.361212
0.196618 -0.211093 0.448662
-0.060933 -0.167837 0.466482
-0.023487 0.424136 -0.263890
-0.281707 0.176916 -0.468057
0.255930 -0.407278 0.283567
-0.127338 -0.497580 0.001909
0.169051 -0.228128 0.440267
0.113800 -0.287390 -0.408457
-0.159784 0.344719 0.357884
0.125908 -0.335738 -0.369444
-0.006636 0.273962 0.414212
0.107629 0.489506 -0.096680
-0.148400 0.457724 -0.199536
0.081991 0.369204 0.332799
-0.223930 0.106434 -0.488734
-0.198767 0.491513 -0.085021
-0.264819 0.441150 0.230129
0.086372 -0.327824 0.372212
-0.099412 -0.436432 0.236744
-0.246922 0.365561 0.336677
0.224601 -0.332246 -0.372607
0.105997 -0.474887 0.145966
-0.049118 0.456941 -0.201281
-0.122204 0.475085 -0.153031
-0.093065 -0.492169 -0.074342
-0.058590 0.408168 -0.288113
0.084050 0.457057 0.196751
0.234425 0.495811 0.050545
0.006839 -0.493375 0.062131
0.088241 -0.083260 -0.493018
-0.079155 0.210147 0.449526
0.284130 0.484402 -0.119648
-0.014626 0.472879 0.155423
-0.283299 -0.252669 0.426637
0.026229 -0.482311 0.119778
0.091575 0.317709 0.381755
0.071284 0.426449 0.256022
0.115449 0.366342 -0.340014
0.017051 0.210983 0.449151
-0.147654 0.486042 0.108649
0.245073 0.123818 0.480326
-0.177610 0.137195 0.476720
0.078256 0.495281 0.055562
0.137863 -0.377950 0.321714
-0.226280 0.117198 -0.486479
0.207133 -0.254883 -0.429652
-0.039789 -0.492446 0.069296
-0.211578 -0.463644 -0.182848
-0.223975 -0.479998 0.129217
-0.276636 0.422968 -0.265806
-0.132412 -0.489128 0.088570
0.231064 -0.482408 -0.124045
-0.240881 0.061745 -0.496440
-0.181216 -0.175889 0.463704
0.216387 -0.135601 0.476812
-0.168677 0.439534 0.233205
-0.290112 0.497091 -0.041580
0.286752 0.250595 -0.432768
-0.143505 -0.174267 0.464264
-0.014451 0.444086 -0.228508
-0.221182 0.029089 -0.499431
0.286797 0.210657 -0.453735
-0.107363 0.467280 0.171653
0.227838 -0.430737 0.247029
-0.104967 0.113286 -0.487299
0.092388 0.419951 0.266270
0.283632 -0.104719 0.484526
-0.171657 0.420014 0.266175
0.128078 0.270974 -0.420285
0.142876 0.466757 -0.176985
0.218585 -0.357372 -0.348390
-0.134717 -0.307160 -0.393702
0.188247 -0.491392 0.075423
-0.234063 0.153185 0.471841
-0.233125 -0.415409 -0.275950
0.020776 -0.329824 -0.374800
0.196525 0.007803 -0.500064
-0.175728 -0.329529 0.370749
0.286248 0.335555 0.366184
-0.245539 -0.480818 -0.129804
-0.110097 -0.492131 0.071127
0.055640 -0.328246 0.371849
0.020973 -0.093834 0.486806
-0.248537 0.454319 0.203318
-0.123101 -0.176136 0.463619
0.182163 -0.061328 0.491999
-0.257030 0.407255 0.285466
0.110980 -0.337805 -0.367572
0.242593 -0.308761 0.388247
0.226787 -0.093275 -0.491294
0.274518 0.494329 -0.067145
0.187924 0.366854 -0.339449
-0.011971 -0.486773 -0.104625
-0.268876 -0.139642 0.475696
-0.235031 -0.224230 -0.446587
-0.014118 -0.409333 0.280628
-0.034810 -0.442523 -0.229617
-0.023199 0.064419 -0.496053
0.286455 0.077267 0.489873
0.223054 -0.333306 0.367508
-0.247777 0.489328 0.092965
0.000803 0.298073 0.397349
-0.133285 0.275353 -0.417394
0.117605 -0.237857 -0.439412
-0.130267 0.456658 -0.201911
0.021698 0.356623 -0.350426
0.075738 0.384097 -0.319808
0.069714 0.486435 -0.111090
0.252910 -0.159692 -0.473896
-0.237430 0.489188 0.093636
-0.040661 0.454043 -0.207740
0.086042 -0.456955 0.194613
-0.136071 -0.068444 -0.495562
-0.196386 0.456576 -0.202094
-0.267296 -0.424487 -0.262011
0.182637 0.235069 0.437066
-0.075516 0.331530 -0.374264
0.136651 -0.489396 0.087014
-0.282297 -0.458706 -0.194690
0.184149 0.443949 -0.228768
-0.053943 0.298990 -0.400745
-0.138088 -0.495363 -0.047778
-0.138607 -0.428336 -0.255299
-0.251959 -0.369843 0.330664
-0.227295 0.491429 -0.085511
-0.016275 0.470958 -0.165792
0.006737 0.254011 -0.430809
-0.187176 0.446138 -0.224611
0.191423 0.485033 0.113470
0.209629 0.498515 -0.001254
-0.195043 -0.415906 -0.275197
0.027054 -0.493200 0.063751
0.248461 -0.337535 -0.367816
-0.077313 0.387468 0.311514
-0.017265 0.252159 -0.431871
0.102391 -0.446914 -0.220706
-0.113933 -0.464807 0.175097
-0.232669 -0.313182 -0.388901
-0.126005 -0.485057 -0.112814
0.227025 0.485206 -0.116262
0.102555 0.421333 0.264177
0.045109 0.464038 -0.184232
-0.070349 -0.003646 -0.500271
0.022907 0.490526 0.087248
0.129221 0.480068 -0.136697
0.069500 0.087816 0.488057
-0.222176 0.397359 -0.303176
-0.167191 0.129029 0.479087
-0.001087 -0.256431 0.424480
-0.251263 -0.458172 0.191900
-0.074822 -0.407799 -0.287477
0.187007 -0.267215 0.417737
-0.286647 0.028814 -0.499453
-0.051606 0.495380 -0.057416
0.181381 -0.109200 -0.487910
-0.034506 0.320127 0.379827
-0.096362 -0.083410 -0.492992
0.002419 0.485722 0.110179
0.003252 0.441065 -0.234245
0.284242 -0.239236 -0.438685
0.085112 -0.319517 0.379339
-0.029031 -0.401690 -0.295838
0.181955 0.490909 -0.088531
-0.231921 0.455581 -0.204312
0.147002 -0.385920 0.311884
-0.177424 -0.016450 -0.499855
0.263975 0.470283 0.162949
-0.049316 0.335617 -0.370757
-0.076925 0.359682 0.342716
-0.186280 -0.449333 -0.215796
-0.201386 -0.489054 0.089000
-0.037666 0.193343 -0.461263
0.189159 0.434986 -0.245790
-0.194514 0.378139 -0.326990
0.159981 -0.194968 -0.460231
0.285256 0.305853 0.391209
0.148414 -0.496786 -0.030205
0.029986 0.452074 0.207961
0.189861 0.489202 -0.098449
-0.171020 -0.336877 0.364298
-0.195487 -0.215335 -0.451092
-0.183573 0.403900 -0.294215
0.136962 0.497676 -0.030601
0.261598 0.457015 -0.201116
-0.224682 -0.273364 0.413677
0.220401 -0.423217 0.259364
-0.241671 -0.462352 0.181641
0.097137 -0.287131 0.404565
-0.257497 -0.344228 -0.361754
-0.173702 0.000037 0.495834
-0.115522 -0.475621 0.143563
0.178751 0.304689 0.392137
0.156000 -0.497202 -0.019071
0.054649 0.497684 0.027421
-0.230954 0.494199 -0.068344
-0.058021 -0.477721 0.136679
0.051265 0.134348 -0.481793
0.193693 0.359754 -0.347288
0.134777 -0.497554 0.000476
0.080733 -0.303374 0.392311
0.006360 0.480122 -0.136523
0.179532 -0.438770 -0.237103
-0.137237 -0.455596 0.197641
0.049971 0.066790 -0.495710
-0.066140 -0.434602 -0.244371
0.209697 -0.169463 -0.470235
-0.077930 0.463997 -0.184342
0.189384 -0.310918 0.386620
-0.249692 -0.150237 0.472553
-0.263413 -0.497561 0.000857
-0.112930 0.439524 0.233221
-0.011605 0.410850 -0.284278
-0.258321 -0.320893 0.378159
-0.150035 -0.411454 -0.281941
0.200280 -0.016002 0.495545
-0.154793 -0.434262 -0.244964
-0.017875 0.476665 0.144209
-0.223520 -0.484743 0.109544
-0.041808 0.158194 -0.474515
-0.156515 -0.497574 0.001558
0.072286 -0.111499 0.483105
0.136282 -0.462373 -0.185896
0.008593 -0.283230 0.407164
-0.061154 -0.387362 0.310075
0.054849 0.498201 0.016165
0.088452 -0.446775 -0.220987
0.110713 -0.253832 -0.430293
0.269075 -0.310341 -0.391166
0.176223 -0.321077 -0.382606
-0.191087 0.045488 -0.498102
-0.276641 0.279585 -0.414600
-0.212776 0.043621 0.494002
0.188279 -0.328413 -0.376078
0.219580 -0.468441 -0.169670
0.098472 -0.075608 -0.494335
0.010043 -0.496593 0.027544
0.232185 0.405258 -0.292274
-0.080721 -0.345964 -0.360108
0.173527 -0.379183 -0.324328
0.125332 -0.496873 0.021311
0.177678 0.043489 0.494016
-0.129627 -0.147896 0.473361
0.122217 0.355675 0.346832
0.049778 -0.246224 0.430333
0.160707 -0.294979 0.398644
-0.088767 0.163307 -0.472751
0.202966 0.480365 0.130806
0.072688 -0.057642 -0.496729
0.228280 -0.439117 -0.236497
0.207692 -0.278966 0.409979
-0.258098 -0.495851 0.039218
0.211632 -0.170623 0.465521
0.095814 -0.488639 0.091412
-0.065092 0.428142 0.253070
0.063457 -0.419851 -0.269222
-0.051915 0.066304 -0.495780
0.088884 -0.490663 0.079655
-0.195652 -0.061840 0.491925
-0.082637 0.315311 0.383667
0.101209 -0.492173 -0.074318
0.031833 -0.391485 0.304904
0.196535 0.391738 -0.310226
0.255599 -0.494968 -0.052650
0.069371 0.050729 0.493234
0.079161 0.496889 0.037236
0.154154 -0.497250 0.012900
-0.264609 -0.283852 -0.410932
0.200385 0.445779 -0.225293
0.194116 0.349077 0.353610
0.027127 0.332788 -0.373185
0.269240 -0.380240 -0.323096
-0.014717 -0.495134 -0.050606
0.194357 0.439741 -0.236760
-0.051872 0.107708 0.484154
0.164261 0.007764 -0.500065
0.127252 0.494450 0.061304
-0.047323 -0.133926 0.477274
0.175178 0.151699 0.472294
0.037382 0.497769 0.026375
0.182999 0.464258 0.179479
-0.115546 -0.128665 -0.483284
0.170486 0.493933 0.064879
0.030377 -0.440771 0.228504
0.218539 -0.415254 -0.276185
0.022575 0.495967 0.048611
0.103075 0.116956 0.481957
-0.102356 0.311870 -0.391028
0.286511 0.406362 0.286650
0.273547 0.393972 -0.307424
0.028431 0.212647 -0.452754
0.160133 0.294517 -0.404120
-0.253024 0.464795 0.178190
0.168103 0.498223 -0.018410
-0.070644 -0.364900 0.336122
-0.015777 0.054484 0.492828
-0.099837 0.422826 0.261914
0.063958 -0.407549 -0.287856
-0.018897 -0.324321 -0.379784
-0.197675 0.425015 0.258523
0.006516 -0.474848 0.146093
-0.039416 0.277639 0.411640
-0.070996 0.492085 0.077657
-0.258386 0.481226 -0.132903
0.176936 0.089837 0.487709
0.124182 -0.311805 0.385950
0.204287 0.089696 0.487733
-0.100032 -0.438309 -0.237907
0.222464 0.048968 0.493424
