0.286960 0.121101 0.476975
0.286960 0.374814 -0.282578
0.286960 -0.359842 0.288774
0.286960 -0.156932 -0.473238
0.286960 0.452225 -0.026492
0.286960 -0.099349 -0.452656
0.286960 -0.338337 0.361446
0.286960 0.403758 0.279443
0.286960 -0.022441 -0.461711
0.286960 0.406420 0.261376
0.286960 -0.254762 0.375828
0.286960 0.270726 0.351755
0.286960 0.490577 -0.003958
0.286960 0.015322 -0.481982
0.286960 -0.095173 0.466525
0.286960 -0.244330 -0.380134
0.286960 0.363964 0.338125
0.286960 -0.204104 -0.441701
0.286960 -0.453788 -0.105993
0.286960 -0.391494 0.257874
0.286960 -0.360195 -0.339377
0.286960 0.252077 -0.379617
0.286960 0.093664 0.433524
0.286960 -0.387902 0.308915
0.286960 0.366112 0.268689
0.286960 0.365299 -0.303894
0.286960 -0.252428 0.425482
0.286960 0.455027 -0.037653
0.286960 0.478823 -0.110428
0.286960 -0.453412 -0.118410
0.286960 0.315777 -0.363290
0.286960 -0.164731 0.434707
0.286960 0.478073 0.088426
0.286960 -0.407517 0.268475
0.286960 0.496897 -0.041478
0.286960 0.290712 -0.401086
0.286960 -0.458955 0.140729
0.286960 -0.459605 -0.076247
0.286960 -0.352843 0.342127
0.286960 0.474358 0.009291
0.286960 -0.389802 0.214010
0.286960 0.265960 0.355889
0.286960 -0.062613 0.445002
0.286960 0.047141 0.465637
0.286960 -0.309777 0.384602
0.286960 -0.427834 0.174614
0.286960 -0.073539 -0.463343
0.286960 -0.448797 0.132147
0.286960 -0.460736 0.147173
0.286960 0.439854 0.134087
0.286960 -0.089286 -0.442386
0.286960 -0.400621 0.240577
0.286960 -0.428899 -0.125808
0.286960 -0.170290 0.449520
0.286960 0.047798 0.444141
0.286960 0.446943 -0.159047
0.286960 -0.345924 0.306483
0.286960 0.413758 0.210037
0.286960 -0.416819 0.189395
0.286960 0.170793 0.463917
0.286960 -0.142112 -0.424692
0.286960 -0.391886 -0.216091
0.286960 0.141387 0.420988
0.286960 0.091613 0.447759
0.286960 0.444202 -0.203040
0.286960 -0.428525 0.157532
0.286960 -0.445165 -0.154310
0.286960 0.405172 0.227459
0.286960 0.375297 -0.268778
0.286960 -0.288932 -0.363759
0.286960 0.362193 0.291790
0.286960 0.151836 -0.472455
0.286960 0.486770 0.076489
0.286960 0.448185 -0.139378
0.286960 -0.243633 0.405192
0.286960 -0.329573 -0.342498
0.286960 0.394856 -0.306131
0.286960 -0.458033 0.060516
0.286960 -0.053929 -0.489365
0.286960 0.411899 0.202696
0.286960 0.355140 -0.328907
0.286960 -0.380962 -0.242674
0.286960 -0.365997 0.334304
0.286960 0.414094 -0.176735
0.286960 -0.210326 0.421086
0.286960 -0.323851 0.303894
0.286960 0.244707 0.374513
0.286960 0.356376 -0.302680
0.286960 -0.170326 -0.444286
0.286960 -0.289293 0.373223
0.286960 0.201233 0.410072
0.286960 -0.467386 0.042273
0.286960 0.288184 0.388888
0.286960 0.473112 -0.113921
0.286960 0.032953 -0.469077
0.286960 0.488271 -0.006741
0.286960 -0.096569 -0.437096
0.286960 -0.151374 -0.470671
0.286960 0.287433 -0.356930
0.286960 -0.460059 -0.063415
0.286960 -0.288738 -0.388103
0.286960 -0.123781 0.434401
0.286960 -0.399609 0.249602
0.286960 -0.315913 -0.384596
0.286960 0.349369 0.326038
0.286960 0.369704 0.301726
0.286960 -0.450637 0.148389
0.286960 -0.441018 0.227421
0.286960 -0.158176 0.459071
0.286960 -0.413154 -0.273158
0.286960 0.296724 -0.397372
0.286960 0.466712 -0.094698
0.286960 -0.389131 0.290924
0.286960 -0.405770 -0.279989
0.286960 -0.331041 -0.352659
0.286960 -0.246227 -0.376895
0.286960 -0.095709 -0.447345
0.286960 -0.236889 0.426688
0.286960 -0.019044 -0.495949
0.286960 0.090092 -0.468269
0.286960 -0.455324 0.190958
0.286960 0.203057 0.444340
0.286960 -0.419494 0.260105
0.286960 -0.445718 0.023157
0.286960 0.365573 0.303925
0.286960 0.276927 -0.362842
0.286960 0.403137 0.252936
0.286960 -0.475287 -0.080995
0.286960 0.210077 -0.427805
0.286960 0.249786 -0.404719
0.286960 -0.057174 0.457022
0.286960 0.462697 -0.032590
0.286960 0.195926 0.416372
0.286960 0.257863 -0.414309
0.286960 0.449998 0.099487
0.286960 0.322410 0.365078
0.286960 -0.373016 0.305985
0.286960 -0.155782 -0.447522
0.286960 0.242802 0.408610
0.286960 -0.028757 0.442439
0.286960 -0.281616 -0.405446
0.286960 -0.286470 -0.399908
0.286960 0.236686 -0.428361
0.286960 0.302396 -0.392830
0.286960 0.108278 -0.485577
0.286960 0.251877 0.422841
0.286960 0.350477 -0.316090
0.286960 0.456405 0.015995
0.286960 0.122309 -0.442701
0.286960 0.001805 0.459789
0.286960 0.319900 0.334541
0.286960 -0.310591 -0.324230
0.286960 0.441836 0.163791
0.286960 0.466293 -0.113697
0.286960 0.063926 0.445430
0.286960 -0.438088 -0.138926
0.286960 0.144455 0.464662
0.286960 -0.186955 -0.423016
0.286960 -0.217147 -0.428957
0.286960 -0.464091 -0.127976
0.286960 -0.029368 -0.493882
0.286960 0.330897 0.326846
0.286960 -0.477273 0.114249
0.286960 0.491188 0.075949
0.286960 -0.464070 -0.083709
0.286960 -0.053396 0.487799
0.286960 0.465882 0.093712
0.286960 -0.266509 0.392103
0.286960 0.019485 -0.496044
0.286960 0.433065 -0.184374
0.286960 0.178368 -0.443520
0.286960 0.420728 0.182972
0.286960 -0.408963 0.191244
0.286960 0.444793 0.124710
0.286960 -0.022120 0.462308
0.286960 0.292573 -0.338940
0.286960 0.284929 -0.344996
0.286960 0.191807 -0.433154
0.286960 0.351739 0.336704
0.286960 -0.174361 0.451642
0.286960 0.250292 0.419701
0.286960 -0.451170 0.134841
0.286960 0.332600 -0.333052
0.286960 0.045506 0.472994
0.286960 0.470448 -0.087454
0.286960 0.310403 0.331705
0.286960 -0.376928 -0.239478
0.286960 -0.460680 -0.098251
0.286960 -0.420305 -0.178356
0.286960 0.273417 -0.378152
0.286960 -0.349248 0.331304
0.286960 0.048032 0.492886
0.286960 -0.203270 0.393718
0.286960 -0.458522 0.016816
0.286960 -0.111103 -0.456958
0.286960 0.389426 -0.230448
0.286960 -0.205610 -0.415607
0.286960 -0.430906 -0.152936
0.286960 0.071117 -0.447733
0.286960 0.374799 -0.292154
0.286960 -0.130169 0.435702
0.286960 -0.172416 0.437004
0.286960 -0.453113 0.006813
0.286960 0.444082 -0.168083
0.286960 0.304905 0.391769
0.286960 -0.406756 0.208342
0.286960 -0.476985 -0.076568
0.286960 0.493975 -0.011387
0.286960 0.402763 -0.262138
0.286960 0.435637 -0.145734
0.286960 0.224373 0.429325
0.286960 -0.346530 0.343969
0.286960 0.459277 -0.134998
0.286960 0.460596 -0.057514
0.286960 0.084940 0.438320
0.286960 -0.355208 -0.289855
0.286960 0.459694 0.118498
0.286960 -0.324280 -0.308802
0.286960 0.456616 0.172465
0.286960 0.484197 -0.026511
0.286960 0.299273 -0.341162
0.286960 -0.395773 -0.265883
0.286960 0.321938 -0.337317
0.286960 -0.127224 -0.464027
0.286960 -0.478431 -0.089254
0.286960 0.379954 0.298444
0.286960 -0.179342 -0.441095
0.286960 -0.487398 0.065027
0.286960 0.054636 -0.480240
0.286960 0.439925 0.087633
0.286960 0.068462 -0.442707
0.286960 -0.473305 0.115224
0.286960 0.188503 -0.416108
0.286960 0.124880 0.443805
0.286960 -0.045714 -0.455029
0.286960 0.457723 -0.146157
0.286960 0.454524 0.009232
0.286960 -0.158089 0.450243
0.286960 0.145183 -0.448017
0.286960 0.390751 0.280970
0.286960 0.467807 0.069372
0.286960 -0.398613 0.295659
0.286960 -0.444294 0.122968
0.286960 0.439194 -0.120477
0.286960 0.427538 -0.147175
0.286960 -0.144781 -0.450028
0.286960 0.410202 0.205252
0.286960 0.102870 0.452180
0.286960 -0.239272 0.384729
0.286960 -0.425081 0.256024
0.286960 -0.027865 0.481528
0.286960 0.225774 0.421083
0.286960 0.358005 0.335063
0.286960 0.439570 -0.113550
0.286960 -0.083687 -0.471246
0.286960 0.405224 0.187122
0.286960 0.475606 0.030951
0.286960 -0.367271 0.327883
0.286960 0.494809 0.055975
0.286960 0.205024 0.410212
0.286960 0.326383 0.339578
0.286960 -0.200002 0.396789
0.286960 -0.049237 0.464846
0.286960 0.393362 -0.298816
0.286960 0.250887 -0.386701
0.286960 0.391816 -0.259518
0.286960 0.317401 0.353570
0.286960 0.233152 0.403000
0.286960 -0.318185 -0.314446
0.286960 -0.239689 -0.417598
0.286960 -0.441467 0.208373
0.286960 -0.288295 -0.379342
0.286960 -0.329362 0.364897
0.286960 0.443248 0.127998
0.286960 0.437775 0.189381
0.286960 -0.057631 -0.476783
0.286960 -0.442711 -0.117659
0.286960 -0.154424 0.457182
0.286960 0.091467 -0.457021
0.286960 -0.172642 -0.423016
0.286960 0.242641 -0.421791
0.286960 -0.339067 0.286679
0.286960 0.458697 0.078463
0.286960 0.279424 0.402385
0.286960 0.465518 0.098400
0.286960 -0.197378 -0.416425
0.286960 0.475173 -0.004346
0.286960 0.004006 0.472204
0.286960 -0.358650 0.342542
0.286960 0.287587 0.353390
0.286960 -0.456987 -0.154234
0.286960 -0.262942 0.405946
0.286960 0.067379 -0.450443
0.286960 0.082783 -0.451071
0.286960 0.040632 -0.497789
0.286960 0.245143 -0.416616
0.286960 -0.256222 -0.418235
0.286960 0.281832 -0.412611
0.286960 -0.046231 -0.476826
0.286960 -0.100740 0.462508
0.286960 0.225154 -0.401529
0.286960 -0.218956 -0.395145
0.286960 -0.353362 0.348217
0.286960 -0.192835 -0.437329
0.286960 0.062166 -0.443455
0.286960 0.161386 -0.453158
0.286960 0.372892 -0.309196
0.286960 -0.204581 -0.418732
0.286960 0.439776 0.148806
0.286960 -0.002438 0.463844
0.286960 0.451195 -0.156515
0.286960 -0.278308 0.409748
0.286960 0.050062 -0.456202
0.286960 -0.281656 0.356503
0.286960 0.385964 -0.288947
0.286960 0.231181 -0.398235
0.286960 -0.450726 -0.064490
0.286960 0.319414 -0.353801
0.286960 0.000947 -0.467228
0.286960 0.173014 0.412283
0.286960 -0.174127 -0.426624
0.286960 -0.014877 -0.471752
0.286960 -0.342893 -0.346115
0.286960 -0.091374 -0.473618
0.286960 0.170956 0.429735
0.286960 -0.454011 -0.200273
0.286960 -0.235923 -0.388396
0.286960 -0.470998 0.075699
0.286960 -0.448149 0.070418
0.286960 0.494737 0.051213
0.286960 -0.454447 -0.070702
0.286960 -0.454594 0.186786
0.286960 -0.195477 0.415708
0.286960 0.390807 -0.238199
0.286960 0.478967 -0.073412
0.286960 0.261647 0.359472
0.286960 0.335275 0.324395
0.286960 0.445973 -0.002805
0.286960 0.329541 0.305335
0.286960 -0.464635 0.077061
0.286960 -0.369984 -0.266034
0.286960 -0.288527 0.403470
0.286960 0.419116 0.171333
0.286960 0.141036 0.466414
0.286960 0.243107 -0.408787
0.286960 0.167741 -0.430339
0.286960 0.425196 -0.159247
0.286960 -0.463436 0.135545
0.286960 -0.388894 -0.239826
0.286960 -0.182750 0.444548
0.286960 0.350365 -0.343873
0.286960 0.406258 0.241274
0.286960 -0.157503 0.434598
0.286960 0.421432 -0.237004
0.286960 0.419348 0.220787
0.286960 -0.420254 -0.218540
0.286960 -0.255280 -0.414180
0.286960 -0.474371 -0.038377
0.286960 0.203435 -0.429372
0.286960 -0.274526 -0.409140
0.286960 0.464434 -0.151875
0.286960 0.440465 0.101283
0.286960 -0.434388 0.229349
0.286960 -0.356669 0.303713
0.286960 -0.378130 -0.274489
0.286960 -0.209204 0.400209
0.286960 0.109576 0.450020
0.286960 0.088292 -0.448356
0.286960 0.480042 0.114651
0.286960 0.308282 0.335975
0.286960 -0.197530 -0.454090
0.286960 -0.067494 0.463198
0.286960 -0.002702 -0.500203
0.286960 0.249367 0.411541
0.286960 -0.456530 -0.107813
0.286960 0.383517 0.261445
0.286960 -0.063734 -0.485491
0.286960 0.328523 -0.315545
0.286960 0.318781 -0.320033
0.286960 0.102864 0.475013
0.286960 0.443563 -0.158076
0.286960 0.489677 -0.027657
0.286960 0.152677 -0.476312
0.286960 -0.434157 -0.192393
0.286960 0.236720 -0.400578
0.286960 -0.038939 -0.492064
0.286960 0.462342 -0.072582
0.286960 0.144445 0.455023
0.286960 0.451251 -0.067405
0.286960 0.247093 0.381303
0.286960 -0.097262 -0.460919
0.286960 0.251263 -0.401050
0.286960 -0.421572 -0.159361
0.286960 -0.411073 -0.276070
0.286960 0.158759 0.449261
0.286960 0.453439 0.118847
0.286960 -0.020746 0.455469
0.286960 -0.276761 -0.361110
0.286960 -0.411445 0.269243
0.286960 -0.371462 -0.306013
0.286960 0.444584 -0.198142
0.286960 0.492307 -0.007332
0.286960 0.472554 0.102025
0.286960 -0.100354 0.459189
0.286960 -0.290698 0.350534
0.286960 0.010375 0.453582
0.286960 0.240920 0.399405
0.286960 0.145274 -0.438764
0.286960 0.375457 0.306222
0.286960 0.496587 -0.004916
0.286960 -0.039736 0.462816
0.286960 0.433430 0.171339
0.286960 0.346724 0.354832
0.286960 0.248108 0.390017
0.286960 -0.009394 0.470115
0.286960 0.383091 -0.247729
0.286960 0.410969 0.217427
0.286960 0.382739 -0.287648
0.286960 0.482172 0.028006
0.286960 -0.275910 0.396630
0.286960 0.355695 0.304747
0.286960 -0.435756 0.194438
0.286960 -0.246935 -0.394312
0.286960 0.138350 -0.444375
0.286960 0.241371 0.382218
0.286960 0.410185 0.244805
0.286960 0.105785 0.456934
0.286960 0.218931 -0.392000
0.286960 0.455426 0.165982
0.286960 -0.096375 0.458886
0.286960 0.199351 -0.404674
0.286960 -0.489935 0.015194
0.286960 0.452272 -0.148965
0.286960 0.199216 0.418014
0.286960 -0.299669 0.355578
0.286960 0.018136 0.446786
0.286960 0.015982 0.473601
0.286960 0.207000 -0.433665
0.286960 0.376066 -0.252580
0.286960 0.430652 0.117323
0.286960 -0.074348 -0.487599
0.286960 0.178613 -0.455103
0.286960 -0.416418 -0.172660
0.286960 -0.462523 -0.115964
0.286960 -0.414554 -0.164113
0.286960 0.398335 0.243161
0.286960 -0.406907 -0.220488
0.286960 0.305860 0.369657
0.286960 0.049506 -0.461301
0.286960 0.397451 -0.286158
0.286960 0.147090 -0.434090
0.286960 -0.357244 -0.273249
0.286960 0.041491 0.482923
0.286960 -0.398269 0.205675
0.286960 -0.004597 -0.497531
0.286960 0.424760 0.179850
0.286960 0.411788 -0.268313
0.286960 0.171045 -0.419188
0.286960 0.184268 0.439003
0.286960 -0.261026 0.412001
0.286960 -0.434996 0.149453
0.286960 -0.262980 0.381270
0.286960 -0.233534 0.393842
0.286960 -0.316000 -0.333847
0.286960 0.458353 -0.072494
0.286960 -0.466801 -0.116923
0.286960 0.458054 -0.094020
0.286960 -0.144745 0.472109
0.286960 0.371610 -0.275747
0.286960 0.281876 -0.353136
0.286960 0.484371 -0.002444
0.286960 -0.479528 -0.074726
0.286960 0.095404 0.457775
0.286960 0.271205 0.406806
0.286960 -0.475670 -0.050357
0.286960 0.092065 0.436835
0.286960 -0.413056 0.219811
0.286960 -0.448438 0.156562
0.286960 -0.008542 0.461097
0.286960 0.339211 0.311894
0.286960 0.385695 0.289360
0.286960 -0.275183 -0.413045
0.286960 -0.135417 0.468464
0.286960 0.463891 0.179786
0.286960 -0.028174 0.494333
0.286960 0.199803 -0.431600
0.286960 0.165976 -0.463524
0.286960 -0.447831 0.089913
0.286960 -0.327015 0.329300
0.286960 0.234716 0.415649
0.286960 0.399676 0.251156
0.286960 0.444308 0.221360
0.286960 0.483827 0.060650
0.286960 0.421545 -0.170978
0.286960 -0.157196 0.442400
0.286960 0.430832 -0.187836
0.286960 0.426283 0.141625
0.286960 0.387620 -0.266712
0.286960 -0.189525 0.404341
0.286960 -0.433198 0.180583
0.286960 -0.396430 -0.284605
0.286960 -0.437504 -0.085644
0.286960 -0.458772 0.073556
0.286960 0.371572 0.244887
0.286960 0.419523 0.200143
0.286960 0.200745 0.423375
0.286960 0.372664 -0.332009
0.286960 0.300623 0.379455
0.286960 -0.077303 -0.440726
0.286960 0.177159 -0.426059
0.286960 0.490792 -0.040113
0.286960 -0.297581 -0.400040
0.286960 -0.474206 0.129633
0.286960 0.182397 -0.430133
0.286960 -0.365736 -0.281178
0.286960 0.338003 0.327705
0.286960 0.107230 0.465014
0.286960 -0.492765 -0.040344
0.286960 -0.435689 0.165083
0.286960 -0.453616 0.000448
0.286960 0.342197 -0.320263
0.286960 0.251102 0.387610
0.286960 0.431063 -0.119814
0.286960 0.411181 -0.222846
0.286960 0.453311 -0.051649
0.286960 0.046124 -0.462904
0.286960 0.082641 -0.467928
0.286960 -0.424104 -0.230048
0.286960 0.447634 0.065164
0.286960 -0.317545 -0.351498
0.286960 -0.407142 0.224488
0.286960 -0.408743 -0.260789
0.286960 0.100400 -0.467794
0.286960 -0.458568 -0.011838
0.286960 0.447698 0.189481
0.286960 -0.346023 0.302584
0.286960 -0.233177 -0.390034
0.286960 0.452118 0.188957
0.286960 -0.440922 0.110599
0.286960 0.245616 0.429410
0.286960 0.254382 -0.387875
0.286960 -0.121404 0.438819
0.286960 0.389499 0.277907
0.286960 0.097965 0.450061
0.286960 0.202469 -0.401708
0.286960 0.399947 0.247228
0.286960 0.432839 -0.128513
0.286960 -0.373886 0.285972
0.286960 -0.285202 0.363748
0.286960 -0.079218 -0.444006
0.286960 -0.355247 -0.304657
0.286960 -0.076565 0.460465
0.286960 -0.408133 -0.245472
0.286960 0.095315 -0.445036
0.286960 -0.011253 0.446865
0.286960 0.019696 0.494946
0.286960 -0.303070 0.337399
0.286960 -0.353286 -0.347679
0.286960 0.477899 -0.008001
0.286960 0.416164 0.182985
0.286960 0.032601 -0.478710
0.286960 -0.186424 -0.434406
0.286960 -0.469102 0.059025
0.286960 0.471090 -0.075536
0.286960 0.235742 0.382180
0.286960 -0.488593 0.009100
0.286960 -0.091867 -0.488595
0.286960 -0.171400 -0.454776
0.286960 0.484280 -0.099904
0.286960 0.163549 -0.428262
0.286960 -0.267460 -0.371845
0.286960 0.286109 0.384585
0.286960 0.453709 -0.090191
0.286960 -0.177024 -0.466889
0.286960 0.199517 0.406704
0.286960 -0.002568 -0.459815
0.286960 0.208889 -0.454362
0.286960 -0.116795 0.442999
0.286960 0.405966 -0.259893
0.286960 0.289580 -0.354287
0.286960 0.406516 0.245383
0.286960 0.346425 -0.335504
0.286960 -0.421948 -0.171830
0.286960 0.497922 0.020673
0.286960 0.181640 -0.445779
0.286960 -0.366198 -0.265346
0.286960 -0.434109 -0.184237
0.286960 -0.141650 -0.470620
0.286960 0.402756 -0.246723
0.286960 -0.341405 -0.361478
0.286960 0.442901 0.098358
0.286960 -0.274583 0.386773
0.286960 0.066321 0.485310
0.286960 0.291955 0.340028
0.286960 0.385963 0.221077
0.286960 -0.387931 0.248884
0.286960 -0.160743 0.448018
0.286960 -0.351697 0.308680
0.286960 -0.050074 0.453329
0.286960 0.036357 0.470293
0.286960 -0.289107 -0.372453
0.286960 0.415844 -0.227286
0.286960 0.023111 0.464728
0.286960 0.440027 0.075075
0.286960 0.213939 0.440403
0.286960 0.412168 0.261477
0.286960 0.422396 0.142527
0.286960 -0.439420 0.203854
0.286960 -0.241027 0.430763
0.286960 -0.414183 0.172112
0.286960 0.406229 0.251110
0.286960 0.417793 0.189303
0.286960 -0.413073 -0.217915
0.286960 0.314502 0.340469
0.286960 0.074447 -0.452271
0.286960 0.447508 -0.062524
0.286960 -0.016323 0.456193
0.286960 -0.431019 -0.218268
0.286960 0.129754 0.453719
0.286960 0.460470 -0.010947
0.286960 -0.227497 -0.426827
0.286960 -0.421817 0.140153
0.286960 -0.434234 -0.231606
0.286960 0.466876 -0.109538
0.286960 -0.447375 0.038533
0.286960 -0.311354 0.326679
0.286960 0.142231 -0.441615
0.286960 0.071680 -0.465873
0.286960 -0.314370 -0.350614
0.286960 -0.221545 -0.422340
0.286960 -0.456064 0.129423
0.286960 0.174703 0.430014
0.286960 -0.108934 -0.476960
0.286960 -0.455650 -0.093441
0.286960 0.465164 0.033659
0.286960 -0.432500 0.233501
0.286960 0.043636 -0.467592
0.286960 -0.006538 -0.493509
0.286960 0.211134 -0.421576
0.286960 0.421824 -0.200903
0.286960 -0.255346 -0.378500
0.286960 0.137209 -0.458090
0.286960 -0.466527 -0.093207
0.286960 -0.112492 0.441470
0.286960 -0.426174 -0.192658
0.286960 0.322643 0.376471
0.286960 -0.121663 -0.456056
0.286960 0.466729 0.116038
0.286960 0.430776 -0.194306
0.286960 0.226520 -0.386339
0.286960 -0.408243 -0.212315
0.286960 -0.180639 0.405006
0.286960 0.481317 -0.083460
0.286960 0.312274 -0.356117
0.286960 -0.291587 0.390142
0.286960 0.214652 0.390666
0.286960 -0.264777 -0.417634
0.286960 0.478878 -0.065882
0.286960 0.462725 -0.185215
0.286960 -0.083424 0.451964
0.286960 -0.240684 -0.400791
0.286960 0.132112 0.468568
0.286960 0.218422 -0.409381
0.286960 -0.080732 -0.459924
0.286960 -0.336211 0.306455
0.286960 0.275695 -0.393367
0.286960 -0.369534 -0.315192
0.286960 0.300136 0.391100
0.286960 0.183278 -0.451046
0.286960 0.239414 -0.432599
0.286960 -0.351894 0.288658
0.286960 -0.178364 0.435715
0.286960 0.464717 0.108022
0.286960 0.420355 -0.240814
0.286960 0.452037 -0.127433
0.286960 -0.436152 0.179763
0.286960 -0.117904 -0.485446
0.286960 -0.105016 -0.465529
0.286960 -0.196435 -0.447833
0.286960 -0.198608 -0.440248
0.286960 -0.291005 0.340359
0.286960 0.440860 0.105543
0.286960 0.465847 -0.081153
0.286960 0.306549 -0.381781
0.286960 0.343531 -0.332204
0.286960 0.456693 0.159786
0.286960 -0.005182 -0.452687
0.286960 -0.404152 -0.199102
0.286960 -0.099816 -0.470017
0.286960 0.285374 0.393243
0.286960 0.458616 0.165905
0.286960 0.068044 -0.446249
0.286960 -0.412112 0.258143
0.286960 -0.275393 0.372836
0.286960 -0.195101 -0.433241
0.286960 0.034783 0.462742
0.286960 -0.363494 0.261431
0.286960 -0.243687 -0.398719
0.286960 -0.428305 0.135945
0.286960 0.211070 -0.401070
0.286960 -0.459708 0.111392
0.286960 -0.451258 0.161769
0.286960 -0.463119 0.113456
0.286960 -0.405250 0.245626
0.286960 -0.455038 0.103611
0.286960 0.134438 -0.445835
0.286960 0.466095 0.058454
0.286960 0.464882 -0.136192
0.286960 0.300503 0.334986
0.286960 0.419984 0.168259
0.286960 0.208139 0.392138
0.286960 -0.408216 0.184643
0.286960 -0.088354 -0.487084
0.286960 -0.417445 -0.180086
0.286960 -0.414192 -0.203305
0.286960 -0.243933 -0.402181
0.286960 -0.416945 0.238538
0.286960 -0.441969 0.164849
0.286960 -0.181866 0.453725
0.286960 -0.378405 0.300290
0.286960 -0.033922 -0.452126
0.286960 -0.436453 0.116687
0.286960 -0.106739 0.463318
0.286960 -0.327392 0.356364
0.286960 0.410225 -0.177214
0.286960 0.434054 0.160599
0.286960 -0.480360 -0.078063
0.286960 -0.080668 -0.480356
0.286960 0.155276 0.448278
0.286960 -0.262280 -0.390720
0.286960 -0.323604 -0.340240
0.286960 -0.458854 0.189108
0.286960 -0.179564 -0.460804
0.286960 -0.451304 -0.197605
0.286960 -0.495891 -0.018313
0.286960 0.339274 -0.366523
0.286960 -0.370475 -0.250540
0.286960 0.470761 -0.020694
0.286960 -0.098190 -0.466680
0.286960 0.409869 -0.281842
0.286960 -0.424462 -0.203761
0.286960 0.465593 0.072839
0.286960 0.394683 -0.224901
0.286960 0.245899 0.377924
0.286960 0.370916 -0.250497
0.286960 -0.278952 -0.407671
0.286960 -0.464470 0.081047
0.286960 -0.464765 0.035071
0.286960 -0.269659 -0.363247
0.286960 0.479940 0.053213
0.286960 -0.370728 -0.323777
0.286960 0.385197 -0.254583
0.286960 0.364383 0.322161
0.286960 -0.478642 -0.061743
0.286960 0.338180 -0.300884
0.286960 -0.404627 0.185829
0.286960 -0.181567 -0.443846
0.286960 -0.467116 -0.012763
0.286960 -0.471182 0.054399
0.286960 0.176848 -0.422802
0.286960 -0.469318 0.118746
0.286960 0.321879 -0.361301
0.286960 -0.253158 0.373162
0.286960 -0.480426 -0.044729
0.286960 -0.471337 -0.003541
0.286960 0.475136 0.106079
0.286960 0.335310 0.348098
0.286960 -0.465563 -0.027408
0.286960 0.485597 -0.073901
0.286960 0.318462 0.309992
0.286960 0.068182 0.438640
0.286960 -0.054717 0.484757
0.286960 -0.111554 0.435751
0.286960 0.278682 0.360101
0.286960 0.081357 -0.456952
0.286960 0.429812 -0.235670
0.286960 -0.293433 0.366179
0.286960 -0.450384 0.178669
0.286960 -0.060920 -0.487272
0.286960 0.234407 0.395037
0.286960 -0.065830 0.457854
0.286960 0.113890 -0.446654
0.286960 0.005645 0.448785
0.286960 0.235245 -0.389510
0.286960 0.193054 -0.422654
0.286960 0.431589 -0.231064
0.286960 -0.329979 -0.337044
0.286960 0.369239 0.276835
0.286960 0.383320 -0.236880
0.286960 0.053548 0.489071
0.286960 -0.405509 -0.216912
0.286960 0.066195 -0.457121
0.286960 0.425384 0.169433
0.286960 0.008712 0.485838
0.286960 0.380292 -0.305904
0.286960 -0.488774 -0.094008
0.286960 0.452509 -0.191157
0.286960 0.136458 0.451436
0.286960 -0.022392 -0.489869
0.286960 0.478357 0.068651
0.286960 -0.336182 -0.301844
0.286960 0.473103 0.149162
0.286960 0.213951 0.424395
0.286960 0.227385 0.430580
0.286960 -0.393343 -0.235656
0.286960 0.335924 0.295851
0.286960 -0.060893 -0.459608
0.286960 -0.382219 0.308811
0.286960 0.135633 0.423022
0.286960 0.310493 0.328158
0.286960 -0.465061 -0.058065
0.286960 0.333776 0.344282
0.286960 -0.440786 0.198429
0.286960 0.456139 -0.099275
0.286960 0.369529 0.272941
0.286960 0.452753 0.039598
0.286960 -0.432174 -0.124569
0.286960 -0.256927 0.389274
0.286960 0.052942 0.465996
0.286960 -0.290504 -0.339385
0.286960 -0.001436 0.489892
0.286960 0.365930 0.276398
0.286960 -0.024165 0.450198
0.286960 0.368871 -0.302932
0.286960 -0.335308 0.363625
0.286960 -0.211783 0.409225
0.286960 -0.176420 -0.443531
0.286960 0.344725 -0.304609
0.286960 -0.228978 -0.420552
0.286960 -0.440964 -0.089489
0.286960 0.141001 -0.458232
0.286960 0.013842 -0.492272
0.286960 -0.031567 0.453227
0.286960 -0.323397 0.350844
0.286960 0.084512 0.456813
0.286960 -0.161959 0.442394
0.286960 -0.427707 -0.203053
0.286960 -0.345352 0.335959
0.286960 -0.278412 0.399176
0.286960 0.421492 0.234429
0.286960 0.087127 -0.467155
0.286960 -0.101594 -0.466692
0.286960 0.409484 0.195410
0.286960 0.439439 0.166391
0.286960 0.397881 0.264424
0.286960 -0.401501 0.244181
0.286960 -0.204535 -0.409600
0.286960 0.468302 -0.065775
0.286960 0.427338 -0.130682
0.286960 0.108953 -0.481729
0.286960 0.008617 0.463396
0.286960 0.029057 -0.476665
0.286960 0.312934 0.368856
0.286960 0.050864 -0.480284
0.286960 0.449413 0.068152
0.286960 0.228972 -0.439140
0.286960 0.370841 -0.318662
0.286960 0.119221 -0.440231
0.286960 0.362850 0.271228
0.286960 -0.417553 -0.202548
0.286960 0.397390 -0.278048
0.286960 -0.274510 0.361724
0.286960 -0.470095 -0.114515
0.286960 0.443218 -0.115215
0.286960 0.457089 -0.141297
0.286960 -0.418178 -0.223351
0.286960 -0.396985 0.263768
0.286960 0.107463 -0.454293
0.286960 -0.467021 -0.137076
0.286960 0.078359 -0.492809
0.286960 0.423549 -0.264028
0.286960 0.244089 0.403015
0.286960 -0.056143 0.465788
0.286960 0.452830 -0.003656
0.286960 0.310250 -0.360572
0.286960 -0.320270 -0.367934
0.286960 -0.454507 -0.183875
0.286960 -0.240973 0.415985
0.286960 0.337051 0.345353
0.286960 0.417516 -0.220525
0.286960 -0.019250 -0.471322
0.286960 0.099077 -0.453821
0.286960 -0.392389 0.292003
0.286960 -0.208742 -0.435604
0.286960 -0.142677 0.456075
0.286960 -0.404410 -0.192091
0.286960 -0.218665 -0.406596
0.286960 0.432125 -0.114356
0.286960 0.367505 0.317885
0.286960 0.194645 0.437248
0.286960 -0.395329 -0.292561
0.286960 -0.465797 0.086196
0.286960 0.133086 0.438902
0.286960 0.210528 -0.405367
0.286960 0.200127 -0.444685
0.286960 -0.141031 0.453282
0.286960 0.327482 -0.310248
0.286960 -0.453593 0.176915
0.286960 -0.119753 0.476054
0.286960 0.291545 -0.363930
0.286960 -0.244833 0.374793
0.286960 0.232892 -0.391939
0.286960 -0.494304 -0.022010
0.286960 -0.353433 0.279076
0.286960 0.196196 0.427200
0.286960 -0.403151 -0.210026
0.286960 -0.195853 0.448470
0.286960 -0.011358 -0.476302
0.286960 -0.474997 0.061397
0.286960 0.286448 -0.353378
0.286960 0.109913 0.435204
0.286960 -0.467575 -0.100968
0.286960 0.224402 0.399014
0.286960 -0.379651 0.294508
0.286960 -0.050942 0.480236
0.286960 -0.474407 0.087571
0.286960 0.491668 -0.056717
0.286960 -0.448516 0.123650
0.286960 0.400847 0.232626
0.286960 0.446870 -0.051025
0.286960 -0.151948 -0.475484
0.286960 -0.178664 0.441879
0.286960 0.469616 0.121511
0.286960 -0.321765 0.363280
0.286960 -0.466678 -0.080062
0.286960 -0.108516 -0.472754
0.286960 -0.313614 0.340640
0.286960 0.297145 0.334767
0.286960 0.208283 0.419826
0.286960 0.450470 0.016709
0.286960 -0.163331 -0.461653
0.286960 -0.400952 0.232895
0.286960 0.393268 0.235344
0.286960 0.238464 0.383885
0.286960 -0.245908 0.369135
0.286960 -0.275610 -0.406130
0.286960 -0.282593 0.343673
0.286960 0.383202 0.283598
0.286960 0.318841 0.337740
0.286960 0.362460 -0.307086
0.286960 -0.134856 0.448209
0.286960 0.409013 -0.206206
0.286960 0.450007 -0.053109
0.286960 -0.265380 -0.422738
0.286960 -0.227573 0.433572
0.286960 -0.408486 -0.205456
0.286960 -0.321238 -0.350849
0.286960 -0.199394 -0.402336
0.286960 -0.433734 -0.224185
0.286960 -0.478077 0.020234
0.286960 -0.429860 -0.192642
0.286960 0.412312 0.189659
0.286960 -0.052354 -0.483731
0.286960 0.348373 -0.338379
0.286960 0.203997 0.414309
0.286960 0.322139 0.337133
0.286960 -0.386310 -0.237775
0.286960 -0.431391 0.132178
0.286960 -0.382519 0.234772
0.286960 0.378490 -0.282876
0.286960 0.356567 0.293222
0.286960 0.382575 0.312244
0.286960 -0.364199 0.286573
0.286960 -0.252414 -0.391287
0.286960 0.257014 -0.391758
0.286960 -0.338771 -0.321293
0.286960 -0.191562 -0.423709
0.286960 0.378803 0.294137
0.286960 -0.475613 -0.056797
0.286960 -0.018114 -0.492299
0.286960 -0.481464 0.108562
0.286960 -0.285428 0.341002
0.286960 0.437248 0.127472
0.286960 -0.449536 -0.137026
0.286960 0.367924 0.333003
0.286960 -0.399635 -0.283312
0.286960 -0.468454 -0.033898
0.286960 -0.401875 0.270322
0.286960 -0.425974 0.208798
0.286960 -0.268181 0.362575
0.286960 -0.381371 -0.266385
0.286960 0.040898 0.442377
0.286960 -0.334925 -0.338794
0.286960 -0.125360 0.444157
0.286960 0.254635 0.399701
0.286960 -0.248950 -0.391260
0.286960 -0.415867 0.156480
0.286960 0.264551 0.393436
0.286960 -0.036111 -0.455597
0.286960 -0.079251 0.448357
0.286960 0.113572 -0.472813
0.286960 -0.176234 -0.454263
0.286960 0.379105 0.272506
0.286960 -0.363317 0.289905
0.286960 0.137497 -0.462687
0.286960 -0.241607 -0.391206
0.286960 0.067305 -0.464793
0.286960 -0.391223 0.305046
0.286960 0.475625 -0.104556
0.286960 0.182473 0.453001
0.286960 0.335459 -0.304441
0.286960 0.000852 0.453305
0.286960 0.196559 0.411373
0.286960 -0.465469 0.015541
0.286960 -0.113002 0.444926
0.286960 -0.274853 0.358269
0.286960 0.449006 -0.032777
0.286960 -0.442657 -0.069701
0.286960 0.369352 0.294394
0.286960 -0.195471 -0.428896
0.286960 0.248437 0.393125
0.286960 -0.054046 0.481252
0.286960 -0.229208 -0.404996
0.286960 -0.131853 -0.438038
0.286960 -0.214075 0.416379
0.286960 0.162749 0.420306
0.286960 -0.265078 0.384216
0.286960 0.025071 0.475535
0.286960 -0.198911 0.422680
0.286960 -0.441941 -0.176535
0.286960 0.201757 -0.415985
0.286960 -0.103912 -0.458007
0.286960 -0.494080 -0.013381
0.286960 -0.477610 -0.112395
0.286960 -0.387745 -0.276552
0.286960 0.344677 0.297190
0.286960 -0.386265 -0.252684
0.286960 0.269111 0.355508
0.286960 -0.304219 -0.345914
0.286960 0.174792 0.408706
0.286960 0.060714 0.478709
0.286960 0.230302 0.394845
0.286960 0.167443 -0.433742
0.286960 -0.086176 -0.443039
0.286960 -0.150489 -0.424718
0.286960 -0.242596 -0.427357
0.286960 0.417427 0.154155
0.286960 -0.097233 -0.487757
0.286960 0.195438 -0.459146
0.286960 -0.461360 -0.002405
0.286960 0.426051 -0.188916
0.286960 -0.417307 -0.230464
0.286960 0.320173 -0.314830
0.286960 0.152521 -0.459522
0.286960 0.451906 0.115353
0.286960 0.250196 -0.412515
0.286960 0.036555 -0.483988
0.286960 -0.349913 -0.341324
0.286960 0.415741 0.172458
0.286960 0.471207 -0.041787
0.286960 0.445169 0.023307
0.286960 -0.444098 -0.031746
0.286960 -0.030078 0.467535
0.286960 0.074081 0.452140
0.286960 0.398915 0.235111
0.286960 -0.231995 -0.429800
0.286960 0.002193 -0.450826
0.286960 0.259120 -0.405897
0.286960 -0.172310 -0.429850
0.286960 -0.471354 -0.093037
0.286960 -0.196657 0.441977
0.286960 -0.343851 -0.305472
0.286960 0.096720 -0.466670
0.286960 0.380088 0.231331
0.286960 0.417750 -0.258482
0.286960 -0.315197 -0.363504
0.286960 0.155190 0.415926
0.286960 -0.135053 0.428929
0.286960 -0.131946 0.462799
0.286960 0.296348 0.370148
0.286960 0.466079 -0.102306
0.286960 -0.439728 -0.178688
0.286960 0.343708 -0.310150
0.286960 0.031896 0.461015
0.286960 0.412132 -0.226113
0.286960 0.492451 -0.022552
0.286960 0.387255 0.293744
0.286960 -0.277683 0.346796
0.286960 -0.212671 0.443222
0.286960 -0.445455 -0.091097
0.286960 0.468809 -0.018069
0.286960 0.409161 0.253563
0.286960 -0.025695 0.444895
0.286960 -0.300658 0.369375
0.286960 -0.083183 -0.477343
0.286960 -0.154470 0.451083
0.286960 -0.346382 -0.343052
0.286960 0.176406 0.411988
0.286960 -0.024471 -0.497516
0.286960 -0.078746 -0.483303
0.286960 0.390579 0.219233
0.286960 -0.005784 0.451716
0.286960 -0.310170 0.347391
0.286960 -0.376066 0.312314
0.286960 0.039497 -0.475095
0.286960 -0.281615 -0.400993
0.286960 0.468570 -0.097981
0.286960 0.345824 0.336905
0.286960 -0.446058 -0.070868
0.286960 -0.250095 -0.394632
0.286960 -0.263361 -0.407840
0.286960 -0.138769 0.429774
0.286960 0.436862 0.146190
0.286960 0.463326 0.060411
0.286960 0.235517 -0.412414
0.286960 0.447953 -0.095290
0.286960 -0.141849 -0.478414
0.286960 -0.113808 0.449059
0.286960 0.186309 0.445880
0.286960 0.481774 0.102341
0.286960 0.210251 0.403008
0.286960 -0.347980 -0.298081
0.286960 0.168710 -0.437889
0.286960 0.148553 0.434627
0.286960 0.221929 0.432552
0.286960 -0.384847 0.281666
0.286960 0.423684 0.198735
0.286960 -0.465495 0.145956
0.286960 0.316793 0.334500
0.286960 0.482767 0.016504
0.286960 -0.113268 0.452041
0.286960 0.312907 -0.389801
0.286960 -0.324060 0.328106
0.286960 0.066701 0.442875
0.286960 0.444378 0.150025
0.286960 0.392786 0.248427
0.286960 -0.492139 0.005293
0.286960 0.436171 -0.111553
0.286960 -0.141819 0.459998
0.286960 -0.074920 0.456846
0.286960 -0.290281 0.335887
0.286960 0.438541 -0.155289
0.286960 -0.442751 0.059300
0.286960 -0.352817 0.324745
0.286960 0.123170 0.436241
0.286960 -0.095806 -0.476437
0.286960 0.091924 0.456078
0.286960 0.383991 -0.251319
0.286960 0.371648 0.264340
0.286960 -0.104525 0.476732
0.286960 0.049257 0.489732
0.286960 0.350957 -0.327660
0.286960 -0.058289 0.482085
0.286960 0.443241 -0.179526
0.286960 -0.455361 0.053943
0.286960 -0.035540 -0.470697
0.286960 0.479674 -0.014628
0.286960 -0.016263 0.447079
0.286960 -0.265105 -0.413855
0.286960 0.394500 -0.270095
0.286960 0.017047 0.463248
0.286960 -0.315589 0.353640
0.286960 -0.387633 0.222246
0.286960 -0.162114 -0.469126
0.286960 -0.092145 0.476255
0.286960 0.388902 -0.299337
0.286960 0.028682 0.477305
0.286960 0.339138 -0.325885
0.286960 -0.424987 0.181514
0.286960 -0.470455 0.097510
0.286960 0.468989 0.082560
0.286960 -0.330640 0.339117
0.286960 -0.308951 -0.368358
0.286960 0.486678 0.050407
0.286960 -0.476263 0.102883
0.286960 -0.223823 -0.425807
0.286960 -0.412304 -0.208151
0.286960 -0.355210 0.319184
0.286960 -0.057089 -0.458437
0.286960 0.306806 0.346625
0.286960 -0.025639 -0.492741
0.286960 -0.247778 0.418351
0.286960 0.446596 0.085831
0.286960 -0.306165 -0.365738
0.286960 0.478865 0.109488
0.286960 -0.202786 0.428490
0.286960 -0.131955 -0.431617
0.286960 0.432473 0.192892
0.286960 -0.361270 -0.282129
0.286960 0.359014 -0.291164
0.286960 -0.297196 0.358858
0.286960 -0.445336 -0.066911
0.286960 0.048616 0.473053
0.286960 -0.413772 -0.248793
0.286960 -0.447793 -0.061175
0.286960 0.457166 0.074926
0.286960 -0.152619 -0.463028
0.286960 0.341126 -0.303204
0.286960 0.433512 0.147851
0.286960 0.393660 0.264246
0.286960 0.340880 -0.353638
0.286960 -0.107513 -0.458697
0.286960 0.325689 -0.312805
0.286960 -0.248605 0.411486
0.286960 -0.460717 0.151487
0.286960 -0.416811 -0.251417
0.286960 0.444048 -0.175742
0.286960 0.455459 0.033042
0.286960 0.331450 0.295690
0.286960 -0.472817 -0.144092
0.286960 -0.148838 -0.421995
0.286960 -0.363410 -0.341494
0.286960 0.046323 0.469160
0.286960 0.426543 -0.231585
0.286960 0.061068 -0.480583
0.286960 0.019216 0.473691
0.286960 -0.446069 0.174802
0.286960 -0.379097 -0.261238
0.286960 -0.328943 0.368413
0.183289 0.481502 0.126684
0.014257 -0.051917 -0.497348
-0.242860 0.135272 -0.481539
0.004693 -0.097845 0.485965
0.115741 -0.098314 -0.490426
0.226163 -0.380771 0.318340
0.285246 -0.453556 0.202188
0.218876 0.114633 0.482509
-0.195294 -0.170065 0.465713
0.211705 -0.040511 0.494069
0.246350 0.411776 -0.282954
0.174015 -0.451452 0.206877
0.262026 0.386944 0.312124
-0.059392 -0.432621 0.243938
0.052379 0.359615 -0.347441
-0.212881 -0.444515 0.221392
0.124250 -0.394916 -0.304816
0.105847 -0.495133 0.045869
0.171998 -0.254221 -0.430056
-0.101892 0.222301 0.443788
-0.153071 -0.410073 -0.284034
0.063474 -0.497381 -0.009119
0.182988 0.497333 0.031750
0.177445 0.096367 0.486584
0.258821 -0.082793 0.488893
0.091896 0.480433 -0.135504
-0.281227 -0.497324 -0.012294
0.120467 -0.420273 0.264192
0.066506 0.257658 0.424232
0.076604 0.497553 0.029035
0.204579 0.003548 0.495897
0.027989 -0.496230 -0.037069
0.250124 0.460614 -0.193096
0.045609 -0.179633 -0.466419
-0.162066 -0.252720 0.426608
-0.242552 0.146405 -0.478465
-0.098861 0.358578 -0.348522
0.206374 -0.201404 -0.457343
0.222638 0.283625 0.407454
0.076922 0.459047 -0.196588
0.122843 0.271912 0.415542
0.130145 0.075359 0.490201
-0.003265 0.497626 -0.031725
0.164203 -0.481659 -0.126758
0.180216 0.498068 -0.021856
-0.025893 -0.448973 0.212400
-0.277552 -0.004593 -0.500288
-0.105980 0.079083 -0.493932
-0.196140 0.491618 0.080884
0.015837 0.488690 0.096009
-0.109890 0.213155 0.448177
-0.207184 0.498209 0.015709
-0.182304 0.474852 -0.153792
-0.227898 0.341989 -0.364673
-0.169112 0.103566 -0.489335
0.164402 -0.376870 0.322906
-0.052035 0.471370 -0.164692
0.010637 -0.425943 -0.259471
0.130229 -0.433735 0.241866
0.213305 -0.089023 -0.492026
-0.018702 -0.365893 -0.339637
0.243738 0.271641 0.415707
-0.153703 -0.445561 -0.223452
0.089047 0.358758 0.343666
0.163023 0.493044 0.071028
0.157841 0.122503 -0.485063
-0.247978 0.427233 0.254655
0.283131 -0.465923 0.172125
0.256479 -0.278011 0.410609
-0.087973 0.449368 -0.218158
0.003649 0.235139 0.437029
0.013010 0.478470 0.137671
0.155225 -0.070337 -0.495243
-0.074294 -0.186798 0.459211
0.073971 -0.321300 0.377810
0.167192 -0.393286 -0.306976
-0.068855 0.143240 0.474875
0.223083 -0.497001 0.018451
0.058488 -0.448761 0.212873
-0.280092 0.385240 -0.318375
0.074209 -0.486419 0.102491
-0.124010 -0.272085 -0.419161
-0.072966 0.370551 0.331228
0.233901 -0.160728 -0.473513
0.267193 -0.488600 0.091637
-0.206623 0.392954 0.304422
0.286316 -0.240947 -0.437785
0.003803 -0.469941 -0.165321
-0.001142 0.486250 0.107657
0.021670 -0.237657 0.435246
0.089222 -0.458052 -0.196260
-0.008027 -0.493500 -0.065146
0.195861 -0.466908 -0.174116
0.048694 -0.399787 -0.298359
-0.092209 0.151484 0.472360
0.198255 -0.168940 -0.470431
-0.217709 -0.480215 -0.131991
0.261805 0.344235 -0.362486
-0.038290 0.117549 0.481816
-0.262712 0.314630 -0.388766
0.259924 0.498646 -0.008975
-0.193840 0.392163 -0.309693
0.259636 -0.488678 -0.095531
0.260199 -0.225050 -0.446155
0.054399 0.314533 0.384287
-0.041010 -0.172987 0.464705
0.216065 0.462279 0.184225
0.080285 0.320230 -0.383961
-0.070604 0.491763 0.079884
-0.049467 0.456277 0.198622
-0.174759 -0.140770 -0.479669
0.071696 0.490081 -0.093342
-0.265843 -0.456340 0.195983
0.281005 -0.153823 -0.475687
0.026119 0.188428 -0.463312
0.120880 0.173520 -0.469228
-0.032965 0.267278 -0.422725
-0.091788 -0.179826 0.462118
-0.238337 0.262127 0.421508
-0.287373 -0.144455 0.474367
0.226004 -0.364318 0.336764
-0.062670 -0.492331 0.069966
-0.121863 -0.147014 -0.477764
-0.158606 0.495951 0.048808
0.127936 -0.062502 -0.496204
0.255988 0.019760 0.495399
0.108992 0.498195 0.016516
-0.145961 0.187526 0.459489
-0.195901 -0.470076 -0.164930
0.035393 0.012760 -0.499975
-0.004588 -0.037289 -0.498920
-0.150460 0.497436 0.030485
-0.030522 -0.459947 0.187945
-0.034661 -0.354296 0.347340
0.144079 0.094655 -0.491202
-0.279062 -0.104890 0.484490
-0.091035 0.228914 0.440306
0.051797 0.256400 0.424999
-0.205645 0.484706 -0.118366
-0.014494 -0.076662 0.489780
0.256960 -0.404344 0.287762
-0.095888 0.446098 0.220087
0.259035 0.414708 -0.278762
0.219479 0.292903 0.400965
-0.058082 -0.377215 0.322525
0.141673 0.482816 0.121927
0.148365 0.479958 0.132278
-0.105787 0.386478 0.312667
-0.024612 0.064030 -0.496110
-0.058549 0.453659 -0.208594
0.273988 -0.017259 0.495522
0.063973 0.356687 -0.350363
0.158079 0.497359 0.031437
-0.177442 -0.465543 0.173136
-0.013693 0.498450 0.002345
0.141133 0.069815 0.491155
-0.067349 0.091183 -0.491929
0.126128 0.481355 0.127218
0.025784 -0.435906 0.237744
0.014920 0.262193 0.421467
0.044247 -0.472838 0.152681
0.213656 -0.491742 -0.077294
-0.187494 -0.231825 0.438445
0.112374 -0.133699 -0.481827
0.227015 -0.225226 -0.446062
0.270139 -0.459572 -0.192614
-0.269462 -0.047522 -0.497823
0.067837 -0.309425 0.387746
0.125169 -0.111409 0.483124
0.194975 -0.476540 -0.145301
-0.146446 -0.032090 -0.499153
-0.196851 0.059653 -0.496743
-0.254571 -0.488058 -0.098491
-0.225557 0.171411 -0.469956
0.166961 -0.347073 0.354372
-0.113578 0.344144 0.358405
-0.048366 -0.253474 -0.430511
-0.179827 -0.463706 -0.182699
0.198627 -0.351521 -0.354400
-0.175183 0.026464 -0.499644
0.238482 -0.190443 0.457692
-0.149697 -0.056982 0.492628
0.217662 0.310970 -0.391707
-0.236968 -0.372398 -0.332235
0.212659 0.181096 0.461901
-0.132594 0.324751 -0.380081
0.157379 -0.435504 -0.242798
0.141229 -0.358944 -0.346775
-0.071998 0.347795 0.354926
0.080773 -0.448411 -0.217667
0.049022 0.398199 -0.302123
0.120715 0.143554 0.474779
-0.112959 0.484240 0.116767
0.209554 -0.466846 -0.174295
0.183361 -0.220576 -0.448510
0.082325 0.464386 0.179172
-0.037144 -0.448503 -0.217481
-0.089219 -0.395664 -0.303825
-0.288430 -0.121342 0.480747
-0.231703 0.290858 0.402396
0.028383 0.494305 -0.067363
-0.089570 0.204536 0.452044
-0.210020 0.294061 -0.404464
-0.200489 0.435374 -0.245054
0.057473 0.261262 -0.426650
0.266062 0.471360 0.159825
-0.279899 0.488937 -0.099987
-0.167970 -0.439941 0.230080
-0.065938 -0.029135 -0.499286
0.250484 -0.468156 -0.170497
-0.027693 -0.360445 -0.345234
0.002548 -0.110268 0.483363
-0.128338 0.385802 0.313455
0.215613 0.494145 0.063419
0.071415 -0.261806 -0.425432
0.200925 -0.008834 -0.500196
-0.140629 0.495786 0.050843
-0.081850 -0.106862 -0.488465
-0.003283 0.226693 -0.445833
-0.213612 0.168887 0.466482
0.039758 0.278516 -0.415305
-0.176887 0.422552 0.262330
-0.034738 -0.478022 0.135692
0.228860 0.495665 -0.054779
-0.238155 0.325902 -0.379094
-0.207990 -0.312363 0.385478
0.139690 -0.350038 -0.355923
0.267575 -0.105111 0.484443
-0.272627 0.256580 -0.429335
-0.078198 0.344928 -0.361811
-0.202516 -0.239906 0.433956
-0.287901 0.399703 -0.300217
0.129443 0.395845 0.300589
0.082429 0.009091 0.495877
-0.288500 -0.372954 0.327229
-0.216576 -0.491314 -0.080253
-0.229506 0.374162 0.327020
0.065908 -0.061475 0.491977
0.095561 -0.351965 0.349610
-0.001557 0.469899 0.164063
0.039116 -0.402367 -0.294940
-0.233611 0.427055 -0.259103
0.214701 -0.446847 0.216964
0.140834 0.138864 0.476210
-0.028403 -0.120750 0.480911
-0.217869 -0.158253 0.469788
0.190620 0.480313 -0.135897
0.229272 0.231511 -0.443459
0.182213 0.103173 -0.489417
-0.236843 0.025889 0.495124
0.103759 -0.486113 0.103781
0.262182 -0.310126 -0.391338
0.056169 0.148489 -0.477863
-0.227878 -0.011426 -0.500080
-0.256118 -0.495680 -0.043864
-0.259004 0.402314 -0.296484
-0.118209 -0.336989 -0.368310
-0.073602 0.093485 0.487081
0.057395 0.434679 0.241671
0.056385 0.330193 0.371041
-0.189010 -0.160253 0.469098
-0.080890 -0.480722 0.126464
0.146938 0.403308 -0.295062
-0.157508 0.040710 -0.498490
-0.176878 -0.201615 -0.457248
0.000834 -0.403607 0.288816
-0.211972 -0.056301 0.492726
0.001348 -0.481977 0.121186
0.155910 -0.280935 0.408679
-0.135788 -0.461597 0.183654
-0.006059 0.415233 0.273416
-0.119613 0.334680 0.366977
0.076041 0.121603 -0.485312
0.043705 -0.349037 -0.356952
-0.243564 -0.323717 0.375735
-0.165941 0.421627 0.263732
0.157777 -0.468752 0.164584
-0.240808 0.492322 -0.080324
-0.277698 -0.389050 -0.312591
-0.060056 0.490664 0.086589
0.017113 -0.193101 0.456584
-0.155925 -0.323959 -0.380112
0.162217 0.003642 0.495899
0.204418 -0.441815 -0.231053
0.030285 0.433860 0.243099
-0.253947 -0.257021 0.424142
0.257860 -0.363227 0.337968
-0.054271 -0.477465 0.137517
-0.141339 -0.480140 -0.132262
0.154047 0.452167 0.207771
-0.072035 -0.209627 -0.453653
-0.031869 -0.496412 0.031587
0.035514 -0.192441 0.456858
0.017450 -0.456162 0.196381
0.162852 0.442304 0.227788
0.270462 -0.080839 0.489176
-0.044442 -0.308782 -0.392410
0.043446 -0.394802 0.300744
0.050811 0.495912 -0.052493
0.013166 0.229278 0.440115
0.099295 -0.432506 -0.248027
0.107933 0.417607 -0.274600
-0.066980 0.305353 -0.395944
-0.180635 -0.344241 0.357128
-0.040940 -0.039879 0.494120
0.010026 -0.352276 -0.353624
-0.060342 0.150885 0.472543
-0.000763 -0.028922 0.495008
0.147409 -0.474217 -0.152925
-0.143993 -0.087717 -0.492251
0.259540 -0.493263 0.063173
-0.038574 0.379641 0.320636
-0.109133 0.404165 -0.293836
-0.153452 0.375276 -0.330151
0.234111 0.385011 0.314377
0.244102 -0.082279 -0.493187
0.066831 -0.137478 -0.480674
-0.068423 0.343230 -0.363464
-0.178445 0.468755 0.167378
-0.121147 -0.077348 -0.494036
-0.169828 -0.461489 0.183940
-0.233058 0.498356 0.007547
0.178315 0.267172 0.418432
-0.193989 -0.253532 0.426142
0.258906 0.126058 0.479794
0.283787 0.420665 0.265188
0.035450 0.463449 -0.185801
-0.179334 -0.310772 0.386730
-0.191445 0.466562 0.173737
0.048735 0.010849 -0.500009
0.047310 0.447923 -0.221220
0.141525 0.012037 0.495745
0.085071 -0.462400 0.181513
-0.045040 -0.375389 0.324541
0.143741 0.402832 0.291329
0.041301 0.301720 0.394504
-0.118881 0.102874 -0.489480
0.115991 -0.354050 0.347580
-0.106193 -0.310592 -0.390966
-0.171666 0.103376 0.485184
-0.021985 0.475075 0.149057
-0.179489 -0.094744 -0.491041
0.266140 0.059099 -0.496823
-0.133588 0.452496 -0.211187
-0.261039 -0.238786 0.434598
0.233290 -0.043766 -0.498229
0.279011 0.470966 0.160968
-0.084864 0.017644 0.495494
0.155476 -0.269216 -0.420914
-0.062792 0.249205 0.429385
-0.066748 0.258655 0.423624
-0.128533 0.237081 -0.440517
0.027503 0.364805 0.337454
-0.041445 0.463304 0.181767
0.215769 0.053140 -0.497483
-0.016983 -0.462935 0.180088
-0.057977 -0.454331 -0.205185
0.102852 0.001098 -0.500185
0.061500 -0.118917 0.481417
-0.285247 0.401716 0.292808
-0.154012 0.490204 0.088784
0.244176 0.490553 -0.090601
0.172473 0.485897 0.109343
0.284615 -0.353395 0.348217
0.120208 0.022096 0.495294
-0.020205 0.347147 0.355592
-0.209325 0.106011 0.484558
0.167023 -0.386005 -0.316378
-0.056240 0.124171 0.480242
0.167757 -0.397055 0.297919
-0.114792 0.476419 0.145099
0.166609 0.332698 -0.373261
0.152749 0.477745 -0.144311
-0.021828 0.493393 -0.074100
0.141544 -0.418758 -0.270877
-0.228962 -0.444382 0.221646
0.198894 0.498229 0.014604
-0.233028 0.481396 -0.132296
0.013823 0.073000 -0.494812
0.150337 0.470911 0.161129
0.164810 -0.496483 0.029994
-0.138769 -0.178591 -0.466810
-0.090097 -0.430335 0.247688
0.286897 -0.430714 -0.251152
0.188410 0.391794 -0.310155
0.144263 0.384279 0.315230
-0.181028 -0.312321 -0.389587
-0.110686 -0.444531 -0.225541
-0.058026 -0.409513 -0.284881
-0.147660 -0.172086 -0.469251
-0.160645 0.393507 0.303689
-0.290136 0.487222 -0.107780
-0.269861 -0.028404 0.495050
-0.102292 -0.273477 -0.418188
0.230610 0.407815 0.284653
0.243276 -0.287783 -0.408183
-0.105869 0.443201 0.225968
-0.261485 -0.480263 -0.131817
0.022424 -0.489299 0.087577
0.268734 0.494424 0.061485
0.205873 0.403012 0.291089
0.218751 0.498136 0.019762
-0.084716 0.248837 -0.433776
-0.150665 0.201720 -0.457771
0.042958 -0.308907 -0.392310
-0.152341 0.347833 0.354887
0.169583 0.009827 -0.500028
0.084782 -0.251159 -0.431922
-0.168918 0.054799 0.492794
-0.138531 -0.207593 0.450386
-0.087327 0.324622 -0.380192
-0.039395 -0.239133 -0.438740
0.008310 0.310245 0.387706
-0.042884 0.347955 -0.358864
-0.228496 -0.496113 -0.038520
-0.061807 -0.359953 -0.345738
-0.122283 -0.393947 -0.306101
0.285402 0.399992 0.295092
-0.152432 -0.139600 -0.480026
0.194232 -0.357305 0.344411
-0.101634 -0.482003 -0.125514
-0.283679 -0.474706 -0.151511
0.258587 0.489267 -0.098070
0.199220 0.265863 0.419230
0.257127 -0.463156 0.179497
0.007128 -0.398203 0.296479
0.010134 0.002805 0.495884
0.135961 0.006526 -0.500087
-0.027611 0.103425 0.485172
0.261241 0.230526 -0.443944
0.222297 0.446960 0.218340
-0.178815 -0.409743 -0.284533
0.061241 0.479838 -0.137453
0.241714 -0.481676 -0.126698
-0.017902 0.136485 -0.481204
0.056108 -0.388939 0.308097
0.044067 -0.496291 -0.036316
0.025127 0.272266 0.415326
-0.013267 -0.481595 0.122792
-0.022891 -0.169197 -0.470335
0.140736 0.497526 0.029366
-0.070948 -0.497604 0.003213
0.016996 -0.164143 -0.472231
-0.275338 0.457823 -0.199316
0.113904 0.474000 0.152175
-0.263548 -0.191813 -0.461647
0.225143 0.497319 0.031932
-0.081822 0.211298 0.449010
0.212199 -0.402793 -0.294375
-0.228409 -0.221343 0.443611
-0.086188 -0.204594 -0.455912
-0.263057 0.487554 -0.106384
0.194290 -0.486276 -0.106995
0.005762 0.017603 -0.499888
0.199633 -0.470717 0.159348
0.167568 -0.265659 -0.423083
0.018603 -0.494261 -0.059884
-0.075702 0.275993 0.412792
0.093956 -0.169374 -0.470269
0.066208 -0.207173 0.450593
-0.288193 -0.434699 -0.244202
-0.223903 0.295509 -0.403371
0.081205 0.137382 0.476663
-0.187685 -0.467867 -0.171336
0.256898 0.265627 0.419374
0.128422 0.491480 0.081839
-0.272738 -0.152538 -0.476079
0.133252 0.265956 0.419173
0.067329 0.339810 -0.366793
0.206273 -0.434387 0.240629
0.066444 -0.492553 0.068675
-0.112845 0.086638 0.488259
-0.059822 -0.095618 0.486432
0.249206 -0.429211 -0.253771
-0.123416 -0.216435 -0.450598
-0.084943 -0.164712 0.467560
-0.164911 -0.494595 0.050846
-0.008663 -0.484162 0.111988
-0.153054 -0.247093 -0.434402
0.095195 0.083781 0.488751
-0.059139 0.018409 -0.499873
-0.246624 -0.172493 0.464876
-0.046860 0.229062 -0.444665
-0.277577 -0.209418 -0.453747
-0.166131 -0.473373 0.150927
0.055226 -0.395939 0.299318
-0.144939 -0.326274 -0.378016
0.107692 0.416061 0.272161
0.054885 -0.469495 0.162605
-0.242444 -0.155303 0.470805
0.080689 0.401658 -0.297421
0.167011 0.398091 0.297612
-0.087533 0.209677 -0.454217
0.053108 0.481866 -0.130319
0.004481 -0.024904 -0.499475
-0.215405 0.387360 -0.315717
-0.076359 0.186412 -0.464153
