-0.290288 0.090469 -0.449702
-0.290288 -0.440680 -0.087339
-0.290288 -0.435020 -0.134484
-0.290288 -0.289417 -0.343264
-0.290288 -0.076049 -0.463880
-0.290288 0.201506 -0.457844
-0.290288 -0.058499 0.491497
-0.290288 -0.266123 -0.405254
-0.290288 0.458592 -0.142113
-0.290288 -0.398089 -0.235126
-0.290288 0.217149 0.390886
-0.290288 -0.434198 0.097399
-0.290288 -0.186011 -0.410865
-0.290288 0.397485 -0.237889
-0.290288 0.131364 0.440466
-0.290288 0.381678 0.291571
-0.290288 -0.378332 0.279089
-0.290288 -0.329645 -0.306177
-0.290288 -0.449067 -0.126559
-0.290288 0.122835 0.476870
-0.290288 0.408169 0.194385
-0.290288 0.006166 -0.459306
-0.290288 -0.424635 -0.207306
-0.290288 -0.007198 0.491307
-0.290288 -0.020787 -0.474539
-0.290288 -0.409276 0.228172
-0.290288 0.486046 0.107948
-0.290288 -0.403772 -0.275615
-0.290288 0.357401 -0.348535
-0.290288 -0.482522 0.045776
-0.290288 0.210416 -0.439040
-0.290288 -0.470330 0.010426
-0.290288 0.391412 0.214424
-0.290288 0.485589 -0.032652
-0.290288 0.336449 -0.346327
-0.290288 0.052123 0.453652
-0.290288 -0.061495 -0.491218
-0.290288 0.477201 0.073935
-0.290288 -0.377869 0.282483
-0.290288 -0.005123 0.463176
-0.290288 -0.296681 -0.396809
-0.290288 -0.059063 -0.473596
-0.290288 0.449834 0.164093
-0.290288 -0.443400 0.083517
-0.290288 -0.014924 0.484110
-0.290288 -0.323285 0.320804
-0.290288 -0.234138 -0.426712
-0.290288 0.457928 0.037055
-0.290288 0.385543 0.313151
-0.290288 0.275840 -0.380823
-0.290288 -0.002333 -0.469882
-0.290288 -0.461913 -0.042832
-0.290288 -0.410688 0.211765
-0.290288 0.333583 0.339876
-0.290288 -0.418497 0.184937
-0.290288 0.447140 -0.073353
-0.290288 0.031430 0.488445
-0.290288 -0.354290 0.343018
-0.290288 0.312246 0.351810
-0.290288 0.246844 0.413368
-0.290288 0.085996 -0.451508
-0.290288 0.492270 -0.041966
-0.290288 -0.463781 -0.101194
-0.290288 -0.116649 -0.485947
-0.290288 -0.079942 -0.461186
-0.290288 0.302221 -0.397065
-0.290288 0.441886 0.098121
-0.290288 -0.413840 -0.177585
-0.290288 -0.310153 -0.339097
-0.290288 -0.425860 0.135029
-0.290288 0.450830 -0.040343
-0.290288 0.475927 0.070644
-0.290288 -0.142447 0.446784
-0.290288 -0.433961 0.167903
-0.290288 0.360162 0.275586
-0.290288 -0.488281 -0.038975
-0.290288 -0.358122 -0.337240
-0.290288 -0.384649 -0.304232
-0.290288 -0.354874 0.331376
-0.290288 -0.286881 0.352318
-0.290288 0.127953 0.431353
-0.290288 -0.308491 0.352728
-0.290288 0.301883 0.342218
-0.290288 -0.309836 0.343293
-0.290288 0.155075 0.464086
-0.290288 0.448815 0.051668
-0.290288 0.432764 -0.164609
-0.290288 -0.393318 -0.212164
-0.290288 -0.328105 -0.368505
-0.290288 0.157227 -0.474055
-0.290288 -0.457954 -0.193350
-0.290288 0.473198 0.049621
-0.290288 -0.046358 0.468106
-0.290288 -0.301904 0.374438
-0.290288 -0.158762 -0.434865
-0.290288 -0.102075 0.476822
-0.290288 -0.468146 -0.129193
-0.290288 -0.223758 -0.414959
-0.290288 0.272103 0.389004
-0.290288 -0.328148 0.360431
-0.290288 0.168781 -0.419164
-0.290288 0.393599 0.268686
-0.290288 0.007399 0.446749
-0.290288 0.446496 0.136086
-0.290288 0.439814 0.116876
-0.290288 0.156752 0.444601
-0.290288 0.009410 0.454930
-0.290288 -0.007966 -0.476292
-0.290288 0.094195 0.464869
-0.290288 0.477956 0.047550
-0.290288 -0.234634 -0.422714
-0.290288 -0.450910 0.161105
-0.290288 0.447282 -0.215001
-0.290288 0.362235 0.298996
-0.290288 0.237506 -0.412743
-0.290288 0.000782 -0.447649
-0.290288 -0.153172 -0.427980
-0.290288 0.306630 -0.360570
-0.290288 -0.477992 -0.029932
-0.290288 -0.416760 -0.183005
-0.290288 0.119550 0.430645
-0.290288 -0.266908 0.390783
-0.290288 0.494093 -0.068968
-0.290288 -0.026940 -0.483052
-0.290288 -0.051189 0.458402
-0.290288 -0.430356 -0.167558
-0.290288 0.440058 -0.141783
-0.290288 -0.215973 -0.434805
-0.290288 0.151432 -0.445953
-0.290288 0.094738 -0.490714
-0.290288 0.122167 -0.439536
-0.290288 0.244074 0.403734
-0.290288 0.453806 -0.192455
-0.290288 0.279442 -0.351214
-0.290288 -0.060465 0.455134
-0.290288 0.164300 0.440489
-0.290288 -0.056377 -0.459821
-0.290288 0.420732 0.173313
-0.290288 -0.451221 0.202978
-0.290288 -0.433638 0.132314
-0.290288 -0.305097 0.350688
-0.290288 -0.324639 -0.375299
-0.290288 -0.265409 0.358060
-0.290288 0.160716 0.460769
-0.290288 -0.212383 0.407015
-0.290288 0.419262 0.267212
-0.290288 -0.479945 0.128663
-0.290288 0.251459 -0.382482
-0.290288 0.097126 -0.445375
-0.290288 0.236823 -0.433449
-0.290288 -0.259295 -0.402662
-0.290288 0.001252 -0.477251
-0.290288 0.422380 0.158828
-0.290288 -0.181087 -0.451091
-0.290288 0.096202 -0.480058
-0.290288 0.043176 0.445420
-0.290288 -0.206383 -0.451062
-0.290288 -0.179962 0.452228
-0.290288 0.079782 -0.446533
-0.290288 -0.429596 0.131535
-0.290288 0.283546 -0.359407
-0.290288 0.334059 -0.343318
-0.290288 0.459604 0.071243
-0.290288 -0.178069 0.406525
-0.290288 0.310951 0.359219
-0.290288 -0.387978 0.235834
-0.290288 -0.172945 0.464638
-0.290288 -0.219722 0.384866
-0.290288 -0.098036 -0.484994
-0.290288 -0.451928 0.032555
-0.290288 0.030472 -0.447432
-0.290288 0.263119 0.358578
-0.290288 -0.126553 0.447421
-0.290288 0.325586 -0.307190
-0.290288 0.128022 -0.476540
-0.290288 0.458901 0.189224
-0.290288 0.421813 -0.230440
-0.290288 0.474004 -0.061980
-0.290288 0.376747 0.276940
-0.290288 0.440979 0.127148
-0.290288 -0.392610 0.261161
-0.290288 0.341643 -0.293050
-0.290288 0.016873 0.487089
-0.290288 -0.255206 -0.389343
-0.290288 -0.358568 -0.347123
-0.290288 0.320415 0.329925
-0.290288 0.018804 0.495391
-0.290288 -0.459498 -0.102735
-0.290288 0.431237 -0.136065
-0.290288 0.348247 -0.286098
-0.290288 0.351305 0.301676
-0.290288 0.344644 -0.330309
-0.290288 0.411330 -0.185933
-0.290288 0.213338 0.446883
-0.290288 0.472938 0.113975
-0.290288 0.104430 0.439464
-0.290288 0.018702 -0.455580
-0.290288 0.044378 -0.451496
-0.290288 0.424915 0.151549
-0.290288 0.456726 -0.177302
-0.290288 -0.149856 -0.421232
-0.290288 -0.121555 0.459009
-0.290288 0.375075 0.280882
-0.290288 -0.469575 0.150365
-0.290288 -0.391760 -0.279273
-0.290288 -0.068757 -0.485174
-0.290288 0.424909 0.185501
-0.290288 0.425450 0.165342
-0.290288 0.315513 0.360406
-0.290288 -0.437723 0.182116
-0.290288 -0.448603 -0.081184
-0.290288 0.314074 0.332899
-0.290288 0.269748 0.384362
-0.290288 -0.335428 -0.309929
-0.290288 0.376096 -0.268759
-0.290288 0.106865 -0.452698
-0.290288 0.463923 -0.084781
-0.290288 0.443651 -0.078734
-0.290288 -0.339559 -0.311406
-0.290288 0.294550 -0.346653
-0.290288 0.118417 0.427650
-0.290288 -0.233859 0.392027
-0.290288 0.442514 0.186748
-0.290288 -0.423105 0.159236
-0.290288 0.117659 -0.452730
-0.290288 -0.109220 -0.485771
-0.290288 0.411721 -0.196657
-0.290288 0.251551 0.376182
-0.290288 -0.460256 0.004332
-0.290288 -0.431404 -0.113272
-0.290288 0.379747 0.238270
-0.290288 0.115210 0.430116
-0.290288 0.211234 0.441339
-0.290288 0.278856 0.367130
-0.290288 0.471389 -0.059842
-0.290288 -0.445685 0.051857
-0.290288 0.314018 -0.384657
-0.290288 0.346574 -0.352337
-0.290288 -0.097142 -0.450835
-0.290288 0.489093 -0.025478
-0.290288 0.441745 -0.176586
-0.290288 -0.033733 -0.489174
-0.290288 0.443917 0.066925
-0.290288 -0.333217 -0.356085
-0.290288 0.310904 -0.355541
-0.290288 0.480130 -0.058062
-0.290288 -0.437623 -0.150546
-0.290288 -0.328265 0.352234
-0.290288 0.331394 0.351641
-0.290288 -0.448029 0.192232
-0.290288 0.200794 -0.415132
-0.290288 -0.155340 -0.436693
-0.290288 0.014010 0.495640
-0.290288 -0.446498 0.164135
-0.290288 -0.353935 0.303627
-0.290288 -0.285935 -0.362168
-0.290288 0.439559 0.176365
-0.290288 0.080136 -0.460990
-0.290288 0.405186 0.234288
-0.290288 0.062281 0.458661
-0.290288 -0.194739 -0.410204
-0.290288 0.107028 -0.473086
-0.290288 0.457251 0.195175
-0.290288 -0.017798 0.463474
-0.290288 -0.318058 0.378802
-0.290288 -0.045264 0.487757
-0.290288 -0.360181 -0.313524
-0.290288 -0.009112 -0.470368
-0.290288 -0.023991 -0.499043
-0.290288 0.461239 -0.133859
-0.290288 0.422548 0.232312
-0.290288 -0.003167 -0.465326
-0.290288 0.307142 0.329956
-0.290288 0.163359 -0.455061
-0.290288 0.032322 0.447488
-0.290288 0.326153 0.333640
-0.290288 -0.456846 0.014645
-0.290288 -0.178870 -0.436661
-0.290288 0.357514 0.304362
-0.290288 -0.071601 -0.473998
-0.290288 -0.282537 -0.395278
-0.290288 0.416357 0.235384
-0.290288 0.434658 0.156931
-0.290288 -0.394311 -0.254252
-0.290288 0.453691 0.163544
-0.290288 -0.278287 0.402668
-0.290288 -0.149740 0.441626
-0.290288 -0.301510 0.333143
-0.290288 -0.298957 -0.375241
-0.290288 -0.199560 -0.439983
-0.290288 -0.488853 0.039690
-0.290288 -0.120265 0.443815
-0.290288 -0.490775 0.001475
-0.290288 0.343907 0.286338
-0.290288 -0.299631 -0.378623
-0.290288 -0.208530 0.444176
-0.290288 -0.468625 0.007612
-0.290288 0.466665 0.155718
-0.290288 0.075591 -0.442474
-0.290288 0.443044 0.094631
-0.290288 0.204395 -0.442142
-0.290288 0.449335 -0.075902
-0.290288 -0.382436 -0.245194
-0.290288 0.154978 0.422184
-0.290288 -0.221064 -0.425924
-0.290288 0.427904 -0.127718
-0.290288 -0.463437 0.065204
-0.290288 0.204993 -0.420759
-0.290288 -0.181762 -0.435483
-0.290288 0.161462 0.469075
-0.290288 -0.091888 -0.480800
-0.290288 0.475906 -0.045179
-0.290288 -0.033309 0.494533
-0.290288 -0.048198 0.462380
-0.290288 -0.454993 0.028544
-0.290288 -0.210732 0.431102
-0.290288 -0.317599 0.351841
-0.290288 0.089450 0.434892
-0.290288 -0.288337 0.392473
-0.290288 -0.487875 -0.033910
-0.290288 -0.438497 -0.190961
-0.290288 -0.071422 0.453803
-0.290288 -0.168210 -0.437664
-0.290288 0.459362 -0.138118
-0.290288 0.452954 -0.031589
-0.290288 0.066835 0.444713
-0.290288 0.328264 -0.336014
-0.290288 -0.129908 0.452933
-0.290288 -0.440643 -0.142880
-0.290288 0.406749 -0.266561
-0.290288 -0.482833 -0.087754
-0.290288 -0.474508 -0.090763
-0.290288 0.309115 -0.373443
-0.290288 -0.438102 -0.167504
-0.290288 0.160134 -0.470902
-0.290288 -0.275496 0.370594
-0.290288 -0.409678 -0.203801
-0.290288 -0.287747 0.398143
-0.290288 0.346036 0.312920
-0.290288 -0.010814 -0.479086
-0.290288 -0.118435 -0.455879
-0.290288 -0.068929 -0.449707
-0.290288 0.174299 0.414010
-0.290288 0.438099 0.213892
-0.290288 0.078030 0.474389
-0.290288 0.227727 -0.419596
-0.290288 0.320340 -0.361490
-0.290288 0.303708 0.356890
-0.290288 -0.364609 -0.318249
-0.290288 0.336240 -0.313133
-0.290288 0.178340 -0.412684
-0.290288 0.347504 0.301751
-0.290288 -0.357293 -0.268057
-0.290288 0.323915 -0.370261
-0.290288 -0.423837 -0.254246
-0.290288 0.003132 -0.457447
-0.290288 0.462296 0.080739
-0.290288 0.417378 0.227348
-0.290288 0.480993 -0.077090
-0.290288 -0.450139 -0.186187
-0.290288 -0.251782 0.402099
-0.290288 0.165914 0.467043
-0.290288 0.464520 0.143033
-0.290288 -0.039057 0.474362
-0.290288 -0.434306 -0.190354
-0.290288 0.383714 -0.301759
-0.290288 0.102690 -0.450376
-0.290288 -0.148023 -0.463338
-0.290288 -0.420244 -0.176417
-0.290288 0.113002 -0.448321
-0.290288 0.025217 0.455513
-0.290288 -0.358840 -0.279188
-0.290288 0.388409 0.245096
-0.290288 -0.487055 0.019263
-0.290288 0.034938 0.475275
-0.290288 -0.367326 0.291546
-0.290288 -0.188391 0.437191
-0.290288 -0.025283 -0.462480
-0.290288 0.193787 -0.420410
-0.290288 -0.186319 -0.452272
-0.290288 0.147532 -0.478046
-0.290288 0.038241 -0.498327
-0.290288 -0.376756 0.244287
-0.290288 0.377992 0.254851
-0.290288 0.204627 0.395632
-0.290288 -0.403088 -0.195042
-0.290288 -0.186001 0.427918
-0.290288 -0.342780 -0.289305
-0.290288 0.433996 0.219390
-0.290288 0.445484 -0.148786
-0.290288 0.125964 -0.441742
-0.290288 -0.357330 0.271555
-0.290288 0.380235 0.258067
-0.290288 0.460780 -0.001417
-0.290288 0.111829 -0.434141
-0.290288 0.453730 -0.189314
-0.290288 0.222361 -0.430105
-0.290288 0.241756 0.398188
-0.290288 -0.351243 0.283479
-0.290288 0.077901 -0.449586
-0.290288 0.458737 -0.068507
-0.290288 -0.314158 0.313061
-0.290288 0.095839 0.472834
-0.290288 -0.235876 0.423243
-0.290288 -0.175493 -0.443126
-0.290288 0.442515 0.175382
-0.290288 0.414663 -0.240093
-0.290288 0.341016 -0.310252
-0.290288 -0.070255 -0.460483
-0.290288 -0.002557 -0.492153
-0.290288 0.316217 -0.347902
-0.290288 0.093768 0.486679
-0.290288 -0.027611 -0.479479
-0.290288 -0.010205 0.446754
-0.290288 0.023821 0.443737
-0.290288 0.130744 0.445258
-0.290288 0.482696 0.104395
-0.290288 -0.340134 -0.340482
-0.290288 -0.470735 0.018654
-0.290288 0.414063 -0.262091
-0.290288 -0.428046 0.216944
-0.290288 -0.494069 -0.056069
-0.290288 -0.460051 -0.160825
-0.290288 0.451838 -0.137897
-0.290288 0.363160 -0.293074
-0.290288 -0.302874 -0.356291
-0.290288 0.129260 0.461462
-0.290288 0.406428 0.241361
-0.290288 0.419339 0.251251
-0.290288 -0.127056 0.435569
-0.290288 -0.042882 0.492698
-0.290288 -0.043353 0.460121
-0.290288 -0.471091 0.069630
-0.290288 -0.121822 0.454404
-0.290288 -0.337271 -0.331736
-0.290288 -0.456353 -0.146176
-0.290288 0.062741 -0.464470
-0.290288 0.264972 -0.414401
-0.290288 -0.384832 0.227406
-0.290288 -0.442987 -0.072116
-0.290288 -0.322268 -0.334167
-0.290288 -0.426935 0.196066
-0.290288 0.359569 0.279348
-0.290288 -0.373037 -0.330114
-0.290288 0.450811 0.152025
-0.290288 -0.457854 0.061775
-0.290288 0.383573 0.235599
-0.290288 0.366369 0.267444
-0.290288 0.471829 0.117503
-0.290288 -0.449021 -0.095337
-0.290288 0.272119 -0.387063
-0.290288 -0.363944 0.336441
-0.290288 0.027990 0.463918
-0.290288 -0.313274 -0.388225
-0.290288 0.131555 -0.455957
-0.290288 -0.452783 0.044536
-0.290288 0.450019 0.008510
-0.290288 -0.020919 -0.447280
-0.290288 0.184519 -0.447119
-0.290288 0.108092 -0.435081
-0.290288 0.409424 -0.204180
-0.290288 -0.454050 0.154766
-0.290288 -0.169999 0.412799
-0.290288 0.365601 -0.333191
-0.290288 -0.335892 0.297001
-0.290288 0.452660 -0.162381
-0.290288 0.428033 -0.180165
-0.290288 0.270838 0.365476
-0.290288 -0.450554 0.146319
-0.290288 -0.395142 -0.293697
-0.290288 -0.438656 0.215249
-0.290288 -0.230418 0.395659
-0.290288 0.359808 0.322906
-0.290288 -0.386426 0.284948
-0.290288 -0.146844 0.455625
-0.290288 -0.229542 -0.420496
-0.290288 -0.355491 -0.279830
-0.290288 0.458439 -0.030805
-0.290288 0.425767 0.244847
-0.290288 0.314410 -0.325387
-0.290288 0.229111 0.395437
-0.290288 -0.296002 0.340622
-0.290288 -0.193150 0.456463
-0.290288 -0.452140 0.054691
-0.290288 0.020564 -0.490308
-0.290288 -0.354809 -0.320673
-0.290288 0.000274 0.470699
-0.290288 -0.228132 -0.389535
-0.290288 -0.440895 0.131197
-0.290288 -0.074441 0.470048
-0.290288 -0.154141 0.448221
-0.290288 0.418517 0.203739
-0.290288 0.388694 0.225472
-0.290288 0.048462 0.451209
-0.290288 0.452850 -0.080846
-0.290288 -0.418368 -0.245094
-0.290288 0.345293 0.351788
-0.290288 0.229127 0.401552
-0.290288 -0.423399 -0.241254
-0.290288 0.412387 0.241559
-0.290288 -0.047697 0.480290
-0.290288 0.317274 -0.343838
-0.290288 -0.048852 -0.480827
-0.290288 0.343587 -0.316823
-0.290288 0.396141 0.257454
-0.290288 0.281900 0.407496
-0.290288 0.453113 0.100643
-0.290288 -0.446011 0.181771
-0.290288 0.034454 -0.446209
-0.290288 -0.240990 0.377991
-0.290288 0.473585 -0.018189
-0.290288 0.488474 -0.090268
-0.290288 -0.421605 0.190861
-0.290288 0.289241 -0.350932
-0.290288 0.472142 0.125546
-0.290288 0.209459 0.413407
-0.290288 0.354044 0.299281
-0.290288 0.446095 -0.008561
-0.290288 -0.415138 -0.219614
-0.290288 0.324213 0.322309
-0.290288 0.047390 -0.490776
-0.290288 0.295507 0.358274
-0.290288 0.469008 -0.101061
-0.290288 -0.177291 0.409933
-0.290288 0.415355 0.230305
-0.290288 0.447866 -0.029125
-0.290288 0.456819 0.121271
-0.290288 0.436999 -0.094304
-0.290288 -0.306999 0.320672
-0.290288 -0.454957 -0.028723
-0.290288 -0.401865 -0.292473
-0.290288 0.187831 0.423866
-0.290288 0.447511 -0.001097
-0.290288 0.210665 -0.412601
-0.290288 -0.487552 -0.100285
-0.290288 0.429920 -0.195468
-0.290288 0.233287 -0.442229
-0.290288 -0.460990 0.047751
-0.290288 -0.455550 0.187840
-0.290288 0.166848 0.411350
-0.290288 0.398292 -0.242951
-0.290288 0.313385 -0.388871
-0.290288 0.456762 0.113470
-0.290288 0.295300 0.346159
-0.290288 -0.251188 -0.406391
-0.290288 -0.193725 0.433345
-0.290288 -0.323745 0.375281
-0.290288 -0.345179 0.319567
-0.290288 0.118465 -0.484101
-0.290288 0.440139 0.159514
-0.290288 -0.402909 -0.283862
-0.290288 0.450860 0.066367
-0.290288 -0.182822 -0.411943
-0.290288 0.143730 0.455247
-0.290288 -0.111304 -0.466706
-0.290288 0.025227 0.470582
-0.290288 -0.438165 -0.154440
-0.290288 0.431819 -0.243947
-0.290288 -0.369473 0.330282
-0.290288 0.092562 -0.487710
-0.290288 0.402666 0.269350
-0.290288 -0.043907 -0.475414
-0.290288 0.465587 0.073686
-0.290288 0.239962 -0.433473
-0.290288 -0.190074 0.441886
-0.290288 -0.177070 -0.466998
-0.290288 -0.361619 0.293257
-0.290288 -0.445147 -0.026587
-0.290288 -0.215089 -0.444855
-0.290288 -0.371185 0.251517
-0.290288 0.381062 -0.303779
-0.290288 -0.437005 0.126235
-0.290288 0.160368 0.428209
-0.290288 -0.096582 0.469002
-0.290288 0.054919 -0.454841
-0.290288 -0.348209 0.329559
-0.290288 0.308901 0.355949
-0.290288 -0.380501 0.263543
-0.290288 0.398570 0.293423
-0.290288 -0.221635 0.413139
-0.290288 0.391223 -0.242017
-0.290288 -0.426191 -0.228554
-0.290288 -0.475782 0.075066
-0.290288 -0.241972 0.385945
-0.290288 -0.047871 -0.468103
-0.290288 0.420237 -0.203568
-0.290288 0.170630 -0.422748
-0.290288 -0.445621 -0.155520
-0.290288 -0.162776 -0.428376
-0.290288 -0.421491 0.237645
-0.290288 -0.482269 0.072631
-0.290288 -0.384417 0.288043
-0.290288 0.320235 -0.319615
-0.290288 0.136612 -0.427214
-0.290288 -0.191542 -0.455273
-0.290288 0.063526 -0.459187
-0.290288 0.490717 0.010825
-0.290288 -0.316007 -0.377150
-0.290288 0.234684 0.394996
-0.290288 -0.405833 0.243793
-0.290288 -0.198620 0.440006
-0.290288 -0.466680 0.169597
-0.290288 0.478029 0.093067
-0.290288 -0.173396 -0.457316
-0.290288 -0.090260 -0.460178
-0.290288 -0.237638 -0.405606
-0.290288 0.040115 -0.453327
-0.290288 0.464513 0.083496
-0.290288 0.054098 -0.462575
-0.290288 0.371553 0.247216
-0.290288 -0.266742 -0.368755
-0.290288 0.328650 -0.349499
-0.290288 -0.231488 0.384530
-0.290288 0.249115 0.421578
-0.290288 -0.465559 -0.075396
-0.290288 0.079322 -0.487357
-0.290288 -0.037919 0.453621
-0.290288 0.115974 0.475137
-0.290288 0.402874 0.219936
-0.290288 0.278128 0.350116
-0.290288 0.365813 -0.285264
-0.290288 0.488422 0.096990
-0.290288 0.184840 -0.418109
-0.290288 0.081986 -0.491421
-0.290288 0.269544 0.402851
-0.290288 -0.317677 0.348217
-0.290288 0.000863 0.483513
-0.290288 -0.008836 0.452802
-0.290288 0.352127 -0.280059
-0.290288 0.272474 -0.382661
-0.290288 0.042664 -0.479306
-0.290288 -0.330801 0.362737
-0.290288 -0.100872 0.484279
-0.290288 -0.248783 -0.386060
-0.290288 0.044994 0.481546
-0.290288 0.441947 -0.064205
-0.290288 0.155052 -0.419785
-0.290288 0.270168 -0.396065
-0.290288 -0.343589 -0.314153
-0.290288 0.240711 -0.405565
-0.290288 0.429843 -0.228661
-0.290288 0.471157 -0.071200
-0.290288 0.105717 -0.460635
-0.290288 0.184285 -0.442226
-0.290288 -0.067199 0.460092
-0.290288 0.477346 0.138787
-0.290288 0.371040 0.295577
-0.290288 -0.215277 0.409630
-0.290288 -0.133566 0.455473
-0.290288 0.245863 -0.393508
-0.290288 0.011260 -0.479822
-0.290288 -0.221131 0.406389
-0.290288 0.021372 -0.487009
-0.290288 0.480229 -0.110968
-0.290288 -0.455247 0.007242
-0.290288 -0.148368 -0.455797
-0.290288 0.387607 0.306186
-0.290288 0.363408 0.326919
-0.290288 -0.381278 -0.303820
-0.290288 -0.321302 -0.310303
-0.290288 0.448721 -0.102300
-0.290288 0.142585 0.430815
-0.290288 0.051813 -0.478760
-0.290288 0.171869 0.445680
-0.290288 -0.345703 0.352641
-0.290288 0.286655 -0.381184
-0.290288 0.234043 0.390691
-0.290288 0.237688 -0.393391
-0.290288 0.188760 -0.444868
-0.290288 0.458744 -0.038451
-0.290288 0.413720 0.174196
-0.290288 -0.438373 -0.123223
-0.290288 0.472504 0.141264
-0.290288 0.452649 -0.102275
-0.290288 0.299781 0.383193
-0.290288 0.216616 -0.423932
-0.290288 0.445518 -0.081761
-0.290288 0.306193 -0.379421
-0.290288 0.397055 0.201451
-0.290288 0.116535 -0.439463
-0.290288 0.053269 -0.457992
-0.290288 -0.444648 0.027430
-0.290288 -0.023921 0.469619
-0.290288 -0.160674 -0.454869
-0.290288 0.072251 -0.479194
-0.290288 -0.348750 -0.300899
-0.290288 0.072473 -0.485766
-0.290288 0.022044 -0.467864
-0.290288 -0.243094 -0.419852
-0.290288 0.325605 -0.378791
-0.290288 0.453611 0.188273
-0.290288 0.363854 -0.319613
-0.290288 -0.296805 -0.360338
-0.290288 -0.488170 -0.096013
-0.290288 0.396822 0.284943
-0.290288 0.399893 0.216485
-0.290288 0.355605 0.345033
-0.290288 -0.396333 -0.301599
-0.290288 0.446517 -0.077191
-0.290288 0.430764 0.206390
-0.290288 -0.353704 0.273316
-0.290288 -0.379461 -0.242114
-0.290288 -0.424697 0.245115
-0.290288 0.425589 -0.221555
-0.290288 0.150046 0.453845
-0.290288 0.342454 0.315209
-0.290288 -0.055123 0.457710
-0.290288 0.344509 0.355984
-0.290288 0.477454 0.050784
-0.290288 0.208603 -0.419656
-0.290288 -0.018050 0.455071
-0.290288 -0.446391 -0.117107
-0.290288 -0.426940 -0.256608
-0.290288 -0.469664 -0.164647
-0.290288 0.433378 -0.240540
-0.290288 0.181762 -0.415796
-0.290288 -0.438360 0.110754
-0.290288 0.355145 -0.273409
-0.290288 -0.111012 -0.473374
-0.290288 -0.366536 -0.335571
-0.290288 0.413546 0.164606
-0.290288 -0.190052 -0.410500
-0.290288 -0.366770 -0.291801
-0.290288 -0.451787 0.110861
-0.290288 0.313781 -0.345211
-0.290288 -0.481152 -0.113410
-0.290288 0.003799 0.472644
-0.290288 -0.471929 0.142911
-0.290288 -0.353451 -0.296433
-0.290288 -0.085084 0.478033
-0.290288 0.177968 0.459291
-0.290288 -0.480760 0.068793
-0.290288 -0.422121 -0.164472
-0.290288 0.019340 -0.452595
-0.290288 -0.288008 -0.358662
-0.290288 0.031560 0.477731
-0.290288 -0.296885 0.386554
-0.290288 0.442505 0.166049
-0.290288 0.044471 -0.496855
-0.290288 -0.319914 -0.361064
-0.290288 0.190881 0.433803
-0.290288 0.131421 -0.432149
-0.290288 -0.467936 0.058089
-0.290288 -0.081144 0.449318
-0.290288 0.133205 0.423156
-0.290288 -0.095150 -0.466287
-0.290288 -0.194681 -0.425334
-0.290288 -0.367783 -0.306755
-0.290288 0.279417 -0.403079
-0.290288 0.489878 -0.092925
-0.290288 -0.101058 0.473347
-0.290288 -0.382269 -0.255566
-0.290288 0.270642 0.397488
-0.290288 0.042424 -0.470909
-0.290288 0.316137 0.367154
-0.290288 -0.046367 0.484192
-0.290288 -0.334418 0.326201
-0.290288 0.346449 -0.289773
-0.290288 -0.116759 0.441022
-0.290288 -0.332533 -0.316365
-0.290288 -0.090178 0.474275
-0.290288 -0.479886 -0.020264
-0.290288 -0.338634 0.289717
-0.290288 -0.488956 -0.016281
-0.290288 0.396194 0.222064
-0.290288 0.470976 0.131791
-0.290288 -0.162961 0.455808
-0.290288 -0.109100 0.435722
-0.290288 0.116313 0.434536
-0.290288 -0.442526 -0.148421
-0.290288 -0.403481 -0.190842
-0.290288 0.380953 0.245472
-0.290288 0.011111 0.467861
-0.290288 -0.467146 0.003344
-0.290288 -0.415946 0.166106
-0.290288 0.348107 0.325831
-0.290288 0.014027 0.480789
-0.290288 0.266986 0.371596
-0.290288 0.475283 0.110869
-0.290288 -0.377738 -0.306052
-0.290288 -0.209941 -0.402423
-0.290288 0.476605 0.119236
-0.290288 0.459840 0.144187
-0.290288 -0.454580 0.081618
-0.290288 0.022065 0.457452
-0.290288 0.169962 0.451299
-0.290288 -0.364267 -0.321554
-0.290288 0.295546 0.336287
-0.290288 0.141196 0.420467
-0.290288 0.167014 -0.416139
-0.290288 0.130062 -0.440291
-0.290288 -0.344002 -0.325950
-0.290288 0.283042 -0.369029
-0.290288 0.210660 0.421378
-0.290288 0.461628 0.019811
-0.290288 -0.452939 0.184350
-0.290288 -0.320400 0.307415
-0.290288 0.282198 0.365260
-0.290288 -0.253499 -0.412096
-0.290288 -0.406827 0.272627
-0.290288 -0.434962 0.195259
-0.290288 -0.326244 0.316655
-0.290288 0.438209 -0.155705
-0.290288 0.140069 -0.442384
-0.290288 0.208272 -0.432025
-0.290288 -0.404772 0.228663
-0.290288 0.464713 -0.107237
-0.290288 0.431768 -0.139680
-0.290288 0.054531 -0.444646
-0.290288 -0.145719 -0.473119
-0.290288 0.186619 -0.458923
-0.290288 -0.022618 -0.470414
-0.290288 -0.141063 0.457726
-0.290288 -0.351201 0.297983
-0.290288 -0.421028 0.153519
-0.290288 -0.187311 -0.431218
-0.290288 0.164126 0.430752
-0.290288 0.278895 -0.398246
-0.290288 -0.068105 -0.471127
-0.290288 -0.202788 0.397208
-0.290288 0.373537 0.251027
-0.290288 0.300310 -0.336192
-0.290288 -0.404709 -0.209638
-0.290288 -0.219249 -0.418093
-0.290288 0.086020 0.436192
-0.290288 0.463019 0.138431
-0.290288 -0.005001 0.476688
-0.290288 -0.491428 -0.072222
-0.290288 -0.235506 -0.399916
-0.290288 0.154892 -0.448272
-0.290288 -0.295947 -0.349839
-0.290288 0.464162 0.103793
-0.290288 -0.459600 0.141183
-0.290288 0.000699 0.449794
-0.290288 0.005866 -0.490375
-0.290288 -0.445179 -0.082266
-0.290288 0.488681 0.041172
-0.290288 0.181562 -0.462336
-0.290288 -0.419726 -0.267536
-0.290288 -0.296948 -0.390140
-0.290288 0.134810 -0.470657
-0.290288 -0.046266 -0.463738
-0.290288 0.402412 -0.238491
-0.290288 0.430469 0.242198
-0.290288 -0.334601 -0.343010
-0.290288 -0.474114 -0.056119
-0.290288 0.450129 0.114758
-0.290288 0.430738 0.235417
-0.290288 0.123393 -0.472792
-0.290288 0.096003 -0.487374
-0.290288 -0.445280 0.059978
-0.290288 0.318657 -0.353885
-0.290288 0.142081 0.424530
-0.290288 -0.170707 0.441393
-0.290288 -0.458379 0.144532
-0.290288 -0.180406 -0.409443
-0.290288 0.319613 -0.323837
-0.290288 -0.054499 0.483740
-0.290288 -0.091906 -0.439741
-0.290288 -0.453421 0.114288
-0.290288 0.303824 -0.387783
-0.290288 0.366483 0.317581
-0.290288 0.270102 -0.392115
-0.290288 -0.155250 -0.459227
-0.290288 0.209167 -0.428945
-0.290288 0.208137 -0.415510
-0.290288 -0.132206 -0.476188
-0.290288 0.476596 0.038510
-0.290288 0.490215 0.056810
-0.290288 -0.367078 0.269455
-0.290288 0.471743 0.013300
-0.290288 0.387041 0.231632
-0.290288 -0.415984 0.256437
-0.290288 0.295285 0.355059
-0.290288 -0.494236 0.000938
-0.290288 -0.406973 -0.199925
-0.290288 0.339017 -0.334998
-0.290288 0.489497 0.062322
-0.290288 -0.084191 -0.440303
-0.290288 0.227885 -0.413948
-0.290288 -0.230618 0.415271
-0.290288 -0.423038 -0.244812
-0.290288 -0.392039 -0.265460
-0.290288 0.462739 0.155318
-0.290288 0.237002 0.380908
-0.290288 -0.291344 -0.372811
-0.290288 0.464898 -0.041940
-0.290288 0.378898 0.318736
-0.290288 0.229067 0.416970
-0.290288 -0.451157 -0.208053
-0.290288 -0.194922 0.423999
-0.290288 -0.433534 0.185260
-0.290288 0.232233 0.422214
-0.290288 0.317188 -0.320878
-0.290288 -0.340943 -0.300040
-0.290288 0.404059 -0.235966
-0.290288 -0.082206 0.476530
-0.290288 -0.407215 -0.212776
-0.290288 0.367049 -0.275911
-0.290288 0.208873 -0.401800
-0.290288 -0.146635 0.472506
-0.290288 -0.125632 -0.477581
-0.290288 0.481507 0.080658
-0.290288 0.246641 -0.385190
-0.290288 -0.459281 0.000816
-0.290288 -0.025160 -0.455581
-0.290288 0.452822 -0.076757
-0.290288 0.184676 0.456992
-0.290288 0.340455 -0.360735
-0.290288 -0.469589 -0.155872
-0.290288 -0.438830 0.172220
-0.290288 -0.260423 0.382058
-0.290288 -0.276985 -0.379585
-0.290288 -0.482839 -0.017970
-0.290288 -0.300133 0.393969
-0.290288 0.227261 -0.397435
-0.290288 0.412269 0.199121
-0.290288 0.258374 0.396115
-0.290288 0.381189 -0.312920
-0.290288 -0.017265 0.468759
-0.290288 -0.312777 -0.379773
-0.290288 -0.475897 0.078598
-0.290288 0.310303 0.317982
-0.290288 0.106253 0.446229
-0.290288 -0.431731 0.154088
-0.290288 0.223318 -0.402984
-0.290288 -0.178493 -0.429265
-0.290288 -0.415618 0.221726
-0.290288 -0.312341 0.328964
-0.290288 0.101454 0.437421
-0.290288 -0.161078 -0.422323
-0.290288 -0.437630 -0.185758
-0.290288 0.311174 -0.348747
-0.290288 -0.344112 0.281836
-0.290288 -0.400052 -0.249083
-0.290288 0.380897 0.274086
-0.290288 0.425807 -0.228807
-0.290288 -0.449109 -0.040260
-0.290288 0.393790 -0.239262
-0.290288 -0.453613 0.073995
-0.290288 0.290433 -0.386719
-0.290288 -0.332185 0.333574
-0.290288 0.429478 -0.253689
-0.290288 0.116031 0.465840
-0.290288 0.313788 0.343543
-0.290288 -0.146533 -0.476129
-0.290288 0.451099 0.005335
-0.290288 -0.154442 -0.432315
-0.290288 0.388138 -0.283299
-0.290288 0.459734 0.016966
-0.290288 0.056309 0.462505
-0.290288 0.429116 0.176567
-0.290288 0.468018 0.105964
-0.290288 0.175960 0.462305
-0.290288 0.453075 -0.129150
-0.290288 0.085300 0.463838
-0.290288 -0.286545 -0.349730
-0.290288 0.376564 0.268316
-0.290288 0.450512 0.138559
-0.290288 -0.289218 0.364083
-0.290288 -0.242299 0.371469
-0.290288 0.435293 0.153317
-0.290288 -0.422999 0.210746
-0.290288 -0.150813 0.438489
-0.290288 -0.383849 0.252114
-0.290288 -0.311902 -0.363454
-0.290288 0.248042 -0.401534
-0.290288 0.444104 0.089883
-0.290288 0.452489 0.175115
-0.290288 -0.337017 0.358510
-0.290288 0.356372 0.332772
-0.290288 -0.113757 0.478350
-0.290288 -0.479247 -0.104911
-0.290288 -0.136123 -0.427085
-0.290288 -0.134509 -0.461919
-0.290288 0.483000 -0.035990
-0.290288 0.398705 -0.211328
-0.290288 -0.353852 0.318177
-0.290288 -0.378856 0.320485
-0.290288 -0.484202 -0.034481
-0.290288 0.230075 -0.395129
-0.290288 0.222751 -0.388993
-0.290288 -0.162795 0.459205
-0.290288 0.079297 -0.479530
-0.290288 -0.006100 0.458948
-0.290288 -0.183467 0.431779
-0.290288 -0.387041 0.265373
-0.290288 -0.051335 0.461568
-0.290288 0.322113 0.368670
-0.290288 -0.404816 -0.223871
-0.290288 -0.477894 0.022150
-0.290288 -0.337209 0.355086
-0.290288 -0.326774 0.368603
-0.290288 -0.044390 0.448868
-0.290288 0.407185 0.202105
-0.290288 -0.285527 -0.407101
-0.290288 -0.084581 -0.482616
-0.290288 0.452777 0.034426
-0.290288 -0.268710 0.400303
-0.290288 0.437218 0.147477
-0.290288 0.466924 -0.127434
-0.290288 0.440583 0.169742
-0.290288 0.274879 0.378266
-0.290288 0.470845 -0.043472
-0.290288 0.271121 -0.378614
-0.290288 0.252355 0.367412
-0.290288 -0.137166 -0.460213
-0.290288 0.029675 0.456375
-0.290288 -0.430330 0.176026
-0.290288 0.266836 0.399781
-0.290288 -0.188916 -0.448395
-0.290288 -0.256137 -0.383917
-0.290288 -0.310284 -0.360016
-0.290288 0.350805 0.308146
-0.290288 0.214718 0.403300
-0.290288 -0.192054 0.430629
-0.290288 -0.453895 -0.072473
-0.290288 0.466806 -0.097710
-0.290288 0.214840 -0.404559
-0.290288 -0.394741 -0.228262
-0.290288 0.347083 0.347691
-0.290288 0.205665 -0.445823
-0.290288 0.400534 -0.228352
-0.290288 -0.212845 0.390766
-0.290288 -0.152056 -0.460461
-0.290288 -0.465712 -0.069286
-0.290288 -0.380571 0.284643
-0.290288 0.260241 -0.381417
-0.290288 0.253932 0.426496
-0.290288 -0.475454 -0.053139
-0.290288 0.390295 0.254012
-0.290288 -0.423576 -0.139787
-0.290288 0.137377 -0.480063
-0.290288 -0.483175 -0.021891
-0.290288 0.030492 0.484650
-0.290288 0.386450 -0.228422
-0.290288 0.201474 0.422856
-0.290288 -0.472456 -0.111235
-0.290288 -0.473780 0.002603
-0.290288 0.366185 -0.271351
-0.290288 0.232748 -0.429224
-0.290288 0.331904 -0.324913
-0.290288 -0.474870 0.086760
-0.290288 0.314353 0.377563
-0.290288 -0.152910 -0.424701
-0.290288 -0.285605 0.405244
-0.290288 0.284422 -0.378109
-0.290288 -0.460006 0.067338
-0.290288 0.432020 -0.179836
-0.290288 0.412490 -0.233044
-0.290288 -0.022868 -0.496119
-0.290288 -0.270576 -0.355750
-0.290288 0.477862 -0.114293
-0.290288 -0.436774 0.118624
-0.290288 0.420026 -0.151969
-0.290288 -0.451399 -0.057727
-0.290288 0.131637 0.477633
-0.290288 0.022968 0.473636
-0.290288 -0.235563 -0.383700
-0.290288 0.273051 0.394927
-0.290288 0.452346 -0.113117
-0.290288 0.337904 -0.316270
-0.290288 0.130613 -0.464462
-0.290288 -0.171934 0.420380
-0.290288 -0.387284 0.247387
-0.290288 0.381406 -0.316447
-0.290288 0.089181 0.466281
-0.290288 -0.422376 0.250854
-0.290288 0.394405 0.302458
-0.290288 0.059578 -0.447450
-0.290288 0.439486 0.144627
-0.290288 0.356475 -0.277073
-0.290288 -0.260424 -0.371181
-0.290288 0.094732 0.461755
-0.290288 -0.364303 0.277097
-0.290288 0.047607 0.477540
-0.290288 -0.203111 0.421071
-0.290288 0.020038 -0.460702
-0.290288 0.236182 0.404783
-0.290288 -0.442130 0.157718
-0.290288 0.066289 -0.485295
-0.290288 -0.157466 0.455932
-0.290288 -0.362657 -0.280893
-0.290288 0.173050 0.464010
-0.290288 0.169583 -0.431302
-0.290288 -0.341704 0.284129
-0.290288 -0.059690 0.463455
-0.290288 0.448396 -0.083975
-0.290288 0.445296 -0.141512
-0.290288 0.399347 -0.279632
-0.290288 0.410126 0.175269
-0.290288 0.259571 -0.367053
-0.290288 -0.362508 -0.284074
-0.290288 -0.153364 0.457149
-0.290288 0.446302 0.195279
-0.290288 0.441889 0.150647
-0.290288 0.458633 -0.007663
-0.290288 0.302836 0.384185
-0.290288 -0.264613 -0.414839
-0.290288 0.449076 -0.007157
-0.290288 0.076384 0.450548
-0.290288 -0.441969 -0.220409
-0.290288 0.392903 -0.292404
-0.290288 -0.454909 0.177331
-0.290288 -0.455069 0.047866
-0.290288 -0.259410 0.415943
-0.290288 0.417393 0.256846
-0.290288 0.270985 0.413705
-0.290288 0.153697 0.459047
-0.290288 0.470424 0.047810
-0.290288 -0.347056 -0.327983
-0.290288 0.109839 0.455892
-0.290288 -0.426314 0.229211
-0.290288 0.175507 0.430247
-0.290288 0.440188 -0.118880
-0.290288 0.110134 -0.451693
-0.290288 -0.357942 -0.294634
-0.290288 0.159553 0.439533
-0.290288 0.183155 0.411617
-0.290288 -0.123045 -0.470820
-0.290288 -0.347418 -0.280219
-0.290288 0.300089 0.369901
-0.290288 0.359522 0.334868
-0.290288 -0.122644 0.464541
-0.290288 -0.305557 0.384228
-0.290288 0.447122 -0.218990
-0.290288 -0.442833 0.120790
-0.290288 -0.230514 -0.443078
-0.290288 0.167198 0.427878
-0.290288 -0.451027 0.142319
-0.290288 -0.016261 -0.461150
-0.290288 -0.156100 -0.441900
-0.290288 -0.446638 0.105471
-0.290288 0.296598 0.398374
-0.290288 -0.137206 0.456000
-0.290288 0.349707 -0.292329
-0.290288 0.277162 -0.405649
-0.290288 -0.249145 -0.371273
-0.290288 -0.445337 -0.198356
-0.290288 0.154782 -0.434810
-0.290288 -0.447011 -0.186955
-0.290288 -0.103799 -0.488441
-0.290288 0.400970 -0.232030
-0.290288 0.387653 0.262682
-0.290288 -0.074170 -0.446107
-0.290288 -0.012853 0.473869
-0.290288 -0.135063 0.422216
-0.290288 -0.437274 -0.102949
-0.290288 0.441783 -0.222465
-0.290288 -0.458510 0.030839
-0.290288 0.405436 0.192078
-0.290288 -0.434384 -0.100395
-0.290288 -0.134079 0.426823
-0.290288 -0.333313 -0.366443
-0.290288 0.140796 -0.452961
-0.290288 0.080549 -0.457693
-0.290288 -0.359855 0.331781
-0.290288 -0.425533 -0.259542
-0.290288 -0.484307 0.055459
-0.290288 -0.259362 0.394029
-0.290288 -0.429186 -0.198984
-0.290288 0.440333 -0.115336
-0.290288 -0.494344 0.044443
-0.290288 0.465552 0.013107
-0.290288 0.413664 0.223498
-0.290288 -0.413204 0.271078
-0.290288 -0.394786 -0.289673
-0.290288 -0.115109 0.428642
-0.290288 -0.225932 0.405818
-0.290288 -0.388985 -0.311035
-0.290288 -0.126107 -0.433717
-0.290288 0.457658 -0.023568
-0.290288 -0.004245 -0.456892
-0.290288 0.463284 -0.076308
-0.290288 -0.420710 0.244383
-0.290288 -0.485207 0.009772
-0.290288 0.484871 -0.087661
-0.290288 -0.346460 0.289734
-0.290288 -0.326913 -0.316002
-0.290288 -0.489398 0.063662
-0.290288 -0.475504 0.127761
-0.290288 0.449415 0.133404
-0.290288 0.413997 0.216379
-0.290288 0.346986 -0.298626
-0.290288 0.295161 -0.395334
-0.290288 0.078669 -0.475425
-0.290288 0.351573 -0.322960
-0.290288 0.458043 -0.003897
-0.290288 -0.454881 0.146179
-0.290288 -0.167867 -0.460964
-0.290288 0.448276 -0.172830
-0.290288 0.495567 -0.049017
-0.290288 0.469513 -0.124723
-0.290288 -0.475919 0.024610
-0.290288 -0.266125 -0.378881
-0.290288 0.483581 0.076295
-0.290288 -0.247581 0.379707
-0.290288 -0.482461 -0.039178
-0.290288 -0.147553 0.461292
-0.290288 0.284753 0.399049
-0.290288 0.407929 0.276635
-0.290288 -0.112315 0.441334
-0.290288 -0.491588 -0.022200
-0.290288 0.436665 -0.194357
-0.290288 0.349742 0.332984
-0.290288 -0.445574 -0.053769
-0.290288 -0.176472 0.432327
-0.290288 -0.196472 0.411679
-0.290288 0.076514 0.456065
-0.290288 0.462307 -0.159088
-0.290288 -0.340677 0.319397
-0.290288 0.438897 0.095560
-0.290288 0.483257 0.033454
-0.290288 -0.204839 -0.405015
-0.290288 -0.463500 0.105093
-0.290288 0.490909 -0.006497
-0.290288 -0.343796 -0.342850
-0.290288 0.247116 0.391835
-0.290288 0.189248 -0.413405
-0.290288 0.420349 0.214253
-0.290288 0.052169 0.446607
-0.290288 0.007842 0.458509
-0.290288 0.013151 -0.498630
-0.290288 -0.389250 -0.267248
-0.290288 -0.010385 0.458817
-0.290288 0.451929 -0.058240
-0.290288 -0.328840 0.341927
-0.290288 -0.395734 0.213680
-0.290288 -0.229212 0.407488
-0.290288 0.159512 0.448013
-0.290288 -0.106998 0.454447
-0.290288 -0.163763 0.418435
-0.290288 -0.284085 -0.358638
-0.290288 0.374147 0.323963
-0.290288 -0.120038 0.462927
-0.290288 0.188399 -0.429837
-0.290288 0.336596 0.301625
-0.290288 -0.463233 0.166547
-0.290288 0.474674 0.107237
-0.290288 -0.359132 -0.298401
-0.290288 -0.066807 -0.477420
-0.290288 -0.331079 -0.353017
-0.290288 -0.449783 0.052087
-0.290288 0.480526 -0.124006
-0.290288 0.248424 -0.433706
-0.290288 -0.042407 -0.451167
-0.290288 -0.203742 -0.441436
-0.290288 0.493975 -0.032843
-0.290288 -0.357950 0.312764
-0.290288 0.177087 0.411739
-0.290288 0.378274 0.300566
-0.290288 -0.302104 -0.329845
-0.290288 -0.433174 0.221341
-0.290288 0.161759 0.455255
-0.290288 0.373660 -0.291675
-0.290288 -0.488774 0.090218
-0.290288 0.007414 0.451629
-0.290288 0.391522 -0.215824
-0.290288 -0.156243 -0.426417
-0.290288 -0.483799 0.034194
-0.290288 0.406532 -0.225849
-0.290288 0.019860 -0.447652
-0.290288 0.260426 0.414838
-0.290288 0.291269 -0.397684
-0.290288 0.412997 -0.179461
-0.290288 -0.455551 0.052081
-0.290288 0.406066 -0.203625
-0.290288 0.063963 0.470516
-0.290288 -0.271092 0.380788
-0.290288 0.437345 -0.188718
-0.290288 0.450617 -0.193616
-0.290288 0.427588 0.213613
-0.290288 -0.064884 0.445819
-0.290288 -0.466288 -0.126373
-0.290288 0.094303 0.449662
-0.290288 -0.267426 -0.357928
-0.290288 0.452573 0.075229
-0.290288 0.099481 -0.469500
-0.290288 -0.374299 -0.262531
-0.290288 -0.229984 -0.400627
-0.290288 -0.324724 -0.367544
-0.290288 -0.140149 0.462212
-0.290288 0.416567 -0.186908
-0.290288 0.478609 0.021682
-0.290288 -0.366885 0.272481
-0.290288 0.477929 0.127233
-0.290288 -0.212905 -0.414064
-0.290288 -0.080666 0.479404
-0.290288 -0.229866 -0.407800
-0.290288 0.374756 -0.247316
-0.290288 -0.212551 0.444136
-0.290288 0.351730 0.341970
-0.290288 -0.442136 -0.134892
-0.290288 0.270260 -0.419615
-0.290288 -0.209927 -0.451955
-0.290288 -0.036462 -0.457468
-0.290288 -0.139528 0.422477
-0.290288 -0.405692 -0.196870
-0.290288 -0.259271 -0.406576
-0.290288 0.479254 -0.048382
-0.290288 -0.110003 -0.435947
-0.290288 0.393608 0.211802
-0.290288 0.461825 0.067605
-0.290288 -0.255456 -0.425812
-0.290288 -0.324336 0.365353
-0.290288 -0.467524 0.155813
-0.290288 0.232934 0.401734
-0.290288 -0.445201 -0.078485
-0.290288 0.474457 0.093619
-0.290288 0.066379 -0.443280
-0.290288 -0.424708 -0.192246
-0.290288 -0.052342 -0.471248
-0.290288 0.473058 -0.028616
-0.290288 -0.176527 0.415982
-0.290288 0.457945 0.020247
-0.290288 -0.496386 0.025682
-0.290288 -0.489008 -0.045915
-0.290288 0.348890 -0.344658
-0.290288 0.424821 -0.247700
-0.290288 -0.243050 -0.393124
-0.290288 -0.460098 0.105853
-0.290288 -0.465316 0.030672
-0.290288 0.450358 0.160915
-0.290288 0.202774 -0.433354
-0.290288 -0.075157 0.444343
-0.290288 0.317700 -0.379040
-0.290288 -0.172923 -0.439991
-0.290288 0.330003 -0.353887
-0.290288 0.436935 -0.099967
-0.290288 0.408836 0.190153
-0.290288 0.457256 -0.050399
-0.290288 0.233646 0.428964
-0.290288 0.181463 0.442411
-0.290288 -0.317659 -0.320466
-0.290288 -0.212408 -0.439036
-0.290288 0.376247 0.288155
-0.290288 -0.349910 0.315502
-0.290288 -0.166711 0.411755
-0.290288 0.297500 0.367843
-0.290288 0.209666 -0.398625
-0.290288 -0.305859 -0.369541
-0.290288 -0.115380 -0.440999
-0.290288 0.086141 -0.442976
-0.290288 0.472903 -0.092496
-0.290288 -0.166182 0.448451
-0.290288 0.197580 0.416995
-0.290288 0.285565 -0.349857
-0.290288 -0.409547 0.259347
-0.290288 0.235951 0.418422
-0.290288 -0.380374 -0.287869
-0.290288 0.100679 0.460742
-0.290288 0.344066 -0.344923
-0.290288 -0.314608 -0.352607
-0.290288 -0.355797 -0.302678
-0.290288 0.467925 0.142659
-0.290288 0.449649 -0.032105
-0.290288 0.440498 -0.166071
-0.290288 0.388710 0.228740
-0.290288 -0.288201 -0.371177
-0.290288 0.024997 -0.498957
-0.290288 0.425859 0.142930
-0.290288 0.125013 0.463041
-0.290288 0.469342 0.098161
-0.290288 0.275692 -0.374561
-0.290288 -0.465677 0.134982
-0.290288 0.374879 -0.318207
-0.290288 0.390354 0.275045
-0.290288 -0.014373 -0.486986
-0.290288 -0.321258 0.359179
-0.290288 0.156450 0.415621
-0.290288 -0.445240 0.005345
-0.290288 -0.283858 0.385857
-0.290288 0.364011 0.330143
-0.290288 -0.193805 0.417330
-0.290288 -0.349628 -0.307103
-0.290288 0.393729 0.292170
-0.290288 -0.036966 0.486161
-0.290288 -0.383736 -0.274174
-0.290288 0.165798 -0.439811
-0.290288 0.293826 0.368678
-0.290288 0.378295 -0.302027
-0.290288 -0.444241 -0.085607
-0.290288 0.264957 0.408914
-0.290288 -0.313996 0.365956
-0.290288 -0.450487 -0.179284
-0.290288 -0.155977 0.427856
-0.290288 0.359138 0.312314
-0.290288 0.364152 -0.312453
-0.290288 -0.239297 0.406418
-0.290288 -0.013854 -0.447925
-0.290288 -0.227418 -0.423804
-0.290288 0.342021 0.359151
-0.290288 -0.052289 -0.488324
-0.290288 -0.353703 -0.276736
-0.290288 0.195511 -0.458610
-0.290288 -0.058432 0.443871
-0.290288 -0.462161 0.058748
-0.290288 0.468993 -0.148082
-0.290288 0.083868 0.452140
-0.290288 0.180086 0.452540
-0.290288 0.192130 -0.409641
-0.290288 0.254381 -0.379806
-0.290288 -0.463094 -0.162899
-0.290288 0.281723 -0.365907
-0.290288 -0.227130 -0.403168
-0.290288 0.419746 -0.188334
-0.290288 -0.171344 -0.448862
-0.290288 -0.425862 0.131387
-0.290288 -0.436901 0.185108
-0.290288 0.008410 0.487848
-0.290288 0.358332 -0.274213
-0.290288 -0.067832 -0.442660
-0.290288 -0.432852 -0.215334
-0.290288 -0.312664 0.346244
-0.290288 -0.458920 -0.111094
-0.290288 -0.449117 0.108895
-0.290288 -0.303806 -0.383921
-0.290288 -0.277857 -0.410786
-0.290288 -0.397588 0.219849
-0.290288 -0.023813 -0.475813
-0.290288 0.005962 0.455842
-0.290288 0.066109 -0.462049
-0.290288 0.342253 0.298966
-0.290288 0.267643 -0.411569
-0.290288 -0.140861 0.469841
-0.290288 -0.432445 0.171783
-0.290288 0.195268 0.430985
-0.290288 0.093182 -0.446146
-0.290288 -0.241069 -0.430425
-0.290288 -0.469315 -0.021817
-0.290288 0.201945 -0.451300
-0.290288 -0.408643 -0.217820
-0.290288 0.283116 -0.406258
-0.290288 0.413111 -0.255456
-0.290288 0.431320 0.145875
-0.290288 0.259101 0.363557
-0.290288 0.429884 -0.224940
-0.290288 -0.375035 -0.296090
-0.290288 -0.095563 -0.482097
-0.290288 -0.364101 0.290393
-0.290288 0.056013 0.448109
-0.290288 0.447604 0.096069
-0.290288 -0.468599 -0.118397
-0.290288 0.403648 0.197263
-0.290288 -0.324031 -0.331438
-0.290288 -0.384826 0.296800
-0.290288 -0.195202 0.440131
-0.290288 0.474832 -0.008506
-0.290288 0.004989 -0.476766
-0.290288 -0.233283 0.417166
-0.290288 0.151387 0.421911
-0.290288 0.020974 -0.475275
-0.290288 0.104216 -0.444080
-0.290288 0.019145 -0.465639
-0.290288 -0.096007 0.460385
-0.290288 -0.408658 0.186653
-0.290288 -0.411805 -0.171999
-0.290288 0.088299 0.444571
-0.290288 0.028362 -0.498847
-0.290288 -0.460055 0.120932
-0.290288 -0.462124 0.009274
-0.290288 0.444540 -0.119626
-0.290288 -0.194225 -0.428595
-0.290288 0.094263 -0.467663
-0.290288 0.131168 -0.475547
-0.290288 0.414489 0.272935
-0.290288 -0.267252 -0.385952
-0.290288 0.462708 -0.089630
-0.290288 -0.478436 -0.048506
-0.290288 -0.167246 -0.452720
-0.290288 -0.463166 -0.181539
-0.290288 0.215176 0.398510
-0.290288 0.102206 0.469005
-0.290288 0.270144 -0.359170
-0.290288 0.295285 -0.358123
-0.290288 -0.435167 0.234564
-0.290288 -0.250832 0.374322
-0.290288 0.064241 -0.479324
-0.290288 -0.017274 -0.489179
-0.290288 0.222239 0.441432
-0.290288 -0.088749 0.434110
-0.290288 0.267157 -0.372314
-0.290288 -0.400702 0.290236
-0.290288 -0.016659 -0.492762
-0.290288 -0.428868 0.152472
-0.290288 -0.486737 -0.080151
-0.290288 -0.266651 -0.411838
-0.290288 0.127708 -0.465299
-0.290288 -0.100762 0.480857
-0.290288 0.348794 -0.327685
-0.290288 -0.111936 -0.443138
-0.290288 -0.363638 -0.333607
-0.290288 -0.320788 0.327347
-0.290288 -0.418226 -0.164119
-0.290288 0.398673 -0.201748
-0.290288 -0.457616 0.184001
-0.290288 0.493180 -0.052581
-0.290288 -0.460353 -0.061266
-0.290288 -0.291781 -0.388201
-0.290288 -0.471598 0.096278
-0.290288 -0.399048 -0.269830
-0.290288 0.406228 -0.272093
-0.290288 0.091301 -0.470915
-0.290288 -0.029326 -0.486602
-0.290288 -0.435976 -0.176887
-0.290288 -0.326330 -0.360160
-0.290288 0.116402 -0.480596
-0.290288 -0.349757 0.324871
-0.290288 0.057638 0.440079
-0.290288 0.099716 0.471617
-0.290288 -0.269153 -0.372598
-0.290288 0.397061 0.231474
-0.290288 0.081669 -0.440620
-0.290288 0.388099 -0.257903
-0.290288 0.413249 -0.247241
-0.290288 -0.402087 0.192102
-0.290288 -0.224725 -0.426239
-0.290288 -0.466992 -0.111247
-0.290288 0.415825 0.210815
-0.290288 0.309583 0.325126
-0.290288 -0.198230 0.400467
-0.290288 0.368238 -0.329776
-0.290288 0.116965 0.447883
-0.290288 0.193797 -0.405256
-0.290288 0.476185 0.056482
-0.290288 0.021957 0.493223
-0.290288 -0.317237 -0.314735
-0.290288 0.162340 0.451183
-0.290288 -0.435245 0.214560
-0.290288 0.302816 0.337899
-0.290288 -0.319170 0.368013
-0.290288 0.463591 0.113525
-0.290288 0.408113 0.219913
-0.290288 -0.237153 0.430636
-0.290288 0.454113 0.064590
-0.290288 0.400498 -0.292838
-0.290288 -0.039405 -0.446668
-0.290288 -0.448464 0.058388
-0.290288 -0.076512 0.462287
-0.290288 0.388211 -0.239742
-0.290288 -0.438940 0.105973
-0.290288 0.400240 -0.220363
-0.290288 -0.426006 -0.245739
-0.290288 -0.068421 0.484355
-0.290288 0.464543 0.036812
-0.290288 -0.207663 0.393724
-0.290288 -0.162225 0.412476
-0.290288 -0.045915 0.456839
-0.290288 -0.233048 0.430137
-0.290288 0.338872 0.360912
-0.290288 0.217719 0.429387
-0.290288 0.430414 0.238976
-0.290288 0.038821 0.479368
-0.290288 0.324108 0.325488
-0.290288 0.283793 0.372191
-0.290288 0.277981 -0.384973
-0.290288 -0.353689 -0.331237
-0.290288 0.426984 0.234762
-0.290288 -0.463642 -0.047550
-0.290288 0.445172 0.198768
-0.290288 -0.319837 0.342001
-0.290288 0.398962 -0.299321
-0.290288 -0.457282 -0.086331
-0.290288 -0.169311 0.462833
-0.290288 -0.427348 -0.129252
-0.290288 0.243290 0.416367
-0.290288 -0.386932 0.232697
-0.290288 -0.296070 0.355294
-0.290288 0.261681 0.397348
-0.290288 0.081120 0.485075
-0.290288 -0.459390 -0.183691
-0.290288 -0.299049 -0.392576
-0.290288 -0.400646 0.273713
-0.290288 0.193723 -0.440257
-0.290288 0.489634 -0.045161
-0.290288 0.082415 0.470146
-0.290288 0.097463 0.441255
-0.290288 0.441672 0.087897
-0.290288 -0.441225 0.112249
-0.290288 0.216210 -0.448378
-0.290288 -0.327042 0.363537
-0.290288 0.418839 -0.233530
-0.290288 0.161005 0.464427
-0.290288 0.275386 -0.397469
-0.290288 0.202458 -0.408637
-0.290288 0.191596 0.441666
-0.290288 0.420165 -0.192138
-0.290288 0.088801 0.480024
-0.290288 -0.121991 -0.465322
-0.290288 0.391011 0.285022
-0.290288 0.063859 0.454486
-0.290288 0.433299 0.184506
-0.290288 0.371935 -0.248419
-0.290288 -0.080965 -0.441578
-0.290288 0.462386 -0.140243
-0.290288 -0.310223 0.366965
-0.290288 -0.326163 -0.364392
-0.290288 -0.412858 0.266214
-0.290288 0.218838 -0.421485
-0.290288 0.274950 0.399618
-0.290288 0.486229 0.054422
-0.290288 0.243500 -0.415952
-0.290288 0.396608 -0.269014
-0.290288 0.106368 -0.477340
-0.290288 0.369630 0.272280
-0.290288 0.414483 -0.191563
-0.290288 0.430270 -0.202642
-0.290288 0.447098 -0.060734
-0.290288 0.446273 0.102402
-0.290288 0.236367 0.415004
-0.290288 -0.496863 0.021201
-0.290288 -0.395659 0.230679
-0.290288 0.064408 0.481396
-0.290288 -0.342202 0.337732
-0.290288 0.389781 -0.263725
-0.290288 0.310341 -0.370296
-0.290288 -0.153381 0.440942
-0.290288 0.475854 -0.003635
-0.290288 -0.265186 0.405784
-0.290288 -0.078426 0.446223
-0.290288 -0.350844 -0.344829
-0.290288 0.242217 -0.395615
-0.290288 0.456553 -0.148751
-0.290288 0.227341 -0.434184
-0.290288 0.239920 -0.421033
-0.290288 -0.461798 0.030314
-0.290288 -0.471330 -0.018722
-0.290288 -0.099903 0.453972
-0.290288 -0.066129 0.441923
-0.290288 -0.171191 -0.461504
-0.290288 0.488470 -0.048415
-0.290288 -0.221454 -0.388784
-0.290288 -0.272737 -0.365424
-0.290288 0.456433 -0.162232
-0.290288 0.444314 0.124576
-0.290288 0.073563 -0.462098
-0.290288 -0.302039 0.325646
-0.290288 -0.414957 -0.172822
-0.290288 0.383091 0.264104
-0.290288 0.204932 0.451849
-0.290288 0.336936 -0.309875
-0.290288 -0.457715 0.114525
-0.290288 -0.091523 -0.452715
-0.290288 -0.472453 -0.102127
-0.290288 0.324828 -0.334859
-0.290288 0.176408 -0.446887
-0.290288 -0.035427 0.462128
-0.290288 -0.004616 -0.461518
-0.290288 0.415565 0.244136
-0.290288 0.333786 -0.302855
-0.290288 -0.399031 -0.221496
-0.290288 -0.401817 -0.228118
-0.290288 -0.486683 0.077769
-0.290288 -0.155761 0.421912
-0.290288 0.097151 0.459858
-0.290288 0.061545 -0.494382
