-0.290288 0.448433 -0.175865
-0.290288 -0.451861 -0.029968
-0.290288 0.185362 0.430297
-0.290288 0.399309 0.209819
-0.290288 -0.138267 0.470640
-0.290288 -0.408923 0.192927
-0.290288 -0.456915 0.082217
-0.290288 -0.352077 -0.325562
-0.290288 0.451296 0.169531
-0.290288 0.330699 -0.330291
-0.290288 0.406862 0.283960
-0.290288 -0.280737 0.343522
-0.290288 0.495030 0.005623
-0.290288 0.480177 0.007690
-0.290288 0.104378 -0.484818
-0.290288 -0.484045 0.075677
-0.290288 -0.192253 -0.447928
-0.290288 -0.451196 0.079079
-0.290288 0.121285 0.438603
-0.290288 -0.461275 -0.109261
-0.290288 0.062962 0.491223
-0.290288 -0.323887 0.341600
-0.290288 0.194818 -0.459767
-0.290288 0.481264 0.126993
-0.290288 -0.454475 0.115607
-0.290288 -0.432452 -0.129155
-0.290288 -0.126961 0.433318
-0.290288 0.100456 -0.482489
-0.290288 0.304248 0.328786
-0.290288 0.384628 -0.281895
-0.290288 0.465395 -0.099550
-0.290288 -0.263700 -0.363636
-0.290288 0.230043 0.439554
-0.290288 0.281580 -0.383603
-0.290288 0.049792 0.462375
-0.290288 -0.377492 0.311460
-0.290288 -0.452196 -0.177232
-0.290288 -0.225920 -0.402231
-0.290288 -0.446253 -0.146138
-0.290288 -0.113983 0.471652
-0.290288 0.145498 -0.453840
-0.290288 -0.399720 -0.295146
-0.290288 -0.284066 -0.380041
-0.290288 -0.290651 0.369473
-0.290288 -0.126208 0.439621
-0.290288 -0.303883 0.342038
-0.290288 -0.313517 -0.354261
-0.290288 -0.318267 -0.351896
-0.290288 -0.467915 0.029354
-0.290288 -0.123960 -0.482386
-0.290288 -0.455343 -0.171859
-0.290288 -0.000880 0.480621
-0.290288 0.440690 -0.201551
-0.290288 0.174578 0.437138
-0.290288 -0.174293 -0.428541
-0.290288 -0.057711 -0.494223
-0.290288 -0.203522 -0.426396
-0.290288 -0.485168 -0.090488
-0.290288 -0.469988 0.010923
-0.290288 0.115124 -0.445695
-0.290288 0.494514 -0.057124
-0.290288 0.361060 -0.334829
-0.290288 -0.371202 -0.323165
-0.290288 0.242596 0.419350
-0.290288 0.406002 0.276350
-0.290288 0.385924 0.305017
-0.290288 -0.380860 -0.313440
-0.290288 -0.358612 0.280245
-0.290288 -0.480571 -0.027298
-0.290288 -0.177726 -0.452821
-0.290288 0.466502 -0.042197
-0.290288 0.155143 0.418847
-0.290288 0.476770 -0.096492
-0.290288 -0.336073 0.342748
-0.290288 0.451819 -0.044797
-0.290288 0.344785 -0.305531
-0.290288 0.183665 -0.464946
-0.290288 0.086319 -0.464146
-0.290288 -0.297400 0.334581
-0.290288 0.068061 -0.462281
-0.290288 0.395708 0.263390
-0.290288 -0.115034 0.451674
-0.290288 -0.279505 0.390739
-0.290288 0.129199 -0.428699
-0.290288 -0.112220 -0.443732
-0.290288 -0.437837 0.160852
-0.290288 -0.155818 0.469566
-0.290288 0.142243 0.429789
-0.290288 0.421209 0.187487
-0.290288 0.338547 -0.296200
-0.290288 -0.292421 -0.381748
-0.290288 0.419989 0.198656
-0.290288 0.187476 0.425334
-0.290288 -0.426251 0.247419
-0.290288 0.381099 0.287738
-0.290288 0.123354 0.447638
-0.290288 -0.273229 0.409613
-0.290288 0.337555 0.297697
-0.290288 0.144109 -0.440068
-0.290288 -0.226707 0.386601
-0.290288 -0.441339 -0.127898
-0.290288 -0.437821 -0.143716
-0.290288 0.410239 0.216154
-0.290288 0.379057 -0.268750
-0.290288 0.058715 -0.483319
-0.290288 0.161821 0.417193
-0.290288 -0.385281 -0.247478
-0.290288 -0.453647 -0.123710
-0.290288 0.459259 -0.034538
-0.290288 0.446141 -0.097765
-0.290288 0.394295 0.273586
-0.290288 0.425044 -0.227759
-0.290288 0.203136 -0.398766
-0.290288 -0.481165 -0.077803
-0.290288 -0.260792 0.375290
-0.290288 0.043141 0.447790
-0.290288 -0.052700 0.447858
-0.290288 -0.471031 -0.097109
-0.290288 -0.304704 0.359307
-0.290288 -0.493881 0.014940
-0.290288 -0.296198 0.381064
-0.290288 -0.249979 0.373631
-0.290288 -0.431861 0.105215
-0.290288 -0.457439 0.185277
-0.290288 0.381217 -0.247347
-0.290288 -0.424902 0.168596
-0.290288 0.134882 -0.466132
-0.290288 0.199586 -0.458504
-0.290288 -0.258553 0.378086
-0.290288 0.107166 0.473265
-0.290288 -0.154527 0.437501
-0.290288 -0.072970 0.448915
-0.290288 0.475418 -0.027413
-0.290288 -0.176277 0.438813
-0.290288 -0.471788 0.045937
-0.290288 0.494898 0.018130
-0.290288 -0.485059 0.106856
-0.290288 0.346961 0.286394
-0.290288 -0.421084 0.262264
-0.290288 -0.261745 -0.421520
-0.290288 0.444173 0.167168
-0.290288 0.202746 0.419945
-0.290288 0.238317 -0.386314
-0.290288 0.151024 -0.474788
-0.290288 -0.019948 0.487869
-0.290288 0.380564 -0.278866
-0.290288 -0.108492 -0.487370
-0.290288 0.339419 0.309481
-0.290288 0.062954 -0.495895
-0.290288 0.443186 0.225788
-0.290288 -0.420517 0.254209
-0.290288 0.414607 0.214468
-0.290288 -0.404898 -0.243580
-0.290288 0.341533 0.298416
-0.290288 0.114575 -0.484679
-0.290288 0.137221 0.435850
-0.290288 0.494818 0.053611
-0.290288 0.497261 0.021107
-0.290288 0.487226 0.009792
-0.290288 -0.114810 0.466363
-0.290288 0.005697 -0.451609
-0.290288 -0.146152 0.432968
-0.290288 -0.484481 0.090399
-0.290288 -0.441633 0.113021
-0.290288 0.166246 -0.428930
-0.290288 -0.186294 -0.417318
-0.290288 -0.350945 -0.339322
-0.290288 0.475612 -0.019296
-0.290288 0.110173 -0.482322
-0.290288 0.261155 0.364649
-0.290288 -0.280656 0.365227
-0.290288 0.031117 -0.473697
-0.290288 0.261974 -0.421449
-0.290288 0.321877 -0.355438
-0.290288 -0.144566 0.465458
-0.290288 -0.234526 -0.387577
-0.290288 0.117990 0.452023
-0.290288 -0.129477 0.475174
-0.290288 0.426899 0.175249
-0.290288 0.458078 -0.006057
-0.290288 0.351164 0.326585
-0.290288 0.178328 0.406764
-0.290288 -0.479075 0.120405
-0.290288 -0.416109 0.223163
-0.290288 0.465832 0.003842
-0.290288 0.311983 -0.358091
-0.290288 0.314202 0.384281
-0.290288 -0.280155 0.377129
-0.290288 -0.274460 0.397656
-0.290288 -0.445666 -0.053253
-0.290288 0.162065 0.457631
-0.290288 -0.398434 0.279232
-0.290288 0.426962 0.170246
-0.290288 0.004885 0.491022
-0.290288 0.106720 0.454149
-0.290288 0.377253 0.250574
-0.290288 0.414012 0.171418
-0.290288 0.362166 -0.262620
-0.290288 0.449299 -0.168175
-0.290288 -0.411140 -0.201537
-0.290288 -0.115997 -0.462486
-0.290288 0.292129 -0.404617
-0.290288 -0.088186 -0.490348
-0.290288 0.456138 0.186830
-0.290288 0.038273 0.457931
-0.290288 -0.455784 -0.019284
-0.290288 0.223179 0.400554
-0.290288 0.482974 -0.088541
-0.290288 0.097607 0.440366
-0.290288 -0.390021 0.293003
-0.290288 0.434696 -0.236843
-0.290288 0.256432 -0.428676
-0.290288 0.148970 -0.458531
-0.290288 -0.483735 -0.117316
-0.290288 0.104001 -0.440649
-0.290288 0.443355 -0.052420
-0.290288 -0.350858 0.322390
-0.290288 -0.260776 -0.368783
-0.290288 -0.459235 -0.061372
-0.290288 -0.390620 0.252925
-0.290288 -0.402830 -0.235898
-0.290288 0.377132 -0.244455
-0.290288 0.262993 -0.362520
-0.290288 0.024513 -0.470365
-0.290288 0.042856 0.479948
-0.290288 -0.432135 -0.194759
-0.290288 -0.401386 -0.226880
-0.290288 -0.038164 -0.471058
-0.290288 -0.487548 0.042239
-0.290288 0.463082 -0.016477
-0.290288 -0.229233 0.388781
-0.290288 0.204250 -0.452601
-0.290288 -0.094375 0.437231
-0.290288 -0.403400 0.273350
-0.290288 0.195121 -0.446248
-0.290288 0.455851 -0.070450
-0.290288 0.436406 -0.112814
-0.290288 0.029241 0.473673
-0.290288 -0.415424 -0.274408
-0.290288 0.086551 0.445435
-0.290288 -0.403154 0.251918
-0.290288 0.401303 -0.237475
-0.290288 0.304012 0.362683
-0.290288 0.289019 0.358999
-0.290288 0.373347 -0.281097
-0.290288 -0.428939 -0.159692
-0.290288 0.245834 0.389884
-0.290288 -0.097827 -0.439736
-0.290288 -0.452521 -0.135463
-0.290288 -0.319470 0.324630
-0.290288 -0.057417 0.462451
-0.290288 -0.122244 0.443586
-0.290288 -0.378534 0.320601
-0.290288 -0.273513 -0.397466
-0.290288 -0.139994 0.424961
-0.290288 -0.388313 -0.231026
-0.290288 0.168408 0.422664
-0.290288 0.004105 -0.489736
-0.290288 -0.430436 0.240280
-0.290288 0.291708 -0.394030
-0.290288 -0.139490 0.473968
-0.290288 -0.437871 0.217899
-0.290288 0.436905 -0.157123
-0.290288 -0.213297 0.413866
-0.290288 -0.213723 0.430808
-0.290288 -0.168378 -0.466326
-0.290288 0.403445 -0.261267
-0.290288 0.067489 0.450985
-0.290288 -0.098656 0.483582
-0.290288 0.293736 0.396468
-0.290288 0.147642 -0.465721
-0.290288 0.347802 -0.351229
-0.290288 -0.006163 -0.448192
-0.290288 0.306086 -0.326341
-0.290288 0.465544 -0.038642
-0.290288 0.491553 0.053153
-0.290288 -0.355863 -0.290747
-0.290288 0.216407 -0.407862
-0.290288 0.068091 0.462096
-0.290288 0.409084 0.209117
-0.290288 0.004614 0.471844
-0.290288 0.140613 -0.450376
-0.290288 0.230719 -0.430805
-0.290288 0.387072 -0.315995
-0.290288 -0.442470 0.142713
-0.290288 0.463590 -0.116335
-0.290288 0.440898 -0.227171
-0.290288 -0.047944 -0.445342
-0.290288 -0.413614 -0.231389
-0.290288 -0.443788 0.059914
-0.290288 0.422647 0.156918
-0.290288 0.115960 -0.471411
-0.290288 0.482429 0.118100
-0.290288 0.384201 0.265394
-0.290288 0.318619 -0.380212
-0.290288 -0.178734 -0.456338
-0.290288 -0.464318 0.129839
-0.290288 -0.336050 -0.354876
-0.290288 0.383782 0.257557
-0.290288 0.484592 0.091150
-0.290288 -0.141230 -0.447373
-0.290288 0.432064 0.211507
-0.290288 0.344754 0.319912
-0.290288 -0.396152 -0.214438
-0.290288 -0.475734 0.046673
-0.290288 -0.418055 0.260833
-0.290288 0.138343 -0.466350
-0.290288 0.365229 -0.270215
-0.290288 0.303484 0.332140
-0.290288 -0.380653 -0.273346
-0.290288 -0.401587 0.260645
-0.290288 0.207189 0.419311
-0.290288 0.325842 -0.349717
-0.290288 -0.377749 -0.268005
-0.290288 -0.244896 0.416570
-0.290288 0.426242 -0.191728
-0.290288 0.343187 -0.292271
-0.290288 -0.450140 0.045732
-0.290288 0.284756 -0.403392
-0.290288 0.446363 0.062678
-0.290288 0.481415 -0.094308
-0.290288 -0.475520 0.009436
-0.290288 0.104448 -0.468790
-0.290288 0.456777 0.036367
-0.290288 -0.419203 -0.257257
-0.290288 0.144490 0.435296
-0.290288 -0.320163 0.328217
-0.290288 -0.437042 -0.133916
-0.290288 0.401100 -0.249846
-0.290288 0.364460 -0.286737
-0.290288 0.380064 0.305169
-0.290288 0.454083 0.040450
-0.290288 0.421939 -0.229050
-0.290288 0.188666 0.411368
-0.290288 -0.354186 -0.348343
-0.290288 0.086603 -0.474556
-0.290288 -0.368019 0.257363
-0.290288 0.304361 0.384209
-0.290288 0.131182 0.433999
-0.290288 -0.320687 -0.310810
-0.290288 -0.407184 -0.248898
-0.290288 0.485946 0.048099
-0.290288 0.387287 0.285218
-0.290288 0.244208 0.400125
-0.290288 0.118668 0.442672
-0.290288 0.422276 -0.157229
-0.290288 0.393777 -0.261502
-0.290288 0.445835 -0.197820
-0.290288 0.156337 0.462794
-0.290288 0.140806 -0.464350
-0.290288 -0.217007 0.429932
-0.290288 0.093084 0.473419
-0.290288 0.214854 0.429854
-0.290288 0.467319 0.137435
-0.290288 0.454573 0.068883
-0.290288 0.443767 0.173163
-0.290288 -0.306085 -0.331780
-0.290288 -0.469317 -0.136967
-0.290288 0.278348 0.410952
-0.290288 0.118542 -0.475961
-0.290288 0.042483 -0.459089
-0.290288 -0.095532 -0.467803
-0.290288 0.445812 -0.023474
-0.290288 -0.165958 -0.461707
-0.290288 0.086761 0.486747
-0.290288 0.418325 -0.272775
-0.290288 -0.276725 0.361688
-0.290288 0.379907 0.296568
-0.290288 -0.250314 -0.402208
-0.290288 0.459936 -0.132222
-0.290288 0.238677 0.407253
-0.290288 0.345127 0.280099
-0.290288 -0.436200 -0.210218
-0.290288 -0.091342 -0.439614
-0.290288 -0.286529 0.383582
-0.290288 0.462219 -0.005176
-0.290288 0.315997 -0.376985
-0.290288 0.471026 0.144535
-0.290288 -0.472375 -0.053604
-0.290288 -0.104940 -0.488154
-0.290288 -0.014185 0.451433
-0.290288 -0.400306 -0.285387
-0.290288 -0.251023 -0.387472
-0.290288 0.269613 0.406239
-0.290288 0.341519 -0.322892
-0.290288 -0.203149 -0.411585
-0.290288 -0.142860 -0.450183
-0.290288 0.306263 -0.381023
-0.290288 0.313428 0.356936
-0.290288 -0.239326 -0.428579
-0.290288 0.452478 0.206257
-0.290288 -0.486666 -0.068762
-0.290288 0.415200 0.195117
-0.290288 -0.441463 0.056299
-0.290288 -0.452029 0.200053
-0.290288 -0.325400 0.370168
-0.290288 0.008428 0.454878
-0.290288 -0.108625 -0.460416
-0.290288 -0.459901 -0.006557
-0.290288 0.452316 0.158438
-0.290288 0.446062 -0.140110
-0.290288 -0.225312 -0.392268
-0.290288 -0.105350 0.456391
-0.290288 0.241019 0.374125
-0.290288 0.130844 0.450708
-0.290288 0.415803 -0.211480
-0.290288 0.275864 -0.376621
-0.290288 -0.479571 -0.113105
-0.290288 0.217500 0.445433
-0.290288 0.055627 -0.459414
-0.290288 0.474458 0.099248
-0.290288 0.055711 0.458810
-0.290288 -0.064873 -0.448471
-0.290288 0.273109 0.385085
-0.290288 -0.319318 0.362624
-0.290288 -0.186299 -0.421678
-0.290288 0.016130 -0.483541
-0.290288 0.277615 0.395637
-0.290288 0.047046 0.481964
-0.290288 -0.058946 -0.475237
-0.290288 0.024334 -0.462939
-0.290288 -0.395033 0.238490
-0.290288 -0.381490 0.309883
-0.290288 0.293077 0.359765
-0.290288 -0.359803 0.318474
-0.290288 0.402391 0.208061
-0.290288 -0.340418 0.324560
-0.290288 -0.241797 0.376763
-0.290288 -0.204174 0.408352
-0.290288 -0.436782 0.228417
-0.290288 -0.144070 0.444614
-0.290288 0.164787 0.452271
-0.290288 -0.079528 0.448406
-0.290288 -0.201147 0.420142
-0.290288 0.489516 0.055850
-0.290288 0.312309 0.341972
-0.290288 0.447588 -0.007296
-0.290288 -0.250182 0.383914
-0.290288 -0.257686 -0.391519
-0.290288 0.348125 -0.342795
-0.290288 -0.488786 0.067724
-0.290288 -0.409489 0.218112
-0.290288 0.251570 0.387314
-0.290288 0.005017 0.483902
-0.290288 -0.138066 0.431147
-0.290288 -0.338869 -0.361060
-0.290288 -0.457542 0.181545
-0.290288 -0.491697 -0.065286
-0.290288 -0.430635 0.145665
-0.290288 0.386542 -0.241308
-0.290288 -0.457896 -0.187752
-0.290288 0.439526 0.080694
-0.290288 -0.188531 -0.453719
-0.290288 0.453882 0.166844
-0.290288 0.433209 -0.167075
-0.290288 0.448305 -0.028028
-0.290288 0.477348 0.140327
-0.290288 -0.206064 -0.439428
-0.290288 -0.218352 0.386504
-0.290288 0.135134 0.453134
-0.290288 -0.357243 -0.318933
-0.290288 -0.111171 -0.463584
-0.290288 -0.383577 -0.274796
-0.290288 0.475799 -0.067464
-0.290288 0.201891 0.406672
-0.290288 -0.104696 -0.471777
-0.290288 -0.374937 0.273758
-0.290288 0.455559 0.079491
-0.290288 -0.179285 -0.417940
-0.290288 0.424682 -0.162417
-0.290288 -0.366761 0.267107
-0.290288 -0.492356 0.069817
-0.290288 0.280014 0.358862
-0.290288 -0.482046 0.120028
-0.290288 -0.229224 0.423366
-0.290288 -0.061573 0.466321
-0.290288 0.445842 0.217497
-0.290288 -0.451983 -0.210195
-0.290288 0.157464 0.439797
-0.290288 -0.437378 -0.122548
-0.290288 -0.472773 0.101563
-0.290288 0.464567 -0.165115
-0.290288 -0.298346 -0.391622
-0.290288 0.008304 0.471868
-0.290288 0.252784 -0.388625
-0.290288 -0.366471 -0.284036
-0.290288 -0.152653 0.443213
-0.290288 -0.094288 -0.454599
-0.290288 0.036682 0.492440
-0.290288 0.381166 -0.295231
-0.290288 -0.215698 -0.410161
-0.290288 -0.067972 0.490939
-0.290288 -0.193420 0.424562
-0.290288 0.457011 -0.149981
-0.290288 0.482406 -0.056144
-0.290288 -0.146466 -0.434397
-0.290288 0.425760 -0.195574
-0.290288 -0.456386 -0.002704
-0.290288 0.118119 0.431045
-0.290288 -0.035553 0.462980
-0.290288 0.406933 -0.252637
-0.290288 0.251481 -0.404164
-0.290288 0.123601 -0.484358
-0.290288 -0.416676 0.263921
-0.290288 0.389857 -0.279305
-0.290288 0.164493 -0.445297
-0.290288 -0.218017 -0.435733
-0.290288 0.468501 0.077486
-0.290288 -0.420475 -0.153889
-0.290288 0.487633 -0.026241
-0.290288 0.470062 -0.166676
-0.290288 0.161945 0.464794
-0.290288 0.252116 -0.370331
-0.290288 -0.443904 0.206661
-0.290288 0.308817 -0.358082
-0.290288 0.429608 0.227229
-0.290288 -0.218741 -0.403328
-0.290288 0.330226 0.313383
-0.290288 -0.464734 -0.047462
-0.290288 -0.103071 0.459994
-0.290288 -0.456724 -0.116061
-0.290288 -0.376513 -0.303166
-0.290288 -0.189534 0.443124
-0.290288 -0.458173 -0.077671
-0.290288 0.013849 0.449502
-0.290288 -0.272492 0.390636
-0.290288 0.404204 0.243548
-0.290288 0.201709 0.409997
-0.290288 -0.416003 -0.219468
-0.290288 -0.034886 -0.451499
-0.290288 -0.110013 -0.467854
-0.290288 -0.438082 -0.199452
-0.290288 0.177818 -0.450977
-0.290288 -0.377634 -0.249455
-0.290288 0.469773 0.139562
-0.290288 0.493006 -0.021428
-0.290288 -0.302274 0.371911
-0.290288 -0.480572 -0.125827
-0.290288 -0.435972 -0.108360
-0.290288 -0.338072 -0.337340
-0.290288 -0.317916 -0.384707
-0.290288 -0.351685 -0.317018
-0.290288 -0.204009 0.437575
-0.290288 0.412848 0.211755
-0.290288 -0.324189 0.309555
-0.290288 0.248822 0.389064
-0.290288 0.454291 0.124433
-0.290288 -0.361034 -0.320084
-0.290288 -0.180021 0.447439
-0.290288 0.392189 0.303300
-0.290288 0.059000 0.492187
-0.290288 -0.420415 0.184673
-0.290288 -0.469393 -0.001960
-0.290288 -0.037859 -0.467885
-0.290288 0.288514 0.339450
-0.290288 -0.420336 0.216882
-0.290288 -0.215461 -0.399412
-0.290288 -0.486359 0.004381
-0.290288 -0.468085 0.160045
-0.290288 -0.327910 0.307800
-0.290288 -0.073569 0.439916
-0.290288 0.439825 0.073726
-0.290288 0.119175 0.464910
-0.290288 -0.455879 0.000747
-0.290288 -0.302213 -0.393117
-0.290288 0.373424 -0.265078
-0.290288 0.247686 -0.420609
-0.290288 -0.451560 -0.004565
-0.290288 0.219560 0.406652
-0.290288 -0.361967 0.337020
-0.290288 -0.166443 -0.458328
-0.290288 -0.318931 0.309807
-0.290288 -0.145639 0.458559
-0.290288 0.475386 0.145907
-0.290288 -0.470038 0.014384
-0.290288 -0.346433 -0.359184
-0.290288 -0.479400 0.015091
-0.290288 0.210442 -0.414422
-0.290288 0.110887 0.473269
-0.290288 0.201241 -0.418909
-0.290288 -0.463709 -0.182080
-0.290288 -0.425755 -0.207145
-0.290288 -0.054442 -0.494216
-0.290288 0.047709 0.469574
-0.290288 0.314692 0.337424
-0.290288 -0.389880 0.283985
-0.290288 -0.404990 0.248093
-0.290288 0.031877 0.471453
-0.290288 -0.150581 -0.434007
-0.290288 0.284711 -0.406997
-0.290288 -0.420207 0.173815
-0.290288 -0.447008 0.115456
-0.290288 0.104246 0.450516
-0.290288 -0.211068 0.424434
-0.290288 -0.286656 0.363369
-0.290288 -0.189081 -0.419435
-0.290288 -0.413787 0.191047
-0.290288 -0.325408 0.373762
-0.290288 0.013024 -0.471980
-0.290288 0.451084 -0.032228
-0.290288 -0.466045 0.019047
-0.290288 -0.446891 -0.019086
-0.290288 0.445062 -0.182530
-0.290288 0.316379 0.379986
-0.290288 -0.348874 -0.356902
-0.290288 0.461714 -0.098865
-0.290288 0.070576 -0.451077
-0.290288 -0.006336 0.458968
-0.290288 0.280552 0.389667
-0.290288 -0.422996 -0.179907
-0.290288 -0.004248 -0.472543
-0.290288 -0.390874 -0.297465
-0.290288 -0.041878 0.475503
-0.290288 0.198771 0.434928
-0.290288 0.083475 0.435695
-0.290288 0.424840 -0.237589
-0.290288 0.430940 0.115724
-0.290288 -0.470111 -0.107021
-0.290288 -0.469938 -0.019037
-0.290288 -0.076002 -0.481399
-0.290288 -0.316801 0.335806
-0.290288 0.336161 0.364634
-0.290288 -0.424474 0.179140
-0.290288 0.322064 0.325388
-0.290288 0.223970 0.424094
-0.290288 0.461213 -0.125427
-0.290288 -0.440690 -0.196372
-0.290288 0.029536 0.462497
-0.290288 -0.455283 -0.152839
-0.290288 0.393234 0.270371
-0.290288 0.339318 0.336512
-0.290288 0.272004 -0.394263
-0.290288 0.462005 -0.078699
-0.290288 0.265621 0.397107
-0.290288 -0.402147 -0.247445
-0.290288 0.047412 -0.451261
-0.290288 -0.250095 0.395355
-0.290288 0.027387 -0.456884
-0.290288 0.050429 -0.465555
-0.290288 -0.265559 0.385798
-0.290288 0.440879 0.155742
-0.290288 -0.179718 -0.426165
-0.290288 -0.360206 -0.315056
-0.290288 -0.210078 -0.415093
-0.290288 -0.491995 -0.026901
-0.290288 -0.397283 0.211659
-0.290288 -0.375164 0.297533
-0.290288 0.202883 -0.456527
-0.290288 -0.181157 -0.458844
-0.290288 0.078936 -0.466503
-0.290288 -0.162714 -0.423843
-0.290288 0.278401 -0.374709
-0.290288 0.113391 -0.464774
-0.290288 -0.281554 -0.352800
-0.290288 -0.332481 0.296425
-0.290288 0.251054 -0.400086
-0.290288 -0.448422 0.132469
-0.290288 0.110115 -0.445785
-0.290288 0.298814 0.357255
-0.290288 -0.365156 0.252238
-0.290288 0.063187 0.465530
-0.290288 -0.319466 -0.327697
-0.290288 -0.246963 -0.403279
-0.290288 -0.158855 -0.463388
-0.290288 -0.451577 0.171345
-0.290288 -0.270336 -0.365472
-0.290288 0.397585 0.231294
-0.290288 -0.443262 0.047208
-0.290288 -0.381609 -0.319581
-0.290288 -0.407526 0.179753
-0.290288 -0.427249 0.198586
-0.290288 0.437509 -0.165057
-0.290288 0.276914 0.360434
-0.290288 0.467564 0.070079
-0.290288 -0.185994 0.425049
-0.290288 0.476716 0.016776
-0.290288 0.496446 0.039609
-0.290288 0.229894 -0.418878
-0.290288 0.470078 0.161376
-0.290288 0.159794 -0.447965
-0.290288 -0.381703 0.263841
-0.290288 0.219134 0.441763
-0.290288 0.320709 -0.322058
-0.290288 0.078476 -0.446838
-0.290288 0.103443 -0.471894
-0.290288 0.347857 0.338784
-0.290288 0.436183 0.128160
-0.290288 -0.305579 -0.337756
-0.290288 -0.185717 -0.456608
-0.290288 -0.415398 -0.223214
-0.290288 -0.231929 0.426182
-0.290288 0.462818 0.068187
-0.290288 -0.219145 0.393723
-0.290288 0.195501 0.448075
-0.290288 0.326402 -0.368145
-0.290288 -0.068152 -0.475120
-0.290288 0.068286 -0.473289
-0.290288 0.467468 0.141954
-0.290288 0.441637 0.228820
-0.290288 0.346878 -0.339447
-0.290288 -0.372588 0.261491
-0.290288 0.266799 0.381116
-0.290288 -0.113993 0.475312
-0.290288 0.269302 -0.357495
-0.290288 -0.226172 -0.444378
-0.290288 0.469339 -0.038749
-0.290288 0.371658 0.304061
-0.290288 0.346101 -0.335536
-0.290288 0.189849 0.421592
-0.290288 -0.429923 -0.245599
-0.290288 -0.352044 -0.294331
-0.290288 -0.207408 0.407118
-0.290288 -0.456529 -0.059500
-0.290288 0.412854 -0.212299
-0.290288 -0.460627 0.138716
-0.290288 0.214931 0.447350
-0.290288 -0.443292 -0.050192
-0.290288 0.331400 -0.319923
-0.290288 -0.429759 -0.121069
-0.290288 -0.190800 0.451508
-0.290288 0.401006 0.203366
-0.290288 0.079792 -0.493807
-0.290288 0.337612 -0.313245
-0.290288 0.483731 -0.097034
-0.290288 0.254279 0.425188
-0.290288 -0.222492 0.431226
-0.290288 0.400512 -0.272632
-0.290288 0.421949 0.255964
-0.290288 -0.149493 -0.424560
-0.290288 0.003560 -0.460363
-0.290288 0.320568 0.378224
-0.290288 -0.428412 0.206052
-0.290288 -0.487104 0.074392
-0.290288 -0.137959 -0.465117
-0.290288 0.280532 0.397486
-0.290288 -0.484802 0.039924
-0.290288 -0.022374 0.483079
-0.290288 -0.315598 0.360779
-0.290288 0.461677 0.106247
-0.290288 0.459443 -0.181579
-0.290288 0.095137 -0.443623
-0.290288 0.445129 -0.155894
-0.290288 -0.210218 -0.395026
-0.290288 0.459545 -0.038255
-0.290288 -0.282886 0.383731
-0.290288 0.083044 -0.449426
-0.290288 0.252578 0.364978
-0.290288 0.473534 -0.063612
-0.290288 -0.439830 -0.223754
-0.290288 -0.177336 -0.437326
-0.290288 0.371314 -0.328378
-0.290288 -0.276014 0.372600
-0.290288 0.495697 0.043657
-0.290288 0.213866 0.420203
-0.290288 0.401153 0.277240
-0.290288 0.149901 -0.427607
-0.290288 0.449277 -0.156927
-0.290288 0.247358 0.421791
-0.290288 -0.448078 0.187000
-0.290288 -0.440831 -0.167346
-0.290288 0.006566 0.458024
-0.290288 -0.446682 -0.210933
-0.290288 -0.407533 0.282501
-0.290288 0.469323 -0.138959
-0.290288 -0.372509 0.291451
-0.290288 0.440319 0.168168
-0.290288 0.367966 -0.334213
-0.290288 -0.150539 -0.441907
-0.290288 0.414794 -0.196338
-0.290288 0.037514 -0.493390
-0.290288 0.490533 0.085552
-0.290288 0.471590 -0.142081
-0.290288 0.367965 -0.325990
-0.290288 -0.383360 -0.290978
-0.290288 -0.041132 0.446950
-0.290288 -0.460309 -0.053860
-0.290288 0.046107 -0.445105
-0.290288 0.081595 0.483837
-0.290288 0.316121 -0.354475
-0.290288 -0.477538 -0.128221
-0.290288 -0.390711 0.236516
-0.290288 0.182407 -0.410493
-0.290288 -0.439820 0.205607
-0.290288 0.442209 -0.088594
-0.290288 0.245736 -0.435151
-0.290288 0.169351 0.432329
-0.290288 -0.241983 0.392119
-0.290288 0.009889 0.463986
-0.290288 -0.015436 0.495065
-0.290288 0.213282 -0.410457
-0.290288 0.437002 0.216516
-0.290288 0.238441 -0.398790
-0.290288 0.113429 0.438198
-0.290288 -0.469016 -0.065504
-0.290288 -0.347219 0.314474
-0.290288 0.350878 0.302994
-0.290288 -0.138926 -0.456880
-0.290288 0.316100 0.312599
-0.290288 0.327795 0.351203
-0.290288 0.488114 -0.055159
-0.290288 0.302104 0.349721
-0.290288 -0.436467 -0.177216
-0.290288 -0.463620 0.014339
-0.290288 -0.370913 0.328853
-0.290288 0.384954 0.229155
-0.290288 0.429706 0.168353
-0.290288 -0.472304 -0.119730
-0.290288 0.400652 -0.285718
-0.290288 0.095506 0.446642
-0.290288 0.301306 0.354745
-0.290288 -0.477627 0.134693
-0.290288 -0.424130 -0.192377
-0.290288 -0.265481 0.411834
-0.290288 -0.468538 0.145522
-0.290288 -0.359571 -0.282605
-0.290288 0.356639 0.292873
-0.290288 -0.367373 -0.323140
-0.290288 -0.365347 -0.320314
-0.290288 0.369329 0.313085
-0.290288 0.119004 -0.449902
-0.290288 -0.073953 0.478982
-0.290288 -0.129203 -0.443676
-0.290288 0.355901 0.266566
-0.290288 -0.455080 -0.077992
-0.290288 -0.193716 0.412024
-0.290288 -0.274020 -0.352797
-0.290288 -0.443791 -0.224495
-0.290288 -0.169040 -0.426033
-0.290288 -0.376880 -0.259242
-0.290288 -0.123660 -0.432408
-0.290288 -0.460592 0.158907
-0.290288 0.466466 -0.017100
-0.290288 0.174071 0.443749
-0.290288 -0.238906 -0.434856
-0.290288 -0.473320 0.055387
-0.290288 -0.099451 0.433197
-0.290288 -0.343411 0.294383
-0.290288 -0.485845 0.069436
-0.290288 -0.483524 -0.010595
-0.290288 -0.184956 -0.407238
-0.290288 -0.406513 -0.234305
-0.290288 0.016604 -0.451993
-0.290288 -0.395952 -0.286383
-0.290288 -0.212124 -0.401430
-0.290288 -0.149034 -0.466470
-0.290288 -0.434193 -0.230497
-0.290288 -0.155310 -0.424092
-0.290288 -0.473661 -0.115812
-0.290288 -0.451238 -0.071646
-0.290288 -0.329112 0.358192
-0.290288 -0.023620 0.488393
-0.290288 -0.098206 -0.453473
-0.290288 0.411101 -0.232415
-0.290288 -0.461983 0.168051
-0.290288 0.453847 0.012961
-0.290288 -0.098604 0.455923
-0.290288 0.012281 -0.453216
-0.290288 0.461924 0.043862
-0.290288 -0.180775 0.438877
-0.290288 0.458535 0.102229
-0.290288 0.276619 0.386915
-0.290288 -0.278206 -0.401605
-0.290288 -0.000796 -0.479268
-0.290288 0.469817 -0.128755
-0.290288 0.354112 -0.314937
-0.290288 -0.362995 -0.316846
-0.290288 0.424882 0.197242
-0.290288 0.444820 -0.120057
-0.290288 0.324444 0.346960
-0.290288 0.202050 0.416178
-0.290288 -0.429412 0.130502
-0.290288 0.073480 -0.476709
-0.290288 -0.427043 -0.241673
-0.290288 -0.422155 0.181584
-0.290288 0.457280 -0.111093
-0.290288 0.386575 0.274742
-0.290288 0.439523 -0.076489
-0.290288 -0.445820 0.015005
-0.290288 -0.172601 0.424924
-0.290288 -0.359564 0.302887
-0.290288 0.172347 0.409442
-0.290288 -0.065313 0.468187
-0.290288 0.031896 -0.456489
-0.290288 -0.232386 0.382676
-0.290288 0.255095 -0.394706
-0.290288 0.450134 -0.012570
-0.290288 -0.248447 -0.392741
-0.290288 0.028277 0.453868
-0.290288 0.393314 -0.230879
-0.290288 -0.318424 -0.359437
-0.290288 0.242788 -0.401955
-0.290288 -0.200358 0.402162
-0.290288 0.246128 -0.427105
-0.290288 -0.433548 -0.220013
-0.290288 0.192671 -0.455796
-0.290288 0.343729 -0.295721
-0.290288 0.208706 -0.437257
-0.290288 0.221417 0.411851
-0.290288 -0.249505 -0.379459
-0.290288 -0.112963 -0.454021
-0.290288 0.448626 0.134690
-0.290288 -0.026486 -0.465038
-0.290288 -0.311615 0.361477
-0.290288 -0.493739 0.010854
-0.290288 0.368023 0.249403
-0.290288 -0.071419 -0.452866
-0.290288 0.346166 -0.347313
-0.290288 -0.409129 0.221444
-0.290288 0.184791 -0.437630
-0.290288 -0.364816 0.311541
-0.290288 0.003523 -0.473024
-0.290288 -0.433646 -0.212444
-0.290288 -0.435796 -0.216161
-0.290288 -0.280866 -0.384504
-0.290288 0.487146 0.102287
-0.290288 -0.492046 0.065765
-0.290288 0.195851 0.451811
-0.290288 0.397713 -0.268073
-0.290288 0.469995 -0.115021
-0.290288 0.358914 0.296515
-0.290288 0.269241 -0.421297
-0.290288 -0.423823 -0.214527
-0.290288 -0.090812 -0.464576
-0.290288 -0.302042 0.377910
-0.290288 -0.311853 0.368906
-0.290288 -0.459914 -0.147363
-0.290288 0.420530 0.210207
-0.290288 0.148708 -0.434960
-0.290288 0.407161 -0.287122
-0.290288 -0.242831 -0.381607
-0.290288 -0.304906 -0.395224
-0.290288 -0.453662 0.128445
-0.290288 -0.411377 -0.256976
-0.290288 -0.461574 -0.168115
-0.290288 -0.137758 0.447121
-0.290288 -0.457701 0.177150
-0.290288 -0.104901 0.452354
-0.290288 -0.452612 0.162230
-0.290288 -0.091163 -0.491599
-0.290288 0.008609 -0.465124
-0.290288 0.454186 -0.054656
-0.290288 -0.148173 -0.430686
-0.290288 0.424102 0.207746
-0.290288 0.307117 -0.340088
-0.290288 0.011406 0.460459
-0.290288 -0.464636 0.029239
-0.290288 -0.093546 0.485999
-0.290288 -0.430060 0.162842
-0.290288 0.443659 0.088695
-0.290288 0.493777 -0.033741
-0.290288 -0.076581 0.449367
-0.290288 -0.394342 0.270223
-0.290288 0.456957 -0.059089
-0.290288 0.349092 0.309728
-0.290288 -0.259259 -0.378634
-0.290288 -0.218375 -0.395469
-0.290288 -0.451125 0.092819
-0.290288 -0.316239 -0.321217
-0.290288 0.190816 -0.410148
-0.290288 -0.059075 0.452272
-0.290288 0.018265 0.465031
-0.290288 0.306402 0.344005
-0.290288 -0.184528 0.421036
-0.290288 0.464865 0.016549
-0.290288 0.222935 0.438047
-0.290288 -0.002372 0.451513
-0.290288 0.424986 0.140956
-0.290288 -0.046612 -0.494157
-0.290288 -0.285971 -0.361014
-0.290288 0.316952 -0.367002
-0.290288 0.299172 0.367582
-0.290288 0.028783 -0.462386
-0.290288 -0.462463 -0.057818
-0.290288 -0.042927 0.462635
-0.290288 -0.345861 0.331875
-0.290288 0.040339 -0.498442
-0.290288 -0.478591 -0.066802
-0.290288 0.352233 0.332527
-0.290288 -0.435696 -0.094599
-0.290288 0.384539 -0.310747
-0.290288 -0.491734 0.031940
-0.290288 -0.178444 -0.441899
-0.290288 -0.493529 0.054425
-0.290288 -0.198413 -0.436986
-0.290288 0.449529 0.162252
-0.290288 -0.345790 -0.326173
-0.290288 -0.452209 0.051943
-0.290288 0.484896 -0.114119
-0.290288 0.239609 0.424590
-0.290288 0.297177 0.380725
-0.290288 0.178601 0.450402
-0.290288 0.446859 -0.111055
-0.290288 -0.449669 0.082217
-0.290288 0.398900 -0.212970
-0.290288 -0.030428 -0.494452
-0.290288 0.401302 0.242596
-0.290288 -0.488285 -0.064774
-0.290288 -0.447291 0.052395
-0.290288 -0.187804 -0.405820
-0.290288 -0.483246 -0.051819
-0.290288 -0.380570 0.317530
-0.290288 -0.053409 -0.470410
-0.290288 -0.073862 -0.473385
-0.290288 0.158312 -0.427252
-0.290288 -0.436777 -0.087924
-0.290288 -0.477032 0.127595
-0.290288 0.449113 -0.216124
-0.290288 -0.186939 0.452317
-0.290288 0.415488 0.247288
-0.290288 -0.148330 -0.470017
-0.290288 -0.197924 0.431564
-0.290288 0.469398 -0.109138
-0.290288 -0.101644 0.438744
-0.290288 0.437620 0.144197
-0.290288 0.113202 -0.461085
-0.290288 0.344477 0.299896
-0.290288 -0.096585 -0.464073
-0.290288 -0.489224 0.087274
-0.290288 0.441450 -0.121549
-0.290288 -0.292871 0.361593
-0.290288 0.247874 0.372240
-0.290288 0.015330 -0.475213
-0.290288 0.402740 0.232745
-0.290288 0.092753 -0.438595
-0.290288 -0.224553 -0.406490
-0.290288 0.358008 -0.283712
-0.290288 0.496105 -0.042129
-0.290288 -0.485293 0.031399
-0.290288 -0.412698 -0.271086
-0.290288 0.187856 0.418414
-0.290288 0.455667 -0.073751
-0.290288 -0.029453 -0.458405
-0.290288 0.461271 0.077886
-0.290288 0.285538 0.359370
-0.290288 0.415740 -0.179676
-0.290288 0.359145 0.319124
-0.290288 -0.085513 0.435226
-0.290288 0.041792 -0.470861
-0.290288 -0.381661 0.277026
-0.290288 0.177163 -0.413496
-0.290288 0.306103 -0.333102
-0.290288 -0.007026 -0.479088
-0.290288 -0.012594 0.455731
-0.290288 0.441456 0.144187
-0.290288 -0.495916 0.033389
-0.290288 0.379431 -0.250891
-0.290288 0.116663 0.467663
-0.290288 -0.460839 0.045099
-0.290288 0.391400 0.275690
-0.290288 -0.402508 -0.201998
-0.290288 -0.143593 -0.473194
-0.290288 0.011385 -0.462219
-0.290288 -0.236285 0.406489
-0.290288 -0.287979 -0.403621
-0.290288 -0.139710 -0.473190
-0.290288 0.349783 -0.298937
-0.290288 -0.058685 0.488758
-0.290288 -0.136634 0.424933
-0.290288 0.406932 -0.231056
-0.290288 0.161907 -0.454723
-0.290288 0.007456 -0.460589
-0.290288 -0.368498 0.296385
-0.290288 0.197070 0.398944
-0.290288 0.125772 0.457867
-0.290288 0.436094 0.169017
-0.290288 -0.163078 0.420672
-0.290288 0.032392 0.442023
-0.290288 -0.118223 0.469157
-0.290288 -0.375576 0.279496
-0.290288 -0.184287 -0.432440
-0.290288 -0.481537 0.052066
-0.290288 -0.315478 -0.363081
-0.290288 0.248199 0.393994
-0.290288 -0.422699 0.192153
-0.290288 0.123506 -0.461174
-0.290288 0.429930 0.186677
-0.290288 -0.285187 -0.395318
-0.290288 0.031289 0.490656
-0.290288 -0.282786 0.347050
-0.290288 0.356116 0.344052
-0.290288 -0.232205 -0.395658
-0.290288 0.231931 0.432327
-0.290288 -0.094634 0.482576
-0.290288 0.052828 0.464009
-0.290288 0.334410 0.350778
-0.290288 0.145964 -0.428389
-0.290288 0.079363 -0.462476
-0.290288 0.239236 0.428640
-0.290288 -0.449338 0.197102
-0.290288 0.158324 -0.432290
-0.290288 -0.467909 0.102339
-0.290288 0.427250 -0.143844
-0.290288 -0.257795 -0.410455
-0.290288 -0.171505 -0.451979
-0.290288 0.476637 -0.071250
-0.290288 -0.438499 0.082886
-0.290288 -0.126664 -0.453024
-0.290288 -0.193509 0.408330
-0.290288 0.316085 0.340644
-0.290288 -0.245432 0.389575
-0.290288 0.040168 -0.483034
-0.290288 0.444066 -0.164779
-0.290288 -0.435450 0.197406
-0.290288 0.403583 -0.240304
-0.290288 0.258046 0.381875
-0.290288 0.427493 0.205960
-0.290288 0.104919 -0.450606
-0.290288 0.349413 -0.308237
-0.290288 0.363283 0.271499
-0.290288 0.005232 0.487316
-0.290288 0.338213 0.349548
-0.290288 -0.335213 0.313442
-0.290288 0.431864 0.130529
-0.290288 0.221054 0.403790
-0.290288 -0.358903 -0.289336
-0.290288 -0.473873 -0.046685
-0.290288 0.096238 0.467894
-0.290288 -0.070432 -0.460485
-0.290288 -0.270907 -0.384508
-0.290288 -0.153904 0.426222
-0.290288 0.367335 -0.281721
-0.290288 -0.252370 0.381085
-0.290288 -0.444511 -0.033908
-0.290288 0.233068 0.405843
-0.290288 0.095256 -0.460671
-0.290288 0.360042 -0.324920
-0.290288 0.399334 0.227140
-0.290288 0.359764 0.267569
-0.290288 -0.453395 0.099885
-0.290288 -0.291689 -0.396489
-0.290288 -0.111749 0.447068
-0.290288 -0.309160 0.386972
-0.290288 0.003758 0.466833
-0.290288 -0.150288 -0.462058
-0.290288 0.328112 -0.334891
-0.290288 -0.443789 -0.136290
-0.290288 -0.089739 0.457042
-0.290288 0.497674 -0.025305
-0.290288 -0.392919 0.291435
-0.290288 -0.454129 -0.092135
-0.290288 0.332345 0.363328
-0.290288 0.328972 0.361936
-0.290288 -0.144661 -0.469039
-0.290288 -0.430452 0.126055
-0.290288 0.443986 0.083466
-0.290288 0.143518 -0.475315
-0.290288 0.214702 -0.440387
-0.290288 0.193374 -0.428619
-0.290288 -0.290682 0.347208
-0.290288 -0.471316 0.037246
-0.290288 -0.419177 -0.160517
-0.290288 0.330941 0.345642
-0.290288 -0.119529 -0.450072
-0.290288 -0.109830 -0.434206
-0.290288 0.039695 0.453330
-0.290288 -0.108217 0.467624
-0.290288 0.441664 0.123466
-0.290288 0.211766 -0.432381
-0.290288 0.487736 0.083906
-0.290288 0.470886 0.019667
-0.290288 0.450256 0.104060
-0.290288 -0.482269 -0.019122
-0.290288 0.442534 -0.171658
-0.290288 0.492115 -0.053062
-0.290288 -0.438377 0.142285
-0.290288 0.452184 -0.051512
-0.290288 0.442197 0.176069
-0.290288 -0.310599 -0.320826
-0.290288 -0.379953 -0.257309
-0.290288 0.434254 0.102878
-0.290288 0.468902 0.150689
-0.290288 0.289208 0.362866
-0.290288 0.363859 -0.319917
-0.290288 -0.473110 -0.062788
-0.290288 0.474698 0.039137
-0.290288 0.478284 -0.107731
-0.290288 -0.389496 -0.276995
-0.290288 -0.442096 0.105023
-0.290288 0.389940 0.265401
-0.290288 0.150689 0.459905
-0.290288 -0.290169 -0.354210
-0.290288 0.463837 -0.151165
-0.290288 -0.464670 -0.110785
-0.290288 -0.410910 0.168833
-0.290288 -0.341898 0.332811
-0.290288 -0.116192 -0.446004
-0.290288 0.052986 -0.468198
-0.290288 -0.419912 -0.210521
-0.290288 0.223136 0.407214
-0.290288 0.208536 0.446122
-0.290288 0.119150 0.427045
-0.290288 0.205881 0.441161
-0.290288 -0.027804 -0.454437
-0.290288 0.460724 0.009247
-0.290288 0.284132 -0.372885
-0.290288 -0.382213 0.289478
-0.290288 -0.350705 0.312726
-0.290288 -0.232284 0.432820
-0.290288 0.165818 0.411560
-0.290288 -0.164945 0.423159
-0.290288 0.007232 -0.490912
-0.290288 0.475923 -0.076822
-0.290288 0.285691 0.386557
-0.290288 0.439753 0.220988
-0.290288 0.180519 -0.448346
-0.290288 -0.045140 -0.459365
-0.290288 -0.464236 -0.093762
-0.290288 -0.201889 0.411700
-0.290288 -0.208121 0.423257
-0.290288 -0.039557 -0.496664
-0.290288 0.136786 0.456466
-0.290288 -0.431182 -0.135453
-0.290288 0.098479 -0.465354
-0.290288 0.378402 -0.257603
-0.290288 -0.244746 0.426347
-0.290288 -0.455768 -0.146247
-0.290288 0.484567 -0.067874
-0.290288 -0.443541 0.155852
-0.290288 0.226757 0.401744
-0.290288 -0.336223 -0.322268
-0.290288 -0.452513 0.148555
-0.290288 -0.061258 0.463008
-0.290288 0.451007 0.175576
-0.290288 0.184388 -0.461072
-0.290288 -0.403683 0.270139
-0.290288 0.145253 0.444479
-0.290288 0.302748 0.338964
-0.290288 0.370566 0.307144
-0.290288 0.130166 0.457410
-0.290288 -0.470359 0.128230
-0.290288 0.250395 0.401818
-0.290288 -0.251874 -0.391090
-0.290288 -0.138302 0.443276
-0.290288 -0.425586 -0.221375
-0.290288 0.428572 0.160869
-0.290288 -0.480192 -0.081366
-0.290288 0.000457 -0.470219
-0.290288 -0.422966 -0.256239
-0.290288 0.107858 0.447023
-0.290288 0.166191 -0.434531
-0.290288 0.244335 0.380851
-0.290288 -0.437913 -0.213555
-0.290288 0.069638 0.440667
-0.290288 0.404665 0.226713
-0.290288 0.385883 0.271404
-0.290288 0.351106 -0.349302
-0.290288 -0.195180 -0.422082
-0.290288 0.113545 0.478487
-0.290288 -0.496126 0.020299
-0.290288 -0.448078 0.070253
-0.290288 -0.438222 -0.152623
-0.290288 0.176279 0.427200
-0.290288 -0.435836 0.120866
-0.290288 0.140968 -0.431271
-0.290288 0.487097 -0.011085
-0.290288 -0.133389 -0.460128
-0.290288 0.487892 0.016372
-0.290288 0.479830 -0.089901
-0.290288 -0.322354 0.360766
-0.290288 -0.327923 -0.361062
-0.290288 0.497259 0.025106
-0.290288 -0.223660 0.420641
-0.290288 -0.112346 0.468566
-0.290288 -0.445450 -0.076557
-0.290288 -0.470866 -0.071169
-0.290288 0.218719 -0.391534
-0.290288 -0.374628 -0.298981
-0.290288 0.314973 -0.370916
-0.290288 0.429888 0.240486
-0.290288 -0.285022 0.396946
-0.290288 0.188604 -0.454347
-0.290288 0.357405 -0.329377
-0.290288 -0.323199 -0.327560
-0.290288 -0.362019 0.280072
-0.290288 -0.271056 0.377804
-0.290288 -0.006057 0.451723
-0.290288 0.407100 0.212428
-0.290288 -0.113344 -0.447760
-0.290288 0.408010 -0.199893
-0.290288 0.349478 -0.278950
-0.290288 -0.408527 0.248096
-0.290288 -0.358767 0.342464
-0.290288 -0.003432 -0.475908
-0.290288 0.256419 -0.407857
-0.290288 0.310557 -0.391965
-0.290288 0.391958 0.262753
-0.290288 0.211084 0.401689
-0.290288 -0.438842 0.152475
-0.290288 -0.298809 0.370142
-0.290288 -0.433176 -0.156366
-0.290288 0.242269 0.404045
-0.290288 -0.241828 0.429389
-0.290288 0.389848 -0.273317
-0.290288 0.267080 -0.407777
-0.290288 0.184006 -0.446858
-0.290288 0.335691 0.301925
-0.290288 -0.428914 -0.148098
-0.290288 0.473787 -0.043534
-0.290288 -0.144658 -0.460633
-0.290288 -0.431796 0.243784
-0.290288 -0.153463 -0.448779
-0.290288 -0.182199 -0.450203
-0.290288 -0.411700 0.244938
-0.290288 0.207193 0.436743
-0.290288 -0.256455 0.365233
-0.290288 0.203736 -0.422992
-0.290288 -0.003214 0.447569
-0.290288 0.370188 0.292905
-0.290288 -0.026942 -0.461349
-0.290288 0.310122 -0.338433
-0.290288 -0.419237 0.257143
-0.290288 -0.450268 -0.164884
-0.290288 -0.486182 0.093691
-0.290288 -0.412660 -0.238569
-0.290288 0.359260 0.262505
-0.290288 0.301281 -0.337487
-0.290288 0.391955 -0.307978
-0.290288 -0.396175 -0.278242
-0.290288 0.163671 -0.442216
-0.290288 0.308774 0.349040
-0.290288 -0.358165 -0.343188
-0.290288 -0.064339 -0.461607
-0.290288 -0.314690 0.352185
-0.290288 -0.345030 -0.283376
-0.290288 0.228652 -0.415644
-0.290288 0.059466 -0.469827
-0.290288 -0.073665 0.485450
-0.290288 0.225720 -0.417458
-0.290288 -0.221197 -0.416268
-0.290288 0.444887 -0.124133
-0.290288 -0.393857 -0.298133
-0.290288 0.091621 0.464330
-0.290288 0.236726 -0.380542
-0.290288 0.479611 0.099923
-0.290288 0.469703 0.128793
-0.290288 0.132175 -0.476569
-0.290288 -0.310264 0.329736
-0.290288 0.479646 0.108480
-0.290288 0.381151 0.271878
-0.290288 0.352524 -0.309864
-0.290288 0.086510 0.482726
-0.290288 -0.328108 0.323210
-0.290288 0.432853 -0.158503
-0.290288 -0.218362 0.420516
-0.290288 0.445811 0.189862
-0.290288 -0.027405 -0.494423
-0.290288 -0.450842 0.073072
-0.290288 -0.232480 0.413531
-0.290288 0.279461 -0.413261
-0.290288 -0.180262 -0.447579
-0.290288 0.356563 -0.277328
-0.290288 0.099927 0.433527
-0.290288 0.383223 0.283873
-0.290288 0.423496 -0.256629
-0.290288 0.296891 -0.359926
-0.290288 0.399489 -0.292929
-0.290288 -0.229523 -0.401231
-0.290288 -0.422768 0.251463
-0.290288 0.306286 0.378404
-0.290288 0.447125 -0.163362
-0.290288 0.006776 -0.486103
-0.290288 -0.196181 -0.454867
-0.290288 -0.435556 -0.101747
-0.290288 -0.463399 0.156101
-0.290288 -0.218705 -0.391439
-0.290288 0.081107 0.489112
-0.290288 -0.253010 0.368617
-0.290288 0.052469 -0.445341
-0.290288 0.454289 -0.184112
-0.290288 -0.291005 0.392498
-0.290288 -0.260767 -0.364200
-0.290288 0.072134 -0.472766
-0.290288 -0.052161 0.480882
-0.290288 0.092528 0.485272
-0.290288 -0.094355 -0.438122
-0.290288 0.236074 0.436290
-0.290288 0.017754 -0.480459
-0.290288 0.311568 -0.321340
-0.290288 0.077402 -0.442003
-0.290288 -0.393132 -0.267284
-0.290288 -0.398955 -0.266461
-0.290288 0.471232 0.153690
-0.290288 -0.426496 0.163343
-0.290288 -0.455388 -0.111330
-0.290288 0.306022 0.388160
-0.290288 0.126620 -0.451887
-0.290288 0.035718 0.478735
-0.290288 -0.363040 0.255109
-0.290288 0.453884 -0.076747
-0.290288 0.034670 0.469420
-0.290288 0.408017 0.253634
-0.290288 -0.105991 -0.436143
-0.290288 -0.334936 0.298833
-0.290288 -0.319226 -0.320213
-0.290288 0.409940 0.276913
-0.290288 0.282269 0.343553
-0.290288 0.137699 0.467785
-0.290288 0.245653 -0.399390
-0.290288 -0.422839 0.212460
-0.290288 0.331490 0.335951
-0.290288 -0.466877 -0.055809
-0.290288 -0.288404 -0.387592
-0.290288 0.276715 -0.386765
-0.290288 -0.395208 -0.241151
-0.290288 -0.181730 -0.465539
-0.290288 0.162109 -0.433276
-0.290288 0.359607 0.284551
-0.290288 0.416007 -0.264221
-0.290288 0.449638 -0.089211
-0.290288 -0.427940 -0.192864
-0.290288 0.474043 0.078925
-0.290288 -0.173277 -0.445499
-0.290288 -0.041301 0.483927
-0.290288 0.389240 0.291595
-0.290288 -0.342482 -0.359929
-0.290288 -0.012630 0.485738
-0.290288 0.326819 0.356141
-0.290288 -0.411102 0.242010
-0.290288 0.310130 -0.382360
-0.290288 -0.094342 0.449943
-0.290288 -0.446328 0.038377
-0.290288 0.068309 -0.447803
-0.290288 0.463495 0.168672
-0.290288 0.398167 -0.239587
-0.290288 -0.008048 -0.471118
-0.290288 0.330607 -0.326435
-0.290288 -0.273068 0.381841
-0.290288 -0.233300 0.378904
-0.290288 -0.064323 0.446578
-0.290288 -0.363511 -0.295153
-0.290288 -0.412798 -0.179509
-0.290288 -0.365874 0.321270
-0.290288 0.432384 -0.123842
-0.290288 0.335294 0.354964
-0.290288 -0.265971 -0.375786
-0.290288 0.266191 0.405474
-0.290288 -0.469783 0.074853
-0.290288 -0.496894 0.012806
-0.290288 0.170739 -0.453793
-0.290288 -0.458046 0.092964
-0.290288 0.066426 -0.488354
-0.290288 0.454867 0.177173
-0.290288 -0.200427 -0.444072
-0.290288 0.328538 0.372286
-0.290288 -0.465423 0.133118
-0.290288 0.289070 0.403377
-0.290288 0.385306 0.278539
-0.290288 -0.255744 0.379493
-0.290288 -0.114849 0.454678
-0.290288 -0.400396 0.208378
-0.290288 -0.201405 -0.408248
-0.290288 -0.362922 0.268459
-0.290288 0.417182 0.258532
-0.290288 -0.015097 -0.489835
-0.290288 -0.322410 -0.320765
-0.290288 0.427707 -0.180987
-0.290288 -0.248946 0.404064
-0.290288 -0.063578 -0.475934
-0.290288 -0.262230 0.404150
-0.290288 0.384685 -0.293395
-0.290288 0.387722 0.245740
-0.290288 -0.299830 0.393936
-0.290288 0.438894 0.177316
-0.290288 -0.273918 -0.382501
-0.290288 -0.212963 -0.446031
-0.290288 -0.398410 -0.211141
-0.290288 0.118713 0.472524
-0.290288 0.220656 -0.413729
-0.290288 0.009961 -0.478583
-0.290288 0.449607 0.156431
-0.290288 -0.182196 0.423600
-0.290288 0.479215 0.083600
-0.290288 0.138158 0.442591
-0.290288 0.319232 0.374914
-0.290288 -0.251073 -0.383814
-0.290288 0.155294 -0.474144
-0.290288 -0.370316 0.311338
-0.290288 0.461648 -0.129132
-0.290288 0.265971 0.408931
-0.290288 0.435726 -0.122116
-0.290288 0.263992 -0.394725
-0.290288 -0.391355 -0.240610
-0.290288 -0.391294 0.220748
-0.290288 -0.413374 -0.194529
-0.290288 -0.451098 0.015788
-0.290288 -0.074374 0.446010
-0.290288 0.338298 -0.307706
-0.290288 0.223595 -0.426184
-0.290288 0.478929 0.115513
-0.290288 -0.449505 -0.064370
-0.290288 -0.307630 -0.362476
-0.290288 0.340559 -0.289742
-0.290288 -0.304894 -0.351554
-0.290288 0.459838 -0.159169
-0.290288 -0.395313 -0.263783
-0.290288 -0.020689 -0.487578
-0.290288 0.498001 0.006685
-0.290288 0.120123 -0.464658
-0.290288 0.445169 0.203848
-0.290288 0.468933 0.063044
-0.290288 -0.029094 -0.448001
-0.290288 -0.385607 0.226621
-0.290288 0.347929 0.299225
-0.290288 0.406589 -0.264535
-0.290288 0.287491 -0.343017
-0.290288 -0.375714 0.294094
-0.290288 -0.269074 0.373135
-0.290288 -0.089007 -0.483586
-0.290288 0.211308 0.413982
-0.290288 0.450043 0.099046
-0.290288 0.447729 0.140090
-0.290288 -0.429149 0.202793
-0.290288 0.338580 -0.349415
-0.290288 -0.471429 -0.091645
-0.290288 0.468582 -0.157103
-0.290288 -0.077549 -0.490225
-0.290288 0.057412 0.441730
-0.290288 -0.493950 -0.042982
-0.290288 0.248641 -0.397773
-0.290288 -0.336910 0.355115
-0.290288 -0.446252 0.103774
-0.290288 0.200821 0.438022
-0.290288 -0.423003 0.175741
-0.290288 -0.478199 0.080824
-0.290288 -0.234375 -0.416374
-0.290288 0.268491 0.390812
-0.290288 -0.432760 -0.106485
-0.290288 -0.432719 -0.164162
-0.290288 -0.070009 0.486755
-0.290288 0.172307 0.456705
-0.290288 -0.378528 -0.290870
-0.290288 -0.252069 0.376857
-0.290288 0.315143 0.376876
-0.290288 0.268554 -0.396917
-0.290288 0.031299 0.467516
-0.290288 0.003227 -0.480833
-0.290288 0.397225 0.221939
-0.290288 -0.350987 -0.304870
-0.290288 -0.440403 -0.174253
-0.290288 -0.225110 0.395034
-0.290288 0.177693 0.423691
-0.290288 -0.351093 0.288753
-0.290288 0.125074 -0.455569
-0.290288 -0.423428 -0.218922
-0.290288 -0.089586 -0.478492
-0.290288 -0.321179 -0.381403
-0.290288 0.250878 0.391485
-0.290288 -0.235483 0.412122
-0.290288 -0.446378 -0.056499
-0.290288 0.248154 -0.412613
-0.290288 -0.138643 0.464250
-0.290288 0.122938 0.476248
-0.290288 0.066874 0.465721
-0.290288 -0.487044 0.098863
-0.290288 0.197037 -0.420118
-0.290288 0.486622 0.019606
-0.290288 0.242014 0.415294
-0.290288 0.468433 -0.083267
-0.290288 -0.417385 0.267121
-0.290288 -0.463811 -0.043415
-0.290288 -0.082741 0.477315
-0.290288 -0.425111 -0.170878
-0.290288 -0.376182 0.290775
-0.290288 -0.153214 0.460338
-0.290288 -0.321608 0.330942
-0.290288 0.092875 -0.486428
-0.290288 -0.374257 0.247024
-0.290288 0.347605 -0.327898
-0.290288 0.229317 -0.396418
-0.290288 -0.092020 0.445722
-0.290288 -0.387829 0.295613
-0.290288 0.290797 -0.389645
-0.290288 0.397693 0.242078
-0.290288 0.109257 -0.458830
-0.290288 0.458124 -0.100206
-0.290288 0.267545 -0.388674
-0.290288 0.456221 0.183066
-0.290288 0.474886 0.045568
-0.290288 -0.018441 -0.481253
-0.290288 0.435358 -0.108191
-0.290288 -0.334270 -0.316920
-0.290288 -0.317889 -0.367825
-0.290288 0.421171 -0.262865
-0.290288 -0.463654 -0.006670
-0.290288 0.201889 0.452509
-0.290288 0.393832 0.246418
-0.290288 0.368956 -0.330463
-0.290288 0.255770 -0.397990
-0.290288 0.449663 -0.113385
-0.290288 0.440486 -0.212503
-0.290288 0.184879 0.441112
-0.290288 -0.461111 0.083455
-0.290288 0.113468 0.430576
-0.290288 0.378677 0.244075
-0.290288 -0.410765 0.180954
-0.290288 -0.263504 -0.380160
-0.290288 0.460905 -0.001725
-0.290288 0.457469 -0.001737
-0.290288 0.287059 0.376353
-0.290288 -0.168090 0.416450
-0.290288 -0.445865 -0.030230
-0.290288 -0.269406 0.386427
-0.290288 0.469480 0.104340
-0.290288 -0.425260 -0.185839
-0.290288 0.423211 0.153230
-0.290288 -0.224755 0.410382
-0.290288 -0.272125 -0.411012
-0.290288 0.490382 0.009108
-0.290288 0.306254 0.337601
-0.290288 0.361785 -0.307452
-0.290288 0.380055 0.241139
-0.290288 -0.420979 -0.202504
-0.290288 0.107245 -0.447800
-0.290288 -0.461394 0.087167
-0.290288 -0.070699 0.445530
-0.290288 -0.278976 -0.350055
-0.290288 -0.388251 -0.256974
-0.290288 0.329667 -0.303517
-0.290288 -0.467394 0.115005
-0.290288 0.380409 -0.271815
-0.290288 -0.349490 0.351172
-0.290288 0.446806 -0.054325
-0.290288 0.043492 -0.452189
-0.290288 0.091715 0.477146
-0.290288 0.444148 0.157127
-0.290288 0.317648 -0.317622
-0.290288 0.468639 0.081092
-0.290288 0.385709 0.301318
-0.290288 -0.200442 -0.456973
-0.290288 -0.120868 -0.468498
-0.290288 -0.408870 0.278838
-0.290288 0.132413 0.439090
-0.290288 0.477140 -0.134968
-0.290288 -0.055482 0.480893
-0.290288 0.196191 0.442954
-0.290288 -0.453205 -0.017229
-0.290288 0.467449 -0.163338
-0.290288 0.149505 0.467080
-0.290288 0.072148 0.455051
-0.290288 0.032558 -0.498417
-0.290288 -0.212370 -0.404915
-0.290288 -0.471701 0.154328
-0.290288 -0.065701 -0.468878
-0.290288 -0.392612 -0.258007
-0.290288 0.190025 0.405351
-0.290288 0.028303 -0.498456
-0.290288 0.021076 -0.496442
-0.290288 0.469070 0.166279
-0.290288 -0.337444 -0.312776
-0.290288 0.437714 -0.239932
-0.290288 0.287232 -0.409034
-0.290288 0.117020 -0.463098
-0.290288 -0.430121 -0.241343
-0.290288 -0.327140 0.303279
-0.290288 0.426281 0.228262
-0.290288 -0.392325 0.247170
