0.171634 -0.149697 -0.476946
-0.038891 -0.251569 0.427268
-0.081859 0.204657 -0.456546
-0.188797 -0.022719 0.495424
-0.143659 0.180980 0.461945
-0.036899 -0.180646 -0.466039
0.136436 -0.344722 -0.361307
-0.215530 0.413152 0.276568
-0.005118 0.495939 -0.052243
0.233529 -0.495255 0.044741
0.035610 -0.493431 0.061613
0.079174 0.057138 -0.497107
-0.011923 -0.084816 0.488601
-0.063884 -0.494925 0.047793
-0.046974 0.207202 -0.455437
0.152465 -0.332501 -0.372376
0.049600 0.093441 0.487088
-0.160507 0.468383 0.168458
0.088785 0.115076 -0.486924
-0.081798 -0.497345 0.010778
0.211046 0.025217 0.495154
0.224234 -0.479367 0.131285
0.157825 -0.475803 -0.147972
-0.119725 -0.471012 -0.162217
0.067409 -0.102412 -0.489523
-0.016605 0.429084 0.251427
-0.222073 0.015674 0.495582
0.150827 -0.342256 0.359061
-0.165520 -0.462210 -0.186287
0.102936 0.220907 -0.448684
0.082630 -0.489442 -0.091886
-0.256254 0.497644 -0.031307
0.178584 0.418803 0.268009
0.170489 0.136837 0.476829
0.112516 0.094235 -0.491290
-0.225375 0.498647 -0.008605
-0.073083 0.283453 0.407574
-0.213880 -0.283632 -0.411086
0.266986 -0.371919 -0.332794
-0.261422 0.397495 0.298403
0.219426 0.490780 -0.089282
-0.124087 -0.467924 -0.171170
0.013386 0.177941 -0.467685
-0.168785 0.454063 0.203924
0.113726 0.436448 -0.243014
0.101111 -0.412918 0.275503
-0.124426 0.495781 -0.053710
0.241543 0.478414 0.137873
-0.156764 0.416935 -0.275578
0.008574 0.497537 -0.033708
0.066831 -0.037611 0.494304
-0.190600 0.498104 -0.021066
0.088953 0.016560 -0.499906
-0.061609 0.429495 0.250711
-0.200026 -0.070467 0.490677
-0.145917 -0.407138 -0.288479
-0.181458 -0.489434 -0.091924
0.275403 0.298229 0.397240
0.125705 0.488827 0.095356
0.231537 -0.244208 -0.436068
0.167228 0.495911 -0.052503
0.053939 -0.497337 -0.011587
0.209856 0.257373 0.424406
-0.234586 0.161975 -0.473211
0.152582 -0.191557 -0.461762
0.075235 -0.381962 -0.321089
0.074071 -0.170091 0.465704
-0.063723 0.486422 -0.111147
-0.278399 -0.426309 0.254291
-0.290169 0.260182 -0.427270
0.110213 -0.196338 -0.459617
0.051566 0.402070 0.292338
0.138508 -0.371647 0.328673
-0.285351 0.438836 0.234421
-0.270156 -0.392169 -0.308457
-0.271445 -0.315945 0.382404
-0.018788 0.342135 -0.364530
-0.099050 -0.453862 0.201506
0.154531 -0.085465 0.488507
-0.138285 0.127235 0.479514
-0.172706 -0.457533 0.193325
0.088395 0.498373 0.006602
-0.084468 0.286633 0.405350
-0.123789 -0.496701 -0.031256
-0.223312 0.387801 -0.315163
0.107920 -0.493340 0.062461
0.001017 -0.340261 0.361004
-0.222184 -0.455868 -0.201499
0.084848 0.473316 0.154157
-0.229718 -0.278570 -0.414626
0.059860 -0.357110 -0.348659
0.104168 0.170881 0.465734
-0.152256 -0.281571 0.408259
-0.139234 0.197066 -0.459711
-0.188346 0.488321 0.097771
-0.119252 0.064662 0.491728
-0.024905 -0.470412 0.160161
-0.194392 0.448504 0.215206
-0.265578 0.195282 0.456197
0.007379 0.022771 -0.499795
0.099991 0.258549 0.423689
0.002688 0.345797 -0.360965
-0.195086 -0.129715 0.478436
0.129600 0.167682 0.466935
-0.056231 0.495044 -0.060524
-0.281963 0.305135 -0.396109
0.095200 0.115786 0.482235
-0.194181 -0.354883 -0.350947
-0.058909 -0.496144 -0.038136
0.170969 0.378723 -0.326345
-0.119363 -0.495052 0.046619
-0.074063 -0.494535 0.051404
-0.104653 0.406489 0.286481
-0.216111 -0.178376 -0.466891
-0.106856 0.034803 -0.498968
-0.195284 0.000242 -0.500201
0.119442 0.225322 0.442198
0.146619 -0.409954 0.279740
-0.245078 0.479973 -0.137009
0.052677 0.266767 -0.423062
0.133466 -0.380205 0.319051
0.217598 -0.008490 -0.500212
0.089159 0.087299 -0.492743
-0.064688 -0.478824 -0.137027
0.264508 0.335884 0.365886
-0.020278 0.291789 0.401744
0.185055 -0.278449 0.410320
0.208753 0.462866 0.182817
0.276502 -0.457711 0.192928
-0.066022 -0.236182 -0.440294
-0.192137 -0.188654 -0.463034
-0.040478 0.051991 0.493097
0.114160 -0.449738 0.210694
-0.156234 0.497067 -0.041803
-0.202894 -0.030872 0.494850
0.213025 -0.338223 0.362988
-0.147562 -0.463098 0.179653
0.198042 -0.388619 0.308498
-0.262404 0.409626 -0.286028
-0.149512 0.470198 -0.167815
-0.199298 -0.227805 0.440427
0.153676 0.374116 0.327074
0.285981 0.119682 -0.485842
-0.029221 -0.436623 -0.240846
-0.152554 0.498421 0.003961
-0.155847 -0.469939 -0.165329
0.286499 -0.079252 -0.493708
-0.184412 0.325835 0.374988
-0.245581 0.424290 -0.263638
0.023407 -0.247925 0.429358
-0.063834 -0.257930 0.423620
0.181550 0.487962 0.099485
0.090079 0.288024 0.404378
-0.128426 -0.043672 0.493813
-0.197493 0.143961 0.474655
0.167759 0.219473 0.445277
-0.023416 -0.348752 0.352737
-0.008036 0.407000 -0.289784
-0.178969 -0.497428 0.008943
0.160536 -0.473926 0.149117
-0.255676 -0.469771 0.161870
0.263718 0.488627 -0.101785
-0.197755 0.498231 0.014466
0.145215 -0.497235 -0.017272
-0.191969 0.281884 0.408672
0.053315 -0.413383 0.274838
0.065661 0.181240 0.461847
-0.075908 0.498295 0.010942
0.062855 0.276197 0.412649
-0.255139 0.468463 0.168224
-0.075364 -0.105943 0.484269
0.037202 -0.489048 -0.093763
0.229905 -0.079685 0.489343
0.206071 0.302848 -0.397834
0.069510 -0.363507 0.337659
0.195533 0.322787 -0.381766
-0.259920 0.459843 -0.194813
0.119871 -0.024179 -0.499508
-0.117242 -0.165029 0.467450
-0.081787 -0.461714 0.183341
0.008789 -0.314624 0.383538
-0.271924 0.490258 0.088526
-0.015011 0.486877 -0.109232
0.248751 -0.137802 -0.480575
0.167791 -0.479204 -0.135650
0.196784 -0.248113 -0.433779
0.081740 0.357375 0.345086
-0.102662 0.050526 -0.497694
-0.286672 -0.238729 -0.438952
-0.190785 -0.476627 0.140264
-0.043666 -0.456813 -0.199231
-0.039009 0.498082 -0.021560
0.091277 0.246708 0.430908
0.048908 0.238734 0.435136
0.065427 0.472412 -0.161791
-0.074192 -0.434648 0.240132
-0.180608 -0.215067 0.446703
0.152256 -0.068362 -0.495571
0.014659 0.380585 0.319535
-0.249011 0.013657 -0.499959
-0.255467 -0.255110 -0.429514
-0.220402 0.476621 0.144367
0.204771 0.416919 -0.275601
-0.209358 -0.496773 -0.030371
0.225066 0.437548 -0.240925
0.115747 0.184555 -0.464927
-0.237274 0.477430 -0.145344
0.231052 0.460142 -0.194147
0.040589 -0.108903 0.483649
-0.064697 0.497844 -0.026866
-0.033661 -0.339335 0.361905
0.201185 -0.411428 0.277634
-0.157169 -0.420685 -0.267959
-0.288382 -0.421612 -0.266555
0.137856 0.411773 -0.282958
0.230287 0.084498 -0.493148
-0.048860 0.322970 -0.381609
-0.277974 -0.274082 0.413203
-0.236567 0.498148 0.019123
-0.285817 -0.095892 0.486375
0.093312 0.290834 -0.406898
-0.226832 -0.419835 -0.269247
0.217158 -0.389118 0.307873
0.259101 -0.410831 -0.282885
0.123211 0.496313 0.044342
0.271288 -0.388415 -0.313433
0.079132 0.479589 -0.138268
0.263552 0.076287 0.490041
-0.110383 0.453674 0.204713
0.025223 0.352421 0.350175
0.185301 -0.119129 -0.485550
-0.250888 0.476504 -0.148378
-0.150231 0.126485 -0.483964
-0.056508 -0.403627 -0.293270
0.060441 -0.490258 -0.087555
-0.194090 -0.473705 0.149839
-0.179231 0.218198 -0.450019
0.076211 0.498291 -0.016886
0.265386 -0.185400 0.459794
-0.191341 -0.334627 -0.370450
0.022944 0.490850 -0.088876
0.176360 -0.297615 0.396656
-0.134197 0.320405 0.379605
0.116013 0.091174 0.487479
-0.277742 0.492067 0.077782
0.090778 0.487206 0.103096
-0.101836 0.448739 0.214728
-0.128901 -0.342611 0.358716
0.211708 0.142229 -0.479618
0.150838 -0.085710 -0.492596
0.114694 0.130049 -0.482980
0.269696 0.481957 0.125038
-0.023375 -0.252056 0.426989
0.190236 0.485472 0.111371
-0.028514 -0.141155 0.475278
0.044113 -0.135258 0.476906
0.016073 0.461352 -0.191392
-0.198466 -0.462710 -0.185088
0.063523 0.450668 0.210813
0.028172 0.166937 0.467214
0.136469 -0.494975 -0.052568
0.253830 0.482649 0.122531
-0.255136 -0.226253 -0.445522
-0.262345 0.245281 -0.435815
0.221387 -0.191303 -0.461876
-0.162301 0.211330 -0.453403
-0.055191 -0.458322 -0.195613
-0.038790 0.176944 0.463459
0.114944 -0.288471 0.403554
0.158916 -0.169603 -0.470183
-0.103404 -0.021613 -0.499623
0.205790 0.173120 0.464894
0.005664 -0.466050 0.171785
0.006566 -0.325599 -0.378627
0.186565 -0.146489 0.473806
0.264955 -0.036522 0.494392
-0.013834 0.208096 -0.454996
-0.235977 0.312211 0.386139
0.040658 0.101087 -0.489854
0.221342 0.212685 0.448388
0.211408 0.032245 -0.499175
-0.125258 0.361796 -0.345034
-0.128154 0.492128 -0.081453
-0.236137 0.454007 -0.207820
-0.007294 0.373082 0.328279
-0.108892 0.063650 0.491837
-0.151017 0.355446 -0.351571
-0.166587 -0.495641 -0.044349
-0.093844 0.014910 -0.499936
0.074228 -0.117284 -0.485989
-0.055335 0.422892 0.261814
-0.107234 -0.357197 0.344516
0.101794 -0.048276 0.493440
-0.269275 -0.490207 0.082305
0.240219 -0.428859 0.250108
-0.180060 0.425068 0.258431
-0.175062 -0.372939 -0.331604
0.094130 0.053705 0.492912
0.286060 0.412032 -0.282588
-0.014074 0.480107 0.131738
-0.028955 0.168881 -0.470828
0.107462 0.027745 -0.499540
0.181040 0.497490 -0.034761
0.035170 -0.309137 -0.392126
-0.277713 -0.491179 -0.081188
-0.240366 -0.480194 0.128575
0.282366 -0.061514 0.491972
0.118515 -0.157403 0.470081
0.178716 -0.210929 0.448742
0.159577 0.126746 -0.483892
0.185448 -0.490693 0.079479
-0.276371 0.003630 0.495898
0.072641 -0.171793 -0.469361
-0.264547 0.159617 -0.474024
-0.043721 -0.486235 -0.107189
-0.222305 0.262882 -0.425627
0.155022 0.458076 -0.198753
-0.117602 -0.211026 0.448694
-0.149056 -0.026586 -0.499400
-0.267298 0.029578 0.494958
-0.133054 -0.495255 -0.049104
-0.014784 0.450087 -0.216555
-0.179628 0.014113 -0.499951
-0.086672 -0.004646 -0.500289
-0.163117 -0.490321 -0.087120
-0.289180 -0.491228 -0.080848
0.087699 -0.230140 0.439276
-0.249816 0.143165 -0.479360
0.240920 -0.328730 0.371434
-0.120447 -0.031055 -0.499200
0.043346 -0.170309 -0.469918
0.010472 -0.488505 0.092189
-0.014487 -0.458690 -0.194731
-0.074320 0.347996 0.354719
0.011711 0.060789 -0.496578
0.194797 -0.202329 0.452736
0.096401 0.490655 0.086632
-0.022101 -0.323042 -0.380943
0.101397 0.493376 0.068730
-0.003086 0.142446 0.475117
-0.201593 0.290881 -0.406862
0.087337 -0.497616 0.003922
0.056179 -0.152784 0.471675
-0.208744 -0.465222 -0.179002
-0.057259 0.253205 0.426947
-0.249938 0.152026 0.472195
0.035585 -0.496793 -0.030124
0.136248 -0.237693 -0.439498
0.164489 -0.295850 0.397987
0.127617 0.212275 0.448572
0.132951 0.481601 -0.131434
-0.003813 -0.189126 0.458241
-0.088266 0.497958 -0.024316
0.067025 0.479179 -0.139613
-0.256056 0.131192 0.478551
-0.015907 0.401224 -0.298042
0.243172 0.026870 0.495080
-0.239521 -0.215961 -0.450811
0.167132 0.492143 -0.081365
0.255694 -0.108476 0.483738
0.231008 0.496768 -0.044569
0.235088 0.316575 0.382659
0.256175 -0.105785 -0.488721
-0.091195 -0.479247 0.131676
0.253646 0.048342 0.493492
-0.237443 -0.227535 -0.444846
-0.091081 -0.119839 0.481162
-0.149633 -0.497442 0.008622
-0.185647 0.409553 -0.286133
0.051564 0.275831 0.412905
-0.075427 0.073313 0.490553
-0.166096 0.011798 -0.499992
0.181760 -0.084015 -0.492888
0.014951 -0.492176 -0.074299
-0.062688 0.245036 -0.435956
0.143672 0.494670 0.059785
0.244701 0.332659 0.368807
0.164595 0.490197 0.088818
0.163989 -0.493864 -0.062627
0.033884 -0.038622 -0.498785
0.255430 -0.490056 0.083178
-0.019581 -0.016995 0.495527
0.216633 -0.117716 -0.485886
-0.087224 0.351566 0.351053
-0.144621 0.344618 0.357976
-0.054962 0.268463 0.417645
0.163425 0.287964 0.404419
-0.266498 0.352584 -0.354358
0.236082 -0.114926 -0.486549
0.279655 0.493726 0.066312
-0.116946 0.481882 0.125309
-0.240724 0.271944 -0.419644
-0.283839 0.493729 0.066295
0.137843 -0.294794 -0.403279
0.097850 -0.458512 -0.195156
0.059503 -0.467685 -0.171862
0.277357 0.482256 -0.128677
0.119555 0.421318 -0.268513
-0.008249 0.474429 0.150929
0.246003 0.210116 0.449540
-0.148617 -0.373949 -0.330428
0.082042 0.496778 -0.044480
0.040896 0.347594 -0.359216
0.177863 0.447154 -0.222682
-0.166725 -0.470750 0.159261
0.017710 0.028427 -0.499485
0.073272 0.254911 0.425907
0.271924 0.476793 0.143743
0.046168 -0.345945 0.355470
0.130269 0.026546 -0.499637
-0.078073 0.423155 -0.265500
-0.290086 0.495967 0.048613
-0.040731 0.465309 -0.180844
0.268057 0.447221 -0.222553
0.023466 -0.286159 -0.409318
-0.084459 -0.197019 -0.459311
-0.262431 -0.246738 -0.434618
0.148884 -0.233964 -0.441462
0.159005 0.490451 -0.091190
0.108526 0.483960 -0.121507
-0.205970 0.372020 -0.333745
0.179527 -0.398297 0.296361
0.282801 0.329819 0.371379
0.098071 -0.027752 -0.499348
-0.252470 0.069984 0.491126
0.013586 -0.211340 -0.452885
0.076463 -0.352604 0.348987
0.182166 -0.424807 -0.261451
-0.084696 0.067533 0.491418
0.144983 0.434346 0.242252
0.026973 -0.022814 0.495422
0.071806 0.308081 -0.393887
0.153899 0.006910 -0.500080
0.122969 -0.059095 0.492322
-0.038141 0.498481 0.000604
0.236062 0.422584 0.262281
0.169172 -0.037676 0.494299
-0.080796 0.195079 0.456288
0.253058 0.344239 -0.362482
0.026585 -0.305789 0.390489
0.202091 -0.340871 -0.364795
0.073460 0.212529 -0.452812
0.006777 0.400456 -0.299141
0.175240 -0.390100 -0.311199
0.151012 -0.004067 0.495760
0.137744 0.498636 -0.009205
0.284042 -0.037476 0.494315
0.082817 -0.184527 0.460158
0.138320 -0.335193 0.365888
0.181356 -0.485998 0.104263
-0.134003 0.273508 0.414530
-0.198408 -0.415769 0.271426
0.264263 0.418244 -0.273555
-0.029155 0.358394 0.344040
-0.112158 -0.486154 -0.107576
0.059526 0.168191 0.466744
-0.269414 -0.476187 -0.146580
-0.091948 -0.494893 -0.053570
-0.161785 0.300916 -0.399292
-0.169423 0.285733 -0.410541
0.116555 0.492165 -0.081237
-0.179983 -0.149849 0.472687
0.078709 0.407693 -0.288793
0.222480 -0.251300 -0.431837
0.025562 0.072679 0.490662
0.249899 -0.016177 0.495542
0.042018 0.371158 -0.334697
-0.225730 0.483850 -0.121969
0.256326 -0.379064 0.320482
-0.073990 -0.181671 -0.465654
-0.125102 0.325856 0.374969
0.257053 0.480280 -0.136004
-0.249452 0.269946 0.416741
0.166192 0.460105 -0.194230
0.144387 0.486894 0.104587
-0.258323 0.474395 0.151029
0.067057 -0.373287 -0.331199
0.035892 -0.490005 0.083477
0.184968 -0.454750 -0.204180
0.175805 0.483830 -0.122053
-0.238775 -0.448242 0.214030
-0.075029 -0.205467 0.451428
-0.144438 -0.091574 0.487279
0.155527 -0.215443 0.446518
0.228567 -0.200794 -0.457617
-0.134219 0.358475 0.343956
-0.108856 0.497792 -0.028019
0.251110 0.167839 0.466876
0.024792 0.442855 0.226670
0.093480 -0.257583 0.423819
-0.030301 0.101662 0.485591
0.214045 0.489036 0.094360
0.173768 -0.490241 0.082104
0.088872 -0.466559 0.170429
0.008822 -0.170704 0.465493
-0.116549 -0.019942 -0.499698
-0.210332 0.437686 -0.240663
0.116065 0.411971 0.278358
-0.067035 -0.497405 -0.007786
0.064345 -0.463578 0.178373
-0.162447 0.265908 0.419203
-0.055720 -0.317599 0.380985
-0.234195 -0.493747 -0.063434
0.015631 -0.468180 -0.170427
0.226146 0.007025 -0.500078
0.114757 -0.380929 -0.322293
0.042708 -0.334842 -0.370256
-0.037379 0.125894 0.479833
-0.180820 0.453638 0.204786
-0.134061 -0.486287 0.103048
0.070792 -0.015611 0.495552
-0.150700 -0.303790 0.391997
-0.281346 -0.106684 -0.488508
0.189075 0.449171 -0.218595
-0.055138 0.498537 -0.002486
-0.124321 0.492561 0.074362
-0.182380 -0.330827 0.369635
0.134708 0.462485 0.183732
0.220376 -0.483082 -0.121603
0.149282 -0.112374 -0.487155
0.166285 -0.354467 0.347173
0.050449 -0.378563 0.321036
-0.230477 0.338425 -0.368142
0.098059 0.153861 -0.476010
-0.085442 -0.142403 0.474934
-0.214846 0.470006 0.163750
0.057561 -0.003721 0.495766
0.189908 0.242708 0.433044
-0.221347 -0.462477 -0.185647
0.188610 0.198444 0.454778
-0.046538 0.133415 0.477873
-0.148864 -0.451081 0.207702
0.096208 0.279689 0.410207
-0.237665 -0.163890 -0.472326
0.193700 -0.274672 -0.417352
-0.031402 -0.340922 -0.364749
0.283471 0.326125 -0.378902
-0.084317 0.376463 -0.328840
0.269598 -0.217988 -0.449873
-0.060133 0.475529 -0.151575
-0.114774 -0.073237 -0.494743
0.181664 0.401695 -0.297369
-0.228127 0.425500 0.257676
-0.288471 0.444872 -0.227015
-0.289218 -0.052489 0.493099
0.253891 0.315564 -0.387964
0.109039 0.170467 -0.470282
0.275195 -0.116493 0.482059
0.020198 0.302641 0.393770
0.218995 0.356461 0.346025
-0.015148 -0.191681 0.457175
-0.186477 0.444311 -0.228080
-0.124335 -0.480586 -0.130647
-0.128755 -0.255401 0.425070
0.038503 0.363432 0.338864
0.259610 0.442699 0.226985
0.141067 -0.325422 -0.378787
-0.273673 -0.302777 0.392761
0.061871 -0.269633 0.416140
0.178596 0.392041 -0.309846
0.165668 -0.178167 0.462810
-0.111655 -0.439576 0.230773
0.267569 0.147648 0.473530
-0.101983 0.009022 0.495880
-0.080335 0.140353 0.475756
-0.056892 -0.103819 -0.489188
0.277305 -0.304019 -0.396208
0.118000 -0.102117 -0.489593
-0.120547 -0.180199 -0.466207
0.267794 -0.226120 0.441257
-0.074033 0.481419 0.126987
-0.200975 0.483246 0.120369
0.121116 -0.266696 -0.422450
0.184188 -0.250885 -0.432090
0.078600 -0.497285 0.012126
-0.053174 -0.125180 0.479688
0.049630 -0.361413 0.339972
0.213132 0.231675 0.438853
0.047960 -0.459480 -0.192836
0.194869 -0.238222 -0.439220
0.026888 -0.428825 0.250164
-0.195123 0.492039 0.077976
0.151331 -0.468234 -0.170271
0.208329 0.496892 0.037201
0.198553 0.033267 -0.499093
-0.273044 -0.496224 0.035774
0.039744 0.168209 0.466737
0.007465 -0.147671 -0.477564
-0.225081 0.171648 -0.469874
-0.233592 -0.037363 0.494324
-0.127336 0.475454 0.147959
-0.186325 0.260895 0.422259
0.177767 -0.358756 0.342905
-0.115368 0.498472 0.001112
0.066024 0.218392 0.445827
-0.023340 0.025868 -0.499692
0.110013 0.475678 -0.151088
-0.163373 -0.431390 -0.249972
-0.250241 0.467959 -0.173783
0.056309 -0.016394 0.495538
0.242854 0.491384 -0.085770
-0.232128 0.387095 0.311948
-0.053630 0.497576 -0.032843
0.207746 -0.439652 0.230628
-0.244277 0.062242 0.491990
-0.134269 -0.296125 0.397780
0.119614 -0.171849 0.465098
0.072991 -0.422214 -0.265642
-0.046650 -0.055575 0.492831
-0.217996 -0.240265 -0.438144
0.189973 0.460771 -0.192745
-0.093445 -0.462987 0.179949
-0.144087 -0.446589 -0.221366
-0.067709 0.399547 0.295682
0.069911 -0.395923 0.299339
0.234892 -0.402376 0.290576
0.265868 -0.471893 -0.159664
-0.066990 0.125516 -0.484232
0.163851 -0.386671 -0.315602
-0.090443 0.218654 -0.449794
0.179612 0.074189 0.490402
0.112945 0.373862 -0.331711
0.062654 -0.483966 -0.118022
-0.081418 0.253833 -0.430911
0.054452 -0.199688 -0.458113
0.186075 0.298470 0.397072
-0.281400 0.497860 -0.026503
0.204619 0.395535 -0.305464
0.276827 0.126410 -0.483985
-0.231647 0.395225 -0.305853
-0.273522 0.467427 -0.175201
-0.160119 -0.259577 -0.426790
0.180811 -0.412345 0.276322
0.154939 -0.490918 -0.082992
0.166395 -0.333872 0.367022
0.127191 -0.478973 -0.136487
-0.115249 0.317282 -0.386490
-0.287719 -0.497364 0.010360
0.006825 0.227092 0.441266
0.003250 -0.461900 0.182844
-0.192062 -0.318245 -0.384864
0.020382 0.498206 0.015875
0.069030 -0.127544 -0.483550
-0.185535 -0.258283 -0.427580
0.173145 0.230497 -0.443958
-0.006510 -0.494628 -0.056843
0.091745 0.346327 -0.360449
-0.194470 0.001259 0.495856
-0.237260 -0.419361 0.265689
0.227201 -0.345658 0.355749
0.177347 -0.180873 -0.465954
0.166792 0.141936 -0.479699
-0.088565 -0.496044 0.037434
0.126517 0.331804 0.369582
-0.288981 -0.053708 -0.497155
-0.083464 0.177876 0.463110
-0.024363 0.493933 -0.070806
-0.162390 0.498559 -0.003706
0.243251 0.498502 -0.012188
-0.024539 0.435245 -0.245299
0.001838 0.416792 0.271055
-0.010257 0.370607 -0.335305
0.206137 -0.367067 0.333729
0.197346 0.495191 0.056188
0.143870 0.277593 -0.415915
-0.044840 -0.005292 -0.500300
-0.021348 -0.039402 0.494159
0.135761 0.216869 -0.450674
0.206617 -0.054261 0.492955
0.140533 0.496299 -0.048912
-0.101554 0.495794 -0.053587
-0.241891 0.417378 -0.274944
-0.099283 -0.031102 0.494832
0.139933 -0.405210 -0.291171
-0.198845 0.469999 0.163771
-0.136615 -0.322115 0.377110
0.253604 0.479121 0.135312
0.145791 0.167262 -0.471387
0.249155 -0.435805 0.237935
0.023049 0.389613 0.308850
0.014842 0.425665 0.257389
-0.118449 -0.305549 -0.394987
0.084045 -0.315438 0.382840
-0.274461 0.425029 0.258499
-0.046584 0.452501 0.207094
-0.120740 0.477438 -0.145318
0.108414 0.408045 -0.288290
-0.099453 0.493914 0.065010
0.079718 -0.488916 0.089800
0.114799 -0.322956 0.376388
0.039025 0.050505 -0.497696
0.169942 0.430792 -0.252973
0.045288 0.287117 -0.409628
-0.261913 -0.495432 0.043097
0.081108 0.220823 0.444567
0.076686 -0.326048 -0.378220
0.199451 -0.425925 0.254922
0.148702 -0.496263 0.034919
-0.028926 0.308342 -0.393690
0.087952 0.353108 -0.353847
-0.251822 -0.490006 -0.089192
0.121570 -0.216493 0.446001
0.232703 -0.454954 -0.203690
-0.159301 -0.312984 0.384945
-0.001568 -0.402324 0.290651
0.096056 0.347083 0.355658
0.001107 -0.216143 -0.450730
0.036820 -0.442787 -0.229081
0.213465 0.428266 0.252853
0.252256 -0.259664 -0.426738
-0.032567 0.014566 -0.499942
-0.262775 -0.407429 -0.288039
0.055321 0.486208 -0.112047
-0.006547 0.180789 0.462017
0.070176 0.017997 -0.499881
0.020484 0.282751 0.408065
-0.021422 0.495187 0.056212
-0.114393 -0.226187 0.441224
0.231971 0.350192 -0.356686
0.161788 0.439344 -0.237514
-0.075162 -0.084632 0.488627
-0.050122 0.258902 -0.428004
0.257744 -0.494467 -0.058460
0.234445 0.096200 -0.490878
0.056860 0.494350 0.061996
-0.087502 -0.439827 -0.235088
-0.186489 0.176001 -0.468373
0.156382 0.031241 -0.499257
0.128757 -0.010239 0.495649
-0.275025 -0.493779 -0.063213
0.236360 -0.370740 0.329673
-0.262995 -0.052759 0.493077
0.024751 0.497466 -0.035280
-0.275902 0.332623 0.368840
0.053438 -0.292422 -0.404938
0.202132 -0.496837 -0.029582
-0.066013 -0.491971 -0.075711
0.136147 -0.165283 -0.471804
0.039926 -0.357984 0.343749
-0.206863 0.103831 0.485076
-0.030881 0.487720 0.100641
0.191797 -0.020358 -0.499679
-0.165312 -0.485178 -0.112236
0.151677 0.114972 -0.486946
-0.177522 0.186130 0.460012
0.269926 -0.368056 0.332637
0.147927 -0.056253 -0.496879
-0.209066 -0.490391 -0.086631
0.255927 0.164791 -0.472239
0.276279 0.036333 -0.498844
0.140340 0.086934 -0.492796
0.168781 -0.433202 0.242879
-0.011113 0.388289 0.310557
-0.072017 -0.127159 -0.483642
-0.259387 0.141697 0.475346
0.008832 -0.137000 0.476425
0.221676 -0.347840 -0.358181
-0.145091 0.458929 0.192260
-0.259540 -0.398730 -0.299761
0.232126 0.122698 0.480592
-0.119751 0.288190 0.404261
-0.135875 -0.482014 -0.125471
0.286286 -0.386844 -0.315399
0.188746 -0.470241 0.160616
0.119529 0.344342 -0.362382
-0.094339 0.343524 -0.363178
0.269834 -0.400234 0.293638
0.075303 -0.307168 0.389449
-0.232974 -0.467627 0.167584
-0.126296 -0.097271 0.486086
-0.060057 -0.494679 -0.056220
-0.222985 0.242374 -0.437482
-0.188003 -0.164810 0.467526
0.114206 -0.011469 0.495626
0.244715 0.285195 0.406356
-0.255767 -0.459450 -0.192907
0.252904 -0.417220 -0.273208
0.117112 -0.461856 -0.187134
0.202728 0.151008 0.472505
0.076539 0.292885 -0.405351
0.240307 0.470226 -0.167742
-0.075400 0.451299 0.209534
-0.169917 0.138072 -0.480766
0.279041 0.440278 -0.235739
-0.246665 0.497485 -0.034857
-0.200428 -0.255939 0.424762
-0.055045 0.454035 -0.207756
0.276393 0.171455 -0.469941
-0.037927 0.003581 -0.500140
-0.026772 0.087796 0.488060
-0.000675 -0.345633 -0.360448
-0.176576 0.276158 -0.416862
0.101502 0.385933 -0.317506
0.142647 0.386787 0.312307
0.113359 -0.259192 0.422897
-0.194701 -0.326361 0.373466
-0.236178 0.458535 0.193206
0.054462 0.498622 -0.007240
0.054584 0.480854 -0.134124
-0.075560 -0.059974 -0.496477
-0.012520 -0.407281 0.283563
0.085913 0.456975 0.196947
-0.128975 -0.438161 -0.238165
0.157165 -0.011813 -0.500063
-0.197368 0.189204 0.458859
0.258262 0.401518 -0.297622
0.079796 0.494397 -0.066513
0.043488 0.037253 -0.498770
0.233905 -0.236005 0.436193
0.084079 -0.474038 -0.153446
0.003556 -0.213977 0.447240
0.160595 -0.496647 -0.031926
-0.007204 -0.388756 0.308327
-0.159517 -0.138003 0.476148
-0.056781 0.185909 -0.464362
-0.044998 0.479153 -0.139696
0.166745 0.475985 0.146419
0.078318 -0.482947 0.117104
0.249987 0.194152 -0.460926
0.088867 -0.490824 -0.083642
0.156173 0.081352 0.489169
0.090990 -0.400571 -0.297320
-0.289662 -0.427747 -0.256325
-0.185683 0.405594 0.287667
-0.082210 0.224782 0.442482
-0.207736 -0.323546 -0.380486
0.042839 0.493279 0.069405
-0.117141 -0.046675 0.493570
0.108012 0.140923 -0.479979
-0.181220 -0.339044 0.362188
-0.128900 0.057218 0.492532
-0.201236 0.153826 0.471645
0.059505 -0.438341 0.233119
0.084720 -0.169033 -0.470396
-0.030681 -0.177759 0.462980
0.044590 0.437249 0.237189
0.180749 0.311390 0.386793
-0.233420 0.215908 -0.451147
-0.095472 0.104830 -0.489070
0.085107 0.071147 0.490926
-0.070718 -0.490236 0.082134
0.154780 0.082184 -0.493483
-0.138176 -0.102947 0.484897
-0.053654 0.412651 -0.281703
0.018276 0.382513 -0.321795
-0.114375 0.493990 0.064488
-0.060026 -0.309254 0.387875
-0.271403 -0.210318 0.449043
-0.256235 -0.277549 -0.415340
0.074700 0.471344 0.159874
0.134655 0.380802 0.319283
0.196568 0.471620 0.159071
0.075866 0.370313 -0.335630
-0.088065 0.385756 0.313508
0.110013 0.081875 -0.493528
0.116900 0.187389 0.459540
-0.090605 0.448695 0.214818
-0.084110 0.346682 -0.360103
0.001374 -0.451593 0.206562
0.051169 0.161264 0.469343
-0.235659 0.496410 0.043142
0.031056 -0.113825 0.482618
-0.155715 -0.272846 0.414019
-0.162521 0.031421 -0.499242
0.247355 -0.497587 0.002319
-0.280294 0.134968 0.477399
-0.189632 -0.244971 -0.435666
-0.022023 0.282846 0.407999
-0.044586 -0.388859 0.308198
-0.040030 -0.000775 0.495819
0.151104 0.493186 -0.075305
0.209812 -0.489816 0.084573
-0.077329 -0.108675 -0.488035
-0.157891 -0.197429 -0.459127
-0.001309 0.471813 -0.163511
-0.007004 0.484682 -0.118466
-0.051310 -0.490864 -0.083367
-0.065318 -0.416874 0.269768
-0.071211 -0.171945 0.465065
-0.073259 -0.279938 0.409337
0.104966 -0.236127 0.436123
0.000532 -0.082983 -0.493066
-0.134763 0.444029 -0.228616
-0.150820 0.498627 -0.007473
-0.273261 -0.054967 -0.497018
-0.011964 0.135077 0.477366
0.149876 0.465921 0.175489
0.248799 0.497699 -0.030084
0.041056 0.134517 -0.481747
-0.009666 -0.240175 -0.438191
-0.275009 -0.402141 0.290913
0.038512 0.308425 0.389158
-0.054132 0.484292 0.116579
-0.215765 0.231965 -0.443235
0.266974 0.496179 0.046004
-0.052976 -0.453115 -0.208102
0.050461 -0.267895 0.417288
0.164405 -0.415656 -0.275576
-0.211371 0.283195 0.407754
0.070161 -0.491234 -0.080810
-0.136922 0.114170 0.482619
-0.074364 -0.495783 0.039848
-0.156010 -0.011516 0.495626
0.030597 -0.177064 0.463270
-0.130750 0.321985 -0.382454
-0.021393 -0.372129 -0.332548
0.079991 -0.294939 0.398674
-0.140162 0.282866 0.407985
-0.105694 0.211111 -0.453511
-0.208792 0.487940 -0.104756
-0.029656 0.398818 -0.301346
0.015749 0.476348 -0.148890
-0.184138 0.087455 0.488119
0.121814 0.460814 0.187739
-0.197033 0.496131 0.046596
-0.070632 -0.138356 -0.480406
0.028156 0.290544 0.402615
-0.165469 0.476096 0.146096
0.014732 0.193850 0.456839
-0.202611 -0.171017 -0.469652
0.224261 -0.227099 0.440774
0.139210 -0.362556 0.338710
0.247686 -0.483949 -0.118103
0.040985 0.272745 0.415034
0.078414 -0.453626 -0.206876
0.223613 -0.231333 -0.442847
0.115057 0.140869 0.475599
-0.233626 -0.457293 0.193860
-0.185668 -0.277708 -0.415229
-0.155998 -0.413176 -0.279334
-0.153715 -0.470640 0.159553
-0.281804 -0.019166 0.495488
0.138966 -0.447959 -0.218585
0.034302 0.383282 -0.320830
-0.263818 -0.305595 0.390635
-0.250292 -0.384469 -0.318168
-0.136053 0.378561 -0.326524
0.132022 0.357536 0.344921
0.154700 -0.376487 0.323329
-0.265868 -0.456529 -0.199914
0.223281 -0.485152 0.107824
0.178578 -0.429657 0.248799
0.284699 -0.018127 -0.499779
-0.142866 -0.115009 0.482370
0.166751 -0.187691 -0.463395
0.161841 0.493802 0.065789
-0.127825 -0.132320 0.477717
0.237336 0.411068 0.279726
-0.240263 -0.360798 -0.344871
-0.141998 -0.480715 0.126493
0.278316 -0.446904 0.216856
0.159627 0.309724 -0.392647
0.054428 0.119669 0.481312
0.216348 -0.451309 0.207195
-0.188825 -0.270662 0.415461
0.001200 0.247151 -0.434742
-0.039729 0.476196 0.145808
-0.192054 -0.482792 0.117757
0.183043 0.256589 0.424884
-0.014854 -0.111496 0.483106
0.137315 -0.420488 0.263841
-0.180980 0.107207 -0.488572
0.018686 0.419877 0.266382
0.150786 0.496079 -0.050947
0.153321 0.206870 0.450997
0.177048 -0.225458 -0.445940
-0.060366 0.221855 0.444024
0.096323 -0.005860 0.495727
0.035758 0.110324 -0.487919
-0.207322 0.032020 -0.499194
-0.214317 -0.261449 -0.425649
-0.125155 -0.497309 -0.013127
-0.079062 -0.070608 -0.495196
-0.213571 -0.381722 -0.321369
-0.126593 0.119272 0.481406
0.233079 -0.213565 -0.451886
-0.277847 -0.433267 0.242755
-0.166715 0.193303 -0.461280
-0.071407 0.218061 0.445975
0.073150 -0.002304 -0.500246
0.153673 0.469402 -0.169937
-0.147297 -0.197970 0.454553
-0.194434 0.412797 0.277106
0.164121 0.270723 0.416267
0.056701 0.497570 -0.032960
-0.187647 -0.458756 0.190599
-0.087383 0.475811 -0.150649
0.249179 -0.478883 -0.136813
0.086805 -0.172291 0.464945
-0.105192 -0.357386 -0.348376
0.032136 -0.497458 -0.004868
-0.239131 -0.439017 -0.236673
-0.289142 -0.421800 0.261688
0.023030 0.047128 -0.497970
-0.072330 -0.446110 0.218364
-0.222092 -0.465938 0.172083
-0.001987 0.266793 -0.423045
0.066915 -0.325321 0.374359
-0.257890 -0.491544 -0.078667
0.190613 -0.492965 -0.068841
-0.290081 0.053820 -0.497427
-0.009618 0.002867 0.495885
0.064829 -0.204809 -0.455815
0.054595 -0.369391 0.331162
-0.109671 0.429829 0.250128
0.244898 -0.068941 0.490897
-0.009061 0.115450 0.482315
0.159909 -0.343254 -0.362636
0.103808 -0.432731 0.243758
-0.147172 -0.311700 0.386029
0.265275 -0.100235 0.485465
-0.054633 -0.483612 0.114302
-0.255712 0.166916 0.467222
0.280101 0.183930 0.460838
-0.241874 0.250979 -0.432548
0.205365 0.486391 -0.111275
0.027959 0.129342 0.479013
-0.074389 -0.487567 -0.100836
-0.042845 0.463790 0.180601
0.059292 0.182445 -0.465807
-0.128982 -0.284187 0.406532
0.055165 -0.104807 -0.488954
-0.160413 0.409207 0.282544
-0.176289 0.077878 0.489767
-0.013428 0.103585 0.485134
0.259998 0.476416 -0.148667
-0.038234 -0.491105 -0.081701
0.177585 -0.484700 -0.114521
0.144024 -0.453566 -0.207020
0.125040 -0.014512 -0.499942
-0.002946 -0.011018 0.495634
-0.121141 -0.197798 -0.458961
-0.096107 0.441519 0.229381
-0.208924 0.498154 0.018753
-0.068953 0.475897 0.146674
-0.050772 0.215806 0.446987
-0.155455 0.235596 -0.441369
-0.157581 0.458750 0.192690
0.010682 -0.301730 0.393551
-0.249288 -0.348159 0.353314
-0.002135 0.029599 0.494957
-0.152009 -0.078943 0.489450
-0.029469 0.275275 -0.417446
-0.173829 0.200625 -0.458227
-0.262325 0.178630 -0.467398
-0.068392 0.288808 -0.408426
-0.152938 -0.418870 0.266493
-0.043533 -0.313813 0.384234
-0.138685 0.485698 0.110292
0.108183 0.465671 -0.179880
-0.203084 -0.491812 -0.076809
0.219944 0.039447 0.494453
0.068956 0.486318 -0.111585
0.227187 -0.326506 0.373343
-0.187677 0.483417 0.119748
0.079344 -0.398183 -0.300485
0.159552 -0.236112 0.436132
0.113924 -0.444119 -0.226379
0.163644 -0.075823 -0.494298
0.236789 -0.460433 -0.190550
-0.064005 -0.438320 -0.237888
0.268382 -0.484117 -0.117301
0.045394 -0.156810 0.470285
-0.261555 0.484556 0.115623
0.114312 -0.082986 0.488865
-0.278235 -0.270503 -0.420130
-0.102460 0.436185 -0.243514
0.087345 0.327306 -0.377888
-0.061574 0.492998 -0.076400
0.175850 0.478135 0.138885
0.101109 -0.473244 -0.155749
0.215975 0.309825 -0.392571
0.236184 -0.225348 0.441637
-0.201474 -0.273736 0.413432
-0.083961 -0.186257 -0.463933
0.226268 0.107998 0.484085
0.002707 0.438821 0.234447
-0.139563 -0.041952 0.493953
0.255044 0.458723 -0.197309
-0.167742 0.394095 -0.307270
0.148781 0.426137 0.256566
-0.060960 -0.266460 0.418235
0.172569 0.319647 0.380209
0.125433 0.277576 -0.415926
0.149163 0.096002 -0.490920
-0.246599 0.223172 -0.447568
0.139410 0.320699 -0.383558
0.212396 0.489247 -0.098186
0.024775 0.204126 -0.456768
0.084489 -0.125724 0.479538
0.251413 0.496086 -0.050880
0.198791 0.139819 -0.480283
-0.290240 0.460065 0.189537
-0.058443 -0.343405 0.357943
-0.243174 0.491673 -0.084096
-0.053658 0.342869 -0.363815
-0.090328 -0.372401 0.327840
-0.126377 0.496957 -0.042828
-0.122533 0.123846 -0.484693
0.103442 -0.494609 0.050713
0.043769 0.481637 -0.131279
-0.044126 0.106156 0.484523
-0.246547 -0.115382 0.482292
0.011406 -0.488260 -0.097525
0.033581 -0.257200 -0.428239
0.009592 -0.497165 -0.021140
-0.189050 0.490379 0.087948
0.218586 0.490925 0.085342
-0.253951 0.498196 -0.019005
-0.016515 -0.365297 -0.340250
-0.021332 0.445054 0.222207
0.116366 0.253517 -0.431092
-0.252985 -0.420208 -0.268682
-0.195624 -0.473291 -0.155612
0.171069 0.405113 -0.292481
-0.287840 -0.364057 -0.341524
0.090126 0.425293 0.258038
0.136548 0.330556 -0.375100
0.146172 0.123784 0.480334
0.102423 -0.331239 -0.373519
0.163249 -0.318338 -0.384789
0.058435 -0.294705 0.398851
0.180936 0.299309 -0.400504
0.119469 -0.482861 0.117465
0.016737 0.293369 0.400639
-0.086062 0.412961 0.276858
-0.016998 -0.497229 0.013360
-0.250102 -0.324280 0.375252
0.111112 -0.037595 0.494306
-0.185870 -0.225483 -0.445927
0.048313 -0.489329 0.087400
-0.263550 0.160284 0.469675
0.089873 -0.303981 -0.396238
0.122490 0.355043 -0.351964
-0.147298 0.036951 0.494628
-0.111173 -0.317462 0.381102
0.085609 0.490139 0.089093
-0.227944 0.495699 0.051928
0.059162 -0.496654 -0.031836
0.256484 -0.241317 0.433147
0.253786 0.217741 0.446119
0.168938 -0.142082 0.475022
0.208542 0.491459 -0.085339
-0.189020 -0.297410 0.396810
0.114577 -0.497326 0.011205
-0.128128 -0.074267 -0.494566
0.213937 0.434179 -0.247324
0.000990 0.393982 0.303059
-0.215843 -0.448677 0.213059
0.068458 0.490105 -0.093203
-0.062295 -0.058868 -0.496597
0.140477 -0.442185 -0.230303
-0.182846 0.411545 0.279002
-0.267939 -0.199169 -0.458347
-0.239102 0.217324 0.446306
-0.056253 -0.273868 -0.417915
-0.021052 0.339561 0.362556
0.010757 0.495757 -0.053925
-0.260806 0.208780 0.450140
0.277658 0.094818 0.486851
-0.048473 -0.477579 -0.141538
0.113277 -0.414343 -0.277566
0.032127 -0.468489 0.165286
0.143807 -0.482221 0.120156
0.178139 0.484491 0.115857
-0.035521 -0.162856 0.468200
0.025336 -0.475650 0.143465
0.002834 -0.336466 -0.368785
0.269047 -0.420868 0.263217
0.158237 -0.425012 -0.261095
-0.129371 0.206705 -0.455682
-0.082586 -0.335542 -0.369622
-0.219235 0.377831 0.322744
-0.096738 -0.193678 0.456343
0.169046 -0.338371 -0.367059
-0.174035 0.477500 -0.145116
0.218419 0.486761 0.105220
0.194278 0.494331 -0.067127
0.067951 -0.486209 -0.107315
-0.129703 -0.311595 -0.390166
0.222929 0.206193 -0.455906
0.201923 0.380284 -0.324590
-0.229044 -0.413028 0.275346
0.032102 0.409637 0.281893
0.127014 0.126017 -0.484093
0.036069 -0.476883 0.139425
0.258298 0.474702 0.150137
0.283757 -0.285908 -0.409494
0.122460 0.096788 -0.490755
0.043694 -0.198452 -0.458668
-0.089264 0.437713 0.236380
-0.133367 0.455004 -0.205596
-0.124873 -0.158661 -0.474211
0.022363 -0.494179 0.054698
-0.050081 0.054100 -0.497405
-0.210017 0.203097 0.452690
0.179840 -0.319539 0.379321
0.113858 0.272984 -0.418958
0.176066 0.494917 0.058077
0.025375 -0.457279 0.193890
-0.238069 0.364214 -0.342364
-0.253238 0.279093 0.410623
0.167328 -0.409465 -0.284954
0.015543 0.493378 -0.074187
0.241825 0.487411 -0.106985
-0.285942 0.497297 0.032201
-0.260720 -0.488606 0.091601
0.158073 0.250362 0.428680
0.211170 -0.475649 0.143468
0.004364 0.498427 0.003633
0.244570 -0.184834 0.460030
-0.119725 0.490197 -0.092665
0.043490 -0.065022 0.491464
0.178842 -0.390632 0.305975
0.286166 0.490283 0.088406
0.004426 -0.157846 -0.474459
-0.215965 -0.399308 -0.298995
0.252772 -0.475997 0.142328
-0.228485 -0.056807 -0.496820
0.274745 -0.486079 -0.107936
-0.152802 -0.327808 0.372225
0.128739 -0.129969 0.478366
-0.194907 0.250080 0.428852
-0.014616 -0.479240 -0.135522
0.202671 -0.125185 0.479687
-0.274977 0.413566 -0.280395
-0.036395 0.158093 0.470343
-0.091219 -0.151975 0.471953
-0.134649 -0.409135 -0.285454
0.135953 0.085555 0.488446
0.040566 -0.057229 -0.496774
-0.282855 -0.192282 0.456925
0.015616 -0.112545 -0.487115
0.255466 -0.497091 -0.025262
0.155463 -0.497534 -0.000669
-0.059621 0.207411 -0.455334
-0.029929 0.395526 0.301012
-0.046875 0.387997 -0.314918
0.065099 0.439521 -0.237177
0.056623 -0.344378 0.356996
-0.093145 0.281869 0.408682
-0.093794 0.245875 -0.435474
0.014372 -0.464514 -0.180759
0.123231 -0.334378 0.366588
0.196395 0.463151 0.182134
-0.233348 0.357286 -0.349780
0.260309 -0.129985 -0.482960
0.009893 -0.360308 -0.345374
0.071294 0.059745 0.492259
0.224377 -0.219976 -0.448827
0.183763 0.498591 -0.010214
-0.073164 -0.025872 -0.499432
0.249436 -0.490824 -0.083638
-0.134218 -0.367893 -0.337485
0.159069 0.425241 -0.262078
0.246681 -0.190975 -0.462023
-0.002583 0.170997 -0.470099
-0.194280 0.061758 0.492042
0.141772 -0.363959 -0.341624
0.172210 0.438452 -0.239207
-0.175819 -0.230589 0.439054
0.076291 -0.023241 -0.499550
0.157115 -0.430696 -0.251183
-0.205579 0.404076 -0.293964
0.179201 0.315538 -0.387987
-0.108459 0.096404 0.486578
0.111268 0.002248 0.495873
-0.031788 -0.471611 -0.160482
0.161030 -0.087689 -0.492255
-0.205390 0.498576 -0.004688
0.245400 -0.264202 0.419726
0.200804 -0.090873 0.487426
-0.243085 0.377478 0.323156
0.178270 0.095048 0.486811
-0.051036 -0.081987 -0.493237
0.050543 0.443740 -0.229165
-0.082044 0.319186 0.380577
-0.085078 -0.164284 0.467707
-0.030233 -0.410125 0.279496
0.254269 -0.402015 -0.295406
-0.054977 -0.068859 0.490909
0.111821 0.303594 -0.397272
-0.265885 -0.497090 -0.025281
-0.213443 0.370823 0.330911
0.076000 -0.416269 -0.274648
0.137686 -0.257825 0.423680
0.127995 0.323511 -0.381145
0.256979 0.497138 0.034157
0.160398 -0.447823 -0.218862
-0.267505 -0.133269 -0.481958
0.272631 -0.451105 0.207649
0.071041 -0.264475 -0.423804
0.119556 0.294171 -0.404380
-0.126004 0.035641 -0.498900
0.286534 0.027696 -0.499544
-0.121772 0.387276 -0.315822
-0.015112 0.085325 0.488485
-0.159360 0.323117 0.377443
-0.161811 0.072651 0.490667
0.245816 -0.488966 0.089511
0.126088 -0.073805 0.490194
-0.033795 -0.348480 0.353002
0.194093 0.374106 0.327085
-0.100450 0.423537 -0.264873
-0.160679 -0.426408 -0.258660
0.038543 -0.277801 -0.415164
-0.026303 -0.268564 -0.421312
0.115474 -0.490963 -0.082681
0.112148 -0.045296 -0.498064
-0.186103 0.230974 -0.443723
0.014968 0.444766 -0.227215
0.092451 -0.009244 -0.500178
0.186415 -0.493549 0.060527
-0.213071 0.405987 0.287147
0.028906 -0.478775 -0.137206
-0.123310 -0.485153 0.107819
0.241012 -0.295849 -0.402541
0.198794 -0.227326 0.440663
0.220649 0.059934 -0.496702
0.171910 0.339993 0.362165
0.090807 -0.300903 0.394175
-0.067333 0.077670 -0.494136
-0.097822 -0.271207 0.415101
-0.266447 -0.425037 -0.261052
0.036894 -0.365522 -0.340018
0.019410 0.471317 -0.164833
-0.022162 0.103708 -0.489305
-0.037269 0.281831 0.408709
-0.065563 0.064465 -0.496047
0.213454 -0.198846 0.454188
0.237026 0.348368 0.354338
0.054034 0.473819 -0.157180
-0.252331 -0.212069 0.448180
-0.080377 -0.428067 -0.255766
0.189781 0.397972 0.297770
0.200571 0.043328 -0.498278
0.090259 -0.484297 0.111423
0.056862 0.477199 -0.146102
0.095131 -0.188345 -0.463150
-0.189126 0.157805 0.470431
0.027945 -0.404532 -0.292071
-0.053220 -0.258395 0.423354
-0.277665 -0.260646 -0.426139
0.067598 -0.236145 0.436113
0.188876 -0.361130 -0.344530
0.066809 -0.138672 0.475964
0.114837 0.495619 -0.055202
0.003665 0.347116 0.355623
0.010332 -0.425608 -0.260055
-0.095962 -0.164813 -0.471980
0.030314 0.031046 -0.499273
0.183271 0.496096 -0.050789
-0.039990 -0.402982 0.289709
-0.187229 -0.433381 0.242538
0.014350 -0.472731 -0.157236
0.154081 -0.481030 0.125168
0.001810 0.436944 -0.242072
0.088669 0.490246 -0.092381
0.092735 0.226131 -0.446110
-0.013021 -0.056911 -0.496808
-0.030286 -0.488608 0.091589
-0.049741 -0.497583 0.002087
0.250687 0.437218 0.237242
0.175946 0.282360 -0.412768
-0.140369 0.441579 0.229258
-0.016598 -0.495486 -0.046254
-0.288363 -0.492819 -0.069848
-0.178596 -0.362276 0.339019
-0.163263 0.475587 -0.151385
-0.119144 -0.208689 -0.454074
-0.237331 -0.480965 -0.129273
-0.076147 -0.478679 -0.137552
-0.221726 0.401103 -0.298215
-0.062995 0.331251 -0.374504
-0.186102 0.254094 -0.430761
-0.271707 0.114108 -0.487127
-0.207032 -0.192782 -0.461213
0.275841 -0.420859 -0.267695
-0.002756 0.381511 0.318456
-0.227455 -0.098437 0.485841
-0.091589 -0.492017 -0.075392
0.282111 -0.418659 0.266840
-0.113083 0.461204 0.186805
0.061093 0.489502 0.092135
0.037989 0.470228 -0.167736
0.076896 0.067774 -0.495568
0.018406 -0.045193 0.493690
0.120293 -0.491812 0.072979
0.196713 0.475743 -0.150875
-0.134419 0.332854 -0.373128
-0.136399 -0.497423 0.009036
-0.145150 0.295665 0.399033
0.093059 -0.497132 0.015541
-0.203312 -0.497524 -0.001226
-0.159658 -0.288447 -0.407718
0.063658 -0.445932 -0.222698
0.231878 -0.490722 -0.084347
0.130370 0.429761 -0.254663
0.169789 0.458775 0.192630
0.094990 -0.461707 0.183359
-0.260514 -0.187446 -0.463487
0.186138 -0.382943 -0.319946
-0.265324 0.496691 0.039676
0.077220 0.484472 -0.119350
-0.085096 0.436804 -0.242338
0.093515 -0.349824 0.351694
0.044515 0.199739 -0.458597
-0.125781 0.236533 0.436295
0.034812 0.213803 0.447886
-0.236605 0.409151 0.282629
-0.278364 0.022819 0.495261
-0.288399 -0.491080 0.077230
-0.015986 -0.071015 -0.495126
-0.063956 -0.037185 -0.498925
0.257511 0.302599 -0.398022
-0.184181 -0.477021 -0.143558
-0.102076 -0.259382 -0.426909
-0.164103 0.173467 0.464764
-0.194102 -0.463404 0.178837
-0.130235 0.496149 0.046369
-0.072384 -0.301880 0.393438
0.223056 0.101839 -0.489697
0.062140 0.065069 0.491684
0.115176 -0.300935 0.394151
-0.121033 0.425029 -0.262425
-0.148369 -0.480852 -0.129682
0.061526 0.301662 0.394551
0.157123 0.258309 -0.428344
-0.212766 0.149692 -0.477448
-0.026516 -0.195217 0.455701
0.091750 -0.496314 0.033779
0.242949 -0.414853 -0.276793
-0.131539 0.007723 0.495939
0.144503 0.219852 0.445078
-0.033640 -0.118880 -0.485609
0.079450 0.289205 0.403551
0.138943 0.000369 0.495840
-0.198527 -0.194661 0.455933
0.206825 -0.494815 0.048811
-0.040615 -0.319359 -0.383975
-0.226447 -0.184362 -0.464645
0.207913 -0.093060 -0.491331
-0.084709 -0.078412 0.489527
0.216577 -0.496761 -0.030519
-0.103422 -0.103147 0.484855
0.003517 0.133032 -0.482157
-0.019909 -0.403683 -0.293195
0.211954 -0.013282 0.495594
-0.116415 0.173859 0.464617
-0.109104 -0.039270 0.494170
0.260164 0.209661 0.449744
-0.067334 0.372137 0.329380
0.231803 0.212559 0.448444
-0.203192 0.015492 -0.499926
-0.005259 0.330007 0.371209
-0.238834 0.338314 0.363686
0.175525 -0.076354 0.489825
-0.050161 -0.208336 -0.454233
-0.140612 -0.340480 0.360790
0.099618 0.217495 0.446229
0.244115 -0.474152 0.148376
0.176416 -0.226076 0.441279
-0.032850 -0.290043 -0.406602
-0.252082 -0.465207 -0.179046
-0.081519 -0.048528 -0.497714
0.004959 0.295300 -0.403529
0.179016 0.211690 0.448834
-0.282362 -0.094605 -0.491065
0.214782 -0.173039 -0.468893
-0.129979 0.368832 -0.337265
0.039447 -0.299832 -0.399546
0.215733 -0.387322 -0.314842
0.192593 0.027210 0.495065
-0.085511 0.214310 0.447658
-0.053287 0.389575 0.308900
-0.218473 -0.496891 0.020908
0.083628 0.465510 0.176475
-0.009668 -0.496528 0.029010
-0.113809 0.043806 -0.498239
-0.127437 -0.116573 -0.486158
-0.142555 -0.016590 -0.499848
0.197906 -0.453383 -0.207459
0.062649 -0.163667 0.467920
0.255252 -0.084603 0.488632
0.089452 0.212241 0.448587
0.134544 -0.497572 0.005718
0.263302 0.105444 -0.488942
-0.282128 -0.129635 -0.483054
-0.162574 0.315424 -0.388084
-0.100777 0.092406 -0.491673
-0.192996 0.360167 -0.346832
-0.287464 0.498411 -0.014223
0.006403 0.119507 -0.485890
-0.099614 0.463248 0.181901
0.109050 0.016002 -0.499917
-0.223788 -0.497410 -0.007527
-0.047632 0.429448 0.250793
0.083145 0.077979 -0.494091
-0.020882 -0.019764 -0.499706
0.131808 -0.022949 0.495420
0.058915 0.334583 0.367065
-0.066747 0.416407 -0.276333
0.105997 0.386350 0.312816
-0.142009 -0.414620 0.273069
0.051497 -0.405206 -0.291177
-0.087749 0.497465 0.030129
0.067232 0.342213 -0.364454
-0.202503 0.346806 -0.359983
-0.029547 -0.168328 -0.470661
-0.059769 -0.465965 -0.176850
-0.105012 -0.298422 -0.400670
0.013135 -0.239740 -0.438420
-0.277154 -0.293898 0.399460
-0.180004 -0.124561 0.479859
-0.150252 0.207931 -0.455078
-0.094062 0.412415 -0.282040
0.122787 0.370618 -0.335293
-0.190263 0.348269 -0.358558
-0.154857 0.129511 0.478973
-0.172070 -0.466201 -0.176164
0.272196 0.323316 -0.381312
-0.027247 0.450337 0.211486
-0.074736 -0.384963 -0.317592
-0.163599 -0.208783 -0.454032
-0.017152 0.495312 -0.058048
-0.286349 0.230893 -0.443764
0.285567 0.445296 0.221715
-0.152234 -0.174158 0.464301
-0.192522 -0.156785 -0.474783
0.196474 -0.400667 0.293020
-0.057150 0.444927 -0.226910
0.272940 -0.170442 0.465583
0.259023 -0.460823 0.185715
-0.049706 0.334003 -0.372142
-0.066537 -0.468838 -0.168521
0.196606 -0.103906 0.484696
0.220367 0.415246 0.273396
0.280525 0.463729 0.180749
0.269673 -0.243851 0.431694
0.111043 -0.399124 0.295226
-0.228162 -0.485748 -0.109515
-0.011340 0.286074 -0.410316
0.069604 -0.048292 0.493439
0.197551 0.043415 0.494024
-0.269688 -0.493319 0.062650
0.005845 0.075340 -0.494473
0.263222 0.089452 0.487775
0.229225 -0.373582 -0.330855
0.263676 -0.420902 -0.267630
0.205562 0.400605 0.294280
-0.054573 -0.340912 -0.364758
0.207679 0.351318 0.351308
-0.185442 -0.145175 -0.478326
0.091736 0.181361 -0.466259
0.024886 0.057341 0.492519
-0.182217 0.441894 0.228620
-0.086405 0.492603 -0.078691
0.175694 0.247126 -0.434757
-0.044563 0.272287 -0.419418
0.191145 0.146315 -0.478490
0.221063 -0.480058 -0.132559
0.276519 0.311979 0.386324
-0.189896 0.430057 0.249730
0.171838 0.071928 -0.494967
-0.222922 -0.224548 -0.446419
0.245693 0.172546 -0.469564
-0.179124 0.019545 0.495408
0.251708 0.374219 0.326954
0.049484 -0.466850 0.169654
-0.287096 -0.064107 -0.496031
-0.023499 -0.080484 -0.493496
-0.019748 -0.356363 -0.349427
0.008043 0.410528 0.280544
0.260527 0.223243 -0.447533
-0.234020 0.156796 0.470739
-0.045081 0.468866 -0.171367
0.284805 0.457436 -0.200177
0.138899 0.439595 0.233097
-0.100620 0.482417 -0.127998
0.065840 -0.485214 0.107564
-0.274224 -0.323830 0.375639
-0.096230 0.467162 0.171995
0.061931 0.234909 0.437150
0.078453 0.386023 -0.317393
0.123730 0.219538 -0.449359
0.093680 0.166237 -0.471741
0.065343 -0.297691 -0.401253
0.084211 0.459634 -0.195280
0.091685 -0.369130 0.331451
0.258421 -0.261955 0.421209
-0.240778 -0.495781 0.039866
-0.184295 0.339634 0.362490
-0.212777 0.434521 0.241946
-0.121119 0.340008 0.362151
-0.234491 0.016495 -0.499908
0.245797 0.303083 0.393417
0.032770 -0.497305 0.011668
0.151967 -0.357253 -0.348512
0.259467 -0.477607 -0.141438
0.041309 -0.156660 -0.474821
-0.145226 -0.309934 -0.391490
0.131199 -0.115025 -0.486525
-0.134871 -0.493210 0.063662
-0.058300 -0.046002 -0.497987
0.038369 0.467728 0.170355
-0.139619 -0.261942 -0.425349
-0.166788 -0.091592 -0.491584
0.086348 0.403999 0.289781
0.268692 0.332198 -0.373691
0.040155 -0.029482 -0.499270
-0.275669 -0.247819 -0.433959
0.201693 -0.491259 -0.080635
-0.278900 -0.070522 -0.495211
0.098539 -0.082122 0.488990
0.096482 0.418555 0.268385
-0.288494 -0.301240 -0.398423
-0.066585 0.491237 -0.086624
0.112890 -0.098711 0.485784
0.200194 -0.458277 -0.195720
-0.222880 -0.480292 -0.131710
-0.288172 0.482118 -0.129256
-0.250546 0.377902 -0.327251
0.152229 0.353560 -0.353407
0.204120 -0.458062 0.192145
0.177867 0.411165 0.279578
-0.076643 -0.261666 0.421400
-0.096272 0.443568 -0.229492
0.048730 0.415342 -0.277855
0.265313 0.003807 -0.500136
-0.084744 -0.480752 -0.130042
0.121868 -0.231683 -0.442663
-0.062606 0.075505 0.490176
-0.202072 -0.435406 0.238693
0.046637 -0.488119 -0.098198
0.232346 0.303519 0.393070
0.230300 0.492073 -0.081768
-0.123530 0.435848 -0.244153
-0.035674 0.320713 -0.383546
0.136022 0.157061 0.470658
-0.151505 -0.238467 0.434781
-0.203404 0.068698 0.491292
0.072906 -0.336169 0.364987
-0.194576 0.024045 -0.499772
-0.241179 -0.075716 -0.494317
0.198000 0.415493 0.273022
-0.026187 -0.490699 -0.084508
0.163451 0.000980 0.495851
-0.072984 0.247147 -0.434745
-0.056283 -0.403771 0.288581
0.213102 -0.441360 -0.231976
0.057244 -0.434128 -0.245197
0.190515 -0.491251 -0.080687
-0.231746 -0.354732 -0.351102
-0.153673 -0.025125 0.495316
0.184318 0.076145 -0.494357
-0.083021 -0.434264 -0.244960
-0.228534 -0.497593 0.002608
-0.078999 -0.495944 -0.040606
-0.040759 0.314131 0.384608
0.239885 -0.283530 -0.411157
-0.036507 -0.497625 0.004427
-0.237767 -0.049441 0.493346
0.261026 -0.491561 -0.078548
0.216822 0.242922 -0.437167
-0.241199 -0.252658 0.426644
-0.041866 0.197684 -0.459453
0.047038 -0.497155 -0.021664
-0.086498 -0.486698 -0.104980
-0.053471 -0.294717 0.398842
-0.098810 0.124716 0.480112
0.253681 -0.471919 -0.159587
-0.191478 0.492395 -0.079897
0.039823 0.087196 -0.492758
0.143138 0.477870 -0.143903
-0.216927 -0.458160 0.191927
0.090871 0.004545 0.495915
0.249684 0.477766 -0.144244
-0.075344 0.133370 -0.482064
0.069384 0.496485 -0.047196
-0.071221 -0.348359 0.353120
-0.133662 0.338626 0.363403
-0.267525 0.279415 -0.414712
-0.242972 -0.351312 -0.354614
0.241554 0.116020 -0.486726
