-0.290288 -0.102107 -0.467544
-0.290288 -0.245109 -0.386353
-0.290288 0.267073 -0.400080
-0.290288 -0.449746 -0.195974
-0.290288 -0.367171 -0.323787
-0.290288 -0.122254 -0.481231
-0.290288 0.078987 -0.478986
-0.290288 -0.452945 -0.029904
-0.290288 0.495280 0.020899
-0.290288 0.108557 -0.455859
-0.290288 -0.409180 -0.247549
-0.290288 0.171383 0.458363
-0.290288 -0.458957 -0.009380
-0.290288 0.165631 -0.438723
-0.290288 -0.030817 -0.483584
-0.290288 -0.375556 -0.277766
-0.290288 0.198216 -0.440509
-0.290288 0.447815 0.100177
-0.290288 -0.211289 -0.402436
-0.290288 0.460825 -0.159302
-0.290288 -0.297373 0.341984
-0.290288 -0.105241 -0.471000
-0.290288 -0.490860 -0.075485
-0.290288 -0.359462 0.334881
-0.290288 -0.452087 -0.008396
-0.290288 0.178902 0.458740
-0.290288 -0.412534 -0.177291
-0.290288 -0.424208 -0.180248
-0.290288 -0.347216 -0.323771
-0.290288 0.491648 0.015934
-0.290288 -0.038146 -0.455510
-0.290288 -0.261684 -0.391588
-0.290288 0.011719 -0.471748
-0.290288 -0.360144 0.318022
-0.290288 0.288563 -0.343464
-0.290288 0.073521 -0.474905
-0.290288 -0.128829 0.448744
-0.290288 -0.067341 -0.445831
-0.290288 -0.442303 0.211286
-0.290288 0.307118 0.353351
-0.290288 -0.449678 -0.207570
-0.290288 0.276508 0.405934
-0.290288 0.329935 0.330376
-0.290288 -0.445580 -0.120605
-0.290288 0.218843 -0.400424
-0.290288 0.280924 -0.371452
-0.290288 -0.338816 0.303704
-0.290288 -0.302152 0.363616
-0.290288 -0.083115 0.478426
-0.290288 -0.124267 -0.454656
-0.290288 -0.456045 -0.011996
-0.290288 0.217227 0.426135
-0.290288 0.254488 -0.410911
-0.290288 0.091210 0.477121
-0.290288 -0.018501 -0.463398
-0.290288 -0.043392 -0.497243
-0.290288 -0.065032 -0.453349
-0.290288 -0.466857 -0.005403
-0.290288 -0.463400 -0.021724
-0.290288 -0.468213 -0.067964
-0.290288 0.298049 0.387449
-0.290288 -0.352553 -0.305468
-0.290288 0.287011 -0.361118
-0.290288 0.408251 0.236988
-0.290288 0.475756 -0.005342
-0.290288 0.175478 -0.467747
-0.290288 -0.115673 0.453913
-0.290288 -0.135647 -0.437164
-0.290288 -0.226685 0.408040
-0.290288 0.283536 -0.358001
-0.290288 -0.046573 -0.476744
-0.290288 -0.287922 -0.377314
-0.290288 0.029539 0.468393
-0.290288 -0.263684 -0.405622
-0.290288 0.050481 -0.493167
-0.290288 0.021488 0.462416
-0.290288 0.212377 0.430711
-0.290288 -0.446642 -0.209285
-0.290288 0.058353 -0.491480
-0.290288 0.110315 -0.448410
-0.290288 -0.368097 0.299539
-0.290288 -0.457679 -0.036093
-0.290288 0.384246 0.261987
-0.290288 0.213778 0.412706
-0.290288 0.357850 0.287457
-0.290288 -0.299285 0.358374
-0.290288 -0.420262 -0.201047
-0.290288 -0.441429 -0.120053
-0.290288 -0.043621 0.486922
-0.290288 0.483375 0.045695
-0.290288 0.333913 0.334605
-0.290288 -0.468368 0.163567
-0.290288 -0.046699 0.455457
-0.290288 0.093377 -0.485339
-0.290288 0.045520 -0.466145
-0.290288 -0.298627 0.345511
-0.290288 0.193092 0.424518
-0.290288 0.486351 -0.052658
-0.290288 -0.324810 -0.328357
-0.290288 -0.491576 0.051350
-0.290288 0.496565 0.030007
-0.290288 -0.346201 -0.289828
-0.290288 0.447161 0.197379
-0.290288 0.419608 -0.268125
-0.290288 -0.465564 0.094209
-0.290288 0.326262 -0.377997
-0.290288 0.274333 0.351715
-0.290288 -0.237656 0.374847
-0.290288 -0.434784 0.125420
-0.290288 -0.466285 -0.164953
-0.290288 0.333547 -0.304088
-0.290288 0.257573 0.393823
-0.290288 -0.427969 -0.222867
-0.290288 -0.223443 0.402375
-0.290288 -0.389722 0.306434
-0.290288 0.407414 -0.283700
-0.290288 0.391348 0.269057
-0.290288 0.461441 -0.130838
-0.290288 -0.432525 0.193145
-0.290288 0.289394 -0.355165
-0.290288 0.115941 -0.485423
-0.290288 0.493360 -0.004853
-0.290288 -0.368229 0.324585
-0.290288 -0.183738 -0.445470
-0.290288 -0.388021 -0.240888
-0.290288 -0.221372 -0.424416
-0.290288 0.063206 0.491859
-0.290288 0.456244 -0.003863
-0.290288 0.184907 0.416216
-0.290288 -0.432730 0.133774
-0.290288 -0.405094 0.227872
-0.290288 0.434053 0.226163
-0.290288 -0.377488 0.287164
-0.290288 0.467107 0.007272
-0.290288 0.423630 -0.238153
-0.290288 -0.254610 -0.391950
-0.290288 0.317909 -0.333942
-0.290288 0.082923 0.438742
-0.290288 0.436256 0.134745
-0.290288 -0.164631 -0.418473
-0.290288 -0.365017 0.254117
-0.290288 -0.147991 0.439614
-0.290288 -0.418061 0.246670
-0.290288 0.311486 -0.321745
-0.290288 -0.451126 0.048181
-0.290288 -0.451068 -0.041301
-0.290288 0.254883 0.391332
-0.290288 -0.380966 0.273091
-0.290288 -0.431245 -0.216809
-0.290288 0.430996 0.231802
-0.290288 -0.047821 -0.490014
-0.290288 0.442499 -0.204570
-0.290288 0.374422 -0.329814
-0.290288 0.448937 -0.170570
-0.290288 0.028175 0.471889
-0.290288 -0.438082 0.203436
-0.290288 -0.380428 0.313835
-0.290288 -0.398443 0.244327
-0.290288 -0.418353 -0.172322
-0.290288 0.451931 -0.102365
-0.290288 0.219440 0.404425
-0.290288 0.328613 -0.368933
-0.290288 -0.157724 0.468420
-0.290288 -0.446575 0.073957
-0.290288 -0.262648 0.406664
-0.290288 0.042747 -0.492945
-0.290288 0.395627 0.257463
-0.290288 -0.158860 0.465054
-0.290288 -0.256814 -0.375022
-0.290288 -0.341478 -0.318772
-0.290288 -0.219808 -0.446065
-0.290288 -0.126109 -0.461745
-0.290288 -0.465060 0.060685
-0.290288 -0.296601 0.366849
-0.290288 -0.301540 -0.347546
-0.290288 -0.341676 0.346602
-0.290288 -0.278874 0.352083
-0.290288 0.185166 0.403458
-0.290288 -0.465967 -0.154484
-0.290288 -0.399480 0.196785
-0.290288 -0.429870 0.210521
-0.290288 0.308180 0.381810
-0.290288 0.394232 -0.263029
-0.290288 0.189094 -0.410801
-0.290288 0.087214 -0.467635
-0.290288 -0.318934 -0.354899
-0.290288 -0.125507 -0.457843
-0.290288 0.056334 0.451970
-0.290288 -0.454059 0.170329
-0.290288 -0.289560 0.354923
-0.290288 -0.197841 0.430394
-0.290288 0.455173 0.032599
-0.290288 0.392253 0.219595
-0.290288 -0.193303 0.416239
-0.290288 0.437530 0.158254
-0.290288 -0.082126 0.482151
-0.290288 0.442053 -0.060915
-0.290288 -0.107229 0.475102
-0.290288 0.350553 -0.351994
-0.290288 -0.186657 -0.463284
-0.290288 0.253126 -0.403518
-0.290288 -0.012237 -0.480157
-0.290288 0.192315 0.434644
-0.290288 0.117295 -0.449931
-0.290288 -0.466296 -0.072008
-0.290288 0.406513 -0.223867
-0.290288 -0.461205 -0.018968
-0.290288 -0.293896 0.341658
-0.290288 0.042274 -0.498039
-0.290288 0.034390 -0.477909
-0.290288 0.447459 -0.064030
-0.290288 0.283494 -0.381371
-0.290288 0.287202 -0.392613
-0.290288 -0.324622 0.317274
-0.290288 -0.212325 0.425707
-0.290288 0.275173 0.348351
-0.290288 -0.084285 -0.446999
-0.290288 -0.014565 0.494636
-0.290288 -0.388049 -0.259076
-0.290288 -0.314187 0.313972
-0.290288 0.362371 -0.302335
-0.290288 -0.346130 -0.314737
-0.290288 0.479849 0.032560
-0.290288 -0.268976 0.353776
-0.290288 0.215594 -0.424141
-0.290288 -0.367470 -0.300941
-0.290288 0.462298 0.065302
-0.290288 0.044193 0.471710
-0.290288 0.040822 0.456468
-0.290288 -0.483948 -0.114804
-0.290288 -0.493371 -0.049083
-0.290288 0.424833 -0.226553
-0.290288 -0.459691 -0.164242
-0.290288 0.142777 -0.461183
-0.290288 -0.072566 -0.451141
-0.290288 0.478151 0.097202
-0.290288 0.446198 0.167420
-0.290288 0.475609 -0.108767
-0.290288 0.118966 -0.440707
-0.290288 0.097219 0.480627
-0.290288 0.447623 0.171843
-0.290288 0.331799 -0.318118
-0.290288 0.479082 -0.061208
-0.290288 0.183600 0.425932
-0.290288 0.262249 -0.410431
-0.290288 0.181845 0.417587
-0.290288 -0.403476 0.240150
-0.290288 0.421301 0.144071
-0.290288 -0.419779 0.254131
-0.290288 0.422813 0.179614
-0.290288 0.210834 0.402173
-0.290288 0.398437 -0.240506
-0.290288 0.253416 0.406595
-0.290288 -0.361369 0.328745
-0.290288 -0.321621 -0.380872
-0.290288 -0.436002 0.138067
-0.290288 0.443925 -0.181968
-0.290288 0.479217 0.130710
-0.290288 -0.412726 0.179324
-0.290288 0.155006 -0.429907
-0.290288 0.312796 0.335503
-0.290288 0.348220 -0.286976
-0.290288 -0.473698 0.002262
-0.290288 0.387999 -0.272395
-0.290288 0.169064 0.439296
-0.290288 -0.107841 -0.474322
-0.290288 0.080518 0.453165
-0.290288 -0.014298 -0.450300
-0.290288 0.223064 0.425058
-0.290288 0.375078 0.239011
-0.290288 -0.072792 -0.478609
-0.290288 0.312649 -0.389912
-0.290288 0.361303 0.278981
-0.290288 -0.053726 0.450166
-0.290288 -0.463968 -0.003391
-0.290288 -0.469748 -0.012724
-0.290288 -0.195684 -0.424877
-0.290288 0.297182 -0.365506
-0.290288 -0.294350 0.364009
-0.290288 -0.091079 -0.440839
-0.290288 -0.194834 0.430475
-0.290288 -0.359020 -0.307300
-0.290288 0.489510 -0.093069
-0.290288 0.463711 -0.146620
-0.290288 -0.058297 0.466250
-0.290288 0.436373 0.178168
-0.290288 -0.122267 0.474125
-0.290288 0.470943 -0.121264
-0.290288 0.427070 0.214036
-0.290288 0.458718 -0.108336
-0.290288 0.156368 0.422007
-0.290288 0.299904 -0.390297
-0.290288 0.483640 -0.013455
-0.290288 -0.440985 -0.160688
-0.290288 0.396301 -0.271583
-0.290288 -0.004106 -0.455710
-0.290288 -0.130363 -0.428695
-0.290288 -0.324022 0.331141
-0.290288 -0.489201 0.016886
-0.290288 0.263453 -0.365601
-0.290288 0.437217 -0.153186
-0.290288 0.103822 0.466078
-0.290288 0.311424 0.374086
-0.290288 0.159287 -0.469711
-0.290288 0.414022 -0.193872
-0.290288 0.444844 -0.074251
-0.290288 0.076788 0.474924
-0.290288 -0.491839 0.047352
-0.290288 0.092515 0.451744
-0.290288 0.406522 -0.275925
-0.290288 0.199604 0.432251
-0.290288 -0.451993 0.097303
-0.290288 0.465718 0.044248
-0.290288 0.146062 -0.478263
-0.290288 0.336593 -0.366388
-0.290288 0.448451 -0.000809
-0.290288 -0.345022 0.352764
-0.290288 -0.263271 0.373289
-0.290288 -0.360693 -0.280043
-0.290288 0.476071 -0.105481
-0.290288 0.450179 -0.124157
-0.290288 -0.312158 0.364866
-0.290288 -0.484649 -0.103685
-0.290288 -0.286994 -0.392536
-0.290288 -0.366516 -0.272073
-0.290288 -0.332542 -0.338509
-0.290288 0.433056 -0.142362
-0.290288 0.066140 0.454891
-0.290288 -0.447574 0.141479
-0.290288 -0.144823 -0.423185
-0.290288 -0.043938 0.490040
-0.290288 -0.214556 0.401960
-0.290288 -0.273593 -0.382008
-0.290288 -0.391888 0.240533
-0.290288 -0.435249 -0.187524
-0.290288 -0.254311 -0.372823
-0.290288 0.162697 -0.443520
-0.290288 0.088561 -0.446982
-0.290288 -0.353615 0.344918
-0.290288 0.367468 0.299432
-0.290288 -0.013003 -0.460869
-0.290288 -0.490003 -0.072116
-0.290288 -0.039691 0.475961
-0.290288 0.058320 0.476695
-0.290288 -0.466858 0.022084
-0.290288 -0.070433 0.468079
-0.290288 0.352696 0.301822
-0.290288 0.280610 -0.364307
-0.290288 -0.257280 0.362191
-0.290288 -0.272433 0.377164
-0.290288 -0.187842 -0.415628
-0.290288 -0.430655 -0.122106
-0.290288 0.462061 0.132062
-0.290288 0.173649 -0.463069
-0.290288 -0.479497 0.119536
-0.290288 0.455104 -0.164701
-0.290288 0.409869 0.254404
-0.290288 -0.450462 -0.036945
-0.290288 0.103341 0.441950
-0.290288 -0.335573 -0.356266
-0.290288 -0.341124 0.312865
-0.290288 0.381106 0.293071
-0.290288 0.428094 -0.188750
-0.290288 -0.135900 0.447886
-0.290288 -0.214006 0.421517
-0.290288 -0.409912 -0.258745
-0.290288 -0.461333 0.084900
-0.290288 0.438650 0.151881
-0.290288 -0.460024 -0.132236
-0.290288 -0.465425 -0.117915
-0.290288 -0.102709 -0.463582
-0.290288 0.144172 0.436790
-0.290288 -0.467206 0.097694
-0.290288 -0.337608 0.290895
-0.290288 -0.400045 -0.220042
-0.290288 -0.222997 0.394466
-0.290288 0.434359 0.157187
-0.290288 0.055887 0.485540
-0.290288 0.224998 0.430429
-0.290288 -0.110478 0.434214
-0.290288 0.472477 0.141659
-0.290288 -0.353779 0.305965
-0.290288 0.442338 0.133428
-0.290288 -0.417379 -0.218123
-0.290288 0.449479 -0.100155
-0.290288 -0.423446 0.232979
-0.290288 0.478769 -0.054851
-0.290288 0.464552 -0.036874
-0.290288 -0.313208 -0.349514
-0.290288 0.351964 -0.297767
-0.290288 0.427303 0.229776
-0.290288 0.380794 -0.256908
-0.290288 0.485624 -0.056039
-0.290288 -0.312162 -0.369825
-0.290288 0.368777 -0.283083
-0.290288 0.271253 0.352452
-0.290288 0.102091 0.469979
-0.290288 -0.482897 -0.027815
-0.290288 0.178264 0.447606
-0.290288 0.483133 -0.058587
-0.290288 -0.192353 -0.424677
-0.290288 -0.008931 0.461219
-0.290288 -0.276709 -0.358811
-0.290288 0.086987 -0.488158
-0.290288 0.314273 0.358845
-0.290288 -0.029438 -0.466645
-0.290288 0.454843 0.025012
-0.290288 0.463228 0.150671
-0.290288 0.440297 0.201489
-0.290288 0.113599 0.431308
-0.290288 -0.385450 -0.265017
-0.290288 0.018356 -0.497439
-0.290288 -0.176407 0.406860
-0.290288 0.119557 -0.473440
-0.290288 -0.216575 0.414466
-0.290288 0.498099 -0.015744
-0.290288 0.458371 0.079168
-0.290288 -0.463074 -0.134112
-0.290288 -0.416349 0.239364
-0.290288 -0.104099 -0.453915
-0.290288 0.193957 0.417672
-0.290288 -0.471907 0.128174
-0.290288 0.489125 0.066861
-0.290288 0.222629 0.437964
-0.290288 -0.296400 -0.348626
-0.290288 0.435277 0.202280
-0.290288 -0.473721 0.026066
-0.290288 -0.356484 0.322443
-0.290288 0.250244 0.366408
-0.290288 -0.440400 -0.168856
-0.290288 -0.181297 0.415378
-0.290288 -0.433518 -0.214203
-0.290288 -0.099588 -0.458431
-0.290288 -0.159511 0.439778
-0.290288 0.471381 0.108190
-0.290288 0.493551 0.007971
-0.290288 0.451945 0.055191
-0.290288 -0.147866 -0.476540
-0.290288 0.361238 -0.271645
-0.290288 0.377393 -0.249074
-0.290288 0.428583 -0.153954
-0.290288 -0.382881 -0.242626
-0.290288 0.443014 0.210223
-0.290288 -0.406374 -0.266666
-0.290288 0.361762 -0.321862
-0.290288 0.493674 -0.026423
-0.290288 -0.155300 0.440449
-0.290288 0.487293 -0.033721
-0.290288 0.284078 -0.370625
-0.290288 0.375166 0.293580
-0.290288 -0.443602 -0.145589
-0.290288 -0.478738 -0.112072
-0.290288 0.048929 -0.472335
-0.290288 0.395175 0.281207
-0.290288 0.389516 0.240124
-0.290288 -0.457143 0.050624
-0.290288 0.438929 -0.196286
-0.290288 -0.332002 -0.334923
-0.290288 0.418524 -0.169765
-0.290288 -0.474019 -0.118278
-0.290288 -0.259698 0.399763
-0.290288 0.436232 -0.193517
-0.290288 -0.443594 0.195913
-0.290288 -0.289359 -0.369781
-0.290288 0.293590 -0.345300
-0.290288 0.300057 0.363137
-0.290288 -0.201826 -0.447825
-0.290288 -0.488149 0.023567
-0.290288 -0.489819 -0.055255
-0.290288 0.413802 0.266386
-0.290288 -0.187051 0.454005
-0.290288 0.478989 0.047081
-0.290288 -0.270384 -0.398208
-0.290288 -0.442531 -0.047352
-0.290288 0.085327 -0.475605
-0.290288 -0.466168 -0.024870
-0.290288 -0.126199 0.443647
-0.290288 -0.392660 -0.294737
-0.290288 -0.445170 -0.103864
-0.290288 -0.342183 -0.335599
-0.290288 -0.490498 -0.041589
-0.290288 0.391301 -0.285087
-0.290288 -0.460700 -0.106154
-0.290288 0.084396 -0.482234
-0.290288 -0.058080 -0.461063
-0.290288 0.461228 -0.086159
-0.290288 0.425932 -0.199111
-0.290288 0.252520 -0.370197
-0.290288 0.441411 0.092599
-0.290288 -0.449085 0.034718
-0.290288 -0.482675 0.034118
-0.290288 -0.375509 -0.284756
-0.290288 -0.196401 -0.436688
-0.290288 -0.418101 0.181787
-0.290288 -0.094059 -0.482834
-0.290288 0.461573 -0.127362
-0.290288 -0.430041 0.138363
-0.290288 0.395332 -0.278024
-0.290288 0.396615 0.253117
-0.290288 -0.496928 -0.006202
-0.290288 0.459354 -0.172895
-0.290288 -0.406452 -0.217018
-0.290288 0.442847 0.056639
-0.290288 -0.132231 0.455778
-0.290288 -0.454715 -0.083608
-0.290288 -0.098434 -0.483571
-0.290288 0.238245 -0.422686
-0.290288 0.468687 0.164162
-0.290288 0.139703 -0.444005
-0.290288 -0.398896 -0.216470
-0.290288 -0.440422 0.195171
-0.290288 -0.200100 0.411945
-0.290288 -0.453740 -0.200971
-0.290288 -0.406655 -0.236385
-0.290288 0.343441 0.283730
-0.290288 -0.384655 0.282486
-0.290288 0.094431 -0.461791
-0.290288 -0.400753 0.278379
-0.290288 -0.159542 0.420381
-0.290288 0.143014 -0.446953
-0.290288 -0.474967 0.077165
-0.290288 0.466146 0.170866
-0.290288 0.475428 -0.029729
-0.290288 0.136282 -0.445981
-0.290288 -0.026545 -0.481661
-0.290288 -0.455826 -0.117291
-0.290288 0.421694 0.236171
-0.290288 0.156926 -0.437326
-0.290288 0.453876 -0.192418
-0.290288 -0.210752 0.413202
-0.290288 -0.393636 -0.299793
-0.290288 -0.096397 -0.479791
-0.290288 -0.201838 0.401878
-0.290288 -0.457152 0.079214
-0.290288 -0.431582 -0.171504
-0.290288 -0.021309 -0.448309
-0.290288 0.392742 0.254861
-0.290288 -0.466870 0.149570
-0.290288 -0.241940 -0.435051
-0.290288 0.400679 0.195437
-0.290288 0.377782 0.318422
-0.290288 -0.345725 0.340888
-0.290288 0.443492 -0.222406
-0.290288 0.393224 0.264385
-0.290288 0.390056 0.234575
-0.290288 0.387382 0.242623
-0.290288 -0.448510 -0.020806
-0.290288 -0.427247 0.127452
-0.290288 0.412478 0.216415
-0.290288 0.451090 -0.115119
-0.290288 0.071845 -0.461468
-0.290288 -0.410998 0.175089
-0.290288 -0.402853 0.188823
-0.290288 0.415944 -0.247558
-0.290288 0.433129 -0.154218
-0.290288 -0.168009 0.437846
-0.290288 -0.238294 0.431272
-0.290288 -0.348807 -0.311869
-0.290288 0.001905 -0.476700
-0.290288 0.434620 -0.200618
-0.290288 0.340933 0.342891
-0.290288 0.238954 0.412927
-0.290288 -0.265270 0.381109
-0.290288 -0.320100 0.308144
-0.290288 -0.357365 0.332146
-0.290288 -0.477874 0.004387
-0.290288 -0.368191 0.269291
-0.290288 -0.438934 0.140948
-0.290288 -0.218063 -0.443208
-0.290288 -0.018375 0.488896
-0.290288 -0.237127 0.424020
-0.290288 0.041432 0.468029
-0.290288 -0.440178 -0.106241
-0.290288 0.342833 0.314087
-0.290288 -0.406690 0.190943
-0.290288 0.347018 -0.358980
-0.290288 0.072154 -0.454017
-0.290288 0.333480 -0.324738
-0.290288 0.483414 -0.024478
-0.290288 -0.038884 0.488475
-0.290288 -0.485517 0.073924
-0.290288 0.370153 -0.296286
-0.290288 0.332049 0.340913
-0.290288 0.354457 0.344763
-0.290288 0.168585 0.421088
-0.290288 -0.422754 0.190030
-0.290288 0.470874 0.088245
-0.290288 -0.162393 -0.420670
-0.290288 0.278686 0.375700
-0.290288 0.225675 0.405818
-0.290288 0.342162 0.310290
-0.290288 0.353769 0.334927
-0.290288 -0.348563 0.352544
-0.290288 0.332130 -0.332368
-0.290288 0.209446 0.433256
-0.290288 -0.440091 -0.084497
-0.290288 0.247755 -0.390106
-0.290288 -0.095857 -0.437136
-0.290288 -0.448988 0.102693
-0.290288 -0.104786 -0.475785
-0.290288 0.321000 -0.335292
-0.290288 -0.255389 0.423574
-0.290288 -0.211196 0.402449
-0.290288 0.183775 0.460844
-0.290288 -0.196408 -0.429330
-0.290288 0.109882 -0.444992
-0.290288 0.221071 -0.420079
-0.290288 -0.214811 -0.398118
-0.290288 0.375885 -0.260702
-0.290288 -0.437169 0.187454
-0.290288 -0.163513 0.463405
-0.290288 0.428882 0.166506
-0.290288 -0.481285 -0.127363
-0.290288 0.080659 -0.471842
-0.290288 -0.453084 -0.127214
-0.290288 -0.471988 0.035363
-0.290288 0.141474 0.452925
-0.290288 -0.100543 0.467030
-0.290288 0.395090 0.300463
-0.290288 -0.343933 0.282028
-0.290288 0.002285 0.462431
-0.290288 -0.106369 0.480387
-0.290288 -0.457046 -0.020874
-0.290288 0.424195 0.150807
-0.290288 -0.426305 -0.148300
-0.290288 -0.215148 -0.435825
-0.290288 -0.486420 0.102178
-0.290288 0.456326 -0.032779
-0.290288 0.023848 -0.481304
-0.290288 0.374676 -0.279637
-0.290288 0.036334 -0.447631
-0.290288 -0.035434 -0.475490
-0.290288 0.459384 0.121350
-0.290288 -0.443416 0.198987
-0.290288 0.455261 0.200122
-0.290288 0.399493 -0.254432
-0.290288 0.273595 0.382163
-0.290288 0.363352 -0.298098
-0.290288 0.464283 0.137638
-0.290288 0.270078 0.405927
-0.290288 -0.240514 -0.399213
-0.290288 -0.402941 -0.257679
-0.290288 0.308786 0.349930
-0.290288 0.110724 0.440322
-0.290288 0.066353 -0.465511
-0.290288 -0.297634 -0.374476
-0.290288 0.157171 0.460082
-0.290288 0.460658 0.117892
-0.290288 0.423988 -0.161386
-0.290288 -0.291350 0.362718
-0.290288 0.284463 -0.364771
-0.290288 -0.341631 -0.295834
-0.290288 -0.361863 -0.261788
-0.290288 -0.339024 0.325300
-0.290288 0.394418 -0.286344
-0.290288 0.444827 -0.199455
-0.290288 0.404095 -0.240860
-0.290288 0.436464 -0.120294
-0.290288 -0.438332 -0.140636
-0.290288 0.449363 -0.061460
-0.290288 -0.141147 0.450094
-0.290288 -0.486353 -0.083814
-0.290288 0.117544 0.444758
-0.290288 -0.353363 -0.302243
-0.290288 0.495669 -0.045235
-0.290288 -0.212536 -0.443801
-0.290288 0.138211 -0.425814
-0.290288 0.429666 0.244732
-0.290288 0.191059 0.416166
-0.290288 -0.160303 -0.427930
-0.290288 0.131074 0.446985
-0.290288 0.258040 0.389693
-0.290288 0.017276 -0.485145
-0.290288 -0.381499 -0.266046
-0.290288 0.250586 -0.393087
-0.290288 0.299927 -0.336798
-0.290288 -0.335315 -0.369199
-0.290288 0.413405 -0.221078
-0.290288 0.462649 -0.049607
-0.290288 0.481729 0.020860
-0.290288 0.270211 -0.356550
-0.290288 0.075867 0.448953
-0.290288 -0.378335 0.253753
-0.290288 -0.458253 0.060850
-0.290288 -0.409209 0.238459
-0.290288 -0.061702 0.439846
-0.290288 0.371233 0.259795
-0.290288 -0.375315 -0.249084
-0.290288 0.421526 -0.169227
-0.290288 0.437077 0.103053
-0.290288 -0.303503 0.347404
-0.290288 0.352275 -0.345224
-0.290288 -0.077166 0.451712
-0.290288 -0.464975 0.036534
-0.290288 -0.375826 0.236923
-0.290288 0.201737 -0.416705
-0.290288 0.071708 0.457197
-0.290288 -0.376635 0.298098
-0.290288 0.142692 0.466444
-0.290288 -0.289669 0.351212
-0.290288 0.473714 0.124167
-0.290288 -0.023121 0.494997
-0.290288 -0.250307 0.366032
-0.290288 0.139814 0.432416
-0.290288 -0.419930 0.263864
-0.290288 -0.204370 0.408458
-0.290288 -0.433580 0.162285
-0.290288 0.385900 -0.306805
-0.290288 -0.150956 0.438423
-0.290288 0.316535 -0.369903
-0.290288 -0.476917 0.070631
-0.290288 -0.256143 0.407965
-0.290288 -0.342171 0.356763
-0.290288 -0.125025 0.467299
-0.290288 -0.480272 -0.096426
-0.290288 -0.323415 0.358120
-0.290288 -0.485900 -0.040892
-0.290288 -0.471090 -0.019738
-0.290288 0.253678 0.399489
-0.290288 -0.029545 -0.497204
-0.290288 -0.225386 -0.442154
-0.290288 0.399080 0.255739
-0.290288 0.262858 -0.419050
-0.290288 0.368832 -0.316134
-0.290288 0.025512 -0.460976
-0.290288 0.433653 0.160297
-0.290288 0.046740 0.449806
-0.290288 -0.033878 0.444549
-0.290288 -0.468134 0.135508
-0.290288 -0.172433 0.420759
-0.290288 -0.186738 0.439433
-0.290288 -0.415022 0.168386
-0.290288 0.430239 -0.171025
-0.290288 0.238889 0.390795
-0.290288 0.410336 -0.215361
-0.290288 0.058547 -0.449320
-0.290288 -0.267358 -0.407133
-0.290288 0.388367 0.295970
-0.290288 0.483926 -0.006778
-0.290288 -0.384345 -0.283643
-0.290288 -0.289805 -0.354298
-0.290288 -0.316948 -0.322227
-0.290288 -0.341367 -0.326534
-0.290288 0.033474 0.442430
-0.290288 -0.446768 0.082381
-0.290288 0.219759 0.439930
-0.290288 -0.266553 0.407276
-0.290288 0.112443 -0.463265
-0.290288 0.349969 0.279514
-0.290288 0.317929 -0.354507
-0.290288 -0.440569 -0.143431
-0.290288 -0.468033 0.121038
-0.290288 0.238628 0.401925
-0.290288 0.199695 -0.447659
-0.290288 -0.387918 -0.244921
-0.290288 0.216755 0.420931
-0.290288 -0.322747 -0.355461
-0.290288 0.420238 -0.161208
-0.290288 0.448051 -0.176265
-0.290288 -0.348326 0.349281
-0.290288 -0.257264 0.370200
-0.290288 0.350890 -0.323121
-0.290288 -0.441195 0.143315
-0.290288 0.257584 -0.396907
-0.290288 0.219754 -0.445099
-0.290288 0.103477 -0.459655
-0.290288 0.436214 0.143530
-0.290288 -0.437931 0.153703
-0.290288 -0.465880 0.003148
-0.290288 -0.442921 -0.224148
-0.290288 0.095409 0.443272
-0.290288 -0.454752 -0.074294
-0.290288 -0.362371 -0.296595
-0.290288 0.058476 -0.455513
-0.290288 0.314280 0.354899
-0.290288 -0.062114 0.482864
-0.290288 -0.388758 -0.232682
-0.290288 -0.168399 0.424452
-0.290288 0.052314 0.490427
-0.290288 -0.152935 0.459089
-0.290288 -0.062021 0.486908
-0.290288 0.414857 -0.201783
-0.290288 0.110460 -0.459994
-0.290288 -0.443253 0.136301
-0.290288 0.428869 -0.204781
-0.290288 0.458082 0.073266
-0.290288 -0.081377 -0.455250
-0.290288 0.253343 -0.395821
-0.290288 0.415338 0.253797
-0.290288 -0.287049 0.387151
-0.290288 0.270081 -0.402036
-0.290288 0.432221 0.180178
-0.290288 0.369159 -0.301042
-0.290288 0.252651 -0.386505
-0.290288 0.411695 -0.175177
-0.290288 0.431256 -0.117344
-0.290288 -0.002119 -0.447727
-0.290288 0.265285 -0.373230
-0.290288 0.063561 0.457426
-0.290288 0.483760 0.081781
-0.290288 0.488289 -0.036639
-0.290288 0.034410 -0.484750
-0.290288 -0.213695 -0.422064
-0.290288 0.350568 -0.317646
-0.290288 -0.267725 0.390345
-0.290288 -0.391763 0.261894
-0.290288 -0.242981 0.396556
-0.290288 -0.061832 -0.473429
-0.290288 -0.256969 -0.400584
-0.290288 0.187704 0.457194
-0.290288 -0.045273 0.443274
-0.290288 -0.023465 -0.482769
-0.290288 0.037310 0.466198
-0.290288 0.048227 -0.463809
-0.290288 0.223973 0.442660
-0.290288 -0.477090 0.137624
-0.290288 0.283945 -0.395911
-0.290288 -0.092634 0.455184
-0.290288 0.461975 -0.030564
-0.290288 -0.448662 0.160754
-0.290288 -0.457481 -0.156210
-0.290288 -0.381575 0.294688
-0.290288 0.335001 0.320696
-0.290288 0.349236 0.348413
-0.290288 0.461466 -0.036625
-0.290288 0.237584 -0.395615
-0.290288 0.460506 0.139741
-0.290288 -0.124173 0.450648
-0.290288 -0.131949 -0.437598
-0.290288 0.263845 -0.379517
-0.290288 -0.129448 -0.450217
-0.290288 -0.261546 -0.412612
-0.290288 0.001056 -0.496945
-0.290288 -0.403182 -0.235281
-0.290288 -0.252873 -0.430636
-0.290288 0.235318 -0.414232
-0.290288 0.075841 -0.457713
-0.290288 0.402615 -0.245663
-0.290288 -0.287818 0.383063
-0.290288 -0.261011 0.396693
-0.290288 -0.473634 0.029815
-0.290288 0.465170 0.167524
-0.290288 0.446314 0.126748
-0.290288 0.442749 0.165187
-0.290288 -0.382870 0.224213
-0.290288 -0.293635 -0.341378
-0.290288 -0.293793 0.336473
-0.290288 0.398591 0.265217
-0.290288 -0.456914 0.090867
-0.290288 0.214727 -0.450994
-0.290288 -0.221735 0.406818
-0.290288 -0.112895 0.465253
-0.290288 0.463161 -0.101734
-0.290288 0.087694 -0.457794
-0.290288 -0.057524 0.491299
-0.290288 0.116725 0.464208
-0.290288 -0.403196 0.244765
-0.290288 0.450603 0.194753
-0.290288 -0.478910 -0.052351
-0.290288 0.290732 0.366259
-0.290288 -0.402489 0.259103
-0.290288 -0.409044 0.212677
-0.290288 0.459808 0.104119
-0.290288 0.444922 -0.207875
-0.290288 0.462303 -0.170527
-0.290288 -0.133502 -0.481778
-0.290288 0.287973 -0.371437
-0.290288 -0.121731 -0.437307
-0.290288 0.457651 -0.019410
-0.290288 0.378756 0.298711
-0.290288 0.395113 -0.225127
-0.290288 -0.353415 0.324536
-0.290288 -0.223786 0.386741
-0.290288 -0.169910 0.454071
-0.290288 0.252445 0.382810
-0.290288 -0.001649 0.462219
-0.290288 0.050284 -0.453636
-0.290288 -0.270832 0.358005
-0.290288 -0.203516 -0.440243
-0.290288 -0.424945 -0.190390
-0.290288 0.124694 0.468601
-0.290288 0.335511 -0.331247
-0.290288 0.304392 -0.377706
-0.290288 -0.396914 -0.212009
-0.290288 0.453906 -0.156183
-0.290288 0.421296 0.147955
-0.290288 0.138060 -0.460520
-0.290288 0.431784 -0.181547
-0.290288 -0.185835 -0.412749
-0.290288 -0.441133 0.174117
-0.290288 -0.357563 0.296356
-0.290288 -0.334295 -0.341672
-0.290288 -0.323329 -0.375877
-0.290288 -0.029188 0.462802
-0.290288 -0.078800 0.463304
-0.290288 -0.388419 0.252307
-0.290288 -0.215719 0.398654
-0.290288 -0.019970 -0.492037
-0.290288 0.113096 -0.469368
-0.290288 0.270283 0.395043
-0.290288 0.078582 0.478310
-0.290288 -0.308011 -0.350374
-0.290288 0.450014 0.016042
-0.290288 -0.243125 0.402200
-0.290288 0.378972 0.285630
-0.290288 0.053450 0.453739
-0.290288 -0.478946 0.115851
-0.290288 -0.367439 0.292015
-0.290288 0.020515 0.448518
-0.290288 -0.468848 0.160077
-0.290288 0.249313 0.406578
-0.290288 0.455577 -0.047214
-0.290288 -0.013570 0.480446
-0.290288 -0.330055 -0.357942
-0.290288 -0.455726 -0.097644
-0.290288 0.285716 0.387035
-0.290288 -0.006476 0.485543
-0.290288 -0.357072 0.270319
-0.290288 0.403258 -0.218655
-0.290288 -0.408525 0.235194
-0.290288 0.172437 0.434152
-0.290288 0.344240 0.290582
-0.290288 -0.408747 -0.226833
-0.290288 -0.365214 -0.340243
-0.290288 0.424618 0.190398
-0.290288 -0.136560 0.435624
-0.290288 -0.398343 -0.247767
-0.290288 -0.436170 -0.156225
-0.290288 0.181528 -0.465360
-0.290288 -0.377638 -0.293776
-0.290288 0.213007 -0.397694
-0.290288 -0.456893 0.070687
-0.290288 0.038053 -0.496888
-0.290288 -0.474776 0.056555
-0.290288 0.401115 -0.285950
-0.290288 -0.412184 0.233761
-0.290288 0.010803 0.478786
-0.290288 -0.202441 0.437462
-0.290288 -0.442187 0.181983
-0.290288 0.095229 -0.468596
-0.290288 0.283242 0.383302
-0.290288 0.184654 -0.432653
-0.290288 0.196147 0.449544
-0.290288 -0.344702 0.321067
-0.290288 -0.356610 0.316310
-0.290288 -0.051502 -0.490577
-0.290288 -0.431645 -0.146958
-0.290288 0.354705 0.331651
-0.290288 0.397425 -0.280985
-0.290288 -0.402698 -0.192060
-0.290288 -0.472431 -0.122263
-0.290288 -0.083789 -0.440300
-0.290288 -0.359640 -0.265617
-0.290288 0.481546 0.036311
-0.290288 -0.334286 -0.352641
-0.290288 0.434423 0.239729
-0.290288 0.134637 0.427780
-0.290288 0.322878 -0.328717
-0.290288 -0.319833 0.335299
-0.290288 -0.458334 -0.148228
-0.290288 -0.163807 -0.425083
-0.290288 -0.313877 -0.317534
-0.290288 0.411116 0.229541
-0.290288 -0.258509 -0.414197
-0.290288 -0.402161 0.206952
-0.290288 -0.375529 0.246754
-0.290288 -0.362147 -0.337084
-0.290288 0.426394 0.156208
-0.290288 0.317669 0.355038
-0.290288 0.233289 -0.397410
-0.290288 -0.432137 0.147930
-0.290288 -0.233289 -0.392263
-0.290288 0.262753 0.409096
-0.290288 -0.225237 -0.385933
-0.290288 0.034682 0.469081
-0.290288 0.152076 -0.466269
-0.290288 0.179081 -0.441833
-0.290288 0.287297 0.397088
-0.290288 -0.427373 0.234204
-0.290288 -0.369898 -0.269212
-0.290288 -0.430896 0.131030
-0.290288 0.468215 0.025593
-0.290288 0.033718 -0.462614
-0.290288 -0.382398 0.258782
-0.290288 0.447636 -0.038645
-0.290288 -0.323792 0.345531
-0.290288 -0.098812 0.478991
-0.290288 -0.363936 -0.329542
-0.290288 -0.082871 0.488124
-0.290288 0.428755 0.147359
-0.290288 -0.207866 -0.444695
-0.290288 -0.381927 -0.298478
-0.290288 -0.453832 0.078607
-0.290288 0.412282 0.182917
-0.290288 -0.278354 -0.386851
-0.290288 0.290586 0.353955
-0.290288 -0.286089 -0.403101
-0.290288 -0.453701 0.115313
-0.290288 -0.272876 0.405511
-0.290288 0.490651 0.085693
-0.290288 -0.446765 0.158254
-0.290288 -0.398823 0.208769
-0.290288 0.317643 -0.364232
-0.290288 -0.352882 -0.281112
-0.290288 -0.173531 -0.450519
-0.290288 0.084811 -0.478759
-0.290288 -0.085325 0.481805
-0.290288 0.294219 -0.385283
-0.290288 -0.128188 -0.477170
-0.290288 -0.357070 -0.304471
-0.290288 -0.349382 -0.305464
-0.290288 -0.112569 0.445781
-0.290288 -0.446702 0.053944
-0.290288 0.305912 -0.331549
-0.290288 -0.371779 0.322731
-0.290288 0.046174 0.475514
-0.290288 0.027114 0.446959
-0.290288 -0.325877 0.322971
-0.290288 -0.029100 -0.451073
-0.290288 -0.062727 -0.456874
-0.290288 0.373582 0.257797
-0.290288 0.391055 0.228194
-0.290288 0.110541 0.436692
-0.290288 -0.041704 -0.467652
-0.290288 -0.134347 -0.456148
-0.290288 0.447577 -0.113043
-0.290288 -0.251810 -0.420054
-0.290288 0.027629 -0.454624
-0.290288 -0.459229 0.030412
-0.290288 -0.373767 -0.259491
-0.290288 -0.440215 -0.200405
-0.290288 0.035328 -0.467218
-0.290288 0.386886 -0.283138
-0.290288 -0.245180 0.380615
-0.290288 -0.448693 -0.142472
-0.290288 0.094894 -0.445584
-0.290288 -0.377197 0.304529
-0.290288 -0.459924 0.089255
-0.290288 -0.075448 0.489122
-0.290288 -0.440900 -0.134222
-0.290288 0.063152 0.452098
-0.290288 0.188619 0.425954
-0.290288 -0.374466 0.279487
-0.290288 -0.478909 -0.075511
-0.290288 -0.018129 0.447215
-0.290288 -0.342990 -0.291916
-0.290288 -0.254917 0.381495
-0.290288 0.222359 0.421184
-0.290288 0.052669 0.458447
-0.290288 -0.292386 -0.404792
-0.290288 -0.445309 -0.002358
-0.290288 0.080089 0.463732
-0.290288 0.380596 -0.308869
-0.290288 -0.017058 -0.459069
-0.290288 -0.463805 -0.010497
-0.290288 0.115143 0.482281
-0.290288 -0.179128 -0.457372
-0.290288 -0.110582 -0.441327
-0.290288 -0.442332 0.087316
-0.290288 0.122085 -0.460020
-0.290288 0.432423 0.191403
-0.290288 0.444486 -0.115275
-0.290288 -0.434793 0.201514
-0.290288 -0.091604 -0.488327
-0.290288 -0.177573 -0.464899
-0.290288 0.315128 0.363022
-0.290288 -0.421376 -0.258820
-0.290288 -0.455339 0.160188
-0.290288 0.467975 0.037926
-0.290288 -0.436259 -0.112225
-0.290288 -0.113818 -0.458250
-0.290288 -0.264510 -0.373571
-0.290288 -0.409979 -0.191950
-0.290288 -0.128315 -0.482796
-0.290288 -0.428587 0.243465
-0.290288 0.456173 0.022058
-0.290288 0.494676 -0.013028
-0.290288 -0.393752 0.258314
-0.290288 0.012365 0.467912
-0.290288 0.409599 0.279112
-0.290288 0.240359 0.429249
-0.290288 0.153450 -0.420572
-0.290288 0.467569 -0.002684
-0.290288 -0.133963 0.463060
-0.290288 0.202801 -0.440750
-0.290288 -0.142430 0.457381
-0.290288 -0.086457 0.487959
-0.290288 -0.321946 0.324303
-0.290288 0.438439 0.140703
-0.290288 -0.454649 0.002277
-0.290288 -0.374210 0.241537
-0.290288 0.414850 -0.187927
-0.290288 0.492473 0.051449
-0.290288 -0.437684 -0.109399
-0.290288 -0.348390 0.291054
-0.290288 0.492803 -0.051385
-0.290288 0.227055 0.418083
-0.290288 -0.281056 -0.353283
-0.290288 0.490567 0.009302
-0.290288 0.341335 0.324226
-0.290288 0.405975 0.229049
-0.290288 0.396299 0.284215
-0.290288 0.123577 0.452149
-0.290288 -0.090601 -0.445584
-0.290288 -0.141236 -0.477570
-0.290288 -0.347395 -0.347563
-0.290288 -0.374097 -0.303118
-0.290288 0.404906 -0.234718
-0.290288 0.009692 -0.457321
-0.290288 0.273615 0.396607
-0.290288 0.368512 -0.307293
-0.290288 -0.013846 -0.454267
-0.290288 0.208028 0.420235
-0.290288 -0.171430 0.412090
-0.290288 0.367757 -0.275784
-0.290288 0.389046 -0.279298
-0.290288 0.346617 0.314121
-0.290288 -0.404702 -0.284397
-0.290288 0.422893 -0.218274
-0.290288 -0.088518 -0.450628
-0.290288 0.255631 0.368774
-0.290288 -0.475811 -0.047452
-0.290288 -0.372243 -0.253869
-0.290288 -0.316998 -0.373952
-0.290288 0.243184 0.424538
-0.290288 0.106086 0.482853
-0.290288 -0.336900 -0.362347
-0.290288 0.135669 0.461144
-0.290288 0.228370 -0.397154
-0.290288 0.463269 0.058289
-0.290288 0.071321 0.451472
-0.290288 -0.319417 -0.325726
-0.290288 0.431243 0.125692
-0.290288 0.376816 -0.309360
-0.290288 -0.462578 -0.065537
-0.290288 -0.428329 0.249476
-0.290288 -0.022819 -0.474158
-0.290288 0.492632 -0.043014
-0.290288 -0.386758 -0.235242
-0.290288 0.448708 0.155601
-0.290288 -0.446887 0.065917
-0.290288 0.249341 -0.382015
-0.290288 -0.097355 0.438136
-0.290288 0.165993 -0.422772
-0.290288 0.106964 0.443774
-0.290288 0.392724 0.277355
-0.290288 0.450750 -0.086132
-0.290288 0.169558 0.455498
-0.290288 -0.322385 -0.317697
-0.290288 0.433191 0.194755
-0.290288 0.260471 0.377638
-0.290288 0.310524 -0.369275
-0.290288 0.184271 -0.456149
-0.290288 -0.449144 0.003052
-0.290288 -0.055862 -0.447711
-0.290288 0.132507 0.463617
-0.290288 -0.444055 -0.207654
-0.290288 -0.196044 0.413005
-0.290288 -0.461566 0.095709
-0.290288 -0.161747 0.442034
-0.290288 0.060703 0.458524
-0.290288 0.280780 -0.375270
-0.290288 0.320737 -0.349054
-0.290288 0.467336 -0.174407
-0.290288 -0.389966 0.244133
-0.290288 -0.316978 -0.347926
-0.290288 0.256448 -0.403448
-0.290288 0.386486 0.275462
-0.290288 0.407225 0.245870
-0.290288 0.357289 -0.294022
-0.290288 -0.005291 -0.461650
-0.290288 0.099769 -0.449089
-0.290288 0.450630 -0.213212
-0.290288 0.130538 -0.450754
-0.290288 -0.194577 0.405195
-0.290288 0.213940 -0.447500
-0.290288 0.263111 0.405582
-0.290288 0.199324 -0.401727
-0.290288 -0.246033 0.429518
-0.290288 -0.116746 0.443163
-0.290288 0.495936 0.041688
-0.290288 0.475219 -0.019280
-0.290288 -0.483257 -0.064289
-0.290288 0.079160 0.440708
-0.290288 0.238567 -0.437322
-0.290288 0.220960 0.410380
-0.290288 0.398660 -0.210691
-0.290288 -0.294886 -0.376197
-0.290288 0.061827 -0.454339
-0.290288 0.438283 -0.086559
-0.290288 0.451950 0.026278
-0.290288 0.294160 -0.389201
-0.290288 0.428682 0.134435
-0.290288 0.149297 -0.468800
-0.290288 0.022838 0.471417
-0.290288 0.447807 0.208437
-0.290288 0.476702 -0.131416
-0.290288 -0.431072 -0.208643
-0.290288 -0.170565 -0.437064
-0.290288 -0.110882 -0.437384
-0.290288 -0.199488 0.417211
-0.290288 -0.267149 0.367093
-0.290288 0.363490 -0.324592
-0.290288 -0.053585 -0.445059
-0.290288 -0.430933 0.109997
-0.290288 0.000366 0.449850
-0.290288 -0.302970 0.343922
-0.290288 0.232379 -0.389865
-0.290288 0.431965 0.202108
-0.290288 0.464696 -0.033246
-0.290288 -0.446100 -0.056894
-0.290288 0.163543 -0.417848
-0.290288 -0.012030 0.457354
-0.290288 0.171939 0.462193
-0.290288 -0.225263 0.422621
-0.290288 0.127720 0.431614
-0.290288 0.144699 -0.440589
-0.290288 -0.271686 -0.389600
-0.290288 0.436347 0.199098
-0.290288 -0.171457 0.428889
-0.290288 -0.161969 0.433638
-0.290288 -0.309365 0.380879
-0.290288 0.372216 0.290553
-0.290288 -0.360354 0.268767
-0.290288 -0.168979 -0.433299
-0.290288 0.487809 -0.068315
-0.290288 0.371408 -0.328637
-0.290288 0.148642 0.450491
-0.290288 0.176106 0.443574
-0.290288 0.098982 -0.488517
-0.290288 -0.240121 0.421819
-0.290288 0.439186 -0.206057
-0.290288 0.481246 -0.041903
-0.290288 -0.407985 0.176077
-0.290288 0.107238 -0.434612
-0.290288 0.062742 0.439016
-0.290288 0.099791 0.451595
-0.290288 -0.497343 0.003410
-0.290288 0.138671 0.457172
-0.290288 0.289026 -0.406692
-0.290288 0.404634 -0.230598
-0.290288 0.180118 0.441232
-0.290288 -0.429873 0.114198
-0.290288 0.432019 0.183359
-0.290288 0.493852 -0.031074
-0.290288 -0.226357 0.426860
-0.290288 -0.164849 0.440065
-0.290288 -0.021378 0.456188
-0.290288 -0.450822 0.188411
-0.290288 0.149624 0.441267
-0.290288 0.435857 0.188602
-0.290288 0.431357 0.205755
-0.290288 0.439906 0.232098
-0.290288 0.465089 -0.098554
-0.290288 0.397132 -0.274680
-0.290288 0.455100 0.039397
-0.290288 0.254686 0.411997
-0.290288 0.278469 -0.387400
-0.290288 0.213572 -0.393879
-0.290288 -0.303641 0.373594
-0.290288 -0.402874 0.211626
-0.290288 -0.114293 -0.446297
-0.290288 0.084430 -0.447535
-0.290288 -0.334337 0.321436
-0.290288 -0.190596 0.428675
-0.290288 -0.467966 0.047313
-0.290288 -0.282893 -0.385919
-0.290288 0.197163 0.405173
-0.290288 -0.319322 -0.377951
-0.290288 0.097962 -0.485115
-0.290288 0.399327 -0.231221
-0.290288 0.453701 -0.135917
-0.290288 0.447471 0.085614
-0.290288 -0.445308 0.003578
-0.290288 0.406728 0.196549
-0.290288 -0.451229 0.140006
-0.290288 0.268676 0.398365
-0.290288 -0.096504 -0.471154
-0.290288 0.389744 0.265094
-0.290288 0.453109 0.021687
-0.290288 0.476398 -0.127745
-0.290288 -0.094111 -0.439981
-0.290288 -0.458668 0.067820
-0.290288 0.394733 -0.238951
-0.290288 -0.444690 0.213371
-0.290288 -0.399693 0.286898
-0.290288 -0.231676 -0.423599
-0.290288 0.288103 -0.376714
-0.290288 0.384782 -0.271315
-0.290288 -0.005213 -0.447667
-0.290288 0.366225 -0.323238
-0.290288 0.441529 -0.090517
-0.290288 -0.309097 -0.341168
-0.290288 0.440612 0.068474
-0.290288 -0.099397 0.475672
-0.290288 0.401235 -0.241983
-0.290288 -0.054840 0.457558
-0.290288 -0.422099 0.168706
-0.290288 0.400874 0.249446
-0.290288 0.451666 0.029655
-0.290288 0.098707 -0.455687
-0.290288 -0.408303 -0.183533
-0.290288 0.381941 0.248890
-0.290288 0.302356 0.337531
-0.290288 -0.015506 -0.484879
-0.290288 -0.388865 0.263437
-0.290288 -0.328734 -0.340073
-0.290288 -0.379150 -0.321593
-0.290288 0.445635 0.219783
-0.290288 0.380394 0.259739
-0.290288 0.440390 0.171507
-0.290288 -0.282386 0.344597
-0.290288 0.457706 0.174870
-0.290288 0.109937 0.479445
-0.290288 -0.279234 -0.374152
-0.290288 0.176948 0.411012
-0.290288 -0.244017 -0.417557
-0.290288 -0.472159 -0.110593
-0.290288 0.101072 -0.475310
-0.290288 -0.082919 0.465004
-0.290288 0.025618 0.469618
-0.290288 -0.416921 0.223903
-0.290288 -0.439871 0.199946
-0.290288 0.096787 0.465947
-0.290288 -0.411989 -0.280110
-0.290288 -0.179799 -0.462079
-0.290288 0.392561 -0.279852
-0.290288 0.459294 0.044005
-0.290288 -0.325944 -0.373455
-0.290288 0.259297 -0.422280
-0.290288 -0.231416 0.388197
-0.290288 0.105957 -0.486598
-0.290288 -0.452763 0.005819
-0.290288 -0.295141 -0.344910
-0.290288 -0.459423 -0.113699
-0.290288 -0.386888 -0.294586
-0.290288 -0.434180 -0.208259
-0.290288 -0.094698 -0.486197
-0.290288 0.353514 0.277881
-0.290288 -0.352218 -0.288306
-0.290288 0.304543 -0.355340
-0.290288 0.277336 -0.395818
-0.290288 0.105597 -0.463271
-0.290288 0.484084 -0.043431
-0.290288 0.280636 -0.350478
-0.290288 -0.073688 -0.474781
-0.290288 0.390157 0.302320
-0.290288 -0.019169 -0.467612
-0.290288 0.381862 -0.250977
-0.290288 -0.412216 -0.234172
-0.290288 0.449114 -0.104867
-0.290288 -0.453849 0.054604
-0.290288 0.398636 0.280057
-0.290288 -0.451263 -0.023744
-0.290288 0.368928 0.275707
-0.290288 -0.271372 0.400513
-0.290288 0.464616 0.118268
-0.290288 0.239692 -0.388443
-0.290288 -0.411256 -0.172388
-0.290288 0.466347 0.072408
-0.290288 0.479332 0.087426
-0.290288 -0.446414 -0.110207
-0.290288 0.053062 -0.445720
-0.290288 -0.129504 0.433863
-0.290288 0.311280 0.368799
-0.290288 0.113946 -0.432991
-0.290288 -0.373996 0.314456
-0.290288 0.113246 -0.482336
-0.290288 -0.433827 -0.137856
-0.290288 -0.495878 0.009145
-0.290288 -0.402492 -0.223329
-0.290288 0.467079 0.150547
-0.290288 -0.010469 -0.467498
-0.290288 0.457572 0.190796
-0.290288 0.284240 -0.377510
-0.290288 -0.475280 0.103314
-0.290288 0.459340 -0.048580
-0.290288 0.101261 -0.436079
-0.290288 -0.206303 0.450178
-0.290288 0.459221 -0.060997
-0.290288 -0.486026 0.079346
-0.290288 0.299014 0.344118
-0.290288 0.117650 -0.467193
-0.290288 -0.084180 -0.463151
-0.290288 -0.091777 -0.465428
-0.290288 -0.295329 0.345049
-0.290288 0.421191 0.220875
-0.290288 0.350169 0.344800
-0.290288 -0.446995 -0.060381
-0.290288 -0.176011 0.421046
-0.290288 0.002954 0.490747
-0.290288 -0.420645 0.159785
-0.290288 0.420060 -0.214957
-0.290288 0.406516 -0.245919
-0.290288 -0.255054 -0.386759
-0.290288 0.148404 0.420489
-0.290288 0.437310 -0.199318
-0.290288 0.399303 0.271101
-0.290288 0.003990 -0.455859
-0.290288 0.045562 -0.473749
-0.290288 0.474592 0.108998
-0.290288 0.277043 -0.376502
-0.290288 0.486904 0.031500
-0.290288 0.142706 -0.457326
-0.290288 0.466427 0.090590
-0.290288 0.131990 0.474157
-0.290288 -0.258386 -0.393246
-0.290288 -0.331342 0.302343
-0.290288 0.332408 -0.368357
-0.290288 0.073118 -0.479226
-0.290288 0.127565 0.446958
-0.290288 0.344477 0.336593
-0.290288 0.075754 -0.447635
-0.290288 0.094375 0.459871
-0.290288 -0.455790 -0.125955
-0.290288 0.156310 -0.454723
-0.290288 -0.444654 -0.066916
-0.290288 -0.111916 -0.473276
-0.290288 0.012722 -0.461769
-0.290288 -0.229007 0.390511
-0.290288 -0.460342 -0.050539
-0.290288 0.418925 -0.211751
-0.290288 -0.426070 0.142164
-0.290288 0.235434 0.405496
-0.290288 -0.414001 -0.206671
-0.290288 -0.478556 -0.038102
-0.290288 0.275594 -0.389524
-0.290288 -0.044177 -0.448633
-0.290288 0.438997 -0.149980
-0.290288 0.457409 0.066357
-0.290288 -0.205340 -0.419029
-0.290288 0.145576 0.453230
-0.290288 0.272588 0.389290
-0.290288 -0.449003 0.044244
-0.290288 0.408370 -0.208038
-0.290288 0.249997 -0.401572
-0.290288 0.138284 -0.456895
-0.290288 0.496786 0.026397
-0.290288 0.134925 0.437756
-0.290288 -0.054308 0.484838
-0.290288 0.107181 -0.449988
-0.290288 -0.026561 -0.447706
-0.290288 -0.453765 0.108079
-0.290288 -0.366751 -0.254642
-0.290288 -0.064234 -0.444664
-0.290288 0.222345 -0.434013
-0.290288 -0.151686 -0.421417
-0.290288 0.486990 0.079071
-0.290288 -0.114401 0.449220
-0.290288 0.423307 -0.230251
-0.290288 0.339769 -0.342230
-0.290288 0.403380 -0.214407
-0.290288 0.106530 0.450414
-0.290288 0.101645 0.435955
-0.290288 -0.408690 0.207072
-0.290288 0.174652 -0.420723
-0.290288 -0.390396 0.277289
-0.290288 -0.384441 0.227696
-0.290288 -0.306083 -0.326044
-0.290288 0.458894 -0.028957
-0.290288 0.383589 -0.277512
-0.290288 -0.496822 -0.013288
-0.290288 -0.191871 0.432069
-0.290288 0.461010 0.089191
-0.290288 -0.135594 -0.472954
-0.290288 0.309875 -0.340074
-0.290288 -0.054483 -0.478667
-0.290288 0.455941 -0.173165
-0.290288 0.356532 0.304009
-0.290288 0.481003 0.114372
-0.290288 0.345207 0.287006
-0.290288 0.401670 -0.278606
-0.290288 0.404107 0.226215
-0.290288 0.069037 -0.486068
-0.290288 0.415974 0.180569
-0.290288 0.117040 0.459040
-0.290288 -0.010413 0.489210
-0.290288 -0.492408 0.033976
-0.290288 -0.370691 0.312352
-0.290288 0.225694 0.400949
-0.290288 0.389035 0.252137
-0.290288 -0.056352 0.442307
-0.290288 0.080913 -0.445591
-0.290288 -0.036665 0.477562
-0.290288 -0.288587 -0.361522
-0.290288 -0.450109 0.083491
-0.290288 -0.460016 -0.057733
-0.290288 -0.015046 0.458444
-0.290288 -0.147889 -0.426288
-0.290288 0.330712 -0.305630
-0.290288 -0.001844 -0.489609
-0.290288 0.350359 0.331023
-0.290288 -0.287539 0.347210
-0.290288 -0.241671 0.380479
-0.290288 -0.361824 -0.316667
-0.290288 0.233569 -0.410593
-0.290288 -0.351267 0.310850
-0.290288 0.450862 -0.111907
-0.290288 0.433325 -0.169333
-0.290288 0.427669 -0.149173
-0.290288 0.248161 -0.373835
-0.290288 -0.057889 -0.484602
-0.290288 0.421333 0.158061
-0.290288 0.293321 -0.357505
-0.290288 -0.043788 0.467273
-0.290288 -0.396859 0.226001
-0.290288 0.227475 -0.421781
-0.290288 0.124433 0.476093
-0.290288 0.432636 -0.213613
-0.290288 -0.331543 0.318432
-0.290288 -0.482600 -0.076775
-0.290288 0.146325 -0.459143
-0.290288 0.019415 -0.465447
-0.290288 0.191690 -0.426855
-0.290288 0.334023 0.293465
-0.290288 0.110839 0.468521
-0.290288 0.228998 0.415659
-0.290288 0.325769 -0.344567
-0.290288 0.488203 0.097635
-0.290288 0.224422 -0.387715
-0.290288 -0.174277 -0.416403
-0.290288 -0.461828 -0.175310
-0.290288 0.186991 -0.463851
-0.290288 -0.335869 0.328417
-0.290288 -0.257575 0.415781
-0.290288 -0.359325 0.341095
-0.290288 0.447042 0.055111
-0.290288 0.316128 0.369978
-0.290288 0.270036 0.402127
-0.290288 0.422472 0.183201
-0.290288 0.217038 0.429790
-0.290288 0.330958 -0.362721
-0.290288 0.444158 0.200872
-0.290288 -0.201100 0.420642
-0.290288 -0.022971 0.489538
-0.290288 -0.102667 -0.457143
-0.290288 -0.259910 0.409492
-0.290288 0.437590 -0.143577
-0.290288 0.364883 0.281500
-0.290288 0.428759 -0.200710
-0.290288 -0.134604 -0.452412
-0.290288 -0.427922 -0.165247
-0.290288 0.372201 -0.260838
-0.290288 -0.432380 -0.247426
-0.290288 0.457121 -0.177399
-0.290288 0.083872 0.435425
-0.290288 0.274376 -0.381629
-0.290288 -0.328906 0.352951
-0.290288 0.390054 0.279633
-0.290288 0.380643 -0.323225
-0.290288 0.142834 0.428298
-0.290288 -0.303403 -0.376297
-0.290288 -0.083259 -0.483754
-0.290288 -0.113328 0.458710
-0.290288 0.360775 0.319273
-0.290288 0.015812 0.488180
-0.290288 -0.113931 -0.486158
-0.290288 0.253924 -0.376229
-0.290288 0.249303 -0.385442
-0.290288 0.388362 -0.309087
-0.290288 -0.459095 -0.180154
-0.290288 0.451111 0.115034
-0.290288 -0.432072 -0.188829
-0.290288 0.463548 0.027980
-0.290288 -0.478443 -0.064370
-0.290288 0.481896 0.007776
-0.290288 -0.248604 0.408586
-0.290288 0.235304 0.385942
-0.290288 -0.276039 0.404169
-0.290288 -0.392870 -0.284686
-0.290288 0.260098 -0.426209
-0.290288 -0.476130 0.048053
-0.290288 -0.095586 -0.449932
-0.290288 0.405978 -0.198129
-0.290288 -0.159438 0.449584
-0.290288 0.184558 0.456188
-0.290288 0.337089 0.358008
-0.290288 0.407227 0.256122
-0.290288 0.282006 0.372146
-0.290288 0.449598 0.097410
-0.290288 -0.226778 -0.419983
-0.290288 -0.247061 -0.419852
-0.290288 0.201629 -0.429817
-0.290288 0.351610 -0.285810
-0.290288 0.490756 0.076711
-0.290288 -0.012466 0.483977
-0.290288 0.034770 -0.481105
-0.290288 -0.414062 0.172021
-0.290288 0.456508 -0.142862
-0.290288 -0.463951 -0.069532
-0.290288 -0.452715 0.164807
-0.290288 -0.369473 -0.315166
-0.290288 -0.219849 0.396315
-0.290288 0.319666 -0.384171
-0.290288 0.053049 0.466362
-0.290288 0.359918 0.329730
-0.290288 0.097956 -0.472508
-0.290288 0.446187 -0.090180
-0.290288 -0.220196 -0.435782
-0.290288 -0.158848 -0.450952
-0.290288 0.357071 0.296743
-0.290288 -0.138146 0.432754
-0.290288 -0.362437 -0.306785
-0.290288 0.069532 0.441710
-0.290288 -0.462625 0.179021
-0.290288 -0.261156 0.392338
-0.290288 0.456871 -0.122784
-0.290288 -0.035418 -0.484870
-0.290288 0.398158 -0.299937
-0.290288 -0.419615 -0.230448
-0.290288 0.409712 0.199104
-0.290288 0.347733 -0.345360
-0.290288 0.245363 -0.435332
-0.290288 -0.419859 0.242737
-0.290288 0.433802 -0.229106
-0.290288 0.402832 0.191580
-0.290288 0.225029 -0.438136
-0.290288 0.187311 -0.417702
-0.290288 -0.422395 -0.155377
-0.290288 -0.266743 0.357729
-0.290288 -0.370347 -0.321573
-0.290288 -0.291427 -0.359904
-0.290288 -0.266470 -0.396473
-0.290288 -0.459883 0.048275
-0.290288 -0.009623 -0.456343
-0.290288 0.296218 -0.348086
-0.290288 0.385282 0.248576
-0.290288 -0.183028 0.441138
-0.290288 0.023221 0.481717
-0.290288 0.001615 0.445505
-0.290288 -0.367242 -0.320008
-0.290288 0.194850 0.421233
-0.290288 -0.008024 -0.478018
-0.290288 -0.124915 -0.475435
-0.290288 -0.268224 0.387075
-0.290288 0.055385 -0.468325
-0.290288 0.416780 -0.229857
-0.290288 -0.304252 0.339762
-0.290288 0.423823 -0.174718
-0.290288 0.334995 0.361301
-0.290288 -0.305356 0.389358
-0.290288 -0.372202 0.248592
-0.290288 -0.463986 0.019293
-0.290288 0.426575 0.203118
-0.290288 0.146724 -0.452218
-0.290288 0.280016 -0.379247
-0.290288 -0.449928 0.133909
-0.290288 -0.127897 0.425661
-0.290288 -0.033159 0.462831
-0.290288 0.422618 0.139869
-0.290288 -0.071790 0.471160
-0.290288 0.181552 0.447674
-0.290288 0.469018 0.114018
-0.290288 0.392945 0.283291
-0.290288 -0.411812 0.186861
