0.286960 0.143390 -0.455418
0.286960 0.457763 -0.042433
0.286960 -0.316767 -0.354355
0.286960 0.461102 -0.088859
0.286960 -0.418122 -0.166491
0.286960 0.426833 0.243206
0.286960 -0.043956 0.446324
0.286960 -0.384589 -0.236044
0.286960 -0.457627 -0.112265
0.286960 0.104863 0.468664
0.286960 -0.393089 0.206671
0.286960 0.046062 -0.470430
0.286960 -0.147674 0.421053
0.286960 0.301211 0.373997
0.286960 -0.103781 -0.453549
0.286960 -0.425112 -0.215670
0.286960 -0.421515 -0.176054
0.286960 0.441280 -0.117343
0.286960 0.296737 0.376900
0.286960 0.351228 -0.308731
0.286960 -0.284732 0.405938
0.286960 0.417049 -0.196103
0.286960 0.105136 -0.444601
0.286960 0.189230 0.402643
0.286960 -0.417328 -0.174410
0.286960 -0.370046 0.285495
0.286960 -0.463462 -0.091016
0.286960 0.395757 -0.214480
0.286960 0.127970 0.463564
0.286960 -0.386577 -0.272782
0.286960 0.373018 0.313688
0.286960 -0.470220 -0.152640
0.286960 0.014901 -0.476174
0.286960 -0.404912 -0.197944
0.286960 -0.195879 -0.422189
0.286960 0.468637 -0.155655
0.286960 -0.486700 0.068907
0.286960 -0.447075 -0.066161
0.286960 -0.340579 0.308026
0.286960 0.081720 -0.455848
0.286960 0.431517 0.227243
0.286960 0.097816 0.446631
0.286960 -0.148707 0.458589
0.286960 -0.458891 -0.060107
0.286960 -0.098527 0.477951
0.286960 -0.294244 0.354639
0.286960 0.262063 -0.382560
0.286960 -0.024712 -0.465958
0.286960 -0.484330 0.013603
0.286960 0.110320 0.439718
0.286960 0.493456 0.067517
0.286960 -0.453237 0.100519
0.286960 0.161849 -0.458604
0.286960 0.493145 -0.013176
0.286960 0.391580 0.257078
0.286960 -0.337801 0.345869
0.286960 0.120482 0.448355
0.286960 -0.242632 0.383685
0.286960 0.248470 0.429783
0.286960 -0.279061 0.374394
0.286960 -0.441185 0.167132
0.286960 -0.089834 -0.482422
0.286960 -0.277103 0.390655
0.286960 0.170311 0.425825
0.286960 0.269384 -0.400966
0.286960 0.127462 -0.478947
0.286960 0.172657 -0.426324
0.286960 -0.247899 0.374816
0.286960 0.249316 0.396926
0.286960 -0.295058 -0.341750
0.286960 -0.126383 -0.454235
0.286960 -0.453230 0.106401
0.286960 -0.076398 0.452954
0.286960 0.239964 -0.437016
0.286960 0.367707 0.251596
0.286960 0.394613 -0.228382
0.286960 -0.157485 0.427741
0.286960 0.387749 -0.250650
0.286960 -0.454707 0.072633
0.286960 0.470117 -0.101345
0.286960 0.353575 0.327231
0.286960 0.369906 -0.297535
0.286960 0.350160 0.348044
0.286960 -0.444047 0.077080
0.286960 0.020206 -0.453319
0.286960 -0.349874 -0.347764
0.286960 0.324815 0.351250
0.286960 0.459441 0.052864
0.286960 -0.457741 0.013432
0.286960 -0.294620 -0.374113
0.286960 0.066869 0.460444
0.286960 0.363898 0.295267
0.286960 0.357610 -0.287717
0.286960 -0.296567 0.375228
0.286960 0.446724 0.025487
0.286960 -0.432675 -0.156209
0.286960 -0.463060 0.154367
0.286960 0.490076 -0.025991
0.286960 -0.195998 0.416687
0.286960 -0.230607 -0.414936
0.286960 0.143731 -0.429593
0.286960 0.346329 0.331812
0.286960 0.103239 -0.484157
0.286960 -0.440746 -0.104252
0.286960 0.491152 -0.052810
0.286960 0.386878 -0.282426
0.286960 -0.314577 0.312900
0.286960 -0.019422 0.478801
0.286960 0.026218 0.474945
0.286960 0.263518 0.388058
0.286960 -0.368683 0.268963
0.286960 -0.404056 0.234051
0.286960 -0.452531 0.203321
0.286960 -0.116257 0.436969
0.286960 -0.059062 -0.443936
0.286960 -0.456336 0.042382
0.286960 0.199952 0.396695
0.286960 0.342603 0.340916
0.286960 0.039806 -0.451784
0.286960 -0.230210 -0.427643
0.286960 -0.098483 -0.440631
0.286960 -0.450244 0.187489
0.286960 0.263994 -0.419556
0.286960 -0.369783 0.293453
0.286960 0.071283 0.490474
0.286960 -0.273215 0.372311
0.286960 0.161601 0.422858
0.286960 -0.062936 -0.449048
0.286960 -0.484109 -0.077701
0.286960 0.182699 0.431067
0.286960 -0.268038 0.395170
0.286960 0.479329 -0.121890
0.286960 0.115021 -0.476905
0.286960 0.036373 -0.451301
0.286960 0.349839 -0.335590
0.286960 -0.087058 0.474664
0.286960 0.405691 -0.277983
0.286960 0.430990 -0.126992
0.286960 0.471600 -0.119505
0.286960 -0.067432 -0.442305
0.286960 0.453394 0.075219
0.286960 0.382553 0.245199
0.286960 0.438940 0.199055
0.286960 0.235915 0.396449
0.286960 -0.051305 0.489003
0.286960 -0.459453 -0.116632
0.286960 0.168855 0.443061
0.286960 -0.488378 -0.037236
0.286960 -0.359875 -0.345814
0.286960 -0.026017 -0.476582
0.286960 0.290505 -0.340418
0.286960 0.480652 0.097214
0.286960 -0.229367 0.388533
0.286960 0.462932 -0.056638
0.286960 -0.203258 -0.412403
0.286960 0.201819 -0.434988
0.286960 0.219106 0.434145
0.286960 -0.318716 0.334725
0.286960 -0.467069 0.126583
0.286960 0.439435 -0.167219
0.286960 -0.091373 -0.439242
0.286960 0.387129 0.233401
0.286960 0.217634 0.411750
0.286960 -0.458189 -0.039513
0.286960 0.489905 -0.093564
0.286960 0.414876 -0.218683
0.286960 -0.123354 0.462532
0.286960 0.276752 -0.356682
0.286960 0.363616 0.267494
0.286960 0.089272 -0.446912
0.286960 0.037089 -0.461273
0.286960 -0.457034 0.170660
0.286960 -0.449467 -0.084509
0.286960 0.129827 -0.471577
0.286960 -0.286100 0.346985
0.286960 0.456393 -0.023735
0.286960 0.426812 -0.255946
0.286960 -0.146047 0.435131
0.286960 0.247978 0.391920
0.286960 0.451169 -0.049483
0.286960 -0.286919 -0.364389
0.286960 0.463851 0.159135
0.286960 0.027736 0.482055
0.286960 -0.278295 0.383421
0.286960 -0.409466 0.180756
0.286960 -0.375129 0.317610
0.286960 0.101798 -0.476769
0.286960 -0.048008 0.455895
0.286960 0.236388 -0.430730
0.286960 0.424039 0.137107
0.286960 -0.215227 0.427175
0.286960 0.425617 -0.238790
0.286960 -0.062182 -0.462930
0.286960 -0.127936 0.424636
0.286960 -0.323308 -0.342623
0.286960 -0.471634 -0.131016
0.286960 0.361965 0.273116
0.286960 0.485523 -0.062961
0.286960 -0.462145 -0.001250
0.286960 -0.035454 0.481704
0.286960 -0.063495 -0.479814
0.286960 0.297222 -0.369634
0.286960 -0.172287 -0.436889
0.286960 0.308987 -0.329625
0.286960 -0.136169 0.455233
0.286960 0.337323 0.324694
0.286960 -0.363253 -0.282700
0.286960 -0.381455 0.256614
0.286960 0.394627 0.245254
0.286960 -0.156634 -0.465595
0.286960 -0.139189 0.441154
0.286960 -0.453659 0.181980
0.286960 -0.435814 0.089761
0.286960 -0.004042 -0.458475
0.286960 -0.336791 -0.368356
0.286960 -0.216620 0.434898
0.286960 0.066325 -0.446778
0.286960 -0.425732 -0.170632
0.286960 0.128486 0.456326
0.286960 0.154411 0.458371
0.286960 0.181745 -0.426184
0.286960 -0.471392 0.136352
0.286960 -0.284537 0.357328
0.286960 0.041971 0.467824
0.286960 0.324894 -0.353595
0.286960 -0.460806 -0.016962
0.286960 0.480882 -0.077748
0.286960 0.101932 -0.442463
0.286960 -0.179791 0.430574
0.286960 0.127654 -0.465763
0.286960 -0.166927 -0.465743
0.286960 -0.185956 0.445373
0.286960 -0.468966 0.072368
0.286960 0.354730 -0.321241
0.286960 -0.224216 -0.417090
0.286960 0.168166 0.413032
0.286960 -0.446974 -0.207060
0.286960 -0.165436 -0.456081
0.286960 0.449488 -0.069042
0.286960 0.415431 0.223579
0.286960 -0.466828 -0.098181
0.286960 0.405690 -0.197607
0.286960 0.360805 0.321432
0.286960 -0.344473 0.301155
0.286960 -0.372402 -0.276999
0.286960 -0.480033 -0.127148
0.286960 -0.388494 0.226108
0.286960 0.468886 0.153578
0.286960 -0.287273 -0.358355
0.286960 -0.326069 0.340974
0.286960 0.041516 0.471547
0.286960 -0.467487 0.110092
0.286960 -0.470308 -0.144975
0.286960 0.438211 -0.145681
0.286960 0.475808 -0.114596
0.286960 0.432972 0.180638
0.286960 0.246618 -0.421702
0.286960 0.442896 0.091812
0.286960 -0.400731 0.265453
0.286960 -0.104775 -0.468217
0.286960 -0.168342 0.424496
0.286960 -0.152519 -0.449575
0.286960 0.283138 -0.373448
0.286960 -0.257851 -0.405365
0.286960 0.346153 -0.302981
0.286960 0.041716 0.491096
0.286960 0.483229 -0.042965
0.286960 0.296518 -0.381767
0.286960 0.134706 -0.440789
0.286960 0.490113 -0.049786
0.286960 -0.156589 -0.454131
0.286960 0.381048 0.235847
0.286960 -0.255334 -0.368719
0.286960 -0.376916 -0.256176
0.286960 0.424473 -0.199794
0.286960 0.467987 0.017275
0.286960 -0.477166 0.122125
0.286960 0.395779 -0.273210
0.286960 -0.478213 0.125750
0.286960 0.404017 0.277269
0.286960 -0.454762 -0.086693
0.286960 0.046428 0.485335
0.286960 -0.007820 0.491347
0.286960 0.429007 0.204267
0.286960 0.227321 0.400592
0.286960 -0.402926 -0.241090
0.286960 -0.397527 0.198898
0.286960 0.149643 -0.428447
0.286960 -0.474184 0.026328
0.286960 0.018934 0.487238
0.286960 0.224501 -0.409439
0.286960 0.006341 -0.477599
0.286960 0.247316 -0.389920
0.286960 0.348756 -0.328065
0.286960 0.434248 -0.127805
0.286960 -0.195088 0.450846
0.286960 -0.451897 -0.010635
0.286960 0.277862 0.375757
0.286960 0.360857 0.292473
0.286960 0.213141 -0.438509
0.286960 -0.496123 -0.036493
0.286960 0.258726 -0.367754
0.286960 -0.129761 -0.481563
0.286960 0.470688 0.084792
0.286960 -0.442712 0.149955
0.286960 -0.452667 -0.154188
0.286960 0.384834 -0.267941
0.286960 0.253754 -0.413922
0.286960 0.087267 -0.479493
0.286960 -0.031626 0.482600
0.286960 0.285365 0.404791
0.286960 0.000989 0.472469
0.286960 0.073157 0.471894
0.286960 0.216614 0.436458
0.286960 -0.131564 0.426385
0.286960 0.485171 -0.003264
0.286960 0.317662 -0.377618
0.286960 0.043941 -0.479844
0.286960 0.406703 -0.186928
0.286960 -0.075169 0.449759
0.286960 0.348163 0.306283
0.286960 0.436338 0.127521
0.286960 0.269391 -0.359915
0.286960 0.461034 0.063091
0.286960 0.242714 -0.428548
0.286960 0.182765 -0.413201
0.286960 -0.081378 0.440666
0.286960 -0.088111 -0.465860
0.286960 -0.182954 -0.415034
0.286960 0.289664 0.380959
0.286960 0.099049 0.466981
0.286960 -0.405210 -0.262591
0.286960 -0.436596 0.137558
0.286960 0.251380 0.391137
0.286960 0.484931 -0.014880
0.286960 -0.466186 -0.026163
0.286960 0.384307 0.298312
0.286960 -0.194621 -0.417638
0.286960 -0.346716 -0.298497
0.286960 -0.270506 -0.417750
0.286960 -0.048435 0.440549
0.286960 0.426491 0.230854
0.286960 -0.303917 -0.391035
0.286960 0.150504 0.467408
0.286960 0.369425 0.317562
0.286960 0.259205 0.406784
0.286960 0.455106 -0.005629
0.286960 0.262941 0.381516
0.286960 -0.311452 -0.373149
0.286960 -0.454179 0.175557
0.286960 -0.358138 -0.302440
0.286960 0.175158 -0.438438
0.286960 0.291200 0.348067
0.286960 0.047889 -0.473781
0.286960 0.474750 -0.130602
0.286960 0.293386 -0.398844
0.286960 0.472312 -0.064528
0.286960 -0.234628 0.414868
0.286960 -0.459333 0.064783
0.286960 -0.063409 0.453656
0.286960 -0.366031 -0.324441
0.286960 -0.461191 0.110244
0.286960 0.448408 -0.091772
0.286960 0.211320 0.410554
0.286960 -0.307562 -0.340303
0.286960 -0.419993 -0.268178
0.286960 -0.425499 -0.148023
0.286960 0.486201 -0.018592
0.286960 -0.299187 -0.392161
0.286960 0.462411 -0.014129
0.286960 0.272434 -0.385966
0.286960 0.457010 -0.064802
0.286960 -0.041706 0.450358
0.286960 -0.202578 0.429697
0.286960 -0.426195 0.247236
0.286960 0.358750 0.343220
0.286960 -0.276027 -0.376050
0.286960 0.058460 0.483902
0.286960 -0.325080 -0.355692
0.286960 -0.275155 -0.382210
0.286960 0.344323 -0.346243
0.286960 -0.034201 -0.479891
0.286960 0.151481 0.440475
0.286960 0.288172 -0.394005
0.286960 0.030321 -0.473010
0.286960 0.244732 0.407077
0.286960 0.475364 0.126906
0.286960 -0.323310 -0.373162
0.286960 -0.360081 -0.337626
0.286960 0.169028 0.446695
0.286960 -0.216638 0.424245
0.286960 -0.135143 0.462837
0.286960 -0.065180 0.456868
0.286960 -0.279305 0.357395
0.286960 -0.383329 0.300381
0.286960 0.445534 -0.093160
0.286960 0.267352 -0.372615
0.286960 -0.456819 -0.091015
0.286960 0.267071 0.377544
0.286960 0.213029 -0.442798
0.286960 -0.462058 -0.127102
0.286960 0.355583 -0.349839
0.286960 -0.247538 -0.379811
0.286960 -0.099085 -0.490218
0.286960 -0.485662 0.030431
0.286960 -0.373374 0.282250
0.286960 0.390726 0.284251
0.286960 -0.353801 0.286165
0.286960 0.232098 0.420596
0.286960 0.458877 0.002891
0.286960 0.473149 0.007619
0.286960 -0.485836 -0.087702
0.286960 -0.406893 0.213669
0.286960 0.008641 -0.457734
0.286960 -0.041402 -0.480566
0.286960 0.261870 0.409753
0.286960 0.330481 -0.333765
0.286960 0.399982 -0.254925
0.286960 -0.178301 -0.420754
0.286960 -0.462348 -0.166955
0.286960 -0.333265 0.315755
0.286960 -0.440096 -0.203352
0.286960 -0.124445 -0.430220
0.286960 0.308046 0.369898
0.286960 0.251093 0.415842
0.286960 0.207023 -0.455119
0.286960 -0.451688 0.179474
0.286960 -0.133700 0.436380
0.286960 -0.449931 -0.201766
0.286960 0.157990 0.424201
0.286960 -0.229428 0.421311
0.286960 -0.031715 -0.452125
0.286960 0.405235 0.280872
0.286960 -0.275769 0.360125
0.286960 0.232734 -0.399142
0.286960 -0.316802 -0.361929
0.286960 -0.493688 0.002455
0.286960 -0.450241 0.146763
0.286960 0.212756 0.407162
0.286960 0.435209 -0.176426
0.286960 -0.018584 0.455184
0.286960 0.194641 -0.442725
0.286960 0.160054 -0.432601
0.286960 -0.371699 -0.248289
0.286960 0.156011 -0.452692
0.286960 0.450430 0.169229
0.286960 -0.398270 -0.281312
0.286960 0.273305 -0.360370
0.286960 0.343604 0.347058
0.286960 0.057857 -0.456329
0.286960 0.278823 -0.413922
0.286960 0.480325 -0.099944
0.286960 -0.001412 -0.488522
0.286960 0.468776 -0.090090
0.286960 -0.166158 -0.432499
0.286960 -0.470715 -0.013437
0.286960 -0.246204 -0.400089
0.286960 0.468658 -0.170254
0.286960 0.411855 0.232022
0.286960 0.431980 0.165857
0.286960 0.139465 0.471357
0.286960 0.475395 0.061648
0.286960 0.082064 0.460192
0.286960 -0.082556 0.453487
0.286960 -0.351325 -0.350725
0.286960 -0.213507 -0.416735
0.286960 -0.198724 -0.431295
0.286960 -0.012928 -0.481083
0.286960 -0.355685 0.336373
0.286960 0.374014 0.270122
0.286960 0.489730 -0.013005
0.286960 0.437074 -0.191357
0.286960 0.478306 -0.080030
0.286960 -0.457156 -0.098547
0.286960 -0.483046 -0.037169
0.286960 0.163236 0.448625
0.286960 0.445523 0.158117
0.286960 0.016396 0.443035
0.286960 0.255419 -0.388214
0.286960 -0.453519 -0.176653
0.286960 0.098473 -0.437889
0.286960 0.365502 0.290054
0.286960 0.480773 0.124410
0.286960 0.097882 0.477779
0.286960 -0.386945 -0.311464
0.286960 -0.403605 0.223222
0.286960 -0.277493 -0.390752
0.286960 0.275195 0.354739
0.286960 0.455276 0.063215
0.286960 0.143202 0.460711
0.286960 0.057089 0.464828
0.286960 0.131685 0.454155
0.286960 -0.469544 0.043234
0.286960 0.053145 -0.447824
0.286960 0.153102 -0.434300
0.286960 0.324223 0.363172
0.286960 0.471936 -0.039671
0.286960 -0.159765 -0.435678
0.286960 -0.459116 -0.145088
0.286960 0.457788 0.102591
0.286960 -0.291033 0.375491
0.286960 0.438601 0.079784
0.286960 0.433332 0.177360
0.286960 0.428872 -0.124143
0.286960 0.385145 -0.290930
0.286960 0.419411 -0.193466
0.286960 -0.271000 0.365114
0.286960 -0.410922 -0.188449
0.286960 -0.467409 -0.087984
0.286960 -0.167978 -0.419024
0.286960 -0.284291 -0.377804
0.286960 -0.120801 0.480204
0.286960 0.060460 0.464117
0.286960 0.247767 -0.385285
0.286960 -0.472528 0.140149
0.286960 0.244417 0.424522
0.286960 -0.123462 -0.439451
0.286960 0.226282 -0.398104
0.286960 0.450942 -0.097676
0.286960 -0.166121 -0.450769
0.286960 -0.193033 0.444609
0.286960 0.393574 -0.240874
0.286960 -0.333241 -0.317851
0.286960 -0.323452 0.303850
0.286960 -0.112993 0.435806
0.286960 -0.093477 0.464420
0.286960 -0.347700 0.309615
0.286960 0.233466 -0.432832
0.286960 0.461310 -0.131199
0.286960 -0.019308 -0.477481
0.286960 0.469403 -0.166476
0.286960 -0.485891 -0.059609
0.286960 0.438750 0.159770
0.286960 0.389575 0.278392
0.286960 0.480426 0.010219
0.286960 0.050988 0.467230
0.286960 -0.190984 -0.411273
0.286960 -0.176278 -0.413733
0.286960 -0.180430 -0.443663
0.286960 -0.483787 -0.028223
0.286960 -0.403901 0.200672
0.286960 0.280231 -0.382083
0.286960 0.137279 -0.430537
0.286960 -0.271618 -0.392236
0.286960 0.485193 0.067126
0.286960 0.086362 0.460104
0.286960 -0.034005 -0.490627
0.286960 -0.446987 -0.199599
0.286960 -0.273009 -0.360083
0.286960 -0.283038 -0.389940
0.286960 -0.170294 -0.434017
0.286960 -0.301598 -0.365528
0.286960 -0.296771 0.378369
0.286960 0.254808 -0.405043
0.286960 0.145891 0.469440
0.286960 -0.305239 0.366801
0.286960 0.128961 -0.448335
0.286960 0.461530 0.103941
0.286960 -0.000602 -0.478223
0.286960 0.452852 0.031535
0.286960 0.196240 0.445255
0.286960 0.209841 -0.438865
0.286960 0.371552 -0.304857
0.286960 -0.238158 0.433731
0.286960 0.070425 -0.482565
0.286960 -0.006951 0.464959
0.286960 -0.391032 0.272043
0.286960 0.294680 0.382260
0.286960 0.276786 0.360951
0.286960 -0.464729 -0.023490
0.286960 -0.030405 -0.484276
0.286960 0.494088 0.032125
0.286960 0.486408 0.052155
0.286960 -0.036557 -0.476265
0.286960 0.447186 0.208505
0.286960 0.095911 0.453972
0.286960 0.441123 -0.070584
0.286960 0.178302 -0.458768
0.286960 0.295409 -0.365007
0.286960 -0.322717 -0.379662
0.286960 0.215288 0.401422
0.286960 0.463153 0.139741
0.286960 -0.397494 -0.246175
0.286960 -0.431285 -0.162254
0.286960 0.074687 0.463815
0.286960 0.464904 -0.080635
0.286960 -0.431869 -0.120846
0.286960 0.471727 0.018903
0.286960 0.226806 -0.390223
0.286960 -0.432803 0.212917
0.286960 -0.417754 -0.229699
0.286960 -0.239550 0.381388
0.286960 -0.303932 -0.367764
0.286960 -0.003078 0.477930
0.286960 -0.216126 -0.444391
0.286960 0.286269 0.382079
0.286960 0.025483 -0.447042
0.286960 -0.442923 0.068959
0.286960 0.398667 0.295380
0.286960 -0.333290 -0.296899
0.286960 0.472655 0.087437
0.286960 0.420166 -0.208313
0.286960 -0.052231 -0.463030
0.286960 0.387895 -0.268667
0.286960 -0.447082 -0.047945
0.286960 -0.452859 -0.193889
0.286960 0.166650 -0.429580
0.286960 -0.466616 0.152980
0.286960 0.379271 -0.239403
0.286960 -0.041350 0.491491
0.286960 0.471827 -0.159324
0.286960 -0.288073 -0.388257
0.286960 -0.461997 0.073595
0.286960 -0.485661 -0.093806
0.286960 0.116176 0.430951
0.286960 0.138479 -0.470971
0.286960 -0.059703 0.481384
0.286960 -0.174090 -0.432744
0.286960 0.446212 0.017514
0.286960 -0.216659 -0.391566
0.286960 0.283028 -0.368216
0.286960 -0.381288 0.285679
0.286960 0.459477 -0.025146
0.286960 -0.023332 0.467326
0.286960 0.431749 0.216269
0.286960 -0.293283 -0.345328
0.286960 0.355148 0.307752
0.286960 0.315330 0.329387
0.286960 0.270403 0.407222
0.286960 -0.465580 -0.109862
0.286960 0.325091 0.366348
0.286960 0.142903 0.444608
0.286960 -0.202405 0.395259
0.286960 -0.284398 0.365614
0.286960 -0.268377 0.402862
0.286960 -0.273944 0.403538
0.286960 -0.159641 -0.420865
0.286960 -0.432685 0.117016
0.286960 0.461230 -0.168255
0.286960 0.439758 0.145800
0.286960 0.076062 -0.473227
0.286960 -0.190931 -0.434455
0.286960 -0.496034 0.035479
0.286960 0.423025 0.179768
0.286960 0.210901 0.428956
0.286960 -0.328222 -0.302627
0.286960 0.312125 0.346061
0.286960 0.383354 0.249523
0.286960 -0.005262 -0.490217
0.286960 -0.261841 0.391857
0.286960 -0.004627 -0.455012
0.286960 -0.198458 0.399262
0.286960 -0.314999 -0.339498
0.286960 0.410200 -0.253886
0.286960 0.383953 -0.245220
0.286960 0.204574 -0.421742
0.286960 0.438042 0.083240
0.286960 -0.346228 0.297125
0.286960 -0.312139 -0.335158
0.286960 0.346781 0.303379
0.286960 0.280182 -0.385981
0.286960 0.255775 -0.401642
0.286960 0.351761 -0.281090
0.286960 -0.319480 0.317261
0.286960 -0.458937 -0.063592
0.286960 -0.082124 0.475372
0.286960 0.184872 0.448194
0.286960 -0.478906 0.001749
0.286960 0.036736 -0.495491
0.286960 0.438936 -0.229472
0.286960 -0.365591 0.274720
0.286960 -0.205763 0.405147
0.286960 0.374537 0.319417
0.286960 -0.055033 0.453815
0.286960 0.358887 0.309798
0.286960 0.070308 -0.473024
0.286960 0.076668 0.438368
0.286960 0.199092 0.400056
0.286960 0.466873 -0.012736
0.286960 0.490483 0.041382
0.286960 0.078073 0.441683
0.286960 0.158771 -0.443651
0.286960 -0.237289 -0.382935
0.286960 0.182070 0.460246
0.286960 -0.438253 -0.214264
0.286960 0.403378 0.189569
0.286960 0.370341 0.307357
0.286960 0.160381 -0.437214
0.286960 -0.303949 -0.333130
0.286960 -0.077742 0.464793
0.286960 -0.228793 -0.441038
0.286960 0.347438 0.325816
0.286960 0.439768 -0.129445
0.286960 0.467942 0.045110
0.286960 -0.368432 -0.336578
0.286960 0.450158 -0.059471
0.286960 0.475654 -0.065925
0.286960 0.390727 -0.273670
0.286960 0.244693 -0.397575
0.286960 -0.474162 -0.026476
0.286960 -0.372742 0.263569
0.286960 -0.336459 -0.361095
0.286960 0.248692 0.423703
0.286960 0.110708 0.435532
0.286960 0.019250 0.453607
0.286960 0.079137 0.444926
0.286960 -0.234440 0.402598
0.286960 0.149525 0.421040
0.286960 -0.370009 -0.326745
0.286960 -0.032559 -0.458173
0.286960 0.272860 0.357230
0.286960 -0.448386 0.016866
0.286960 0.386428 0.253689
0.286960 -0.491748 -0.070985
0.286960 0.447455 0.184324
0.286960 0.312371 0.358650
0.286960 -0.432987 -0.217865
0.286960 0.291267 0.401871
0.286960 -0.438873 0.127629
0.286960 -0.127711 -0.445146
0.286960 -0.452740 0.193698
0.286960 -0.251917 0.412620
0.286960 -0.340593 -0.305638
0.286960 -0.459970 0.076717
0.286960 -0.458282 0.083961
0.286960 -0.466972 0.169244
0.286960 -0.401375 0.204638
0.286960 0.053887 -0.492726
0.286960 -0.390404 -0.298230
0.286960 -0.357264 0.282274
0.286960 0.111211 -0.483840
0.286960 0.276757 -0.360164
0.286960 0.339991 0.309660
0.286960 -0.233107 -0.395279
0.286960 0.436320 0.175570
0.286960 -0.068484 -0.487217
0.286960 -0.227547 0.430435
0.286960 0.147081 -0.443063
0.286960 -0.464143 -0.121049
0.286960 -0.496203 0.022737
0.286960 0.441726 -0.148292
0.286960 0.192964 -0.404627
0.286960 -0.449778 -0.117589
0.286960 -0.451114 0.031177
0.286960 0.453508 -0.187772
0.286960 0.160259 0.450368
0.286960 -0.415380 0.267411
0.286960 0.359128 -0.294940
0.286960 -0.437335 -0.220817
0.286960 0.151295 0.444630
0.286960 -0.245082 0.408320
0.286960 -0.008417 0.475687
0.286960 0.093445 -0.446395
0.286960 0.464276 0.056612
0.286960 0.344150 0.310165
0.286960 0.461908 -0.018294
0.286960 0.440183 -0.138490
0.286960 -0.349643 -0.338143
0.286960 0.220173 -0.433753
0.286960 0.171673 -0.457252
0.286960 0.097710 -0.468105
0.286960 -0.436159 -0.161634
0.286960 -0.488065 -0.024972
0.286960 -0.455723 -0.124483
0.286960 0.208390 0.419009
0.286960 0.442248 -0.131972
0.286960 -0.272878 -0.366522
0.286960 0.158052 0.435572
0.286960 -0.330882 0.324366
0.286960 -0.153377 -0.464829
0.286960 0.483248 -0.111481
0.286960 -0.491693 -0.067184
0.286960 0.372087 -0.270717
0.286960 -0.472494 -0.067471
0.286960 0.443578 -0.176412
0.286960 -0.067998 -0.475314
0.286960 0.490223 0.016582
0.286960 -0.259684 -0.388581
0.286960 0.039667 0.494316
0.286960 -0.315158 0.319875
0.286960 -0.192543 0.423584
0.286960 0.370194 0.271217
0.286960 -0.411622 0.270428
0.286960 0.071311 -0.459026
0.286960 0.201695 -0.414590
0.286960 0.223119 -0.430567
0.286960 0.236004 0.431575
0.286960 -0.352997 0.270798
0.286960 0.095337 -0.437567
0.286960 0.239976 0.387440
0.286960 0.113451 0.441558
0.286960 0.273381 -0.402070
0.286960 0.406202 -0.211835
0.286960 0.373060 0.263360
0.286960 0.400429 0.254321
0.286960 0.468606 -0.080207
0.286960 -0.445774 -0.196213
0.286960 -0.470508 -0.122330
0.286960 0.439705 -0.108441
0.286960 0.033083 -0.469892
0.286960 -0.327577 0.310683
0.286960 0.200320 0.414944
0.286960 -0.395338 -0.284199
0.286960 0.158023 -0.456022
0.286960 -0.332392 0.357215
0.286960 -0.206925 0.419424
0.286960 -0.233650 0.435651
0.286960 0.373893 0.273580
0.286960 -0.407051 0.222521
0.286960 -0.417767 -0.225658
0.286960 0.313393 -0.370445
0.286960 -0.279593 0.409036
0.286960 -0.345776 0.293591
0.286960 0.328795 -0.362475
0.286960 0.406287 -0.216027
0.286960 -0.346713 -0.345352
0.286960 0.328659 0.328369
0.286960 -0.161372 0.439812
0.286960 -0.467278 -0.119487
0.286960 -0.476639 0.043409
0.286960 0.392303 -0.214260
0.286960 -0.248078 0.413604
0.286960 -0.404499 -0.254039
0.286960 0.068331 0.481065
0.286960 0.144138 -0.470871
0.286960 -0.387383 -0.222271
0.286960 -0.294719 0.335257
0.286960 -0.106854 -0.477094
0.286960 -0.463110 0.114245
0.286960 -0.156427 0.461213
0.286960 -0.449533 0.051312
0.286960 -0.468588 0.025499
0.286960 0.250085 -0.425990
0.286960 0.481211 0.029034
0.286960 -0.433221 0.139223
0.286960 -0.140305 -0.428306
0.286960 0.249188 0.373429
0.286960 0.079294 -0.489166
0.286960 -0.390450 0.294285
0.286960 0.085787 -0.449488
0.286960 -0.464424 0.135063
0.286960 0.453561 0.106995
0.286960 0.397865 -0.219813
0.286960 0.416875 0.166031
0.286960 0.282941 0.407597
0.286960 0.271604 0.376871
0.286960 -0.474061 -0.144445
0.286960 0.120111 0.468924
0.286960 -0.314022 0.378688
0.286960 -0.055587 -0.475946
0.286960 -0.402934 0.253731
0.286960 0.304630 -0.356576
0.286960 -0.408878 0.262416
0.286960 0.363209 0.302359
0.286960 -0.146685 0.466680
0.286960 -0.009531 0.467989
0.286960 0.181502 -0.458824
0.286960 0.241825 0.390474
0.286960 -0.485558 0.022703
0.286960 0.425563 -0.220208
0.286960 -0.427804 0.165992
0.286960 -0.150933 0.447474
0.286960 -0.462643 -0.086914
0.286960 0.240619 0.410430
0.286960 -0.491670 0.037580
0.286960 0.384990 -0.308159
0.286960 0.486552 -0.078342
0.286960 -0.041962 0.480693
0.286960 0.464838 0.121821
0.286960 -0.409186 -0.257206
0.286960 -0.432874 0.125779
0.286960 -0.318179 -0.332225
0.286960 0.292191 0.391294
0.286960 -0.126005 -0.475933
0.286960 0.451588 -0.185063
0.286960 -0.369630 0.326804
0.286960 -0.419994 0.148786
0.286960 0.442082 -0.106320
0.286960 0.362306 0.335820
0.286960 -0.358025 -0.332235
0.286960 0.407995 0.256556
0.286960 0.331305 0.338305
0.286960 0.006932 0.479770
0.286960 -0.105883 -0.483531
0.286960 0.458127 -0.038122
0.286960 -0.400922 -0.237477
0.286960 -0.356946 -0.272929
0.286960 -0.133632 -0.474528
0.286960 0.449563 0.124110
0.286960 -0.176121 -0.449738
0.286960 0.246440 -0.403791
0.286960 -0.183520 0.451874
0.286960 -0.321386 0.328417
0.286960 -0.445742 -0.112897
0.286960 0.351390 0.320844
0.286960 -0.369319 0.308482
0.286960 -0.240941 -0.435683
0.286960 0.458767 0.165051
0.286960 -0.300652 0.380016
0.286960 -0.452880 -0.083929
0.286960 -0.230924 -0.438552
0.286960 -0.333594 -0.311100
0.286960 0.361963 -0.282715
0.286960 0.413311 -0.174406
0.286960 0.415831 -0.177955
0.286960 0.198366 -0.407916
0.286960 -0.188274 0.417278
0.286960 0.460319 0.154197
0.286960 -0.149787 -0.429188
0.286960 -0.473705 -0.096696
0.286960 0.363511 -0.304065
0.286960 -0.462646 0.049354
0.286960 0.238986 0.420708
0.286960 0.289857 0.362726
0.286960 -0.185408 -0.434746
0.286960 0.287762 -0.352720
0.286960 -0.236786 -0.427190
0.286960 -0.394579 -0.225838
0.286960 -0.361248 0.259882
0.286960 0.312860 -0.322669
0.286960 -0.037565 0.469184
0.286960 0.408542 0.280652
0.286960 0.279821 0.391845
0.286960 -0.247755 -0.389970
0.286960 0.154114 -0.473252
0.286960 -0.443818 -0.072990
0.286960 -0.431862 0.104847
0.286960 0.217616 0.430955
0.286960 -0.336375 0.306540
0.286960 -0.364221 -0.317254
0.286960 0.070797 0.466131
0.286960 0.439209 0.155988
0.286960 -0.428278 -0.185130
0.286960 -0.447516 0.027339
0.286960 0.339076 -0.338017
0.286960 -0.320814 0.340698
0.286960 -0.306140 -0.358959
0.286960 0.146860 -0.456723
0.286960 -0.492207 -0.035362
0.286960 0.462092 -0.064353
0.286960 0.326441 0.372189
0.286960 0.423477 0.214061
0.286960 0.463497 0.045475
0.286960 0.312634 -0.350183
0.286960 0.465990 0.036224
0.286960 -0.295716 -0.377830
0.286960 0.263466 0.412982
0.286960 -0.023387 0.473341
0.286960 0.181010 0.410866
0.286960 -0.329453 -0.325944
0.286960 -0.033468 0.487277
0.286960 0.374353 0.243371
0.286960 0.360646 0.268838
0.286960 0.235120 -0.415754
0.286960 -0.197092 -0.428388
0.286960 -0.473441 0.013798
0.286960 0.027144 0.465723
0.286960 -0.474899 -0.093415
0.286960 -0.315070 -0.351443
0.286960 0.483706 0.020763
0.286960 -0.476900 -0.035064
0.286960 0.161895 -0.462260
0.286960 0.437233 -0.105671
0.286960 -0.241452 0.426318
0.286960 0.335540 -0.310703
0.286960 0.009742 0.452109
0.286960 -0.357074 0.331867
0.286960 0.342354 -0.314161
0.286960 -0.302469 0.357160
0.286960 -0.114658 0.460553
0.286960 0.448067 0.144256
0.286960 0.237431 0.407717
0.286960 -0.253490 -0.392475
0.286960 0.466713 -0.141654
0.286960 -0.330246 -0.372558
0.286960 0.470545 -0.163464
0.286960 -0.195359 0.447023
0.286960 0.448453 -0.174764
0.286960 0.472178 0.025430
0.286960 0.183333 -0.452278
0.286960 0.370463 0.274644
0.286960 0.280879 0.343963
0.286960 0.327150 -0.355878
0.286960 -0.363332 0.315569
0.286960 -0.440168 0.094635
0.286960 0.272888 0.394742
0.286960 0.403569 0.227029
0.286960 0.465366 0.102855
0.286960 -0.414282 0.242555
0.286960 0.085224 0.435187
0.286960 0.305631 0.358078
0.286960 0.260691 -0.371182
0.286960 -0.351652 0.314233
0.286960 0.382771 0.284968
0.286960 0.304685 0.331062
0.286960 0.461186 0.175072
0.286960 0.313358 -0.367359
0.286960 0.393605 0.296253
0.286960 0.404787 -0.269548
0.286960 -0.369646 -0.296766
0.286960 -0.424610 -0.189877
0.286960 0.064096 0.444806
0.286960 0.447071 0.164739
0.286960 -0.114574 0.432088
0.286960 -0.090851 -0.486581
0.286960 -0.136696 -0.443582
0.286960 -0.026943 0.464631
0.286960 -0.122130 0.476891
0.286960 0.417183 0.205913
0.286960 0.040496 0.448464
0.286960 -0.110660 0.478456
0.286960 0.379827 0.248011
0.286960 0.023944 -0.472761
0.286960 0.452771 0.027638
0.286960 -0.409407 0.244992
0.286960 0.075210 -0.488144
0.286960 -0.455015 0.067894
0.286960 0.377666 0.236219
0.286960 -0.433473 0.165318
0.286960 -0.255467 -0.422228
0.286960 -0.108737 0.442439
0.286960 -0.379737 0.274714
0.286960 -0.324328 -0.361943
0.286960 -0.445398 0.100274
0.286960 0.369151 -0.312266
0.286960 0.111281 0.459023
0.286960 -0.209053 -0.434597
0.286960 -0.472908 -0.034705
0.286960 -0.444886 -0.154873
0.286960 -0.468393 -0.084235
0.286960 -0.240355 -0.390199
0.286960 -0.354085 0.309859
0.286960 -0.113599 -0.486608
0.286960 0.233218 -0.405347
0.286960 -0.370458 -0.311505
0.286960 -0.435902 0.094131
0.286960 0.405740 0.262049
0.286960 -0.118180 0.448969
0.286960 -0.405689 -0.280267
0.286960 -0.112949 -0.473298
0.286960 -0.461875 0.179600
0.286960 0.277679 0.404327
0.286960 0.351235 0.310637
0.286960 0.420789 -0.184161
0.286960 -0.482300 -0.088147
0.286960 0.259037 0.366889
0.286960 0.376513 0.246210
0.286960 -0.032155 -0.493378
0.286960 -0.430930 0.179562
0.286960 -0.024572 0.461227
0.286960 -0.369489 0.330946
0.286960 0.220438 -0.390932
0.286960 0.427116 -0.245883
0.286960 -0.137204 -0.480548
0.286960 0.435658 0.098952
0.286960 -0.325391 -0.338954
0.286960 0.401047 -0.261745
0.286960 -0.487158 0.082674
0.286960 0.320671 0.377270
0.286960 0.198462 -0.414133
0.286960 -0.319710 -0.326894
0.286960 -0.265241 0.400535
0.286960 -0.406686 0.284079
0.286960 0.243587 -0.432447
0.286960 -0.179569 -0.412883
0.286960 0.287685 -0.343283
0.286960 0.221149 -0.438494
0.286960 0.436029 -0.172651
0.286960 0.097906 -0.444106
0.286960 -0.376930 0.268282
0.286960 -0.446966 0.074147
0.286960 -0.390274 0.278608
0.286960 -0.480363 0.086266
0.286960 0.344508 0.299920
0.286960 -0.232518 0.405153
0.286960 -0.472965 0.113875
0.286960 0.455396 -0.190676
0.286960 0.428629 -0.236101
0.286960 -0.348220 0.289182
0.286960 0.047603 0.455711
0.286960 -0.432623 -0.237271
0.286960 0.401740 0.213046
0.286960 0.276873 -0.380593
0.286960 0.240533 0.407010
0.286960 0.344934 -0.294202
0.286960 0.489431 0.002900
0.286960 -0.485287 -0.002012
0.286960 0.480095 0.130070
0.286960 -0.402078 0.236337
0.286960 0.457460 -0.146733
0.286960 -0.475733 0.054576
0.286960 -0.189284 0.444740
0.286960 -0.350275 0.331562
0.286960 0.361948 -0.262653
0.286960 -0.319500 -0.352125
0.286960 -0.463279 0.057014
0.286960 0.107405 -0.481204
0.286960 -0.386516 -0.247515
0.286960 0.446679 -0.137894
0.286960 0.435818 0.156641
0.286960 -0.157979 -0.473164
0.286960 -0.244032 -0.375321
0.286960 0.049310 0.471046
0.286960 -0.058872 0.445810
0.286960 0.359333 -0.284958
0.286960 0.332284 -0.351439
0.286960 -0.076146 0.478835
0.286960 0.443488 0.165287
0.286960 -0.014731 0.455346
0.286960 -0.274084 0.411309
0.286960 0.004392 0.461336
0.286960 0.473968 -0.110411
0.286960 -0.372171 0.306640
0.286960 0.318080 0.344633
0.286960 -0.327489 0.304080
0.286960 0.307505 0.327504
0.286960 0.066102 0.471970
0.286960 0.140675 -0.430982
0.286960 -0.440890 0.098426
0.286960 -0.338379 -0.295698
0.286960 0.008270 0.467649
0.286960 0.491220 -0.037096
0.286960 -0.253468 0.409580
0.286960 0.432734 -0.116367
0.286960 -0.243898 -0.390405
0.286960 -0.379480 -0.241452
0.286960 -0.228222 0.413211
0.286960 -0.149499 0.470962
0.286960 -0.271678 0.382610
0.286960 0.488960 0.089622
0.286960 -0.444865 0.116921
0.286960 0.437856 -0.112871
0.286960 0.078456 0.450716
0.286960 -0.203946 0.399651
0.286960 0.418137 0.246792
0.286960 0.454585 0.017482
0.286960 -0.412601 -0.245548
0.286960 -0.234941 -0.418657
0.286960 0.160905 0.458368
0.286960 0.025552 -0.456320
0.286960 -0.458324 -0.020457
0.286960 0.148886 -0.424927
0.286960 0.444545 -0.145683
0.286960 -0.459025 -0.036193
0.286960 -0.049110 0.443786
0.286960 0.315812 -0.341294
0.286960 -0.430499 0.186273
0.286960 -0.446464 0.205089
0.286960 -0.380329 0.244414
0.286960 -0.208996 -0.412025
0.286960 0.060257 -0.465166
0.286960 -0.458087 0.003709
0.286960 0.400165 -0.251642
0.286960 0.148809 0.451701
0.286960 -0.464771 0.061100
0.286960 0.427649 0.208927
0.286960 0.305648 0.378746
0.286960 -0.067925 0.483387
0.286960 -0.392072 -0.280777
0.286960 -0.401366 -0.264178
0.286960 0.455472 -0.045482
0.286960 -0.469474 -0.078340
0.286960 0.004231 0.446780
0.286960 -0.422598 0.260236
0.286960 -0.383859 -0.279259
0.286960 0.121956 0.432670
0.286960 0.493505 0.063729
0.286960 0.475417 0.049373
0.286960 0.057329 0.480015
0.286960 0.263766 -0.408968
0.286960 -0.397977 0.236425
0.286960 0.404454 0.196588
0.286960 -0.095564 -0.452258
0.286960 -0.077695 0.437653
0.286960 0.418666 -0.235762
0.286960 -0.284926 0.391765
0.286960 -0.387197 0.261495
0.286960 0.096329 -0.482437
0.286960 0.147603 0.466564
0.286960 0.093708 0.478260
0.286960 0.392184 -0.237492
0.286960 0.225782 0.432003
0.286960 -0.419623 0.229097
0.286960 0.171152 0.436882
0.286960 0.001968 -0.486921
0.286960 -0.430434 -0.124345
0.286960 0.454419 -0.020674
0.286960 -0.374627 -0.312876
0.286960 0.357551 -0.276539
0.286960 0.307973 -0.339253
0.286960 -0.369058 -0.322872
0.286960 -0.263855 0.396345
0.286960 -0.389872 -0.234666
0.286960 -0.102840 0.436390
0.286960 -0.481375 0.018201
0.286960 -0.100370 0.460019
0.286960 0.333158 0.320545
0.286960 -0.443437 -0.117688
0.286960 0.193788 0.428480
0.286960 0.284648 0.346730
0.286960 -0.375943 0.262778
0.286960 0.346928 0.338526
0.286960 -0.138255 0.435107
0.286960 -0.316620 0.337719
0.286960 0.283290 0.368999
0.286960 0.481298 0.088808
0.286960 -0.427860 -0.228401
0.286960 0.468531 -0.047733
0.286960 0.123839 -0.442748
0.286960 -0.455003 -0.067466
0.286960 0.331291 0.355378
0.286960 -0.473578 -0.153660
0.286960 0.268902 0.416829
0.286960 0.035157 0.468977
0.286960 -0.071641 0.453234
0.286960 -0.283975 0.360844
0.286960 -0.146893 -0.438908
0.286960 0.442710 0.141509
0.286960 -0.081306 -0.466277
0.286960 -0.451639 -0.066512
0.286960 -0.465173 -0.101203
0.286960 -0.379818 -0.284226
0.286960 0.311550 -0.390998
0.286960 0.228426 -0.444359
0.286960 -0.432230 -0.247709
0.286960 -0.354438 -0.334144
0.286960 -0.368659 0.290394
0.286960 0.265099 0.402338
0.286960 -0.289156 0.394576
0.286960 -0.486913 0.007301
0.286960 0.458350 0.067672
0.286960 -0.222683 -0.436773
0.286960 0.290442 0.338928
0.286960 -0.202218 -0.436930
0.286960 0.411140 0.210971
0.286960 0.107946 0.431037
0.286960 0.389047 0.223730
0.286960 0.451663 -0.084160
0.286960 0.408482 -0.228122
0.286960 -0.343938 -0.322361
0.286960 0.179256 0.429960
0.286960 -0.369192 0.276063
0.286960 -0.091080 0.449661
0.286960 0.299068 0.334007
0.286960 0.476584 -0.096873
0.286960 0.446042 0.004638
0.286960 -0.062284 0.467994
0.286960 0.020902 -0.447358
0.286960 0.263329 -0.398845
0.286960 0.450068 0.079381
0.286960 0.039037 -0.471593
0.286960 -0.464314 0.166065
0.286960 -0.360007 -0.307346
0.286960 0.270125 -0.420823
0.286960 -0.482289 0.056751
0.286960 -0.391854 -0.255077
0.286960 -0.177696 0.462385
0.286960 0.467079 0.162019
0.286960 -0.146776 0.448823
0.286960 0.389603 -0.279064
0.286960 0.476778 -0.126062
0.286960 -0.260144 0.420925
0.286960 0.067134 -0.483770
0.286960 -0.454730 -0.021373
0.286960 -0.358846 -0.328193
0.286960 -0.304489 -0.363668
0.286960 -0.100976 -0.480809
0.286960 -0.088333 0.451764
0.286960 -0.462741 -0.183706
0.286960 0.414166 -0.181065
0.286960 0.347712 0.285820
0.286960 0.354074 0.324141
0.286960 0.395835 -0.304045
0.286960 -0.242155 0.391173
0.286960 -0.325957 0.301456
0.286960 0.440341 0.224706
0.286960 0.156583 0.431529
0.286960 0.478383 -0.001911
0.286960 0.111387 -0.440689
0.286960 -0.328453 -0.345831
0.286960 -0.037329 -0.498126
0.286960 -0.186544 -0.430802
0.286960 0.021298 -0.460545
0.286960 -0.411681 -0.225434
0.286960 -0.471320 -0.115064
0.286960 -0.420953 -0.189968
0.286960 0.101910 0.446466
0.286960 0.066248 0.468176
0.286960 0.448865 0.127170
0.286960 0.443932 0.040682
0.286960 -0.410043 0.211957
0.286960 0.336501 -0.367109
0.286960 -0.376499 -0.317457
0.286960 -0.384671 0.259688
0.286960 -0.493114 0.009873
0.286960 0.441121 -0.089731
0.286960 0.451060 0.039909
0.286960 0.302436 0.380356
0.286960 0.097657 0.450022
0.286960 -0.080330 -0.470121
0.286960 0.169284 0.458542
0.286960 0.249490 0.388038
0.286960 0.491031 -0.077791
0.286960 0.446477 -0.156693
0.286960 0.375036 0.239381
0.286960 0.379632 -0.271301
0.286960 -0.209952 -0.402612
0.286960 0.392403 -0.267693
0.286960 -0.268546 -0.420565
0.286960 0.021478 0.488921
0.286960 0.382217 0.281593
0.286960 0.411165 0.278553
0.286960 0.064335 0.457862
0.286960 -0.277851 -0.379589
0.286960 0.406271 -0.204162
0.286960 0.488089 -0.075176
0.286960 0.450220 0.115605
0.286960 -0.067761 -0.457317
0.286960 -0.466359 0.032326
0.286960 0.438776 0.102553
0.286960 0.264753 -0.380020
0.286960 -0.355717 -0.314655
0.286960 0.335627 0.328009
0.286960 -0.470535 0.002353
0.286960 -0.272505 -0.363108
0.286960 0.384401 -0.262849
0.286960 0.306106 -0.391440
0.286960 0.016468 0.470185
0.286960 0.285383 -0.354836
0.286960 -0.111649 0.438794
0.286960 0.300989 0.384347
0.286960 0.373639 0.292070
0.286960 0.459665 -0.053730
0.286960 -0.165751 0.450554
0.286960 -0.483202 -0.120741
0.286960 0.451364 -0.128232
0.286960 -0.430412 -0.192279
0.286960 -0.027066 0.485128
0.286960 0.252934 0.386062
0.286960 0.423140 -0.159498
0.286960 -0.390223 0.243359
0.286960 -0.055350 0.447007
0.286960 -0.320173 -0.335536
0.286960 -0.412829 -0.208071
0.286960 -0.425465 0.145528
0.286960 0.400087 0.291236
0.286960 0.382071 0.241466
0.286960 -0.106418 0.471843
0.286960 0.478105 0.007155
0.286960 0.196529 -0.448805
0.286960 -0.400965 -0.248319
0.286960 -0.438602 -0.208087
0.286960 0.087004 0.456576
0.286960 0.181062 -0.409507
0.286960 0.309644 0.352431
0.286960 0.455466 -0.026903
0.286960 -0.431105 -0.153305
0.286960 0.472064 -0.089770
0.286960 0.322481 0.354154
0.286960 0.125840 -0.434496
0.286960 -0.201001 0.417238
0.286960 -0.309541 0.338001
0.286960 0.305694 0.390447
0.286960 0.443684 0.060944
0.286960 -0.230446 -0.434814
0.286960 -0.387189 0.220929
0.286960 -0.387492 0.233574
0.286960 -0.021591 0.464442
0.286960 -0.304370 0.340913
0.286960 -0.257136 -0.379858
0.286960 -0.367082 -0.308753
0.286960 -0.053529 -0.472452
0.286960 -0.171039 0.427107
0.286960 0.380034 0.275426
0.286960 0.262361 0.376655
0.286960 0.474291 -0.092295
0.286960 0.082668 0.480518
0.286960 -0.471582 0.030828
0.286960 0.399650 0.238950
0.286960 -0.344701 0.326292
0.286960 -0.199037 0.452278
0.286960 0.379099 -0.288346
0.286960 -0.340023 0.300184
0.286960 -0.308035 -0.326832
0.286960 0.486339 -0.094005
0.286960 -0.430051 -0.168407
0.286960 -0.441357 -0.195877
0.286960 -0.128958 0.458579
0.286960 -0.202848 -0.455676
0.286960 0.272414 -0.411188
0.286960 0.427514 -0.185023
0.286960 0.148292 0.432864
0.286960 -0.258903 0.399028
0.286960 -0.477293 -0.020508
0.286960 -0.113690 0.468961
0.286960 -0.444823 0.002614
0.286960 -0.035459 0.464546
0.286960 -0.480578 -0.075828
0.286960 -0.387321 -0.298794
0.286960 -0.312392 -0.378804
0.286960 -0.455280 0.021261
0.286960 -0.406800 -0.287593
0.286960 -0.201680 0.450353
0.286960 0.165320 -0.420089
0.286960 -0.468988 0.145631
0.286960 -0.429848 -0.204167
0.286960 -0.067256 -0.461130
0.286960 0.078109 -0.476210
0.286960 0.366249 0.274590
0.286960 0.480142 0.110200
0.286960 -0.436906 0.083126
0.286960 0.256355 0.401057
0.286960 0.445291 -0.076781
0.286960 -0.158618 -0.446160
0.286960 -0.403912 -0.214537
0.286960 -0.254217 0.390135
0.286960 0.455108 -0.056384
0.286960 -0.305080 0.344882
0.286960 0.068098 -0.463460
0.286960 -0.431973 0.196074
0.286960 -0.458978 -0.178386
0.286960 0.440511 -0.210620
0.286960 -0.233955 -0.433765
0.286960 0.128884 0.451614
0.286960 -0.353424 0.305503
0.286960 0.403552 -0.282776
0.286960 0.123800 0.447251
0.286960 0.044986 0.463471
0.286960 0.422318 0.165400
0.286960 -0.349571 0.293129
0.286960 -0.048118 -0.445899
0.286960 -0.375523 0.271405
0.286960 -0.132575 -0.464489
0.286960 -0.389990 -0.268242
0.286960 0.259932 -0.422609
0.286960 -0.092103 0.476987
0.286960 -0.343841 -0.308075
0.286960 0.422970 -0.144729
0.286960 0.089267 0.434822
0.286960 -0.427523 -0.133593
0.286960 0.435264 -0.159344
0.286960 -0.164337 -0.447259
0.286960 0.146625 0.457189
0.286960 0.261216 0.385997
0.286960 0.462155 -0.098055
0.286960 0.449591 -0.081518
0.286960 0.254669 0.369312
0.286960 0.189811 0.438052
0.286960 -0.360860 0.319306
0.286960 -0.003969 0.481351
0.286960 -0.453461 0.170300
0.286960 -0.040505 -0.491930
0.286960 -0.082869 -0.484745
0.286960 -0.294963 -0.347980
0.286960 0.040640 -0.496719
0.286960 -0.117178 -0.435777
0.286960 0.286712 -0.409385
0.286960 -0.492838 -0.016735
0.286960 0.410698 -0.190691
0.286960 0.217116 -0.438590
0.286960 0.478216 0.013435
0.286960 -0.386986 -0.306077
0.286960 0.474960 -0.133865
0.286960 -0.379315 0.253657
0.286960 0.401341 -0.232887
0.286960 -0.458549 0.024112
0.286960 0.042179 -0.458594
0.286960 -0.440181 -0.174158
0.286960 0.080349 -0.452472
0.286960 -0.204336 -0.409014
0.286960 -0.480061 -0.001939
0.286960 -0.464725 0.111659
0.286960 0.212562 -0.395166
0.286960 0.440089 -0.082699
0.286960 -0.429285 -0.234573
0.286960 0.391663 0.261923
0.286960 0.430313 0.174323
0.286960 -0.320860 -0.338874
0.286960 0.385897 -0.253033
0.286960 -0.198170 0.422649
0.286960 0.429597 -0.193184
0.286960 -0.462914 0.044041
0.286960 -0.204341 -0.398469
0.286960 0.010174 -0.452935
0.286960 -0.448609 -0.122709
0.286960 0.394299 -0.222670
0.286960 -0.420097 0.144675
0.286960 -0.416625 -0.214631
0.286960 -0.412574 0.216283
0.286960 0.109440 0.455204
0.286960 0.404451 0.230877
0.286960 0.431345 0.207121
0.286960 -0.323413 -0.365233
0.286960 -0.098574 0.445425
0.286960 -0.478137 -0.052878
0.286960 0.455316 -0.120888
0.286960 0.309891 0.374520
0.286960 0.315562 -0.352664
0.286960 0.306151 -0.350520
0.286960 -0.456477 0.045450
0.286960 -0.294311 0.344706
0.286960 0.444105 0.150267
0.286960 -0.445622 0.200197
0.286960 0.027013 0.447466
0.286960 0.131330 -0.480723
0.286960 -0.412037 -0.272681
0.286960 -0.460197 -0.110471
0.286960 0.094081 0.448764
0.286960 -0.005695 -0.467789
0.286960 -0.300537 0.367978
0.286960 -0.396553 -0.218393
0.286960 0.418226 -0.202803
0.286960 -0.367129 -0.270002
0.286960 -0.456032 -0.186494
0.286960 -0.450510 0.176009
0.286960 0.423201 0.220985
0.286960 -0.437429 0.193614
0.286960 0.453789 0.179661
0.286960 -0.230917 -0.403599
0.286960 0.084638 -0.492881
0.286960 -0.145168 -0.471797
0.286960 -0.332302 0.364398
0.286960 -0.452366 0.140493
0.286960 0.457472 -0.188450
0.286960 -0.103492 0.484576
0.286960 -0.492091 0.024619
0.286960 -0.403070 -0.192130
0.286960 0.063571 -0.481160
0.286960 -0.168471 0.430399
0.286960 -0.023934 -0.488544
0.286960 0.477497 0.100341
0.286960 -0.341458 0.329697
0.286960 -0.305936 0.371139
0.286960 0.360392 -0.314582
0.286960 -0.397453 -0.236041
0.286960 0.202570 -0.399582
0.286960 -0.169485 0.462708
0.286960 0.221666 0.431505
0.286960 0.154043 0.471546
0.286960 -0.453578 -0.005695
0.286960 0.453670 -0.105066
0.286960 0.446674 0.062465
0.286960 0.223933 -0.417122
0.286960 0.372086 0.285792
0.286960 0.381896 -0.259143
0.286960 0.370395 0.321256
0.286960 0.409677 0.216357
0.286960 -0.353104 0.333863
0.286960 0.194138 -0.458159
0.286960 0.308072 0.322382
0.286960 0.468228 -0.023575
0.286960 0.122796 0.429644
0.286960 0.416508 0.270884
0.286960 -0.440688 0.173383
0.286960 -0.405350 0.194238
0.286960 -0.326929 -0.360037
0.286960 -0.019932 -0.467290
0.286960 0.397574 0.270382
0.286960 0.039563 0.485832
0.286960 -0.173950 0.454615
0.286960 0.103407 -0.466678
0.286960 0.476460 -0.071091
0.286960 -0.449632 0.099979
0.286960 -0.366371 -0.292921
0.286960 -0.473700 0.084845
0.286960 -0.390149 0.213025
0.286960 -0.409245 0.172464
0.286960 -0.032666 0.458244
0.286960 -0.453063 0.008778
0.286960 0.161221 -0.446521
0.286960 0.488934 0.032263
0.286960 0.412921 -0.203795
0.286960 0.200887 -0.405898
0.286960 -0.436786 -0.176427
0.286960 -0.464283 -0.130812
0.286960 -0.415118 -0.196802
0.286960 0.410689 -0.242169
0.286960 -0.224685 -0.386382
0.286960 0.010457 -0.489122
0.286960 -0.417312 0.181046
0.286960 -0.314309 -0.370170
0.286960 0.454188 0.126814
0.286960 -0.089441 0.458616
0.286960 0.389822 0.229726
0.286960 -0.297662 0.331772
0.286960 -0.419235 0.220700
0.286960 0.294697 0.369671
0.286960 -0.228897 0.439698
0.286960 -0.482155 -0.099403
0.286960 0.215261 0.389855
0.286960 -0.090688 0.446628
0.286960 0.203270 -0.447625
0.286960 -0.358731 0.289221
0.286960 0.345100 0.335526
0.286960 0.100076 -0.484908
0.286960 -0.343048 -0.287559
0.286960 -0.052841 -0.484306
0.286960 -0.250405 0.390403
0.286960 0.229355 -0.425992
0.286960 -0.159523 -0.424863
0.286960 0.280437 0.387449
0.286960 -0.391631 0.261502
0.286960 -0.166654 0.420036
0.286960 -0.124329 0.479847
0.286960 0.005113 0.467854
0.286960 0.485521 0.093320
0.286960 0.272974 0.391724
0.286960 0.414925 0.248918
0.286960 -0.452211 -0.119618
0.286960 0.448232 0.008455
0.286960 -0.213115 0.416473
0.286960 -0.491725 0.055706
0.286960 0.301479 0.365892
0.286960 -0.026757 0.455317
0.286960 -0.391949 0.210273
0.286960 -0.143395 0.467888
0.286960 0.439184 -0.214672
0.286960 -0.208414 0.437814
0.286960 -0.100804 -0.451464
0.286960 -0.191121 0.438582
0.286960 0.417730 0.158949
0.286960 0.373156 0.288780
0.286960 0.424666 -0.210777
0.286960 -0.114542 -0.461767
0.286960 -0.249546 0.421175
0.286960 -0.451767 -0.073416
0.286960 -0.410012 -0.175561
0.286960 -0.142457 0.474466
0.286960 -0.022871 0.489700
0.286960 0.196587 -0.418560
0.286960 0.402182 0.206815
0.286960 0.003823 -0.463199
0.286960 -0.294445 -0.351458
0.286960 -0.249333 0.372097
0.286960 -0.224622 0.420001
0.286960 0.272296 -0.389087
0.286960 0.156376 -0.432264
0.286960 -0.206756 0.415701
0.286960 0.427712 -0.217457
0.286960 -0.428751 0.244251
0.286960 0.056584 -0.486683
0.286960 -0.086415 0.486552
0.286960 -0.097718 0.473669
0.286960 -0.386971 -0.293777
0.286960 0.322489 -0.331945
0.286960 -0.394590 0.279421
0.286960 0.457272 -0.085342
0.286960 -0.312084 0.370689
0.286960 -0.454015 -0.095053
0.286960 0.449280 0.200652
0.286960 -0.176354 0.443623
0.286960 0.026196 0.459382
0.286960 0.371554 0.253030
0.286960 0.166521 0.421785
0.286960 -0.460200 0.135606
0.286960 -0.445803 0.126039
0.286960 0.197359 -0.451734
0.286960 -0.159620 -0.455696
0.286960 -0.359747 -0.319055
0.286960 0.447648 -0.031212
0.286960 0.095938 -0.473588
0.286960 0.420976 0.235473
0.286960 -0.496290 -0.007601
0.286960 0.158008 -0.429732
0.286960 0.276644 -0.394309
0.286960 0.134493 0.425384
0.286960 0.432656 -0.196884
0.286960 0.383295 -0.249999
0.286960 0.130855 0.423990
0.286960 -0.453736 -0.169437
0.286960 0.342938 -0.363590
0.286960 -0.059439 -0.465050
0.286960 0.063076 -0.459161
0.286960 -0.291465 0.381622
0.286960 0.147285 -0.476978
0.286960 0.140809 0.426869
0.286960 0.398662 -0.211519
0.286960 0.001889 0.469151
0.286960 -0.048262 -0.458829
0.286960 -0.496950 -0.012388
0.286960 0.186201 -0.453424
0.286960 -0.438720 -0.184617
0.286960 -0.066132 0.491133
0.286960 0.060113 0.454524
0.286960 -0.042055 -0.461437
0.286960 0.359161 -0.266849
0.286960 0.308697 -0.369907
0.286960 0.156557 0.455521
0.286960 -0.255943 -0.389726
0.286960 -0.120075 -0.438026
0.286960 0.144709 -0.463758
0.286960 0.101292 0.436978
0.286960 0.346023 0.341716
0.286960 -0.286460 0.374821
0.286960 -0.291081 0.397096
0.286960 0.082472 -0.479610
0.286960 0.235488 -0.402213
0.286960 -0.177017 -0.426454
0.286960 0.057176 0.476606
0.286960 0.287872 0.374172
0.286960 -0.451112 -0.021743
0.286960 -0.056496 -0.482851
0.286960 -0.416982 -0.187353
0.286960 0.110446 -0.449290
0.286960 0.478599 -0.028742
0.286960 -0.329317 -0.312364
0.286960 0.066987 -0.478976
0.286960 -0.450037 -0.186979
0.286960 0.298717 -0.366550
0.286960 -0.029341 0.459060
0.286960 0.250556 -0.399840
0.286960 -0.198964 -0.445167
0.286960 -0.490571 -0.019464
0.286960 -0.160934 -0.442456
