0.147702 -0.070345 0.490694
-0.032167 -0.497321 -0.012485
0.286676 0.192280 -0.461706
-0.211387 0.427781 -0.257912
-0.021044 -0.472271 0.154539
-0.018277 -0.325371 0.374316
0.158790 -0.348326 -0.357682
-0.279250 -0.455508 0.197837
-0.263748 -0.348588 0.352896
-0.036669 -0.214864 0.446803
-0.141971 -0.108874 0.483655
-0.112535 0.418379 0.268651
0.093433 -0.282445 0.407682
0.022976 -0.497393 -0.008498
-0.155014 0.072039 0.490773
-0.021553 -0.468422 0.165464
0.078805 -0.267521 0.417534
-0.134436 -0.277835 0.410725
-0.083013 -0.124558 0.479860
-0.268313 -0.458715 -0.194669
-0.031496 0.103095 0.485251
-0.126338 -0.424491 -0.262003
0.182363 -0.158229 0.469796
0.056713 0.495561 -0.055740
-0.170038 -0.045599 -0.498031
-0.152964 0.357716 0.344736
-0.097288 0.490846 -0.088900
-0.009189 -0.497247 -0.016592
-0.105136 0.082545 -0.493431
-0.099971 0.181893 0.461602
-0.012132 0.307829 -0.394076
-0.070050 -0.086374 -0.492482
0.212402 -0.256131 -0.428891
-0.211907 0.315294 0.383681
0.002472 0.296859 -0.402353
0.225269 -0.038173 0.494259
0.220739 -0.278457 -0.414705
-0.212088 0.238630 -0.439629
0.077584 0.359890 -0.347138
0.188657 0.222907 -0.447699
0.249937 -0.497193 0.014165
0.229018 -0.427921 -0.256021
-0.213447 0.178457 -0.467469
-0.145270 -0.330476 -0.374209
-0.234888 -0.492544 -0.071752
-0.236947 -0.323826 0.375642
0.245702 0.071698 -0.495000
0.154823 0.421882 -0.267588
-0.244782 0.275121 0.413401
0.069979 -0.352001 0.349574
-0.084043 -0.447820 0.214970
-0.235769 0.312527 -0.390532
-0.105608 0.142870 0.474988
0.040625 -0.494619 0.050625
0.158144 0.165560 -0.471974
-0.075905 0.343504 -0.363198
0.249737 -0.202644 0.452605
-0.115040 0.272082 0.415438
0.221177 -0.045086 -0.498086
0.119330 0.252844 -0.431478
-0.042935 0.487326 0.102522
-0.067627 0.489818 -0.094866
-0.221891 -0.065148 -0.495918
0.052288 -0.330730 -0.373980
-0.263056 0.126611 0.479662
-0.156665 0.123521 0.480396
-0.011130 -0.254601 -0.429824
-0.164170 0.020974 -0.499827
0.028702 0.088819 0.487884
-0.226219 -0.353758 -0.352102
0.286873 -0.084459 0.488652
0.092647 0.194778 0.456423
0.012397 0.110785 -0.487823
-0.212027 0.321689 -0.382709
0.011720 -0.346941 0.354500
0.257936 -0.209945 -0.453510
-0.027604 -0.287848 0.404024
-0.205167 -0.239106 -0.438754
0.013690 -0.077826 -0.493953
-0.257578 0.282770 0.408052
-0.239809 0.470855 0.161290
-0.071046 -0.300532 -0.398987
-0.270098 -0.104444 0.484583
-0.137701 0.294160 0.400086
0.146942 0.006836 -0.500082
0.246155 0.256847 -0.429182
0.249718 -0.266454 0.418239
-0.081203 -0.280054 -0.413588
0.064993 0.492540 -0.079055
0.186435 0.232122 0.438618
-0.226025 -0.473511 -0.154975
0.069975 0.492488 0.074873
0.074794 -0.497345 -0.011128
-0.119853 0.379715 -0.325249
-0.155077 -0.245140 0.430955
0.210459 -0.104266 -0.489082
0.136513 0.424082 0.260012
-0.197008 0.333978 0.367613
-0.235078 -0.217555 0.445477
0.122092 0.262810 0.421091
-0.109064 -0.411733 0.277197
-0.201875 -0.402403 -0.294893
-0.188409 -0.118397 0.481560
-0.083393 -0.135470 0.476847
-0.272088 -0.107065 -0.488417
-0.215386 0.437413 -0.241181
-0.248544 0.364738 0.337523
0.100922 0.452701 -0.210729
0.022800 -0.165455 -0.471739
0.233320 -0.350994 0.350555
0.177636 -0.425332 0.255894
0.196370 0.433295 0.244085
-0.228007 0.424609 0.259214
0.251792 0.494058 -0.069650
0.274298 0.151704 -0.476754
0.168476 0.187716 -0.463609
-0.055916 0.314568 -0.388819
0.172370 0.264882 -0.424307
-0.193069 0.463058 -0.186845
-0.228163 -0.277915 -0.415084
-0.205245 -0.461267 0.184532
0.209015 -0.009864 -0.500150
-0.289916 0.198928 0.454561
0.115035 -0.229845 0.439421
-0.180711 -0.495395 -0.047378
0.174977 0.263204 0.420851
-0.077768 -0.282440 0.407686
0.281666 0.494640 -0.064264
-0.192671 0.340853 -0.365778
-0.257057 0.303674 -0.397211
0.115359 -0.051071 0.493214
0.156444 -0.033365 -0.499096
0.194238 0.442806 0.226769
-0.013173 0.415882 -0.277084
0.150340 0.489572 -0.096299
0.108408 0.245490 0.431579
0.260412 -0.333050 0.367727
-0.012386 -0.391788 -0.308962
0.028476 0.210826 -0.453651
0.165034 0.192744 0.457336
0.036396 0.449210 0.213773
-0.117263 0.451015 -0.214486
-0.145672 -0.228540 0.440064
-0.076123 -0.403474 -0.293473
0.200622 0.461779 0.185426
0.178117 -0.466648 -0.174870
0.034914 0.110196 0.483563
0.190863 -0.437986 0.233794
-0.128379 0.277557 -0.415939
-0.014378 -0.078100 -0.493906
-0.006922 -0.174995 0.464013
0.241284 0.051512 0.493149
0.106266 0.498232 -0.018213
0.161002 0.228071 0.440750
-0.243404 -0.370575 -0.334360
0.200699 -0.454327 0.200470
-0.110921 0.412070 -0.282534
0.076401 0.222266 0.443807
0.148597 -0.041323 -0.498493
-0.126674 -0.067650 -0.495648
-0.143131 0.445431 0.221442
0.152977 0.373310 0.328013
0.282242 -0.028795 -0.499301
0.038120 -0.466244 -0.176039
-0.125403 -0.245987 0.430469
-0.266906 0.422697 0.262110
0.087640 -0.427547 0.252260
-0.164317 0.074583 -0.494583
0.060819 0.121826 0.480799
-0.005301 -0.148183 -0.477408
-0.002365 -0.396205 -0.303107
-0.208818 -0.485176 0.107723
-0.218438 0.260595 0.422442
-0.120012 -0.135989 0.476704
-0.092660 0.163389 0.468546
0.266482 0.338006 0.363964
0.097315 0.437551 0.236661
0.200844 -0.469599 0.162327
-0.116196 -0.318298 -0.384822
0.109676 -0.137874 0.476184
-0.268544 -0.026036 -0.499425
0.161252 -0.423674 -0.263427
-0.110024 -0.381026 -0.322180
-0.259740 -0.415360 0.272012
0.079093 0.482342 -0.128315
-0.000543 0.497540 -0.033638
0.177897 0.477211 -0.146063
0.191961 -0.451177 0.207488
0.131529 0.456378 0.198381
0.266045 0.477337 -0.145649
-0.289233 0.226945 0.441343
0.272716 -0.200820 -0.457605
0.057852 -0.450792 -0.212836
0.238816 -0.471842 0.155947
-0.287251 0.017374 -0.499892
0.149938 -0.488857 -0.094676
-0.269912 -0.387414 0.310010
0.128053 0.297796 0.397543
-0.260617 -0.497393 -0.008467
0.002712 0.315252 -0.388232
-0.131754 -0.115526 0.482261
-0.048146 0.394765 -0.306430
0.276989 -0.430495 -0.251533
0.007788 -0.487856 0.095958
0.261291 -0.021813 -0.499614
0.188653 -0.419740 0.265067
-0.036964 -0.383765 -0.318988
0.279417 -0.293840 -0.403946
-0.167848 -0.057097 -0.496788
0.006908 0.205589 -0.456158
0.144288 0.386504 0.312638
0.149087 -0.459063 0.189914
0.192490 -0.483108 -0.121510
-0.044940 -0.425781 0.255158
0.083499 0.488048 -0.104304
0.157304 0.154794 0.471350
-0.272437 0.386282 0.312895
0.122953 0.409620 0.281919
-0.271678 0.409115 0.282683
0.263567 -0.258622 -0.427373
0.035820 -0.275559 0.412228
-0.288722 -0.465045 0.174465
0.181497 0.294845 -0.403872
0.179438 0.460272 0.189040
0.277354 0.001162 0.495854
0.279607 0.149661 0.472916
-0.168269 -0.497563 0.000976
0.069809 -0.343311 0.358034
-0.221747 0.497646 -0.031280
0.190429 0.209501 -0.454304
0.159159 0.194650 -0.460718
0.074343 0.133234 -0.482101
0.234739 0.252245 0.427532
-0.049751 0.238376 0.435324
-0.123902 -0.101867 -0.489652
0.040068 -0.484505 -0.115448
-0.104576 0.290984 -0.406785
-0.181917 0.371527 0.330091
-0.033877 0.012226 0.495737
-0.210809 0.477833 -0.144023
-0.130896 -0.141383 0.475215
-0.187029 -0.475674 0.143388
0.083674 -0.333516 -0.371456
0.255901 0.498324 0.009313
0.248111 0.449947 -0.216866
0.201907 -0.295826 0.398006
-0.125495 -0.426785 0.253511
0.219884 0.498503 -0.000629
-0.242801 0.487013 -0.108658
-0.223711 -0.179604 0.462211
-0.245572 0.372846 0.328554
0.189533 -0.438868 -0.236932
0.050811 -0.048819 -0.497683
-0.215535 0.300261 -0.399786
-0.244158 -0.469067 -0.167856
-0.003364 0.482640 0.122562
-0.158964 -0.491109 -0.081672
-0.188987 -0.210211 0.449096
-0.112887 -0.052374 0.493108
0.014600 -0.495801 -0.042373
-0.157748 0.468850 0.167103
0.081439 -0.468697 -0.168930
0.115489 -0.315205 0.383040
0.031776 0.057345 0.492519
-0.053383 -0.012567 -0.500029
-0.231766 0.320229 0.379746
-0.031707 -0.399930 -0.298170
0.225362 0.446092 0.220100
-0.146314 0.374913 -0.330551
-0.244699 -0.410880 0.278417
-0.241953 -0.142259 0.474973
-0.015384 -0.449524 -0.215410
-0.029964 0.338053 0.363922
0.172532 -0.445876 -0.222813
-0.071376 0.395178 -0.305912
-0.068163 -0.264025 -0.424079
0.001521 -0.426121 0.254601
0.231920 -0.118479 0.481538
-0.195444 -0.008264 0.495684
-0.004228 -0.304205 -0.396059
0.222348 -0.410241 0.279331
-0.105407 -0.347894 0.353573
-0.235673 -0.059622 -0.496515
-0.233246 0.202129 0.453124
0.193579 -0.291941 -0.405275
-0.258589 0.183635 0.460949
-0.007284 0.461311 0.186547
0.271799 0.238366 -0.439780
-0.032471 -0.163493 0.467980
-0.185627 -0.497287 -0.014337
0.104304 -0.497191 0.014223
0.266647 -0.442752 -0.229153
-0.245505 -0.204962 -0.455747
-0.233874 -0.463491 -0.183214
-0.115949 0.146386 -0.478470
0.111263 0.406576 0.286366
-0.119721 -0.429376 -0.253484
0.280779 -0.253466 0.426180
-0.221133 0.386687 -0.316560
-0.113453 -0.356682 0.345017
-0.002713 0.071653 0.490839
0.135348 -0.492059 -0.075105
-0.035139 -0.373267 -0.331222
-0.215626 0.270829 0.416202
-0.239278 -0.286339 0.405111
0.203575 0.190776 0.458219
-0.041979 -0.232349 -0.442312
-0.104833 -0.185659 0.459686
0.210989 0.175635 -0.468499
-0.255939 0.146592 -0.478414
-0.279054 0.459384 0.191169
0.217417 -0.174134 -0.468482
0.284488 -0.416422 -0.274416
0.010170 -0.286915 0.404728
-0.108421 0.466027 -0.178932
-0.232233 0.424853 -0.262715
0.058911 0.388634 -0.314118
-0.182829 -0.044984 0.493707
-0.213590 -0.448189 -0.218118
0.136433 0.416043 -0.276853
-0.251575 -0.297753 0.396552
0.141701 -0.181130 0.461574
0.160704 0.005132 0.495925
0.011185 0.357425 0.345035
0.260277 0.492127 0.077366
-0.166294 0.341049 0.361208
-0.288282 0.484030 0.117530
0.160549 0.420900 0.264832
0.058603 0.498105 -0.021034
-0.227052 -0.451783 0.206137
-0.075443 0.459206 -0.196232
0.046043 0.498112 -0.020892
-0.050428 0.132580 -0.482281
-0.030394 -0.329820 -0.374803
-0.248362 -0.486508 -0.105891
0.281633 -0.304433 0.391512
-0.118117 0.064320 -0.496068
-0.267187 0.462471 -0.188408
0.274887 0.465081 -0.181452
0.223089 0.462124 0.184597
-0.102699 0.141389 -0.479850
0.248777 -0.409469 0.280435
0.122319 0.116329 -0.486661
-0.056161 0.470875 -0.166012
0.167095 0.498132 0.019984
0.085790 -0.492478 -0.072207
-0.108847 -0.491053 0.077388
-0.187578 0.478911 -0.140492
0.058207 -0.350764 -0.355177
-0.106024 0.442607 0.227172
-0.011795 -0.333803 0.367081
-0.101341 -0.496474 0.030208
0.039376 0.219773 0.445119
0.024641 0.029691 -0.499382
-0.147416 -0.136053 -0.481109
-0.074831 0.301780 -0.398640
-0.019780 -0.363482 -0.342114
0.131168 0.495105 -0.059966
-0.182954 0.236503 0.436311
0.263613 0.269560 0.416976
-0.287614 -0.483033 -0.121780
-0.008581 0.472307 -0.162135
0.037539 0.463396 0.181547
0.032796 -0.490778 0.078984
-0.036606 -0.283701 -0.411037
0.172181 0.305731 0.391306
0.042721 0.474960 -0.153438
-0.040751 0.442928 0.226520
-0.063994 0.474336 -0.155485
-0.065942 0.462644 0.183351
-0.268013 0.214452 0.447595
-0.286526 0.135848 -0.481380
0.059720 -0.418947 0.266367
0.245145 -0.356862 0.344842
0.278522 0.383373 -0.320717
0.224663 0.417144 0.270521
-0.032939 -0.422776 0.260087
-0.212983 -0.290934 0.401696
0.211948 0.389527 0.308964
-0.195673 -0.243108 -0.436647
0.178693 -0.112552 -0.487113
0.258504 0.366154 -0.340222
-0.128606 0.063111 -0.496242
-0.022433 0.342621 -0.364057
0.014367 0.497088 -0.041608
-0.116233 0.455099 0.201448
-0.033079 -0.185619 0.459703
0.226823 -0.401254 -0.296415
0.094700 0.491736 0.080065
-0.138526 -0.049664 -0.497592
-0.219971 0.286733 0.405280
0.236356 -0.098736 -0.490354
-0.003316 0.413814 -0.280040
-0.271259 0.434036 0.242792
0.145884 0.433821 0.243167
-0.246049 -0.362820 0.338419
-0.094934 -0.051930 -0.497347
-0.193887 0.493593 -0.072943
0.215559 0.489171 -0.098628
-0.015838 0.421838 -0.267660
0.103484 0.064201 0.491778
-0.045959 0.184565 -0.464923
0.174023 0.359121 0.343293
-0.155832 -0.285694 -0.409644
-0.047689 0.462456 0.183801
0.274575 0.397030 0.299019
0.148061 -0.342363 0.358957
-0.072602 -0.424538 -0.261922
0.264462 -0.476084 0.142043
-0.004207 0.380297 0.319871
0.208779 0.167313 0.467073
0.278598 0.494808 0.058832
-0.163577 -0.120314 0.481031
0.212337 -0.400915 -0.296865
-0.028510 -0.291110 -0.405856
-0.072655 0.293015 -0.405252
0.112487 0.487442 -0.106856
0.108641 0.359731 0.342666
-0.247478 -0.317421 0.381138
0.132360 -0.008973 0.495671
0.101315 0.380891 0.319178
-0.135846 0.123722 -0.484727
0.283250 -0.466383 0.170897
-0.251674 0.452419 -0.211358
0.103250 -0.322571 -0.381369
-0.187853 0.299930 0.395931
0.174296 -0.142777 -0.479057
0.191247 -0.281655 0.408203
-0.144209 -0.149606 0.472771
0.188842 0.012038 0.495745
-0.149000 -0.424355 0.257498
-0.255468 -0.496347 0.033024
-0.027678 0.352351 -0.354585
0.117741 -0.381092 -0.322104
0.009546 0.380044 0.320165
0.139798 -0.296375 0.397591
0.131790 0.095747 -0.490973
-0.199700 0.274159 -0.418182
-0.274811 0.177536 0.463237
0.066776 -0.111181 -0.487439
0.067227 0.428614 -0.256546
0.057589 -0.336505 0.364660
0.146052 0.339245 -0.367344
-0.076330 -0.390445 -0.310743
0.058234 0.030445 -0.499321
-0.235501 -0.199209 -0.458328
0.087954 -0.229741 -0.443685
-0.261705 -0.198600 -0.458602
-0.179168 -0.287197 0.404515
0.157029 -0.392953 0.303063
0.136244 0.498016 -0.023026
-0.096375 -0.172699 -0.469021
-0.161220 -0.137404 -0.480697
-0.252843 0.268710 -0.421780
-0.256117 -0.492785 -0.070088
-0.275612 0.230945 0.439237
0.211651 -0.298178 0.396231
0.020730 -0.461363 -0.188318
0.207370 -0.419795 0.264977
-0.082797 -0.316339 0.382067
-0.002279 0.462725 -0.187731
-0.066150 -0.482449 -0.123895
0.072199 0.488303 0.097861
-0.286601 0.390195 0.308079
-0.218834 0.465064 0.177545
-0.147750 -0.450836 -0.212746
-0.094354 -0.150557 -0.476683
0.116741 0.145413 0.474212
0.181407 -0.226789 -0.445240
-0.057371 -0.474462 -0.152216
0.140374 0.345749 0.356951
-0.072907 0.005209 0.495927
-0.099002 -0.363936 0.337186
0.158357 -0.001896 -0.500239
0.082863 0.472739 0.155828
-0.109159 -0.373475 0.326653
0.124513 -0.410175 -0.283878
-0.158251 -0.147763 0.473406
0.253689 0.265437 -0.423940
0.133998 -0.077235 0.489698
0.143027 0.272221 -0.419462
-0.261828 0.384804 -0.318922
0.068933 0.382389 0.317432
-0.287632 0.385091 -0.318562
0.105880 -0.217103 0.445700
-0.128244 -0.352171 0.349409
0.214706 0.424243 0.259768
-0.253526 0.496894 0.037171
0.117314 0.467755 -0.174326
0.182355 0.395268 0.301355
0.248747 0.138866 0.476210
-0.145414 0.376969 0.323749
-0.289408 0.124591 -0.484487
-0.050512 0.436159 -0.243563
-0.174241 0.383193 0.316496
0.141432 -0.405485 0.286130
0.000347 -0.495333 0.044018
0.017041 -0.133860 -0.481778
-0.212764 -0.316068 0.382299
0.131062 0.400819 0.293997
0.248117 -0.497393 -0.008457
0.252899 -0.063777 -0.496066
0.173059 -0.382508 0.316163
0.271620 0.315898 -0.387678
0.003568 -0.394653 0.300931
0.172562 -0.375147 -0.329032
-0.287970 -0.387410 -0.314740
-0.027737 0.433626 -0.248324
0.265168 0.301973 -0.398494
-0.203831 0.126272 0.479743
-0.205330 -0.493605 0.060009
-0.226559 -0.000942 -0.500222
0.149357 -0.238673 -0.438982
-0.140532 0.490766 0.086102
-0.155288 0.497471 0.030052
-0.025424 -0.486002 0.104245
0.078383 0.434005 -0.247654
-0.031983 0.242497 -0.437411
0.230063 -0.487975 0.095269
0.098494 0.475648 -0.151183
0.080140 -0.085045 -0.492711
0.015008 0.440930 0.230575
-0.182932 -0.490498 0.080611
0.207252 0.473320 -0.158815
-0.153689 0.497589 -0.032552
-0.086009 0.152346 -0.476532
0.237323 -0.470221 -0.164510
0.051949 -0.187526 -0.463457
-0.009669 -0.494340 -0.059338
0.054106 -0.278907 -0.414390
0.193991 -0.384697 0.313417
0.065751 0.497718 -0.029666
0.254775 0.060046 -0.496686
-0.278293 0.057566 -0.497045
0.096280 -0.379632 -0.323805
-0.154627 0.385764 0.313500
-0.210577 -0.117496 0.481809
-0.142193 0.497592 -0.032470
0.063230 -0.023338 0.495413
-0.041936 0.416233 0.271901
0.172390 -0.220218 -0.448699
0.004265 0.008003 0.495926
0.006398 0.409621 -0.286036
0.179320 0.490308 -0.092022
0.075302 -0.135943 -0.481143
-0.045613 0.468228 -0.173066
0.204951 0.498244 -0.017931
-0.178198 -0.144847 -0.478425
0.015070 0.331064 0.370252
-0.027070 -0.255137 0.425222
0.144614 0.304726 -0.396418
-0.143137 0.319188 0.380575
0.285447 0.447410 -0.222194
0.179039 -0.496401 0.031821
-0.244124 0.441013 -0.234344
-0.213930 0.291759 -0.406200
-0.021729 0.389925 0.308436
-0.204647 0.498491 0.000046
-0.102350 -0.156868 0.470266
0.202481 0.494485 -0.065700
-0.170214 -0.039843 0.494123
0.190350 0.306641 -0.394973
-0.114719 -0.308178 0.388687
-0.099315 0.449285 -0.218343
0.020568 -0.497074 0.016821
0.282654 -0.221157 0.443702
0.082212 -0.452541 -0.209286
-0.184463 0.496679 -0.045396
-0.265136 -0.407541 0.283191
-0.224710 -0.273268 0.413741
0.177264 -0.494628 0.050541
-0.211311 -0.359547 -0.346156
-0.039445 0.110605 -0.487860
-0.110350 -0.088770 0.487867
0.090490 -0.301935 0.393396
-0.152623 -0.488132 -0.098134
0.225185 0.095165 0.486791
-0.283595 0.498598 -0.005881
-0.166730 -0.365286 0.335695
-0.250686 0.428260 -0.257126
0.235520 -0.484355 -0.116164
-0.138904 -0.195655 -0.459923
0.213563 -0.085531 0.488497
-0.246193 0.136541 -0.481188
0.203401 -0.376761 -0.327150
-0.223384 -0.396693 -0.302461
-0.288650 0.493486 0.067975
0.160317 0.139801 0.475925
0.237380 -0.223036 0.442776
0.268000 -0.425241 -0.260695
0.188488 -0.187686 0.458841
0.004946 -0.089354 -0.491969
0.112892 0.413144 0.276581
0.251260 -0.483854 0.113285
-0.159760 -0.496558 0.028320
0.088240 0.137975 0.476482
-0.227766 -0.490839 -0.083541
0.153035 -0.433775 -0.245813
0.224118 0.161598 0.469218
-0.153217 0.280259 0.409808
-0.263604 -0.314043 -0.388214
-0.187123 0.006930 -0.500080
-0.096464 -0.420862 -0.267691
0.195509 0.449214 0.213765
0.068467 0.467227 0.171809
-0.006841 -0.089563 -0.491933
0.266458 -0.224752 -0.446312
0.012262 0.347890 0.354829
-0.165842 0.226885 -0.445738
-0.032062 0.491162 -0.087059
-0.236198 -0.308622 -0.392536
0.060498 -0.359656 -0.346044
0.098824 -0.398646 -0.299872
0.276390 0.343158 0.359299
-0.082712 0.151008 0.472505
-0.034009 0.401700 -0.297362
-0.117258 0.158768 0.470137
-0.288811 -0.172241 0.464963
-0.238704 -0.317195 -0.385701
-0.176782 0.477787 -0.144174
0.103987 0.233395 0.437947
-0.047785 -0.458385 0.191427
0.209389 -0.377572 0.322130
-0.015695 0.498641 -0.008242
0.282092 0.077561 0.489822
-0.258489 -0.045109 0.493697
-0.161472 0.034218 0.494750
0.005852 0.498167 0.018048
0.284369 0.479895 0.132508
-0.006820 0.205157 -0.456338
0.141437 0.438896 0.234317
-0.020643 -0.122304 -0.484796
0.279912 0.460346 0.188862
0.097836 -0.331586 -0.373205
0.164313 0.089825 -0.492214
-0.007845 0.441366 0.229692
-0.273911 -0.378013 0.321644
0.117507 -0.023105 0.495417
-0.157360 0.498456 0.001987
-0.218361 0.428559 0.252342
-0.191505 -0.161142 -0.473358
-0.138601 0.194982 0.456332
0.120847 -0.496873 0.021312
0.091468 0.071420 0.490879
-0.129714 0.491283 0.083198
-0.011951 0.403465 -0.294837
0.095760 0.430606 -0.253277
-0.086472 0.430318 -0.253750
-0.198490 0.477589 -0.144822
-0.175242 0.029778 0.494949
0.013639 -0.457756 0.192827
-0.173743 -0.177477 0.463098
0.258505 0.498613 -0.009714
0.174712 0.159970 0.469771
-0.044002 -0.160810 -0.473482
-0.264022 -0.261022 0.421825
0.209547 -0.447558 0.215553
-0.033803 -0.110590 0.483296
-0.018610 -0.065771 -0.495851
0.244311 -0.005457 -0.500303
0.251335 -0.485591 -0.110264
-0.036127 0.068317 0.491333
0.140944 0.328934 -0.376492
0.006028 0.359931 -0.347092
0.248990 0.037313 -0.498765
-0.182653 0.187087 -0.463871
0.224209 -0.380419 -0.322887
-0.233748 0.284650 0.406737
0.088541 -0.348536 -0.357466
0.087178 -0.006091 0.495723
-0.122545 0.208146 0.450424
-0.064789 0.052600 -0.497526
-0.289798 -0.190632 0.457613
-0.174465 -0.165678 -0.471656
-0.213238 0.468637 -0.171977
0.037041 -0.195678 0.455509
-0.135021 0.461281 0.186619
-0.179338 0.178480 0.462883
-0.045564 -0.182030 0.461199
-0.247897 -0.174906 0.464043
-0.087238 0.410324 -0.285031
0.258220 -0.483828 -0.118682
-0.257657 -0.474441 0.147428
0.227695 0.314198 -0.389136
-0.280985 0.470960 0.160987
0.222302 0.485649 -0.114400
-0.203251 0.361991 0.340345
0.199879 -0.495586 0.041674
-0.226528 0.496067 0.047383
0.205100 -0.291855 -0.405335
0.045937 0.360777 -0.346159
-0.190948 0.417946 0.269306
0.087372 0.397532 -0.302959
0.057067 -0.269802 0.416029
-0.267315 -0.435112 -0.243481
-0.034913 0.219110 0.445469
0.084487 0.263154 0.420881
-0.013707 -0.037908 -0.498862
-0.061020 -0.222211 0.443183
0.134194 0.130096 0.478834
-0.163553 -0.059917 0.492203
0.220205 0.307822 -0.394082
0.097715 -0.192501 -0.461339
-0.019291 -0.014672 0.495569
0.115994 0.354061 0.348491
0.275763 0.265785 -0.423711
0.202767 -0.484871 -0.113705
0.259316 -0.343628 -0.362298
0.221489 0.201886 0.453234
-0.022456 -0.244415 -0.435959
0.128451 -0.179554 0.462232
0.143667 0.476915 0.143301
-0.194617 0.279765 0.410153
0.051240 0.311579 0.386643
0.275880 -0.396022 0.299215
-0.223403 0.073390 0.490540
-0.063125 0.168617 0.466584
-0.250700 0.489078 0.094159
0.222084 0.423321 -0.265228
-0.103990 0.359486 0.342918
0.233308 -0.370954 -0.333918
-0.277997 -0.480290 0.128258
-0.156656 -0.245065 -0.435617
-0.051772 0.498467 0.001408
0.186794 -0.401934 -0.295513
-0.195542 0.212207 0.448602
0.159874 0.486792 -0.109587
-0.058286 -0.044391 -0.498161
0.166141 0.414922 -0.278456
0.111856 -0.071983 0.490457
-0.163130 0.432431 0.245590
0.175972 0.125166 -0.484328
-0.143476 0.498477 0.000817
-0.171270 -0.448889 -0.216698
0.183981 -0.274053 0.413222
0.162946 -0.262946 -0.424737
-0.162294 -0.211593 -0.452771
0.092664 -0.447652 0.215343
0.263230 -0.192964 -0.461131
0.067787 -0.406767 0.284297
0.232022 -0.178370 0.462725
0.133649 0.478417 0.137862
0.264205 -0.485804 0.105082
0.081425 -0.445250 -0.224083
-0.147440 -0.093538 -0.491249
-0.147433 0.263499 0.420671
-0.176857 -0.401206 0.292248
0.113630 0.066117 0.491571
-0.164051 0.351870 -0.355053
-0.269555 0.496412 -0.047864
-0.094290 0.494701 -0.063702
0.125052 0.003402 -0.500144
0.125731 -0.240471 -0.438035
0.176558 -0.104843 0.484500
0.147935 -0.356744 0.344957
0.269713 0.428114 0.253119
0.111909 0.423318 0.261170
-0.248542 -0.305669 0.390579
0.270828 0.437990 -0.240085
-0.042790 -0.432607 0.243961
-0.016455 0.000365 0.495840
0.119056 -0.345239 0.356157
-0.009322 -0.047974 0.493465
-0.203405 0.382884 0.316856
0.213618 -0.267393 -0.422025
-0.078281 0.089457 0.487774
0.135267 0.456880 -0.201417
0.146784 -0.186312 -0.463913
0.246474 -0.212888 0.447777
-0.133722 0.063246 0.491881
0.102342 0.458655 0.192918
-0.050223 -0.312532 0.385333
0.090616 0.317984 0.381536
-0.208908 0.441624 -0.233184
0.142956 -0.418866 0.266500
-0.168068 0.442807 0.226766
-0.173954 0.063875 -0.496132
0.126240 0.490068 -0.093416
0.035764 0.106830 -0.488651
-0.143466 -0.484947 -0.113341
0.286876 0.498019 -0.022948
-0.074835 -0.005697 0.495730
-0.052854 -0.431490 0.245792
0.064580 -0.305024 -0.395406
-0.154110 0.495012 -0.060817
-0.132779 -0.493388 0.062014
0.278606 -0.015877 -0.499880
-0.287397 -0.403739 -0.293121
0.108042 0.307633 0.389789
-0.003730 0.407699 -0.288784
0.111821 0.383248 -0.320874
-0.244910 0.207810 0.450575
0.213997 -0.420316 -0.268517
0.193622 0.493473 -0.073637
0.193597 0.292142 0.401497
-0.122968 -0.471615 -0.160470
0.283169 0.102644 0.485358
0.145733 -0.479718 0.130135
-0.113922 -0.497543 0.006365
-0.047301 -0.492702 -0.070659
-0.120280 0.464751 -0.182332
0.166264 -0.485104 -0.112592
0.249828 -0.015836 -0.499882
0.173595 -0.475423 0.144211
0.258388 0.331625 0.369744
0.074710 -0.159953 -0.473804
-0.029830 -0.222704 0.442940
0.064667 0.321341 0.378859
0.119817 -0.155266 0.470818
-0.133338 0.174071 -0.469038
-0.286745 0.120097 0.481210
-0.031340 0.459215 0.191575
-0.233892 0.462432 0.183858
-0.268094 0.103696 -0.489308
0.251538 -0.089978 0.487614
-0.143126 0.479315 -0.139166
-0.080081 -0.044414 -0.498159
0.075864 0.401099 -0.298222
-0.277483 -0.496383 0.032237
0.161659 -0.192013 0.457037
-0.283007 0.320731 0.379345
0.191034 -0.493504 0.060943
0.032929 0.078047 0.489738
0.022455 -0.191362 0.457309
-0.086048 -0.418293 0.267441
-0.181266 -0.352629 0.348963
-0.239602 0.451882 0.208351
0.257056 0.496805 0.038270
0.103317 0.496359 0.043774
0.080393 -0.376987 -0.326887
0.128183 0.193777 0.456872
-0.059703 0.497888 0.024907
0.070742 -0.236779 -0.439979
0.025456 0.493980 0.064559
0.196287 -0.351630 -0.354288
-0.201946 0.201666 -0.457793
-0.019572 0.337799 0.364152
0.046022 -0.400701 0.292971
-0.149777 0.209756 -0.454179
0.145526 -0.397116 -0.301900
-0.006151 -0.066759 -0.495744
-0.287515 -0.497367 0.010289
-0.223826 -0.051690 -0.497373
-0.122071 0.415971 -0.276956
0.019681 -0.494952 0.047538
-0.289561 0.210509 0.449364
-0.115558 -0.305266 -0.395213
0.285199 0.236342 -0.440941
0.132206 -0.393302 -0.306956
-0.019434 -0.220684 -0.448454
0.246910 -0.491412 -0.079573
0.133823 -0.440404 0.229200
-0.233771 -0.497561 0.000874
-0.040878 -0.354482 0.347159
0.075037 -0.401021 0.292514
0.213557 0.452135 -0.211991
-0.071541 -0.396070 0.299154
0.027867 0.468453 0.168253
-0.093043 0.097903 0.486320
-0.153547 -0.125717 -0.483985
0.194284 0.362227 0.340102
-0.192419 0.468777 0.167314
-0.126143 -0.310640 -0.390928
-0.094832 -0.361126 -0.344534
-0.046625 0.356057 0.346440
0.203946 0.466397 0.174214
0.140403 -0.490089 -0.088724
-0.210796 -0.045571 -0.498034
-0.113937 0.366860 -0.339442
-0.229084 -0.487194 -0.102615
-0.007264 -0.321601 -0.382187
0.262583 0.037573 -0.498744
0.155794 0.497806 0.025922
0.163076 -0.272847 0.414018
0.286511 0.216759 -0.450728
0.048561 -0.303334 -0.396753
0.122263 0.478967 -0.140307
0.192343 0.390272 0.307977
-0.159588 -0.149569 -0.476985
0.076277 0.141081 0.475534
0.078045 0.251576 0.427940
0.264962 0.298852 0.396791
-0.283269 0.074600 0.490332
0.017604 0.195976 0.455886
0.067264 0.110824 0.483414
-0.128231 -0.214669 -0.451391
0.273318 -0.340720 -0.364931
0.245304 0.460875 -0.192515
0.009978 0.492739 -0.077901
0.133592 0.231741 -0.443345
0.146084 -0.094816 0.486600
-0.171017 0.042744 0.494097
0.285451 -0.425100 0.256275
-0.236253 -0.356428 -0.349359
-0.119543 -0.411818 -0.281391
0.027964 0.462953 -0.187125
0.000804 -0.267370 -0.422040
0.218182 0.321645 0.378616
0.216878 -0.112717 0.482850
0.048486 -0.119715 -0.485411
0.127263 -0.462462 0.181348
-0.041587 -0.063212 0.491726
-0.284042 0.068192 -0.495507
0.015275 -0.476177 -0.146617
-0.237790 -0.275054 0.412561
0.170628 -0.334750 0.366268
-0.112032 -0.215448 0.446515
-0.034843 -0.452914 -0.208529
0.016136 -0.473221 0.151427
0.223756 0.450973 -0.214580
-0.060907 0.458310 -0.198230
-0.184016 -0.052095 -0.497329
-0.111754 -0.481122 0.124784
0.167114 -0.412909 -0.279738
0.105720 -0.485328 0.107085
0.159170 -0.395425 -0.304141
-0.029953 0.159703 0.469852
0.123806 0.463606 0.181042
-0.287778 0.240529 0.434191
-0.262526 0.498325 0.009292
-0.268252 -0.457145 0.194190
0.285731 -0.492740 -0.070400
-0.266523 0.358493 0.343938
0.038055 -0.337123 0.364058
-0.202996 0.471150 0.160435
-0.243689 -0.455467 0.197928
0.226232 0.437570 -0.240883
-0.235346 -0.202078 0.452841
-0.173780 0.401114 -0.298199
-0.179835 -0.307521 -0.393415
-0.148637 -0.014133 -0.499959
0.260029 0.154036 -0.475949
0.065082 -0.432121 -0.248698
-0.180763 -0.469796 0.161804
-0.117150 0.234139 0.437556
-0.053146 0.002429 0.495877
0.085441 -0.497339 0.010919
0.171538 -0.294696 -0.403348
-0.081237 -0.252404 -0.431163
-0.014456 -0.399936 0.294065
-0.256521 -0.367345 -0.338124
0.060902 -0.462125 0.182245
-0.215353 0.380236 0.319942
-0.151242 0.236968 0.436066
-0.174276 -0.398139 -0.300544
0.098588 -0.490102 -0.088632
0.123950 -0.313707 -0.388482
0.252424 -0.263557 -0.424364
0.048787 -0.388923 -0.312760
0.157364 0.218634 0.445718
-0.037526 0.423720 -0.264574
-0.102940 -0.459054 -0.193856
0.275128 -0.167813 -0.470854
-0.209539 0.495643 -0.054982
0.276288 0.302296 0.394045
-0.060955 0.401279 0.293387
-0.183021 -0.196489 -0.459549
-0.129650 -0.466685 -0.174761
-0.219448 -0.007386 0.495700
0.003417 0.458028 0.194422
-0.040771 0.058776 0.492364
0.260082 0.135111 -0.481583
-0.259010 0.163897 0.468355
-0.195161 -0.426318 -0.258818
0.044860 0.080720 0.489278
0.033123 0.078994 -0.493945
0.073899 -0.001002 -0.500223
0.033283 0.300048 -0.399947
0.271700 -0.463753 -0.182586
0.098343 0.338926 -0.367654
0.154459 0.197239 0.455319
0.252961 -0.040951 -0.498533
-0.085633 -0.368107 0.332581
0.160072 0.254454 -0.430554
-0.226591 -0.160974 -0.473420
0.053857 -0.089697 0.487672
0.055331 0.497416 -0.036401
-0.024807 -0.456528 -0.199915
-0.012342 0.481044 -0.133501
-0.094252 0.492541 0.074501
-0.147339 0.140362 0.475753
-0.123711 -0.045851 0.493637
-0.256220 -0.434648 0.240133
-0.267500 0.174620 -0.468849
-0.059473 0.230500 -0.443957
-0.154985 0.471226 -0.165077
0.106305 -0.080839 0.489176
0.125885 -0.284007 -0.410823
0.125203 -0.491573 -0.078462
-0.272357 0.014415 0.495638
0.141016 0.032847 -0.499127
-0.242032 0.487327 0.102516
0.013239 -0.479574 -0.134311
-0.127889 -0.185344 0.459817
0.154396 0.498264 0.012641
0.229497 -0.486216 -0.107281
0.068284 -0.396168 0.299031
0.269411 -0.487953 -0.098991
0.040959 0.495997 0.048238
-0.169530 -0.497354 -0.010621
-0.037409 -0.261829 0.421292
0.148159 -0.453088 0.203230
0.177708 -0.261828 -0.425418
0.202637 -0.340550 -0.365086
0.205615 0.138812 -0.480561
0.053510 0.496416 0.043068
-0.118951 0.471509 -0.164321
-0.080640 -0.134961 -0.481442
-0.232905 0.248829 0.429614
-0.194215 0.401982 -0.296958
-0.070772 0.368523 0.333592
-0.032287 -0.154009 -0.475630
-0.111309 -0.494161 0.054864
-0.168656 -0.050362 0.493271
-0.223184 0.196419 -0.459981
0.119161 0.091509 0.487421
0.090779 0.441130 -0.234123
-0.198549 -0.022377 0.495430
0.190340 0.497324 0.031870
-0.109737 -0.102132 0.485067
-0.257712 -0.363428 0.337746
-0.226589 0.357620 0.344834
-0.060328 0.076675 -0.494280
-0.004404 -0.347034 -0.359009
-0.245729 0.484678 -0.118486
-0.116491 0.361178 0.341179
-0.201987 0.032070 0.494847
-0.129160 0.149386 0.473000
-0.011448 -0.113815 -0.486813
-0.284750 -0.491474 -0.079145
-0.145339 -0.059318 0.492289
0.235259 0.232450 -0.442996
-0.080388 0.476571 0.144548
0.182799 -0.473938 -0.153737
0.125857 0.044565 0.493900
0.034602 0.494939 -0.061495
-0.241956 -0.477846 -0.140570
0.176182 0.010680 0.495806
-0.288319 0.309840 0.388029
-0.203510 0.491021 0.084883
-0.051561 0.496614 0.040624
0.264339 -0.319769 0.379123
-0.132756 0.002124 -0.500167
0.046215 0.489216 -0.098364
-0.274991 0.140407 -0.480121
-0.156159 -0.363353 0.337829
0.120169 0.273442 0.414576
0.184146 -0.460338 0.187009
0.158759 0.414992 0.273781
-0.030137 -0.402202 0.290824
-0.072055 -0.493402 0.061888
-0.063220 0.383879 0.315696
0.103853 0.075310 0.490209
0.050757 -0.297623 0.396650
0.109970 0.386171 0.313025
-0.017912 0.282089 0.408528
-0.276566 -0.384815 -0.317764
-0.215867 -0.026462 -0.499406
0.202926 0.306226 0.390911
-0.148821 0.247069 0.430687
0.215924 -0.179483 0.462261
0.221801 -0.480931 -0.129396
-0.154520 0.302241 -0.398292
-0.157870 0.487159 -0.108043
-0.106606 -0.389886 -0.311483
0.145797 0.492124 0.077387
0.059533 -0.004102 0.495759
0.127076 0.358095 0.344347
0.173712 0.477195 0.142288
0.217237 -0.432147 -0.248653
-0.202089 0.246946 -0.434860
0.075796 -0.411521 0.277501
0.133148 0.272125 0.415412
-0.285084 -0.378320 -0.325333
0.167404 0.201411 -0.457900
0.173590 -0.481359 -0.127844
0.257817 -0.241312 -0.437592
-0.271704 0.467073 -0.176144
-0.278155 0.400006 0.295074
-0.128484 -0.165585 -0.471690
0.247331 0.326947 -0.378196
0.091753 0.204325 -0.456685
-0.224496 0.241844 0.433499
-0.288469 -0.215038 -0.451225
-0.101996 -0.197321 -0.459176
0.246831 0.397806 -0.302616
0.277637 0.486770 0.105177
0.085580 0.493273 -0.074799
-0.181299 0.434411 0.242138
-0.171588 -0.227110 0.440769
-0.029948 0.497651 0.027825
0.135736 0.426106 -0.260659
0.232871 -0.046516 -0.497932
-0.075726 -0.262105 0.421110
-0.107308 -0.278944 -0.414364
-0.085482 -0.431248 0.246189
-0.022632 0.121433 0.480893
-0.196297 0.442907 -0.230747
0.191209 -0.476195 -0.146553
-0.289620 -0.497099 -0.024780
-0.083857 0.497710 -0.029857
-0.048080 -0.022498 -0.499583
-0.056006 0.384940 -0.318751
0.067848 0.495049 0.057166
0.258239 0.497888 -0.025869
-0.289176 0.492580 -0.078824
0.253707 0.202458 -0.457463
0.052315 -0.169968 0.465747
0.071633 -0.273594 0.413525
0.024156 0.068982 -0.495393
0.168788 -0.116583 0.482040
0.243722 0.097591 -0.490587
-0.205610 0.440696 0.231051
0.142672 -0.435652 -0.242540
-0.004052 -0.353219 0.348389
0.215418 -0.457440 -0.197729
-0.252386 -0.329624 -0.374981
0.096524 0.421980 0.263197
-0.289002 -0.223230 0.442681
-0.139979 -0.325305 0.374373
-0.243695 -0.495753 0.040129
0.242977 -0.489620 -0.091034
0.170942 -0.038130 -0.498838
-0.045771 0.338473 -0.368095
0.247164 0.180827 -0.466481
-0.159917 0.421218 -0.268677
0.267454 0.498100 0.021761
0.105136 -0.495743 0.040223
0.207783 -0.046165 0.493611
-0.086259 0.461448 -0.191135
-0.161702 -0.400441 -0.297493
-0.056140 0.476657 -0.147878
0.097427 0.237822 -0.440092
0.277926 0.058576 -0.496899
-0.238085 -0.166122 -0.471489
0.051729 0.445207 -0.226379
-0.098445 0.416366 0.271701
-0.008020 0.253551 0.426736
-0.089218 0.440366 -0.235573
0.078881 0.344325 0.358241
-0.167280 -0.383590 0.314806
-0.271542 0.365722 0.336512
0.200685 0.369320 -0.336726
0.050247 0.484565 0.115589
0.178727 -0.123250 -0.484571
-0.228772 0.498406 0.004803
0.091003 0.227971 0.440803
-0.264034 -0.496868 0.021412
0.099889 0.469233 -0.170387
0.152274 0.069250 -0.495354
-0.203281 -0.419603 0.265291
-0.224469 -0.406197 0.285113
0.249895 0.215457 -0.451370
-0.161504 0.058127 -0.496964
0.071712 -0.496496 0.029702
-0.209097 -0.470981 -0.162308
-0.019391 0.498388 0.005750
-0.266625 -0.241214 0.433206
-0.075050 -0.223007 -0.447231
0.113220 -0.256586 0.424391
-0.184606 -0.362703 -0.342915
-0.098270 -0.437338 -0.239599
-0.279756 -0.443229 -0.228184
0.238175 0.498284 -0.017047
0.237669 0.205961 -0.456003
-0.158811 -0.323043 -0.380942
-0.086050 -0.235051 0.436740
0.119947 -0.472132 0.154995
-0.157078 -0.455465 0.197932
-0.225231 0.258301 -0.428348
0.014728 0.103800 0.485083
0.026235 -0.231535 -0.442740
0.285743 -0.487711 -0.100146
0.272265 -0.287554 0.404246
0.286819 -0.466253 -0.176013
-0.235310 0.476918 -0.147023
0.203309 -0.338701 0.362522
-0.087731 -0.349424 0.352083
0.117685 -0.008276 0.495684
0.126231 -0.497356 0.010528
-0.061299 0.127895 0.479357
-0.115366 -0.447311 -0.219899
-0.102198 -0.176555 0.463475
0.120722 -0.048686 -0.497697
-0.210432 -0.059467 -0.496532
-0.010095 0.234906 -0.441764
0.051460 0.401041 -0.298303
-0.037643 0.498193 0.016624
0.198365 -0.263120 0.420440
0.265587 -0.443534 0.223257
-0.008653 0.007876 0.495932
0.141888 0.372842 -0.332838
0.027040 -0.211983 0.448223
-0.286085 0.280827 -0.413780
-0.281668 -0.091807 0.487230
0.118303 -0.327957 0.372097
0.074033 0.461260 0.186670
-0.129505 -0.197264 0.454848
-0.247700 -0.472229 -0.158690
-0.208609 -0.266254 0.418371
-0.202284 -0.266641 -0.422484
0.135279 0.171736 -0.469844
0.133306 -0.496579 0.027866
-0.233438 0.079069 0.489562
0.075854 0.324345 -0.380429
0.061199 -0.466896 -0.174149
0.177288 -0.476872 -0.144100
0.058514 -0.494229 0.054231
0.263198 0.392559 -0.309196
-0.246414 -0.065936 0.491332
-0.108971 -0.495705 0.040573
0.106938 0.199963 -0.458503
-0.149093 0.422396 -0.266744
0.210873 0.418753 -0.272719
0.093793 0.497915 -0.025270
0.207357 -0.037969 -0.498855
0.067632 0.301946 -0.398515
-0.142646 0.035352 -0.498924
0.230049 -0.496681 0.025594
-0.201119 -0.067179 0.491152
0.223313 0.482921 -0.125878
0.006309 0.297999 0.397401
0.252511 -0.221254 0.443655
-0.285261 -0.489857 0.084339
0.050421 0.465329 -0.180793
-0.288444 -0.497482 -0.003555
0.092450 -0.483837 0.113358
-0.069804 0.420288 0.265759
0.186871 0.174133 -0.469017
-0.041955 0.493537 0.067619
0.090069 -0.048085 0.493456
0.246323 0.169582 -0.470587
-0.039644 0.299976 0.395895
-0.202756 -0.145533 -0.478216
0.282454 0.495767 -0.053837
-0.256927 -0.040779 -0.498552
-0.169702 -0.205426 0.451445
-0.266954 -0.494023 0.056133
0.285105 0.498364 0.007123
0.237490 -0.481857 0.121688
0.239572 0.491005 -0.087973
-0.219700 -0.485897 -0.108805
0.112882 0.361199 -0.345692
-0.238443 -0.269907 -0.420493
-0.099171 0.443558 -0.229510
-0.040505 -0.387608 0.309767
-0.044066 0.429800 -0.254600
-0.207153 0.301244 0.394884
0.204018 0.334168 0.367441
0.015194 -0.320528 0.378472
0.117694 -0.145343 0.474122
0.141034 0.131087 -0.482694
-0.224693 0.059698 0.492265
0.002196 -0.353554 -0.352312
-0.004492 0.366971 0.335230
0.044205 -0.495424 -0.047025
-0.127839 0.410633 0.280384
0.115017 0.392107 -0.309763
-0.212102 0.390880 0.307170
0.172984 0.343747 -0.362961
0.162962 -0.076449 -0.494190
-0.176610 -0.338578 0.362642
-0.108392 -0.337217 -0.368104
-0.038652 0.151835 -0.476709
-0.194765 0.142103 0.475222
0.235148 -0.207091 -0.454791
0.282782 -0.234668 0.436960
-0.191769 -0.458920 0.190233
0.069223 -0.453769 0.201713
-0.095034 0.069568 0.491198
-0.097021 -0.433997 0.241370
-0.190585 -0.183751 -0.464874
0.280738 -0.294102 0.399306
-0.103874 0.401524 -0.297613
-0.210957 -0.496619 0.026966
0.272256 -0.491727 0.073472
-0.066583 0.189048 -0.463054
0.055151 -0.373875 0.326213
0.224898 0.071160 0.490924
-0.213382 -0.431042 -0.250579
0.240271 0.289408 -0.407974
0.037148 0.066452 -0.495759
0.191944 -0.054819 0.492910
-0.098297 0.340363 -0.366256
0.072770 -0.421616 -0.266549
0.216203 0.282631 -0.412589
-0.119684 0.207863 -0.455112
0.081493 0.461900 -0.189930
-0.042624 -0.087743 -0.492246
-0.129747 0.231823 0.438775
0.271920 -0.496237 0.035483
-0.089661 -0.249092 0.428688
-0.207045 0.415209 -0.278046
-0.064716 0.313751 0.384911
-0.288111 0.007845 0.495933
-0.031552 -0.013485 0.495590
0.240771 0.371565 -0.334247
-0.250783 -0.495549 -0.045481
-0.039354 -0.303286 -0.396792
-0.043002 0.351521 -0.355393
0.260643 -0.210748 0.448831
0.056612 -0.436902 0.235851
0.143230 -0.269232 0.416405
-0.203490 -0.340943 0.360339
0.285835 -0.178418 0.462705
0.010570 -0.430674 0.247131
0.110247 -0.493621 -0.064308
-0.272787 0.479348 0.134490
0.219115 -0.016551 -0.499850
0.120806 0.319090 0.380654
0.239486 0.487653 0.100960
0.028934 0.402917 0.291215
0.191366 -0.176266 0.463574
0.262553 0.252572 0.427332
-0.256804 -0.446219 0.218158
-0.289480 -0.457480 0.193442
0.002657 -0.236443 0.435942
0.227054 -0.419207 0.265942
0.160055 -0.284305 -0.410615
0.165582 -0.147289 0.473570
-0.141794 0.493681 -0.072432
0.100555 0.017175 -0.499895
-0.241796 -0.494409 0.052564
-0.090612 0.272439 -0.419317
0.098783 -0.351679 -0.354238
-0.052826 -0.326942 -0.377410
0.034918 -0.437000 0.235665
0.129462 -0.360605 -0.345070
0.193268 0.208565 0.450236
0.201195 -0.047449 -0.497831
0.219229 0.286678 0.405318
-0.212070 -0.334939 0.366106
-0.065166 -0.458281 -0.195710
-0.086356 0.380258 0.319916
-0.261337 -0.483952 -0.118087
-0.129420 0.290366 -0.407251
-0.241879 0.030955 -0.499280
-0.275858 -0.494804 0.048913
0.225486 -0.483696 -0.119313
0.068221 0.480946 -0.133821
0.181746 -0.133550 -0.481872
0.092728 -0.474040 0.148742
-0.152804 -0.497619 0.004671
-0.240210 0.125248 -0.484306
-0.216799 -0.228820 -0.444170
0.237711 0.137921 0.476498
-0.050161 0.418726 -0.272765
0.216808 -0.285349 0.405765
-0.237770 0.343456 0.359028
-0.181782 0.469592 -0.169432
-0.074271 -0.291918 0.400953
0.248159 -0.150747 -0.476625
-0.183163 0.255373 -0.430028
0.238020 0.149906 0.472841
-0.211819 0.111260 0.483310
0.248609 0.229236 -0.444580
-0.247977 0.469946 -0.168488
-0.227269 -0.391162 0.305310
-0.182304 0.353608 0.348955
0.195534 -0.242418 -0.437010
-0.040980 -0.494052 0.055873
-0.032663 0.101294 -0.489811
-0.031496 -0.486459 -0.106120
0.004118 -0.132320 0.477717
-0.177375 0.413338 -0.280720
-0.083021 0.461362 0.186425
-0.113070 0.306804 0.390450
0.154322 0.401159 0.293545
-0.026026 -0.351689 0.349878
-0.086574 0.295827 0.398920
-0.224592 0.137527 0.476618
-0.241039 -0.386992 0.310539
0.003549 0.031752 0.494861
-0.162316 -0.168132 0.466380
0.161986 0.388590 -0.314173
-0.160836 -0.257851 0.423666
-0.107997 0.486561 -0.110562
-0.242904 0.334027 0.367568
0.062327 -0.497309 -0.013133
0.182425 -0.342909 0.358426
0.106798 0.473568 -0.158001
-0.254403 -0.475155 -0.150208
0.068375 0.123333 -0.484834
-0.185857 -0.017091 0.495525
-0.052817 -0.441515 -0.231663
-0.054425 0.145480 0.474192
-0.057884 -0.199572 -0.458166
-0.065858 0.391491 0.306361
-0.260138 -0.340878 -0.364789
-0.008186 0.135342 0.477285
-0.251861 -0.492155 0.070988
-0.064382 0.491995 0.078280
0.114954 0.164324 0.468195
-0.156536 -0.439727 -0.235291
-0.272336 -0.496616 -0.032309
0.022900 -0.241938 -0.437263
-0.248696 0.257771 -0.428652
-0.153920 -0.258769 -0.427283
0.114051 -0.487762 0.096507
-0.028878 -0.024203 -0.499507
0.036760 0.234209 0.437519
-0.119358 -0.465256 0.173901
-0.152985 0.040233 -0.498528
0.181173 -0.292127 0.400796
0.104979 0.392785 0.304646
0.219405 -0.472441 -0.158075
0.268836 -0.279461 0.409652
0.040104 0.293340 -0.405007
0.185703 0.476377 0.145251
0.244654 -0.487499 -0.101159
0.135312 -0.066574 0.491240
-0.271326 -0.364226 0.336866
-0.129834 0.180726 0.462040
-0.052536 -0.415367 -0.276014
-0.258096 -0.189204 0.458208
0.193623 0.494775 0.059065
-0.256506 -0.481135 -0.128658
0.147703 -0.366100 0.334797
0.263935 0.463468 -0.185750
-0.266560 0.204532 0.452046
-0.079832 0.401285 -0.297955
-0.246378 -0.027613 0.495114
0.156760 -0.464083 0.177028
-0.020521 0.480425 0.130587
-0.223956 0.246622 -0.435046
0.150793 -0.496376 -0.035273
-0.131774 -0.310200 0.387161
0.241538 -0.111843 0.483033
-0.176981 0.489828 0.090578
-0.116454 -0.115544 0.482258
-0.243723 0.182558 0.461353
-0.214869 0.453879 -0.208105
0.119584 0.389156 0.309456
-0.113183 -0.193329 0.456488
0.194657 -0.343165 0.358176
0.097489 0.050488 0.493260
0.032406 0.007487 0.495949
0.263290 -0.297252 -0.401560
0.031179 -0.324471 0.375088
0.257376 -0.382501 0.316171
-0.018360 -0.197153 0.454894
-0.215796 0.005910 0.495939
-0.043130 -0.099681 -0.490172
-0.133961 0.160212 -0.473819
-0.196716 0.495748 0.051320
0.159016 0.101074 -0.489857
-0.265014 -0.125900 0.479489
0.284537 -0.474614 -0.151777
0.180454 0.467996 0.169579
0.179784 0.015197 -0.499931
0.285619 0.282683 0.408113
-0.055377 -0.488551 0.091920
0.090806 0.176892 0.463479
-0.089366 0.472268 -0.162264
-0.140486 0.115980 0.482188
0.107665 -0.203247 0.452354
0.272301 0.077210 -0.494203
-0.069947 -0.495945 -0.040587
0.027668 -0.363665 0.337485
0.189685 0.128015 0.479329
0.262023 0.396382 0.299878
-0.258879 0.497918 -0.025211
0.216619 -0.190953 -0.462033
0.050393 -0.465654 -0.177750
0.026475 0.496205 0.045676
-0.108522 0.381116 -0.323548
0.224227 -0.202229 -0.456973
-0.108696 0.186475 -0.464127
0.177786 -0.439918 -0.234904
-0.264959 -0.163122 0.468108
0.052910 0.290292 0.402791
-0.211176 -0.185935 0.459571
0.258720 -0.147197 -0.477709
0.278600 0.224534 -0.446897
0.186565 0.423717 0.260564
0.284944 -0.470659 -0.163242
0.228631 0.404359 0.289304
0.091798 -0.458105 -0.196133
0.046664 -0.423959 -0.262931
-0.159539 -0.135739 0.476773
-0.106283 -0.477240 -0.142766
-0.090054 -0.440352 -0.234024
-0.286829 0.495579 0.053400
-0.136845 -0.447230 0.216237
-0.053584 0.489662 -0.095776
0.091623 0.296654 -0.402507
0.267892 0.145356 0.474230
0.033239 0.418357 0.268684
0.259132 0.441644 -0.233145
-0.023140 0.483560 0.119232
0.195558 -0.489497 0.086425
-0.071825 0.473301 0.154198
0.071515 0.452996 -0.210073
0.255105 -0.361060 0.340362
-0.263379 0.174671 0.464312
-0.174868 0.061982 0.492018
-0.172763 -0.164399 0.467668
-0.158793 -0.211162 0.448628
-0.211194 0.498244 0.013771
-0.288369 -0.458125 -0.196085
-0.288116 -0.475711 -0.148305
-0.051809 0.439465 0.233325
0.217564 -0.049961 0.493304
0.184634 0.387466 -0.315583
0.076459 -0.404454 -0.292173
0.205547 -0.286974 0.404684
0.188777 -0.495137 0.045830
-0.093895 0.498595 -0.010107
0.180939 -0.435550 0.238419
0.202575 -0.350165 0.351362
-0.000922 0.305904 -0.395529
0.160591 0.280909 0.409353
-0.061753 -0.332221 -0.372629
-0.059289 -0.482421 0.119315
-0.247213 0.444495 0.223340
-0.276595 -0.263313 0.420313
-0.054006 -0.396471 -0.302756
-0.093073 -0.189032 0.458280
-0.070219 0.361560 -0.345294
-0.070578 -0.495091 -0.051127
0.282316 -0.495593 0.041610
0.040172 -0.233542 -0.441684
-0.123525 -0.001682 0.495803
0.228242 0.445757 -0.225333
-0.246186 -0.132901 -0.482071
-0.179937 -0.497484 -0.003436
-0.255175 -0.087198 -0.492340
0.211556 0.498103 0.021581
-0.214041 0.075699 -0.494421
-0.076854 0.172008 -0.469750
-0.055606 -0.207914 0.450228
0.094885 0.217310 0.446312
0.250486 0.396471 0.299760
0.191590 -0.377587 0.322114
-0.185398 -0.435702 0.238131
0.251680 -0.281952 0.408008
-0.187857 0.498469 0.001281
-0.201887 -0.152490 0.471776
-0.061534 -0.420298 0.264151
-0.178160 0.124218 0.480231
0.003468 -0.072314 -0.494902
-0.053895 0.455120 0.201398
0.265920 0.199923 -0.458520
0.112124 0.368895 -0.337196
-0.096831 0.096783 -0.490756
0.113207 -0.028522 -0.499313
0.032440 -0.278896 -0.414398
-0.110223 -0.173158 -0.468849
-0.245453 0.169246 -0.470703
0.158089 -0.106409 0.484171
0.106526 -0.423974 -0.262904
0.230319 0.048275 -0.497877
0.006893 -0.466710 0.170027
0.286804 0.257273 -0.428938
-0.010671 0.215726 0.447023
-0.016485 -0.346104 -0.359964
0.245112 0.318782 0.380899
-0.195596 0.155651 -0.475392
0.082356 -0.365775 -0.339759
0.015193 -0.125712 0.479541
0.278513 0.304505 -0.396584
-0.008497 -0.460011 0.187802
0.280248 -0.126443 -0.483812
-0.130271 0.493862 -0.071377
0.194402 0.416973 0.270780
0.084648 0.403670 0.290217
0.089657 -0.247159 -0.434361
0.281317 -0.028659 0.495030
0.199176 -0.368912 0.331692
-0.142978 0.008927 0.495885
-0.240012 0.008397 0.495908
-0.062876 0.436470 0.238546
-0.054609 -0.396241 0.298939
0.146046 0.258297 0.423842
0.256033 0.323004 0.377533
0.009762 -0.348915 -0.357076
0.243946 -0.496454 -0.034315
-0.141982 0.449549 -0.217754
-0.155361 0.460854 -0.192561
-0.092828 -0.451324 0.207160
0.005587 0.319121 0.380629
-0.267646 0.467173 0.171963
0.076067 -0.136092 0.476676
-0.193458 -0.372660 -0.331930
0.192760 0.458115 -0.198665
0.013153 0.475545 -0.151524
0.272014 0.341596 -0.365055
0.227687 0.491296 0.083108
-0.286710 -0.467777 -0.171595
0.274588 0.498143 -0.020186
-0.266106 0.416245 0.271883
-0.231023 -0.007187 0.495704
-0.285376 0.162735 0.468791
0.108443 0.151554 0.472339
0.055020 -0.495885 -0.041328
-0.181410 -0.230774 0.438963
-0.130617 0.491794 -0.083388
-0.229338 0.230077 -0.444165
0.268140 0.162756 -0.472941
0.143240 0.450985 -0.214554
0.278593 0.482429 0.123326
-0.060165 -0.126184 0.479411
0.150603 -0.465240 -0.178952
0.170661 -0.371949 0.328339
-0.181737 -0.225621 -0.445854
0.085026 -0.274872 0.412681
0.102129 0.400382 0.294576
0.225151 -0.291062 0.401599
0.085201 -0.463738 0.177948
0.137575 -0.346256 -0.359808
0.189945 0.074327 -0.494620
0.130161 0.453316 -0.209358
0.068148 -0.334913 -0.370191
0.166135 0.361323 -0.345556
0.247791 0.496246 0.045169
0.234889 0.473207 -0.159183
-0.187506 -0.482476 0.119086
-0.240400 -0.461633 0.183558
-0.170458 -0.480537 0.127242
-0.148280 -0.002095 -0.500243
-0.198577 0.370292 0.331531
0.044383 0.438677 -0.238781
0.258431 -0.051853 0.493150
-0.279202 0.418573 -0.273015
-0.222030 -0.142269 -0.479212
-0.041246 0.490359 0.088046
0.085482 -0.493135 0.064359
0.095591 -0.143610 -0.478803
0.022950 -0.402680 0.290141
-0.064706 -0.469547 0.162466
0.115148 -0.479230 0.131732
0.030945 -0.031408 0.494807
0.184255 0.492769 -0.077728
0.055817 0.068951 0.491264
-0.137010 0.340351 -0.366267
0.034492 -0.344820 -0.361218
-0.283514 0.187339 0.459558
0.162870 -0.151767 -0.476314
0.077840 -0.495959 0.038223
-0.015331 -0.444558 -0.225487
0.110220 -0.429764 -0.252807
0.091045 0.011133 -0.500004
-0.288470 0.276624 0.412350
0.220182 0.496609 0.040687
0.006284 0.257744 0.424179
-0.254387 0.495079 -0.060206
0.142225 -0.476468 0.140785
-0.105161 -0.427701 0.252008
0.158420 -0.497119 -0.023703
-0.016718 0.395516 -0.305488
-0.082673 0.005583 -0.500104
-0.007222 -0.473905 0.149185
0.169232 0.086982 0.488200
-0.262117 -0.380297 0.318935
0.239568 -0.379661 -0.323771
-0.208766 -0.395317 0.300099
-0.115757 -0.475392 -0.149462
0.086275 -0.095956 0.486361
0.107250 0.495746 -0.054032
-0.013204 0.477768 -0.144236
-0.115000 0.386692 -0.316554
-0.153901 0.495728 0.051562
-0.122998 -0.480893 0.125748
0.067269 -0.469976 -0.165220
-0.156458 -0.286211 0.405195
-0.189987 -0.015827 -0.499883
0.279380 -0.207575 0.450395
-0.096509 -0.484093 -0.117416
-0.218048 0.228506 -0.444939
0.062488 -0.181164 0.461560
-0.094773 0.037424 -0.498756
-0.149452 0.405447 0.287862
-0.210750 0.121584 -0.485317
-0.000428 -0.455589 0.197657
0.211620 -0.355214 -0.350606
-0.278614 -0.435449 -0.242893
-0.245009 -0.361479 -0.344172
0.177257 -0.497065 0.017018
-0.154734 -0.497035 0.017704
-0.031566 -0.494863 0.048360
-0.259354 -0.477490 0.137435
-0.182277 0.422494 -0.266583
0.206614 -0.497460 -0.004737
