-0.290288 -0.395789 -0.275328
-0.290288 0.395109 -0.240399
-0.290288 -0.391581 0.220043
-0.290288 0.109375 -0.483558
-0.290288 -0.148069 -0.430081
-0.290288 -0.418799 -0.261044
-0.290288 0.283213 0.373425
-0.290288 -0.217121 0.431785
-0.290288 -0.078316 0.467889
-0.290288 -0.449976 -0.133390
-0.290288 -0.270039 -0.399643
-0.290288 0.463432 -0.028890
-0.290288 -0.382740 0.260225
-0.290288 0.479063 -0.071719
-0.290288 0.258817 0.382778
-0.290288 0.310005 0.344798
-0.290288 0.413532 -0.244340
-0.290288 0.221186 -0.390689
-0.290288 0.145210 0.422821
-0.290288 0.440402 -0.143822
-0.290288 0.435043 0.099857
-0.290288 0.457633 0.106883
-0.290288 0.376827 0.323750
-0.290288 0.326997 0.342738
-0.290288 -0.152483 0.471668
-0.290288 -0.056698 -0.460255
-0.290288 0.170075 0.435287
-0.290288 0.415669 0.166868
-0.290288 0.401962 0.233122
-0.290288 0.306582 -0.345088
-0.290288 -0.037615 -0.489020
-0.290288 0.021495 -0.485942
-0.290288 0.444748 0.037293
-0.290288 -0.012747 -0.499981
-0.290288 0.105810 0.460035
-0.290288 0.293038 0.373796
-0.290288 0.113649 0.457056
-0.290288 -0.331988 0.354073
-0.290288 -0.437156 -0.150232
-0.290288 0.291521 0.378196
-0.290288 0.412403 -0.202231
-0.290288 0.380192 -0.306960
-0.290288 0.452901 -0.205720
-0.290288 -0.426336 -0.220372
-0.290288 0.491094 -0.086628
-0.290288 -0.239025 0.378833
-0.290288 0.167420 0.419230
-0.290288 0.042453 0.478178
-0.290288 -0.418032 0.234801
-0.290288 -0.450393 0.177453
-0.290288 -0.278306 -0.377719
-0.290288 0.123805 0.456846
-0.290288 -0.458759 -0.068114
-0.290288 -0.261793 0.386188
-0.290288 0.404346 -0.245816
-0.290288 -0.363298 -0.293023
-0.290288 0.219792 -0.449076
-0.290288 -0.320804 0.356021
-0.290288 -0.205860 -0.405165
-0.290288 -0.142707 0.466521
-0.290288 -0.267929 0.386968
-0.290288 0.458523 -0.011779
-0.290288 -0.050066 -0.481342
-0.290288 -0.039639 -0.485247
-0.290288 0.466760 0.150244
-0.290288 0.448341 0.057268
-0.290288 -0.433704 0.171859
-0.290288 0.389863 0.238669
-0.290288 -0.460493 -0.174940
-0.290288 0.297606 -0.373767
-0.290288 0.376218 -0.267625
-0.290288 0.493586 0.065807
-0.290288 0.005733 -0.485154
-0.290288 0.370232 0.272614
-0.290288 -0.131213 -0.445480
-0.290288 -0.151309 -0.450829
-0.290288 -0.330740 -0.332594
-0.290288 0.447187 0.087883
-0.290288 -0.278949 0.386779
-0.290288 -0.143261 0.446085
-0.290288 -0.461431 -0.178559
-0.290288 0.392946 -0.253484
-0.290288 -0.158343 -0.454875
-0.290288 0.363904 0.288459
-0.290288 -0.406160 0.191425
-0.290288 -0.340052 -0.309724
-0.290288 0.496687 -0.033966
-0.290288 0.440923 -0.072889
-0.290288 0.381054 -0.292373
-0.290288 -0.134355 -0.445411
-0.290288 -0.469180 -0.078155
-0.290288 -0.389169 0.264838
-0.290288 0.480088 -0.055838
-0.290288 -0.476702 0.114980
-0.290288 0.361155 0.307174
-0.290288 0.190125 -0.425255
-0.290288 -0.462655 0.180076
-0.290288 0.176064 0.447201
-0.290288 0.474113 0.040741
-0.290288 -0.346296 0.306770
-0.290288 0.409202 -0.247561
-0.290288 0.489345 -0.046971
-0.290288 -0.127050 0.435924
-0.290288 -0.376757 -0.320180
-0.290288 0.024530 -0.470916
-0.290288 -0.316879 0.314926
-0.290288 -0.257375 -0.408680
-0.290288 -0.285364 -0.405676
-0.290288 -0.116478 0.446071
-0.290288 0.335634 0.297968
-0.290288 -0.452217 -0.062839
-0.290288 0.211924 -0.433631
-0.290288 -0.313260 -0.361925
-0.290288 -0.161219 -0.447826
-0.290288 0.340288 0.336657
-0.290288 -0.139835 0.445544
-0.290288 -0.452390 0.103776
-0.290288 -0.418467 -0.153105
-0.290288 0.060233 0.457041
-0.290288 -0.413204 0.258064
-0.290288 -0.442721 -0.091509
-0.290288 0.276771 -0.409025
-0.290288 -0.408941 0.218415
-0.290288 0.189617 -0.419174
-0.290288 0.400497 -0.252946
-0.290288 -0.161694 0.437082
-0.290288 -0.096953 0.481098
-0.290288 0.217825 -0.399275
-0.290288 0.019612 -0.447167
-0.290288 0.340065 0.332320
-0.290288 -0.047055 0.459948
-0.290288 0.336263 -0.370091
-0.290288 -0.470792 -0.065243
-0.290288 0.246694 -0.421980
-0.290288 -0.285906 0.373839
-0.290288 0.063179 -0.449038
-0.290288 -0.038951 -0.497368
-0.290288 0.233696 -0.405970
-0.290288 0.452108 0.201405
-0.290288 0.382084 -0.281079
-0.290288 0.488581 -0.038357
-0.290288 0.204165 0.443669
-0.290288 0.493924 0.060472
-0.290288 -0.354776 0.308436
-0.290288 -0.313046 0.339619
-0.290288 -0.449195 0.165004
-0.290288 0.264343 0.411030
-0.290288 -0.368601 -0.304097
-0.290288 -0.371005 -0.273170
-0.290288 0.456229 -0.053047
-0.290288 0.442523 -0.156946
-0.290288 0.231468 0.438935
-0.290288 -0.365874 0.306963
-0.290288 0.414480 0.184170
-0.290288 -0.168149 0.410611
-0.290288 0.221711 0.429497
-0.290288 0.419383 0.188768
-0.290288 -0.091732 -0.475544
-0.290288 -0.289642 0.360320
-0.290288 0.303402 0.337483
-0.290288 0.497716 -0.007243
-0.290288 -0.444756 -0.218278
-0.290288 -0.107934 0.435981
-0.290288 0.113786 -0.474112
-0.290288 -0.335499 -0.325272
-0.290288 -0.023360 0.442724
-0.290288 -0.461194 0.089470
-0.290288 0.318109 -0.326020
-0.290288 -0.217769 -0.412448
-0.290288 -0.102291 0.452625
-0.290288 0.135357 -0.431471
-0.290288 -0.330306 0.369826
-0.290288 -0.341418 0.288089
-0.290288 0.307360 -0.376743
-0.290288 -0.260223 0.362891
-0.290288 0.080493 0.436798
-0.290288 0.390892 -0.224989
-0.290288 -0.190358 -0.435964
-0.290288 -0.336996 0.326440
-0.290288 -0.112994 -0.467585
-0.290288 0.491676 0.042059
-0.290288 -0.397567 -0.269068
-0.290288 0.186318 0.421388
-0.290288 0.250310 -0.421806
-0.290288 0.198897 0.438616
-0.290288 -0.459754 -0.003259
-0.290288 -0.228322 -0.395107
-0.290288 0.337863 0.363936
-0.290288 0.381117 0.293990
-0.290288 0.475743 0.095608
-0.290288 0.226601 0.386387
-0.290288 -0.196767 0.454397
-0.290288 -0.447672 0.197183
-0.290288 0.236502 0.417588
-0.290288 -0.371102 0.297282
-0.290288 -0.190130 0.405157
-0.290288 -0.447003 0.133954
-0.290288 -0.356592 -0.270642
-0.290288 0.383063 -0.241598
-0.290288 -0.060822 0.484592
-0.290288 -0.431559 0.123227
-0.290288 -0.058547 0.473081
-0.290288 -0.315999 -0.335515
-0.290288 -0.123152 0.479002
-0.290288 -0.248351 0.383709
-0.290288 0.175481 0.431336
-0.290288 0.247150 0.413463
-0.290288 -0.436352 0.147150
-0.290288 0.485607 0.027232
-0.290288 -0.044605 0.445623
-0.290288 -0.401755 0.189721
-0.290288 0.104394 0.457262
-0.290288 0.234137 0.387160
-0.290288 -0.416835 -0.257592
-0.290288 0.371606 0.329076
-0.290288 0.077528 0.489031
-0.290288 -0.278509 -0.395366
-0.290288 0.474171 -0.038372
-0.290288 0.443745 0.132219
-0.290288 -0.402147 -0.243708
-0.290288 0.002868 0.456772
-0.290288 -0.475199 -0.132588
-0.290288 0.191474 -0.437520
-0.290288 0.249336 -0.395669
-0.290288 -0.472524 0.071882
-0.290288 0.223903 0.400952
-0.290288 0.412903 -0.248011
-0.290288 -0.474602 -0.044122
-0.290288 -0.425618 -0.187091
-0.290288 0.312641 0.370531
-0.290288 -0.404222 -0.283424
-0.290288 -0.452704 -0.008056
-0.290288 -0.478246 -0.003763
-0.290288 0.439642 -0.077476
-0.290288 -0.364980 0.266291
-0.290288 0.106076 0.452767
-0.290288 -0.459377 0.136617
-0.290288 0.462806 -0.051968
-0.290288 0.338419 0.320817
-0.290288 -0.471525 0.075200
-0.290288 0.397134 -0.259541
-0.290288 -0.475980 0.122940
-0.290288 0.260368 0.396512
-0.290288 -0.386346 0.261299
-0.290288 0.396833 -0.301764
-0.290288 -0.491246 -0.059789
-0.290288 0.027644 0.477373
-0.290288 -0.483207 -0.026768
-0.290288 -0.353270 -0.352384
-0.290288 0.464443 -0.181234
-0.290288 0.064329 0.449607
-0.290288 0.479693 -0.060797
-0.290288 -0.116742 -0.443449
-0.290288 0.026988 0.472084
-0.290288 0.462065 0.008855
-0.290288 0.464548 -0.156089
-0.290288 -0.326453 -0.327653
-0.290288 0.456375 -0.140056
-0.290288 0.364158 -0.264377
-0.290288 0.456624 -0.059012
-0.290288 0.457277 -0.189499
-0.290288 -0.441507 0.224515
-0.290288 0.486020 0.031672
-0.290288 -0.395431 -0.222210
-0.290288 -0.282365 0.343467
-0.290288 0.484133 -0.031458
-0.290288 0.121098 -0.453577
-0.290288 0.029873 0.447679
-0.290288 0.459012 -0.085402
-0.290288 -0.411044 -0.276418
-0.290288 -0.458242 0.026407
-0.290288 -0.297605 0.369580
-0.290288 0.124132 -0.463263
-0.290288 0.284223 0.365468
-0.290288 -0.033929 -0.470251
-0.290288 0.350575 0.316322
-0.290288 0.388774 0.293804
-0.290288 -0.162562 -0.439454
-0.290288 -0.167413 -0.418216
-0.290288 -0.461139 -0.142897
-0.290288 -0.002002 -0.448030
-0.290288 0.375863 -0.261428
-0.290288 -0.185621 0.411561
-0.290288 -0.434033 0.164767
-0.290288 0.471613 -0.003741
-0.290288 -0.101717 -0.489358
-0.290288 0.055912 -0.493516
-0.290288 0.159401 -0.469490
-0.290288 -0.095360 -0.483815
-0.290288 0.457162 0.127962
-0.290288 0.388459 -0.278255
-0.290288 -0.405031 0.213146
-0.290288 -0.120025 0.433602
-0.290288 0.434906 -0.193818
-0.290288 -0.467124 0.149259
-0.290288 0.014604 -0.498457
-0.290288 -0.455422 0.184019
-0.290288 -0.072432 0.477383
-0.290288 -0.085388 -0.476982
-0.290288 -0.045363 -0.495203
-0.290288 -0.234445 -0.382472
-0.290288 -0.413642 0.188175
-0.290288 0.357241 0.285051
-0.290288 0.426868 0.194758
-0.290288 0.191717 0.408997
-0.290288 0.323080 -0.352481
-0.290288 -0.454667 0.063142
-0.290288 0.441342 -0.066599
-0.290288 -0.093670 0.456247
-0.290288 -0.443071 -0.118871
-0.290288 -0.192344 0.455110
-0.290288 -0.179347 0.426023
-0.290288 0.437376 0.163539
-0.290288 0.421827 -0.171849
-0.290288 0.149049 0.464666
-0.290288 0.250769 0.386662
-0.290288 -0.461490 0.153879
-0.290288 0.123300 -0.459293
-0.290288 0.197816 -0.439390
-0.290288 -0.452868 -0.087530
-0.290288 -0.010468 0.486155
-0.290288 -0.465255 0.162825
-0.290288 0.087868 -0.458160
-0.290288 -0.396563 -0.255386
-0.290288 0.369006 -0.327597
-0.290288 0.412786 0.202920
-0.290288 0.324205 0.375680
-0.290288 -0.364464 -0.283659
-0.290288 -0.253189 -0.407392
-0.290288 -0.469404 -0.000502
-0.290288 0.419992 -0.203618
-0.290288 -0.388026 -0.259510
-0.290288 -0.212439 -0.414675
-0.290288 0.459497 -0.176261
-0.290288 0.096785 -0.488575
-0.290288 -0.492968 -0.024598
-0.290288 0.451144 -0.187095
-0.290288 -0.386295 -0.250331
-0.290288 -0.405904 0.236850
-0.290288 -0.412072 0.165659
-0.290288 -0.060040 -0.491216
-0.290288 0.396899 -0.250863
-0.290288 -0.391872 -0.282856
-0.290288 -0.399198 0.274741
-0.290288 0.466520 0.171770
-0.290288 0.466225 0.033265
-0.290288 -0.154395 0.443280
-0.290288 -0.408189 -0.275007
-0.290288 -0.451751 0.090811
-0.290288 -0.462977 0.100037
-0.290288 -0.126011 0.431792
-0.290288 -0.470776 -0.017085
-0.290288 -0.452633 -0.153660
-0.290288 0.372483 -0.332798
-0.290288 0.104394 0.464494
-0.290288 0.179302 0.447175
-0.290288 0.062942 -0.476975
-0.290288 0.403745 0.271386
-0.290288 0.333769 -0.330774
-0.290288 0.233839 0.400673
-0.290288 -0.441894 -0.183564
-0.290288 0.381555 -0.317010
-0.290288 -0.111357 0.453549
-0.290288 -0.346775 -0.291986
-0.290288 0.161068 0.442981
-0.290288 0.193922 0.445861
-0.290288 0.079232 0.453430
-0.290288 -0.236675 -0.439562
-0.290288 0.244029 0.382591
-0.290288 0.480734 -0.088968
-0.290288 0.086497 0.442910
-0.290288 0.435288 0.229939
-0.290288 -0.204556 -0.410403
-0.290288 -0.014993 0.461169
-0.290288 -0.436636 -0.122946
-0.290288 -0.469940 -0.098667
-0.290288 0.211135 -0.406713
-0.290288 0.053779 0.492727
-0.290288 0.460143 0.178489
-0.290288 -0.203205 0.406106
-0.290288 -0.316841 -0.355690
-0.290288 0.446179 0.201913
-0.290288 0.203908 -0.432071
-0.290288 0.437672 -0.203115
-0.290288 0.248478 0.391797
-0.290288 -0.058120 0.481856
-0.290288 0.493844 0.023459
-0.290288 -0.219367 -0.435048
-0.290288 0.086922 0.471960
-0.290288 -0.373952 -0.299365
-0.290288 0.469233 -0.099649
-0.290288 0.453766 -0.102597
-0.290288 0.436342 0.141428
-0.290288 -0.495202 -0.043214
-0.290288 0.291912 -0.386205
-0.290288 0.203699 -0.413410
-0.290288 0.333685 0.332283
-0.290288 0.428771 0.201607
-0.290288 0.097988 0.437219
-0.290288 -0.076023 0.441435
-0.290288 -0.380686 -0.264683
-0.290288 -0.175907 -0.463340
-0.290288 -0.075913 0.448042
-0.290288 -0.335892 0.318492
-0.290288 -0.346078 0.350376
-0.290288 0.432183 0.131780
-0.290288 0.336934 0.339115
-0.290288 -0.464889 -0.028149
-0.290288 -0.228617 -0.391048
-0.290288 -0.163811 0.443394
-0.290288 -0.409422 0.189185
-0.290288 -0.174303 0.463336
-0.290288 0.451159 0.173520
-0.290288 -0.248841 0.373266
-0.290288 -0.257778 0.404293
-0.290288 0.387205 0.286803
-0.290288 0.447667 -0.186883
-0.290288 0.486451 0.096746
-0.290288 -0.068524 0.489842
-0.290288 0.487108 0.024379
-0.290288 -0.329865 0.319748
-0.290288 0.009267 -0.496425
-0.290288 -0.112204 -0.434106
-0.290288 0.445447 -0.099354
-0.290288 -0.474737 0.085822
-0.290288 -0.409257 0.182803
-0.290288 -0.323961 0.355901
-0.290288 0.263705 -0.404528
-0.290288 0.421132 0.223667
-0.290288 -0.371927 0.264544
-0.290288 0.146545 0.455275
-0.290288 0.315917 -0.322605
-0.290288 0.245465 -0.388570
-0.290288 -0.110921 -0.445511
-0.290288 0.145429 0.463527
-0.290288 0.080095 -0.471050
-0.290288 0.136491 0.426571
-0.290288 -0.338871 0.361778
-0.290288 0.464485 0.079601
-0.290288 -0.135132 -0.448491
-0.290288 -0.303225 -0.339303
-0.290288 -0.111872 -0.471433
-0.290288 0.492088 0.077423
-0.290288 0.057303 -0.478810
-0.290288 0.389335 -0.297768
-0.290288 0.401960 0.289831
-0.290288 0.474715 -0.056158
-0.290288 0.191050 0.416292
-0.290288 0.271904 -0.374729
-0.290288 -0.456437 0.035291
-0.290288 0.313861 -0.362894
-0.290288 0.369715 -0.251318
-0.290288 -0.037437 -0.476816
-0.290288 -0.049198 -0.493895
-0.290288 -0.240527 -0.437063
-0.290288 -0.409664 0.268260
-0.290288 0.230520 -0.415874
-0.290288 -0.302197 0.343204
-0.290288 -0.255476 0.378068
-0.290288 0.105759 0.442629
-0.290288 0.443576 0.208565
-0.290288 0.392655 -0.235224
-0.290288 -0.249282 0.427514
-0.290288 0.065859 0.470578
-0.290288 -0.210956 -0.445430
-0.290288 0.159699 0.425596
-0.290288 0.340794 0.351785
-0.290288 0.391626 0.246914
-0.290288 0.103535 -0.482674
-0.290288 -0.006034 0.487621
-0.290288 0.207267 -0.451479
-0.290288 0.424277 0.154741
-0.290288 -0.416242 -0.234799
-0.290288 -0.297749 0.360109
-0.290288 0.449788 0.194006
-0.290288 0.194825 -0.432426
-0.290288 -0.299438 0.346434
-0.290288 0.427327 0.153289
-0.290288 -0.419712 0.231162
-0.290288 -0.473710 -0.059522
-0.290288 -0.168680 0.422128
-0.290288 -0.241245 0.376474
-0.290288 -0.017060 0.494981
-0.290288 0.386187 -0.228825
-0.290288 -0.434151 0.189056
-0.290288 -0.429908 -0.221024
-0.290288 -0.145990 0.462498
-0.290288 0.486025 -0.035227
-0.290288 0.463812 -0.108540
-0.290288 0.327693 -0.322124
-0.290288 -0.365435 0.313360
-0.290288 0.185031 -0.448100
-0.290288 0.481691 0.001293
-0.290288 0.462326 -0.044109
-0.290288 -0.016106 -0.480026
-0.290288 0.460620 0.116370
-0.290288 -0.343441 -0.352872
-0.290288 -0.465122 -0.078910
-0.290288 -0.437690 -0.235949
-0.290288 -0.373477 -0.326806
-0.290288 -0.009310 0.455644
-0.290288 -0.458017 0.038022
-0.290288 -0.389838 -0.249844
-0.290288 0.136869 -0.467928
-0.290288 0.458141 0.110727
-0.290288 -0.492368 -0.028002
-0.290288 -0.331750 -0.340922
-0.290288 -0.259689 -0.381413
-0.290288 0.393599 0.237934
-0.290288 0.209220 -0.441209
-0.290288 0.128103 -0.450951
-0.290288 0.048995 -0.472716
-0.290288 0.229478 0.388651
-0.290288 0.074137 0.472927
-0.290288 0.402606 -0.249006
-0.290288 -0.446705 -0.200399
-0.290288 -0.028508 -0.447258
-0.290288 -0.043076 0.451712
-0.290288 0.411350 -0.281761
-0.290288 -0.003301 0.470112
-0.290288 0.395404 0.244057
-0.290288 0.283038 -0.405876
-0.290288 0.464730 0.064961
-0.290288 0.299205 0.396173
-0.290288 -0.394799 0.223232
-0.290288 -0.277194 0.379733
-0.290288 -0.281574 -0.392660
-0.290288 0.144658 -0.473286
-0.290288 0.008267 -0.489661
-0.290288 0.139963 0.442827
-0.290288 -0.377361 -0.266270
-0.290288 -0.168560 0.445542
-0.290288 -0.143748 -0.435579
-0.290288 -0.122549 0.445701
-0.290288 -0.428330 0.122238
-0.290288 -0.421246 0.180163
-0.290288 0.165740 0.442047
-0.290288 -0.449234 0.159273
-0.290288 0.384774 0.273332
-0.290288 0.484426 -0.083779
-0.290288 0.033625 -0.484867
-0.290288 -0.468411 0.002487
-0.290288 -0.198000 -0.432266
-0.290288 0.340235 -0.359863
-0.290288 -0.446215 0.217811
-0.290288 -0.433221 -0.122300
-0.290288 -0.401211 -0.284123
-0.290288 0.489248 0.007064
-0.290288 0.344473 -0.312119
-0.290288 -0.402786 -0.195612
-0.290288 0.435522 0.166946
-0.290288 -0.340125 0.320647
-0.290288 -0.199776 0.404363
-0.290288 -0.341819 0.284466
-0.290288 0.290299 -0.398546
-0.290288 0.088930 -0.492293
-0.290288 -0.461811 -0.044455
-0.290288 -0.021144 -0.466203
-0.290288 -0.454204 0.038396
-0.290288 -0.425019 0.200822
-0.290288 0.454786 0.199093
-0.290288 -0.305615 -0.343960
-0.290288 0.033403 0.449303
-0.290288 -0.229137 0.381611
-0.290288 -0.131977 -0.451603
-0.290288 -0.006662 -0.468159
-0.290288 -0.282290 -0.366025
-0.290288 0.165887 -0.459577
-0.290288 -0.361347 -0.326353
-0.290288 -0.472718 0.050699
-0.290288 0.461030 0.002042
-0.290288 -0.438372 0.222104
-0.290288 0.493422 -0.044130
-0.290288 0.445335 -0.081692
-0.290288 -0.311132 -0.369453
-0.290288 -0.289497 -0.356793
-0.290288 -0.402609 0.290210
-0.290288 -0.476943 -0.088067
-0.290288 0.448858 -0.049374
-0.290288 0.474620 -0.136002
-0.290288 -0.484811 -0.106651
-0.290288 0.016468 0.449185
-0.290288 0.134853 0.462790
-0.290288 -0.481699 -0.023703
-0.290288 0.467939 -0.168627
-0.290288 -0.045428 -0.467239
-0.290288 -0.370906 0.251750
-0.290288 0.372857 0.244344
-0.290288 -0.470580 -0.013472
-0.290288 -0.008219 0.475637
-0.290288 -0.026209 0.495162
-0.290288 0.073764 0.479212
-0.290288 0.198786 -0.414088
-0.290288 0.428388 -0.190282
-0.290288 -0.322665 0.359352
-0.290288 0.292948 -0.401132
-0.290288 0.478026 0.120672
-0.290288 0.405595 -0.239298
-0.290288 0.460405 -0.037916
-0.290288 0.456596 -0.126254
-0.290288 -0.061403 -0.443976
-0.290288 0.362391 -0.271792
-0.290288 -0.398506 0.271176
-0.290288 -0.260338 -0.405989
-0.290288 0.445401 0.023354
-0.290288 0.455651 -0.049082
-0.290288 0.352094 0.288544
-0.290288 0.124413 -0.433949
-0.290288 -0.035281 0.442478
-0.290288 0.305319 0.378892
-0.290288 -0.350732 0.316645
-0.290288 -0.463739 0.092874
-0.290288 -0.213681 0.416042
-0.290288 0.009550 0.457429
-0.290288 -0.451147 -0.187135
-0.290288 0.441750 0.083786
-0.290288 0.472784 0.083867
-0.290288 -0.416066 -0.218262
-0.290288 -0.372310 0.284448
-0.290288 0.416050 0.196006
-0.290288 -0.200989 -0.435443
-0.290288 -0.353848 0.270943
-0.290288 -0.251624 -0.423144
-0.290288 -0.111694 -0.452309
-0.290288 -0.160816 0.445032
-0.290288 -0.288895 -0.362583
-0.290288 -0.300552 -0.388683
-0.290288 -0.344649 -0.284417
-0.290288 0.027849 -0.487434
-0.290288 -0.006773 -0.488265
-0.290288 -0.036644 -0.471604
-0.290288 -0.459341 0.021214
-0.290288 0.361559 -0.343903
-0.290288 -0.429479 0.213035
-0.290288 -0.182164 0.433116
-0.290288 0.119987 0.452196
-0.290288 0.444725 -0.212889
-0.290288 0.014975 0.472607
-0.290288 0.346261 0.341658
-0.290288 0.349522 -0.345850
-0.290288 0.263632 0.358709
-0.290288 0.490128 0.044624
-0.290288 -0.410307 0.235085
-0.290288 0.486425 -0.049216
-0.290288 0.084400 -0.443556
-0.290288 -0.107833 0.468783
-0.290288 0.466031 -0.137101
-0.290288 -0.357298 -0.302579
-0.290288 0.122897 0.436897
-0.290288 0.235776 0.432795
-0.290288 -0.306903 0.373182
-0.290288 -0.480432 0.056535
-0.290288 0.002048 0.479121
-0.290288 0.445770 0.007291
-0.290288 0.161811 0.461866
-0.290288 -0.001125 0.482171
-0.290288 0.117430 -0.480783
-0.290288 -0.171919 0.409958
-0.290288 0.281800 0.401154
-0.290288 -0.135971 -0.478652
-0.290288 -0.361438 -0.300980
-0.290288 -0.032746 0.493653
-0.290288 -0.395289 -0.283919
-0.290288 0.143075 0.453787
-0.290288 0.303282 -0.392921
-0.290288 -0.171439 -0.422224
-0.290288 -0.342422 -0.326252
-0.290288 -0.481930 0.097845
-0.290288 -0.049651 0.486108
-0.290288 0.242306 -0.420304
-0.290288 0.366138 0.266820
-0.290288 0.191117 0.435783
-0.290288 0.360572 0.334288
-0.290288 -0.192284 -0.445154
-0.290288 -0.089990 0.458629
-0.290288 0.034913 0.482736
-0.290288 0.112544 -0.436849
-0.290288 0.256052 -0.382397
-0.290288 -0.346239 0.327809
-0.290288 0.267054 0.377901
-0.290288 -0.006822 -0.451962
-0.290288 0.450690 -0.087272
-0.290288 -0.448305 0.207446
-0.290288 0.163114 -0.417086
-0.290288 0.441196 0.117769
-0.290288 0.196942 0.433813
-0.290288 -0.478342 0.044181
-0.290288 -0.335121 0.342771
-0.290288 0.323384 0.366836
-0.290288 0.218063 -0.405889
-0.290288 -0.457547 -0.028994
-0.290288 0.410026 -0.268647
-0.290288 0.366079 -0.339296
-0.290288 -0.481509 -0.060712
-0.290288 -0.074210 0.454800
-0.290288 0.394830 -0.279383
-0.290288 -0.033802 -0.449855
-0.290288 -0.052365 -0.444964
-0.290288 0.454754 -0.131003
-0.290288 0.300110 -0.358653
-0.290288 0.447625 -0.182624
-0.290288 0.215617 -0.412644
-0.290288 0.110366 -0.480177
-0.290288 -0.340812 -0.343767
-0.290288 -0.488511 -0.052111
-0.290288 0.401728 0.251339
-0.290288 0.483061 -0.006029
-0.290288 0.467689 -0.072720
-0.290288 -0.323282 -0.324093
-0.290288 -0.482463 0.039758
-0.290288 -0.393883 0.226364
-0.290288 -0.253498 0.370110
-0.290288 0.316957 0.359896
-0.290288 -0.276375 0.390790
-0.290288 -0.280587 -0.375450
-0.290288 0.056771 0.481366
-0.290288 0.315399 0.344312
-0.290288 0.252858 0.425998
-0.290288 -0.222281 -0.388268
-0.290288 0.442481 -0.223280
-0.290288 -0.242074 -0.419973
-0.290288 0.456099 -0.202912
-0.290288 0.457607 0.170280
-0.290288 -0.203168 -0.424112
-0.290288 0.452096 -0.133919
-0.290288 0.117133 -0.433345
-0.290288 -0.430936 -0.226088
-0.290288 0.365510 -0.289730
-0.290288 0.091205 -0.466012
-0.290288 0.120360 0.465877
-0.290288 -0.316971 -0.328526
-0.290288 -0.440261 0.184701
-0.290288 0.061671 -0.492703
-0.290288 -0.446155 -0.093907
-0.290288 -0.146995 -0.434634
-0.290288 0.063637 0.491527
-0.290288 -0.459022 0.178013
-0.290288 -0.425879 0.204774
-0.290288 0.259443 0.408945
-0.290288 -0.448623 0.105849
-0.290288 0.010767 -0.449553
-0.290288 0.472881 0.032863
-0.290288 -0.219065 0.434973
-0.290288 -0.455213 0.031688
-0.290288 0.414611 0.174422
-0.290288 0.077064 -0.477331
-0.290288 -0.170626 -0.417313
-0.290288 0.385999 0.238025
-0.290288 0.401268 -0.259839
-0.290288 -0.209673 0.420087
-0.290288 0.278936 -0.357281
-0.290288 0.110140 -0.445188
-0.290288 -0.007563 -0.499866
-0.290288 0.006130 -0.481987
-0.290288 0.492100 0.009434
-0.290288 0.272194 -0.361709
-0.290288 -0.405777 -0.201822
-0.290288 0.346095 0.313586
-0.290288 0.000416 -0.458858
-0.290288 -0.428784 0.241443
-0.290288 0.482261 -0.058992
-0.290288 0.361051 0.259749
-0.290288 -0.445503 -0.124709
-0.290288 -0.378682 0.283724
-0.290288 -0.216655 -0.419385
-0.290288 0.446616 -0.052021
-0.290288 -0.474527 -0.083407
-0.290288 -0.312127 0.378071
-0.290288 -0.430476 -0.139933
-0.290288 0.189327 0.419913
-0.290288 -0.326466 -0.321867
-0.290288 -0.461926 0.054840
-0.290288 0.441818 0.147909
-0.290288 -0.266249 -0.409684
-0.290288 -0.437574 -0.227804
-0.290288 0.237545 -0.390138
-0.290288 -0.335626 -0.352468
-0.290288 -0.092573 0.470901
-0.290288 -0.447923 0.151692
-0.290288 0.307712 -0.349235
-0.290288 -0.432062 0.136665
-0.290288 0.467508 -0.068373
-0.290288 -0.266329 0.360769
-0.290288 -0.382211 0.274431
-0.290288 -0.318518 0.309000
-0.290288 0.058794 0.478548
-0.290288 -0.434763 0.124936
-0.290288 -0.019120 0.475432
-0.290288 0.199365 -0.446384
-0.290288 0.053617 0.487017
-0.290288 -0.101073 -0.470600
-0.290288 0.441254 -0.139724
-0.290288 -0.454809 0.173949
-0.290288 0.289409 -0.346992
-0.290288 0.134200 -0.427088
-0.290288 -0.435603 -0.225268
-0.290288 -0.190974 0.408340
-0.290288 0.343948 -0.347411
-0.290288 -0.422045 -0.165530
-0.290288 0.385954 0.282858
-0.290288 -0.224020 -0.397122
-0.290288 -0.225939 0.426894
-0.290288 0.302702 0.326229
-0.290288 -0.043484 -0.474778
-0.290288 0.321273 -0.349272
-0.290288 -0.295956 -0.348035
-0.290288 0.404834 -0.284663
-0.290288 -0.475250 0.080609
-0.290288 0.454459 0.023026
-0.290288 -0.449645 -0.026063
-0.290288 0.453882 -0.013895
-0.290288 0.394750 0.270853
-0.290288 0.474476 -0.050715
-0.290288 -0.173056 -0.435615
-0.290288 0.056248 -0.449955
-0.290288 -0.237946 0.392990
-0.290288 0.421653 0.242955
-0.290288 -0.348308 -0.347061
-0.290288 -0.206742 0.443323
-0.290288 0.459922 -0.027889
-0.290288 -0.115207 0.433465
-0.290288 0.160331 -0.453943
-0.290288 -0.355412 -0.349193
-0.290288 -0.261742 -0.374770
-0.290288 0.463219 -0.070457
-0.290288 0.478596 -0.028998
-0.290288 -0.079085 0.445322
-0.290288 0.238366 0.425008
-0.290288 0.252563 -0.394070
-0.290288 -0.446238 0.103822
-0.290288 -0.341538 0.359669
-0.290288 -0.389680 -0.265991
-0.290288 -0.443796 -0.224939
-0.290288 0.493303 0.004730
-0.290288 0.293735 -0.343006
-0.290288 -0.416191 0.230590
-0.290288 0.441982 -0.099991
-0.290288 -0.360542 0.283383
-0.290288 -0.405644 -0.272864
-0.290288 0.333920 0.317668
-0.290288 0.440597 -0.154232
-0.290288 0.323484 0.371371
-0.290288 0.060151 0.484322
-0.290288 0.124304 0.460200
-0.290288 -0.463923 0.042671
-0.290288 -0.479975 -0.026724
-0.290288 -0.107237 0.459184
-0.290288 -0.402094 -0.239884
-0.290288 0.180985 -0.451445
-0.290288 0.191629 0.404176
-0.290288 0.214891 0.438437
-0.290288 -0.407272 0.186132
-0.290288 -0.465129 -0.105112
-0.290288 -0.482241 0.005579
-0.290288 0.356904 -0.350081
-0.290288 -0.389404 -0.224298
-0.290288 0.447649 -0.031485
-0.290288 0.352834 0.271645
-0.290288 -0.051322 -0.472501
-0.290288 -0.349938 -0.335631
-0.290288 0.482333 -0.104399
-0.290288 -0.280395 0.405444
-0.290288 0.317712 0.324137
-0.290288 -0.391943 -0.232598
-0.290288 0.241511 -0.379703
-0.290288 -0.417548 -0.177057
-0.290288 -0.045801 0.463408
-0.290288 -0.131263 0.458758
-0.290288 0.198290 0.454049
-0.290288 -0.181462 0.452682
-0.290288 -0.346681 -0.339096
-0.290288 -0.435887 0.155635
-0.290288 -0.439956 0.084324
-0.290288 -0.219268 -0.407008
-0.290288 0.023901 0.472778
-0.290288 0.153883 -0.445023
-0.290288 -0.422793 0.164391
-0.290288 0.065116 0.487694
-0.290288 -0.316116 -0.380344
-0.290288 -0.443033 0.093719
-0.290288 0.258124 -0.409261
-0.290288 0.354158 -0.301199
-0.290288 0.456890 0.115886
-0.290288 0.433358 -0.224970
-0.290288 0.104939 0.439084
-0.290288 -0.288136 0.367845
-0.290288 -0.385016 -0.234490
-0.290288 -0.433505 0.114993
-0.290288 0.362358 0.267998
-0.290288 0.450409 -0.071417
-0.290288 -0.031381 -0.491669
-0.290288 0.487027 -0.000406
-0.290288 0.211814 0.407456
-0.290288 -0.491787 0.072739
-0.290288 0.421036 0.239089
-0.290288 0.097688 -0.453018
-0.290288 -0.214194 -0.450850
-0.290288 0.102635 -0.451169
-0.290288 0.351849 0.349552
-0.290288 0.234560 0.404564
-0.290288 0.002633 -0.472588
-0.290288 0.220147 0.385876
-0.290288 -0.361191 0.335945
-0.290288 0.401111 0.194965
-0.290288 0.241906 -0.400128
-0.290288 -0.213671 0.426472
-0.290288 0.440062 0.075153
-0.290288 0.154038 -0.473429
-0.290288 0.482050 0.040715
-0.290288 -0.114085 -0.486443
-0.290288 -0.010263 0.443882
-0.290288 -0.132601 -0.430320
-0.290288 0.336037 -0.318564
-0.290288 0.385349 0.279010
-0.290288 0.012643 -0.455985
-0.290288 0.168989 0.412776
-0.290288 -0.460852 0.150199
-0.290288 0.117814 0.448651
-0.290288 0.438888 -0.125996
-0.290288 -0.404415 0.239913
-0.290288 -0.399225 -0.280815
-0.290288 0.095374 0.433126
-0.290288 0.449495 0.121124
-0.290288 0.183928 -0.464941
-0.290288 -0.457957 -0.185459
-0.290288 -0.125360 -0.462040
-0.290288 0.286645 -0.363687
-0.290288 0.429554 0.161832
-0.290288 0.224590 0.394936
-0.290288 0.263147 -0.389766
-0.290288 0.157764 0.422370
-0.290288 0.428109 -0.223891
-0.290288 -0.358284 0.285575
-0.290288 0.305859 0.375137
-0.290288 -0.305389 0.327340
-0.290288 0.385502 0.221928
-0.290288 -0.339292 0.293635
-0.290288 -0.154488 -0.419780
-0.290288 0.013619 0.459580
-0.290288 -0.123356 -0.455275
-0.290288 -0.078401 0.437096
-0.290288 0.435265 -0.100188
-0.290288 -0.377228 0.235004
-0.290288 -0.415922 0.217057
-0.290288 -0.006912 0.468240
-0.290288 0.455837 -0.085606
-0.290288 -0.045642 0.484417
-0.290288 -0.470249 -0.036264
-0.290288 0.205523 0.408255
-0.290288 0.427640 -0.197825
-0.290288 -0.468415 0.019774
-0.290288 -0.457495 -0.127425
-0.290288 -0.430595 -0.250613
-0.290288 -0.080237 -0.493267
-0.290288 -0.345321 0.279401
-0.290288 0.353808 -0.332516
-0.290288 -0.346676 0.317931
-0.290288 -0.081651 0.439691
-0.290288 0.065977 -0.445642
-0.290288 0.449807 -0.040844
-0.290288 0.239850 0.406663
-0.290288 0.408893 0.233870
-0.290288 0.187565 -0.455848
-0.290288 -0.355208 0.284335
-0.290288 0.295855 0.349750
-0.290288 -0.302780 -0.363538
-0.290288 -0.366049 -0.264572
-0.290288 -0.439533 0.218593
-0.290288 -0.476148 -0.144929
-0.290288 0.415630 -0.180238
-0.290288 -0.164622 0.439580
-0.290288 0.141824 -0.442298
-0.290288 0.410538 0.174305
-0.290288 -0.405250 -0.210008
-0.290288 -0.110611 0.481554
-0.290288 0.329625 -0.367941
-0.290288 0.031871 -0.455816
-0.290288 -0.086952 -0.458477
-0.290288 0.028591 -0.491782
-0.290288 0.420322 0.228591
-0.290288 -0.396403 0.228420
-0.290288 -0.422710 -0.263363
-0.290288 -0.392451 0.240777
-0.290288 -0.435873 0.183288
-0.290288 0.379475 -0.267611
-0.290288 -0.443196 -0.065046
-0.290288 -0.366898 -0.299247
-0.290288 -0.318945 0.332334
-0.290288 0.412824 0.180780
-0.290288 0.470672 0.160793
-0.290288 0.453537 0.000736
-0.290288 -0.452592 0.158698
-0.290288 -0.286250 -0.381498
-0.290288 -0.276378 -0.354686
-0.290288 -0.107413 0.453153
-0.290288 0.259348 0.412915
-0.290288 -0.438909 -0.074262
-0.290288 0.179883 0.431478
-0.290288 -0.446845 0.044710
-0.290288 0.148479 -0.450589
-0.290288 0.067317 -0.481356
-0.290288 -0.277412 -0.403424
-0.290288 0.009494 -0.482305
-0.290288 -0.434144 0.226395
-0.290288 0.379801 0.319887
-0.290288 -0.456939 0.100572
-0.290288 -0.361694 0.323590
-0.290288 0.349459 -0.318188
-0.290288 0.458159 -0.046178
-0.290288 -0.196352 0.440785
-0.290288 -0.367371 -0.321716
-0.290288 0.419822 0.177464
-0.290288 0.411816 -0.209537
-0.290288 -0.213809 -0.437225
-0.290288 0.449046 -0.058692
-0.290288 0.169484 -0.465741
-0.290288 -0.229105 -0.416270
-0.290288 -0.154792 0.446330
-0.290288 -0.148460 0.430633
-0.290288 0.281659 -0.391175
-0.290288 -0.138409 -0.444549
-0.290288 -0.210361 0.431854
-0.290288 -0.246900 -0.393736
-0.290288 -0.359131 -0.305108
-0.290288 -0.456401 -0.111442
-0.290288 0.106399 -0.464876
-0.290288 0.177440 0.428194
-0.290288 -0.405665 0.266585
-0.290288 -0.075086 0.489093
-0.290288 0.471108 -0.013240
-0.290288 -0.368605 0.266597
-0.290288 -0.262110 -0.423512
-0.290288 -0.476525 0.059878
-0.290288 0.043937 0.464322
-0.290288 -0.176190 0.417685
-0.290288 0.455104 0.137723
-0.290288 -0.474953 -0.106220
-0.290288 -0.063921 0.487571
-0.290288 0.225567 -0.413620
-0.290288 -0.203093 -0.418058
-0.290288 -0.479593 0.062171
-0.290288 0.476527 -0.089804
-0.290288 -0.310214 -0.379014
-0.290288 -0.433740 -0.214802
-0.290288 0.371472 -0.262614
-0.290288 0.212708 0.394146
-0.290288 0.366156 -0.272382
-0.290288 -0.039262 0.482650
-0.290288 0.203485 0.401554
-0.290288 0.194792 0.429559
-0.290288 -0.442776 0.040900
-0.290288 -0.390883 0.304084
-0.290288 -0.042476 0.483315
-0.290288 -0.072073 -0.489420
-0.290288 0.368220 0.286433
-0.290288 -0.333433 0.312193
-0.290288 -0.455342 0.178021
-0.290288 -0.367072 -0.260796
-0.290288 0.136225 0.466405
-0.290288 -0.478065 0.120374
-0.290288 -0.379370 0.272317
-0.290288 0.456277 0.159828
-0.290288 -0.041610 -0.466988
-0.290288 0.276747 -0.395254
-0.290288 0.459792 -0.061291
-0.290288 0.322136 -0.372582
-0.290288 0.139972 0.423940
-0.290288 0.460805 0.174940
-0.290288 -0.457267 -0.000111
-0.290288 -0.479017 0.014416
-0.290288 -0.024168 -0.464834
-0.290288 -0.425339 -0.213904
-0.290288 0.447198 0.100045
-0.290288 -0.466371 -0.161108
-0.290288 0.315698 -0.377068
-0.290288 -0.445529 -0.080957
-0.290288 0.431973 -0.132449
-0.290288 -0.041161 -0.476717
-0.290288 -0.479605 0.128136
-0.290288 0.404061 0.278343
-0.290288 0.494488 -0.050547
-0.290288 0.134830 -0.450505
-0.290288 -0.371171 0.311302
-0.290288 -0.433178 -0.223044
-0.290288 0.336951 -0.305129
-0.290288 0.230379 -0.420353
-0.290288 -0.331813 0.342127
-0.290288 0.181237 0.459903
-0.290288 0.278745 0.386818
-0.290288 0.420867 0.212410
-0.290288 -0.478314 -0.054133
-0.290288 0.050101 0.465417
-0.290288 0.453428 0.175630
-0.290288 -0.132966 0.462523
-0.290288 -0.494461 -0.000908
-0.290288 -0.463069 -0.114763
-0.290288 0.454700 0.008380
-0.290288 0.020134 0.451831
-0.290288 0.252383 -0.390194
-0.290288 -0.127275 0.477828
-0.290288 0.334062 0.358798
-0.290288 -0.023087 0.486447
-0.290288 0.436702 -0.228797
-0.290288 -0.264412 0.411177
-0.290288 0.137256 -0.439959
-0.290288 0.275687 -0.378891
-0.290288 -0.243606 -0.430857
-0.290288 -0.256960 0.407383
-0.290288 0.396658 0.256159
-0.290288 -0.479157 0.004663
-0.290288 -0.420248 -0.238954
-0.290288 -0.294680 -0.374064
-0.290288 0.408909 -0.264954
-0.290288 0.240631 -0.383747
-0.290288 -0.144706 0.450824
-0.290288 -0.402070 0.265083
-0.290288 -0.014992 -0.448271
-0.290288 -0.172330 -0.440064
-0.290288 0.482392 0.087359
-0.290288 -0.330685 0.322909
-0.290288 -0.281144 -0.351521
-0.290288 0.488765 0.056087
-0.290288 0.058436 0.469712
-0.290288 0.163110 -0.440481
-0.290288 0.271337 0.354352
-0.290288 0.400058 0.262905
-0.290288 0.481641 -0.121191
-0.290288 -0.171240 -0.432397
-0.290288 0.014250 0.444131
-0.290288 -0.080768 0.458044
-0.290288 0.071406 -0.470435
-0.290288 0.328882 0.330053
-0.290288 -0.107147 0.448253
-0.290288 0.200490 -0.401442
-0.290288 -0.266634 -0.399104
-0.290288 -0.469036 0.041615
-0.290288 0.439872 0.154203
-0.290288 0.460492 -0.068633
-0.290288 0.383514 -0.250982
-0.290288 0.346374 -0.332695
-0.290288 0.153211 0.420282
-0.290288 -0.319731 -0.335357
-0.290288 -0.480278 0.112433
-0.290288 -0.461795 -0.093490
-0.290288 -0.411118 -0.220677
-0.290288 0.015915 -0.454990
-0.290288 0.345230 0.328205
-0.290288 0.458516 -0.076704
-0.290288 0.486511 0.016006
-0.290288 0.096143 0.481399
-0.290288 -0.415789 0.259867
-0.290288 0.310716 -0.391345
-0.290288 0.015696 0.487069
-0.290288 -0.153000 -0.475608
-0.290288 0.153842 -0.441754
-0.290288 0.407241 -0.236456
-0.290288 0.394961 -0.218633
-0.290288 0.452710 0.012855
-0.290288 -0.120934 0.442248
-0.290288 -0.368683 0.318483
-0.290288 -0.472023 -0.033126
-0.290288 -0.335897 -0.338550
-0.290288 -0.367744 -0.252733
-0.290288 -0.332199 -0.321101
-0.290288 0.439162 0.232586
-0.290288 0.445407 -0.150975
-0.290288 0.102696 -0.462957
-0.290288 0.188937 0.443875
-0.290288 0.471584 0.065944
-0.290288 -0.302966 -0.329384
-0.290288 -0.044916 0.457689
-0.290288 -0.405555 0.180899
-0.290288 -0.270944 0.405896
-0.290288 0.385232 -0.259950
-0.290288 -0.222045 0.401484
-0.290288 -0.226060 0.402209
-0.290288 0.343424 0.350187
-0.290288 -0.294053 -0.369304
-0.290288 0.449021 0.081280
-0.290288 -0.161700 0.416165
-0.290288 -0.388439 -0.287941
-0.290288 -0.474761 0.069673
-0.290288 -0.444421 0.154854
-0.290288 -0.333009 0.339057
-0.290288 0.457451 0.024835
-0.290288 0.422501 -0.196685
-0.290288 0.365493 -0.282828
-0.290288 -0.086150 0.474476
-0.290288 -0.130510 0.434259
-0.290288 -0.489250 0.087272
-0.290288 -0.448885 0.139146
-0.290288 0.385014 0.308856
-0.290288 -0.039003 0.487522
-0.290288 -0.410661 0.197156
-0.290288 -0.398682 -0.206244
-0.290288 -0.448053 -0.217539
-0.290288 0.424402 0.231797
-0.290288 -0.161150 0.440932
-0.290288 -0.034262 -0.488342
-0.290288 0.356851 -0.345684
-0.290288 0.129807 0.449498
-0.290288 0.465599 0.057653
-0.290288 0.003979 0.487600
-0.290288 -0.396189 0.297778
-0.290288 -0.430185 0.190437
-0.290288 -0.432690 -0.105243
-0.290288 -0.285741 -0.363702
-0.290288 -0.177761 -0.451945
-0.290288 -0.323326 -0.351684
-0.290288 0.463275 -0.008312
-0.290288 -0.438098 0.088987
-0.290288 0.480368 0.128127
-0.290288 -0.429264 0.229439
-0.290288 0.270358 -0.389293
-0.290288 -0.152945 0.416359
-0.290288 0.291134 -0.350880
-0.290288 0.036440 0.451998
-0.290288 0.471851 -0.078574
-0.290288 0.158756 -0.464778
-0.290288 -0.347227 0.309962
-0.290288 0.313953 0.337881
-0.290288 -0.059961 0.442167
-0.290288 -0.173781 -0.418126
-0.290288 -0.112226 0.440476
-0.290288 -0.180321 0.404869
-0.290288 -0.278592 -0.409019
-0.290288 -0.346974 0.353412
-0.290288 -0.120750 -0.453069
-0.290288 0.443935 -0.077313
-0.290288 0.368009 0.316483
-0.290288 0.451363 0.178355
-0.290288 -0.039258 -0.460166
-0.290288 0.265566 0.404819
-0.290288 -0.244217 0.374248
-0.290288 -0.115989 0.479327
-0.290288 -0.443572 -0.046514
-0.290288 -0.278379 0.360115
-0.290288 0.178579 -0.415884
-0.290288 -0.430850 -0.153219
-0.290288 0.482186 -0.039048
-0.290288 0.392119 0.229037
-0.290288 0.420291 0.264925
-0.290288 -0.163987 0.455895
-0.290288 0.317465 0.312493
-0.290288 -0.080917 -0.476684
-0.290288 -0.422424 0.260576
-0.290288 0.448162 0.155290
-0.290288 0.362202 -0.290093
-0.290288 -0.086278 0.469094
-0.290288 0.299933 0.346564
-0.290288 0.400958 -0.209049
-0.290288 0.127084 0.440250
-0.290288 -0.025699 -0.460426
-0.290288 -0.444609 -0.185717
-0.290288 0.017352 0.459146
-0.290288 0.064035 -0.463886
-0.290288 0.411632 0.189753
-0.290288 -0.119008 -0.485546
-0.290288 0.121749 0.441689
-0.290288 0.453419 -0.167475
-0.290288 -0.210342 0.407508
-0.290288 0.317177 0.347548
-0.290288 -0.014301 -0.466685
-0.290288 -0.446174 -0.147054
-0.290288 0.406010 0.246257
-0.290288 0.284346 0.377263
-0.290288 0.477635 -0.114283
-0.290288 0.023858 0.452696
-0.290288 0.452611 -0.037886
-0.290288 0.090041 -0.462053
-0.290288 0.151476 -0.447561
-0.290288 0.497252 -0.014266
-0.290288 -0.145010 -0.468058
-0.290288 0.377547 0.301821
-0.290288 0.402088 -0.196463
-0.290288 0.036027 -0.469140
-0.290288 0.108827 0.462353
-0.290288 -0.302383 0.335238
-0.290288 0.352724 -0.351974
-0.290288 -0.026748 0.450306
-0.290288 0.305190 0.389957
-0.290288 0.366459 -0.321604
-0.290288 -0.454296 0.005007
-0.290288 -0.409615 0.202790
-0.290288 -0.443006 -0.148680
-0.290288 0.322586 0.352706
-0.290288 -0.469955 0.027254
-0.290288 0.377637 -0.327212
-0.290288 -0.154889 0.465636
-0.290288 -0.220538 0.385043
-0.290288 0.102199 -0.454732
-0.290288 -0.403567 0.260557
-0.290288 0.113124 0.463585
-0.290288 -0.429821 0.238362
-0.290288 0.235229 -0.392306
-0.290288 -0.260866 0.403401
-0.290288 -0.361927 -0.343465
-0.290288 0.349865 0.291838
-0.290288 -0.471050 0.044418
-0.290288 -0.174132 0.457947
-0.290288 0.487881 -0.081844
-0.290288 -0.461488 0.157065
-0.290288 0.121744 0.462055
-0.290288 -0.440176 0.117743
-0.290288 0.298246 -0.362010
-0.290288 0.276730 -0.383819
-0.290288 0.198323 0.410933
-0.290288 -0.026768 -0.466709
-0.290288 0.017983 0.478126
-0.290288 -0.342273 -0.287546
-0.290288 0.473029 0.092146
-0.290288 -0.228593 0.385287
-0.290288 0.452092 -0.065178
-0.290288 -0.162164 -0.455246
-0.290288 -0.454522 -0.108424
-0.290288 0.207346 0.434871
-0.290288 0.275481 -0.402592
-0.290288 -0.064917 -0.457773
-0.290288 -0.201190 -0.430071
-0.290288 -0.392365 0.299352
-0.290288 -0.397576 -0.265548
-0.290288 0.372063 0.266696
-0.290288 0.480123 0.062128
-0.290288 0.305322 0.328529
-0.290288 0.146111 0.429752
-0.290288 -0.439893 -0.230421
-0.290288 -0.024809 -0.495411
-0.290288 -0.326412 -0.354180
-0.290288 -0.369928 0.293831
-0.290288 0.409804 -0.258945
-0.290288 -0.430758 0.226752
-0.290288 -0.491917 0.036441
-0.290288 -0.325978 -0.368809
-0.290288 -0.447462 -0.142175
-0.290288 -0.241979 0.407791
-0.290288 -0.414107 0.203319
-0.290288 0.066914 -0.450312
-0.290288 -0.480062 -0.078897
-0.290288 -0.443357 -0.170054
-0.290288 -0.027362 0.443266
-0.290288 0.453223 -0.002468
-0.290288 -0.494089 -0.053368
-0.290288 0.172994 0.444660
-0.290288 0.316154 0.378147
-0.290288 -0.003956 0.456497
-0.290288 0.297105 0.362204
-0.290288 0.056397 -0.459012
-0.290288 -0.204332 -0.397750
-0.290288 -0.437741 0.179664
-0.290288 0.186799 0.403992
-0.290288 0.084323 0.463001
-0.290288 -0.204689 -0.420936
-0.290288 0.445615 0.148095
-0.290288 0.071034 -0.494757
-0.290288 -0.484388 -0.055132
-0.290288 -0.128532 -0.454774
-0.290288 0.040540 -0.476566
-0.290288 0.470357 0.137341
-0.290288 0.177636 0.458934
-0.290288 -0.339828 -0.289882
-0.290288 0.414970 -0.270581
-0.290288 0.338785 0.305934
-0.290288 -0.093758 0.438841
-0.290288 0.470205 -0.028567
-0.290288 0.449127 0.033463
-0.290288 0.436581 0.212386
-0.290288 -0.247138 -0.390379
-0.290288 -0.237304 0.426912
-0.290288 0.383285 0.268716
-0.290288 -0.369641 0.314443
-0.290288 -0.219332 0.419815
-0.290288 -0.422939 -0.243451
-0.290288 0.397647 -0.291793
-0.290288 0.157131 -0.421849
-0.290288 0.234498 -0.388559
-0.290288 0.048659 -0.466127
-0.290288 -0.191273 0.411433
-0.290288 -0.065455 0.490659
-0.290288 -0.402037 -0.293436
-0.290288 -0.248494 -0.371991
-0.290288 0.443430 0.120720
-0.290288 -0.065925 -0.495237
-0.290288 -0.258453 0.422257
-0.290288 -0.422702 0.243601
-0.290288 0.378994 -0.274846
-0.290288 -0.453988 0.027036
-0.290288 -0.424763 0.197622
-0.290288 0.430880 -0.174158
-0.290288 -0.388623 0.226576
-0.290288 0.385122 0.253060
-0.290288 -0.197104 -0.407154
-0.290288 0.422740 -0.156639
-0.290288 0.072057 0.437406
-0.290288 -0.395802 0.293311
-0.290288 -0.326705 0.306398
-0.290288 0.400421 -0.233395
-0.290288 -0.363883 0.283988
-0.290288 0.465097 -0.128426
-0.290288 0.404124 -0.261034
-0.290288 0.106777 0.467092
-0.290288 -0.240776 0.424598
-0.290288 0.345665 0.309979
-0.290288 0.360971 -0.295235
-0.290288 -0.403019 0.228283
-0.290288 -0.074845 0.460776
-0.290288 0.168789 0.465186
-0.290288 -0.421464 0.249127
-0.290288 0.350180 0.339606
-0.290288 0.451721 0.125457
-0.290288 -0.157781 0.431433
-0.290288 -0.288244 0.394624
-0.290288 0.445043 0.213754
-0.290288 -0.381462 -0.267935
-0.290288 0.064262 -0.480430
-0.290288 -0.262504 -0.371750
-0.290288 -0.346201 -0.335829
-0.290288 -0.007720 0.450101
-0.290288 0.012383 -0.461330
-0.290288 0.423388 -0.218694
-0.290288 -0.476412 0.016792
-0.290288 0.055417 -0.467651
-0.290288 -0.439642 0.175759
-0.290288 0.466890 -0.107139
-0.290288 -0.452404 -0.066555
-0.290288 0.134735 0.473704
-0.290288 -0.458061 0.003049
-0.290288 -0.374708 0.296607
-0.290288 -0.056933 -0.444070
-0.290288 0.414452 -0.257945
-0.290288 0.340272 0.296004
-0.290288 0.488214 -0.084854
-0.290288 0.181873 0.421911
-0.290288 -0.453292 0.126254
-0.290288 0.445292 0.094658
-0.290288 -0.101255 0.441791
-0.290288 -0.359381 0.302964
-0.290288 0.478605 -0.043839
-0.290288 0.175513 0.438092
-0.290288 0.247440 0.373483
-0.290288 0.496233 0.014910
-0.290288 0.445703 0.110094
-0.290288 -0.442094 -0.088037
-0.290288 0.403579 -0.225768
-0.290288 0.432254 0.158322
-0.290288 0.000155 0.463103
-0.290288 0.196376 -0.416894
-0.290288 0.138474 0.430159
-0.290288 0.131266 -0.454303
-0.290288 0.451965 -0.152402
-0.290288 -0.315914 0.360928
-0.290288 0.050773 -0.462428
-0.290288 0.376598 0.275731
-0.290288 0.171487 -0.445167
-0.290288 0.486248 -0.107588
-0.290288 -0.256409 -0.421117
-0.290288 -0.357474 -0.326325
-0.290288 -0.300400 0.382469
-0.290288 0.258564 -0.370528
-0.290288 0.036778 0.461250
-0.290288 -0.444936 0.122391
-0.290288 0.383051 0.250110
-0.290288 -0.224719 0.383020
-0.290288 -0.406486 0.253090
-0.290288 -0.482576 0.052509
-0.290288 0.194191 0.415977
-0.290288 -0.479785 0.071052
-0.290288 0.279705 0.408377
-0.290288 -0.096591 -0.447117
-0.290288 0.396843 0.207178
-0.290288 0.269158 0.393034
-0.290288 0.444154 -0.167077
-0.290288 -0.390563 -0.216998
-0.290288 0.339584 -0.319685
-0.290288 -0.411378 0.209566
-0.290288 -0.398583 0.208790
-0.290288 0.217824 -0.391221
-0.290288 -0.464892 0.022351
-0.290288 0.418210 0.258384
-0.290288 -0.446927 -0.083727
-0.290288 -0.372271 0.254598
-0.290288 0.421188 -0.215827
-0.290288 0.245429 -0.375030
-0.290288 0.439293 0.181382
-0.290288 -0.308987 0.376336
-0.290288 0.306916 -0.386129
-0.290288 -0.440289 -0.214378
-0.290288 -0.279089 -0.400353
-0.290288 0.380905 0.271852
-0.290288 -0.455240 -0.072589
-0.290288 -0.171333 0.433068
-0.290288 0.069791 -0.473698
-0.290288 -0.399376 0.235543
-0.290288 0.271415 0.401157
-0.290288 -0.250915 -0.417703
-0.290288 -0.104629 -0.459775
-0.290288 0.140455 -0.475514
-0.290288 -0.128227 0.457040
-0.290288 -0.467334 0.083602
-0.290288 -0.357571 -0.317667
-0.290288 -0.335719 0.355193
-0.290288 -0.416474 0.256141
-0.290288 0.293797 -0.355027
-0.290288 -0.280671 0.381253
-0.290288 -0.475158 -0.148680
-0.290288 0.468481 -0.113174
-0.290288 0.236534 0.380208
-0.290288 0.374026 0.271969
-0.290288 -0.487445 -0.018277
-0.290288 0.377696 0.306533
-0.290288 -0.391190 0.210906
-0.290288 0.426120 0.255272
-0.290288 -0.082560 0.453898
-0.290288 0.365492 -0.328538
-0.290288 -0.291340 -0.402194
-0.290288 -0.137427 0.474611
-0.290288 0.434560 0.170102
-0.290288 0.381159 -0.255596
-0.290288 -0.333102 -0.349553
-0.290288 -0.468252 -0.023385
-0.290288 -0.169869 -0.437060
-0.290288 0.428658 0.213434
-0.290288 -0.364707 0.329679
-0.290288 0.326821 -0.358156
-0.290288 0.361245 0.301541
-0.290288 0.327876 -0.345775
-0.290288 -0.477720 -0.061676
-0.290288 0.164247 0.418265
-0.290288 -0.397491 0.220815
-0.290288 0.458236 0.038309
-0.290288 0.079501 -0.474331
-0.290288 0.464169 0.160961
-0.290288 0.378926 -0.281126
-0.290288 0.306183 0.365129
-0.290288 0.436939 0.196285
-0.290288 0.012958 -0.484434
-0.290288 0.013587 -0.469582
-0.290288 -0.366074 -0.268038
-0.290288 0.343291 0.324409
-0.290288 0.345905 0.291251
-0.290288 -0.145856 -0.426315
-0.290288 0.133372 -0.459324
-0.290288 0.202801 0.452337
-0.290288 0.286429 0.390027
-0.290288 0.139489 -0.449221
-0.290288 0.102862 0.446297
-0.290288 0.009869 -0.458518
-0.290288 -0.237630 0.430401
-0.290288 -0.287220 -0.384779
-0.290288 -0.396676 0.240390
-0.290288 0.149147 -0.458648
-0.290288 0.460136 0.140244
-0.290288 -0.455497 -0.170209
-0.290288 0.258884 -0.420725
-0.290288 -0.427422 -0.125493
-0.290288 0.467810 0.120604
-0.290288 -0.191331 -0.423224
-0.290288 0.451392 0.137749
-0.290288 0.336837 -0.360164
-0.290288 0.131787 -0.469657
-0.290288 -0.375237 -0.312686
-0.290288 0.434777 0.153106
-0.290288 -0.225153 0.398971
-0.290288 -0.312580 -0.365699
-0.290288 -0.473893 0.127530
-0.290288 0.438563 0.082089
-0.290288 0.109463 -0.471028
-0.290288 0.473889 0.098451
-0.290288 0.489785 -0.090771
-0.290288 0.435626 0.133647
-0.290288 -0.428235 0.248247
-0.290288 0.416179 0.255774
-0.290288 -0.057164 0.462656
-0.290288 0.446198 0.122820
-0.290288 -0.424901 0.194261
-0.290288 0.421991 -0.258128
-0.290288 -0.004294 -0.480774
-0.290288 0.387753 0.301258
-0.290288 -0.488556 -0.006000
-0.290288 0.374117 0.290344
-0.290288 0.416141 0.202777
-0.290288 0.475446 -0.026857
-0.290288 0.392941 0.292617
-0.290288 0.450273 -0.156200
-0.290288 0.253529 -0.430243
-0.290288 -0.365305 -0.337307
-0.290288 0.421219 0.154008
-0.290288 0.321791 -0.310623
-0.290288 0.492510 0.056059
-0.290288 0.358597 0.331190
-0.290288 -0.443470 -0.173817
-0.290288 -0.470002 0.154938
-0.290288 0.345935 -0.283672
-0.290288 -0.461416 0.103817
-0.290288 0.341055 -0.351312
-0.290288 -0.077454 -0.470951
-0.290288 0.434293 -0.125369
-0.290288 0.232863 -0.428611
-0.290288 -0.199645 -0.424402
-0.290288 -0.484773 -0.046780
-0.290288 0.495050 0.001708
-0.290288 0.480951 0.011897
-0.290288 0.443127 0.050820
-0.290288 -0.276746 0.356845
-0.290288 0.354137 0.293217
-0.290288 -0.362932 0.263478
-0.290288 0.321623 -0.314074
-0.290288 0.300394 -0.354591
-0.290288 0.112772 -0.477841
-0.290288 -0.062760 -0.460116
-0.290288 0.356450 -0.312068
-0.290288 0.007265 0.484197
-0.290288 -0.412160 -0.261627
-0.290288 0.384592 0.304373
-0.290288 -0.049010 0.480097
-0.290288 0.474067 -0.126233
-0.290288 0.170210 0.421099
-0.290288 0.224084 -0.435233
-0.290288 0.366617 -0.306654
-0.290288 0.342634 0.285650
-0.290288 0.436389 -0.170392
-0.290288 0.457711 0.011915
-0.290288 -0.372094 -0.296880
-0.290288 -0.308340 -0.385224
-0.290288 0.448951 -0.169628
-0.290288 0.335006 -0.308082
-0.290288 0.344914 0.300158
-0.290288 -0.019437 -0.453727
-0.290288 -0.151897 -0.463753
-0.290288 0.425976 0.132431
-0.290288 0.348624 0.310562
-0.290288 -0.362661 -0.317350
-0.290288 0.230175 0.434985
-0.290288 -0.481523 -0.111865
-0.290288 -0.411882 0.276514
-0.290288 -0.267453 0.409762
-0.290288 0.447206 -0.010057
-0.290288 0.045458 0.451712
-0.290288 0.031570 0.474527
-0.290288 -0.263552 0.373040
-0.290288 -0.444584 -0.178815
-0.290288 -0.015586 0.472450
-0.290288 -0.409582 -0.177807
-0.290288 0.308812 0.353602
-0.290288 -0.402729 0.210821
-0.290288 -0.447012 -0.112405
-0.290288 -0.195731 0.405637
-0.290288 0.048923 0.470265
-0.290288 -0.435279 0.094985
-0.290288 -0.005923 0.443206
-0.290288 0.131722 0.452203
-0.290288 -0.486234 0.079460
-0.290288 0.290100 0.345628
-0.290288 -0.468325 -0.156120
-0.290288 -0.246746 -0.412673
-0.290288 0.388560 0.290249
-0.290288 0.165528 0.426349
