0.286960 0.307382 -0.325483
0.286960 0.457394 0.027300
0.286960 0.013353 0.492975
0.286960 -0.446671 -0.146977
0.286960 0.467517 0.121718
0.286960 -0.495088 -0.042383
0.286960 -0.239735 -0.436851
0.286960 0.280299 0.357107
0.286960 0.454891 -0.012296
0.286960 -0.024684 0.469120
0.286960 -0.023321 -0.474683
0.286960 -0.443599 -0.036748
0.286960 0.465590 -0.047732
0.286960 0.038835 -0.469728
0.286960 -0.307794 0.334594
0.286960 0.291517 0.397323
0.286960 0.154287 -0.470319
0.286960 -0.491234 -0.070449
0.286960 0.337194 -0.361275
0.286960 -0.464086 0.135511
0.286960 0.431826 -0.157058
0.286960 0.426521 -0.181238
0.286960 0.299296 0.373585
0.286960 -0.226327 -0.421296
0.286960 -0.185732 0.412714
0.286960 -0.447548 0.113801
0.286960 0.463962 -0.017043
0.286960 -0.018649 0.473483
0.286960 0.445341 -0.084583
0.286960 0.295380 -0.365607
0.286960 0.078306 0.445730
0.286960 0.205888 0.416158
0.286960 -0.449424 -0.169845
0.286960 0.379904 0.231867
0.286960 -0.458160 -0.079195
0.286960 -0.141244 -0.433532
0.286960 -0.386453 -0.281924
0.286960 0.095442 -0.448932
0.286960 -0.389597 -0.243567
0.286960 0.373345 0.326845
0.286960 0.471239 0.080120
0.286960 -0.464073 -0.180692
0.286960 -0.452758 -0.079260
0.286960 0.313779 0.350030
0.286960 0.392609 0.218885
0.286960 0.224291 -0.395501
0.286960 0.474616 0.061556
0.286960 -0.229655 -0.391791
0.286960 0.164618 0.428298
0.286960 0.380868 0.279720
0.286960 0.358125 -0.313989
0.286960 -0.400910 -0.229456
0.286960 0.455693 0.031101
0.286960 -0.440679 0.068649
0.286960 0.382396 -0.304278
0.286960 -0.385955 -0.238320
0.286960 0.114586 0.478465
0.286960 -0.475369 -0.064749
0.286960 -0.409372 -0.235287
0.286960 -0.385629 -0.255218
0.286960 -0.309816 -0.366010
0.286960 -0.395443 0.250753
0.286960 -0.356352 -0.284537
0.286960 -0.106280 0.483905
0.286960 0.433999 -0.104288
0.286960 -0.108313 0.456140
0.286960 0.060297 0.478580
0.286960 0.107425 -0.450014
0.286960 0.478989 0.045696
0.286960 0.442951 0.193565
0.286960 0.257283 -0.387904
0.286960 -0.366424 0.312383
0.286960 -0.054178 -0.496312
0.286960 0.325316 -0.314084
0.286960 -0.421371 0.256573
0.286960 0.494308 -0.039115
0.286960 -0.102421 -0.436274
0.286960 0.302748 0.326356
0.286960 -0.480762 0.083319
0.286960 -0.437258 0.179760
0.286960 0.413948 0.250463
0.286960 -0.439964 0.190751
0.286960 -0.288809 0.358522
0.286960 0.332007 -0.372353
0.286960 0.455507 -0.129244
0.286960 -0.488350 0.033814
0.286960 -0.474032 0.128409
0.286960 0.323371 -0.341584
0.286960 -0.440048 0.173109
0.286960 -0.464118 0.100047
0.286960 -0.252120 0.421693
0.286960 0.466974 -0.005725
0.286960 -0.434416 -0.225675
0.286960 0.019553 -0.495361
0.286960 -0.135438 0.468098
0.286960 0.474108 0.073453
0.286960 0.344523 0.280809
0.286960 0.394791 0.300917
0.286960 -0.233083 -0.392167
0.286960 -0.099166 -0.436574
0.286960 -0.353423 0.287956
0.286960 0.461663 -0.190516
0.286960 0.480198 0.105892
0.286960 -0.427393 0.134524
0.286960 0.229099 -0.384663
0.286960 -0.404480 -0.250006
0.286960 -0.282821 0.399220
0.286960 -0.434609 -0.195944
0.286960 0.144890 0.455491
0.286960 0.389751 -0.230891
0.286960 -0.472649 -0.157379
0.286960 0.258066 -0.381811
0.286960 0.449325 -0.041847
0.286960 0.361513 -0.314920
0.286960 -0.489060 -0.016967
0.286960 0.140768 0.421357
0.286960 -0.474543 -0.100991
0.286960 -0.396576 -0.210889
0.286960 0.044318 -0.448331
0.286960 0.076710 0.462703
0.286960 0.250948 0.420502
0.286960 0.335761 0.301929
0.286960 -0.452954 0.020361
0.286960 -0.385130 0.267799
0.286960 0.272839 -0.363377
0.286960 -0.441428 0.128166
0.286960 0.370450 0.318507
0.286960 -0.068554 -0.463449
0.286960 -0.341267 -0.361571
0.286960 -0.256143 -0.424783
0.286960 -0.457419 0.193251
0.286960 -0.416407 0.247808
0.286960 0.475547 -0.149105
0.286960 -0.479847 -0.060618
0.286960 -0.319921 -0.337229
0.286960 0.453764 0.203656
0.286960 -0.452442 0.023939
0.286960 -0.310278 -0.381944
0.286960 0.401855 -0.249233
0.286960 0.442925 -0.124525
0.286960 -0.123784 -0.453207
0.286960 -0.189682 0.456848
0.286960 0.049146 -0.462885
0.286960 -0.432365 -0.217336
0.286960 -0.460515 0.029014
0.286960 0.341441 -0.318971
0.286960 0.108495 -0.461883
0.286960 0.419571 -0.265037
0.286960 -0.454227 0.183590
0.286960 0.392330 0.213287
0.286960 0.212512 0.394129
0.286960 0.255803 -0.421502
0.286960 0.111866 -0.443201
0.286960 0.440020 0.163117
0.286960 0.365625 0.280282
0.286960 -0.444365 -0.187280
0.286960 0.392404 -0.268125
0.286960 -0.257249 0.414316
0.286960 -0.432309 0.102782
0.286960 0.132884 -0.462658
0.286960 0.356637 -0.298870
0.286960 0.457544 0.114736
0.286960 0.410199 -0.178895
0.286960 0.395323 -0.282462
0.286960 0.464528 0.126381
0.286960 0.478067 -0.101738
0.286960 0.332460 0.300770
0.286960 -0.427202 0.251252
0.286960 0.307018 -0.374501
0.286960 -0.477342 -0.001729
0.286960 -0.366216 0.323185
0.286960 0.376476 -0.286783
0.286960 0.016006 0.490551
0.286960 -0.403455 0.260159
0.286960 -0.103233 0.481959
0.286960 -0.171866 -0.457000
0.286960 0.472212 -0.101852
0.286960 -0.257443 -0.365954
0.286960 -0.470504 -0.056045
0.286960 -0.229945 -0.404809
0.286960 -0.078056 -0.467316
0.286960 -0.311252 0.333554
0.286960 0.039624 -0.455022
0.286960 0.459564 0.117821
0.286960 -0.470432 -0.130417
0.286960 0.311375 -0.360431
0.286960 0.458517 -0.101568
0.286960 -0.442339 0.084330
0.286960 0.434198 -0.111282
0.286960 -0.316673 0.316570
0.286960 0.148759 -0.425699
0.286960 -0.062245 0.464292
0.286960 -0.464650 0.030644
0.286960 -0.141225 -0.444753
0.286960 -0.347966 0.353148
0.286960 -0.208264 0.444130
0.286960 -0.397474 -0.287159
0.286960 0.404935 -0.260906
0.286960 0.466608 -0.130307
0.286960 0.399815 -0.232908
0.286960 0.016440 0.475983
0.286960 0.463406 -0.107290
0.286960 0.049993 0.465841
0.286960 -0.037077 -0.454118
0.286960 -0.438790 -0.086686
0.286960 -0.350302 -0.310833
0.286960 0.142616 0.424636
0.286960 0.459168 0.012582
0.286960 0.249216 0.401443
0.286960 -0.194911 -0.411273
0.286960 0.125196 -0.460779
0.286960 0.004159 0.480947
0.286960 0.392735 0.295828
0.286960 -0.090970 0.438434
0.286960 0.126267 0.467052
0.286960 -0.214729 -0.400256
0.286960 0.042255 0.453489
0.286960 -0.382521 -0.248891
0.286960 -0.448230 0.142012
0.286960 0.437412 -0.088597
0.286960 -0.218684 0.432891
0.286960 -0.270579 0.395133
0.286960 -0.448305 -0.181343
0.286960 0.495244 -0.007873
0.286960 -0.299255 -0.351129
0.286960 0.316611 -0.362699
0.286960 -0.273695 0.401807
0.286960 -0.411687 0.224122
0.286960 -0.476913 0.036119
0.286960 -0.106126 0.450441
0.286960 0.113579 0.444066
0.286960 0.046534 -0.460736
0.286960 -0.486350 -0.076825
0.286960 0.473613 0.125378
0.286960 0.281543 -0.399690
0.286960 -0.309134 0.351202
0.286960 -0.402266 0.264235
0.286960 -0.253250 -0.381221
0.286960 -0.298689 0.333631
0.286960 -0.342348 -0.351982
0.286960 -0.466777 -0.034756
0.286960 0.226268 -0.392966
0.286960 0.233634 0.425959
0.286960 0.074916 -0.474036
0.286960 0.230672 -0.408701
0.286960 -0.084050 -0.441016
0.286960 -0.015412 0.479863
0.286960 0.449979 -0.112256
0.286960 -0.108711 -0.441142
0.286960 -0.489700 0.070601
0.286960 -0.417056 -0.227657
0.286960 -0.469566 -0.012645
0.286960 0.249302 -0.412451
0.286960 0.458392 -0.041583
0.286960 0.033650 -0.483472
0.286960 -0.430770 -0.185095
0.286960 0.309063 0.350814
0.286960 -0.380759 -0.294873
0.286960 0.397605 0.274875
0.286960 -0.354461 -0.316724
0.286960 0.385843 0.236739
0.286960 -0.451033 -0.100671
0.286960 -0.404972 0.257468
0.286960 0.168139 0.439685
0.286960 -0.116767 0.464924
0.286960 -0.442276 0.211091
0.286960 0.007132 -0.480540
0.286960 -0.281074 0.382153
0.286960 -0.437361 0.221113
0.286960 -0.484733 0.064517
0.286960 -0.455920 0.123514
0.286960 -0.176070 0.418203
0.286960 0.428443 0.196415
0.286960 -0.423363 0.217210
0.286960 0.262682 0.382666
0.286960 0.475949 -0.071092
0.286960 0.470284 0.088295
0.286960 0.390386 -0.279291
0.286960 0.480472 -0.070250
0.286960 -0.188089 -0.442023
0.286960 -0.447364 0.028243
0.286960 0.437462 -0.125644
0.286960 0.384114 -0.264143
0.286960 -0.271912 0.391272
0.286960 0.454612 0.092460
0.286960 -0.341308 -0.334316
0.286960 0.234554 0.392348
0.286960 -0.439155 -0.115199
0.286960 0.451545 0.055101
0.286960 0.488140 0.096304
0.286960 -0.147993 -0.469536
0.286960 0.026842 -0.499438
0.286960 0.122418 -0.478354
0.286960 0.125971 -0.473375
0.286960 -0.449471 -0.112793
0.286960 -0.289225 0.349282
0.286960 -0.434043 0.118044
0.286960 0.337624 -0.336917
0.286960 -0.226636 -0.411332
0.286960 -0.260770 -0.417369
0.286960 0.310814 -0.346078
0.286960 0.441654 0.167351
0.286960 0.464109 -0.132374
0.286960 0.427696 0.203175
0.286960 0.301070 -0.386955
0.286960 0.449145 0.076960
0.286960 0.173567 -0.458692
0.286960 0.481432 -0.013910
0.286960 -0.015553 -0.452796
0.286960 0.368660 -0.277434
0.286960 0.189114 0.425283
0.286960 -0.227109 -0.396037
0.286960 -0.403120 0.206575
0.286960 -0.359959 0.332015
0.286960 -0.376741 0.237127
0.286960 -0.492393 -0.032747
0.286960 -0.336497 0.293939
0.286960 -0.163498 -0.444425
0.286960 0.455693 -0.065195
0.286960 0.097597 0.473455
0.286960 0.100551 0.463913
0.286960 -0.284556 -0.346258
0.286960 -0.108233 -0.465499
0.286960 -0.446248 0.192513
0.286960 0.489429 0.027593
0.286960 -0.423620 -0.224021
0.286960 0.418501 0.259458
0.286960 -0.429626 -0.243010
0.286960 -0.314201 0.355376
0.286960 0.275677 0.347839
0.286960 -0.201305 -0.436035
0.286960 -0.242786 -0.392850
0.286960 0.436496 -0.196708
0.286960 -0.063682 0.474933
0.286960 -0.396681 -0.283471
0.286960 -0.489396 0.086236
0.286960 0.449540 0.062005
0.286960 0.301179 0.339955
0.286960 -0.485487 -0.014741
0.286960 0.466005 0.048739
0.286960 -0.402745 -0.198906
0.286960 0.340673 0.338203
0.286960 0.291389 -0.388774
0.286960 -0.064319 -0.450674
0.286960 -0.232046 0.393399
0.286960 0.081107 -0.474601
0.286960 -0.329488 -0.304062
0.286960 -0.161739 0.451031
0.286960 0.357558 0.274732
0.286960 -0.478089 -0.051192
0.286960 -0.387316 -0.273347
0.286960 0.458104 -0.005917
0.286960 -0.474790 -0.131198
0.286960 -0.437845 0.111669
0.286960 0.235600 -0.405202
0.286960 -0.193614 0.446765
0.286960 0.347614 -0.291706
0.286960 -0.363346 0.305369
0.286960 -0.212860 -0.413459
0.286960 0.072565 0.450511
0.286960 0.245853 -0.374652
0.286960 -0.466407 0.011415
0.286960 0.366509 0.290840
0.286960 0.161351 0.450694
0.286960 -0.330263 0.324319
0.286960 -0.321869 -0.357489
0.286960 -0.435890 -0.136097
0.286960 -0.000721 0.483881
0.286960 -0.440148 -0.066871
0.286960 0.038489 0.494421
0.286960 0.465249 0.052325
0.286960 -0.448778 0.211056
0.286960 0.163155 -0.472640
0.286960 -0.487672 -0.040396
0.286960 0.457720 0.043567
0.286960 -0.474836 0.041842
0.286960 -0.403340 0.243104
0.286960 0.277961 -0.413534
0.286960 0.116635 -0.478311
0.286960 0.103692 0.469493
0.286960 0.195806 0.419583
0.286960 -0.467729 0.007920
0.286960 0.129248 0.444880
0.286960 0.359160 -0.321811
0.286960 0.381847 0.291279
0.286960 0.411616 0.243732
0.286960 -0.407960 0.192322
0.286960 -0.458542 -0.060712
0.286960 -0.457129 0.067407
0.286960 0.440196 -0.196562
0.286960 0.150857 -0.440264
0.286960 0.316520 0.380879
0.286960 -0.072358 0.464787
0.286960 0.288213 0.365526
0.286960 0.432233 0.165837
0.286960 -0.130118 0.442212
0.286960 0.322545 0.369154
0.286960 0.474649 -0.120583
0.286960 -0.351519 0.326248
0.286960 -0.326200 -0.337705
0.286960 0.466678 0.061509
0.286960 0.293403 0.345694
0.286960 -0.446591 -0.175446
0.286960 0.393786 0.277712
0.286960 -0.463660 0.175322
0.286960 -0.408311 0.223027
0.286960 -0.330051 0.296848
0.286960 -0.324363 0.374907
0.286960 -0.112151 0.455157
0.286960 -0.060289 -0.463005
0.286960 -0.415526 0.271548
0.286960 0.242091 -0.408695
0.286960 -0.307234 -0.382154
0.286960 -0.424926 0.228654
0.286960 0.419308 -0.193429
0.286960 0.037088 -0.473929
0.286960 0.377277 0.300904
0.286960 0.349788 -0.329657
0.286960 0.275029 -0.369931
0.286960 -0.321946 0.318991
0.286960 0.470118 0.149882
0.286960 0.073963 0.464939
0.286960 -0.456656 0.155566
0.286960 0.290917 0.337281
0.286960 0.380630 -0.234102
0.286960 -0.353725 -0.296433
0.286960 -0.401195 -0.234277
0.286960 0.380588 0.302445
0.286960 -0.474635 -0.020714
0.286960 -0.211348 0.433165
0.286960 0.314539 -0.332105
0.286960 0.384248 0.308541
0.286960 -0.345786 0.342186
0.286960 -0.453830 0.055203
0.286960 -0.226383 0.391162
0.286960 0.420805 -0.208495
0.286960 0.490273 0.084470
0.286960 -0.083843 0.487727
0.286960 0.314770 -0.343298
0.286960 0.284894 0.390298
0.286960 0.486408 0.013709
0.286960 -0.205536 -0.441982
0.286960 -0.406988 -0.243158
0.286960 -0.476937 -0.085643
0.286960 0.016905 0.494480
0.286960 0.094801 -0.465146
0.286960 -0.383518 0.248274
0.286960 -0.321700 -0.334051
0.286960 -0.111731 -0.433963
0.286960 -0.285496 -0.349810
0.286960 0.333206 0.355015
0.286960 -0.207629 0.432372
0.286960 -0.409707 0.202004
0.286960 0.276579 -0.361241
0.286960 -0.058025 0.439324
0.286960 0.354494 -0.335431
0.286960 -0.406786 0.204504
0.286960 -0.062855 0.468323
0.286960 -0.407320 -0.252858
0.286960 0.195577 0.406044
0.286960 0.429526 0.207281
0.286960 -0.061212 -0.454828
0.286960 -0.460386 0.070412
0.286960 -0.447355 -0.136781
0.286960 -0.329381 0.309049
0.286960 -0.143597 0.437031
0.286960 0.022508 0.489279
0.286960 -0.450531 -0.209711
0.286960 0.413385 0.199765
0.286960 -0.480729 0.086547
0.286960 0.452715 -0.132076
0.286960 -0.263062 -0.409277
0.286960 -0.372588 0.318655
0.286960 0.383789 -0.296928
0.286960 -0.104365 -0.481015
0.286960 0.435774 0.141717
0.286960 0.304618 -0.396361
0.286960 0.437625 -0.130069
0.286960 -0.450744 0.027172
0.286960 0.223609 0.442434
0.286960 0.019129 0.448904
0.286960 -0.457617 -0.175702
0.286960 0.135826 0.448048
0.286960 -0.458313 -0.019225
0.286960 -0.219433 -0.427972
0.286960 -0.294372 0.372629
0.286960 -0.240407 0.425270
0.286960 0.009336 -0.495805
0.286960 -0.274698 -0.364336
0.286960 -0.008408 -0.460038
0.286960 0.391384 -0.247258
0.286960 -0.082789 -0.455788
0.286960 0.039872 0.455770
0.286960 0.435103 0.146502
0.286960 -0.325308 -0.366855
0.286960 -0.195419 -0.457312
0.286960 0.305377 0.375707
0.286960 -0.469669 0.045832
0.286960 -0.133892 0.460832
0.286960 -0.327091 0.348578
0.286960 0.046498 -0.493473
0.286960 -0.400801 -0.252501
0.286960 -0.342720 -0.292622
0.286960 -0.452948 -0.000789
0.286960 0.417921 0.191927
0.286960 -0.427015 -0.162356
0.286960 0.072053 -0.470233
0.286960 -0.480219 0.052491
0.286960 -0.293680 -0.370192
0.286960 0.434511 0.201822
0.286960 0.262525 -0.404359
0.286960 0.266913 0.367942
0.286960 0.148238 -0.430528
0.286960 0.006601 0.461786
0.286960 -0.414587 -0.258899
0.286960 0.480398 -0.010175
0.286960 0.273065 -0.417911
0.286960 -0.383231 0.260162
0.286960 -0.465601 -0.039184
0.286960 0.006937 -0.467452
0.286960 0.289080 0.355195
0.286960 0.271129 0.415449
0.286960 0.452035 0.115569
0.286960 0.040487 0.449320
0.286960 0.335401 0.347757
0.286960 0.103712 0.461954
0.286960 0.240856 -0.435711
0.286960 0.124349 0.427060
0.286960 0.209863 0.391145
0.286960 -0.221474 -0.399376
0.286960 0.203732 -0.417981
0.286960 0.044056 -0.497985
0.286960 -0.203281 0.419393
0.286960 -0.156292 -0.432986
0.286960 -0.397196 -0.218300
0.286960 -0.389408 0.228012
0.286960 -0.385844 0.273120
0.286960 -0.206020 0.438640
0.286960 -0.446899 -0.054070
0.286960 -0.316326 0.348141
0.286960 0.229484 -0.428923
0.286960 0.306502 0.333996
0.286960 0.465793 0.109688
0.286960 -0.074833 0.473896
0.286960 0.407212 -0.288579
0.286960 -0.024236 0.477369
0.286960 0.340080 -0.333719
0.286960 -0.075774 0.469657
0.286960 0.057664 -0.448682
0.286960 0.393631 -0.262478
0.286960 0.392910 -0.250299
0.286960 -0.424545 -0.148488
0.286960 -0.428940 0.121284
0.286960 -0.434604 0.208951
0.286960 0.353814 -0.331955
0.286960 0.328887 -0.330438
0.286960 0.449307 -0.184285
0.286960 0.311213 0.334845
0.286960 -0.320748 0.375998
0.286960 -0.407634 0.255192
0.286960 0.209063 -0.437873
0.286960 -0.357404 0.326845
0.286960 0.268223 -0.369812
0.286960 -0.151023 -0.454155
0.286960 -0.395270 0.253795
0.286960 -0.113236 0.429101
0.286960 -0.346636 -0.304550
0.286960 -0.443690 -0.067861
0.286960 0.399253 0.279930
0.286960 -0.412309 0.270772
0.286960 0.254295 -0.368977
0.286960 -0.076261 -0.485585
0.286960 -0.307827 0.319766
0.286960 0.462426 0.035290
0.286960 0.171043 0.413007
0.286960 0.204340 -0.411458
0.286960 0.065820 -0.495379
0.286960 0.004509 -0.496262
0.286960 -0.068912 -0.454405
0.286960 -0.463273 0.061517
0.286960 -0.119478 -0.462168
0.286960 -0.279513 -0.377724
0.286960 0.175381 -0.427839
0.286960 -0.446552 -0.167166
0.286960 0.420111 -0.215869
0.286960 -0.484287 0.035460
0.286960 0.173947 0.462703
0.286960 -0.456120 -0.102000
0.286960 -0.445408 0.197976
0.286960 0.050938 0.470394
0.286960 -0.433611 0.142034
0.286960 0.414836 0.180096
0.286960 0.186389 0.414399
0.286960 0.405832 0.221836
0.286960 -0.091725 -0.471556
0.286960 0.475101 0.042353
0.286960 0.023832 0.492134
0.286960 0.241235 -0.403291
0.286960 -0.218830 0.409141
0.286960 -0.187397 0.401906
0.286960 0.354647 -0.279466
0.286960 0.471242 -0.031982
0.286960 0.313800 0.373493
0.286960 -0.122876 0.457943
0.286960 0.426507 -0.135067
0.286960 0.423561 0.220477
0.286960 0.337623 -0.351026
0.286960 0.198653 0.433011
0.286960 -0.466111 -0.153017
0.286960 0.446178 0.170431
0.286960 -0.335615 0.312664
0.286960 -0.396955 -0.264167
0.286960 -0.441334 -0.141352
0.286960 0.487961 -0.026723
0.286960 0.447661 -0.082598
0.286960 0.367776 -0.331682
0.286960 0.358606 -0.318307
0.286960 0.465337 0.023983
0.286960 -0.181391 0.430008
0.286960 -0.473627 -0.008376
0.286960 -0.060279 0.442245
0.286960 -0.277780 0.393479
0.286960 0.210083 0.445125
0.286960 0.403352 0.251177
0.286960 -0.283449 0.394354
0.286960 0.048822 -0.468814
0.286960 0.379298 -0.311687
0.286960 -0.447625 0.081285
0.286960 -0.054335 0.492102
0.286960 0.373572 -0.273105
0.286960 -0.292250 0.343392
0.286960 0.203386 -0.425434
0.286960 -0.128325 0.436798
0.286960 0.207644 0.426955
0.286960 0.288296 -0.390188
0.286960 -0.367807 0.316682
0.286960 -0.405854 0.262233
0.286960 -0.448526 -0.018556
0.286960 0.063891 -0.490689
0.286960 0.445670 0.016646
0.286960 -0.370560 0.269326
0.286960 -0.483253 -0.020984
0.286960 0.228382 0.386429
0.286960 0.260588 -0.369927
0.286960 0.332786 -0.307569
0.286960 0.462208 0.112107
0.286960 0.344321 0.330172
0.286960 0.447247 0.065485
0.286960 -0.117416 -0.481642
0.286960 0.114477 0.474301
0.286960 -0.051988 0.483034
0.286960 0.435417 -0.162319
0.286960 0.449775 0.146932
0.286960 -0.454320 0.191540
0.286960 0.085808 -0.460209
0.286960 -0.171165 0.428811
0.286960 0.101221 0.443859
0.286960 -0.402161 -0.264859
0.286960 -0.444227 0.029396
0.286960 -0.294433 -0.402610
0.286960 -0.047353 -0.482876
0.286960 -0.436461 0.183620
0.286960 0.232377 0.437958
0.286960 0.400948 0.241918
0.286960 -0.488587 0.063596
0.286960 -0.052255 -0.482907
0.286960 0.398260 0.296605
0.286960 -0.310620 -0.361607
0.286960 0.436445 -0.165377
0.286960 -0.431825 -0.112978
0.286960 -0.225722 -0.405010
0.286960 0.448102 -0.079285
0.286960 -0.056604 -0.462197
0.286960 -0.333396 0.347942
0.286960 0.231484 0.378895
0.286960 -0.335807 0.364888
0.286960 0.005845 -0.447884
0.286960 -0.477279 -0.076136
0.286960 0.463523 -0.149605
0.286960 -0.358664 0.337255
0.286960 0.363372 -0.280838
0.286960 -0.441346 0.087442
0.286960 -0.064810 0.483347
0.286960 -0.311999 0.338424
0.286960 0.252273 -0.374352
0.286960 -0.283052 -0.377056
0.286960 0.444245 -0.155615
0.286960 -0.312441 -0.333985
0.286960 -0.392682 0.241331
0.286960 -0.318650 -0.344718
0.286960 -0.085592 0.441781
0.286960 -0.149459 0.432210
0.286960 0.436163 0.101128
0.286960 -0.426967 0.194823
0.286960 0.325949 -0.344422
0.286960 0.438194 0.213468
0.286960 0.420905 -0.148868
0.286960 0.093949 0.433391
0.286960 -0.039868 -0.464376
0.286960 0.089163 -0.478107
0.286960 0.090667 -0.464688
0.286960 -0.005015 0.469056
0.286960 0.287814 -0.383891
0.286960 -0.390342 -0.304946
0.286960 0.418324 -0.197748
0.286960 -0.432847 0.191321
0.286960 0.490055 -0.007383
0.286960 -0.052499 0.440345
0.286960 -0.049907 -0.480463
0.286960 -0.412272 0.205670
0.286960 0.476319 0.096809
0.286960 0.331268 0.349247
0.286960 -0.049322 0.441194
0.286960 0.468878 0.146479
0.286960 0.136847 -0.468745
0.286960 -0.211073 -0.453001
0.286960 0.404694 -0.250590
0.286960 -0.430669 0.194116
0.286960 -0.406172 -0.183834
0.286960 -0.190736 0.411571
0.286960 0.244585 -0.421726
0.286960 -0.467135 0.168103
0.286960 0.339323 -0.354883
0.286960 0.222428 -0.429938
0.286960 0.368083 0.283389
0.286960 -0.037518 -0.470048
0.286960 0.427464 0.159297
0.286960 -0.429793 0.128610
0.286960 -0.488289 -0.086108
0.286960 -0.415268 0.161786
0.286960 0.056546 -0.458197
0.286960 -0.448368 0.014265
0.286960 -0.477396 -0.122373
0.286960 -0.422629 0.155423
0.286960 0.456405 0.143801
0.286960 0.001200 -0.494987
0.286960 -0.450487 -0.004900
0.286960 -0.422865 0.197452
0.286960 0.043553 0.470134
0.286960 0.473993 -0.154211
0.286960 0.243218 -0.412281
0.286960 -0.457185 0.028334
0.286960 0.466960 -0.152544
0.286960 0.338343 -0.302649
0.286960 0.349484 -0.343465
0.286960 0.277523 0.394368
0.286960 0.011169 -0.480691
0.286960 -0.408607 0.228068
0.286960 -0.188059 -0.463087
0.286960 -0.166261 0.463621
0.286960 0.001251 -0.498794
0.286960 0.312766 -0.369538
0.286960 0.449996 0.183485
0.286960 -0.423254 -0.219880
0.286960 0.109886 0.452042
0.286960 0.346094 -0.322541
0.286960 0.280436 -0.356945
0.286960 -0.092482 -0.460409
0.286960 0.454941 -0.194383
0.286960 -0.303134 0.328648
0.286960 0.419251 0.213322
0.286960 -0.459570 0.180903
0.286960 -0.238000 -0.397774
0.286960 -0.046362 -0.449628
0.286960 0.292693 0.393533
0.286960 -0.100463 0.456105
0.286960 -0.111686 -0.451052
0.286960 -0.057435 -0.477822
0.286960 0.401140 -0.236259
0.286960 0.375432 -0.292687
0.286960 -0.453722 -0.096986
0.286960 0.064826 0.464986
0.286960 0.260846 -0.393216
0.286960 0.271668 -0.388674
0.286960 -0.074095 -0.463450
0.286960 -0.303832 0.357926
0.286960 0.396352 0.220259
0.286960 0.477388 0.064574
0.286960 0.279848 0.399800
0.286960 0.444848 0.052561
0.286960 0.378102 -0.308785
0.286960 -0.429999 -0.190597
0.286960 -0.126174 0.464944
0.286960 -0.151246 -0.474081
0.286960 0.132094 -0.457476
0.286960 0.062610 0.454165
0.286960 -0.461778 -0.019753
0.286960 -0.430863 -0.130994
0.286960 -0.170363 -0.428490
0.286960 0.434219 -0.201622
0.286960 -0.440306 0.064788
0.286960 0.072140 -0.488070
0.286960 -0.452171 -0.155261
0.286960 0.139581 0.475981
0.286960 0.257659 -0.368415
0.286960 0.346848 -0.319622
0.286960 -0.325665 -0.332243
0.286960 -0.270246 0.404947
0.286960 0.449837 0.170309
0.286960 0.128087 -0.468360
0.286960 -0.291992 0.362090
0.286960 0.395714 0.290567
0.286960 -0.032274 0.457369
0.286960 -0.369696 0.325193
0.286960 -0.435784 -0.228659
0.286960 -0.455119 0.197403
0.286960 0.009066 0.458764
0.286960 0.402617 0.239159
0.286960 0.449008 0.205778
0.286960 -0.144400 -0.477450
0.286960 -0.424088 0.132578
0.286960 0.495847 0.026459
0.286960 0.089188 -0.492169
0.286960 -0.482651 0.079133
0.286960 -0.308084 -0.325465
0.286960 0.238863 0.421060
0.286960 0.492883 0.064983
0.286960 -0.151856 -0.434185
0.286960 0.147379 0.420331
0.286960 -0.185145 -0.412410
0.286960 0.490832 -0.054179
0.286960 0.448678 0.199548
0.286960 0.237716 0.392997
0.286960 -0.130914 -0.443119
0.286960 0.251025 0.427654
0.286960 -0.443531 -0.204815
0.286960 0.180917 0.406720
0.286960 -0.442896 0.137734
0.286960 0.476240 -0.021846
0.286960 0.458965 -0.086412
0.286960 0.465373 0.090984
0.286960 -0.384994 0.227970
0.286960 0.401689 -0.206110
0.286960 -0.173269 -0.453739
0.286960 0.358612 0.278909
0.286960 -0.463589 0.130861
0.286960 -0.396143 0.200033
0.286960 0.490961 -0.014099
0.286960 0.444132 0.157701
0.286960 -0.351503 0.342331
0.286960 0.074408 -0.445233
0.286960 -0.473135 0.027528
0.286960 -0.135019 0.434599
0.286960 -0.457610 -0.164245
0.286960 -0.456972 -0.097782
0.286960 0.478237 -0.025112
0.286960 0.127338 0.472328
0.286960 0.446348 -0.182748
0.286960 -0.424691 -0.167726
0.286960 0.412423 -0.229407
0.286960 0.424862 -0.220996
0.286960 -0.467095 0.043238
0.286960 -0.122457 0.475146
0.286960 -0.433382 0.145861
0.286960 -0.252421 -0.392085
0.286960 -0.482247 -0.071694
0.286960 0.451340 -0.035022
0.286960 0.498087 -0.001745
0.286960 0.130182 0.435144
0.286960 -0.338945 -0.355486
0.286960 0.214113 -0.443757
0.286960 -0.425844 -0.258551
0.286960 -0.094777 0.461056
0.286960 -0.216289 0.415062
0.286960 -0.466236 0.047583
0.286960 0.141054 -0.426348
0.286960 -0.368687 -0.276928
0.286960 -0.191890 -0.440208
0.286960 -0.279776 -0.404712
0.286960 0.457298 0.122503
0.286960 -0.003453 0.490131
0.286960 -0.323383 0.328093
0.286960 -0.443048 -0.157726
0.286960 -0.437892 -0.128139
0.286960 -0.439949 0.166093
0.286960 0.255752 -0.372237
0.286960 -0.329252 0.301167
0.286960 0.216053 -0.418209
0.286960 0.070840 -0.479595
0.286960 0.142202 -0.459673
0.286960 -0.447746 0.077930
0.286960 -0.286040 -0.377853
0.286960 0.389685 -0.219260
0.286960 -0.140815 -0.475411
0.286960 0.386721 -0.266128
0.286960 0.376043 0.257675
0.286960 0.462375 0.085183
0.286960 -0.392371 0.213249
0.286960 -0.204558 -0.412020
0.286960 0.446688 0.048249
0.286960 0.138645 0.455594
0.286960 0.472767 -0.157940
0.286960 0.465066 0.064927
0.286960 -0.322086 -0.343312
0.286960 -0.367566 0.265278
0.286960 0.034173 0.485879
0.286960 -0.376023 0.240622
0.286960 -0.486774 0.025690
0.286960 -0.201801 -0.399774
0.286960 0.455125 -0.091623
0.286960 -0.265153 -0.403034
0.286960 -0.332441 0.356037
0.286960 -0.162475 0.463114
0.286960 0.149301 0.453478
0.286960 0.436467 0.092352
0.286960 -0.024008 -0.496170
0.286960 0.440762 -0.108475
0.286960 -0.022059 0.456177
0.286960 0.039787 0.477358
0.286960 -0.032870 -0.477855
0.286960 0.235959 0.412734
0.286960 -0.445836 -0.219966
0.286960 -0.324874 0.361581
0.286960 0.297021 -0.391002
0.286960 0.168388 0.456373
0.286960 0.438140 0.105066
0.286960 0.234601 -0.441194
0.286960 0.357188 0.332747
0.286960 0.197481 -0.410438
0.286960 -0.478246 0.128226
0.286960 0.422732 0.217222
0.286960 -0.449513 -0.103386
0.286960 0.459660 0.169802
0.286960 0.466161 0.150308
0.286960 -0.463575 -0.140027
0.286960 0.343520 0.343704
0.286960 -0.114349 0.431953
0.286960 0.414086 -0.274085
0.286960 0.442781 -0.199510
0.286960 0.060387 -0.456968
0.286960 -0.405853 0.277605
0.286960 0.209943 -0.404950
0.286960 0.425203 0.134983
0.286960 0.366673 0.252239
0.286960 -0.271936 0.355934
0.286960 0.374696 -0.330271
0.286960 0.054585 -0.488130
0.286960 -0.401210 -0.278669
0.286960 0.459253 -0.002334
0.286960 -0.074475 -0.478635
0.286960 -0.441675 -0.084304
0.286960 -0.070275 0.478725
0.286960 0.249915 -0.386807
0.286960 0.373025 0.260397
0.286960 -0.144574 -0.427946
0.286960 0.461363 0.016714
0.286960 0.369287 -0.273674
0.286960 -0.262106 0.414259
0.286960 -0.448267 -0.133037
0.286960 -0.470802 0.138360
0.286960 0.332459 0.346141
0.286960 0.374166 -0.263413
0.286960 -0.177693 -0.460338
0.286960 0.304191 0.361775
0.286960 -0.497302 -0.008018
0.286960 -0.377954 0.275510
0.286960 -0.360402 0.289529
0.286960 -0.167417 0.437924
0.286960 0.018789 -0.478700
0.286960 0.067876 -0.474222
0.286960 -0.422503 -0.244238
0.286960 0.168372 0.464539
0.286960 0.067178 0.450708
0.286960 -0.082323 -0.485789
0.286960 -0.359516 -0.303838
0.286960 0.446298 -0.026993
0.286960 -0.419290 0.250971
0.286960 0.053377 0.453952
0.286960 -0.352461 0.301823
0.286960 -0.315180 0.345169
0.286960 0.157732 0.422936
0.286960 -0.417813 -0.246243
0.286960 0.102344 -0.467090
0.286960 0.246989 -0.389934
0.286960 0.283388 -0.351372
0.286960 0.460910 0.044479
0.286960 0.207034 -0.454489
0.286960 -0.476187 0.062460
0.286960 -0.176100 0.444836
0.286960 -0.313933 0.325081
0.286960 0.402263 -0.202736
0.286960 -0.072225 -0.472274
0.286960 -0.158684 -0.473333
0.286960 0.058408 -0.444067
0.286960 0.452731 -0.148581
0.286960 0.011248 0.477363
0.286960 -0.350795 0.285806
0.286960 -0.285825 0.353203
0.286960 -0.216555 -0.410894
0.286960 -0.432290 0.135295
0.286960 -0.390925 -0.268500
0.286960 -0.147112 -0.473421
0.286960 0.413162 -0.172603
0.286960 0.153170 0.427757
0.286960 -0.083033 -0.489211
0.286960 -0.369857 -0.266806
0.286960 0.174962 -0.423491
0.286960 0.376159 0.251407
0.286960 -0.334588 0.341699
0.286960 -0.494252 0.053608
0.286960 -0.080350 0.488044
0.286960 0.335543 -0.364477
0.286960 0.388424 -0.248772
0.286960 -0.435783 0.194088
0.286960 0.011910 0.447962
0.286960 0.178375 -0.428561
0.286960 -0.012906 -0.476636
0.286960 -0.181241 -0.464860
0.286960 -0.364516 -0.292886
0.286960 0.343363 0.358250
0.286960 0.284765 0.342058
0.286960 -0.377866 0.290877
0.286960 -0.450805 0.071215
0.286960 0.474999 0.017169
0.286960 0.379912 0.254555
0.286960 -0.127670 -0.466949
0.286960 -0.368979 -0.327994
0.286960 0.470724 0.055920
0.286960 -0.281096 -0.409653
0.286960 0.004474 -0.470390
0.286960 0.361315 -0.307109
0.286960 0.195906 0.435728
0.286960 0.036001 -0.456493
0.286960 0.253617 0.383166
0.286960 -0.462567 0.159840
0.286960 0.054507 0.474073
0.286960 0.056987 0.481102
0.286960 -0.301721 0.391636
0.286960 0.471498 0.132942
0.286960 -0.435245 -0.130951
0.286960 0.095484 -0.444971
0.286960 0.444968 0.145424
0.286960 0.438767 -0.223467
0.286960 -0.429961 0.178490
0.286960 -0.440113 0.155085
0.286960 0.148737 -0.476093
0.286960 0.270796 0.360767
0.286960 -0.238106 0.434732
0.286960 -0.231757 -0.425334
0.286960 0.291982 0.371455
0.286960 -0.178817 0.455515
0.286960 0.015079 -0.454779
0.286960 -0.168088 0.446895
0.286960 0.015941 -0.498021
0.286960 -0.384259 0.244589
0.286960 -0.307536 0.342970
0.286960 -0.171239 -0.441259
0.286960 0.030454 0.475050
0.286960 0.416758 -0.227805
0.286960 0.125207 0.463481
0.286960 0.194663 -0.458796
0.286960 0.161622 -0.441140
0.286960 -0.477239 -0.128260
0.286960 0.262968 -0.362970
0.286960 -0.377509 0.247355
0.286960 -0.292313 0.369514
0.286960 0.415044 -0.177186
0.286960 0.497087 0.020796
0.286960 0.438421 -0.105271
0.286960 0.456247 0.182348
0.286960 -0.459858 -0.050121
0.286960 0.263601 0.403342
0.286960 0.426924 -0.174718
0.286960 -0.176588 0.463343
0.286960 -0.452908 0.171333
0.286960 -0.164537 0.467277
0.286960 -0.267874 0.378217
0.286960 -0.469686 0.026370
0.286960 -0.156042 0.448747
0.286960 0.438778 -0.118968
0.286960 -0.199168 0.446439
0.286960 -0.151254 -0.423077
0.286960 0.263152 -0.417295
0.286960 -0.472162 -0.052099
0.286960 0.391558 0.263135
0.286960 0.449245 -0.217087
0.286960 -0.428036 0.157939
0.286960 0.266205 -0.419550
0.286960 -0.170127 0.432380
0.286960 -0.268088 0.382148
0.286960 -0.225871 -0.399334
0.286960 -0.156329 -0.459497
0.286960 -0.466571 0.067069
0.286960 -0.271400 0.386404
0.286960 -0.374029 0.246665
0.286960 0.411054 0.275230
0.286960 0.203521 0.399818
0.286960 -0.313145 0.350801
0.286960 0.341884 0.350378
0.286960 0.402327 0.290399
0.286960 -0.258909 -0.410758
0.286960 0.453454 0.125422
0.286960 0.402812 -0.295160
0.286960 0.453358 -0.156128
0.286960 0.310779 0.371467
0.286960 0.476792 -0.010670
0.286960 0.482291 -0.109788
0.286960 -0.402976 -0.202293
0.286960 0.047882 0.449405
0.286960 -0.458319 -0.029520
0.286960 0.461208 -0.058388
0.286960 -0.157294 0.464095
0.286960 0.007379 0.467974
0.286960 0.413899 -0.225906
0.286960 0.252318 -0.413670
0.286960 -0.427672 0.131010
0.286960 -0.125660 -0.450329
0.286960 0.363286 -0.295443
0.286960 -0.027340 0.467286
0.286960 0.473095 0.105277
0.286960 -0.207869 -0.452353
0.286960 -0.396294 -0.245869
0.286960 -0.148991 -0.441613
0.286960 0.069187 0.485873
0.286960 -0.435646 0.109419
0.286960 -0.427245 -0.178829
0.286960 -0.462191 -0.115198
0.286960 0.173374 -0.434399
0.286960 0.416168 -0.195468
0.286960 0.450933 0.046152
0.286960 0.301000 -0.398028
0.286960 0.357926 0.294781
0.286960 0.435180 0.169776
0.286960 -0.271860 -0.415941
0.286960 0.089996 0.457483
0.286960 -0.422397 0.180157
0.286960 0.273148 0.405402
0.286960 -0.113458 -0.478967
0.286960 -0.429108 -0.198963
0.286960 -0.340904 0.330790
0.286960 -0.479516 0.124585
0.286960 0.105936 0.456952
0.286960 0.170221 -0.459609
0.286960 -0.463880 0.163548
0.286960 0.322755 -0.361100
0.286960 0.157344 -0.442573
0.286960 -0.296969 -0.390388
0.286960 -0.225135 -0.432883
0.286960 -0.421346 -0.184644
0.286960 0.025191 0.462245
0.286960 0.470561 0.063585
0.286960 0.328853 0.329264
0.286960 0.476624 0.083947
0.286960 -0.460220 -0.006507
0.286960 0.467495 -0.123002
0.286960 0.112658 -0.486228
0.286960 -0.416073 0.169079
0.286960 -0.015747 0.485951
0.286960 0.406901 0.209763
0.286960 0.360920 -0.268121
0.286960 -0.389464 -0.260795
0.286960 0.149962 -0.447559
0.286960 0.313486 0.369801
0.286960 0.139603 0.452572
0.286960 0.107193 0.464278
0.286960 0.256658 0.389331
0.286960 -0.185503 0.429972
0.286960 -0.239619 -0.417240
0.286960 0.282849 -0.375003
0.286960 0.333935 0.332982
0.286960 -0.338349 -0.311299
0.286960 -0.141226 -0.426608
0.286960 -0.397238 0.214101
0.286960 0.260663 -0.385803
0.286960 0.305565 0.344112
0.286960 -0.451084 -0.116190
0.286960 0.402148 0.214421
0.286960 0.368040 0.273640
0.286960 -0.409438 -0.262150
0.286960 -0.266360 0.359368
0.286960 -0.302342 -0.388658
0.286960 -0.441506 0.123690
0.286960 -0.051071 0.458817
0.286960 0.456625 -0.172798
0.286960 -0.275103 -0.405806
0.286960 -0.185233 0.443368
0.286960 0.444346 -0.144464
0.286960 0.052510 0.489078
0.286960 -0.420959 -0.194158
0.286960 -0.396460 -0.238458
0.286960 0.493139 -0.010670
0.286960 0.462477 0.158591
0.286960 -0.331967 -0.365310
0.286960 -0.129980 0.456590
0.286960 -0.397753 -0.225849
0.286960 -0.439189 -0.222570
0.286960 0.421009 -0.261775
0.286960 -0.153401 -0.456991
0.286960 -0.420081 -0.205549
0.286960 -0.292916 -0.347972
0.286960 0.329580 0.355561
0.286960 0.016358 0.471765
0.286960 0.377890 0.243040
0.286960 -0.395388 0.219243
0.286960 0.445857 0.202909
0.286960 0.192643 0.456942
0.286960 -0.471808 -0.119326
0.286960 0.320363 -0.371034
0.286960 0.381089 -0.307678
0.286960 0.197680 0.454518
0.286960 0.239443 -0.406213
0.286960 -0.471768 0.048503
0.286960 0.344731 0.295801
0.286960 -0.033609 -0.467021
0.286960 -0.409136 0.173004
0.286960 -0.257941 -0.401295
0.286960 0.484034 0.020734
0.286960 -0.446834 -0.014274
0.286960 -0.095470 0.480298
0.286960 -0.379003 0.254518
0.286960 0.363577 0.337635
0.286960 -0.170096 0.465055
0.286960 -0.443447 0.076879
0.286960 -0.273190 0.370425
0.286960 -0.447904 0.004942
0.286960 -0.105551 0.469073
0.286960 -0.301893 -0.392307
0.286960 0.385103 0.294388
0.286960 0.470528 -0.104855
0.286960 -0.435084 0.093909
0.286960 -0.311356 0.386211
0.286960 0.450892 -0.030040
0.286960 -0.040232 0.463837
0.286960 -0.433794 0.160094
0.286960 -0.020228 0.486471
0.286960 0.065417 0.438421
0.286960 0.164433 -0.416885
0.286960 -0.143172 0.460407
0.286960 -0.450156 0.002632
0.286960 -0.227629 0.417903
0.286960 -0.225863 0.395605
0.286960 0.419203 -0.168768
0.286960 0.141739 0.467078
0.286960 0.440777 -0.229724
0.286960 -0.370951 -0.317982
0.286960 0.234341 0.396487
0.286960 -0.381419 -0.288435
0.286960 0.305996 0.325810
0.286960 -0.084020 -0.479336
0.286960 -0.111376 -0.466572
0.286960 0.159922 -0.468227
0.286960 0.449707 0.191642
0.286960 0.021348 -0.462553
0.286960 0.439129 0.078745
0.286960 -0.369279 0.292028
0.286960 0.083775 -0.452433
0.286960 0.081557 -0.477570
0.286960 -0.479043 0.022366
0.286960 -0.094711 -0.442276
0.286960 0.404532 -0.279811
0.286960 -0.435672 0.132623
0.286960 0.084654 -0.449059
0.286960 -0.423835 -0.163659
0.286960 0.235350 0.435957
0.286960 0.383696 -0.279956
0.286960 -0.256723 -0.382265
0.286960 0.215112 0.406358
0.286960 -0.115299 0.475785
0.286960 0.065189 0.486802
0.286960 -0.066447 0.479376
0.286960 0.027196 0.489179
0.286960 0.117146 0.428208
0.286960 -0.458905 0.089952
0.286960 0.104320 -0.452113
0.286960 -0.253423 0.382618
0.286960 0.452621 0.181276
0.286960 0.099497 0.441219
0.286960 0.105134 0.478661
0.286960 0.061000 -0.491814
0.286960 0.178196 -0.424963
0.286960 -0.330263 -0.336413
0.286960 -0.420277 -0.265496
0.286960 0.464460 0.018839
0.286960 -0.217508 -0.397714
0.286960 -0.105457 -0.462761
0.286960 0.194107 -0.454942
0.286960 0.327309 0.332344
0.286960 -0.278166 -0.408694
0.286960 0.250561 -0.397212
0.286960 0.441207 -0.066113
0.286960 -0.048980 -0.477131
0.286960 -0.400152 0.223302
0.286960 0.414932 0.207751
0.286960 0.224531 0.401213
0.286960 -0.445336 0.111370
0.286960 -0.139837 0.425804
0.286960 -0.275285 0.366227
0.286960 0.179851 0.462020
0.286960 -0.064628 -0.459848
0.286960 0.321496 0.358663
0.286960 -0.173552 0.440079
0.286960 -0.463560 0.073978
0.286960 -0.147520 -0.454253
0.286960 -0.460673 0.087309
0.286960 -0.092325 -0.477665
0.286960 -0.075699 -0.454225
0.286960 -0.496256 -0.016417
0.286960 -0.072501 0.471435
0.286960 -0.466261 -0.044173
0.286960 0.194806 0.432252
0.286960 -0.447961 0.031540
0.286960 -0.428529 -0.208261
0.286960 0.161834 -0.460555
0.286960 -0.270538 -0.381321
0.286960 0.478817 -0.081493
0.286960 -0.222328 -0.408559
0.286960 -0.020771 0.470040
0.286960 -0.321672 0.330836
0.286960 -0.258235 0.373785
0.286960 -0.112533 0.477149
0.286960 0.297901 0.376476
0.286960 -0.082233 0.466051
0.286960 -0.154624 -0.437408
0.286960 0.154802 0.459155
0.286960 0.455210 0.131471
0.286960 -0.175802 0.454519
0.286960 -0.489485 0.023561
0.286960 -0.413755 -0.186418
0.286960 -0.453231 -0.132449
0.286960 -0.181708 0.414663
0.286960 0.435174 0.228134
0.286960 -0.452561 0.048794
0.286960 -0.459982 -0.157855
0.286960 0.425778 0.194826
0.286960 -0.208953 0.420668
0.286960 -0.207332 -0.432689
0.286960 0.385390 -0.290599
0.286960 -0.359165 0.280398
0.286960 0.207461 -0.417515
0.286960 -0.123458 0.451527
0.286960 -0.399527 0.276250
0.286960 -0.287965 0.344416
0.286960 -0.438547 0.230505
0.286960 0.313177 0.345843
0.286960 0.073537 0.474841
0.286960 -0.281168 0.373751
0.286960 0.091120 -0.447882
0.286960 0.072074 -0.447942
0.286960 0.332192 -0.318438
0.286960 0.206719 -0.440796
0.286960 0.104454 -0.447401
0.286960 -0.314508 0.369610
0.286960 -0.179426 0.439191
0.286960 -0.388662 0.251622
0.286960 -0.100890 0.451845
0.286960 -0.453555 0.007402
0.286960 -0.300505 0.370194
0.286960 0.060435 -0.478304
0.286960 -0.428705 0.117162
0.286960 0.034299 -0.453111
0.286960 -0.368436 0.247488
0.286960 -0.368536 -0.315856
0.286960 0.150105 0.464795
0.286960 -0.023475 0.473857
0.286960 -0.468678 -0.108154
0.286960 0.450451 0.029770
0.286960 0.107384 -0.473472
0.286960 0.444381 -0.185719
0.286960 0.203849 -0.442135
0.286960 -0.176947 -0.464256
0.286960 -0.337994 0.362131
0.286960 -0.196273 -0.449231
0.286960 0.490774 -0.087539
0.286960 0.398121 0.234973
0.286960 -0.287526 -0.382876
0.286960 0.202099 0.396138
0.286960 0.340153 0.356301
0.286960 -0.440664 0.081362
0.286960 0.138316 -0.430122
0.286960 0.456564 -0.018926
0.286960 0.481143 0.102681
0.286960 -0.106076 -0.488439
0.286960 -0.304410 0.353198
0.286960 -0.457756 0.031642
0.286960 0.339150 -0.363783
0.286960 0.319760 0.347686
0.286960 0.055800 -0.455253
0.286960 -0.466148 -0.057453
0.286960 0.304338 0.365770
0.286960 -0.028492 -0.468601
0.286960 -0.382932 0.295749
0.286960 0.220022 0.443543
0.286960 0.330678 -0.312532
0.286960 0.073073 -0.491818
0.286960 -0.167150 0.456113
0.286960 -0.085998 -0.454733
0.286960 -0.150421 -0.437921
0.286960 -0.384027 -0.292185
0.286960 -0.442339 0.151672
0.286960 -0.206440 0.418707
0.286960 0.122656 0.436249
0.286960 0.320693 -0.335420
0.286960 0.479086 -0.074988
0.286960 0.468663 0.083381
0.286960 -0.251622 -0.422129
0.286960 -0.275581 -0.387005
0.286960 0.146326 0.472701
0.286960 0.294058 -0.383231
0.286960 -0.379751 0.269270
0.286960 -0.326254 0.318360
0.286960 -0.427463 0.240780
0.286960 -0.043322 -0.462282
0.286960 0.401576 0.211280
0.286960 -0.251036 -0.425938
0.286960 -0.040691 -0.473644
0.286960 0.446924 -0.006800
0.286960 0.438379 0.098427
0.286960 0.410750 -0.199002
0.286960 0.327649 0.358300
0.286960 0.053339 0.444046
0.286960 0.148374 0.423674
0.286960 -0.241494 -0.427644
0.286960 -0.456585 -0.134630
0.286960 0.100849 0.477331
0.286960 0.194829 0.409732
0.286960 0.181686 -0.418615
0.286960 0.408777 0.228855
0.286960 -0.256297 0.410276
0.286960 0.453592 0.112250
0.286960 0.274307 0.366062
0.286960 -0.249645 -0.406819
0.286960 0.460286 0.156095
0.286960 0.286324 0.357724
0.286960 -0.177301 0.430827
0.286960 0.174796 0.407709
0.286960 -0.362399 0.316656
0.286960 -0.143191 0.433946
0.286960 -0.387640 0.289812
0.286960 -0.371285 0.322039
0.286960 0.006109 0.495873
0.286960 -0.158256 -0.446233
0.286960 0.304055 -0.353544
0.286960 -0.296728 0.362371
0.286960 0.052634 0.467398
0.286960 -0.467712 0.004619
0.286960 -0.142770 0.427403
0.286960 0.438654 -0.140045
0.286960 -0.374150 -0.304900
0.286960 -0.318100 -0.355712
0.286960 -0.454118 -0.172340
0.286960 0.423032 -0.143274
0.286960 -0.374881 -0.255235
0.286960 -0.496374 0.016167
0.286960 0.429990 0.152010
0.286960 -0.298857 -0.379252
0.286960 -0.128632 -0.435127
0.286960 -0.426561 0.221156
0.286960 0.459025 0.061212
0.286960 0.187066 0.432082
0.286960 -0.277497 0.352972
0.286960 0.368097 -0.260088
0.286960 0.424718 -0.254290
0.286960 0.462202 0.020941
0.286960 0.245346 -0.409126
0.286960 0.390425 -0.263556
0.286960 -0.174658 0.429174
0.286960 -0.461484 0.008352
0.286960 -0.331718 -0.307570
0.286960 0.426575 0.129393
0.286960 0.398016 0.223791
0.286960 -0.447398 -0.065742
0.286960 0.298234 -0.375374
0.286960 -0.186416 0.409620
0.286960 -0.070032 0.444227
0.286960 -0.307545 -0.347767
0.286960 0.193773 0.443167
0.286960 0.452593 0.200102
0.286960 0.334241 -0.358539
0.286960 0.432122 0.162134
0.286960 0.362294 0.258784
0.286960 0.281386 -0.393596
0.286960 -0.244771 -0.426429
0.286960 -0.276973 0.410880
0.286960 -0.133160 -0.453590
0.286960 0.196865 0.398208
0.286960 0.406331 0.206240
0.286960 -0.086113 -0.451437
0.286960 0.157536 -0.426967
0.286960 -0.432503 0.166865
0.286960 0.432893 -0.247801
0.286960 -0.483490 0.070980
0.286960 0.434601 -0.230142
0.286960 0.450333 -0.167441
0.286960 0.447578 -0.189785
0.286960 -0.315645 -0.316497
0.286960 0.484040 -0.017226
0.286960 -0.069399 -0.476036
0.286960 -0.370917 0.289292
0.286960 -0.124490 0.469971
0.286960 0.198708 0.413791
0.286960 0.457670 0.193750
0.286960 -0.214668 0.435074
0.286960 -0.066569 -0.467936
0.286960 -0.183989 0.447294
0.286960 0.386023 -0.287116
0.286960 -0.018578 -0.486762
0.286960 0.487619 -0.080555
0.286960 -0.020134 -0.491287
0.286960 -0.345444 0.300086
0.286960 0.431436 0.197575
0.286960 -0.495451 -0.046153
0.286960 -0.315435 0.365417
0.286960 0.445571 0.183189
0.286960 -0.256303 0.390020
0.286960 -0.490197 0.078023
0.286960 -0.479631 0.071979
0.286960 -0.201407 -0.413525
0.286960 -0.117656 -0.442452
0.286960 -0.405470 0.189830
0.286960 -0.053415 -0.471096
0.286960 0.471367 -0.024875
0.286960 0.159369 0.442816
0.286960 0.157610 0.455571
0.286960 0.232876 0.389372
0.286960 -0.135158 -0.456740
0.286960 0.207542 0.442084
0.286960 -0.054901 -0.449662
0.286960 0.250258 0.392192
0.286960 0.408766 0.237303
0.286960 -0.070677 0.439662
0.286960 -0.452030 -0.203124
0.286960 -0.468172 -0.155448
0.286960 -0.474350 0.050438
0.286960 0.331734 -0.338113
0.286960 0.423498 0.167333
0.286960 -0.449495 0.085518
0.286960 -0.423178 0.187491
0.286960 -0.347413 -0.324083
0.286960 -0.342689 -0.302527
0.286960 0.370013 0.328164
0.286960 -0.184405 -0.419359
0.286960 -0.328017 0.314990
0.286960 0.394942 -0.270665
0.286960 -0.422169 -0.238998
0.286960 0.217673 -0.441791
0.286960 0.496286 0.029811
0.286960 -0.099868 0.475188
0.286960 -0.424049 -0.182852
0.286960 0.406405 0.192917
0.286960 0.241996 -0.424535
0.286960 -0.445278 0.127279
0.286960 0.348843 0.323439
0.286960 0.433963 0.219377
0.286960 -0.454812 -0.029886
0.286960 0.482804 -0.055173
0.286960 -0.446260 0.152219
0.286960 -0.180844 -0.450378
0.286960 0.190658 -0.434747
0.286960 0.248749 -0.403152
0.286960 0.274807 -0.387293
0.286960 0.150782 -0.472768
0.286960 0.190305 0.431488
0.286960 -0.391726 0.278168
0.286960 0.265730 -0.408787
0.286960 -0.198415 -0.439806
0.286960 -0.468571 -0.041143
0.286960 -0.102396 0.437482
0.286960 -0.384742 0.221599
0.286960 -0.260188 -0.425513
0.286960 0.363974 0.276763
0.286960 -0.438016 -0.187068
0.286960 0.447488 0.212473
0.286960 -0.012774 0.461376
0.286960 0.460963 -0.048791
0.286960 0.289336 -0.406609
0.286960 0.095044 -0.482198
0.286960 -0.209922 -0.429329
0.286960 0.313963 -0.389028
0.286960 0.298440 -0.349509
0.286960 0.447627 -0.118596
0.286960 -0.420511 -0.180396
0.286960 0.233468 0.433037
0.286960 -0.416589 -0.272349
0.286960 0.449729 0.098552
0.286960 -0.023877 0.443957
0.286960 0.448869 -0.170273
0.286960 -0.084974 -0.471505
0.286960 -0.394939 -0.214660
0.286960 -0.060435 -0.469968
0.286960 -0.382803 -0.282413
0.286960 0.419260 0.239450
0.286960 0.393297 -0.212899
0.286960 -0.199187 0.441277
0.286960 0.220173 0.392176
0.286960 0.193549 0.426906
0.286960 -0.400729 -0.293039
0.286960 -0.110057 0.463966
0.286960 -0.081552 0.452865
0.286960 0.346556 0.342826
0.286960 -0.115094 0.437106
0.286960 -0.415155 0.176793
0.286960 -0.459221 0.174739
0.286960 -0.444102 -0.194650
0.286960 -0.105888 0.472882
0.286960 -0.435771 -0.238774
0.286960 -0.088356 0.468734
0.286960 0.192706 0.447830
0.286960 -0.268475 -0.368523
0.286960 -0.370004 0.314495
0.286960 0.431617 0.174938
0.286960 0.462279 -0.176267
0.286960 -0.001296 -0.456160
0.286960 -0.278483 -0.401394
0.286960 -0.116616 0.428853
0.286960 0.101749 -0.479082
0.286960 0.459202 -0.036045
0.286960 -0.017206 -0.497715
0.286960 -0.460442 0.036514
0.286960 0.274252 0.369526
0.286960 -0.444784 -0.033292
0.286960 -0.392392 -0.286886
0.286960 0.437839 0.203189
0.286960 0.381048 0.251293
0.286960 0.416751 -0.244799
0.286960 -0.009457 0.450400
0.286960 0.159418 0.435336
0.286960 -0.371762 -0.269840
0.286960 -0.135121 -0.436635
0.286960 0.435561 -0.172897
0.286960 -0.102331 -0.483699
0.286960 0.376811 -0.247942
0.286960 -0.383577 -0.259191
0.286960 -0.003409 0.481956
0.286960 -0.279436 -0.350872
0.286960 -0.309485 -0.358611
0.286960 -0.391207 0.269560
0.286960 0.171735 0.416399
0.286960 -0.115516 -0.472000
0.286960 0.383948 0.254388
0.286960 -0.445076 0.003480
0.286960 0.428358 0.200129
0.286960 0.051775 -0.474505
0.286960 -0.212582 -0.394622
0.286960 -0.197215 -0.445896
0.286960 0.352803 0.315441
0.286960 -0.375110 0.314264
0.286960 -0.433701 0.237585
0.286960 -0.222631 -0.393657
0.286960 0.028694 -0.459752
0.286960 -0.283989 -0.405369
0.286960 0.055214 -0.451113
0.286960 -0.437711 0.143271
0.286960 0.050584 0.480771
0.286960 -0.409519 -0.201717
0.286960 0.242684 -0.400089
0.286960 0.167921 0.414436
0.286960 -0.368621 0.282501
0.286960 -0.367012 0.269770
0.286960 -0.265902 -0.390087
0.286960 -0.140375 0.431603
0.286960 -0.260233 0.388007
0.286960 0.340524 0.342665
0.286960 -0.041383 -0.449578
0.286960 0.360959 -0.264735
0.286960 0.076446 0.448423
0.286960 0.458165 -0.194471
0.286960 0.003399 -0.449820
0.286960 0.080871 0.458064
0.286960 -0.089325 -0.445222
0.286960 -0.454622 0.152565
0.286960 -0.050716 0.492950
0.286960 -0.445765 -0.070938
0.286960 -0.491382 -0.040573
0.286960 -0.441569 0.144997
0.286960 -0.221144 -0.425263
0.286960 -0.426832 0.237179
0.286960 0.375344 -0.311439
0.286960 0.432480 0.244521
0.286960 -0.440085 0.226684
0.286960 -0.293911 0.377781
0.286960 -0.448313 0.110674
0.286960 0.035560 -0.464983
0.286960 0.441458 0.102454
0.286960 -0.380668 0.230074
0.286960 -0.433765 0.180252
0.286960 0.423773 0.163295
0.286960 -0.154951 -0.475146
0.286960 0.168163 -0.426074
0.286960 0.179688 0.418052
0.286960 -0.396077 -0.269363
0.286960 0.250416 0.371260
0.286960 0.005562 0.486069
0.286960 -0.364450 -0.303974
0.286960 -0.361638 -0.316935
0.286960 0.362841 0.304923
0.286960 -0.428858 -0.142183
0.286960 0.364296 0.314599
0.286960 -0.156819 -0.419274
0.286960 0.027275 -0.448135
0.286960 0.290428 -0.340412
0.286960 0.473336 0.099601
0.286960 -0.206365 0.428931
0.286960 0.297317 -0.361004
0.286960 -0.450799 0.139941
0.286960 0.243132 -0.395273
0.286960 -0.459874 0.145132
0.286960 0.206190 0.423399
0.286960 0.481279 -0.022583
0.286960 -0.263218 -0.379940
0.286960 0.251587 0.403931
0.286960 -0.491856 0.028020
0.286960 -0.456620 -0.143146
0.286960 -0.403405 0.198556
0.286960 0.450476 0.121089
0.286960 0.143503 -0.451112
0.286960 0.155151 -0.457053
0.286960 0.199958 -0.405045
0.286960 0.417840 0.242747
0.286960 0.012813 0.474258
0.286960 -0.442331 0.044893
0.286960 0.186898 -0.417242
0.286960 -0.335576 -0.323023
0.286960 0.030208 0.479424
0.286960 0.350187 0.289837
