-0.287450 -0.412265 -0.169336
-0.219531 -0.393981 0.204257
-0.090951 -0.441138 -0.059726
0.245745 0.428776 0.119534
-0.201498 0.285279 -0.344653
-0.181235 -0.148200 0.417474
-0.117707 -0.257973 -0.364808
-0.278981 0.443548 0.041873
-0.061589 -0.229614 0.378973
0.202022 0.443403 0.043413
0.214877 0.174755 0.407535
-0.032687 0.445438 0.014046
-0.029046 0.327233 -0.304816
0.247087 -0.070776 0.437297
0.226783 0.410450 0.171544
-0.005655 -0.181947 -0.408333
-0.105016 0.413570 -0.168689
-0.097496 -0.050112 0.440238
0.035932 0.445788 -0.007264
0.023019 -0.011142 -0.447246
0.056730 0.163131 0.412467
0.141987 0.352829 0.270019
-0.036787 0.349049 -0.279245
-0.034310 -0.360185 0.259153
-0.094114 0.238895 0.374090
0.199352 0.434644 0.096561
0.026282 0.100670 0.431637
-0.198823 -0.421469 0.140060
0.207595 -0.365410 -0.255819
0.008804 0.303279 -0.328785
0.196357 0.221434 -0.388770
0.236990 -0.188593 0.401104
-0.155984 -0.183556 -0.407637
-0.082547 0.094544 0.433007
0.258678 -0.422651 -0.141131
-0.133799 -0.438526 0.071859
0.073791 -0.106590 -0.434439
0.073755 -0.182430 0.403771
0.211333 -0.439071 0.068421
0.241015 -0.330160 -0.300333
-0.205733 -0.413502 0.162125
-0.014527 -0.385335 0.220007
-0.264904 -0.418224 -0.153427
-0.088089 0.039155 0.441370
0.049285 0.322832 -0.309487
0.081444 0.019463 -0.447016
-0.196570 0.418955 0.149889
0.198153 0.041168 0.441180
-0.022107 -0.294633 -0.335503
-0.231106 -0.012446 -0.447205
0.192546 -0.203260 -0.398026
-0.180746 0.329221 0.298207
0.064635 -0.442568 -0.045752
-0.086270 -0.444890 -0.003224
-0.152477 0.151523 0.416646
-0.073108 0.328095 0.299484
0.173332 -0.433443 0.097350
0.080346 -0.173627 0.407580
-0.185745 -0.241202 0.371851
-0.155713 0.069005 0.437740
-0.013151 0.404021 0.186401
-0.118117 0.126326 0.424895
0.237943 0.437649 0.083117
0.098763 0.403908 0.186663
0.086352 0.331249 0.295907
0.035799 -0.435961 -0.090436
-0.089230 -0.427761 -0.123854
0.134067 0.359206 0.261797
0.142928 -0.259083 -0.364053
0.153272 0.396377 0.201565
-0.272737 -0.300841 0.325677
0.002473 -0.162557 -0.416658
0.236663 -0.416309 -0.158747
0.145764 0.070640 -0.441835
-0.244104 0.038113 -0.445822
-0.088124 -0.438508 0.071977
-0.289846 -0.444793 0.001956
0.281722 -0.399433 -0.197910
0.003939 0.400641 -0.197551
-0.109634 0.325930 0.301940
-0.006407 0.237251 0.375062
0.142019 0.421025 0.144140
-0.285688 -0.298191 -0.332367
0.253566 -0.041913 -0.445366
-0.101952 0.009932 -0.447316
0.185721 0.394571 -0.209464
0.041039 0.121271 -0.430717
0.034678 -0.095597 -0.436896
0.087166 -0.423914 0.132742
0.020446 0.375958 -0.241806
0.286155 0.071657 -0.441673
0.264203 0.396083 0.202142
-0.110960 -0.424183 0.131818
-0.277347 0.416574 -0.160856
0.048876 0.399721 -0.199357
0.171583 -0.389949 0.212171
0.245989 -0.071111 -0.441598
-0.051564 0.269494 0.352632
-0.093295 -0.218913 -0.389655
0.249310 -0.012050 0.442864
-0.140636 -0.380583 0.228042
0.027195 -0.212997 -0.393065
-0.219513 0.440913 -0.067614
-0.187330 -0.440556 0.059045
0.174970 -0.198379 0.396160
-0.287381 -0.314354 -0.316940
-0.247756 -0.229534 -0.383374
-0.195266 0.194156 -0.403187
0.034122 0.432536 -0.110346
0.272306 0.441096 0.062107
-0.042841 0.220933 -0.389066
-0.034715 0.378153 -0.238236
-0.023573 0.436418 -0.092979
0.008195 -0.328168 -0.302593
0.282584 -0.437416 0.078868
0.233621 -0.259868 0.359167
-0.266153 0.445706 -0.009858
0.098892 0.082966 0.435529
0.054456 0.020308 0.442636
-0.103123 -0.081349 0.435623
-0.185139 -0.310710 -0.320584
-0.289372 0.444235 -0.038965
-0.133664 0.406669 -0.184635
-0.094925 -0.437488 -0.082772
-0.069600 0.010018 0.442960
-0.266726 -0.444629 0.007168
-0.170341 0.397829 0.198715
-0.066141 -0.308070 0.318870
-0.005561 0.328436 0.299098
0.133333 -0.215447 -0.391705
-0.096607 0.261545 -0.363076
0.118737 0.131448 0.423407
-0.105394 0.123957 0.425583
-0.048947 -0.194555 -0.402461
-0.139363 -0.386571 0.217916
0.197859 0.018668 0.442688
0.286471 -0.296610 -0.333760
-0.103247 0.377690 0.234665
-0.229818 0.411657 -0.173109
0.281540 -0.038501 0.441335
-0.212310 0.385288 -0.226172
0.167540 0.382706 0.226185
0.147946 0.130625 0.423646
0.137225 -0.153262 0.415651
-0.073359 0.160917 0.413264
0.212654 0.442560 -0.056682
0.122882 -0.172524 0.408058
0.211204 -0.337776 0.287341
0.101878 -0.369050 -0.250463
0.036024 -0.433111 -0.103186
0.023161 -0.033690 -0.446144
0.175270 0.442782 -0.054331
0.213314 0.081425 0.435773
0.183456 0.334751 -0.296288
0.199364 -0.444097 -0.028457
0.047741 -0.351225 0.270765
-0.094908 0.094329 0.433055
0.082227 0.172673 0.408436
0.263656 0.292008 -0.338721
-0.122166 -0.429389 -0.118250
0.254650 -0.227995 -0.384284
0.164321 0.207360 0.392106
-0.051658 0.211573 -0.394313
0.047535 0.382088 -0.231582
-0.039627 -0.325061 -0.306116
0.225254 0.441476 -0.064057
0.205980 -0.442145 0.045882
-0.050408 -0.440904 -0.061198
0.017394 -0.339588 0.285286
0.239931 -0.347702 -0.279661
0.101601 0.330904 -0.300651
0.150977 0.445548 0.010528
-0.056049 0.289190 -0.341206
0.172527 0.308868 -0.323450
0.271643 -0.327846 0.298604
0.114772 0.313714 0.314251
0.152751 -0.401998 -0.192877
0.018627 -0.444091 0.024284
-0.036272 0.196913 0.397429
-0.233187 0.436056 0.090242
0.069713 -0.426718 0.123089
0.105904 -0.440738 0.057895
-0.011993 -0.428087 -0.122733
0.138691 -0.431150 -0.111962
-0.280813 0.338974 -0.291498
0.044395 0.063882 0.438551
0.223855 0.248839 -0.371711
-0.016163 -0.172352 0.408132
-0.111232 -0.296262 -0.334067
-0.017351 -0.122107 0.425823
0.161482 0.322936 0.305029
0.078164 0.444573 0.031030
-0.022090 -0.301740 0.324885
-0.258126 -0.427375 -0.125182
-0.039559 0.250579 -0.370529
-0.100009 -0.429611 0.113133
-0.046819 0.432437 -0.110790
-0.182920 -0.200313 0.395174
-0.002042 -0.441330 0.054157
-0.093220 -0.000649 -0.447575
0.092206 0.433261 0.102747
0.076372 -0.428007 -0.123007
0.114409 -0.254826 -0.366946
-0.148322 -0.426822 0.122734
-0.132721 0.445405 -0.019438
-0.222296 -0.420712 0.142163
0.063754 -0.421230 -0.145077
0.192982 -0.318928 -0.312366
-0.095292 0.048358 0.440501
0.257333 -0.302759 -0.328339
0.247603 0.328021 0.299568
0.124855 -0.248855 -0.371004
-0.237125 0.273966 -0.353517
0.042884 0.430902 -0.116570
-0.252953 -0.441200 0.054978
-0.020995 0.348691 -0.279707
-0.241782 0.201996 0.394839
-0.272442 -0.344241 -0.284123
-0.285853 -0.072666 0.436998
-0.196505 -0.283954 -0.344918
-0.001509 0.292947 0.333540
-0.046056 0.242909 -0.375741
0.128979 0.237145 -0.379478
-0.168049 0.428584 -0.124551
0.235965 0.319789 -0.312530
0.108747 0.407832 -0.181948
-0.203483 -0.441007 -0.060547
-0.240594 -0.221381 -0.388195
-0.082466 -0.217998 0.385842
0.031390 -0.170546 -0.413267
-0.005826 -0.231688 0.377746
0.228037 0.307454 -0.324865
-0.017123 -0.309259 0.317682
0.137796 0.383648 -0.228944
0.196704 0.062926 0.438703
-0.095160 0.281764 0.343115
-0.072178 -0.398594 -0.199557
-0.271665 0.392863 0.208462
-0.115389 -0.077560 -0.440576
-0.004801 0.225290 -0.386489
-0.227066 -0.407232 -0.180965
-0.097910 -0.429155 -0.119057
0.134548 -0.424210 -0.136076
0.014990 -0.010423 0.442915
-0.025778 0.429282 -0.122145
0.149552 -0.092299 -0.437633
0.248626 -0.444174 -0.026006
0.056943 0.405285 -0.187833
0.240151 -0.058503 -0.443594
0.062048 -0.364861 0.252273
0.256470 0.250656 -0.370476
-0.093928 -0.440597 0.058788
-0.040880 -0.404143 0.183751
0.026397 -0.444133 -0.027289
-0.140311 0.397880 -0.202970
-0.255868 -0.399149 -0.198467
-0.179166 -0.159677 0.413341
0.286704 0.362874 -0.261058
0.282713 -0.205859 -0.396702
-0.019388 0.392014 0.210128
-0.030179 0.146078 0.418607
0.054046 -0.369348 0.245671
0.137990 -0.427742 -0.123920
0.259425 0.422188 -0.145263
0.063577 0.443209 0.045460
-0.195215 -0.378741 -0.235509
-0.142408 -0.435118 0.089854
-0.145211 -0.207942 -0.395641
0.076411 -0.077349 -0.440610
0.108884 0.286115 0.339563
0.227612 0.413219 -0.169500
-0.153244 0.140408 0.420648
-0.219354 -0.437647 0.077409
-0.120507 0.346843 0.277736
0.050365 0.335973 0.290549
0.270512 0.432779 0.104905
-0.227466 -0.268232 0.352817
0.130199 0.275924 -0.351999
0.193849 0.440934 -0.067484
0.120991 0.428234 -0.125754
0.271113 -0.423779 0.133208
0.117755 -0.042629 0.440945
0.063865 0.253563 0.364147
-0.072550 0.268474 0.353424
-0.000598 0.432174 0.107613
-0.090012 -0.116917 0.427331
0.139601 -0.444114 0.023557
-0.051138 -0.363957 -0.257956
-0.106994 0.318586 0.309379
-0.107707 0.418190 -0.156367
0.132721 -0.389093 -0.218005
-0.125279 0.347665 -0.281029
-0.144859 -0.406999 -0.181505
-0.015595 0.407291 -0.183198
-0.232612 0.312568 0.315397
0.246826 -0.295827 -0.334451
0.049002 -0.409752 0.170789
-0.184480 0.439901 -0.074005
0.133313 -0.006531 0.443037
-0.160535 -0.282111 -0.346404
0.166235 -0.288863 -0.340590
-0.029587 0.422645 0.139639
-0.198962 -0.434952 0.090598
-0.024702 -0.109584 0.429416
-0.050487 0.033999 0.441858
0.285463 -0.391161 -0.214145
-0.105191 0.262874 0.357768
0.248958 -0.288727 -0.340710
0.200399 -0.342377 0.282122
0.224262 -0.183728 0.403209
-0.248933 -0.162051 -0.416840
0.179880 -0.242847 0.370734
0.240513 0.445382 -0.020181
-0.218283 -0.140715 -0.424522
-0.099904 -0.263343 -0.360962
-0.192795 -0.443014 -0.041041
-0.065537 0.080386 0.435937
0.150296 -0.376080 -0.240009
0.103323 0.436184 -0.094024
-0.290112 0.409113 -0.178987
0.094929 0.317207 0.310758
-0.170304 0.333829 0.292980
-0.225566 -0.185962 0.402242
0.230016 0.367813 -0.253791
-0.096676 -0.150345 0.416701
-0.063795 0.352488 -0.274812
-0.224467 0.152836 -0.420527
-0.094977 -0.207457 -0.395888
-0.258107 0.346280 0.278461
-0.014878 -0.025971 -0.446780
0.159898 0.245448 0.369663
-0.290175 0.071854 -0.441642
0.233511 0.426954 0.125808
0.059772 -0.177347 0.405970
0.203115 0.343284 0.282256
0.116490 0.269807 0.352390
-0.246259 0.157967 0.414326
-0.157370 0.390780 0.212532
0.062097 -0.357284 -0.267308
-0.237351 0.438087 -0.085460
-0.025492 0.417180 0.154819
-0.097526 -0.444814 0.001274
0.182622 0.301183 -0.330632
0.242043 -0.433124 -0.103131
0.185725 -0.259298 0.359554
0.228786 -0.401584 -0.193689
-0.081093 -0.365484 0.251357
0.205629 -0.440917 0.056767
0.264867 -0.439445 -0.070411
-0.036127 -0.438826 0.069966
-0.025230 0.396249 0.201817
-0.043573 -0.284861 0.339765
0.201460 0.146991 0.418278
-0.023829 -0.228770 -0.383826
0.280264 0.093167 0.433315
-0.130574 -0.039926 -0.445554
-0.131771 -0.297203 -0.333238
-0.148571 -0.412852 0.163626
-0.207212 0.382210 0.227023
0.123659 -0.429369 0.113967
-0.276123 -0.442087 -0.050845
-0.241999 -0.424938 -0.133570
0.048125 -0.438031 -0.079339
0.275415 -0.230157 -0.383005
0.073735 -0.413480 0.162175
-0.116408 0.105319 0.430598
0.263607 0.315642 -0.316676
0.211545 0.397745 -0.203236
0.216390 0.416500 -0.161063
-0.134016 -0.415699 0.156086
0.273118 -0.085901 -0.439063
0.286813 0.250400 -0.370650
-0.054605 0.136834 0.421842
0.192510 -0.441871 -0.053127
-0.166460 0.078484 0.436239
0.213458 -0.169599 -0.413676
-0.263956 0.433852 0.100104
-0.025672 -0.428506 0.116937
-0.107605 0.276778 0.346982
-0.075143 -0.386820 0.217496
-0.210809 0.152974 -0.420477
0.150349 0.215351 0.388014
-0.176667 -0.050174 -0.444585
0.218785 -0.432875 0.099892
0.254118 0.444712 0.029566
0.045711 -0.147999 0.417546
-0.227398 0.426535 -0.131603
0.111553 0.118651 -0.431478
-0.275263 0.383688 0.224523
-0.269210 0.168711 -0.414504
-0.029699 -0.257076 -0.365417
0.119412 -0.055096 0.439767
-0.027591 0.229028 0.379926
0.120043 -0.436920 -0.086149
-0.190710 0.109209 -0.434082
0.190157 0.386233 0.220221
0.284379 -0.045319 -0.445044
0.114662 0.398279 -0.202186
0.028224 -0.439882 0.063299
-0.060129 -0.116795 -0.431720
0.195656 -0.426237 -0.129101
-0.074195 -0.370075 0.244600
-0.040935 0.430508 0.113572
0.219567 -0.278674 0.344717
-0.280535 -0.017801 -0.447036
0.170241 -0.444488 0.011661
-0.278361 0.401369 -0.196122
-0.167054 0.421354 0.143227
-0.243175 -0.014016 -0.447155
-0.193035 -0.123587 0.425393
-0.289192 -0.116534 0.427442
0.207694 0.433297 -0.106940
0.058315 -0.063238 -0.442845
0.001842 0.445414 0.014796
0.251079 -0.382194 0.225317
0.172719 0.166657 0.411040
0.223441 -0.031409 -0.446359
-0.141282 0.354903 0.267345
0.051142 -0.303004 -0.328123
0.047429 0.165829 0.411398
-0.172847 -0.420763 0.142022
0.065560 -0.440465 -0.063973
-0.264944 0.331084 -0.300448
-0.007754 0.284007 0.341376
0.083632 0.313370 -0.318949
0.269537 0.402120 -0.194648
-0.142207 -0.270897 0.350750
0.126424 -0.347188 -0.280323
-0.221339 -0.234892 0.375851
-0.098157 0.445784 -0.007368
-0.256024 0.397550 -0.203618
-0.146068 -0.379374 -0.234440
0.197084 0.051363 -0.444570
0.039332 -0.416142 -0.159210
-0.176851 -0.205892 -0.396685
0.209736 -0.372778 0.240624
0.027137 0.248321 0.367710
0.195716 0.365133 0.253380
0.036981 -0.407572 -0.180181
-0.067996 -0.191593 0.399618
-0.083458 0.060856 0.439031
-0.261267 -0.284125 0.340414
0.174721 -0.063442 -0.442812
0.123086 -0.444458 0.012613
-0.037531 0.398093 -0.202552
-0.135803 -0.037048 0.441473
-0.145611 -0.443917 -0.031483
0.183607 0.389959 -0.218274
0.252595 -0.145363 0.418495
0.194826 -0.010907 -0.447253
-0.133909 0.252750 0.364700
-0.062691 -0.126546 0.424533
-0.007975 -0.273221 0.348947
-0.285680 -0.179198 0.405169
0.102134 0.292576 0.333867
-0.091144 -0.420094 -0.148234
-0.228057 -0.444713 0.004508
0.077894 -0.198319 -0.400544
-0.084798 0.364000 0.255048
-0.186299 0.241708 -0.376557
-0.179144 0.277657 -0.350655
-0.174224 -0.104697 0.430508
0.108884 -0.302337 0.324358
-0.215246 0.360223 0.260487
0.076686 0.303248 0.324459
0.094706 0.151959 0.416489
0.069510 -0.043193 -0.445245
0.002395 0.348218 -0.280316
-0.145288 -0.439066 0.068451
0.229639 -0.431021 0.108186
0.239686 0.049794 0.440365
0.130376 0.426383 -0.132124
0.260157 0.194863 -0.402827
-0.189601 -0.433746 0.095993
0.115943 0.031043 -0.446491
-0.197881 0.289946 0.336186
-0.132127 -0.267799 -0.357506
-0.193306 -0.444768 0.002747
-0.154897 0.444482 0.031996
-0.079110 0.131439 0.423410
-0.195007 0.244908 0.370030
-0.288825 -0.103837 0.430700
-0.129763 0.353653 0.268956
-0.156573 0.406360 -0.185350
-0.062010 0.204224 -0.398057
0.226480 0.429347 -0.121923
0.240580 -0.413791 0.161388
0.210405 -0.427580 0.120124
0.200805 -0.436940 -0.086058
-0.250105 -0.347482 -0.279944
0.277449 -0.440041 -0.066649
0.184614 -0.444340 -0.020717
0.129271 0.263081 -0.361961
-0.147810 0.401979 0.190571
-0.181688 -0.283631 -0.345203
0.248645 -0.439917 0.063077
-0.103822 0.122169 -0.430456
0.036590 -0.429363 0.113987
-0.038388 0.315569 -0.316749
0.036403 0.395925 0.202454
0.203761 -0.434265 -0.098026
-0.178682 0.081373 0.435781
-0.259784 0.090166 -0.438339
0.073235 0.406572 -0.184860
-0.218017 0.124474 0.425433
-0.145876 0.406203 -0.185712
-0.245482 -0.261584 -0.362327
-0.110582 -0.243500 -0.374644
-0.199930 0.011219 -0.447275
-0.085534 -0.383422 0.223241
-0.186525 0.270700 -0.356051
0.063148 0.022828 -0.446910
0.042553 0.313419 0.314546
0.132082 -0.352594 0.269001
-0.205328 0.191922 0.399972
-0.188399 -0.188796 -0.405369
-0.208331 0.254955 0.363202
-0.009836 -0.011760 0.442873
0.211833 0.266846 -0.359040
-0.061199 -0.024579 -0.446823
-0.173268 0.341238 0.284576
-0.114301 -0.436551 0.083444
0.286460 0.374715 0.239282
-0.024836 -0.420202 0.143580
0.252922 0.442628 0.051609
0.013491 -0.442289 0.044355
0.116133 -0.122517 0.425704
0.179845 0.434348 0.097884
-0.088293 -0.369544 0.245382
0.014383 0.439726 -0.075109
-0.001683 0.081631 -0.440094
-0.002412 -0.173624 0.407581
-0.164569 -0.251885 0.364591
-0.213893 -0.326551 -0.304427
0.269190 -0.429191 -0.118932
-0.077546 0.237951 0.374649
-0.081215 0.322829 -0.309489
-0.180802 -0.257682 -0.365006
-0.069761 -0.434025 -0.099099
-0.182249 -0.196807 -0.401314
0.283149 0.437957 0.081738
-0.063867 -0.401408 0.189681
-0.216166 0.063013 -0.443042
-0.154403 -0.204174 0.393207
-0.048760 -0.147485 -0.422084
0.064636 0.426698 0.126686
-0.117478 0.081803 -0.440067
0.059535 -0.264571 0.355657
0.136890 -0.195508 -0.401976
0.197822 -0.311063 0.315878
0.186145 -0.361738 -0.261222
0.284943 -0.444297 -0.022093
-0.230848 0.337118 -0.293603
0.172698 -0.084082 -0.439470
-0.131725 0.228085 -0.384836
0.194093 -0.438137 0.074317
0.017708 0.241444 -0.376737
-0.253317 -0.430223 -0.115381
-0.257118 0.432255 -0.111603
0.161417 0.405861 0.182149
-0.189840 -0.407898 0.175074
-0.001481 0.217392 0.386807
-0.167346 0.041156 -0.445535
-0.268788 -0.003685 0.443126
0.082052 0.388973 -0.219942
0.059190 -0.043205 -0.445244
0.076294 0.081903 0.435697
-0.153485 0.445001 -0.030856
-0.154951 0.044451 -0.445223
-0.231846 -0.243144 -0.374885
-0.109793 -0.252258 0.364338
0.181034 -0.084018 0.435131
0.127121 0.006999 0.443054
-0.285972 0.299806 -0.331846
0.232043 -0.443714 0.029279
0.184184 0.439909 0.069600
0.173248 0.332553 -0.298781
-0.006795 -0.381431 0.226607
-0.154922 0.085635 0.434998
-0.116864 -0.266001 0.354547
0.116406 0.407614 0.178097
-0.003859 0.176084 0.406960
-0.190546 -0.253554 -0.367811
-0.226440 0.443432 -0.047458
0.266391 -0.443803 -0.032692
-0.034844 0.270419 0.351915
0.156896 -0.429139 -0.119113
0.239632 0.297679 0.329369
-0.169281 0.340339 -0.289949
-0.267773 0.313925 0.314040
0.143702 0.191877 0.399995
0.083904 0.039965 -0.445647
-0.036914 -0.365914 -0.255078
-0.218775 -0.020233 -0.446960
0.265413 0.445123 -0.028401
-0.242324 0.209196 -0.395524
-0.147217 0.086571 -0.439143
-0.126131 -0.091194 -0.437880
-0.154483 -0.167661 0.410162
0.217327 0.431284 0.110902
-0.142965 -0.180830 -0.408816
-0.219118 0.332895 0.294039
-0.098496 0.421726 -0.146547
0.247853 0.258987 -0.364815
0.014451 0.128376 -0.428653
0.141181 0.445904 -0.000799
0.051303 -0.394937 0.202381
0.087568 0.040349 0.441258
0.189497 -0.243631 -0.374554
-0.056239 0.442658 0.051293
0.256471 0.037342 -0.445895
-0.038451 -0.190051 -0.404757
0.251493 0.366885 0.250803
-0.095770 -0.265354 0.355049
-0.242568 0.443209 -0.049814
-0.210224 0.436579 -0.092259
0.255411 0.443647 0.040828
0.090131 0.420334 -0.150412
0.258005 0.082784 0.435558
0.249495 -0.355282 0.265535
0.259217 0.411290 0.169605
0.067481 0.119794 -0.431146
-0.274155 -0.300343 -0.330470
0.045873 0.005735 0.443094
0.061198 0.201885 0.394896
0.113751 0.332464 -0.298882
-0.033711 0.240818 0.372809
0.085212 -0.381531 0.226439
0.057527 0.087507 -0.438933
-0.011389 0.342880 0.282713
-0.132327 -0.390145 0.211785
0.124644 0.443935 0.037785
-0.163435 0.413922 -0.167875
-0.056163 0.373287 0.241382
-0.187068 0.333690 -0.297491
-0.158144 0.202680 0.394491
0.214982 -0.016877 -0.447065
-0.285864 -0.202896 -0.398212
0.100581 -0.056799 -0.443864
-0.120223 -0.444111 0.023641
0.037985 -0.318040 0.308900
-0.226771 0.084592 -0.439585
-0.237882 0.083509 -0.439796
-0.146192 -0.404148 0.183740
0.001127 0.097050 -0.436800
-0.009135 -0.434953 -0.094948
0.209393 0.217616 0.386674
-0.033295 -0.317313 0.309628
0.159218 -0.437433 -0.083115
-0.092174 0.350899 -0.276860
-0.031874 -0.205868 -0.396697
-0.177494 0.149494 0.417377
-0.028128 -0.444711 -0.008917
0.143901 -0.361170 -0.262057
-0.061054 0.442154 -0.059779
-0.082544 0.438432 0.078926
-0.260307 0.129375 0.424009
-0.202293 -0.442136 0.045972
-0.259158 0.412660 0.166438
0.089417 -0.367746 -0.252381
-0.123113 0.133515 -0.427160
0.215126 0.324790 -0.307529
0.072734 -0.279292 -0.348591
0.140043 0.193321 -0.403613
0.098060 0.030172 0.442220
-0.216810 0.353965 -0.272908
-0.010951 0.412115 -0.172051
0.077459 -0.444533 0.010213
0.016001 -0.196708 0.397011
-0.177294 -0.034214 0.441741
0.279113 -0.373577 0.239447
0.281783 -0.335255 0.290201
-0.010409 0.060840 -0.443387
-0.059088 -0.187232 0.401693
-0.267670 0.423786 -0.140823
-0.042509 0.297940 0.329138
0.016348 -0.416957 0.152594
0.100560 0.086116 -0.439244
-0.131368 0.024813 0.442495
-0.212522 0.293237 -0.337637
0.083590 -0.292662 0.332888
-0.074669 -0.444269 0.018617
-0.181361 0.400173 -0.198470
-0.028085 0.029857 0.442249
0.155386 0.419336 -0.153185
0.200702 0.291968 0.334403
0.120992 -0.215834 0.387123
0.286102 -0.443531 -0.035567
-0.039985 -0.176144 -0.410844
0.254902 0.443065 -0.051340
-0.043582 0.033297 -0.446278
0.194265 0.206944 -0.396671
0.122648 -0.406724 0.177786
-0.003940 0.437752 -0.087008
0.219484 0.131451 -0.427760
0.091575 -0.191943 -0.403792
0.284959 0.040756 -0.445572
-0.060685 0.419377 0.148717
-0.241458 0.167966 0.410473
0.219532 -0.062825 0.438557
-0.190324 0.299378 -0.332224
-0.282063 0.058239 0.439445
-0.254018 0.130052 -0.428166
-0.014176 0.437397 -0.088598
0.028709 0.438438 0.078887
-0.012309 0.208545 -0.395856
0.105739 0.408869 0.175199
0.151657 0.402842 0.188877
-0.072587 -0.295939 -0.334352
0.110011 -0.003242 0.443140
0.122476 0.044106 -0.445256
0.264368 0.437518 0.083703
-0.199629 -0.198146 -0.400632
-0.102318 -0.412076 0.165420
0.197366 -0.000129 -0.447592
-0.041794 -0.203476 -0.397916
0.203296 0.002319 0.443202
0.056695 0.437849 -0.086574
-0.163187 0.389119 -0.219694
-0.205380 0.440675 -0.069116
0.063198 0.214232 0.388605
-0.090573 0.159623 -0.418083
0.285146 -0.048879 0.440354
0.118656 0.417286 -0.158879
-0.003436 -0.344919 -0.283249
0.252713 -0.369041 0.246123
-0.190644 0.019095 -0.447028
-0.239576 0.444143 -0.039932
-0.115159 -0.029369 -0.446552
0.162552 -0.129613 0.423642
-0.065459 -0.099601 -0.436001
0.160437 -0.250580 0.365478
0.073912 -0.234938 0.375824
0.075346 -0.417747 -0.154753
-0.030063 -0.336675 -0.292943
-0.126440 -0.209928 -0.394629
-0.002773 0.155462 -0.419581
0.031822 -0.101309 0.431266
0.192103 -0.061261 0.438804
-0.183055 0.367977 0.249196
-0.172820 -0.444628 0.007192
-0.234761 0.314252 -0.318067
-0.095053 -0.403154 -0.190390
-0.058038 0.428505 0.120468
-0.197161 0.169864 0.409652
-0.086937 0.305616 0.322349
-0.241475 0.102919 0.431135
-0.191889 -0.439682 -0.068917
0.117583 0.413492 -0.168870
-0.251006 0.231774 -0.382655
-0.258748 0.376740 -0.240626
-0.249422 -0.444548 -0.014098
-0.195948 -0.217384 0.386205
0.150800 0.428920 0.119038
-0.089685 -0.229198 -0.383572
0.139326 0.361604 -0.262928
0.285155 0.297727 -0.333679
0.236306 0.146618 0.418412
0.156134 0.110764 0.429381
-0.064521 0.233588 0.377228
0.218169 -0.102506 -0.435351
-0.114161 -0.013690 0.442812
0.249206 -0.420951 0.141498
0.098202 0.443180 0.045766
0.160170 0.392083 -0.214347
-0.167692 0.219869 0.385342
0.018839 0.173513 0.408073
0.012375 0.438020 -0.085810
-0.207347 0.262544 -0.362377
-0.287586 -0.412033 0.165519
-0.289964 -0.393071 -0.210397
-0.157127 0.321545 0.306420
0.239223 0.445011 -0.030757
-0.002290 0.050334 0.440314
0.226280 -0.177056 -0.410450
-0.159368 0.261482 -0.363119
-0.113525 0.256225 0.362338
-0.125780 0.211333 -0.394435
0.133438 0.432447 0.106389
0.118562 0.421627 0.142467
0.061992 0.442771 -0.054446
-0.045048 -0.042130 -0.445346
0.084682 -0.085239 0.434858
0.061501 -0.159828 -0.417640
0.009401 0.187939 0.401830
-0.005904 -0.363661 -0.258392
-0.270383 0.348354 0.275789
-0.143739 0.437285 -0.089098
0.104817 -0.243026 -0.374966
0.234361 0.098876 0.432038
0.213528 -0.393455 -0.209642
-0.038559 -0.146027 0.418256
0.278411 -0.258216 -0.364642
0.023949 0.422003 0.141424
0.020859 0.402441 0.189665
-0.240763 0.234885 -0.380815
0.158134 0.434244 0.098349
-0.047916 -0.097692 -0.436427
0.202996 0.238579 0.374277
0.107307 0.128303 0.424321
0.061275 -0.098341 -0.436282
0.254080 -0.444848 0.000185
0.188502 -0.288584 -0.340836
-0.145979 0.348063 0.276163
-0.185587 -0.191342 0.399745
0.009098 -0.373720 -0.243590
-0.013774 -0.397252 -0.202191
0.265442 -0.444857 -0.000103
0.259123 -0.043234 0.440888
0.226992 -0.130726 -0.427673
0.030368 -0.338754 0.286232
-0.092306 -0.338121 0.286950
0.144422 0.442266 0.054721
0.152397 0.444437 0.032476
-0.193257 0.147033 -0.422616
0.216398 -0.131089 0.423214
-0.214608 0.161986 -0.417232
0.103653 0.441682 0.058403
0.037661 -0.229895 -0.383160
-0.130848 0.335382 -0.295572
0.081911 -0.216166 0.386926
-0.251116 -0.240035 -0.376998
-0.092215 0.220980 0.384685
-0.127836 -0.398053 -0.200619
-0.033982 -0.423836 -0.137363
-0.082078 -0.243976 -0.374320
-0.252440 -0.441727 -0.054648
-0.105980 -0.397177 0.197984
-0.020761 0.400798 0.192889
-0.171446 -0.441672 0.050887
0.101283 -0.400447 -0.195920
-0.140274 0.002101 -0.447562
-0.084348 -0.436081 0.085546
0.178980 -0.430889 0.108734
-0.126142 -0.177628 -0.410202
0.262824 -0.123607 -0.429741
-0.258921 0.440143 -0.072478
-0.138034 0.392413 -0.213699
-0.084246 0.276318 -0.351693
0.009807 -0.394947 -0.206715
0.272610 0.204879 0.393370
-0.117545 0.045753 -0.445100
-0.098187 -0.003928 0.443119
0.064627 0.267139 0.354459
0.055286 0.112400 0.428941
-0.288442 0.442005 -0.060723
-0.054273 -0.207813 -0.395706
-0.241601 0.286862 0.338904
0.189947 -0.151376 0.416330
-0.221029 -0.075310 -0.440933
0.001932 -0.215812 0.387135
-0.057838 0.125163 0.425233
0.019101 -0.324294 0.302633
0.021863 -0.379528 -0.234179
-0.211894 -0.323332 0.303609
-0.134520 -0.214819 -0.392076
0.004673 0.239675 0.373586
0.274912 0.337572 -0.293088
0.202287 0.430653 0.113075
0.267252 0.016825 -0.447099
0.157364 -0.326649 0.299962
-0.047867 0.396287 -0.206097
-0.277178 -0.198599 0.396048
-0.240084 0.286749 -0.343358
-0.276550 -0.417974 -0.154122
-0.132843 -0.419564 0.145351
0.128797 -0.442875 -0.042507
0.225133 0.148964 0.417567
-0.080201 0.377842 -0.238762
0.062086 0.033551 0.441900
0.122576 -0.439607 0.065037
0.077415 -0.219477 -0.389321
-0.047389 -0.369336 0.245689
-0.165259 0.112185 -0.433357
-0.044567 0.002189 -0.447559
-0.231450 0.204290 -0.398023
0.022800 -0.310334 -0.320960
0.158060 -0.165427 -0.415482
0.233404 0.444089 0.036152
-0.183919 -0.444491 0.011570
-0.078266 -0.117383 0.427196
0.225518 -0.011857 -0.447223
-0.183965 -0.274711 -0.352144
-0.261174 -0.048608 0.440380
-0.068057 0.381321 -0.232879
0.128909 0.102276 -0.435632
-0.206440 0.125457 0.425148
-0.114600 0.346066 -0.283091
-0.228876 -0.444269 -0.022990
0.180216 0.373410 -0.245555
-0.013414 0.316401 0.311564
-0.221041 0.184366 -0.407730
0.273482 -0.062287 -0.442995
0.273885 0.328907 0.298563
0.044588 0.154842 0.415451
0.231344 0.388676 0.216089
-0.192385 -0.444745 -0.007844
-0.077923 -0.427014 -0.126425
0.108997 -0.379946 -0.233472
0.175666 0.437562 -0.087861
0.219524 0.271827 0.350823
-0.074541 0.108239 -0.434299
-0.088630 -0.197722 0.396495
-0.011414 -0.402330 -0.192224
-0.050185 -0.029008 -0.446586
-0.288839 0.174067 0.407833
0.274011 -0.264857 0.355435
-0.039308 -0.209982 0.390248
-0.237653 0.249571 0.366861
0.013695 0.421804 0.141975
0.268188 -0.444222 0.020128
-0.117928 -0.330774 0.295283
-0.147178 0.201131 0.395280
0.118024 -0.352751 -0.273151
-0.275010 0.357421 -0.268453
-0.230017 -0.242378 0.371052
0.076729 0.413222 0.165138
0.210412 -0.083713 -0.439552
0.056987 0.231757 0.378312
0.225702 0.432117 -0.112220
-0.240134 0.405962 0.181916
-0.070724 -0.155444 -0.419219
0.142670 0.445386 0.015677
0.122072 0.432278 0.107146
-0.269929 0.144138 0.419305
-0.081871 -0.246477 0.368267
0.036870 -0.438061 -0.079150
-0.144628 -0.444075 0.024793
0.228938 -0.239962 -0.377048
-0.245126 -0.300240 0.326206
0.233441 0.040473 0.441246
-0.159574 -0.444410 0.014140
-0.045822 -0.433576 0.096752
0.171356 -0.281503 -0.346876
-0.082417 0.424906 -0.137207
-0.083000 0.027644 0.442406
0.107543 0.185030 -0.407442
-0.032008 -0.405030 -0.186056
0.197422 -0.024928 -0.446812
0.009192 0.031635 0.442081
0.233372 0.204053 0.393791
-0.139763 0.200079 -0.400169
-0.096106 -0.425763 0.126380
0.114257 -0.014259 -0.447148
0.227711 -0.066565 -0.442318
0.285856 -0.324658 -0.306574
0.173682 -0.250430 0.365580
-0.140864 0.445692 -0.010314
0.176028 -0.266331 0.354291
0.013636 -0.429406 0.113841
-0.067889 -0.060459 0.438931
-0.242811 0.341757 -0.288341
-0.287485 -0.436305 -0.088897
0.230794 0.294982 -0.336099
-0.178733 0.445904 -0.000805
0.206495 0.440330 0.066944
-0.162190 -0.444761 0.002965
0.087324 0.366588 -0.255592
0.126759 0.174624 0.407592
-0.084992 -0.125555 0.424821
0.144350 0.029923 0.442243
-0.199936 -0.324852 0.302000
0.187802 0.443865 0.038519
0.153479 -0.186590 -0.406324
0.234280 0.401567 0.191380
0.002760 -0.432905 -0.104108
0.088405 -0.434302 0.093505
0.206450 -0.406822 0.177560
0.213519 -0.244232 0.369793
-0.190354 0.078599 -0.440574
0.159213 -0.121251 -0.430425
-0.165044 0.444910 -0.031817
-0.095162 -0.069230 -0.441895
0.270824 -0.276208 0.346630
0.254834 0.215648 -0.392192
0.102172 0.432509 0.106111
0.106603 0.097439 -0.436713
0.048365 -0.422535 0.137100
-0.229102 0.439215 -0.078333
-0.001256 0.201255 -0.399570
-0.050561 0.402763 0.189033
0.280643 0.432617 -0.109981
-0.019784 0.063475 -0.442969
0.264350 0.062589 -0.443110
-0.184762 0.412196 -0.171863
0.174218 0.415987 0.158133
0.038587 -0.158741 -0.418032
-0.023472 0.068847 0.437765
0.232979 0.277730 0.346244
-0.187475 0.360129 -0.264961
0.145571 0.297836 0.329230
-0.144566 0.408650 0.175705
-0.238428 -0.024709 -0.446819
-0.067069 0.427412 0.124230
-0.070362 0.444821 -0.032763
-0.100714 -0.118701 -0.431166
-0.245809 -0.339831 0.285010
0.115845 -0.444264 -0.023134
0.083691 0.423861 -0.140617
-0.035838 -0.150706 -0.420925
-0.162531 -0.022901 0.442523
-0.079203 0.172344 0.408579
0.256686 -0.130156 0.423485
0.108962 0.374610 0.239436
-0.157442 -0.444017 -0.030430
0.199592 0.277963 0.346064
-0.168672 -0.218465 -0.389920
-0.135402 -0.444230 0.019877
0.075173 -0.159960 -0.417593
0.116585 -0.403528 0.185173
0.090645 -0.435783 -0.091233
-0.236116 0.052132 0.440144
-0.285383 0.180718 -0.409308
-0.145404 -0.403000 -0.190746
-0.043246 0.096418 -0.436941
0.165779 0.395998 -0.206663
-0.026694 -0.152880 0.415789
0.205513 -0.059221 -0.443481
-0.043379 -0.056849 0.439503
0.078649 -0.244454 0.369641
-0.044552 0.270498 -0.356207
-0.215453 0.396623 0.201082
0.152058 0.120457 0.426600
-0.260596 -0.030324 0.442108
-0.224327 0.196100 -0.402196
0.036916 -0.262796 -0.361387
0.172313 0.272035 0.350662
-0.131009 0.091219 -0.438104
-0.149897 0.336351 -0.294473
-0.205369 0.328317 0.299232
0.193806 0.342376 -0.287639
0.276670 0.442813 0.049653
0.118133 0.206769 0.392407
-0.042253 -0.441444 0.053298
-0.228736 -0.423505 0.134152
-0.200485 -0.237655 -0.378571
0.223491 -0.438460 0.072280
-0.218648 0.445610 -0.012901
-0.148587 0.193329 -0.403609
-0.129429 0.000157 0.443247
-0.129366 0.156972 -0.419038
-0.267873 -0.116504 0.427451
0.271719 0.345388 -0.283966
0.070449 0.030762 -0.446517
-0.102450 -0.286976 0.337901
-0.241818 0.410646 -0.175444
0.132796 0.445671 0.006614
0.170340 0.301239 -0.330583
0.226549 -0.430485 -0.114479
-0.084848 -0.050180 0.440231
0.225795 0.037863 -0.445846
-0.092654 -0.444124 -0.027576
-0.263118 -0.346395 0.276992
-0.073303 0.073699 0.436997
-0.030552 0.403552 0.187484
-0.232596 -0.276798 0.346172
-0.200016 0.445472 -0.017310
0.277330 0.445152 -0.027485
-0.200469 0.244455 -0.374691
0.241424 -0.001004 0.443211
0.221913 -0.353431 0.267921
-0.217644 0.376187 -0.241468
0.160936 0.216119 0.387560
0.202476 -0.408516 -0.177999
0.126082 0.287976 0.337922
0.029782 0.434910 -0.099723
-0.227849 0.442499 -0.057333
-0.121149 0.268583 -0.357693
-0.124101 0.299186 0.328040
0.263678 -0.207136 0.391698
-0.035965 -0.260689 0.358608
0.064942 0.432144 -0.112101
0.280733 -0.216668 -0.390982
-0.184743 -0.425922 0.125831
0.234677 0.217366 0.386822
0.195155 -0.328050 -0.302726
0.177687 0.208212 0.391672
0.188908 0.439156 -0.078710
-0.078515 0.206777 0.392403
0.158705 0.343262 0.282281
0.081677 -0.009030 0.442958
-0.132558 0.383589 -0.229045
-0.195282 -0.435350 -0.093172
0.114039 -0.411079 0.167722
-0.118882 0.166288 -0.415553
0.136508 -0.444415 0.013987
-0.023678 0.265896 -0.359777
0.270153 -0.422227 -0.142308
0.283127 0.104002 0.430893
-0.033754 0.325986 0.301877
-0.242532 0.424595 -0.138280
-0.237327 -0.407677 -0.179938
-0.248048 0.146579 0.418426
0.085383 0.360420 -0.264586
0.035456 -0.444579 0.008768
-0.017839 -0.409421 -0.175907
-0.111917 0.285178 0.340389
0.049708 -0.415204 0.157463
0.059313 -0.338606 0.286400
-0.279162 0.374000 0.240334
0.195542 -0.120116 0.426402
-0.164471 0.367124 -0.254804
-0.180801 0.437337 -0.088866
-0.181402 -0.326176 0.300498
-0.151096 -0.126528 0.424539
0.199162 0.429178 -0.122503
-0.027372 -0.248681 -0.371122
0.206419 -0.432278 0.102563
0.091857 -0.040444 0.441152
-0.061702 -0.419348 0.145950
0.008529 -0.060218 0.438970
0.266356 0.365023 0.253543
-0.073849 -0.439443 -0.070424
0.214212 0.445563 0.010060
-0.275922 0.218212 0.386322
-0.141229 -0.034108 -0.446104
-0.054603 0.304757 0.323128
0.183803 -0.218460 0.385569
-0.242180 -0.325891 0.300822
0.033518 -0.306838 -0.324456
0.185713 -0.432766 0.100380
0.021906 0.001170 0.443238
-0.243144 -0.086437 -0.438943
0.218481 0.213685 0.388883
-0.147613 0.394576 -0.209455
0.284386 -0.433763 -0.100273
0.110857 0.444975 -0.031133
-0.195856 -0.319232 -0.312062
-0.099493 -0.194905 0.397930
0.099251 -0.312132 0.314809
-0.285305 -0.268966 0.352247
-0.078229 -0.403458 0.185333
-0.177604 -0.182310 -0.408176
-0.033170 -0.406972 0.177214
-0.015791 0.045690 0.440753
0.082145 0.232611 0.377806
0.237915 0.402237 -0.194419
0.137094 -0.118747 0.426799
-0.081228 -0.076372 -0.440764
0.274252 0.285853 -0.344147
0.028668 -0.210974 0.389742
-0.103261 -0.157605 0.414088
-0.183740 -0.441813 0.049395
0.031618 0.442841 -0.053706
0.285447 0.322039 0.305926
0.111181 0.253850 0.363953
0.160563 0.059253 -0.443638
0.043478 -0.163503 0.411961
-0.012939 -0.333373 0.292335
0.004786 0.353607 0.269015
-0.120106 0.287335 -0.342841
-0.218510 0.410833 -0.175014
0.121194 0.087246 -0.438992
0.137435 -0.439813 -0.068089
0.153300 0.231158 0.378666
0.054236 -0.133608 0.422482
0.014749 0.284996 -0.344903
0.149630 0.442806 -0.054083
-0.271228 -0.020552 -0.446950
0.212237 -0.352857 -0.273014
-0.258497 0.316619 -0.315699
-0.077509 0.420649 -0.149539
0.247928 -0.237459 -0.378687
-0.262541 0.278930 -0.349667
-0.218360 -0.433655 0.096402
-0.143835 0.442541 0.052528
-0.019780 -0.440202 0.061282
-0.139134 0.432426 -0.110837
-0.019381 -0.305863 -0.325430
-0.033063 0.415446 -0.163989
0.248293 0.319063 0.308902
0.012959 -0.101428 -0.435592
0.035732 0.330438 -0.301179
0.030365 -0.417339 0.151531
0.055105 -0.294508 -0.335613
0.066649 -0.428508 -0.121282
0.144624 0.330612 0.296629
-0.026974 -0.204864 0.392856
0.272424 -0.117353 -0.431558
0.122637 0.329044 0.298408
-0.289608 -0.195017 0.397873
0.076756 0.325519 0.302406
-0.255629 0.325258 -0.307055
0.208262 0.444606 0.030687
0.187812 -0.134495 -0.426578
-0.066956 0.409471 -0.178161
-0.198333 -0.418268 -0.153305
-0.215935 0.439806 0.070252
0.178934 -0.031760 -0.446326
0.207306 -0.330780 0.295276
-0.165500 0.412934 0.165806
-0.168962 0.315632 0.312333
0.273000 -0.309327 0.317613
0.276906 0.214616 0.388409
0.178326 0.325037 -0.307281
0.089688 -0.398711 -0.199327
-0.154810 -0.444118 0.023416
-0.178049 0.001855 -0.447570
-0.029384 0.387978 0.217269
0.094010 -0.158186 0.413878
-0.237468 -0.370939 0.243330
0.022442 0.016468 -0.447110
-0.053902 0.346086 -0.283065
0.005302 -0.052643 -0.444352
-0.055135 0.297007 0.329961
-0.074258 -0.251247 -0.369378
-0.182116 -0.444685 -0.009746
0.091735 0.321674 -0.310645
0.104127 -0.440429 -0.064199
0.099091 -0.022896 -0.446876
0.215324 0.445171 0.022529
-0.109990 -0.041395 0.441062
-0.241255 0.416805 0.155863
0.106287 -0.374438 -0.242535
-0.288665 -0.425948 0.125740
0.119043 0.378124 0.233932
-0.063519 0.443323 -0.048611
-0.274197 -0.068913 0.437592
0.200330 0.204803 0.393409
0.091650 0.198744 -0.400850
0.210785 0.314916 0.313050
0.136198 0.372154 0.243049
-0.136301 0.418129 -0.156537
0.145500 0.059421 -0.443611
-0.027108 0.134197 -0.426962
0.111405 0.346696 -0.282279
0.150552 0.323432 -0.308887
0.032317 -0.044639 -0.445109
0.282414 -0.023330 -0.446863
-0.266130 0.412237 -0.171768
-0.222683 0.437479 0.083879
0.235623 -0.406575 -0.182484
0.285823 -0.357667 -0.266814
0.267083 -0.155131 0.414978
0.018010 0.355417 0.266682
-0.275764 -0.158148 -0.418245
-0.285591 0.422640 0.139655
0.147341 -0.221940 0.383511
0.027927 0.110263 -0.433846
0.185420 -0.425545 -0.131480
0.092372 0.339850 -0.290504
-0.119664 -0.334915 -0.294939
0.152166 0.426951 -0.130171
0.197100 0.322084 0.305882
-0.288603 -0.213762 -0.392675
-0.249228 -0.252984 0.363845
0.182929 0.016939 -0.447096
-0.154058 -0.152811 -0.420167
-0.063878 0.333678 0.293152
0.048359 -0.005949 -0.447409
0.169193 -0.440477 0.059542
-0.014794 0.026978 0.442427
0.235464 -0.392241 0.207671
-0.005015 0.000440 -0.447610
0.128437 -0.429892 -0.116520
-0.226089 0.398183 0.198022
0.168211 -0.364959 0.252129
0.082422 -0.431597 -0.109959
-0.070609 0.413871 -0.167993
0.204107 -0.439085 -0.072688
-0.034781 0.438328 -0.083937
-0.049284 -0.082475 0.435444
-0.044321 -0.422642 -0.141155
0.253076 -0.425364 -0.132105
0.283597 0.324149 -0.308170
-0.057439 -0.241445 0.371686
0.232101 0.267987 0.353802
-0.210671 0.339538 -0.290858
-0.229644 0.381813 0.227694
-0.184690 0.420388 0.145910
0.161434 0.409936 0.172732
-0.107109 -0.109021 -0.433895
0.017706 -0.427741 -0.123924
-0.222171 0.035125 -0.446105
-0.204351 -0.160360 0.413095
0.058346 -0.401250 -0.194345
-0.278328 0.309109 -0.323209
-0.095266 0.414696 0.161720
-0.209056 -0.229378 -0.383466
0.002055 0.125972 0.424998
-0.222052 0.317488 0.310477
-0.189781 0.443106 0.046556
-0.092857 0.422696 0.139499
-0.172619 0.378469 0.233349
-0.268322 -0.436556 -0.087774
0.106467 -0.414806 -0.162922
0.109698 -0.387419 -0.220836
-0.141873 -0.048799 -0.444715
0.111290 0.368556 0.248345
-0.041675 -0.312707 -0.318586
-0.033140 -0.432089 0.103407
0.168700 0.260748 0.359264
-0.152325 0.046348 0.440690
0.055510 0.439440 0.072564
-0.163375 -0.440989 0.056308
0.116833 -0.396358 -0.203945
0.100447 0.293783 -0.337156
0.014100 -0.049665 0.440280
-0.276502 -0.282109 -0.346406
0.021097 0.445751 -0.008429
0.250118 -0.362005 -0.260828
-0.198665 -0.161795 -0.416932
0.008152 0.324461 0.303504
-0.033072 0.445868 -0.004691
-0.033987 -0.437973 -0.079709
0.156061 -0.003670 -0.447480
0.064370 0.423190 0.138126
0.173510 -0.345977 0.277531
0.072093 0.342133 -0.287915
0.003320 -0.094523 -0.437136
0.214688 0.419791 0.147568
-0.109472 -0.370013 0.244693
0.078225 -0.440894 0.056908
0.088572 0.361804 0.258279
-0.179731 -0.384495 0.221427
-0.209691 -0.306208 0.320732
0.014775 0.408642 -0.180076
0.055930 0.207551 -0.396362
0.134906 0.115654 -0.432349
-0.247980 -0.406470 0.178374
-0.279413 -0.264780 -0.359848
0.247624 0.024695 -0.446852
-0.244594 0.360932 0.259562
0.005901 0.406343 -0.185390
-0.078737 0.394753 -0.209107
0.095413 -0.341584 -0.287375
-0.196223 0.050696 0.440279
-0.018213 0.391844 -0.214816
0.034406 0.036352 0.441635
-0.153875 -0.369384 -0.249972
-0.251365 0.098956 -0.436374
-0.053143 -0.106901 -0.434369
-0.276202 -0.144978 -0.422987
0.070998 0.016001 -0.447125
-0.142626 0.331340 -0.300157
-0.013770 0.430235 -0.118867
0.153391 0.080676 -0.440245
0.020323 -0.331347 0.294633
-0.104561 -0.306590 0.320351
-0.038329 0.165974 0.411335
-0.270862 0.445843 0.001135
0.150252 0.183817 0.403614
0.018969 -0.400750 -0.195326
0.286768 -0.253705 -0.367708
0.205232 -0.348264 0.274583
0.229048 -0.103181 -0.435200
-0.098661 -0.363979 -0.257924
-0.132778 0.444650 0.030221
-0.098222 -0.359825 0.259679
-0.217524 0.443300 0.044506
-0.138399 -0.318702 -0.312592
-0.167059 0.442893 -0.053165
-0.039025 0.002039 0.443210
-0.203902 0.442953 -0.052520
-0.287398 -0.140632 0.420198
0.261114 0.002325 0.443201
-0.223844 0.078989 0.436159
0.205926 -0.397332 0.197680
-0.227508 0.344122 -0.285597
0.242756 0.441728 -0.062468
-0.261847 -0.371854 0.241983
-0.163231 -0.419659 0.145087
0.177388 -0.427820 -0.123651
-0.189162 0.212314 0.389582
0.039893 -0.051138 0.440141
0.119543 -0.441190 0.055044
-0.282755 -0.254926 -0.366878
-0.184139 -0.436061 0.085639
0.054054 0.427755 0.123049
-0.017318 0.420212 0.146397
0.208883 0.257607 0.361399
0.051517 0.182001 -0.408753
-0.073418 0.413984 0.163378
-0.159418 0.445350 -0.021175
0.202813 -0.122250 -0.430135
-0.028850 -0.327281 -0.303598
-0.174318 0.439302 -0.077787
0.111809 0.445275 0.019227
0.197110 0.194530 0.398643
0.264083 -0.109638 -0.433757
-0.132560 0.199164 0.396282
-0.261797 -0.082270 -0.439830
0.053514 -0.165453 -0.415471
-0.164216 -0.386727 -0.222006
0.145902 0.443407 0.043366
0.213975 0.264782 0.356288
-0.187455 -0.357686 -0.266790
-0.197401 0.442086 -0.060208
-0.181940 0.106803 0.430267
0.027339 -0.137891 -0.425538
0.084209 -0.406034 0.179382
-0.198863 0.040398 -0.445606
-0.189233 0.436011 -0.094798
0.107981 -0.442671 0.040318
-0.240223 -0.442107 0.046276
0.094054 0.064344 0.438478
0.247211 0.147593 0.418061
-0.095323 0.398938 -0.200893
-0.002221 0.445181 -0.026555
-0.154763 -0.198133 -0.400639
0.058919 -0.233899 0.376439
0.283119 -0.103950 0.430675
-0.105571 0.381565 -0.232467
0.219266 0.286676 -0.343422
-0.161799 -0.209729 0.390377
-0.142604 0.034621 0.441799
-0.048746 0.006943 0.443056
0.181949 0.198033 0.396858
-0.234257 -0.191085 0.399876
0.143078 0.096271 -0.436974
-0.084196 0.346830 -0.282106
-0.282162 -0.118551 -0.431210
-0.145952 0.425630 0.130362
-0.120095 0.336389 0.290076
-0.185947 -0.160049 -0.417561
0.246451 0.418023 -0.156831
0.188186 0.152309 -0.420716
0.080336 -0.169766 -0.413604
0.242769 0.175254 -0.411673
-0.274625 -0.339330 0.285578
0.236696 -0.295205 0.330646
-0.215030 -0.395212 -0.206196
-0.085876 -0.444362 0.015679
-0.194098 -0.327829 -0.302977
0.012110 0.044890 -0.445182
0.028109 -0.333997 -0.295981
0.002003 0.432572 -0.110184
0.138045 0.043567 -0.445307
0.092719 0.033472 -0.446261
0.266333 -0.047533 -0.444835
-0.045843 0.105892 0.430470
0.180716 -0.373728 0.239225
-0.105873 -0.375738 0.236234
-0.067567 0.115766 -0.432316
0.207801 0.022790 -0.446912
0.102552 0.338756 0.287392
-0.163652 0.445114 0.024332
0.162092 0.290480 -0.340068
-0.144760 -0.301980 0.324673
-0.185337 0.156922 -0.419056
-0.012070 -0.400857 0.190763
-0.136081 -0.409712 -0.175235
0.064135 -0.411275 0.167270
-0.061892 0.090123 0.433995
-0.123888 0.256726 0.361998
-0.204160 -0.151842 -0.420516
-0.220491 -0.293325 -0.336657
-0.111489 -0.071866 0.437125
0.151621 -0.413182 0.162863
0.104088 0.445376 -0.020371
-0.001068 -0.402332 0.187868
0.139481 0.445132 -0.028114
-0.260498 -0.431837 0.104533
-0.232256 -0.438415 0.072561
0.177395 0.061052 0.439000
-0.030784 0.442958 0.048117
-0.011855 0.088078 -0.438806
-0.165244 0.210096 0.390712
-0.137401 0.325460 -0.306827
0.180419 0.140481 -0.424975
0.130523 -0.055943 -0.444000
0.002666 -0.165147 0.411250
-0.089539 0.419541 -0.152614
0.120233 -0.081685 0.435569
-0.188031 0.030021 0.442234
0.041928 0.167941 -0.414837
0.166584 0.419393 -0.153028
0.015945 -0.237301 -0.378780
0.135534 -0.207598 0.391462
0.275945 -0.405402 0.180841
-0.037966 -0.115986 0.427602
0.004603 0.336911 0.289484
-0.120400 0.445685 -0.010522
-0.008850 0.378338 -0.237924
-0.181137 -0.443159 0.035149
-0.247952 0.122391 -0.430392
0.202763 0.437031 0.085883
0.255946 0.272782 0.350083
-0.024471 0.171887 0.408776
0.174949 0.233346 -0.381725
-0.021491 -0.114426 -0.432408
-0.246840 0.178461 -0.410285
-0.026357 -0.294366 0.331385
0.086644 0.329787 -0.301919
0.153308 0.307753 0.320212
-0.240192 -0.444706 -0.009075
-0.093346 -0.297428 -0.333039
0.213516 -0.413767 -0.165808
-0.086312 0.405273 -0.187862
-0.143994 0.270768 0.351645
0.175887 -0.176334 -0.410762
-0.079293 0.315009 -0.317310
-0.122935 0.223124 -0.387770
-0.251616 0.334880 -0.296142
-0.172679 0.089350 0.434168
0.149902 -0.079635 0.435894
-0.116239 -0.382318 -0.229462
-0.228860 -0.068184 -0.442061
0.100524 0.244577 -0.374608
-0.179281 0.005389 0.443105
0.214471 0.411526 -0.173413
0.096086 -0.443270 -0.038336
0.133511 -0.010327 -0.447271
-0.035050 -0.443543 0.031086
-0.178945 -0.428896 -0.119948
0.071121 -0.413429 -0.166645
-0.058692 -0.395416 -0.205794
0.177184 0.092093 -0.437908
0.242339 0.134974 -0.426736
0.175583 -0.383950 -0.226702
0.203470 -0.402938 -0.190890
0.238938 -0.080442 0.435766
0.024709 -0.346423 0.276957
-0.069988 -0.380759 -0.232097
0.227696 -0.366913 0.249254
0.111909 0.217317 -0.391205
0.203758 -0.424113 -0.136410
-0.278562 -0.214346 -0.392356
-0.090031 0.175902 0.407039
-0.079073 0.355790 0.266201
0.004609 0.040517 0.441242
-0.207562 0.331072 -0.300460
0.220806 0.103013 0.431114
-0.025422 -0.261641 0.357929
-0.132384 -0.441806 0.049465
0.277712 0.395354 0.203574
-0.009290 0.163731 -0.416604
-0.199658 -0.429812 -0.116796
-0.049646 0.023912 -0.446876
0.085271 -0.443318 -0.037825
-0.156824 -0.177132 0.406063
-0.222528 0.098418 0.432141
0.024208 0.203685 0.393978
0.062452 -0.137581 -0.425650
0.160226 0.255725 -0.367032
-0.158233 0.427131 -0.129550
-0.279143 0.269066 -0.357318
-0.274684 0.434209 0.098505
-0.195919 0.439848 -0.074340
0.206289 -0.444605 0.007929
-0.095537 0.310641 0.317324
0.068106 -0.259909 0.359138
-0.147274 -0.444656 -0.010668
-0.236136 -0.419923 -0.148709
-0.101545 -0.096111 0.432427
0.152125 -0.341929 -0.286984
-0.186312 0.382632 -0.230663
0.108523 -0.444297 0.017723
0.008546 0.160032 -0.417936
-0.254006 0.263703 0.357125
0.246951 -0.335969 -0.293744
-0.067706 -0.047359 -0.444851
0.120980 -0.444907 -0.001689
-0.003900 0.227823 0.380638
0.015706 0.418241 0.151874
-0.075298 -0.426115 0.125165
0.182151 0.205895 -0.397206
0.053750 -0.443205 -0.039021
0.069020 0.415836 0.158554
0.237771 -0.148876 -0.421584
-0.005375 0.185522 0.402876
0.056164 -0.405494 0.180628
-0.079713 0.261917 0.358470
-0.012954 -0.274584 -0.352243
0.225585 -0.435822 -0.091061
0.185685 -0.435809 -0.091118
0.179133 -0.418879 0.147254
-0.253411 -0.363865 0.253739
0.260814 0.441068 0.062281
0.219707 0.444309 -0.038185
0.260994 -0.396501 0.199312
-0.047107 -0.167101 0.410404
0.251243 0.184145 -0.407825
0.220332 0.131181 0.423485
0.211103 0.275838 -0.352065
-0.289946 0.445453 0.013563
-0.040694 -0.380319 -0.232841
0.125635 -0.366261 0.250213
-0.054306 -0.286661 0.338179
-0.196186 -0.105600 -0.434660
0.203765 0.407231 0.178984
-0.015181 -0.355659 -0.269403
-0.195565 -0.413082 -0.167448
-0.102467 0.437208 -0.089446
-0.064117 0.405088 -0.188288
-0.160821 -0.382696 0.224469
-0.153100 -0.288094 -0.341268
0.121389 -0.295806 -0.334469
-0.056934 -0.414843 -0.162819
0.112137 0.072419 0.437199
-0.026192 0.357929 0.263444
-0.199376 -0.375900 0.235960
-0.049858 -0.217006 0.386429
-0.238275 0.240101 0.373296
-0.173449 -0.140674 0.420183
-0.121722 0.361940 -0.262433
0.017938 0.435746 -0.095985
-0.130961 -0.309251 0.317689
0.116164 0.309615 -0.322704
0.227049 -0.437983 -0.079642
0.043835 0.443298 0.044522
0.172158 -0.312578 0.314362
0.152630 -0.406383 -0.182928
0.170066 -0.112180 0.428707
-0.160178 -0.232754 0.377116
0.209589 0.343206 -0.286697
0.006307 0.138130 0.421466
-0.083629 -0.003273 -0.447493
0.038081 -0.316730 -0.314564
-0.260750 -0.000130 -0.447592
-0.219983 0.003876 0.443153
0.213614 0.235379 0.376170
0.039754 -0.278946 0.344506
-0.126691 -0.368865 0.246381
0.207445 0.398115 0.198155
0.015169 0.269906 0.352313
-0.170394 -0.407380 0.176271
-0.264240 0.246363 -0.373394
0.262698 0.444200 -0.039335
0.080642 -0.128887 0.423853
0.191826 -0.257521 -0.365115
0.166937 -0.326048 -0.304997
-0.087227 0.147438 0.418117
-0.234795 -0.165465 0.411112
0.042553 -0.442380 -0.047745
-0.166314 -0.442693 0.040077
-0.061696 -0.442268 -0.048930
-0.194793 0.444764 -0.033368
-0.009712 0.150950 0.416852
0.047160 0.443655 -0.045100
-0.118550 -0.433958 -0.099397
-0.091348 0.126429 -0.429219
-0.077079 0.391333 0.211465
0.258044 -0.419235 -0.150620
-0.131632 0.414120 0.163065
-0.230396 -0.327692 0.298779
-0.224477 -0.260159 0.358968
0.258636 -0.170489 -0.413291
0.232054 0.009461 -0.447331
0.064593 -0.401557 0.189389
-0.153941 0.410354 -0.176121
-0.169355 0.404963 0.184225
0.193229 -0.444572 0.008978
0.275378 -0.368384 -0.251442
-0.283881 -0.083424 0.435263
0.148250 0.015951 0.442773
0.209305 -0.281708 0.342364
-0.223405 -0.361717 0.256899
0.017498 -0.079449 0.435924
-0.135609 -0.443015 -0.041032
0.086337 -0.015275 -0.447116
-0.243256 0.085463 0.435037
-0.175183 0.240702 -0.377241
-0.148507 -0.444670 0.005869
-0.277052 -0.421531 -0.144241
-0.144423 0.175465 -0.411581
-0.247574 -0.203016 0.393797
0.090174 -0.169067 0.409553
0.247378 0.340776 0.285100
0.240909 0.359772 0.261068
0.214954 0.445916 -0.001164
0.150527 0.435495 -0.097108
0.082393 0.317788 0.310178
0.017661 0.259028 0.360434
-0.254723 0.443720 0.040054
0.055459 0.301054 0.326393
0.137432 -0.234942 0.375822
-0.196393 -0.197251 0.396734
-0.192751 -0.208546 0.390980
-0.251911 -0.098666 0.431856
0.073101 0.227672 0.380727
-0.254197 -0.376006 0.235780
-0.052815 0.096849 0.432491
0.206087 -0.034192 0.441743
-0.288918 -0.148432 -0.421743
0.038212 0.424880 -0.137300
-0.054983 -0.437241 -0.084328
0.031969 -0.432726 0.100559
0.056380 -0.255545 0.362104
-0.092731 0.082152 -0.440011
-0.108161 0.391959 -0.214590
-0.218984 0.284112 0.341294
-0.043354 0.397928 0.198523
