-0.256199 -0.069895 0.437437
0.269176 0.390824 -0.216811
0.155753 0.322773 0.305192
0.183470 -0.211536 0.389456
0.177596 0.283909 -0.345805
0.199763 -0.413449 0.162246
-0.107023 0.065224 0.438339
-0.165870 -0.444249 -0.023614
-0.237953 0.444789 0.028744
0.135977 0.344080 0.281298
-0.171492 -0.417793 0.150272
-0.112664 -0.138003 -0.425498
-0.209949 -0.388718 -0.218639
0.175868 0.428588 0.120183
0.043858 -0.414900 -0.162660
0.049864 0.303848 -0.328283
-0.050798 0.102196 0.431296
-0.286589 0.081506 -0.440114
0.110403 0.431168 -0.115653
-0.117704 0.111594 -0.433529
0.118901 -0.435689 0.087300
0.218930 0.425437 0.131028
0.066993 0.300308 0.327050
-0.243148 0.444148 -0.039887
-0.286539 -0.213071 0.388674
0.103971 -0.287941 0.337050
-0.145372 -0.325651 -0.305447
0.094613 0.329685 -0.302034
-0.057080 0.416883 -0.159997
0.107692 0.406952 -0.183983
-0.017394 0.442919 -0.052882
0.227861 0.109706 -0.433971
-0.073981 0.254417 0.363567
0.007565 0.445581 -0.013826
0.266245 -0.242896 -0.375053
-0.201679 -0.124577 -0.429459
-0.199979 0.253399 0.364259
-0.173979 0.238786 0.374155
0.083284 0.169057 0.410001
0.265907 0.034344 0.441825
-0.054367 -0.434775 0.091389
0.126270 -0.158146 0.413893
0.017785 0.390120 -0.218002
-0.185289 -0.437193 -0.084634
0.023255 -0.442461 0.042536
-0.039310 0.209392 -0.395424
0.226565 -0.262555 -0.361574
-0.139446 -0.383972 -0.226664
-0.084725 -0.173996 -0.411774
0.283777 -0.029456 -0.446544
0.094114 0.304273 -0.327908
-0.186498 -0.430219 -0.115393
0.170178 0.311385 -0.320934
-0.151264 -0.438111 0.074480
-0.142457 0.388426 0.216512
-0.283243 -0.443601 -0.034827
-0.172231 0.271928 0.350744
0.028110 0.234947 -0.380778
0.020718 0.408850 0.175243
0.272958 0.415758 0.158769
-0.244503 -0.403801 -0.188894
-0.284189 0.445629 0.007947
-0.163175 -0.396688 -0.203298
-0.195984 0.433127 -0.107703
0.103388 0.361794 -0.262647
0.164469 0.304817 -0.327429
0.018480 0.429967 -0.119788
0.205219 0.404061 -0.190661
0.184306 -0.313159 0.313782
0.065522 -0.398613 0.195167
-0.251301 0.445076 -0.029901
-0.106960 0.338736 -0.291768
-0.228800 0.205497 0.393055
0.180524 0.151634 -0.420959
0.007612 0.203697 -0.398326
-0.144266 0.363746 -0.259775
0.251653 -0.423305 0.134839
-0.103914 0.433890 -0.104285
0.091558 -0.424377 -0.135501
-0.271076 -0.426342 -0.128739
0.069185 -0.085770 0.434739
-0.287608 -0.389092 -0.218006
-0.161909 -0.297567 0.328563
0.018486 0.019227 -0.447024
0.253657 0.244670 0.370191
-0.097377 -0.337060 0.288153
-0.214760 0.177617 0.406297
-0.222900 0.115508 -0.432391
0.027835 0.117591 -0.431786
0.225800 0.315214 0.312751
0.093319 0.235033 0.376374
-0.142439 0.419764 0.147642
0.065507 -0.427268 -0.125552
-0.253850 -0.396395 0.199520
-0.251237 -0.379517 0.229843
-0.220571 -0.439363 0.066574
-0.027943 -0.239420 -0.377416
-0.012260 -0.408825 0.172931
0.027261 -0.258691 0.359966
-0.206156 0.368045 0.249096
0.223879 0.418382 -0.155834
-0.257132 -0.430120 -0.115736
0.109031 0.169791 0.409684
0.095402 -0.024924 -0.446812
0.279645 0.445450 -0.018017
-0.086791 0.307267 -0.325051
-0.128047 -0.415146 0.157622
-0.033365 -0.444674 0.005745
0.042108 -0.394489 0.203260
-0.149719 -0.433660 0.096378
-0.071621 -0.003984 -0.447470
0.157998 0.398646 -0.201466
-0.256418 0.013849 -0.447193
0.285807 -0.308230 0.318711
0.286874 0.261745 0.358587
0.042317 -0.242473 -0.375342
0.062111 0.440695 0.064638
0.230218 0.240375 0.373110
0.190814 0.408677 0.175642
0.197828 0.272497 -0.354657
-0.142787 0.036258 -0.445998
-0.233377 -0.421017 0.141317
-0.223225 0.005291 -0.447462
0.273054 0.421807 0.141968
0.098271 -0.439805 0.063784
0.080306 -0.003575 0.443130
-0.098335 -0.245412 -0.373344
-0.280516 0.445130 0.023820
-0.261049 -0.045694 -0.445009
-0.078652 -0.078981 0.435998
-0.088753 -0.133166 0.422610
0.043923 0.436966 0.086172
0.215792 0.240783 0.372833
0.184660 0.073457 0.437035
0.049786 0.343051 0.282520
-0.039989 0.279291 -0.349387
-0.150849 -0.055551 0.439709
0.111666 0.441105 -0.066399
0.264840 0.401766 0.190989
-0.231894 -0.034935 0.441672
-0.137621 0.440323 0.066985
0.107932 0.347895 0.276379
0.030598 0.410375 0.171717
-0.045746 0.442161 0.055378
-0.131966 -0.437784 0.076546
-0.052069 0.334554 0.292158
-0.186462 0.324531 -0.307787
-0.270302 0.443221 -0.049693
0.227241 0.160184 0.413528
0.243223 -0.444499 -0.015651
-0.113262 0.044281 -0.445239
0.266530 -0.125776 -0.429111
0.020232 -0.276845 -0.350489
0.055763 -0.272161 0.349770
0.224846 -0.187232 0.401693
0.129965 0.084384 0.435278
-0.211645 0.279657 -0.349103
0.091482 -0.290533 0.334764
-0.218139 -0.378677 0.231264
-0.045500 0.359053 -0.266348
0.271468 0.429828 0.115915
-0.090954 -0.237076 -0.378913
-0.126255 -0.131473 -0.427455
-0.223976 -0.086343 0.434611
0.111571 -0.408423 0.173862
-0.187013 -0.335081 -0.294751
-0.131396 -0.239786 -0.377168
0.187772 0.122386 -0.430393
0.214227 0.036219 0.441648
0.230839 -0.267853 0.353111
0.101256 -0.408869 0.172829
-0.167770 0.348031 0.276205
0.247329 -0.116374 0.427489
-0.115426 0.417951 -0.157031
0.146853 0.389971 -0.218254
-0.019262 0.210502 0.390505
-0.120887 0.073163 0.437081
0.127079 -0.440203 0.061273
-0.208754 0.427658 -0.127735
0.015297 0.045452 -0.445129
-0.147168 0.346239 -0.282868
0.013958 -0.082127 0.435499
-0.128306 0.401129 -0.196594
0.122046 -0.268605 0.352528
-0.118115 0.426822 0.126261
-0.013241 -0.443240 0.034299
0.244264 0.050137 -0.444686
0.075041 -0.418319 -0.153163
-0.269948 0.405588 -0.187134
0.027353 -0.441436 0.053375
0.142620 0.404085 -0.190606
-0.153167 0.409823 0.172993
-0.249321 -0.219576 0.384909
-0.066229 0.225545 0.381986
-0.050814 0.281145 -0.347949
-0.116368 0.445544 -0.015001
0.231675 -0.131384 0.423128
0.018765 -0.232635 -0.381540
-0.130806 -0.063973 -0.442728
0.089677 0.390345 0.213267
-0.254949 -0.417422 0.151302
-0.001355 -0.203740 0.393428
-0.255673 0.269868 0.352342
0.141471 0.199498 0.396112
0.160483 -0.245292 0.369072
0.155856 -0.294661 0.331126
-0.115748 -0.350460 0.271752
0.170357 -0.331228 0.294768
-0.178438 0.278371 -0.350101
-0.049757 -0.107790 -0.434170
0.103006 -0.233489 -0.381035
-0.232165 0.431104 0.111523
0.143202 -0.287320 -0.341951
-0.001655 0.132604 -0.427425
-0.289802 -0.271692 -0.354486
0.148164 -0.355028 -0.270216
-0.235497 -0.427041 0.121980
0.244769 -0.323560 0.303380
-0.125200 -0.444908 -0.001705
-0.226933 -0.416524 -0.158149
-0.036667 -0.334825 0.290689
0.275375 0.445783 0.003054
0.261487 -0.395673 -0.205289
-0.068928 -0.439563 -0.069670
0.037711 -0.102595 -0.435331
-0.084330 0.389186 0.215227
0.114132 0.042850 0.441021
0.007157 0.018479 -0.447047
0.022861 -0.285158 -0.343857
0.116483 -0.392288 -0.211933
-0.215661 0.425023 -0.136805
-0.131332 0.161565 -0.417384
-0.148468 0.331821 0.295258
0.142496 0.052619 0.440098
0.262868 -0.421366 -0.144700
0.272428 0.285785 -0.344207
-0.224694 -0.043958 0.440820
0.133445 -0.440643 -0.062846
-0.181171 -0.394810 0.202630
0.164462 -0.209978 -0.394603
0.153135 -0.403674 -0.189188
-0.128713 -0.325751 -0.305334
0.223587 -0.125776 0.424757
-0.082792 -0.049860 -0.444615
0.286958 0.311951 0.316014
-0.071735 0.247831 -0.372397
0.250584 0.325814 -0.306424
0.209052 0.197554 -0.401456
0.018572 0.371737 -0.248017
0.056846 0.444727 -0.033759
0.273026 0.337435 -0.293244
-0.223135 0.026859 -0.446784
-0.072973 -0.328406 -0.302323
-0.085225 -0.245298 -0.373422
0.079045 -0.429374 0.113949
-0.224558 0.274401 -0.353180
0.108528 -0.396693 -0.203288
-0.252397 -0.443916 0.027144
-0.064033 -0.369600 0.245300
-0.050070 0.341992 0.283721
-0.002652 -0.238999 0.373349
0.180326 -0.251642 -0.369110
0.090764 0.336604 0.289833
-0.225814 -0.222718 -0.387405
0.103304 -0.343805 -0.284685
0.020892 -0.225469 0.381424
0.185688 -0.015931 0.442742
-0.180904 0.445237 0.020435
-0.283979 0.175118 -0.411732
0.126523 0.198779 -0.400831
0.133297 -0.411362 0.167068
0.156321 0.387465 -0.222490
0.094688 -0.111762 0.428829
0.225129 -0.114339 0.428080
-0.045707 -0.201629 0.394504
-0.041133 -0.425486 -0.131686
0.212205 -0.075736 -0.440865
-0.048863 -0.131070 0.423219
0.179709 -0.405425 -0.185142
-0.095978 -0.443256 -0.038483
0.118707 -0.096183 0.432411
0.220083 0.064270 0.438490
0.178831 -0.339103 -0.290189
0.009466 0.348264 -0.280257
-0.014239 -0.296252 0.329722
-0.126122 -0.316756 0.310184
0.052722 -0.411580 0.166566
-0.198104 -0.441357 -0.058341
-0.015669 0.445279 0.019083
-0.221537 -0.065192 -0.442535
0.054474 -0.414005 -0.165145
-0.017235 -0.223087 -0.387186
0.275687 -0.441079 -0.060097
-0.234419 -0.173090 0.407812
0.209836 -0.066231 0.438017
-0.068436 -0.241361 0.371744
0.151468 -0.347304 0.275820
0.192115 0.316848 -0.315471
0.275420 -0.433383 0.097620
0.077824 0.257065 0.361768
-0.133211 -0.039530 0.441238
0.125417 -0.187143 -0.406084
-0.249502 -0.137668 -0.425619
-0.147751 0.445262 0.019632
-0.226288 -0.309946 -0.321347
0.042712 -0.435361 0.088770
-0.249678 -0.244563 -0.373921
-0.012098 -0.439870 0.063376
-0.130825 -0.435535 0.087990
0.161455 0.086027 -0.439264
0.165754 -0.253968 0.363176
0.061161 0.029140 -0.446671
-0.061745 0.212461 0.389507
0.049018 -0.442262 -0.048989
0.180329 0.165513 0.411535
0.090771 0.044283 0.440886
0.013320 -0.062176 0.438659
0.063072 -0.274978 -0.351937
0.037179 0.426770 0.126441
-0.238852 0.089177 0.434206
-0.163877 0.402893 -0.193131
0.248863 0.416461 -0.161169
0.260819 0.231852 -0.382608
-0.082076 -0.437342 0.079340
0.012807 0.413014 -0.169974
-0.026115 -0.398403 -0.199932
-0.010880 -0.259934 -0.363475
-0.289308 -0.406423 0.178482
0.145601 -0.442312 -0.048462
-0.052228 0.022277 0.442574
-0.269491 0.392209 0.209746
0.223972 0.392303 -0.213915
0.247277 0.065736 -0.442611
-0.045936 0.436416 0.088632
0.200863 0.381037 -0.233360
0.033823 0.362931 -0.260975
-0.120487 -0.218175 0.385738
-0.135671 0.414544 0.162083
-0.016726 0.274695 -0.352952
0.271542 0.433435 0.101969
0.080509 0.178347 0.405981
-0.025550 0.132058 -0.427583
0.248473 -0.390423 -0.215594
0.271538 0.135571 -0.426563
-0.094055 -0.430932 0.108581
-0.150887 -0.009133 -0.447309
0.177582 -0.081549 0.435591
-0.097343 -0.035335 0.441635
-0.142518 0.376669 0.236392
0.062676 -0.430249 0.110937
-0.043626 0.150906 0.416868
0.109334 0.420924 -0.148773
0.231165 0.144397 -0.423565
-0.235644 0.235200 0.376276
-0.021908 0.000609 0.443255
-0.158527 -0.112926 0.428490
0.214978 0.338015 0.288233
-0.229762 0.087105 -0.439023
0.170320 -0.140053 -0.424760
0.257477 -0.439269 -0.071525
-0.287931 0.369812 0.246496
-0.133217 -0.432738 0.100502
0.022635 0.258196 0.360999
-0.036098 -0.431675 0.105257
-0.089144 0.434002 -0.103787
0.113380 0.411330 -0.173865
0.153305 0.422249 -0.145093
-0.103039 0.023368 0.442540
-0.192015 0.331764 -0.299676
-0.034660 0.164711 0.411882
-0.058752 -0.067667 0.437790
0.110052 0.445838 0.001306
0.072916 0.445673 -0.010924
0.095670 -0.441088 -0.060041
-0.060771 -0.328298 0.298091
-0.103763 -0.184020 -0.407436
0.213039 -0.444732 -0.008232
0.283118 -0.287189 0.337713
0.286900 -0.437035 0.081278
-0.233117 0.013647 -0.447199
0.141064 0.419368 -0.153095
-0.085654 -0.086822 -0.438857
0.169100 -0.195272 0.397743
0.216713 -0.113898 -0.432561
-0.181455 0.087690 -0.438892
-0.084093 0.054698 0.439901
0.137914 -0.335057 0.290424
-0.022063 -0.353488 0.267848
-0.250881 -0.184158 0.403023
0.158352 0.287527 0.338319
-0.225596 -0.419964 -0.148593
-0.050347 -0.270050 0.351407
0.096591 0.344252 -0.285429
-0.181669 0.260713 -0.363642
0.191197 -0.283755 0.340740
-0.049145 -0.419826 0.144625
0.184471 -0.441606 0.051575
0.258986 0.346721 -0.282247
-0.288760 0.378838 0.232725
-0.233426 -0.264882 -0.359769
0.167911 0.125092 -0.429607
-0.076486 -0.434810 0.091235
0.039461 -0.329317 0.296935
0.133979 -0.316968 -0.314326
-0.068206 -0.127376 0.424292
0.190809 -0.072103 -0.441441
-0.266045 0.140818 -0.424854
-0.076381 -0.151465 0.416298
0.268141 0.168037 -0.414796
-0.115013 -0.019233 -0.446991
0.102507 -0.278705 0.344693
-0.189310 -0.163439 0.411987
0.205643 -0.190084 -0.404740
0.267845 0.080497 0.435920
-0.026567 -0.336033 0.289318
0.193099 0.066441 -0.442499
-0.131715 0.367060 0.250545
-0.271135 -0.380145 -0.233135
-0.153986 -0.394626 0.202991
0.152337 -0.433524 -0.101341
-0.052255 0.432566 0.105859
0.264556 -0.024942 -0.446812
-0.037563 0.020289 -0.446990
-0.232572 -0.333670 0.291998
0.082917 -0.436936 -0.086074
-0.113257 -0.415482 -0.161043
0.286308 0.121424 -0.430673
0.028189 0.411785 -0.172814
-0.120064 0.325960 -0.306259
-0.085507 -0.342194 -0.286683
-0.091617 -0.383497 -0.227467
0.272762 0.443274 0.044776
0.057336 0.439295 -0.077828
-0.015569 -0.220852 0.384154
-0.125544 0.441363 0.060418
-0.119113 0.085131 0.435111
-0.285466 -0.437071 0.081046
-0.175063 -0.432387 -0.106428
0.048392 -0.321819 0.305121
0.045962 -0.378784 0.231084
0.169615 0.173994 -0.412218
0.235753 0.385826 0.220908
0.242084 0.398760 -0.201243
-0.257043 -0.177111 0.406072
-0.236800 -0.036390 -0.445888
0.037804 0.329941 0.297390
-0.198872 0.369573 -0.251201
0.119388 -0.422713 0.136604
0.270510 -0.102274 0.431050
0.045784 -0.437404 0.078947
0.181738 -0.297165 0.328917
-0.152407 -0.342673 -0.286140
0.072837 0.224985 -0.386670
0.177646 0.100576 -0.436012
-0.062143 0.428601 0.120136
-0.089752 0.354426 0.267960
-0.250868 0.043674 -0.445297
0.183101 -0.250521 0.365519
0.017290 0.344316 0.280994
-0.160713 -0.438786 0.070219
0.168037 -0.120269 -0.430711
0.286356 0.172709 0.408421
-0.290204 0.125675 -0.429438
-0.180060 0.002047 -0.447564
0.259239 0.387360 -0.222667
0.285140 -0.416458 -0.158332
-0.183293 0.440430 -0.070663
0.198847 0.429093 -0.122797
-0.163512 0.440189 -0.072183
0.054561 0.436411 0.088657
0.115055 0.080482 -0.440276
-0.272973 -0.347556 0.275495
-0.065458 -0.430779 0.109113
0.055548 -0.367823 0.247915
0.044234 0.009130 0.442987
0.061188 -0.352267 0.269423
0.192963 0.445638 -0.012029
-0.107626 0.436553 -0.092375
0.213280 0.280002 -0.348835
0.001359 0.374685 -0.243678
-0.221513 0.435190 -0.098473
-0.044636 -0.234039 -0.380709
-0.087741 -0.270639 -0.355303
-0.022023 0.283606 0.341687
0.210123 -0.434595 -0.096550
-0.143633 0.431306 0.110827
0.142103 -0.214919 -0.392017
0.113732 0.341237 0.284578
-0.073585 -0.347407 -0.280041
-0.113743 0.310577 0.317388
-0.001587 0.367580 0.249780
-0.117628 -0.423511 -0.138484
-0.111547 0.444127 0.035750
-0.014932 -0.154662 0.415147
-0.202840 0.119624 0.426842
0.269780 0.091292 -0.438087
0.075198 0.414615 -0.166273
0.250477 -0.433369 -0.102034
0.193834 0.421924 0.141644
-0.095307 -0.255268 -0.366646
0.065608 -0.444793 -0.006295
0.074348 -0.433848 -0.099890
0.067118 0.329274 -0.302500
0.113114 0.219471 -0.389931
-0.255305 -0.058267 0.439279
-0.276355 -0.368521 -0.251241
0.261388 0.378153 -0.238237
0.207944 -0.419730 0.144890
-0.070145 0.058561 0.439394
0.258656 -0.433278 0.098088
0.284094 -0.200410 0.395125
0.128601 0.216654 0.387243
-0.080986 0.401077 -0.196696
-0.062829 0.064888 -0.442745
-0.070995 -0.440992 0.056292
0.071454 0.129375 -0.428363
-0.147131 -0.440447 0.059733
-0.133590 0.087809 -0.438866
-0.241248 0.354272 -0.272512
-0.010718 0.192695 -0.403932
0.011293 -0.431437 0.106323
0.104194 0.393905 0.206418
-0.017875 -0.380044 0.228952
0.034303 -0.286335 0.338466
0.190122 0.094840 -0.437294
0.178813 -0.202245 0.394190
-0.122568 0.445128 -0.028249
0.008169 -0.417404 -0.155706
-0.004639 -0.407178 -0.181091
0.273638 -0.221362 -0.388207
-0.079218 -0.425090 0.128695
-0.067025 0.345540 0.279416
0.245957 0.202165 -0.399106
-0.231491 0.342133 -0.287915
0.165628 0.353492 0.269164
0.097794 0.443376 -0.048054
-0.214064 -0.185358 0.402504
-0.159682 -0.259449 0.359451
-0.268525 -0.096529 -0.436687
0.157685 -0.118295 -0.431284
0.027440 0.403424 -0.192088
-0.063345 0.306322 0.321643
0.052471 -0.434555 0.092374
-0.226191 -0.371320 0.242770
0.276662 -0.334665 0.290870
-0.289349 -0.429323 0.114124
-0.129863 -0.080700 0.435725
-0.169278 -0.193284 0.398756
-0.254596 0.385257 -0.226225
-0.002322 -0.353387 0.267978
0.047045 0.184799 -0.407542
-0.246523 -0.420297 0.143315
0.203609 -0.336037 -0.293666
-0.129935 0.165539 0.411523
0.073469 -0.211756 0.389344
0.147146 0.400268 0.193929
0.071957 0.403887 -0.191065
0.142051 0.445405 -0.019442
0.111772 -0.126612 0.424514
-0.130733 0.294757 0.331945
-0.215384 0.332344 -0.299018
0.106555 -0.030316 -0.446463
-0.260910 -0.400575 0.191316
0.057277 0.434029 0.099314
0.012012 0.423997 0.135885
0.184134 -0.434213 0.093904
0.078072 -0.187730 -0.405831
-0.276454 -0.078695 0.436043
-0.035420 0.445320 -0.022128
-0.176708 0.192269 -0.404149
0.134528 -0.366056 0.250514
-0.125256 -0.411213 -0.171767
-0.173491 -0.335994 -0.293715
-0.266124 -0.141905 -0.424093
0.242911 -0.277486 0.345639
0.266858 -0.444569 -0.013437
-0.205510 -0.414317 -0.164278
0.118964 0.331221 0.295939
-0.276233 0.096111 0.432657
0.224564 0.044456 0.440869
-0.072746 -0.127437 -0.428628
0.055730 0.057822 -0.443865
0.161008 0.440976 -0.067216
0.043051 -0.424138 -0.136325
0.152886 0.224934 -0.386700
-0.137852 -0.169944 0.409174
-0.042238 -0.254662 0.362704
0.220643 -0.444380 0.015086
-0.144373 0.325452 0.302482
-0.173844 -0.411912 -0.170151
0.160795 0.380561 -0.234165
-0.090992 -0.362565 0.255652
-0.219725 0.056937 -0.444005
-0.132820 0.375250 0.238494
-0.187728 -0.428719 0.116202
-0.231733 -0.404789 -0.186611
0.021454 0.145445 -0.423188
-0.152561 0.298243 0.328871
0.260334 -0.437260 0.079857
-0.244273 0.083650 -0.439774
0.004185 0.097279 -0.436749
-0.065037 0.078273 -0.440626
-0.014142 0.155601 -0.419531
0.005537 -0.373524 -0.243880
-0.220909 0.273559 0.349480
0.187150 0.220491 -0.389327
-0.007036 -0.037273 0.441451
-0.031900 0.021143 0.442610
0.026272 -0.268153 0.352878
-0.016487 -0.302229 -0.328807
-0.058977 -0.426238 0.124744
0.250253 0.376221 0.237065
-0.208217 0.433890 -0.104290
-0.062889 0.420762 -0.149225
-0.224664 0.011651 0.442908
0.027151 0.445844 -0.005457
0.156660 -0.352614 0.268975
0.171872 0.092291 -0.437864
0.045169 0.362814 0.256794
0.137529 0.133184 0.422903
-0.128124 0.418480 -0.155562
0.014163 0.395117 -0.208392
0.195291 -0.191416 -0.404061
-0.020299 0.417709 0.153352
0.154137 0.439748 -0.074972
0.002310 0.443576 -0.045936
0.028266 0.405801 0.182287
-0.052436 -0.389227 0.213426
-0.119532 -0.436064 -0.089977
-0.147805 0.376987 -0.240207
0.015865 -0.039288 -0.445614
-0.136918 0.131948 -0.427615
-0.105646 0.421622 -0.146834
-0.245385 -0.442766 -0.043665
0.266925 0.438336 0.079530
-0.141099 0.254020 -0.368190
-0.043265 -0.314031 -0.317263
-0.083323 -0.444381 -0.019425
-0.069203 0.025065 -0.446840
-0.235633 -0.198089 0.396308
0.270779 -0.318675 0.308265
-0.152685 -0.225475 0.381420
0.065840 -0.225254 0.381551
0.008685 0.394936 0.204394
-0.289474 0.162290 -0.417123
0.286849 0.445280 0.019061
0.252958 -0.221679 -0.388019
0.154435 0.016704 -0.447103
0.085090 0.298980 -0.332575
-0.254429 0.408865 -0.179560
0.057096 -0.442749 -0.043839
-0.002969 -0.444509 -0.015345
0.111605 -0.421858 -0.143334
0.261134 0.348880 0.275109
-0.072148 0.440357 -0.071124
-0.043205 0.438471 0.078682
-0.210546 0.436337 0.088988
-0.278148 -0.362464 0.255801
-0.155851 -0.192691 -0.403411
0.059505 0.314090 0.313875
-0.135327 0.084619 0.435225
-0.152275 -0.018374 0.442665
0.106012 0.438903 0.075950
-0.206613 -0.398874 0.194654
0.111063 -0.373031 0.240251
-0.259285 -0.443188 0.034845
0.236908 0.439007 0.075294
0.046499 -0.175631 -0.411066
-0.018951 0.259079 -0.364752
0.236379 0.308616 0.319349
0.115428 0.253137 0.364437
0.197423 0.425290 0.131532
0.278706 -0.120576 -0.430621
-0.152928 0.396160 -0.206346
-0.103796 -0.170664 -0.413215
0.030725 0.101747 0.431397
-0.278242 0.323409 0.304556
-0.215743 0.160449 -0.417786
-0.057482 -0.385439 -0.224184
-0.162728 -0.322515 0.304425
0.134505 -0.010996 -0.447250
0.258877 0.300764 0.326648
-0.042326 0.138741 0.421248
-0.030071 0.381412 0.228372
-0.071590 0.268660 0.353280
-0.095252 0.326823 0.300927
-0.081447 0.084835 -0.439531
0.148119 0.273572 0.349469
0.251555 0.094370 0.433046
0.070776 0.364894 -0.258086
-0.167649 0.117033 -0.431948
0.221961 0.309326 -0.322992
-0.210616 0.299477 0.327783
-0.226068 0.401073 -0.196704
0.079532 0.339140 0.286956
-0.061667 0.392790 -0.212959
-0.134950 -0.441513 -0.056919
0.221617 0.442874 -0.053365
-0.223754 0.414185 -0.167267
0.276604 0.365401 0.252987
0.258477 -0.145376 -0.422843
0.245387 -0.176833 0.406193
0.120888 -0.160371 -0.417445
-0.003128 0.223544 0.383169
0.251754 0.296611 -0.334663
-0.289106 -0.317280 0.309660
0.135732 0.445862 0.000526
-0.221705 -0.151243 -0.420731
0.077208 0.027066 -0.446777
0.232558 -0.385538 -0.224016
-0.133093 -0.333006 -0.297104
0.156978 -0.310140 -0.321154
0.003386 -0.403060 -0.190608
0.164404 -0.235920 0.375243
0.183243 -0.436356 -0.088670
-0.034222 -0.154623 -0.419514
0.140484 0.295337 -0.335786
-0.013615 -0.418004 0.149685
0.019469 0.243600 -0.375272
-0.231754 0.332828 -0.298470
0.156232 -0.366028 0.250556
0.159452 0.241809 0.372136
0.261313 -0.352113 0.269621
-0.175341 0.392172 -0.214172
-0.009143 0.082099 0.435666
-0.084831 0.325101 -0.307218
0.129099 -0.033454 -0.446166
-0.191461 0.384212 0.223637
-0.260436 -0.263755 0.356290
0.213127 -0.376556 -0.239203
0.104856 -0.115095 0.427860
0.033245 -0.220988 -0.388428
0.209169 -0.396838 0.198649
-0.067723 0.162532 0.412683
0.100413 -0.206082 0.392235
0.264484 -0.360550 0.258617
-0.071739 0.367813 -0.253791
0.106813 0.181582 0.404581
0.018748 0.209715 -0.395259
-0.284825 0.290584 0.335623
0.107437 0.439408 -0.077115
-0.263203 0.370789 0.245059
0.171899 -0.403901 0.184311
0.269079 -0.138526 0.420956
0.039547 0.429301 -0.122082
0.038514 -0.443871 0.027623
-0.265275 -0.034182 -0.446097
0.186661 0.054058 -0.444315
0.057775 -0.420784 0.141962
0.120859 0.440143 0.068126
0.079653 0.384464 0.223212
-0.168227 -0.162565 0.412302
0.066341 0.435773 0.091508
0.168377 -0.434494 -0.097003
-0.168413 -0.342421 -0.286426
-0.093738 -0.064257 -0.442683
0.069464 0.287098 0.338696
-0.131366 -0.434481 -0.097058
-0.001114 0.445337 -0.021588
-0.241188 0.117999 -0.431668
-0.058832 0.364096 -0.259260
0.005801 -0.420900 -0.145995
0.088842 0.063309 0.438642
0.156221 0.434592 -0.101145
0.162816 0.238277 -0.378809
-0.209546 -0.141111 -0.424379
0.081026 -0.422074 0.138380
-0.219343 0.434037 0.099277
-0.175402 0.197687 0.397035
0.263085 0.160167 0.413534
0.243556 -0.384980 -0.224960
-0.166085 0.428757 0.119600
0.039579 -0.433264 0.098149
-0.176814 -0.237910 0.374067
-0.088088 -0.072803 -0.441330
0.066481 0.172493 -0.412868
0.129142 -0.402800 0.186855
0.179171 0.306230 -0.326088
-0.087893 -0.377268 -0.237999
0.007548 0.272574 -0.354597
-0.037358 -0.444844 -0.004690
0.079588 -0.353005 -0.272824
0.030076 0.407490 -0.182739
0.214550 -0.409178 0.172116
0.124114 0.424002 -0.140224
0.283867 0.391301 0.211528
-0.090136 0.392176 -0.214164
0.263248 -0.222288 -0.387659
0.088163 -0.410499 0.169063
-0.139419 0.204873 0.393373
0.039808 0.236276 -0.379992
0.229034 -0.117979 -0.431376
0.209887 -0.430325 0.110677
-0.235617 0.381992 -0.231745
0.142013 0.061491 -0.443283
-0.249933 0.088918 0.434264
-0.096733 0.207842 -0.396214
0.159166 0.424688 0.133607
0.227404 0.445693 0.005918
0.032265 0.445500 0.012065
-0.268197 0.400714 -0.197407
-0.128222 -0.106726 -0.434408
0.104796 0.323997 -0.308321
0.000096 0.288715 -0.341624
0.139246 0.440700 -0.068962
0.076169 -0.441281 0.054466
0.246994 0.353913 -0.272974
0.253341 0.260346 0.359538
-0.110170 -0.322462 0.304478
-0.025899 -0.188486 -0.405503
0.210164 0.012480 0.442882
-0.226367 -0.364854 -0.256637
-0.143905 0.014490 0.442819
0.253584 -0.391641 0.208849
0.250377 0.284431 0.341046
-0.086282 -0.378995 0.230727
-0.139698 0.419136 -0.153740
-0.131453 -0.122900 0.425593
-0.157463 0.255558 0.362792
-0.019635 0.320351 0.307614
0.227264 -0.223328 -0.387044
-0.288753 -0.440451 0.059710
0.066718 0.445553 0.010387
0.165905 -0.131542 0.423082
-0.154892 0.391641 -0.215214
0.084259 -0.439340 0.066723
-0.232787 -0.417226 0.151845
-0.289671 -0.224096 0.382236
0.184633 0.233727 0.377146
-0.289350 -0.440140 -0.066027
0.140707 0.441890 0.057094
-0.139073 -0.409982 0.170258
-0.170323 -0.353942 -0.271616
0.243884 -0.405227 -0.185600
-0.058972 0.201171 0.395259
0.146927 -0.394172 -0.208236
-0.067137 -0.395316 0.201637
-0.238976 -0.137338 0.421384
0.037073 -0.319534 0.307407
0.001759 0.343964 0.281447
0.255719 0.431583 0.109875
0.092701 -0.081416 -0.439966
0.189812 -0.319413 0.307527
0.139688 -0.437627 -0.081894
-0.286785 -0.372407 -0.245523
-0.187083 -0.092571 0.433219
0.041005 0.394464 -0.209674
-0.276139 0.308610 -0.323709
-0.051862 -0.380628 -0.232318
-0.045623 -0.196909 -0.401262
0.257121 0.148422 -0.422116
0.027442 0.202123 0.394774
0.011264 0.423449 -0.141761
-0.148052 -0.403844 -0.188795
-0.267739 0.345712 0.279194
0.276926 -0.436157 0.085207
0.236784 0.401221 0.192059
-0.164099 0.020535 0.442629
-0.083793 0.162862 -0.416917
0.044107 0.356380 0.265441
0.050378 0.331399 0.295737
0.068447 -0.423936 -0.137021
0.053983 -0.191810 -0.403860
0.188248 0.107772 -0.434403
-0.276165 -0.145555 0.418426
0.244633 0.337939 0.288319
0.055957 0.160196 -0.417877
-0.211193 -0.442579 0.041287
0.111771 0.353675 -0.273281
-0.106420 -0.373298 0.239858
0.004825 -0.258619 0.360015
-0.073321 0.232800 0.377695
-0.186153 0.161976 0.412883
0.045417 0.421237 0.143550
-0.114553 0.416102 0.157813
-0.097322 -0.089137 -0.438340
-0.239531 0.273747 -0.353687
-0.205392 0.211137 -0.394535
-0.146994 0.065001 -0.442728
-0.201501 0.061496 0.438929
0.016497 0.311140 0.316825
-0.141576 -0.235849 -0.379639
0.103472 0.423196 0.138111
0.138664 -0.419199 -0.150719
0.117031 -0.069926 0.437432
-0.043558 0.033607 -0.446248
-0.093510 0.318224 0.309741
-0.099062 0.267899 -0.358223
0.219261 0.431350 -0.115030
-0.128150 0.144519 -0.423521
0.252517 0.445358 0.016568
0.278450 -0.444774 -0.006902
-0.054410 -0.370657 0.243744
-0.117474 -0.230577 0.378403
0.145768 0.218758 -0.390353
0.169464 0.274296 0.348908
0.181867 0.445758 0.003860
-0.114996 -0.434150 -0.098539
0.239441 0.379037 -0.236741
0.226504 0.106514 0.430331
0.084653 -0.003100 -0.447498
0.144699 0.135822 -0.426490
0.183657 0.433666 -0.105288
0.212095 0.317971 0.309994
-0.169429 0.263533 0.357257
-0.106345 -0.401951 0.188616
0.009561 -0.320036 -0.311258
0.101785 -0.054402 -0.444186
-0.152690 -0.381811 0.225965
-0.019151 -0.374084 0.238702
-0.056908 0.388343 0.216652
0.007048 -0.426716 -0.127451
0.283422 -0.268453 0.352645
-0.205686 0.108876 0.429803
-0.171829 0.385883 0.220813
0.279525 0.440092 -0.072800
0.278949 -0.146764 0.417990
0.080183 -0.287310 0.337607
-0.050973 0.434210 -0.102857
-0.270525 0.437468 0.083928
0.151316 0.081485 -0.440117
-0.108028 0.149452 -0.421745
0.249965 0.309813 -0.322505
-0.180573 -0.443730 0.029113
0.138374 -0.429901 -0.116490
-0.072151 -0.417946 -0.154199
0.016700 -0.188625 0.401090
0.071867 -0.237515 -0.378654
-0.068340 0.431290 -0.115234
-0.007581 -0.003849 0.443121
0.141457 0.395571 0.203148
-0.192847 0.392302 -0.213917
-0.108970 -0.354988 0.265915
-0.174213 0.126903 -0.429081
-0.110975 -0.410655 -0.173057
-0.246504 0.303266 0.324443
0.052818 -0.340540 -0.288559
0.266367 -0.361709 -0.261264
-0.262706 -0.444895 -0.001296
0.002337 0.232987 0.377584
0.025955 0.044834 0.440834
0.023572 0.377049 -0.240103
-0.222626 0.067514 0.437976
-0.123606 0.301370 0.326114
0.262693 0.071925 0.437278
0.259266 -0.131946 0.422965
0.027112 -0.154865 -0.419427
0.197117 -0.302131 -0.328893
0.039686 -0.412576 0.164263
-0.016240 -0.053601 -0.444261
-0.139510 0.041120 0.441185
-0.259759 -0.381949 -0.230084
-0.288080 -0.259709 -0.363628
-0.042350 0.359453 0.261479
0.264372 0.323560 0.304405
0.022020 -0.408275 0.174203
-0.214552 -0.373474 0.239600
0.274368 -0.150530 -0.420988
0.250467 0.044780 0.440839
0.057169 0.063204 0.438659
0.098188 0.128168 0.424360
0.162381 0.095245 0.432850
0.198356 0.440930 -0.067504
-0.217101 -0.236536 0.374879
-0.092553 0.393916 0.206397
0.284415 -0.411564 -0.170956
-0.030306 0.141640 -0.424558
-0.205743 -0.297876 0.328291
0.207792 0.438120 -0.085250
0.230118 -0.298822 -0.331810
-0.288548 -0.283076 -0.345656
0.017260 0.379893 0.230941
0.185538 -0.001806 -0.447539
-0.146827 -0.361406 0.257357
0.012218 -0.048552 0.440385
0.011722 0.161821 -0.417292
-0.080159 -0.372227 -0.245788
0.096022 0.434138 -0.103179
0.071167 0.422241 0.140762
0.221463 -0.438082 -0.079020
0.090939 -0.048756 -0.444719
0.244551 -0.015325 0.442761
0.210310 0.172113 0.408679
0.248801 -0.429606 -0.117504
0.244268 -0.319778 -0.311515
0.165254 0.412174 -0.171915
-0.271938 0.433416 0.102054
-0.174410 0.435663 -0.096355
0.282056 -0.259003 0.359754
0.138382 -0.444733 -0.008196
-0.002195 -0.355611 -0.269465
-0.285023 -0.027957 0.442332
-0.038591 0.434867 -0.099917
0.099039 -0.362638 -0.259897
0.180026 -0.285641 -0.343431
-0.170166 0.335304 -0.295660
-0.088121 -0.436743 -0.086940
0.176198 -0.425007 -0.133334
-0.282901 -0.064042 -0.442717
-0.083446 0.259303 0.360247
-0.043628 -0.277694 -0.349830
0.174672 -0.231329 -0.382312
0.222856 0.088616 -0.438685
0.218859 0.445336 -0.021632
-0.123723 0.240529 -0.377359
0.022517 -0.284699 0.339908
-0.140280 0.249009 0.367243
-0.087980 -0.024753 0.442464
0.087053 -0.379149 -0.234820
0.053697 -0.010336 0.442917
-0.008814 0.424945 -0.137076
-0.026792 0.024627 -0.446854
-0.101186 -0.419967 0.144233
0.052593 -0.442151 0.045819
-0.098522 -0.368033 -0.251960
0.094752 -0.416435 -0.158395
-0.141479 0.445945 -0.002260
0.086794 0.344546 0.280697
-0.290205 0.407179 0.179104
-0.146687 0.436839 0.086742
0.208155 -0.392133 0.207884
0.072703 -0.038341 -0.445704
0.192196 0.353761 0.268817
0.268215 0.443704 -0.044577
0.048058 0.423151 -0.142589
0.283230 -0.369224 0.245853
0.233634 0.252293 0.365011
0.202547 -0.427629 -0.124309
-0.248634 -0.033404 -0.446171
-0.224360 -0.214654 0.387820
0.253335 -0.002606 0.443160
0.021616 0.221680 -0.388625
0.132112 0.091318 -0.438081
0.114300 -0.414000 0.160807
0.106720 -0.418857 -0.151668
0.015923 0.445008 0.026433
-0.202133 0.007582 -0.447390
-0.196486 0.415989 0.158129
0.084949 -0.409946 -0.174695
0.111033 -0.251365 -0.369299
0.007157 0.293605 0.332960
-0.140525 -0.349110 -0.277845
0.283707 0.282242 -0.347098
-0.253115 0.336979 -0.293761
0.237210 0.066260 0.438175
-0.221525 0.445611 0.008512
-0.005545 0.099709 -0.436206
0.116221 0.381033 0.229013
-0.289208 0.122392 0.426038
0.269070 0.101912 -0.435713
-0.275788 -0.284476 -0.344458
0.049503 -0.443265 0.034027
0.258076 -0.289795 0.335415
0.183814 0.344261 0.281065
0.219722 0.299256 -0.332331
-0.040133 0.004190 -0.447496
-0.262025 -0.303282 -0.327878
-0.251309 -0.373596 0.239420
-0.170865 0.069955 -0.441943
-0.181042 0.314413 -0.317905
-0.211266 -0.402976 0.186448
-0.272573 -0.116762 -0.431729
-0.251347 0.070726 -0.441821
0.262928 0.416021 -0.162392
-0.169318 0.350610 -0.277233
0.022189 -0.242753 0.370798
-0.160462 -0.423827 0.133041
0.070920 0.182494 0.404186
0.081746 0.315924 0.312041
-0.092400 -0.383574 0.222983
0.198038 -0.373997 -0.243183
0.162517 0.297552 0.329480
-0.023277 -0.328910 -0.301750
0.099165 0.350519 -0.277350
0.102888 0.408798 0.175362
-0.162708 -0.042337 0.440973
-0.009892 0.385806 0.220942
-0.201156 0.145524 -0.423159
-0.224879 -0.106824 0.430033
-0.213558 0.377850 -0.238748
-0.273583 -0.438148 0.074246
-0.171836 -0.067070 -0.442238
-0.082444 -0.039485 -0.445596
-0.222774 0.099524 0.431894
0.088956 0.445782 -0.007431
0.122092 0.398296 0.197800
0.070788 -0.391744 -0.213001
0.184943 -0.079624 -0.440249
0.091008 -0.385861 0.219117
0.211643 -0.207458 0.391534
-0.175160 0.377829 -0.238785
-0.082338 -0.218651 0.385457
-0.005359 0.430188 0.114675
0.146578 -0.416186 -0.159087
0.235824 0.163942 -0.416528
0.245586 0.443299 0.044512
-0.168873 -0.393213 -0.210118
0.134518 0.159305 0.413844
0.116273 -0.378312 -0.236234
0.036098 -0.141445 -0.424259
-0.222937 -0.434255 0.093719
0.186152 0.244746 0.370140
-0.210358 -0.078733 0.436037
-0.184518 -0.343641 -0.284896
-0.052245 -0.099719 0.431621
0.093751 0.378328 0.233587
-0.169528 -0.222405 -0.387589
0.128180 0.328436 0.299098
-0.050859 0.439678 0.071055
0.176733 0.267435 0.354230
0.186556 0.272135 -0.354937
0.048500 -0.395858 -0.204927
0.008579 -0.444407 -0.018582
0.015793 -0.377496 -0.237615
-0.020494 -0.151329 -0.420700
0.266819 -0.023498 0.442504
0.042454 0.215868 -0.392062
0.169544 -0.363340 0.254511
-0.117630 -0.440550 0.059079
-0.216699 -0.351175 0.270830
-0.174486 -0.397909 -0.200901
0.089168 0.033574 0.441898
-0.102012 0.317446 -0.314872
-0.112718 -0.260188 -0.363302
0.156427 0.208391 -0.395934
0.011987 0.241024 0.372669
0.194977 -0.424082 -0.136516
-0.262562 0.182073 -0.408722
-0.103542 -0.332135 -0.298093
0.254013 -0.244945 -0.373661
-0.138734 -0.073920 -0.441153
-0.062477 -0.108741 0.429604
0.043413 0.162832 -0.416928
0.022598 -0.381086 -0.231545
0.219051 0.407132 0.179213
-0.128650 -0.409389 0.171629
0.153144 0.063821 -0.442914
0.048699 -0.443482 -0.036089
-0.188682 -0.293892 -0.336157
-0.169245 0.254553 0.363475
0.232217 -0.005160 -0.447434
0.102400 0.444974 -0.031149
0.254560 -0.444548 -0.014096
0.137023 0.117914 0.427339
-0.278469 -0.444150 0.022423
-0.178926 0.444149 -0.039871
0.182821 0.443566 0.041690
0.029690 -0.344591 -0.283671
-0.136888 0.156853 0.414727
-0.074149 -0.343713 0.280450
-0.241060 -0.392816 0.206544
-0.240965 -0.249334 -0.370678
0.014858 -0.312613 0.314327
-0.043066 -0.442572 -0.045719
0.180475 -0.443136 -0.039749
0.217959 -0.193520 -0.402989
0.249105 -0.223017 0.382875
-0.265382 0.382792 -0.230391
-0.024432 -0.374844 -0.241937
-0.058224 0.342417 -0.287592
0.165526 0.445491 -0.016706
0.066972 -0.086542 -0.438920
-0.132401 0.369138 -0.251841
-0.129607 0.430980 0.111948
0.068166 -0.299444 0.326909
0.189741 -0.382960 0.224021
-0.029970 0.407665 0.177980
0.003518 0.399247 0.195932
-0.205596 -0.063939 -0.442734
-0.081408 0.364567 -0.258566
0.145388 0.333409 -0.297810
-0.270012 -0.355571 -0.269516
0.039526 0.108653 -0.434206
0.044345 0.362458 -0.261670
-0.254049 -0.280053 -0.348001
-0.289327 0.444663 0.030078
-0.056173 -0.204109 0.393240
0.219557 -0.382301 0.225137
0.007068 0.415582 0.159259
-0.029298 -0.347979 0.274950
0.164646 -0.000539 0.443225
-0.128169 -0.384854 -0.225172
-0.022256 0.328302 0.299249
0.017069 0.035247 0.441740
0.255009 0.388166 0.216952
-0.191060 -0.317334 -0.313960
0.233647 0.442318 -0.058743
-0.174998 -0.444356 0.015863
-0.184114 -0.176103 -0.410862
0.085235 -0.165099 -0.415624
-0.214648 0.356476 -0.269670
-0.192050 0.414114 -0.167432
0.162634 -0.443607 0.030416
-0.052959 0.438034 0.081396
-0.186368 0.340518 0.285394
-0.180595 0.401557 -0.195753
-0.099585 -0.137763 0.421231
-0.063550 0.148277 0.417815
-0.164956 -0.444493 0.011501
0.105363 -0.437643 -0.081788
-0.114720 -0.078303 -0.440459
-0.243633 0.066771 0.438094
-0.255942 0.292004 -0.338725
-0.097321 0.178419 0.405950
0.108895 -0.144417 0.418835
-0.097004 0.094522 0.433012
-0.255401 0.426466 0.127485
-0.099315 -0.174163 0.407348
0.121598 0.191921 0.399972
-0.145290 -0.135431 -0.426306
-0.182629 0.318956 0.309009
-0.189454 -0.007911 -0.447347
-0.184210 -0.411602 -0.170869
0.177496 -0.223085 0.382834
-0.116968 0.430045 0.115168
-0.020498 -0.441617 -0.055815
-0.127156 0.423720 0.136654
-0.136596 0.005957 -0.447441
-0.100351 -0.367286 0.248705
-0.006572 -0.132692 0.422748
0.140773 0.340722 -0.289515
0.082747 -0.390364 -0.215710
0.020366 -0.096046 -0.436796
0.239705 0.322373 -0.309945
-0.273408 0.372862 0.242008
-0.151416 -0.398025 -0.200673
-0.174153 0.339256 0.286825
0.136544 0.105527 -0.434905
0.107670 0.391758 -0.214984
-0.199787 -0.442353 -0.048029
0.010482 -0.220950 0.384097
-0.014789 -0.288821 -0.340628
-0.171702 -0.110893 -0.433435
-0.212256 -0.444791 -0.006379
-0.172463 0.306729 0.321236
-0.041651 0.398108 -0.202522
-0.058345 -0.442804 0.038907
-0.026771 0.000685 -0.447606
0.153313 0.053471 -0.444371
-0.172622 -0.132088 -0.427277
-0.013484 0.306608 0.321357
0.285096 -0.267253 -0.357930
-0.075462 0.112942 -0.433137
0.025021 0.430765 0.112688
0.078577 0.332315 0.294698
0.129785 -0.122223 -0.430143
0.061526 0.206130 0.392732
0.197034 0.046285 0.440697
0.065705 -0.261315 0.358182
-0.147199 -0.109896 0.429346
-0.093130 -0.424790 -0.134081
-0.045245 -0.407290 -0.180832
0.087054 0.023514 -0.446889
-0.026911 -0.391460 0.209206
-0.050169 0.012552 -0.447233
0.089951 0.440309 0.067073
0.074915 0.178261 -0.410372
0.048563 -0.053637 0.439905
-0.127149 -0.056087 0.439624
-0.228815 0.280387 0.344183
-0.155459 0.420817 0.144719
0.174247 0.420143 0.146590
-0.288883 -0.383586 -0.227318
-0.156832 -0.405731 0.180081
-0.289163 -0.444229 -0.024258
0.195247 -0.326195 0.300477
0.137472 -0.244904 -0.373689
0.233869 -0.322649 -0.308645
0.137352 -0.372923 -0.244763
0.138229 0.219768 0.385402
-0.078655 -0.111152 0.429006
0.234701 -0.237203 -0.378838
0.106212 0.206661 -0.396815
0.190769 0.168951 -0.414400
-0.128354 -0.226237 0.380970
-0.279877 0.159762 0.413680
-0.235292 -0.113020 0.428463
0.204373 0.434131 0.098858
-0.068485 -0.400781 0.190911
-0.096953 -0.426647 0.123334
0.270641 0.180734 -0.409301
-0.074501 -0.443167 -0.039415
-0.034464 -0.406269 -0.183192
0.116896 -0.365038 -0.256366
-0.146091 0.423270 0.137905
0.033852 0.036516 0.441620
0.000626 0.442143 0.055498
0.025359 -0.248083 -0.371529
0.174630 -0.318294 -0.313000
0.015270 0.127954 0.424422
-0.156203 -0.057148 -0.443809
0.080231 0.038702 -0.445767
-0.229931 0.426072 -0.133195
0.236391 0.347097 -0.281762
-0.283941 0.314393 -0.317926
-0.018181 0.295110 -0.335986
-0.090008 0.316753 -0.315565
0.176823 -0.362739 -0.259749
0.284879 0.420102 0.146704
-0.200211 -0.444542 -0.014278
-0.220705 -0.134477 -0.426583
-0.152705 -0.443431 -0.036632
0.124309 -0.381531 -0.230792
-0.097715 -0.123384 0.425452
-0.133826 -0.346533 0.276814
0.025173 0.298663 -0.332854
-0.174328 -0.247383 0.367651
0.096214 0.437149 -0.089709
-0.256822 -0.223536 -0.386920
-0.277778 0.207170 -0.396556
0.280194 0.305552 0.322413
0.126782 -0.444707 -0.009044
-0.234059 0.303323 0.324392
-0.213070 -0.405835 -0.184196
-0.143220 0.275361 -0.352435
0.062021 0.137675 0.421598
-0.156916 0.369648 0.246737
0.246945 0.392277 -0.213967
-0.195872 -0.379263 0.230273
0.169338 -0.097616 0.432091
-0.101600 -0.386956 -0.221618
0.201307 0.443649 -0.045161
-0.012195 -0.436762 0.082501
-0.224564 -0.444835 -0.004972
-0.042473 0.442731 -0.054878
-0.134775 -0.089398 0.433928
0.136361 0.278173 0.345901
-0.152718 -0.370792 0.243546
0.201324 -0.444806 -0.005891
0.094694 -0.426848 0.122644
0.269135 0.373961 -0.244744
-0.280863 -0.266045 -0.358867
0.188076 -0.223672 0.382487
-0.083052 0.247106 0.368535
0.038339 0.211469 0.390012
0.031318 -0.203985 0.393303
-0.111683 0.028936 0.442336
0.256918 -0.261235 -0.362590
0.263102 0.426783 0.126394
0.190526 0.093379 0.433267
-0.135350 0.445301 0.018385
0.167666 -0.066724 -0.442292
0.246806 0.004465 0.443134
-0.123491 0.173919 -0.412251
0.217258 -0.096640 0.432309
-0.189392 0.397561 0.199242
0.281226 0.375730 0.237788
-0.076813 -0.259708 0.359275
-0.172770 0.082169 0.435655
-0.247994 -0.444632 0.007057
-0.271547 0.435200 -0.098429
0.193213 -0.146206 -0.422545
-0.010996 -0.170810 -0.413152
-0.248589 0.321338 -0.310981
0.228868 -0.433577 -0.101105
-0.109153 0.327538 -0.304470
0.260645 0.314340 0.313625
0.058983 0.135740 -0.426514
0.213361 -0.436854 -0.086442
-0.265435 0.215490 0.387932
0.204012 0.321606 -0.310713
0.249563 -0.125306 -0.429247
0.053776 -0.246491 -0.372611
-0.055554 -0.357778 -0.266671
0.286864 -0.441652 -0.055444
-0.228502 0.377250 0.235409
0.278693 -0.056111 0.439620
0.138964 0.193234 -0.403657
-0.177584 -0.135852 0.421830
0.137232 -0.077348 -0.440610
0.101172 0.235490 -0.380457
0.170113 0.437568 0.083480
-0.289657 -0.444664 0.006067
0.216394 -0.377337 0.233530
-0.254119 -0.269598 -0.356111
0.181109 -0.444320 -0.021360
0.135812 0.443191 -0.050012
-0.150889 0.314608 0.313357
0.022744 -0.305975 -0.325319
0.258321 -0.145570 0.418420
0.010427 -0.258927 -0.364159
0.163644 -0.397711 0.196938
0.268348 0.330839 0.296372
-0.278745 0.337755 -0.292880
0.150338 0.426286 -0.132458
-0.190649 -0.424438 -0.135291
0.050135 0.035787 -0.446042
0.097848 0.369288 0.247268
0.250253 -0.211646 -0.393753
-0.214635 -0.027428 -0.446734
0.228034 0.325076 -0.307242
-0.036805 -0.267576 -0.357679
0.222745 -0.151753 -0.420548
0.119286 0.234464 -0.381064
0.120858 0.222469 0.383805
0.285712 0.353504 0.269148
-0.103499 0.137549 0.421634
0.081279 0.231920 -0.382568
0.048413 0.426527 0.127275
-0.229399 0.340935 0.284920
-0.124960 -0.158918 0.413615
-0.094871 -0.391088 -0.214289
-0.009214 -0.017804 0.442683
-0.046617 -0.315782 0.311158
0.146341 -0.391970 0.208205
0.093215 0.186876 0.402290
-0.253702 -0.202607 -0.398359
0.080814 -0.438902 -0.073841
-0.149420 0.444370 0.033176
0.165057 0.366970 -0.255031
0.163091 0.442411 0.053800
-0.082645 -0.417127 0.152121
0.223085 0.284507 -0.345334
0.158137 -0.303016 0.323759
-0.205299 -0.444697 0.005004
0.006352 0.282752 -0.346702
0.222682 -0.215479 -0.391686
0.209286 0.440050 0.068712
0.271405 -0.380178 0.228726
0.047169 -0.444629 0.007171
-0.290012 0.076917 0.436487
-0.103243 -0.061818 0.438716
-0.056762 -0.311550 0.315390
-0.067229 -0.231369 0.377935
-0.235372 -0.431824 0.104593
0.253530 0.138530 -0.425677
-0.195311 -0.412432 0.164595
-0.098716 0.367791 0.249470
0.109729 0.231005 0.378756
0.118011 0.434896 -0.099788
0.152882 0.234894 -0.380810
0.133243 -0.430421 0.110345
0.284418 -0.090394 -0.438059
0.201647 0.445888 -0.004078
0.200087 0.301455 -0.330392
0.120701 -0.386969 -0.221597
-0.227751 0.386415 0.219913
0.110122 -0.418342 0.148745
0.246244 -0.444723 0.004181
-0.235553 -0.223936 0.382331
-0.170640 -0.036268 0.441546
-0.193928 -0.416199 0.154697
-0.049893 0.322094 -0.310224
-0.137881 0.410312 -0.176218
0.180492 0.332653 -0.298667
-0.182004 -0.094465 -0.437149
-0.094088 0.344446 -0.285179
0.250818 0.073728 0.436992
0.001330 0.426576 -0.131462
0.170325 -0.392698 0.206776
-0.216708 0.415873 0.158451
0.077232 0.394862 0.204540
0.151713 0.090870 -0.438181
0.175045 0.445310 -0.022473
0.172541 0.014272 0.442826
-0.198995 0.353240 -0.273842
0.284642 -0.039219 -0.445621
-0.251044 0.075689 0.436681
0.214453 0.309247 0.318718
-0.152883 -0.346291 0.277126
-0.162057 -0.145768 -0.422703
0.020091 0.128323 -0.428668
0.024131 0.436144 -0.094204
0.131994 0.136740 -0.426223
0.179156 -0.281713 0.342360
-0.140607 0.190516 0.400688
-0.238205 0.265314 -0.360229
0.006627 0.399108 -0.200561
-0.064306 -0.161700 -0.416966
0.037063 -0.318126 -0.313167
0.049097 -0.236279 -0.379384
-0.148370 -0.295014 0.330814
0.032738 -0.414250 -0.164464
0.102111 -0.307225 -0.324069
0.172230 -0.299060 -0.331601
0.051041 -0.166126 -0.415179
-0.286492 -0.423517 0.134110
0.217420 0.192597 -0.403982
-0.162508 0.396972 -0.204751
0.128795 -0.146365 0.418134
0.197941 -0.294012 -0.336051
0.025291 0.252701 -0.369087
0.239533 -0.421952 0.138719
-0.104547 -0.343996 -0.284438
-0.179279 -0.158689 0.413697
0.136804 0.433909 -0.104201
-0.172133 -0.436891 -0.086278
0.033810 -0.069230 0.437542
-0.263569 0.273128 -0.354167
-0.237213 -0.387623 0.216137
-0.051253 0.310125 0.317840
0.171959 0.409174 0.174493
-0.090958 0.218360 0.386235
0.247262 0.029092 0.442322
-0.198032 -0.372054 0.241689
0.239746 -0.108532 0.429651
-0.063642 -0.415588 -0.160748
-0.053873 -0.443655 -0.034262
0.286877 0.247112 0.368531
-0.289459 -0.432322 0.102367
0.075266 0.087793 0.434516
0.082053 0.248603 0.367518
-0.126742 -0.112955 0.428482
0.009364 0.037310 -0.445898
0.237616 0.445470 -0.017377
0.027040 0.025948 -0.446812
0.046099 -0.420511 0.142721
0.227947 -0.390494 0.211102
0.171132 -0.333895 -0.296097
-0.012399 0.092329 0.433502
-0.089623 -0.263267 0.356668
-0.096799 -0.412161 -0.169576
-0.043801 0.256104 -0.366774
-0.253725 0.061685 0.438899
-0.286467 0.196097 0.397845
0.259370 -0.104319 0.430593
-0.152611 0.405050 0.184024
-0.284612 -0.006996 0.443022
0.048988 -0.076290 0.436424
-0.029949 0.282461 -0.346928
0.259762 0.273010 -0.354259
0.092070 0.438395 0.079159
0.220037 0.442420 0.053748
-0.034611 0.414679 0.161766
-0.279789 -0.322710 0.304230
-0.013557 -0.397273 -0.202149
-0.248475 0.403585 -0.191762
-0.190930 0.402659 0.189236
-0.075607 -0.083909 -0.439508
0.176576 -0.439979 -0.067040
0.184862 -0.272009 -0.354241
-0.199161 -0.405657 -0.184607
-0.189694 0.429150 0.118246
0.066507 0.413210 0.165168
-0.235047 -0.124707 0.425068
-0.026353 -0.228962 0.379359
-0.156989 0.445601 -0.013214
-0.084089 -0.443110 -0.040021
-0.214042 0.371222 -0.248775
0.102434 -0.439117 -0.072482
0.091144 0.099610 0.431875
0.195224 0.123301 0.425774
-0.095885 0.421287 -0.147766
-0.174887 -0.244837 -0.373735
-0.045168 -0.367637 0.248189
0.272325 0.152683 0.416229
0.001192 0.413383 -0.169120
-0.232508 -0.290590 0.334714
-0.225414 -0.118090 0.426990
0.045631 -0.427846 0.119209
0.215786 0.403125 0.188323
-0.144003 0.187989 -0.406162
0.110337 -0.009424 0.442946
-0.109134 -0.152488 -0.420283
-0.280849 0.337334 0.289005
0.075642 0.410834 0.170658
-0.022891 -0.238327 0.373805
-0.129572 0.329628 -0.302099
0.058097 0.128196 0.424352
0.198734 -0.274636 -0.352203
0.238887 0.248091 -0.372220
0.121060 -0.197527 0.396594
0.009895 -0.134482 -0.426581
-0.286390 -0.100050 -0.435900
0.167930 -0.226656 0.380722
-0.099809 0.122263 0.426075
0.248846 -0.200470 0.395094
-0.097247 -0.183471 0.403320
0.109183 -0.079730 0.435879
0.023235 -0.436785 0.082396
0.283950 0.269006 -0.357365
-0.109015 0.339880 0.286117
-0.117128 -0.413963 0.160908
-0.248669 -0.328644 -0.302052
0.040495 0.401617 0.191281
-0.164641 -0.306076 0.320865
0.071990 0.367024 0.250598
-0.041818 0.414792 -0.165805
0.024407 -0.032111 -0.446293
-0.274002 0.323941 -0.308377
-0.189137 0.405869 -0.186483
0.241462 0.381657 0.227958
0.208224 0.096647 0.432537
0.246922 -0.442616 -0.045244
-0.130284 0.103345 -0.435393
0.217798 0.356350 0.265479
-0.230401 -0.442290 0.044343
-0.149333 0.076309 -0.440937
0.156160 -0.285886 0.338862
0.022159 0.444966 -0.031229
-0.173375 0.437842 -0.086606
0.228710 -0.443772 -0.033022
0.270748 0.402940 -0.193039
-0.225071 0.315670 -0.316649
-0.083404 0.275981 0.347601
-0.210323 -0.426922 -0.126741
-0.157572 0.377109 -0.240001
-0.001006 -0.429413 -0.118168
0.211158 0.250423 0.366281
0.039641 -0.148682 0.417300
0.039211 -0.371650 -0.246637
-0.000608 -0.047211 0.440512
-0.181480 0.346710 -0.282260
-0.134865 0.335970 -0.294905
0.154927 -0.093540 0.433002
-0.240572 0.437992 0.081582
0.231847 -0.421131 -0.145352
-0.241590 -0.119302 -0.430992
-0.128912 -0.016532 -0.447076
-0.240706 0.314078 0.313887
0.173256 0.361004 -0.263810
-0.135517 0.345535 0.279422
-0.069631 -0.279807 0.343839
0.125441 -0.062661 0.438583
0.113535 0.105510 -0.434909
-0.103092 0.438308 0.079706
0.286569 -0.400600 0.191268
-0.114769 0.445918 -0.001234
-0.004149 0.270658 -0.356084
-0.083538 -0.426524 -0.128113
0.171332 -0.110827 -0.433454
-0.055694 0.226800 0.381243
0.123229 0.232481 0.377883
-0.289880 0.401078 0.192339
0.017657 -0.198607 0.396043
-0.102093 -0.246780 0.368061
0.101019 -0.186196 0.402141
0.156584 -0.338717 0.286274
0.212242 -0.216808 0.386546
0.119048 -0.440917 -0.061117
-0.290238 0.437379 -0.088681
0.170282 -0.324516 0.302381
-0.067992 -0.116555 0.427436
-0.111835 -0.174676 0.407126
0.190621 -0.120278 0.426354
0.233638 -0.364083 -0.257771
-0.178164 0.445416 -0.019086
-0.289866 -0.074014 0.436784
-0.127435 -0.273798 0.348499
0.210819 0.442738 -0.054804
-0.052034 0.445460 -0.017672
-0.032509 -0.442378 -0.047767
-0.290288 -0.472198 0.101396
-0.290288 -0.198796 0.412808
-0.290288 0.415327 0.225995
-0.290288 0.452415 0.036392
-0.290288 0.471750 0.103106
-0.290288 -0.367903 -0.285448
-0.290288 -0.452054 -0.179931
-0.290288 0.252358 0.426067
-0.290288 0.272084 0.359983
-0.290288 -0.466079 0.075607
-0.290288 0.014374 0.463256
-0.290288 0.334999 -0.371279
-0.290288 0.388399 -0.301258
-0.290288 -0.433873 -0.115480
-0.290288 0.433900 0.215158
-0.290288 -0.021369 -0.493785
-0.290288 0.356029 -0.270316
-0.290288 -0.465309 0.022423
-0.290288 -0.360690 -0.330805
-0.290288 -0.108350 0.445054
-0.290288 -0.371636 0.318454
-0.290288 -0.250380 0.397525
-0.290288 -0.299447 -0.369957
-0.290288 -0.123433 -0.473126
-0.290288 -0.302754 -0.376532
-0.290288 -0.292975 0.400032
-0.290288 -0.224931 0.388513
-0.290288 0.363260 -0.289213
-0.290288 -0.435244 -0.179016
-0.290288 -0.291970 0.344446
-0.290288 0.448432 -0.061306
-0.290288 -0.315573 -0.362225
-0.290288 -0.203721 0.415669
-0.290288 -0.388140 -0.269757
-0.290288 0.267186 -0.392146
-0.290288 -0.232372 -0.392352
-0.290288 -0.082730 0.458608
-0.290288 0.213574 0.400454
-0.290288 0.471739 -0.020409
-0.290288 -0.451460 0.160707
-0.290288 0.095546 0.457439
-0.290288 0.116027 0.438562
