0.286960 0.398272 0.221420
0.286960 -0.426525 -0.131040
0.286960 -0.376481 -0.262199
0.286960 -0.451930 -0.015342
0.286960 0.141162 -0.466235
0.286960 0.449626 0.165811
0.286960 -0.062413 0.487391
0.286960 0.272120 0.391887
0.286960 -0.419687 0.184751
0.286960 -0.428947 -0.232870
0.286960 -0.336841 -0.328742
0.286960 -0.391189 0.273633
0.286960 -0.438158 -0.151633
0.286960 0.404883 -0.206834
0.286960 0.313341 0.321989
0.286960 0.326376 0.354828
0.286960 -0.442871 0.127761
0.286960 -0.432791 0.117266
0.286960 0.424157 -0.234197
0.286960 -0.015793 0.454327
0.286960 0.277930 -0.373732
0.286960 0.461050 -0.005424
0.286960 -0.240914 0.405750
0.286960 0.068650 0.466710
0.286960 -0.369576 0.328115
0.286960 -0.399535 -0.226591
0.286960 0.463314 -0.033597
0.286960 0.458614 0.014162
0.286960 -0.324806 0.344776
0.286960 0.424160 0.211283
0.286960 -0.066641 0.443883
0.286960 -0.121098 -0.435305
0.286960 -0.026882 0.449800
0.286960 -0.026212 -0.463920
0.286960 0.453362 -0.188502
0.286960 0.087965 -0.475719
0.286960 0.457486 -0.103369
0.286960 0.199295 0.405217
0.286960 0.034448 -0.448454
0.286960 0.218336 -0.414366
0.286960 0.379793 -0.249581
0.286960 0.302563 0.355684
0.286960 0.279942 -0.389547
0.286960 -0.288353 0.376321
0.286960 -0.205712 0.415552
0.286960 -0.391657 -0.214755
0.286960 0.201401 -0.417911
0.286960 0.410344 -0.240957
0.286960 0.449068 -0.210997
0.286960 -0.214960 -0.435369
0.286960 -0.375220 0.277598
0.286960 0.328662 -0.337687
0.286960 0.064600 -0.467012
0.286960 0.403292 -0.197844
0.286960 -0.126193 -0.446154
0.286960 0.382340 -0.296540
0.286960 -0.326434 0.336571
0.286960 -0.082518 0.480058
0.286960 0.231756 -0.433882
0.286960 -0.443775 -0.148584
0.286960 -0.454637 0.005204
0.286960 -0.298764 -0.333155
0.286960 0.441496 -0.086386
0.286960 -0.306861 0.323006
0.286960 -0.012042 0.479811
0.286960 -0.455203 -0.009235
0.286960 -0.268925 -0.371903
0.286960 -0.021788 0.454503
0.286960 0.446301 0.103266
0.286960 0.328167 0.309025
0.286960 -0.347849 -0.321962
0.286960 0.403841 -0.253226
0.286960 0.464033 -0.078709
0.286960 -0.433973 0.209787
0.286960 0.484311 0.115900
0.286960 0.434056 0.135072
0.286960 0.405580 -0.224338
0.286960 -0.396881 -0.265829
0.286960 0.133584 0.446419
0.286960 -0.459173 0.111697
0.286960 0.422371 0.217098
0.286960 0.470544 -0.038902
0.286960 0.127116 0.479178
0.286960 -0.419030 -0.170975
0.286960 0.431361 -0.128703
0.286960 0.428069 0.123931
0.286960 -0.362321 0.286802
0.286960 -0.208108 0.438072
0.286960 -0.173002 -0.461547
0.286960 0.234577 -0.391658
0.286960 0.029049 0.457571
0.286960 -0.181404 -0.428649
0.286960 0.446034 -0.142448
0.286960 0.292131 -0.384890
0.286960 -0.445117 -0.160158
0.286960 0.303826 -0.328732
0.286960 0.385691 0.268403
0.286960 -0.256662 -0.378152
0.286960 -0.181509 0.441142
0.286960 -0.338773 -0.309030
0.286960 0.450691 0.092117
0.286960 -0.303749 0.377185
0.286960 0.279087 -0.381399
0.286960 0.399067 0.218211
0.286960 -0.342516 -0.348267
0.286960 0.436505 -0.206358
0.286960 0.067657 0.448237
0.286960 0.015284 0.495317
0.286960 0.457677 0.140772
0.286960 0.406874 -0.281281
0.286960 0.446974 0.117477
0.286960 0.477946 -0.035227
0.286960 0.397409 -0.273227
0.286960 -0.482919 -0.024250
0.286960 -0.035825 -0.456556
0.286960 0.263673 -0.389106
0.286960 0.475767 -0.083190
0.286960 -0.490609 0.033368
0.286960 0.043858 0.475577
0.286960 0.053239 -0.455181
0.286960 0.225426 0.413999
0.286960 -0.353960 0.325103
0.286960 0.213325 0.424366
0.286960 0.468365 0.125310
0.286960 0.017968 0.492788
0.286960 0.078618 0.460445
0.286960 -0.326646 -0.375506
0.286960 0.461010 -0.192148
0.286960 0.366342 0.265030
0.286960 0.443053 0.146107
0.286960 0.455379 -0.019866
0.286960 0.326374 -0.349769
0.286960 -0.472597 -0.157366
0.286960 0.403969 0.289736
0.286960 -0.414876 0.180998
0.286960 -0.002855 0.474395
0.286960 -0.196942 -0.417202
0.286960 0.175993 -0.458589
0.286960 0.000908 0.489736
0.286960 -0.333543 -0.319003
0.286960 -0.445997 -0.132783
0.286960 -0.415190 0.230787
0.286960 -0.184748 -0.455280
0.286960 -0.320181 0.369327
0.286960 -0.234304 -0.416256
0.286960 0.401785 -0.232246
0.286960 0.299490 -0.378682
0.286960 -0.145854 0.439472
0.286960 -0.182471 -0.452799
0.286960 -0.309905 -0.346714
0.286960 -0.359079 -0.267748
0.286960 0.463898 -0.098372
0.286960 0.411073 -0.186846
0.286960 0.444973 -0.219334
0.286960 -0.458506 0.158024
0.286960 -0.376617 0.305486
0.286960 -0.431753 0.163113
0.286960 0.367691 0.307495
0.286960 -0.020366 -0.453244
0.286960 0.120987 -0.439348
0.286960 0.453526 -0.064586
0.286960 -0.472169 0.066755
0.286960 0.454676 0.198655
0.286960 -0.475225 0.098023
0.286960 0.421472 -0.172198
0.286960 -0.475430 0.061892
0.286960 0.448550 -0.146201
0.286960 0.408845 0.247887
0.286960 0.407209 0.187149
0.286960 -0.427549 -0.220389
0.286960 0.065461 -0.487478
0.286960 0.158391 -0.461848
0.286960 -0.416138 -0.220931
0.286960 0.449859 0.143954
0.286960 0.312768 0.378813
0.286960 0.296862 0.364618
0.286960 0.327454 0.344653
0.286960 0.435850 0.143989
0.286960 -0.060488 0.446021
0.286960 -0.357066 -0.270620
0.286960 0.148834 0.441541
0.286960 0.247985 0.421363
0.286960 0.389783 0.279518
0.286960 -0.282645 -0.347085
0.286960 -0.480839 0.019217
0.286960 -0.264638 -0.371664
0.286960 -0.466982 0.075333
0.286960 -0.428694 -0.254272
0.286960 -0.468910 0.056720
0.286960 0.140424 -0.432489
0.286960 0.441246 0.092749
0.286960 0.078508 0.447307
0.286960 -0.160716 0.453912
0.286960 -0.282162 -0.370038
0.286960 -0.284438 -0.394569
0.286960 0.053204 0.479980
0.286960 0.148069 0.466167
0.286960 0.208150 0.426067
0.286960 0.494899 0.051205
0.286960 0.392455 0.276366
0.286960 0.307642 -0.353797
0.286960 -0.230425 0.428554
0.286960 -0.018827 0.461513
0.286960 -0.407913 0.282360
0.286960 -0.032578 0.473466
0.286960 -0.280630 0.407090
0.286960 0.423132 -0.200427
0.286960 0.188977 -0.411680
0.286960 -0.491184 0.043577
0.286960 0.071779 0.472068
0.286960 0.197744 0.400307
0.286960 -0.042553 -0.445519
0.286960 0.108869 0.451857
0.286960 0.170621 0.430828
0.286960 -0.440704 -0.233115
0.286960 -0.020575 -0.495515
0.286960 -0.186681 0.404402
0.286960 -0.452004 0.023885
0.286960 -0.348349 -0.297764
0.286960 -0.420139 0.195974
0.286960 0.377635 -0.302075
0.286960 -0.442886 -0.079692
0.286960 -0.113482 0.477708
0.286960 0.369668 -0.310728
0.286960 -0.446528 -0.058333
0.286960 -0.457240 -0.094267
0.286960 -0.326646 -0.350327
0.286960 -0.397536 -0.292717
0.286960 -0.387657 -0.228259
0.286960 0.395039 0.252181
0.286960 0.317242 -0.322642
0.286960 0.174707 -0.468270
0.286960 0.458107 -0.021482
0.286960 0.187698 0.447045
0.286960 0.340702 -0.295219
0.286960 0.246062 0.405975
0.286960 -0.327996 -0.370430
0.286960 -0.176221 0.451981
0.286960 0.401521 -0.201640
0.286960 -0.032763 0.494572
0.286960 -0.441800 0.131272
0.286960 -0.415889 0.263351
0.286960 0.108034 0.432630
0.286960 0.478663 -0.111769
0.286960 0.414262 -0.265705
0.286960 0.490661 -0.057592
0.286960 -0.480318 -0.095495
0.286960 0.331943 -0.348051
0.286960 -0.478391 -0.040203
0.286960 -0.295933 -0.385751
0.286960 -0.456775 0.010658
0.286960 0.456889 0.166794
0.286960 -0.077541 0.488961
0.286960 -0.000386 -0.462989
0.286960 -0.020500 0.446822
0.286960 -0.329584 0.354664
0.286960 -0.359013 0.290034
0.286960 0.291272 -0.365865
0.286960 -0.445115 0.219538
0.286960 0.292361 -0.392943
0.286960 0.342965 -0.345153
0.286960 0.067317 0.445011
0.286960 -0.471259 0.042501
0.286960 -0.373788 -0.280820
0.286960 -0.384794 0.294715
0.286960 0.315657 -0.353943
0.286960 0.458634 -0.090287
0.286960 0.313418 0.340639
0.286960 0.368890 0.262641
0.286960 0.472632 0.035743
0.286960 -0.363855 0.305151
0.286960 0.372234 0.254491
0.286960 -0.108576 -0.435075
0.286960 -0.063931 -0.487249
0.286960 -0.413941 -0.253094
0.286960 -0.287208 -0.385111
0.286960 0.436628 0.098862
0.286960 0.210523 0.420398
0.286960 0.027463 0.460662
0.286960 0.415823 -0.196612
0.286960 0.204050 0.434084
0.286960 0.228234 -0.405335
0.286960 -0.275054 0.357856
0.286960 0.461323 0.123512
0.286960 0.213869 -0.451955
0.286960 0.320167 -0.320273
0.286960 0.228721 0.435851
0.286960 0.184055 0.436806
0.286960 -0.170552 0.416313
0.286960 0.056556 -0.489827
0.286960 0.120371 0.452245
0.286960 0.479239 0.057156
0.286960 -0.450849 -0.083395
0.286960 0.460296 -0.019288
0.286960 0.367026 0.317250
0.286960 -0.445639 -0.109476
0.286960 -0.259422 0.380350
0.286960 -0.458633 -0.118081
0.286960 -0.125694 -0.457328
0.286960 -0.234920 -0.402738
0.286960 0.458475 0.059002
0.286960 -0.411152 -0.282229
0.286960 0.368656 -0.299774
0.286960 -0.435640 -0.096970
0.286960 -0.247564 -0.384511
0.286960 0.023558 0.450685
0.286960 -0.436734 0.214877
0.286960 0.304378 -0.361163
0.286960 0.439163 -0.218411
0.286960 0.265365 0.418355
0.286960 -0.223874 -0.395418
0.286960 -0.394746 -0.218730
0.286960 0.361604 -0.294804
0.286960 -0.440592 0.086818
0.286960 -0.312428 -0.336845
0.286960 0.346935 -0.282478
0.286960 0.470778 0.054813
0.286960 0.201702 0.400608
0.286960 -0.325131 0.360820
0.286960 0.459692 0.006004
0.286960 -0.173207 -0.458176
0.286960 0.187734 0.430574
0.286960 -0.443638 0.084574
0.286960 -0.230800 -0.402785
0.286960 -0.470501 -0.026388
0.286960 0.279286 -0.385106
0.286960 -0.202608 -0.431406
0.286960 -0.419478 -0.214895
0.286960 -0.449125 -0.070242
0.286960 -0.452956 -0.080960
0.286960 0.316882 0.365638
0.286960 -0.394287 -0.235374
0.286960 0.290340 0.336393
0.286960 0.071244 -0.461699
0.286960 -0.051975 -0.478728
0.286960 -0.410083 -0.277516
0.286960 0.481633 0.067784
0.286960 -0.147727 0.436654
0.286960 -0.195681 -0.426972
0.286960 -0.482136 -0.007578
0.286960 -0.390261 -0.219328
0.286960 0.220750 0.394942
0.286960 0.473780 0.095943
0.286960 -0.245169 -0.433017
0.286960 0.461241 -0.022651
0.286960 -0.489671 0.023653
0.286960 0.453525 -0.200380
0.286960 0.289037 0.393854
0.286960 -0.039679 0.452403
0.286960 0.452751 0.101134
0.286960 -0.121115 0.442914
0.286960 0.443149 -0.216092
0.286960 -0.043935 0.475685
0.286960 0.453070 -0.176789
0.286960 -0.338936 0.339126
0.286960 0.287551 0.352977
0.286960 0.127981 -0.465803
0.286960 -0.211635 -0.400308
0.286960 -0.392646 0.287066
0.286960 -0.162102 -0.472587
0.286960 -0.120716 -0.454245
0.286960 0.345171 0.352635
0.286960 0.443319 -0.107334
0.286960 0.434492 0.217130
0.286960 -0.478868 0.096611
0.286960 -0.380555 0.235092
0.286960 0.450285 0.114107
0.286960 -0.010821 0.487230
0.286960 -0.232081 -0.399506
0.286960 0.457574 0.033839
0.286960 0.292230 0.352572
0.286960 -0.465226 -0.071648
0.286960 0.273590 0.359269
0.286960 0.230710 -0.401468
0.286960 -0.224656 -0.425379
0.286960 0.192133 0.443742
0.286960 -0.201252 -0.414530
0.286960 -0.337006 -0.360949
0.286960 0.273350 0.373978
0.286960 0.494660 -0.006983
0.286960 0.431136 0.138543
0.286960 -0.496735 -0.009862
0.286960 -0.361805 0.314304
0.286960 0.481352 -0.042814
0.286960 -0.357098 -0.290831
0.286960 0.461255 0.082581
0.286960 0.392771 -0.278999
0.286960 0.014178 -0.464366
0.286960 -0.395642 -0.230400
0.286960 -0.377885 -0.255931
0.286960 -0.274177 0.412335
0.286960 0.464618 0.091134
0.286960 0.088311 0.457621
0.286960 0.445180 0.143248
0.286960 0.121916 0.449331
0.286960 0.258699 -0.399589
0.286960 0.365298 -0.322560
0.286960 0.010872 -0.460298
0.286960 -0.295570 -0.363579
0.286960 0.168985 0.420877
0.286960 -0.387902 -0.246930
0.286960 -0.355567 0.299219
0.286960 -0.465813 -0.079117
0.286960 0.044985 -0.468168
0.286960 -0.105682 -0.488343
0.286960 -0.310268 -0.333798
0.286960 0.384626 0.282792
0.286960 -0.181159 -0.433121
0.286960 -0.471299 0.132335
0.286960 -0.389432 0.307272
0.286960 -0.226022 -0.428777
0.286960 -0.098227 0.463296
0.286960 0.359163 0.289804
0.286960 0.153527 0.416694
0.286960 0.132927 0.456352
0.286960 0.240872 0.430339
0.286960 -0.197080 -0.406487
0.286960 0.407613 -0.226940
0.286960 -0.460000 0.056725
0.286960 0.021938 0.445448
0.286960 -0.256603 -0.393313
0.286960 0.270578 -0.381708
0.286960 0.161934 -0.430673
0.286960 -0.457240 0.028093
0.286960 -0.365403 0.283832
0.286960 -0.040149 0.476168
0.286960 0.055520 0.492488
0.286960 -0.494271 -0.046525
0.286960 -0.403474 0.220986
0.286960 0.336334 0.321039
0.286960 -0.259760 0.396215
0.286960 -0.177435 -0.454130
0.286960 -0.182669 0.405425
0.286960 -0.448380 0.132804
0.286960 0.332246 0.333198
0.286960 -0.435113 -0.100256
0.286960 -0.315160 -0.380732
0.286960 0.293447 -0.350586
0.286960 -0.430037 -0.132000
0.286960 -0.453759 0.200943
0.286960 -0.418820 -0.223006
0.286960 -0.446882 -0.163640
0.286960 0.335017 -0.297439
0.286960 0.282413 -0.396875
0.286960 -0.221856 0.416045
0.286960 0.064184 -0.446166
0.286960 -0.434581 -0.191046
0.286960 0.467878 0.113944
0.286960 -0.280799 -0.385472
0.286960 0.332576 -0.326887
0.286960 0.317157 -0.335922
0.286960 0.351849 -0.320483
0.286960 -0.431930 -0.193608
0.286960 -0.139956 -0.448273
0.286960 0.438344 -0.196383
0.286960 0.379084 -0.277501
0.286960 0.430365 -0.190840
0.286960 -0.241575 -0.403039
0.286960 0.065038 -0.483402
0.286960 0.480257 0.023017
0.286960 -0.449776 0.193804
0.286960 -0.277872 0.410625
0.286960 0.168992 -0.470399
0.286960 -0.450258 0.070558
0.286960 0.463341 -0.136667
0.286960 -0.232776 -0.413154
0.286960 0.341287 -0.303126
0.286960 0.342384 -0.362852
0.286960 0.479733 0.001605
0.286960 0.393896 -0.275131
0.286960 0.205543 -0.445229
0.286960 -0.358752 -0.293952
0.286960 -0.186638 -0.427403
0.286960 0.442157 -0.113066
0.286960 0.122091 0.444775
0.286960 -0.383479 -0.317392
0.286960 -0.354824 -0.334204
0.286960 -0.457296 -0.059005
0.286960 -0.173772 0.450106
0.286960 0.472438 -0.107791
0.286960 0.339741 0.302221
0.286960 -0.114985 0.464674
0.286960 0.460853 -0.009053
0.286960 0.189790 -0.436045
0.286960 0.474950 -0.126424
0.286960 0.394010 -0.263167
0.286960 -0.477752 0.076486
0.286960 -0.059895 0.481132
0.286960 0.289250 -0.372066
0.286960 -0.474127 0.113380
0.286960 0.110408 -0.440181
0.286960 0.427069 0.209634
0.286960 0.213706 0.401025
0.286960 0.317598 0.337501
0.286960 0.316789 0.346020
0.286960 -0.485649 0.104912
0.286960 -0.196492 0.446677
0.286960 0.340081 -0.366296
0.286960 0.178548 -0.417190
0.286960 0.455679 -0.155230
0.286960 0.352797 0.348887
0.286960 -0.354996 0.303431
0.286960 -0.490188 -0.085929
0.286960 0.438309 0.148142
0.286960 0.401113 -0.227816
0.286960 0.390142 0.214060
0.286960 -0.135354 0.443779
0.286960 0.435713 -0.173844
0.286960 -0.320344 0.378504
0.286960 -0.463880 -0.135298
0.286960 -0.004066 -0.477676
0.286960 -0.406517 0.193429
0.286960 -0.320143 0.324134
0.286960 -0.296210 0.361223
0.286960 0.186641 0.415875
0.286960 0.495125 -0.017550
0.286960 -0.443462 -0.203647
0.286960 -0.327798 -0.339034
0.286960 -0.061393 -0.452951
0.286960 0.442823 0.078972
0.286960 -0.449073 0.032620
0.286960 0.494872 0.054707
0.286960 -0.455766 0.075120
0.286960 -0.441658 0.141264
0.286960 0.344616 0.293003
0.286960 -0.294830 0.398610
0.286960 -0.008945 0.477838
0.286960 0.318051 -0.314705
0.286960 -0.332387 0.350425
0.286960 0.310213 0.387325
0.286960 -0.163797 0.452446
0.286960 -0.048610 0.492990
0.286960 -0.226503 -0.414387
0.286960 0.482273 -0.013502
0.286960 -0.454230 0.027151
0.286960 -0.494137 -0.054666
0.286960 0.484446 0.107459
0.286960 -0.209817 0.406506
0.286960 -0.039566 -0.458870
0.286960 -0.453566 0.010268
0.286960 -0.425905 0.224161
0.286960 0.390106 0.292414
0.286960 -0.333583 -0.310491
0.286960 -0.305187 0.351394
0.286960 -0.489329 -0.066254
0.286960 0.023879 -0.446974
0.286960 0.430478 -0.207341
0.286960 0.048200 0.458032
0.286960 -0.445794 0.056287
0.286960 -0.406408 0.259526
0.286960 -0.373067 -0.323736
0.286960 0.445056 -0.196452
0.286960 0.398816 -0.246861
0.286960 -0.350119 -0.352239
0.286960 -0.277862 0.384202
0.286960 0.283192 -0.371217
0.286960 -0.467437 -0.048819
0.286960 -0.302886 0.385069
0.286960 -0.261301 -0.379000
0.286960 -0.481732 -0.017203
0.286960 0.369281 -0.275343
0.286960 0.450524 -0.162145
0.286960 0.151634 -0.470767
0.286960 -0.309899 -0.359673
0.286960 0.389736 -0.250210
0.286960 0.467800 0.089829
0.286960 0.349504 0.281328
0.286960 0.119867 -0.436162
0.286960 -0.345037 -0.325127
0.286960 0.330106 0.353579
0.286960 -0.209787 -0.448303
0.286960 0.459952 0.092963
0.286960 -0.460716 -0.122258
0.286960 0.121405 -0.473779
0.286960 -0.434764 0.193816
0.286960 -0.129039 -0.481816
0.286960 -0.247180 -0.421647
0.286960 -0.455121 0.107223
0.286960 -0.347551 0.315984
0.286960 0.249953 0.378874
0.286960 0.003158 -0.485280
0.286960 -0.436276 0.223671
0.286960 -0.377596 -0.244577
0.286960 0.457104 -0.149487
0.286960 -0.323532 0.333912
0.286960 0.166977 -0.417787
0.286960 -0.053765 0.478793
0.286960 -0.082107 -0.440333
0.286960 0.192342 0.423840
0.286960 0.249859 0.413719
0.286960 -0.427863 0.229633
0.286960 0.184991 0.433336
0.286960 -0.152658 0.423143
0.286960 0.058660 -0.485741
0.286960 0.205111 -0.427294
0.286960 -0.384608 -0.252660
0.286960 0.230668 0.388482
0.286960 0.385391 -0.275010
0.286960 0.078225 -0.478639
0.286960 0.326549 -0.362489
0.286960 0.083688 0.466975
0.286960 0.451222 0.014970
0.286960 -0.453808 0.020481
0.286960 0.470226 0.062425
0.286960 0.139220 0.469517
0.286960 0.485529 -0.054602
0.286960 0.320077 0.343076
0.286960 -0.129076 -0.448415
0.286960 0.199491 0.417393
0.286960 0.403753 0.279484
0.286960 0.357486 0.334547
0.286960 0.236251 0.411641
0.286960 0.216678 0.397092
0.286960 -0.496711 -0.013658
0.286960 -0.434042 0.120779
0.286960 0.455516 0.015953
0.286960 0.486554 -0.041989
0.286960 -0.143047 0.467170
0.286960 0.137640 -0.450088
0.286960 -0.389434 -0.297334
0.286960 0.261915 -0.363274
0.286960 -0.452063 -0.130008
0.286960 -0.419269 0.225720
0.286960 0.416719 -0.224403
0.286960 0.407407 -0.271931
0.286960 0.359068 0.303502
0.286960 0.337113 0.291164
0.286960 0.247995 -0.427266
0.286960 0.134593 0.462985
0.286960 0.202619 0.419870
0.286960 0.461005 0.106955
0.286960 0.382056 -0.265230
0.286960 0.067250 0.483676
0.286960 0.228048 0.390971
0.286960 -0.466194 0.151504
0.286960 -0.486811 0.010322
0.286960 -0.151639 0.448135
0.286960 0.117429 0.454021
0.286960 0.285130 0.368902
0.286960 0.455709 -0.168322
0.286960 -0.402121 -0.272521
0.286960 0.265219 -0.406715
0.286960 -0.071533 -0.451973
0.286960 0.156381 0.427946
0.286960 0.155713 -0.419849
0.286960 -0.393196 0.208407
0.286960 0.451068 0.044606
0.286960 -0.430488 0.210331
0.286960 0.361816 0.284343
0.286960 -0.026148 0.464407
0.286960 0.438793 -0.232807
0.286960 -0.477706 0.055592
0.286960 0.384574 0.249425
0.286960 0.383090 0.264744
0.286960 -0.455211 0.084452
0.286960 0.081547 0.469662
0.286960 0.488180 -0.016782
0.286960 -0.106019 0.461375
0.286960 0.255021 0.404614
0.286960 -0.456648 0.127409
0.286960 0.150038 -0.467554
0.286960 0.442536 -0.231132
0.286960 0.282000 -0.383638
0.286960 -0.145895 0.425510
0.286960 0.151706 0.463479
0.286960 0.122076 0.479960
0.286960 -0.031361 0.467147
0.286960 -0.395517 -0.209417
0.286960 0.312113 0.362043
0.286960 0.231221 0.427263
0.286960 -0.450566 -0.189083
0.286960 0.176749 0.452855
0.286960 -0.426628 0.125671
0.286960 -0.457210 -0.173231
0.286960 0.359571 0.342793
0.286960 -0.416297 -0.232053
0.286960 0.427328 -0.206929
0.286960 -0.007622 0.470612
0.286960 0.418937 -0.166542
0.286960 0.315291 -0.345069
0.286960 -0.426128 0.209193
0.286960 0.139906 -0.441850
0.286960 -0.141410 0.420132
0.286960 -0.326333 0.354767
0.286960 -0.109240 -0.476675
0.286960 -0.431973 0.128411
0.286960 0.428654 -0.144321
0.286960 0.059686 0.461081
0.286960 0.453478 0.012490
0.286960 0.370495 0.304650
0.286960 0.410156 0.214480
0.286960 0.222768 -0.430255
0.286960 0.330442 -0.310658
0.286960 -0.148958 0.440284
0.286960 -0.422137 0.228831
0.286960 0.131790 0.443327
0.286960 0.442354 -0.175851
0.286960 -0.377519 0.243443
0.286960 0.240004 -0.381551
0.286960 -0.216492 0.398471
0.286960 0.279584 0.350070
0.286960 -0.002755 -0.468782
0.286960 0.452721 -0.084415
0.286960 0.071812 -0.476815
0.286960 0.226271 0.431856
0.286960 0.385246 0.259348
0.286960 -0.237395 0.407706
0.286960 -0.215365 0.445888
0.286960 -0.352040 0.345664
0.286960 0.238099 -0.434660
0.286960 -0.443262 -0.070243
0.286960 0.454660 0.084397
0.286960 -0.394411 -0.261786
0.286960 -0.116484 0.470990
0.286960 -0.177379 0.423041
0.286960 0.023279 0.480418
0.286960 -0.446467 -0.080294
0.286960 -0.179024 -0.430541
0.286960 0.220823 -0.389938
0.286960 0.444692 0.163302
0.286960 -0.323571 0.313479
0.286960 0.249790 -0.424096
0.286960 0.369952 0.317962
0.286960 0.379808 0.291635
0.286960 -0.468648 0.124322
0.286960 -0.287775 0.372307
0.286960 -0.376853 0.269522
0.286960 -0.362272 0.278759
0.286960 0.150698 0.427892
0.286960 -0.322403 -0.370062
0.286960 0.295491 0.396878
0.286960 0.163150 0.431496
0.286960 0.482755 -0.030184
0.286960 -0.438976 0.193673
0.286960 -0.056069 -0.447712
0.286960 0.141782 0.437093
0.286960 -0.389744 -0.233059
0.286960 0.299356 -0.353878
0.286960 0.060452 -0.468538
0.286960 -0.089787 0.453668
0.286960 0.076174 -0.441029
0.286960 -0.493742 -0.059892
0.286960 -0.107958 0.430989
0.286960 0.429225 -0.165774
0.286960 -0.054987 -0.496175
0.286960 -0.310112 -0.353583
0.286960 0.345454 -0.360212
0.286960 -0.411731 -0.174520
0.286960 0.386983 -0.296883
0.286960 -0.240322 -0.390809
0.286960 0.447421 0.057882
0.286960 0.464857 -0.039823
0.286960 -0.379484 0.230740
0.286960 -0.476563 -0.027916
0.286960 0.240077 -0.429488
0.286960 -0.454529 0.043098
0.286960 -0.148468 0.454691
0.286960 -0.431964 -0.179708
0.286960 0.201446 0.452473
0.286960 -0.168812 -0.421182
0.286960 -0.209663 -0.396457
0.286960 0.297725 0.343673
0.286960 -0.096484 -0.475979
0.286960 -0.017626 0.458203
0.286960 -0.123302 0.472977
0.286960 -0.467328 0.167419
0.286960 -0.243346 0.375988
0.286960 -0.438991 0.158904
0.286960 -0.367363 0.317966
0.286960 -0.449959 0.128693
0.286960 0.104742 -0.446300
0.286960 -0.452667 0.092716
0.286960 0.267366 0.411491
0.286960 -0.458655 -0.052759
0.286960 0.011441 0.454368
0.286960 0.322150 0.319277
0.286960 0.054599 -0.475519
0.286960 -0.452516 0.204210
0.286960 -0.155425 0.463636
0.286960 0.021928 -0.489260
0.286960 0.026960 -0.478208
0.286960 -0.450856 0.113363
0.286960 -0.235387 -0.420050
0.286960 -0.442815 0.195986
0.286960 -0.452053 -0.039671
0.286960 0.412986 -0.243951
0.286960 0.304003 0.383639
0.286960 -0.414783 0.167552
0.286960 0.385611 0.223509
0.286960 0.260113 -0.375503
0.286960 -0.257200 -0.413176
0.286960 -0.172221 0.453768
0.286960 -0.344861 -0.337639
0.286960 -0.379933 0.303345
0.286960 0.186864 -0.457726
0.286960 -0.177739 0.442822
0.286960 0.436998 0.184475
0.286960 0.187924 -0.424742
0.286960 0.049781 0.470394
0.286960 -0.210679 0.430226
0.286960 0.299171 0.367164
0.286960 -0.397697 0.263441
0.286960 0.253880 -0.422874
0.286960 -0.459554 -0.183770
0.286960 0.146656 0.462426
0.286960 -0.469728 -0.136731
0.286960 0.411639 -0.220069
0.286960 0.083450 -0.492341
0.286960 0.359313 0.296667
0.286960 -0.044705 -0.497491
0.286960 -0.319664 -0.313619
0.286960 0.237671 0.417710
0.286960 0.399524 0.243606
0.286960 -0.329662 -0.359560
0.286960 0.403724 0.274621
0.286960 -0.329207 -0.344087
0.286960 -0.471253 0.048685
0.286960 0.403736 0.283656
0.286960 -0.191659 -0.423454
0.286960 0.403856 0.238383
0.286960 -0.017376 -0.456761
0.286960 0.006444 -0.449428
0.286960 -0.049450 0.475843
0.286960 0.330357 0.304187
0.286960 0.342595 0.344559
0.286960 0.464033 -0.183792
0.286960 -0.446341 -0.093338
0.286960 0.248517 -0.379387
0.286960 0.381976 0.260869
0.286960 -0.309898 0.317293
0.286960 -0.036158 0.460198
0.286960 0.407694 -0.184643
0.286960 -0.025863 -0.486452
0.286960 -0.253796 0.372444
0.286960 0.406541 -0.210459
0.286960 0.325922 -0.359448
0.286960 -0.325572 -0.353399
0.286960 0.332881 -0.314819
0.286960 -0.459697 0.062842
0.286960 -0.476118 0.032767
0.286960 0.471616 0.031605
0.286960 0.441907 -0.179128
0.286960 -0.428158 0.119249
0.286960 -0.010037 -0.492285
0.286960 0.242121 -0.404490
0.286960 -0.352824 0.288643
0.286960 -0.339285 -0.324917
0.286960 -0.268596 0.416350
0.286960 0.329185 -0.316576
0.286960 -0.464686 0.066571
0.286960 0.443206 0.220307
0.286960 -0.443427 0.090234
0.286960 -0.487636 -0.014300
0.286960 -0.024511 0.456608
0.286960 -0.041601 -0.484915
0.286960 -0.433594 -0.202660
0.286960 0.119162 0.434333
0.286960 0.481659 -0.059619
0.286960 0.132883 -0.432823
0.286960 -0.497184 0.008006
0.286960 0.020983 0.477640
0.286960 0.385008 0.229564
0.286960 -0.471185 -0.033352
0.286960 0.390098 0.220977
0.286960 -0.370295 0.280582
0.286960 -0.484976 -0.072004
0.286960 0.165474 0.438015
0.286960 -0.199093 -0.449445
0.286960 -0.469251 0.142784
0.286960 -0.263881 -0.367403
0.286960 0.401281 0.210505
0.286960 -0.495973 0.028909
0.286960 -0.022818 -0.465169
0.286960 -0.368312 -0.300580
0.286960 0.417674 -0.190491
0.286960 0.349461 0.320420
0.286960 0.390204 0.225991
0.286960 -0.436209 0.118201
0.286960 -0.128188 0.468647
0.286960 -0.474275 0.133018
0.286960 0.437062 -0.131979
0.286960 -0.438596 0.100653
0.286960 0.388238 0.260863
0.286960 -0.455419 0.055923
0.286960 -0.336903 0.300579
0.286960 -0.471491 0.084013
0.286960 0.444084 0.114687
0.286960 0.454374 0.050816
0.286960 -0.369420 -0.264094
0.286960 -0.246126 0.415996
0.286960 0.064977 0.450164
0.286960 -0.484271 -0.113175
0.286960 0.260427 0.368108
0.286960 0.405417 0.258718
0.286960 -0.222316 0.442509
0.286960 0.470767 0.039141
0.286960 -0.285304 0.357349
0.286960 0.303275 -0.366426
0.286960 -0.119925 -0.482328
0.286960 0.315484 0.314389
0.286960 -0.439882 0.163018
0.286960 0.157661 -0.470213
0.286960 -0.321139 -0.353952
0.286960 0.434572 0.162604
0.286960 0.461651 0.056326
0.286960 0.258295 -0.365447
0.286960 -0.431536 0.132012
0.286960 -0.446014 0.194436
0.286960 -0.441048 0.223898
0.286960 0.463558 0.102146
0.286960 -0.427180 -0.243953
0.286960 0.041999 -0.482783
0.286960 0.353741 -0.344455
0.286960 -0.134850 0.457047
0.286960 -0.050348 0.446787
0.286960 -0.416952 0.177604
0.286960 -0.446288 0.137612
0.286960 0.399702 -0.265308
0.286960 -0.365418 -0.317222
0.286960 -0.336973 0.359530
0.286960 -0.456871 -0.165051
0.286960 0.283690 -0.380935
0.286960 0.018328 0.446451
0.286960 -0.446028 -0.169244
0.286960 0.447161 0.083444
0.286960 0.096659 -0.460304
0.286960 -0.127900 0.458436
0.286960 0.003606 -0.450582
0.286960 -0.433056 0.104596
0.286960 0.227053 0.418748
0.286960 -0.424762 0.230706
0.286960 -0.324296 -0.339982
0.286960 -0.101243 0.484467
0.286960 0.141219 0.472146
0.286960 0.105005 -0.465905
0.286960 -0.297177 -0.390809
0.286960 -0.406788 0.205127
0.286960 0.330476 -0.364302
0.286960 -0.009407 -0.488324
0.286960 -0.037420 0.441659
0.286960 -0.453665 0.160031
0.286960 -0.428110 0.136349
0.286960 0.364985 0.329116
0.286960 0.450154 0.133203
0.286960 -0.425742 0.157392
0.286960 -0.086382 0.464879
0.286960 0.454026 0.123012
0.286960 0.025521 -0.486841
0.286960 -0.317323 -0.324741
0.286960 0.452181 -0.028946
0.286960 -0.016888 -0.492690
0.286960 0.237300 -0.383660
0.286960 0.372008 0.321924
0.286960 -0.462216 -0.015517
0.286960 -0.171114 0.465067
0.286960 -0.287189 0.386314
0.286960 0.141743 0.441833
0.286960 0.455949 -0.004971
0.286960 -0.218923 -0.425895
0.286960 -0.475706 0.109617
0.286960 0.457969 -0.032086
0.286960 0.382428 -0.307487
0.286960 -0.366820 -0.270082
0.286960 0.277787 0.399716
0.286960 0.071090 -0.453983
0.286960 -0.417539 -0.253745
0.286960 -0.449444 0.095774
0.286960 0.337714 -0.332739
0.286960 -0.466268 -0.104565
0.286960 -0.433676 0.174800
0.286960 0.475143 0.033119
0.286960 0.028485 -0.463369
0.286960 -0.138267 0.469714
0.286960 0.255710 0.391100
0.286960 0.174819 -0.412064
0.286960 0.336864 0.349420
0.286960 0.458872 -0.120972
0.286960 -0.094171 -0.453360
0.286960 -0.264533 -0.410267
0.286960 0.097149 -0.480879
0.286960 -0.486513 -0.051801
0.286960 0.463029 0.133273
0.286960 -0.450111 0.154505
0.286960 -0.354128 -0.279625
0.286960 -0.155809 -0.453791
0.286960 -0.483270 -0.037880
0.286960 -0.407987 0.208725
0.286960 0.429918 -0.211461
0.286960 0.405770 -0.284832
0.286960 -0.431018 -0.146957
0.286960 0.358061 -0.267692
0.286960 0.476464 -0.092586
0.286960 0.475851 -0.051071
0.286960 0.122655 0.473664
0.286960 -0.437286 -0.210399
0.286960 0.194841 -0.440760
0.286960 -0.364470 0.323492
0.286960 -0.293172 0.372046
0.286960 -0.492905 -0.025580
0.286960 0.305577 0.370329
0.286960 -0.165639 0.437863
0.286960 -0.494015 0.053012
0.286960 0.374820 -0.308114
0.286960 0.456078 0.097638
0.286960 -0.489943 -0.077586
0.286960 0.446416 -0.167914
0.286960 0.487625 -0.010272
0.286960 -0.156916 0.466715
0.286960 -0.446550 -0.173346
0.286960 -0.438713 -0.133015
0.286960 0.444542 -0.044357
0.286960 0.350065 -0.349393
0.286960 -0.432423 0.152867
0.286960 -0.066924 -0.488989
0.286960 0.361612 0.279519
0.286960 -0.327625 -0.304363
0.286960 0.419187 0.215676
0.286960 0.195862 0.442348
0.286960 -0.102722 -0.467480
0.286960 0.270982 -0.357159
0.286960 -0.392888 0.260491
0.286960 0.448096 0.017480
0.286960 -0.272084 -0.418699
0.286960 -0.197726 -0.452227
0.286960 0.210826 -0.444583
0.286960 -0.180618 -0.423878
0.286960 -0.375651 0.285703
0.286960 0.406087 0.190106
0.286960 -0.083999 -0.449765
0.286960 0.411770 0.201381
0.286960 0.028135 -0.483810
0.286960 0.374820 -0.297197
0.286960 -0.275408 0.381264
0.286960 -0.316215 0.377756
0.286960 -0.442123 -0.158056
0.286960 0.306626 -0.370536
0.286960 0.449493 0.173869
0.286960 -0.468897 -0.167656
0.286960 0.041316 -0.445904
0.286960 -0.386255 -0.315531
0.286960 0.322297 0.362766
0.286960 -0.430289 -0.242026
0.080061 -0.386648 0.310971
-0.130582 -0.455726 0.197351
0.283725 -0.196259 -0.459652
0.146007 0.495817 0.050470
-0.041771 -0.328745 -0.375777
-0.112194 0.282899 0.407962
-0.130245 -0.477895 -0.140395
0.191146 0.085710 -0.492973
-0.077903 -0.274435 -0.417518
0.090957 -0.106873 0.484074
0.263738 0.492776 -0.077689
0.007029 0.476585 0.144499
-0.020717 0.002393 0.495876
-0.278438 0.498614 -0.006777
0.020881 -0.400610 -0.297269
-0.240836 -0.485841 -0.109072
0.173791 0.431736 0.246803
-0.002863 0.085873 0.488391
-0.013722 0.262338 0.421379
-0.173773 0.329415 0.371746
-0.288074 -0.485245 -0.111916
0.221044 0.097447 0.486398
-0.036301 0.309903 0.387979
0.254654 -0.135794 -0.481188
0.286121 0.265869 0.419226
0.250496 -0.074977 0.490024
-0.125129 0.456185 0.198843
0.203386 0.196658 -0.459881
0.215837 -0.285128 -0.410039
-0.263901 0.388747 0.309998
0.060635 0.398179 0.297496
-0.272600 0.382205 0.317647
0.284733 -0.352841 -0.353044
0.017064 -0.173953 -0.468551
0.236645 -0.307218 0.389411
-0.287727 -0.254158 -0.430094
0.255762 0.380271 -0.324606
-0.005786 -0.411482 -0.281900
-0.136772 0.090167 0.487652
0.246847 -0.098672 -0.490365
0.086354 0.337155 -0.369378
-0.202518 -0.044502 -0.498149
-0.217165 0.310364 -0.392164
-0.243264 0.496009 0.048102
0.023796 0.498612 -0.006684
-0.146364 0.498569 -0.010687
0.132996 -0.147918 0.473353
-0.256179 0.454875 0.201985
-0.227197 -0.288454 -0.407713
0.097538 -0.068122 0.491016
0.268785 -0.494478 0.051928
-0.126612 -0.289971 0.402422
0.026383 -0.457874 -0.196687
0.253855 -0.232253 0.438235
0.268998 0.086642 0.488259
0.168954 0.295364 -0.403480
-0.224713 -0.421226 -0.267139
0.162052 -0.495943 0.038371
0.151771 0.497317 -0.038615
0.253208 -0.266344 -0.422665
0.117475 0.183422 0.461028
-0.118212 0.415032 -0.278299
-0.199245 0.298721 0.396895
0.252627 -0.142176 0.474996
-0.267177 -0.280214 0.409155
0.195015 -0.370019 -0.335007
-0.139664 -0.458351 0.191502
0.128114 -0.029018 -0.499291
-0.221358 -0.046396 0.493592
0.254428 0.424432 0.259482
0.256171 0.192888 0.457271
0.206204 0.491390 0.082462
-0.008756 -0.484658 0.109902
0.223427 0.497376 -0.037299
-0.074460 0.176333 -0.468258
0.271755 0.398972 -0.301154
0.126962 -0.339797 0.361456
0.222650 0.321933 -0.382499
-0.288248 0.329996 -0.375580
0.096710 0.090210 0.487644
-0.174777 0.427188 0.254734
0.150483 -0.189709 0.457998
0.048470 0.498516 -0.001311
-0.111182 0.418952 0.267783
-0.209415 0.427191 -0.258879
0.144631 0.450463 0.211229
-0.261556 -0.107556 0.483931
0.155334 0.496808 0.038236
-0.100963 0.489890 0.090283
-0.163737 -0.449389 -0.215683
-0.015762 -0.465018 -0.179552
-0.109904 0.292062 0.401554
-0.239234 0.091778 0.487374
0.157601 -0.318886 -0.384353
0.152091 -0.390778 -0.310301
0.130087 0.169168 -0.470729
-0.046187 -0.306568 0.389901
0.176486 -0.485378 0.106875
-0.268970 -0.346037 -0.360033
0.160090 0.048773 -0.497836
-0.065448 -0.456312 0.196046
-0.088306 0.146723 0.473813
0.153520 -0.348504 -0.357499
0.144137 0.153731 0.471674
-0.137513 0.488177 0.098459
-0.221259 -0.138292 0.476068
0.263507 0.159930 -0.473916
-0.155841 -0.237257 0.435475
-0.187112 -0.283529 -0.411158
-0.020170 0.477574 0.140916
-0.046972 -0.136243 -0.481051
0.070113 -0.429511 -0.253250
-0.276632 -0.412223 0.276496
0.061071 0.103085 -0.489436
0.230642 -0.138387 0.476042
0.147114 -0.137226 -0.480751
0.198740 -0.125536 0.479590
0.059204 -0.367840 0.332876
0.047923 -0.019432 0.495483
-0.279040 0.497916 0.024559
-0.212075 -0.016313 -0.499861
-0.229945 0.481432 -0.132144
0.244006 0.368547 0.333564
0.158048 -0.037269 0.494332
0.285718 0.493778 0.065954
-0.231567 -0.192026 -0.461552
0.221637 0.125320 -0.484286
0.101218 -0.439011 0.231846
-0.277370 -0.492708 0.067774
0.274465 -0.428646 0.250458
-0.047245 -0.482251 -0.124614
0.167093 -0.027901 0.495091
-0.124631 0.047640 0.493568
0.122395 -0.468449 -0.169648
0.087349 0.434988 -0.245786
0.254527 -0.451368 0.207063
-0.287995 0.074494 0.490350
0.108423 -0.476592 0.140378
0.184625 0.055834 0.492682
-0.280639 -0.233441 0.437649
0.100293 -0.187503 0.458917
0.043865 0.434766 0.241518
0.257683 -0.164276 -0.472181
0.104466 -0.310566 0.386885
0.112570 -0.059480 0.492266
0.108355 0.495021 -0.060739
-0.032787 0.302019 0.394266
0.136714 -0.175645 0.463788
0.046602 -0.267988 -0.421663
0.141219 0.455639 -0.204183
-0.193116 -0.164014 0.467800
-0.163271 0.173270 -0.469314
0.093757 -0.489943 -0.089492
-0.066471 -0.030250 0.494901
-0.192884 -0.427855 -0.256137
-0.175834 0.395360 0.301233
0.103078 0.214497 -0.451842
-0.149612 0.350507 0.352141
0.130978 0.414123 -0.279599
0.125663 0.324477 -0.380316
-0.121917 -0.093701 -0.491220
-0.014410 0.044466 -0.498185
-0.183470 -0.483007 -0.121873
0.155054 0.193329 0.457074
-0.210527 0.484999 -0.117134
0.214548 -0.049888 -0.497567
-0.264190 -0.021265 0.495450
-0.229974 -0.029162 0.494989
-0.157350 -0.490394 0.081218
-0.188658 0.475927 0.146586
0.011046 -0.420097 -0.268850
-0.237431 0.419197 -0.271993
0.214552 0.432763 -0.249740
0.203457 -0.393743 0.302073
-0.186963 -0.004622 -0.500288
0.276029 0.489760 -0.095208
-0.278183 0.297611 -0.401785
-0.265433 -0.301122 -0.398517
0.067350 0.493361 -0.074287
-0.062743 0.356907 0.345567
0.255239 0.136507 -0.481198
0.220580 0.232089 -0.443174
0.196193 -0.312729 0.385164
0.236407 0.199725 -0.458603
-0.276345 0.114403 -0.487065
0.111917 -0.437331 0.235037
0.254060 0.463393 -0.185951
0.011108 0.085581 0.488441
-0.112477 -0.433415 -0.246440
-0.114317 0.400722 0.294125
-0.031523 -0.297720 -0.401230
-0.055476 0.132991 0.478002
-0.116166 -0.436164 0.237254
-0.256257 0.063423 0.491862
0.271318 0.475226 -0.152569
0.137271 0.355847 -0.351181
-0.225677 0.462214 0.184382
-0.284389 0.425887 -0.261019
-0.037536 0.420334 0.265689
-0.095233 0.082095 0.489041
0.215826 -0.490862 -0.083375
0.044850 -0.127567 -0.483545
-0.155184 0.097767 0.486343
0.087966 -0.275074 -0.417071
-0.272532 -0.466181 0.171436
-0.066266 -0.053878 -0.497136
0.112877 0.261565 -0.426477
-0.209995 -0.496111 -0.038540
-0.130192 -0.108919 -0.487977
0.053678 -0.328689 0.371469
0.208046 0.393921 0.303140
-0.025665 0.243960 0.432385
-0.077850 0.046915 -0.497987
0.068014 -0.495979 -0.040168
-0.100520 -0.369014 -0.336179
0.257345 0.435187 -0.245410
0.210070 -0.306177 -0.394487
-0.101467 0.059924 -0.496704
0.068650 -0.476822 0.139625
0.086126 0.091344 -0.491895
-0.169569 -0.313532 -0.388621
-0.209340 -0.115726 -0.486359
-0.154523 0.497895 -0.025721
0.131714 0.487586 0.101280
0.176367 -0.442428 0.225357
0.048770 0.112626 0.482986
-0.202644 0.257844 -0.428611
-0.252128 -0.428346 -0.255281
0.247908 0.393818 -0.307617
-0.265409 -0.484652 -0.114749
0.177294 0.478039 0.139232
-0.129176 0.486598 -0.110405
0.061077 0.401052 -0.298288
-0.091750 -0.476153 -0.146705
-0.096312 0.498605 -0.006288
-0.224243 -0.190951 0.457480
-0.208445 0.081306 0.489177
0.075475 0.457710 0.195184
0.197558 -0.026097 -0.499422
0.035291 -0.153998 -0.475633
0.033452 -0.129784 -0.483018
0.015746 -0.242046 -0.437206
0.032704 0.495145 -0.059593
-0.220209 0.490085 0.089351
-0.255519 0.477308 -0.145744
-0.025033 0.399055 -0.301049
0.046976 -0.475016 0.145543
-0.011157 -0.206328 0.451009
-0.045524 -0.481406 0.123586
0.201287 -0.315613 -0.386962
0.031424 -0.248467 0.429047
0.034654 0.128854 0.479129
0.239393 -0.292663 -0.404769
-0.169558 -0.153485 0.471432
-0.266434 0.463243 0.181913
0.050024 0.082912 0.488901
0.217443 0.472243 0.157266
-0.235727 -0.063237 0.491723
0.049091 -0.435894 0.237766
0.284099 0.370082 0.331775
0.176377 0.404516 0.289096
0.109747 0.493577 0.067342
0.063197 0.496050 -0.051220
0.010553 0.163647 -0.472634
0.250071 0.054145 0.492865
-0.061872 -0.396316 -0.302961
0.095804 0.473781 -0.157303
0.060244 0.426497 0.255938
0.129118 -0.491843 -0.076601
0.209158 0.454184 0.203642
0.257187 0.022313 0.495284
-0.219896 0.451040 -0.214431
0.211647 -0.493249 0.063299
0.259704 -0.064486 0.491542
0.063797 0.074601 -0.494580
-0.228749 0.317510 -0.386294
0.006164 0.485575 0.110883
-0.211161 0.296396 -0.402702
-0.273924 0.275300 0.413276
-0.219934 -0.452040 -0.210303
0.192681 -0.164075 0.467780
0.078693 -0.018452 -0.499765
0.197824 0.205881 -0.456036
0.095813 0.494520 -0.065375
0.187824 -0.419279 -0.270088
-0.117727 0.280625 -0.413913
0.133084 0.435209 -0.245366
0.183316 0.148952 0.473133
-0.164733 -0.254747 -0.429735
-0.057771 -0.444593 0.221245
-0.032193 -0.440585 -0.233550
-0.201108 0.036602 0.494643
-0.124055 0.485350 0.111957
-0.084789 -0.471325 0.157640
0.094037 0.498536 -0.011431
-0.248337 0.206195 -0.455905
-0.172842 0.442805 -0.230941
-0.248619 0.041898 -0.498393
0.184629 0.436905 0.237788
0.120718 -0.497368 0.010264
0.056703 0.498328 0.009082
-0.142281 0.481824 -0.130495
-0.184093 0.366365 0.335851
-0.035230 0.218325 0.445857
0.258546 0.415914 -0.277038
0.091538 -0.391237 0.305215
-0.200270 -0.440072 -0.234591
-0.010374 -0.374580 -0.329693
0.129996 -0.283679 -0.411053
-0.216187 0.445997 -0.224878
-0.254359 -0.496971 0.019112
-0.175563 0.283138 -0.412254
-0.121029 -0.473797 -0.154146
0.163040 -0.050595 0.493252
-0.046776 0.216472 -0.450869
0.268949 -0.475190 -0.150106
-0.259723 0.494203 0.063013
0.042343 0.430601 -0.253285
-0.059273 -0.378585 0.321012
0.206708 -0.390274 -0.310969
-0.020499 -0.391878 0.304411
-0.155959 -0.495897 0.038801
0.152874 -0.355488 0.346179
-0.088010 0.221572 0.444172
-0.034186 0.478430 -0.142065
-0.198657 -0.494661 0.050236
-0.140294 0.416152 0.272025
-0.176691 -0.438222 -0.238058
-0.289710 0.293816 -0.404648
-0.078734 0.490901 0.085458
0.088216 -0.407875 -0.287362
0.218850 0.101436 -0.489781
-0.237672 0.385665 -0.317842
-0.263403 -0.080399 0.489240
-0.022717 0.335556 0.366184
-0.007497 -0.397601 0.297235
0.039619 -0.224990 -0.446187
-0.087419 0.489584 0.091742
0.107567 -0.493183 0.063913
0.269081 -0.489666 -0.090817
0.189463 -0.216609 -0.450520
-0.276849 0.174655 -0.468837
0.241921 0.447765 0.216706
0.282138 -0.421761 -0.266328
-0.122575 0.231633 0.438875
0.113444 0.162151 0.469010
-0.254540 0.320448 0.379571
-0.059242 -0.095203 -0.490962
-0.080545 0.285991 0.405799
0.258612 0.088655 0.487912
-0.063836 -0.460912 0.185479
0.009221 -0.322495 -0.381438
-0.285996 -0.077845 -0.493950
0.220828 -0.246459 -0.434788
0.029121 -0.143256 0.474698
-0.024222 0.469116 -0.170699
0.240406 -0.097222 0.486096
-0.028118 -0.077408 0.489672
0.009551 0.098071 -0.490486
0.148312 0.494123 -0.069047
0.174424 0.106596 -0.488700
-0.272127 0.348698 -0.358140
0.055135 -0.215135 0.446670
-0.042479 -0.266751 0.418043
0.032516 0.408954 0.282927
0.193003 -0.497317 -0.012717
0.094723 0.027450 -0.499564
0.208838 -0.046261 0.493603
-0.169944 -0.490988 0.077767
0.184011 -0.283376 -0.411264
-0.072010 0.479143 0.135232
0.205014 -0.236248 -0.440259
0.105946 0.202775 0.452834
0.121061 -0.402524 -0.294732
-0.181877 0.252144 -0.431879
0.265277 -0.151671 0.472058
0.068435 -0.058474 0.492412
0.070463 -0.497282 -0.014625
0.221879 0.474789 -0.153999
-0.078031 -0.452838 0.203788
-0.147036 -0.354524 0.347118
-0.001034 0.490542 -0.090666
0.149801 0.420244 -0.270275
-0.131734 -0.407127 -0.288495
-0.108595 -0.493562 0.060401
0.080577 0.318134 0.381416
-0.005790 0.225920 0.441883
0.110026 0.213031 0.448232
-0.230949 -0.452750 -0.208862
-0.177521 -0.210422 0.448992
-0.050233 0.429537 0.250637
-0.034921 -0.487909 0.095653
-0.251135 -0.362769 -0.342847
-0.273982 -0.486905 -0.103995
-0.082782 0.457711 -0.199564
0.269678 -0.493039 0.065245
-0.013477 0.467572 -0.174814
-0.054134 0.303967 0.392712
-0.216848 -0.306650 0.389839
-0.160816 0.055212 0.492749
-0.174882 0.493457 -0.073731
-0.186649 0.206393 -0.455823
-0.093958 -0.006848 -0.500285
-0.006276 -0.052395 0.493106
-0.052758 -0.328862 -0.375671
-0.249200 -0.142535 0.474897
0.127371 -0.409223 0.280786
0.281468 -0.414628 -0.277134
-0.131756 0.050435 -0.497702
-0.158815 0.297428 -0.401923
-0.203619 -0.039472 0.494153
0.176270 0.020034 0.495386
-0.281099 -0.477410 0.137698
-0.116881 -0.445857 -0.222851
-0.047786 0.497406 -0.036635
-0.107873 -0.438934 -0.236816
0.019653 -0.066628 -0.495758
-0.138053 -0.470084 -0.164909
-0.167763 0.225580 -0.446381
-0.190315 -0.415144 -0.276351
-0.085820 -0.327426 -0.376972
0.163635 -0.475276 0.144691
0.004691 -0.437105 0.235466
-0.166794 -0.491623 -0.078119
-0.144091 0.163684 0.468435
-0.203959 0.495832 0.050283
-0.203861 0.475241 -0.152520
-0.125348 -0.488916 -0.094394
0.043620 -0.173576 -0.468692
0.104642 -0.435904 -0.242101
0.116195 -0.489020 0.089198
0.094756 -0.368092 -0.337253
-0.146458 0.485401 0.111710
-0.230234 0.434187 0.242529
0.193847 0.059743 -0.496730
-0.110851 0.478526 0.137468
0.035857 0.082358 0.488996
0.021003 -0.462650 -0.185231
-0.258123 0.420687 0.265155
0.021988 -0.231792 -0.442605
0.019842 0.411309 -0.283621
-0.240924 0.494718 0.059452
-0.091592 -0.432051 0.244873
0.002489 -0.298336 -0.400738
0.271743 -0.100961 -0.489868
0.196657 -0.494828 0.048685
0.045182 0.018346 0.495462
-0.284104 0.371834 -0.333950
-0.086198 0.385949 -0.317485
-0.111585 -0.192893 0.456670
0.244281 0.024064 0.495206
0.230845 0.313967 -0.389334
0.192356 -0.292456 -0.404914
-0.164539 -0.337620 -0.367739
-0.161179 0.496982 0.036083
0.170123 0.446568 0.219134
0.089802 -0.067226 -0.495694
-0.274660 -0.186791 -0.463733
-0.089242 0.379108 0.321256
0.116302 -0.263123 -0.424629
0.002303 -0.495435 -0.046886
0.177405 0.148634 -0.477813
-0.175482 0.203259 -0.457129
-0.262329 -0.343513 0.357838
-0.278109 0.304086 0.392617
-0.277227 -0.464932 -0.179757
-0.257856 -0.276172 0.411823
-0.210265 0.454179 0.203654
0.015555 0.376849 0.323888
-0.156976 0.361341 -0.345536
-0.221972 -0.496683 -0.031481
0.159221 0.216079 -0.451063
-0.095928 -0.354376 -0.351467
0.018500 0.231298 0.439051
-0.102254 0.432561 0.245363
-0.165765 -0.495742 -0.043098
0.160178 0.181906 0.461597
-0.037125 -0.126167 0.479416
-0.219943 -0.490706 0.079405
-0.133959 0.397978 0.297762
-0.199985 -0.340682 0.360594
-0.214466 -0.459796 -0.192076
-0.224704 -0.497429 -0.006487
-0.227460 -0.401662 0.291597
0.196979 -0.055640 -0.496946
0.033088 0.498243 0.013808
0.118456 -0.157131 -0.474678
0.056250 -0.497139 -0.022580
0.010328 -0.496062 -0.039151
-0.223346 -0.366529 -0.338984
0.273542 0.242125 -0.437625
0.090497 -0.346728 -0.359323
-0.066968 0.444686 0.222953
-0.049074 0.456842 -0.201502
-0.146572 0.078201 0.489712
0.087710 -0.497193 0.014166
0.259967 0.149845 -0.477395
-0.096572 -0.485734 -0.109585
0.198052 -0.220391 0.444080
0.142521 -0.408086 -0.287044
0.133192 -0.165853 0.467166
-0.103219 0.437129 -0.241720
-0.001673 -0.146757 -0.477843
-0.031651 0.252441 -0.431709
0.148040 0.488756 0.095698
0.152382 -0.214434 -0.451496
0.024102 -0.030910 0.494847
-0.152779 -0.188159 0.458644
-0.249246 -0.481419 -0.127629
-0.063376 -0.397701 0.297108
-0.047381 0.336898 -0.369628
0.157924 -0.056285 -0.496876
0.214923 -0.491548 0.074514
-0.102367 -0.069488 0.490818
0.141261 -0.114258 -0.486708
-0.238781 -0.437921 0.233917
-0.167416 -0.278640 0.410194
0.035599 0.370403 -0.335530
-0.178037 0.355327 0.347190
0.285674 -0.466041 0.171811
-0.106851 -0.061901 -0.496269
0.038454 0.426129 0.256580
0.132816 0.318773 0.380906
0.122000 0.427716 0.253813
-0.176058 -0.190954 -0.462033
0.055652 -0.151591 -0.476368
0.020152 -0.242830 0.432279
-0.034170 0.448023 -0.221031
-0.144063 -0.296111 -0.402358
0.186068 0.334473 -0.371739
-0.028803 -0.076670 -0.494152
0.270265 -0.371439 -0.333353
-0.215261 -0.446470 -0.221607
0.113868 -0.332892 0.367863
-0.231425 -0.018281 -0.499773
-0.010750 -0.074211 0.490135
0.222867 -0.334486 0.366495
0.162328 0.276832 0.412205
-0.070990 -0.341824 0.359482
0.265889 -0.281527 -0.412558
-0.282724 -0.269222 -0.420911
-0.188359 0.481763 -0.130751
-0.031205 0.496958 0.036381
-0.020259 0.484184 0.116972
0.137663 0.420149 -0.270430
0.200446 -0.304091 0.391770
0.133612 -0.297339 0.396864
-0.149489 -0.328476 -0.376021
0.222964 -0.129913 0.478382
0.080153 -0.494516 -0.058123
0.141216 -0.383118 0.315397
-0.265138 0.425059 0.258446
0.101995 0.076610 -0.494289
0.206871 -0.497470 -0.004209
0.068891 -0.105937 -0.488685
-0.101782 -0.167137 -0.471108
-0.169168 0.364664 -0.341867
-0.163916 0.466210 0.174756
0.271073 0.421195 -0.268714
-0.107370 0.340357 -0.366261
0.206814 0.379632 -0.325341
-0.152205 0.463977 -0.184395
0.219049 -0.379254 0.320244
0.214664 -0.487715 0.096777
-0.138016 0.232948 -0.442750
0.161340 -0.477221 -0.142836
0.112521 -0.369820 -0.335240
-0.130671 0.341563 -0.365087
0.226773 -0.242667 0.432373
-0.048083 0.202731 0.452854
-0.247419 0.052101 0.493086
0.089694 0.319641 -0.384466
0.235161 -0.107472 0.483949
0.230851 0.170105 0.466025
-0.209595 0.434846 -0.246057
-0.080240 -0.201743 0.452980
0.200561 -0.014934 -0.499923
0.072775 0.404978 -0.292674
0.040901 0.109354 -0.488122
-0.231842 -0.472898 0.152486
-0.108270 -0.398557 -0.299991
0.252007 -0.497490 -0.003067
0.280907 -0.305590 0.390639
0.021677 -0.125488 -0.484039
-0.176456 -0.407174 -0.288424
-0.017192 -0.370277 0.330184
-0.043969 -0.440862 -0.232989
-0.081062 -0.494796 -0.054770
-0.189337 0.212388 0.448521
0.197090 0.422173 0.262905
0.154587 -0.000001 0.495833
0.014706 0.042054 0.494171
-0.144998 -0.493824 0.057976
-0.277792 -0.452976 0.203480
0.179668 0.094303 -0.491275
0.269101 0.466215 0.174741
0.053765 -0.192081 -0.461527
-0.121784 0.358914 0.343505
-0.214305 -0.362880 -0.342732
0.058748 0.454769 0.202238
0.195241 -0.403248 -0.293772
0.143624 -0.159146 -0.474063
0.114166 -0.492051 -0.075157
0.244258 0.384549 -0.319241
-0.150499 -0.469223 -0.167405
-0.058766 -0.345046 0.356345
-0.115976 0.498149 0.019019
-0.085031 -0.117449 -0.485949
0.003123 -0.078502 -0.493837
-0.128457 -0.481339 -0.127916
-0.233302 0.269748 0.416861
0.012725 -0.130210 0.478300
0.119355 0.101205 0.485700
-0.131400 -0.237005 -0.439860
-0.214496 -0.353341 0.348269
-0.068025 0.377947 0.322610
0.156671 0.237468 0.435803
-0.156158 0.079064 -0.493934
0.160901 0.459350 -0.195912
-0.028155 -0.343246 -0.362644
0.095464 -0.476698 0.140031
-0.108602 0.473636 -0.157780
-0.213437 -0.381552 0.317362
0.068681 0.449870 -0.217039
-0.221448 -0.376823 0.322957
0.034723 -0.381443 0.317499
-0.238879 -0.336037 0.365116
0.046713 0.209017 0.450033
-0.034951 0.136443 -0.481215
0.010752 0.313483 0.385124
-0.178178 0.433057 0.244498
0.066172 -0.126720 0.479263
-0.258416 0.223573 0.443119
0.089214 0.006977 0.495959
0.089393 -0.422177 -0.265699
-0.250428 -0.388634 -0.313143
0.090710 -0.476748 -0.144550
0.019796 0.491654 0.080635
-0.145649 -0.145715 0.474020
-0.109579 -0.494708 0.049803
-0.126711 -0.483107 0.116427
0.244831 0.412952 0.276871
-0.046945 0.313777 0.384890
-0.102670 0.467688 0.170471
0.178103 -0.429838 -0.252678
-0.240015 -0.020764 0.495459
-0.219050 0.041805 -0.498401
0.180335 -0.294825 -0.403258
0.143269 0.118560 0.481575
0.097009 0.327403 0.373568
-0.239312 -0.165688 -0.471652
0.047318 0.379127 0.321234
-0.073596 0.309974 0.387923
-0.190475 0.041415 0.494240
0.197381 -0.449745 0.210679
0.016521 0.231395 -0.443516
-0.169695 -0.419632 -0.269554
0.015584 0.142932 0.474969
0.248379 -0.478392 -0.138594
-0.136893 -0.476869 0.139470
