0.286960 0.450394 0.037936
0.286960 -0.093195 0.468489
0.286960 0.276994 0.391168
0.286960 -0.410854 -0.172654
0.286960 0.401197 0.200691
0.286960 -0.377687 0.292924
0.286960 -0.425240 -0.171451
0.286960 -0.438731 0.113821
0.286960 0.174925 -0.440731
0.286960 -0.479894 0.063705
0.286960 -0.490707 0.074392
0.286960 -0.430187 -0.227152
0.286960 0.279343 0.351165
0.286960 0.492118 0.061246
0.286960 0.238672 0.423423
0.286960 0.459449 0.121052
0.286960 0.472145 -0.111970
0.286960 0.436574 0.092682
0.286960 0.165904 -0.416629
0.286960 -0.229652 -0.405113
0.286960 0.379070 -0.285590
0.286960 -0.465278 -0.176744
0.286960 -0.372153 0.276504
0.286960 0.331502 0.346537
0.286960 0.093049 -0.466876
0.286960 0.222205 -0.437938
0.286960 0.053608 -0.453000
0.286960 -0.490962 -0.053705
0.286960 0.328725 0.313915
0.286960 0.001408 0.450709
0.286960 0.372440 -0.333154
0.286960 0.437826 0.107426
0.286960 -0.451697 0.136764
0.286960 0.023179 0.488946
0.286960 -0.278168 0.381934
0.286960 0.460721 -0.116812
0.286960 0.411571 -0.239579
0.286960 0.029769 -0.446707
0.286960 -0.336426 0.333054
0.286960 -0.051649 0.488481
0.286960 -0.392426 0.260340
0.286960 -0.047625 0.468056
0.286960 0.291402 -0.357985
0.286960 0.458793 -0.142293
0.286960 0.102327 0.465649
0.286960 0.077190 0.486226
0.286960 0.465517 -0.051127
0.286960 -0.392073 0.218063
0.286960 -0.037018 0.484329
0.286960 -0.427686 0.158771
0.286960 0.327246 0.352640
0.286960 0.460252 -0.007866
0.286960 -0.217490 0.434404
0.286960 -0.421840 0.222997
0.286960 0.489858 -0.064798
0.286960 -0.181704 0.454743
0.286960 0.349573 -0.300648
0.286960 0.162386 -0.432130
0.286960 -0.419186 0.242125
0.286960 -0.044484 0.490296
0.286960 0.476355 0.042489
0.286960 -0.102029 -0.436969
0.286960 0.405727 -0.274825
0.286960 0.465895 0.161125
0.286960 0.378829 -0.255040
0.286960 -0.115274 -0.433296
0.286960 -0.151858 0.462619
0.286960 -0.435394 0.238568
0.286960 -0.302621 0.345302
0.286960 0.453300 -0.057806
0.286960 -0.356510 -0.274498
0.286960 -0.430514 0.198146
0.286960 -0.173124 0.418143
0.286960 0.256474 0.379016
0.286960 -0.265107 -0.397158
0.286960 0.153234 -0.464321
0.286960 0.246689 0.375132
0.286960 -0.479025 -0.069353
0.286960 0.329318 0.343531
0.286960 0.392706 0.276508
0.286960 -0.259257 0.422311
0.286960 0.459790 0.033521
0.286960 -0.338178 -0.331096
0.286960 -0.219235 -0.413849
0.286960 -0.414037 0.206269
0.286960 -0.098175 -0.487010
0.286960 -0.415150 -0.179063
0.286960 0.325469 0.371734
0.286960 0.291849 0.366559
0.286960 0.390496 0.280341
0.286960 0.439484 0.116875
0.286960 0.315073 0.317559
0.286960 -0.386929 0.305167
0.286960 -0.051166 -0.456380
0.286960 -0.451386 0.039051
0.286960 0.102563 0.460391
0.286960 0.482105 0.065124
0.286960 -0.458389 -0.124264
0.286960 -0.466099 0.113351
0.286960 0.132149 -0.473158
0.286960 -0.334821 0.360128
0.286960 -0.309554 0.333755
0.286960 -0.437070 0.169201
0.286960 0.210971 -0.411878
0.286960 0.240909 -0.400001
0.286960 0.380302 -0.277024
0.286960 0.463503 0.170275
0.286960 0.330557 -0.335230
0.286960 0.160948 0.450800
0.286960 0.479940 0.090466
0.286960 0.449103 -0.214838
0.286960 0.094648 0.479470
0.286960 0.460860 0.111399
0.286960 0.229562 -0.432346
0.286960 -0.061720 -0.463382
0.286960 0.166677 -0.435397
0.286960 -0.467332 0.051930
0.286960 -0.467947 0.151191
0.286960 -0.305065 -0.370829
0.286960 -0.342136 0.304605
0.286960 -0.400137 0.234520
0.286960 0.173613 -0.428089
0.286960 -0.492854 0.017757
0.286960 -0.383827 -0.269299
0.286960 -0.436790 0.121558
0.286960 -0.218229 -0.435712
0.286960 0.278676 0.400470
0.286960 -0.345135 0.309190
0.286960 0.055218 -0.470363
0.286960 -0.466492 -0.104796
0.286960 0.455703 -0.063378
0.286960 0.409434 -0.266776
0.286960 -0.409064 0.220918
0.286960 -0.416070 -0.160859
0.286960 0.186429 -0.439971
0.286960 -0.376762 -0.240159
0.286960 0.299102 0.376185
0.286960 0.392684 0.298784
0.286960 -0.123762 -0.454679
0.286960 -0.216696 -0.429620
0.286960 -0.376917 -0.316400
0.286960 0.414863 0.164379
0.286960 -0.143131 -0.449139
0.286960 0.462469 -0.141279
0.286960 0.180326 -0.437430
0.286960 -0.434927 -0.243492
0.286960 -0.146065 0.450299
0.286960 0.473654 0.144260
0.286960 0.374591 0.326010
0.286960 -0.286696 0.362054
0.286960 0.418683 0.151378
0.286960 -0.380892 -0.239377
0.286960 0.343537 0.345288
0.286960 0.422388 0.261768
0.286960 0.084838 0.488516
0.286960 -0.051358 -0.461309
0.286960 -0.475413 0.101368
0.286960 -0.103471 0.439300
0.286960 -0.039515 0.493270
0.286960 -0.156942 -0.436557
0.286960 0.475229 0.135432
0.286960 0.031411 -0.490571
0.286960 0.122482 -0.456561
0.286960 -0.068314 0.461471
0.286960 0.446068 -0.159884
0.286960 -0.243433 -0.432731
0.286960 -0.484495 0.037466
0.286960 0.245720 0.401708
0.286960 -0.433269 0.229777
0.286960 0.434435 -0.113558
0.286960 -0.471540 -0.042621
0.286960 0.289823 -0.382437
0.286960 0.335549 -0.324326
0.286960 0.207123 0.423082
0.286960 -0.428597 -0.122594
0.286960 0.468399 0.014504
0.286960 -0.046068 0.448047
0.286960 -0.253942 0.396824
0.286960 0.487070 -0.049708
0.286960 0.291593 0.345664
0.286960 -0.456570 0.038430
0.286960 -0.425059 0.189114
0.286960 -0.152541 0.466667
0.286960 0.464198 -0.182361
0.286960 -0.458507 0.049449
0.286960 -0.306957 0.376914
0.286960 0.307000 -0.357341
0.286960 -0.204960 -0.397163
0.286960 0.165362 -0.470431
0.286960 -0.103858 -0.444988
0.286960 -0.482709 -0.024974
0.286960 0.443477 -0.153694
0.286960 0.254747 -0.426335
0.286960 -0.118181 0.442602
0.286960 0.160065 0.427273
0.286960 0.397740 -0.267124
0.286960 0.441883 -0.213963
0.286960 -0.197960 -0.431611
0.286960 0.421600 -0.210320
0.286960 0.198653 0.427718
0.286960 -0.470989 0.125859
0.286960 0.486198 -0.032666
0.286960 -0.230220 -0.420817
0.286960 -0.389568 -0.265558
0.286960 -0.135488 0.474024
0.286960 -0.476789 -0.036445
0.286960 0.409301 0.274984
0.286960 0.375781 -0.297530
0.286960 0.443773 -0.121152
0.286960 0.461859 0.051907
0.286960 -0.444829 0.047447
0.286960 0.100805 -0.468734
0.286960 0.209623 -0.443018
0.286960 0.440012 -0.093653
0.286960 0.001374 -0.453350
0.286960 -0.111553 0.467094
0.286960 0.364137 0.305145
0.286960 -0.422562 0.182641
0.286960 0.168575 0.437550
0.286960 -0.377436 -0.284321
0.286960 0.230760 0.437542
0.286960 0.385118 0.228953
0.286960 -0.433495 -0.234724
0.286960 0.128477 -0.470679
0.286960 0.092231 0.444568
0.286960 -0.144884 0.441716
0.286960 0.120772 -0.441738
0.286960 0.191159 0.436422
0.286960 -0.176234 0.411944
0.286960 -0.065266 -0.478532
0.286960 0.445917 -0.205115
0.286960 0.478593 -0.125345
0.286960 -0.204281 0.449962
0.286960 -0.403841 -0.219797
0.286960 0.319943 0.359683
0.286960 -0.433804 -0.186939
0.286960 -0.132561 0.438458
0.286960 0.470982 -0.165003
0.286960 -0.213262 0.419772
0.286960 -0.292091 -0.391105
0.286960 0.004669 -0.491122
0.286960 -0.187651 -0.418517
0.286960 -0.403405 -0.227668
0.286960 -0.479124 -0.134062
0.286960 0.491731 0.023615
0.286960 0.274011 0.350480
0.286960 -0.180985 0.460822
0.286960 -0.293186 -0.338122
0.286960 -0.449046 0.104832
0.286960 -0.186832 0.446742
0.286960 -0.067099 0.448630
0.286960 -0.302931 0.392502
0.286960 0.452744 0.075538
0.286960 0.450576 0.154506
0.286960 -0.109209 0.444697
0.286960 -0.138661 0.471330
0.286960 0.088424 -0.485271
0.286960 0.224238 0.436285
0.286960 0.216090 -0.427795
0.286960 0.342479 -0.336116
0.286960 0.418418 0.166891
0.286960 0.341048 -0.294305
0.286960 -0.463589 -0.072879
0.286960 0.419679 -0.219208
0.286960 0.242240 -0.433641
0.286960 0.425659 0.229642
0.286960 0.461337 0.069868
0.286960 -0.113256 -0.451334
0.286960 -0.383183 0.258908
0.286960 -0.012167 -0.480899
0.286960 0.343538 -0.286981
0.286960 -0.471208 0.136484
0.286960 -0.158030 -0.455815
0.286960 -0.297903 -0.351670
0.286960 0.169415 -0.422806
0.286960 0.225752 -0.431450
0.286960 0.456510 -0.073135
0.286960 -0.407281 -0.218593
0.286960 -0.088204 0.436669
0.286960 -0.017454 -0.465972
0.286960 0.458482 0.124986
0.286960 -0.320878 0.366282
0.286960 0.388576 0.224509
0.286960 0.216803 -0.396344
0.286960 -0.262572 0.364353
0.286960 0.347251 -0.331419
0.286960 -0.409965 0.254745
0.286960 -0.447077 -0.220268
0.286960 -0.309018 0.329821
0.286960 -0.077876 -0.441348
0.286960 0.470196 -0.094663
0.286960 0.487154 -0.084426
0.286960 -0.138221 0.459120
0.286960 0.317882 -0.332681
0.286960 0.257857 0.367941
0.286960 -0.039656 -0.473175
0.286960 0.422281 -0.192967
0.286960 -0.403828 0.215736
0.286960 0.286719 0.381834
0.286960 0.295645 -0.401573
0.286960 -0.301586 -0.362498
0.286960 -0.015206 -0.458696
0.286960 -0.447084 0.072917
0.286960 0.434543 -0.229493
0.286960 0.223017 -0.423888
0.286960 0.453526 0.068825
0.286960 -0.424167 -0.136446
0.286960 0.197887 -0.453030
0.286960 -0.438601 -0.143939
0.286960 -0.310043 0.348330
0.286960 0.132576 -0.449480
0.286960 -0.296028 -0.355523
0.286960 0.182915 -0.428331
0.286960 0.128326 -0.443380
0.286960 0.012540 0.463516
0.286960 -0.283577 0.361188
0.286960 0.257862 -0.395257
0.286960 -0.454453 -0.151070
0.286960 -0.460256 -0.139522
0.286960 -0.229447 -0.387149
0.286960 0.319489 0.371933
0.286960 -0.364118 0.316359
0.286960 0.447828 -0.074388
0.286960 0.397235 0.201431
0.286960 0.263092 0.386172
0.286960 0.432098 -0.152720
0.286960 -0.167531 -0.424415
0.286960 0.435217 -0.170744
0.286960 0.454664 -0.180849
0.286960 0.320548 0.356099
0.286960 0.257444 -0.418845
0.286960 -0.476396 -0.078461
0.286960 -0.394362 0.238181
0.286960 -0.235249 0.422105
0.286960 -0.080441 -0.465404
0.286960 -0.158131 -0.459367
0.286960 -0.269492 -0.365315
0.286960 0.464704 0.008712
0.286960 0.444753 -0.172119
0.286960 -0.130452 0.458958
0.286960 -0.202517 0.431274
0.286960 -0.395298 -0.218038
0.286960 -0.252804 -0.374093
0.286960 0.119429 -0.445977
0.286960 -0.288337 -0.348807
0.286960 -0.336421 -0.324590
0.286960 -0.422714 0.152238
0.286960 0.379987 -0.301456
0.286960 0.326291 0.307880
0.286960 -0.331954 0.333053
0.286960 0.134136 0.434001
0.286960 -0.238025 -0.386589
0.286960 0.127545 0.462580
0.286960 -0.361132 0.280129
0.286960 0.035971 -0.451119
0.286960 0.476958 0.011210
0.286960 -0.016336 -0.487581
0.286960 -0.362548 -0.331344
0.286960 -0.218909 0.444798
0.286960 -0.439841 -0.126046
0.286960 0.065968 -0.459175
0.286960 0.301124 -0.372657
0.286960 0.472308 -0.072645
0.286960 0.321914 0.306537
0.286960 -0.075638 0.441127
0.286960 0.339250 -0.318917
0.286960 -0.073474 -0.488869
0.286960 -0.320485 0.369495
0.286960 0.106147 0.462389
0.286960 -0.447154 -0.176763
0.286960 -0.261299 -0.383205
0.286960 -0.443881 -0.066208
0.286960 0.434449 -0.139238
0.286960 -0.247949 -0.400700
0.286960 -0.276470 -0.415857
0.286960 0.261703 0.382568
0.286960 -0.329762 -0.334301
0.286960 -0.222956 0.418745
0.286960 -0.444480 -0.016750
0.286960 -0.450675 -0.019947
0.286960 0.268944 0.395400
0.286960 0.219967 0.422626
0.286960 -0.431214 -0.161715
0.286960 -0.481738 -0.009539
0.286960 -0.224797 -0.424456
0.286960 -0.320228 -0.351078
0.286960 -0.229000 -0.425648
0.286960 -0.241970 0.392915
0.286960 -0.426930 -0.156787
0.286960 -0.339380 0.358209
0.286960 0.240093 -0.386814
0.286960 0.008106 0.451348
0.286960 -0.022424 0.479329
0.286960 0.120404 0.454599
0.286960 0.093141 -0.461002
0.286960 0.371776 0.272369
0.286960 0.024679 0.444857
0.286960 0.217450 -0.450095
0.286960 -0.227644 0.412427
0.286960 0.471677 -0.117078
0.286960 0.183484 -0.462048
0.286960 0.419107 0.263012
0.286960 -0.467129 -0.065782
0.286960 -0.454449 0.173122
0.286960 0.299598 0.389735
0.286960 -0.155432 0.435586
0.286960 0.196613 -0.433433
0.286960 -0.137825 0.426805
0.286960 0.381410 0.233057
0.286960 0.240077 -0.430378
0.286960 -0.150034 -0.450204
0.286960 -0.446152 -0.102451
0.286960 0.190193 -0.454612
0.286960 0.181694 0.455225
0.286960 0.367640 0.251322
0.286960 -0.007864 0.444528
0.286960 -0.466134 0.154305
0.286960 0.466047 -0.107457
0.286960 0.460836 0.015144
0.286960 -0.387421 -0.247312
0.286960 -0.461987 0.147275
0.286960 0.455823 -0.021566
0.286960 -0.353650 -0.340788
0.286960 0.114140 0.434731
0.286960 0.467500 0.125244
0.286960 0.339646 -0.313923
0.286960 -0.346399 -0.304686
0.286960 0.421001 -0.153444
0.286960 -0.476632 0.022280
0.286960 -0.098194 -0.467994
0.286960 -0.075799 -0.475447
0.286960 -0.475114 0.117463
0.286960 -0.044297 -0.477517
0.286960 -0.126162 0.435600
0.286960 0.481351 0.075078
0.286960 0.331551 -0.361770
0.286960 -0.274471 -0.395756
0.286960 0.433793 0.163863
0.286960 -0.436726 0.214282
0.286960 0.356545 -0.331842
0.286960 0.260738 0.373626
0.286960 -0.050556 0.477050
0.286960 -0.143123 -0.462234
0.286960 -0.214003 -0.426711
0.286960 0.227744 0.404202
0.286960 -0.406514 -0.183707
0.286960 -0.410222 -0.259905
0.286960 -0.465936 0.139935
0.286960 0.423285 -0.199950
0.286960 -0.461007 -0.079007
0.286960 0.269853 -0.420335
0.286960 -0.396569 0.251194
0.286960 0.454630 0.084093
0.286960 -0.437175 -0.112767
0.286960 0.332840 -0.315964
0.286960 0.483767 0.116142
0.286960 0.391538 0.218264
0.286960 0.371155 -0.288657
0.286960 0.470095 0.089605
0.286960 0.290068 0.341155
0.286960 -0.195545 -0.417150
0.286960 0.459052 0.108966
0.286960 0.413734 -0.208628
0.286960 -0.252847 -0.407640
0.286960 -0.359053 0.263690
0.286960 -0.415041 -0.174606
0.286960 -0.307474 -0.382706
0.286960 0.227200 0.418716
0.286960 0.301903 -0.332069
0.286960 -0.283133 -0.357293
0.286960 0.159404 0.418728
0.286960 -0.439989 -0.228266
0.286960 0.056626 -0.480585
0.286960 -0.139295 -0.438999
0.286960 -0.487701 -0.084631
0.286960 -0.201886 -0.418450
0.286960 -0.380051 0.302503
0.286960 0.017384 0.457370
0.286960 -0.047419 -0.445624
0.286960 -0.320518 -0.373712
0.286960 -0.365266 0.265997
0.286960 -0.449031 -0.072429
0.286960 0.107147 -0.445733
0.286960 -0.452969 -0.121607
0.286960 0.323677 -0.353506
0.286960 -0.371693 0.293934
0.286960 -0.131881 -0.478152
0.286960 -0.411246 -0.267841
0.286960 0.470281 -0.022554
0.286960 -0.251185 0.423603
0.286960 -0.457241 -0.052777
0.286960 0.445368 0.133982
0.286960 -0.112667 0.461974
0.286960 -0.237087 -0.405800
0.286960 -0.461483 0.085812
0.286960 0.480397 0.019261
0.286960 0.124043 0.458848
0.286960 -0.114778 -0.439499
0.286960 0.176164 0.435049
0.286960 0.108757 -0.439120
0.286960 0.176449 -0.464056
0.286960 -0.486756 -0.035605
0.286960 -0.377566 0.296391
0.286960 0.400746 -0.218707
0.286960 -0.149437 0.433685
0.286960 -0.468154 0.099215
0.286960 -0.365406 -0.310459
0.286960 -0.219795 0.388221
0.286960 0.144810 0.458690
0.286960 -0.433431 0.119835
0.286960 -0.426648 -0.191000
0.286960 0.138163 0.459788
0.286960 0.371009 -0.252881
0.286960 -0.459326 0.045771
0.286960 -0.094879 -0.478069
0.286960 0.086601 0.448351
0.286960 0.260922 0.403281
0.286960 0.161405 -0.422181
0.286960 0.149185 0.465004
0.286960 -0.100697 -0.456213
0.286960 -0.116807 -0.451119
0.286960 -0.032043 -0.494517
0.286960 -0.323763 0.368466
0.286960 -0.320156 -0.361131
0.286960 0.161922 -0.451874
0.286960 0.482336 0.047996
0.286960 0.442930 0.053553
0.286960 0.402882 0.266858
0.286960 -0.447535 -0.045783
0.286960 -0.280195 0.372012
0.286960 -0.441137 0.227153
0.286960 0.418632 0.162263
0.286960 -0.479472 -0.038273
0.286960 0.451032 0.090812
0.286960 0.349054 0.353078
0.286960 0.328961 0.349412
0.286960 -0.443791 -0.040570
0.286960 -0.400006 0.207845
0.286960 -0.031253 0.449485
0.286960 -0.229494 -0.390525
0.286960 -0.174031 -0.449162
0.286960 0.458498 0.163602
0.286960 0.026356 -0.471692
0.286960 -0.045549 0.443965
0.286960 0.379837 0.278120
0.286960 -0.288135 0.373957
0.286960 0.371380 0.321677
0.286960 -0.011635 0.449296
0.286960 0.135821 -0.437693
0.286960 0.162482 0.435763
0.286960 0.234638 0.403866
0.286960 -0.037274 -0.457828
0.286960 0.401821 -0.274862
0.286960 -0.015215 0.481395
0.286960 0.421253 -0.203928
0.286960 -0.456133 -0.194360
0.286960 -0.130352 0.452365
0.286960 0.351367 0.293938
0.286960 0.428504 -0.153704
0.286960 0.036626 0.442767
0.286960 0.225576 0.407399
0.286960 0.041646 0.492709
0.286960 0.240853 0.383868
0.286960 -0.172796 -0.415948
0.286960 -0.263394 0.380300
0.286960 0.432242 0.156630
0.286960 0.191914 0.411318
0.286960 0.326731 0.364568
0.286960 -0.363853 0.299806
0.286960 -0.435841 -0.125835
0.286960 -0.151991 0.417190
0.286960 -0.194657 -0.432426
0.286960 0.454752 -0.155197
0.286960 0.199031 -0.435814
0.286960 -0.376933 -0.297765
0.286960 -0.212277 0.412145
0.286960 -0.447261 0.198270
0.286960 0.424709 0.176382
0.286960 0.011361 -0.492963
0.286960 0.457631 0.077739
0.286960 -0.209409 0.420677
0.286960 -0.303814 0.348212
0.286960 -0.402857 -0.253014
0.286960 0.222666 0.412505
0.286960 -0.214197 0.409784
0.286960 0.442705 0.150156
0.286960 -0.435815 0.207573
0.286960 0.416882 -0.244757
0.286960 -0.415883 -0.230842
0.286960 -0.354705 0.341333
0.286960 0.037242 0.467590
0.286960 -0.281453 -0.347692
0.286960 -0.457480 0.130801
0.286960 0.395922 -0.253470
0.286960 -0.443751 0.077963
0.286960 -0.122962 -0.474979
0.286960 0.004047 -0.479999
0.286960 0.235654 0.414016
0.286960 -0.139830 0.463280
0.286960 0.111621 -0.479649
0.286960 -0.296925 0.330810
0.286960 -0.197040 0.433025
0.286960 -0.323730 -0.325775
0.286960 0.041067 0.462821
0.286960 0.273465 -0.368207
0.286960 0.474916 0.007076
0.286960 -0.186091 -0.436672
0.286960 -0.270539 0.404713
0.286960 -0.388717 -0.296919
0.286960 -0.133081 -0.431262
0.286960 0.243251 0.388866
0.286960 -0.429363 -0.188888
0.286960 -0.103885 -0.457449
0.286960 0.332337 -0.341445
0.286960 -0.109719 0.460618
0.286960 -0.020576 0.443158
0.286960 -0.481759 -0.091344
0.286960 0.087866 -0.474927
0.286960 -0.207397 -0.416466
0.286960 0.454907 0.104830
0.286960 0.344911 0.339703
0.286960 0.444777 0.119618
0.286960 -0.111277 -0.467928
0.286960 0.461653 -0.148756
0.286960 -0.274469 -0.401573
0.286960 -0.093041 0.455767
0.286960 -0.425012 0.156464
0.286960 -0.444591 -0.194113
0.286960 -0.148951 -0.454282
0.286960 0.479001 0.028800
0.286960 -0.304091 -0.391552
0.286960 0.155299 0.423576
0.286960 0.088874 0.462935
0.286960 0.319203 0.309324
0.286960 -0.325087 -0.374383
0.286960 -0.298127 0.361841
0.286960 -0.461907 -0.009799
0.286960 -0.168908 0.444393
0.286960 -0.288544 0.386373
0.286960 -0.149131 -0.422409
0.286960 0.427377 -0.205998
0.286960 -0.098510 -0.477626
0.286960 -0.371731 -0.299015
0.286960 -0.122755 -0.480207
0.286960 -0.065510 0.469885
0.286960 0.455926 0.184006
0.286960 -0.411889 -0.271229
0.286960 0.387612 0.272807
0.286960 -0.432689 -0.238135
0.286960 0.355745 0.299352
0.286960 -0.409844 0.194940
0.286960 0.146298 -0.438007
0.286960 -0.246554 0.380356
0.286960 0.023662 0.457430
0.286960 0.489272 -0.013399
0.286960 -0.487272 -0.077474
0.286960 0.046365 0.477189
0.286960 0.453036 -0.076414
0.286960 0.374413 -0.250991
0.286960 -0.233342 -0.389531
0.286960 0.412271 -0.226508
0.286960 -0.115055 0.465104
0.286960 -0.142317 0.424821
0.286960 0.475286 -0.012750
0.286960 0.107916 -0.467949
0.286960 0.459132 -0.075851
0.286960 0.338253 -0.349613
0.286960 0.436754 0.232273
0.286960 0.492474 0.033418
0.286960 -0.426792 0.241755
0.286960 0.433468 0.135206
0.286960 0.247605 -0.414520
0.286960 0.333304 0.339252
0.286960 -0.485201 0.003435
0.286960 0.249283 0.411607
0.286960 -0.481607 0.068074
0.286960 -0.469061 0.139380
0.286960 -0.369480 0.285534
0.286960 0.406762 -0.192678
0.286960 0.329652 0.336221
0.286960 0.043474 0.454563
0.286960 -0.374458 0.281248
0.286960 -0.183719 -0.412606
0.286960 0.102603 0.446328
0.286960 -0.168022 0.458362
0.286960 -0.457836 0.084216
0.286960 -0.410586 0.186252
0.286960 0.447072 -0.198340
0.286960 0.175662 -0.412027
0.286960 -0.101781 0.431721
0.286960 -0.038950 0.444863
0.286960 0.475920 -0.071994
0.286960 0.233431 0.386063
0.286960 -0.239665 0.408175
0.286960 -0.394947 -0.261653
0.286960 -0.476132 0.072397
0.286960 0.393206 0.246274
0.286960 -0.479014 0.103013
0.286960 0.479464 -0.113752
0.286960 0.012579 -0.468591
0.286960 0.476203 0.063355
0.286960 0.416719 -0.203667
0.286960 0.393915 0.228276
0.286960 -0.077228 -0.483253
0.286960 0.459067 0.089028
0.286960 -0.282452 -0.389674
0.286960 0.430824 0.230148
0.286960 0.096926 -0.457529
0.286960 0.389042 -0.308881
0.286960 -0.083976 -0.440678
0.286960 -0.027570 0.480730
0.286960 -0.173053 0.461710
0.286960 -0.045421 -0.448732
0.286960 0.187086 0.437324
0.286960 -0.381345 0.312337
0.286960 0.272335 -0.413494
0.286960 -0.121943 0.470346
0.286960 -0.000696 -0.465881
0.286960 -0.248426 -0.382295
0.286960 -0.478755 -0.102400
0.286960 -0.074129 -0.494586
0.286960 0.021704 -0.491789
0.286960 -0.316759 -0.329682
0.286960 0.313755 0.322777
0.286960 0.490907 0.036888
0.286960 -0.291891 0.364535
0.286960 -0.155854 0.446001
0.286960 0.017298 -0.488098
0.286960 0.391324 0.272447
0.286960 0.376433 0.239419
0.286960 -0.006252 0.475151
0.286960 -0.366153 0.319282
0.286960 0.027509 -0.478127
0.286960 0.426374 -0.222133
0.286960 -0.470247 -0.074522
0.286960 -0.456234 0.052384
0.286960 -0.065276 0.455645
0.286960 0.373358 0.242307
0.286960 0.426814 -0.147751
0.286960 0.377087 0.283420
0.286960 0.360795 -0.334618
0.286960 0.335393 -0.305825
0.286960 -0.077898 0.481131
0.286960 0.478881 0.133102
0.286960 -0.296298 -0.390194
0.286960 0.192205 0.415046
0.286960 -0.408980 -0.204550
0.286960 -0.073200 -0.454528
0.286960 0.376878 -0.294120
0.286960 0.270147 -0.366862
0.286960 -0.471693 0.080750
0.286960 0.320065 -0.312338
0.286960 0.128974 -0.440139
0.286960 -0.004084 0.486546
0.286960 0.409854 -0.242808
0.286960 -0.356771 0.291399
0.286960 -0.485273 0.085297
0.286960 -0.435171 -0.121281
0.286960 -0.373567 -0.282403
0.286960 0.358030 -0.302795
0.286960 -0.339359 0.361426
0.286960 0.494362 -0.023023
0.286960 0.093192 -0.471125
0.286960 -0.010869 0.483478
0.286960 0.460136 -0.109321
0.286960 0.324560 -0.373971
0.286960 -0.212678 -0.401261
0.286960 0.217927 0.408866
0.286960 -0.128815 0.442121
0.286960 -0.459463 -0.174749
0.286960 0.448720 -0.082100
0.286960 0.096593 -0.482917
0.286960 0.489438 -0.026657
0.286960 -0.089721 -0.467573
0.286960 0.306529 -0.331181
0.286960 0.463889 0.166845
0.286960 -0.292969 0.395302
0.286960 -0.321277 -0.354537
0.286960 -0.240715 -0.390216
0.286960 -0.205749 0.446886
0.286960 0.381441 -0.322858
0.286960 -0.106493 0.450838
0.286960 0.447287 -0.145737
0.286960 -0.462622 0.178249
0.286960 -0.487310 -0.038887
0.286960 0.381113 0.270486
0.286960 -0.223381 -0.440267
0.286960 -0.089874 -0.488037
0.286960 0.373606 -0.329030
0.286960 -0.144949 0.437285
0.286960 -0.416938 -0.185176
0.286960 -0.321810 0.316859
0.286960 0.271591 -0.398935
0.286960 -0.245780 -0.415067
0.286960 -0.053886 -0.496302
0.286960 0.355319 -0.338588
0.286960 0.361157 0.315858
0.286960 0.063418 0.483343
0.286960 -0.300484 -0.394419
0.286960 0.406836 0.219227
0.286960 -0.256472 0.376066
0.286960 0.208197 -0.415020
0.286960 -0.108660 -0.462339
0.286960 0.485399 -0.069559
0.286960 0.456610 -0.177594
0.286960 -0.470689 0.040355
0.286960 0.409243 0.235547
0.286960 0.263028 -0.401916
0.286960 -0.418713 -0.206375
0.286960 0.155413 -0.467981
0.286960 0.347443 0.289577
0.286960 -0.298839 0.345256
0.286960 -0.235524 0.394233
0.286960 -0.476044 -0.008315
0.286960 -0.411616 -0.240258
0.286960 0.171207 0.439995
0.286960 -0.445476 0.000613
0.286960 -0.157208 0.469569
0.286960 -0.246062 0.375190
0.286960 0.012675 0.495623
0.286960 0.289718 -0.379183
0.286960 0.165612 0.463898
0.286960 -0.432862 0.129515
0.286960 -0.431222 0.174255
0.286960 -0.147789 -0.426006
0.286960 0.401311 0.262969
0.286960 -0.115988 -0.458016
0.286960 -0.295554 -0.348008
0.286960 0.477545 0.034795
0.286960 -0.108499 0.470789
0.286960 -0.422338 -0.210454
0.286960 -0.426917 -0.139224
0.286960 -0.098587 -0.452593
0.286960 -0.151922 -0.443532
0.286960 -0.048812 0.473961
0.286960 0.361979 -0.276388
0.286960 -0.454114 -0.105981
0.286960 -0.157389 0.414299
0.286960 -0.366942 0.327691
0.286960 -0.341997 -0.329379
0.286960 -0.482036 0.113738
0.286960 -0.236403 0.428685
0.286960 0.232153 0.415344
0.286960 -0.343217 -0.350814
0.286960 0.189885 -0.425309
0.286960 0.447311 0.063486
0.286960 0.348319 0.346381
0.286960 0.253571 0.419423
0.286960 -0.118153 0.475227
0.286960 -0.442522 0.155433
0.286960 -0.046759 -0.489402
0.286960 0.477896 -0.058284
0.286960 0.246756 -0.430665
0.286960 0.489707 0.012174
0.286960 0.402683 0.236063
0.286960 -0.042229 0.477895
0.286960 0.436863 -0.224229
0.286960 0.283098 0.349401
0.286960 0.353073 0.322968
0.286960 -0.469871 -0.006845
0.286960 0.007754 -0.480136
0.286960 -0.014961 -0.453428
0.286960 0.396565 -0.218413
0.286960 -0.359987 -0.322688
0.286960 -0.394124 0.300374
0.286960 0.275239 0.360707
0.286960 -0.017650 -0.493430
0.286960 0.249735 0.386589
0.286960 -0.161983 -0.451956
0.286960 -0.069709 -0.470429
0.286960 0.394124 -0.223960
0.286960 -0.153333 -0.434804
0.286960 -0.335575 0.314913
0.286960 0.410742 0.249794
0.286960 0.065507 0.476091
0.286960 0.279015 -0.410253
0.286960 -0.237235 0.381022
0.286960 0.203299 -0.455396
0.286960 0.307217 0.343541
0.286960 0.338701 -0.296484
0.286960 -0.394434 0.229921
0.286960 0.122819 0.462764
0.286960 0.469583 -0.105615
0.286960 0.416787 -0.228997
0.286960 -0.303078 -0.386559
0.286960 0.053082 0.478633
0.286960 -0.325245 0.347431
0.286960 -0.469106 -0.149562
0.286960 -0.272320 0.386687
0.286960 -0.326307 0.358408
0.286960 -0.388963 0.230535
0.286960 -0.179316 -0.431087
0.286960 0.085360 -0.451169
0.286960 0.466419 0.132125
0.286960 0.458302 0.117601
0.286960 0.005707 -0.462889
0.286960 -0.403330 0.279965
0.286960 0.372703 0.294901
0.286960 -0.193662 0.409140
0.286960 0.193880 0.456325
0.286960 0.298125 -0.346211
0.286960 -0.018021 0.466842
0.286960 0.248961 -0.394925
0.286960 0.290219 0.398639
0.286960 -0.224075 -0.404502
0.286960 -0.042884 -0.450795
0.286960 -0.057273 0.469702
0.286960 0.231310 -0.402082
0.286960 -0.228985 -0.395097
0.286960 0.073786 -0.475493
0.286960 0.119567 0.445503
0.286960 0.055011 -0.446157
0.286960 0.269760 0.385796
0.286960 0.003959 -0.456277
0.286960 0.253459 0.380129
0.286960 0.445898 -0.190396
0.286960 0.166173 -0.429087
0.286960 -0.081934 -0.488673
0.286960 -0.120322 -0.450868
0.286960 -0.020631 0.484628
0.286960 -0.141979 0.454103
0.286960 0.062737 0.468416
0.286960 0.313921 0.381660
0.286960 -0.161906 -0.469177
0.286960 -0.451357 -0.104181
0.286960 0.325796 -0.313562
0.286960 -0.017218 -0.471225
0.286960 -0.463994 0.026708
0.286960 0.349482 0.321670
0.286960 -0.409133 0.280272
0.286960 0.454840 -0.009090
0.286960 0.458725 0.156144
0.286960 0.123442 0.451591
0.286960 -0.111672 -0.440699
0.286960 -0.476304 -0.074041
0.286960 0.176966 -0.460923
0.286960 0.120980 0.476999
0.286960 -0.151863 0.436662
0.286960 -0.096474 0.453554
0.286960 0.267374 0.358299
0.286960 -0.425123 0.229072
0.286960 0.011251 0.457386
0.286960 -0.174083 0.452162
0.286960 0.459847 0.096832
0.286960 0.435887 0.224899
0.286960 0.450356 -0.114855
0.286960 -0.406029 -0.231104
0.286960 0.250270 0.391059
0.286960 -0.265644 -0.375952
0.286960 0.373513 0.253787
0.286960 -0.192194 0.416580
0.286960 0.454366 0.202401
0.286960 -0.191678 -0.415428
0.286960 0.450775 -0.128603
0.286960 0.163687 -0.419244
0.286960 0.379435 0.266210
0.286960 0.135854 0.430426
0.286960 -0.258466 -0.389475
0.286960 -0.303038 0.378493
0.286960 0.468226 0.098428
0.286960 -0.405341 0.264460
0.286960 0.311625 -0.377407
0.286960 -0.421284 0.261526
0.286960 0.051943 -0.486482
0.286960 0.227838 0.440586
0.286960 0.061374 -0.492176
0.286960 -0.347505 0.279236
0.286960 -0.377131 -0.279909
0.286960 -0.164532 -0.457351
0.286960 -0.442234 -0.222761
0.286960 0.125342 -0.431755
0.286960 0.380858 0.255055
0.286960 0.333648 0.307031
0.286960 0.226375 0.424096
0.286960 -0.450920 0.087423
0.286960 0.436326 0.192645
0.286960 -0.380879 0.228815
0.286960 -0.489330 0.044204
0.286960 0.460487 0.030254
0.286960 0.210909 0.431558
0.286960 -0.344249 0.280415
0.286960 0.476204 0.039062
0.286960 -0.385330 0.227692
0.286960 -0.366974 0.314458
0.286960 -0.208363 -0.445147
0.286960 0.024512 -0.458109
0.286960 0.436268 0.161026
0.286960 0.391009 0.215133
0.286960 -0.056619 -0.491804
0.286960 0.376178 -0.306258
0.286960 0.432371 -0.128883
0.286960 -0.480909 0.016052
0.286960 0.445563 0.078806
0.286960 -0.113319 0.437783
0.286960 0.367531 -0.338643
0.286960 -0.481288 -0.051980
0.286960 0.121516 0.448378
0.286960 -0.447492 -0.169107
0.286960 0.106462 -0.478121
0.286960 0.165858 -0.441096
0.286960 -0.376858 0.260354
0.286960 0.266706 -0.414519
0.286960 0.351936 0.315917
0.286960 -0.391552 0.227864
0.286960 0.423721 -0.262542
0.286960 -0.428337 -0.175069
0.286960 0.171646 -0.469559
0.286960 -0.357796 -0.285164
0.286960 0.151103 -0.430467
0.286960 0.484732 -0.039548
0.286960 0.016496 0.460674
0.286960 0.362010 -0.268849
0.286960 0.462677 -0.088756
0.286960 0.464883 0.119853
0.286960 -0.345724 -0.357525
0.286960 0.452057 0.046305
0.286960 -0.472461 0.152223
0.286960 -0.384446 -0.310358
0.286960 -0.134581 -0.465010
0.286960 0.416120 0.184501
0.286960 0.164684 0.439607
0.286960 0.228548 -0.388298
0.286960 -0.469597 -0.052575
0.286960 0.264094 -0.391652
0.286960 0.136618 0.476074
0.286960 -0.095416 0.458382
0.286960 0.364261 -0.328590
0.286960 -0.424134 0.215933
0.286960 0.207523 -0.427343
0.286960 -0.349821 0.289597
0.286960 0.445099 -0.201910
0.286960 0.465876 -0.172187
0.286960 -0.238552 -0.432341
0.286960 0.340530 -0.346936
0.286960 -0.023403 0.482787
0.286960 0.344706 -0.294381
0.286960 -0.318892 0.363056
0.286960 0.207362 0.433704
0.286960 -0.395568 0.275675
0.286960 0.298211 -0.399683
0.286960 -0.243877 0.397153
0.286960 0.313082 -0.344146
0.286960 0.295334 -0.350297
0.286960 0.459328 0.061853
0.286960 0.293361 0.334353
0.286960 0.186002 0.451395
0.286960 -0.401395 -0.205361
0.286960 -0.292237 0.390511
0.286960 0.380343 0.245453
0.286960 0.449180 0.073081
0.286960 0.006467 0.481216
0.286960 0.466908 0.147035
0.286960 0.016057 -0.474395
0.286960 0.044515 -0.462258
0.286960 0.002712 0.483954
0.286960 0.442980 0.153249
0.286960 -0.461214 0.155826
0.286960 0.366454 0.309843
0.286960 0.177740 -0.457014
0.286960 0.341574 0.340076
0.286960 0.450447 -0.144124
0.286960 0.377656 -0.326506
0.286960 -0.313256 -0.332446
0.286960 -0.419901 -0.190309
0.286960 -0.380416 -0.322025
0.286960 0.171815 0.452613
0.286960 0.303540 -0.329230
0.286960 -0.157779 -0.448674
0.286960 0.233972 0.411408
0.286960 0.426347 -0.233833
0.286960 -0.019686 -0.486986
0.286960 0.175298 0.446981
0.286960 -0.231108 0.412735
0.286960 0.135524 -0.463174
0.286960 -0.062739 -0.471136
0.286960 -0.396485 -0.302397
0.286960 -0.286591 -0.342625
0.286960 0.472473 -0.151417
0.286960 -0.375523 -0.266457
0.286960 -0.035961 -0.485682
0.286960 -0.366693 -0.284841
0.286960 -0.466652 -0.147102
0.286960 0.138294 -0.444880
0.286960 -0.184205 0.459848
0.286960 0.408500 0.187826
0.286960 -0.469654 -0.030738
0.286960 -0.445500 -0.115314
0.286960 0.440059 0.180748
0.286960 0.089433 -0.478835
0.286960 -0.009838 -0.500099
0.286960 0.396578 -0.206115
0.286960 -0.468895 0.086038
0.286960 -0.443018 -0.119022
0.286960 -0.335425 -0.345956
0.286960 0.123040 0.471710
0.286960 -0.179036 0.436260
0.286960 -0.397037 -0.298500
0.286960 0.363874 0.264537
0.286960 -0.039895 -0.447241
0.286960 0.338681 0.311657
0.286960 0.487895 0.021483
0.286960 0.028989 0.486446
0.286960 0.356603 -0.294305
0.286960 -0.453062 -0.053752
0.286960 0.486691 -0.004439
0.286960 -0.440032 0.134727
0.286960 0.330540 -0.350613
0.286960 -0.221058 -0.432713
0.286960 0.238887 0.412880
0.286960 0.388975 0.254605
0.286960 -0.427210 0.185496
0.286960 -0.398760 -0.258254
0.286960 0.497286 -0.022023
0.286960 -0.218205 -0.419483
0.286960 0.399652 -0.283840
0.286960 0.462400 -0.083555
0.286960 0.452235 -0.183241
0.286960 0.046982 0.468553
0.286960 0.263183 -0.387327
0.286960 0.443696 0.040830
0.286960 0.124690 -0.447997
0.286960 -0.413884 0.195912
0.286960 0.385020 0.236826
0.286960 0.344566 -0.329398
0.286960 0.189971 -0.462465
0.286960 -0.158990 -0.433351
0.286960 0.449285 0.002713
0.286960 0.108589 0.480483
0.286960 0.085521 0.439017
0.286960 0.462813 0.104352
0.286960 -0.230907 -0.414489
0.286960 -0.479026 -0.023824
0.286960 -0.096551 -0.458586
0.286960 0.076966 -0.484979
0.286960 -0.454265 0.093762
0.286960 0.344491 -0.361936
0.286960 -0.417457 0.199234
0.286960 -0.394124 -0.231807
0.286960 -0.236142 -0.434516
0.286960 -0.032276 0.477062
0.286960 0.240697 -0.377256
0.286960 0.007878 -0.473156
0.286960 0.148313 0.456602
0.286960 0.465369 0.138984
0.286960 -0.101181 -0.450012
0.286960 0.169123 0.461742
0.286960 -0.373089 -0.325191
0.286960 -0.048472 -0.463306
0.286960 0.421674 -0.265252
0.286960 -0.429823 -0.192912
0.286960 0.026248 0.494537
0.286960 0.376296 0.288084
0.286960 0.387152 -0.304634
0.286960 -0.265216 -0.392219
0.286960 0.470129 0.130744
0.286960 -0.457053 0.192097
0.286960 -0.062155 0.451157
0.286960 -0.382746 -0.236512
0.286960 -0.149299 0.448284
0.286960 -0.148505 0.461276
0.286960 0.188569 -0.450751
0.286960 -0.187361 0.405873
0.286960 -0.119519 -0.480462
0.286960 -0.172313 -0.458785
0.286960 -0.116754 -0.468799
0.286960 0.396725 0.242693
0.286960 0.199438 -0.400703
0.286960 0.415439 -0.226117
0.286960 0.448743 -0.054325
0.286960 0.301894 0.351827
0.286960 -0.045361 0.483690
0.286960 0.424872 -0.225150
0.286960 0.445728 -0.217055
0.286960 0.281228 -0.404571
0.286960 0.350545 0.325130
0.286960 -0.228549 0.438604
0.286960 -0.477090 0.018331
0.286960 0.439934 -0.162859
0.286960 0.295904 -0.385580
0.286960 -0.159414 0.432936
0.286960 0.321334 -0.316461
0.286960 -0.378193 -0.269359
0.286960 0.349981 0.286690
0.286960 -0.231661 0.423568
0.286960 -0.043747 0.472060
0.286960 0.158613 0.464975
0.286960 -0.437225 0.226927
0.286960 -0.459067 0.032082
0.286960 0.212209 0.446141
0.286960 -0.389582 -0.292215
0.286960 -0.438721 0.172049
0.286960 -0.142520 0.466872
0.286960 -0.223408 -0.420458
0.286960 -0.457673 0.167916
0.286960 -0.353042 0.285823
0.286960 0.328638 -0.312469
0.286960 -0.162779 0.450126
0.286960 0.135074 0.446809
0.286960 0.454520 -0.126844
0.286960 -0.232442 -0.426917
0.286960 -0.473780 0.149265
0.286960 0.071456 -0.489441
0.286960 -0.053934 0.485113
0.286960 -0.190347 -0.410094
0.286960 -0.452999 -0.065854
0.286960 -0.167117 0.422109
0.286960 -0.211353 0.448028
0.286960 0.390277 0.244722
0.286960 0.238335 -0.438775
0.286960 0.287280 -0.370568
0.286960 0.463414 0.097422
0.286960 0.241938 0.396905
0.286960 -0.121230 -0.472164
0.286960 0.250093 0.382695
0.286960 0.471239 -0.097791
0.286960 0.439050 -0.203459
0.286960 0.056784 0.440330
0.286960 -0.152977 0.423881
0.286960 0.211251 -0.439332
0.286960 0.365569 0.275349
0.286960 0.341188 -0.358003
0.286960 -0.089737 -0.451486
0.286960 -0.262242 0.358943
0.286960 0.096624 -0.440850
0.286960 0.194149 0.406280
0.286960 -0.433902 0.146068
0.286960 0.476619 -0.054101
0.286960 0.401612 -0.292095
0.286960 -0.404848 0.272295
0.286960 -0.482106 0.008599
0.286960 0.332149 -0.369025
0.286960 0.434919 -0.187782
0.286960 -0.004421 -0.459480
0.286960 0.366165 -0.335228
0.286960 0.397712 -0.244828
0.286960 -0.370751 0.272139
0.286960 0.086080 0.452465
0.286960 -0.493414 -0.060300
0.286960 0.273531 -0.354375
0.286960 0.424181 -0.150993
0.286960 -0.458740 -0.046013
0.286960 -0.314110 0.326368
0.286960 -0.330654 0.351189
0.286960 -0.468738 0.163300
0.286960 -0.428478 0.244605
0.286960 0.067151 -0.471072
0.286960 0.464014 -0.007143
0.286960 0.233726 0.390538
0.286960 0.105318 -0.435270
0.286960 0.024189 -0.461611
0.286960 -0.493734 -0.006365
0.286960 -0.392886 0.264012
0.286960 -0.194691 0.451796
0.286960 0.458287 0.021929
0.286960 -0.363967 0.306372
0.286960 0.034310 -0.498833
0.286960 0.481675 -0.051632
0.286960 0.289119 -0.343507
0.286960 0.198894 0.413020
0.286960 -0.208118 0.416993
0.286960 0.286097 0.405496
0.286960 0.246327 0.427112
0.286960 0.467256 0.088105
0.286960 0.448683 -0.218795
0.286960 0.245156 0.371157
0.286960 -0.171013 0.455278
0.286960 0.357640 0.277826
0.286960 -0.290316 0.393360
0.286960 -0.489235 -0.048732
0.286960 -0.330002 0.364778
0.286960 0.043156 0.441578
0.286960 -0.373927 0.305352
0.286960 0.482245 0.106152
0.286960 0.474438 -0.098680
0.286960 0.173449 0.411390
0.286960 -0.381422 0.248212
0.286960 0.099327 0.451416
0.286960 0.450192 -0.078096
0.286960 0.202609 0.438892
0.286960 -0.048049 0.455351
0.286960 0.239200 -0.413373
0.286960 0.270480 0.398392
0.286960 -0.424834 0.234697
0.286960 0.137155 -0.460532
0.286960 0.440343 0.141308
0.286960 -0.439272 -0.184341
0.286960 0.333691 0.367725
0.286960 0.442748 0.057504
0.286960 0.442335 0.100916
0.286960 0.265057 0.381760
0.286960 -0.360903 0.260638
0.286960 0.386402 -0.286825
0.286960 -0.361424 0.288563
0.286960 0.315607 -0.383205
0.286960 -0.274910 0.374415
0.286960 -0.196751 0.447426
0.286960 0.379813 0.239035
0.286960 -0.243327 0.407318
0.286960 -0.406879 0.217680
0.286960 0.269020 -0.416623
0.286960 0.256243 0.388825
0.286960 -0.426838 0.137749
0.286960 -0.456331 0.176192
0.286960 -0.429053 0.227478
0.286960 -0.469651 -0.141859
0.286960 -0.189095 -0.452856
0.286960 -0.436698 -0.118552
0.286960 0.261276 -0.395034
0.286960 -0.481910 0.085883
0.286960 0.430576 -0.235819
0.286960 0.067980 -0.487322
0.286960 -0.261815 -0.422138
0.286960 0.291144 0.374360
0.286960 0.427747 -0.218747
0.286960 -0.317947 0.319493
0.286960 -0.448368 -0.134891
0.286960 0.457069 -0.145273
0.286960 -0.408286 0.228778
0.286960 -0.103059 0.473889
0.286960 0.382352 0.317286
0.286960 0.478278 0.059950
0.286960 -0.440477 0.150762
0.286960 -0.193020 -0.444735
0.286960 0.116304 -0.466884
0.286960 -0.066684 0.466882
0.286960 -0.357980 0.340591
0.286960 -0.352688 -0.322055
0.286960 0.402042 -0.231105
0.286960 0.434589 0.195593
0.286960 -0.075850 -0.461438
0.286960 0.015652 0.449577
0.286960 0.461692 -0.016980
0.286960 -0.469899 0.113301
0.286960 0.453950 -0.133837
0.286960 -0.478530 0.010886
0.286960 0.451269 0.189074
0.286960 0.201563 -0.424230
0.286960 0.452416 0.162008
0.286960 0.286023 -0.357284
0.286960 0.454485 -0.025557
0.286960 -0.099604 0.462243
0.286960 0.446721 -0.078800
0.286960 -0.063670 -0.456879
0.286960 0.157061 0.415896
0.286960 0.344655 -0.302714
0.286960 0.197486 0.420996
0.286960 0.441740 0.190705
0.286960 -0.353898 0.306028
0.286960 0.309352 0.388212
0.286960 -0.052709 -0.453784
0.286960 -0.472364 0.036206
0.286960 -0.411908 -0.177276
0.286960 -0.165745 -0.434748
0.286960 -0.077476 -0.478432
0.286960 -0.203724 -0.449307
0.286960 0.414286 0.221122
0.286960 0.365228 -0.294904
0.286960 -0.431527 0.191776
0.286960 0.126636 -0.458261
0.286960 0.165036 0.459730
0.286960 -0.080937 0.487472
0.286960 0.478260 -0.089942
0.286960 0.344326 0.291398
0.286960 0.461567 -0.033038
0.286960 0.412285 -0.269906
0.286960 0.048445 -0.462579
0.286960 0.208536 0.444920
0.286960 -0.082483 0.467451
0.286960 -0.440217 -0.150559
0.286960 0.361249 0.325923
0.286960 0.182915 0.438196
0.286960 0.030776 0.483832
0.286960 0.312498 -0.369803
0.286960 -0.431491 -0.173806
0.286960 -0.264460 0.383349
0.286960 -0.082262 0.444006
0.286960 0.420630 -0.156993
0.286960 -0.005294 -0.483345
0.286960 0.261315 0.421593
0.286960 -0.460485 -0.148395
0.286960 0.270532 0.357906
0.286960 0.078191 -0.459832
0.286960 -0.417095 -0.273178
0.286960 0.495381 -0.042797
0.286960 -0.431866 -0.153841
0.286960 -0.445277 0.202250
0.286960 0.442667 0.225653
0.286960 0.454618 0.020005
0.286960 0.298980 -0.349875
0.286960 0.033384 -0.446866
0.286960 0.320066 -0.362042
0.286960 0.145402 -0.449196
0.286960 0.021493 -0.483810
0.286960 0.363283 -0.315677
0.286960 0.265892 -0.374522
0.286960 0.110212 -0.487599
0.286960 -0.441963 -0.178405
0.286960 0.109497 0.463984
0.286960 0.449027 0.201937
0.286960 0.473405 0.139260
0.286960 -0.146610 -0.437778
0.286960 -0.339309 0.311924
0.286960 -0.456500 -0.108662
0.286960 -0.414930 0.244050
0.286960 -0.438618 0.206050
0.286960 -0.318363 0.333571
0.286960 -0.395022 -0.221092
0.286960 0.144463 0.435722
0.286960 -0.348705 0.303091
0.286960 0.045127 -0.448899
0.286960 0.227140 0.384531
0.286960 -0.472759 -0.058069
0.286960 -0.047397 -0.481205
0.286960 0.136602 0.439474
0.286960 0.058651 -0.472962
0.286960 0.443742 0.216406
0.286960 0.467129 -0.038962
0.286960 -0.473437 0.004928
0.286960 -0.165325 0.453936
0.286960 -0.235561 0.403895
0.286960 0.408173 0.281671
0.286960 0.468852 0.153552
0.286960 0.145020 -0.465890
0.286960 0.015354 -0.478103
0.286960 -0.341477 0.319324
0.286960 -0.475071 0.048199
0.286960 0.442257 -0.069177
0.286960 0.358709 0.284875
0.286960 0.199105 0.398625
0.286960 -0.261205 0.419139
0.286960 0.326051 0.342112
0.286960 0.072212 0.465743
0.286960 0.035953 0.494483
0.286960 0.244587 0.394537
0.286960 0.111967 0.455523
0.286960 -0.460784 0.023200
0.286960 0.277639 0.383933
0.286960 -0.375901 -0.289889
0.286960 -0.045814 -0.485767
0.286960 0.024960 0.453983
0.286960 0.189945 0.407219
0.286960 -0.373085 0.326808
0.286960 0.469554 0.042920
0.286960 -0.022468 -0.475201
0.286960 0.411080 -0.255239
0.286960 -0.429575 0.152513
0.286960 -0.474958 0.144530
0.286960 0.427595 0.196123
0.286960 -0.142411 -0.467784
0.286960 0.428446 -0.189576
0.286960 0.329577 0.303019
0.286960 0.482646 -0.032570
0.286960 0.092301 0.485840
0.286960 0.314338 0.331323
0.286960 0.142452 0.471154
0.286960 -0.437438 0.110878
0.286960 -0.387797 0.301671
0.286960 -0.024949 0.475187
0.286960 0.338258 -0.322259
0.286960 0.358555 -0.337251
0.286960 0.452419 0.128045
0.286960 0.461983 -0.113267
0.286960 -0.456502 -0.087936
0.286960 -0.176309 0.459776
0.286960 0.416446 -0.271566
0.286960 -0.469959 0.076403
0.286960 -0.427800 0.233312
0.286960 0.446297 0.181171
0.286960 -0.449925 0.049684
0.286960 -0.348260 -0.324361
0.286960 -0.434261 0.154274
0.286960 0.104053 0.433707
0.286960 -0.431792 -0.247079
0.286960 0.187791 -0.446841
0.286960 0.362118 -0.338317
0.286960 -0.075214 0.478531
0.286960 0.018894 0.451523
0.286960 0.456215 -0.059310
0.286960 -0.253133 0.379314
0.286960 -0.428621 0.203941
0.286960 -0.058766 -0.465296
0.286960 -0.014770 0.492765
0.286960 0.211010 -0.406816
0.286960 -0.019697 0.446845
0.286960 -0.465745 0.056885
0.286960 -0.146518 0.454204
0.286960 -0.496868 -0.018873
0.286960 0.050616 0.465824
0.286960 -0.088106 -0.478458
0.286960 -0.420276 0.257867
0.286960 0.431734 0.209863
0.286960 0.445157 0.026040
0.286960 -0.488908 -0.003215
0.286960 -0.460194 0.184589
0.286960 -0.341081 -0.303695
0.286960 0.445408 -0.177140
0.286960 -0.380685 -0.257806
0.286960 0.434907 0.176952
0.286960 -0.406641 0.243420
0.286960 0.083330 -0.468794
0.286960 0.174798 0.438267
0.286960 -0.121081 -0.446954
0.286960 0.299641 0.327838
0.286960 0.379175 -0.320614
0.286960 -0.483360 -0.058823
0.286960 0.448996 0.093131
0.286960 -0.148508 -0.463519
0.286960 0.286625 -0.379368
0.286960 0.445938 -0.104713
0.286960 -0.123217 -0.458430
0.286960 -0.225392 0.397778
0.286960 0.095813 0.462133
0.286960 -0.435103 -0.172188
0.286960 0.444224 -0.146911
0.286960 -0.446142 0.043716
0.286960 0.222056 -0.405186
0.286960 -0.491347 0.028812
0.286960 -0.453297 0.181079
0.286960 -0.320696 0.343391
0.286960 -0.427782 -0.126382
0.286960 0.138826 0.431314
0.286960 -0.408675 -0.271759
0.286960 0.195052 0.442712
0.286960 0.296758 0.379116
0.286960 -0.467607 0.136239
0.286960 0.473071 0.042192
0.286960 -0.423505 0.205672
0.286960 -0.114376 -0.466371
0.286960 -0.359045 -0.266570
0.286960 -0.442931 -0.226814
0.286960 0.181694 0.406102
0.286960 -0.460098 -0.133591
0.286960 -0.465904 0.126213
0.286960 0.099895 -0.471916
0.286960 0.211616 -0.452642
0.286960 0.314074 -0.360988
0.286960 -0.075914 -0.452112
0.286960 0.352019 -0.319958
0.286960 0.216578 0.438125
0.286960 0.104120 -0.466039
0.286960 -0.134160 -0.428249
0.286960 0.396061 0.259105
0.286960 -0.231284 0.404549
0.286960 -0.250622 -0.385266
0.286960 -0.470586 -0.084076
0.286960 -0.192980 -0.460445
0.286960 0.312122 0.334194
0.286960 0.060245 -0.454741
0.286960 0.106378 0.466321
0.286960 0.218125 0.442564
0.286960 0.012084 -0.450789
0.286960 0.260888 0.369888
0.286960 -0.411002 0.208395
0.286960 0.477680 0.000688
0.286960 -0.363226 0.283297
0.286960 -0.440179 0.168495
0.286960 -0.158606 -0.474042
0.286960 0.352071 -0.326431
0.286960 0.101565 0.477378
0.286960 -0.475570 -0.109546
0.286960 0.479175 0.044435
0.286960 0.243348 0.415084
0.286960 -0.331651 0.296101
0.286960 0.443971 0.107570
0.286960 -0.351178 0.271941
0.286960 -0.081397 -0.458072
0.286960 -0.148580 0.441405
0.286960 -0.457217 -0.083640
0.286960 0.182248 -0.444923
0.286960 -0.346019 0.335424
0.286960 0.128347 0.439990
0.286960 0.424211 0.135654
0.286960 0.146166 0.441475
0.286960 0.108859 -0.455116
0.286960 0.453091 -0.087545
0.286960 -0.294604 0.398280
0.286960 -0.329596 -0.317846
0.286960 -0.471774 -0.050133
0.286960 0.115139 -0.462275
0.286960 0.381283 0.229257
0.286960 0.015680 0.466156
0.286960 -0.436879 0.081981
0.286960 -0.270513 0.367387
0.286960 -0.405293 -0.255085
0.286960 -0.425912 -0.197265
0.286960 0.444419 0.211746
0.286960 0.451828 -0.158119
0.286960 -0.294210 -0.386812
0.286960 -0.478131 -0.137559
0.286960 -0.323320 0.363721
0.286960 0.311058 -0.362471
0.286960 -0.486794 0.094422
0.286960 0.068669 0.482949
0.286960 0.220060 -0.432686
0.286960 0.318998 -0.352152
0.286960 0.059053 0.446844
0.286960 0.285741 0.386371
0.286960 0.229979 0.428637
0.286960 0.114044 0.468403
0.286960 -0.458797 0.163740
0.286960 -0.081052 -0.469199
0.286960 -0.177255 -0.428075
0.286960 0.121178 -0.464244
0.286960 0.452447 -0.171087
0.286960 -0.454188 -0.169384
0.286960 0.049069 0.447958
0.286960 0.115544 -0.486785
0.286960 0.193329 0.449070
0.286960 0.426583 0.167498
0.286960 0.115548 -0.452428
0.286960 -0.235849 -0.409511
0.286960 -0.024065 -0.489818
0.286960 0.477279 -0.042067
0.286960 -0.320366 0.327706
0.286960 0.413382 0.268397
0.286960 -0.050342 0.492069
0.286960 -0.288299 0.389758
0.286960 0.442822 0.104339
0.286960 0.361668 0.340409
0.286960 -0.428440 0.224296
0.286960 0.308866 -0.387818
0.286960 -0.093588 -0.466159
0.286960 -0.416421 -0.188995
0.286960 -0.215799 0.390956
0.286960 -0.366601 0.302239
0.286960 0.357225 -0.341334
0.286960 0.098726 0.479285
0.286960 0.466989 0.079463
0.286960 0.477228 -0.031551
0.286960 0.337019 0.308346
0.286960 -0.067819 -0.462935
0.286960 -0.375856 0.252380
0.286960 -0.303563 0.328794
0.286960 -0.306154 -0.362380
0.286960 -0.003152 0.446387
0.286960 -0.247697 0.369241
0.286960 0.194390 -0.406775
0.286960 0.038869 -0.452836
0.286960 -0.427335 0.221108
0.286960 0.460231 0.092080
0.286960 -0.434497 0.220155
0.286960 -0.040490 -0.469695
0.286960 -0.045351 -0.460414
0.286960 -0.316830 0.328256
0.286960 0.218792 0.435581
0.286960 0.442996 0.197179
0.286960 0.474807 0.023159
0.286960 -0.101079 0.465713
0.286960 0.105679 0.458638
0.286960 0.364972 -0.332265
0.286960 -0.444586 -0.186235
0.286960 0.464860 -0.054245
0.286960 -0.472286 0.025886
0.286960 0.343870 0.336040
0.286960 -0.356433 0.323864
0.286960 -0.450959 -0.034061
0.286960 -0.393850 -0.280168
0.286960 -0.425526 -0.179184
0.286960 -0.421078 -0.226739
0.286960 0.263162 0.406488
0.286960 -0.040875 0.465108
0.286960 -0.478532 0.085480
0.286960 -0.392307 -0.283384
0.286960 -0.019924 -0.477802
0.286960 -0.444790 -0.048024
0.286960 -0.245435 -0.429970
0.286960 -0.194815 0.435917
0.286960 0.252684 0.388571
0.286960 0.433725 0.212920
0.286960 0.002443 0.455495
0.286960 -0.248880 0.408232
0.286960 -0.480473 -0.125662
0.286960 0.240484 0.392224
0.286960 0.335589 0.317573
0.286960 0.433448 -0.182466
0.286960 0.417505 -0.159961
0.286960 0.454195 0.191754
0.286960 0.012175 -0.477110
0.286960 -0.232731 0.401389
0.286960 -0.295019 -0.393558
0.286960 0.046739 -0.491451
0.286960 0.099168 0.460517
0.286960 -0.428433 -0.202185
0.286960 -0.176483 -0.433798
0.286960 -0.444322 -0.133100
0.286960 -0.212981 0.389129
0.286960 0.413885 0.213491
0.286960 -0.032800 -0.473110
0.286960 -0.179220 -0.443622
0.286960 0.332745 0.295217
0.286960 0.353242 0.343475
0.286960 0.023505 0.484539
0.286960 0.454507 -0.196647
0.286960 0.442032 -0.124280
0.286960 -0.466218 0.022407
0.286960 -0.382034 0.305621
0.286960 -0.370347 0.314731
0.286960 -0.087785 -0.448796
0.286960 0.352760 0.327386
0.286960 0.396114 0.268580
0.286960 -0.446233 -0.152634
0.286960 0.368077 0.323961
0.286960 0.209662 -0.433314
0.286960 -0.445549 -0.009816
0.286960 -0.115455 0.455013
0.286960 -0.485108 -0.072705
0.286960 0.397285 0.212932
0.286960 -0.343985 -0.347426
0.286960 0.326685 -0.370440
0.286960 0.145649 0.432039
0.286960 0.233714 -0.416650
0.286960 -0.384769 0.221088
0.286960 0.164223 0.432659
0.286960 0.451404 0.172064
0.286960 -0.063715 0.442399
