-0.025131 -0.427724 0.119630
-0.207830 -0.384166 0.221982
0.010724 -0.440388 -0.064456
-0.169474 -0.019992 -0.446967
0.091132 0.160502 0.413414
-0.032869 -0.421160 0.140918
-0.148873 -0.285288 -0.343742
-0.104542 -0.444176 0.021573
-0.007493 0.442360 -0.058479
-0.051653 -0.072912 0.436959
-0.082505 0.240441 0.373065
-0.008517 -0.110961 0.429061
-0.055378 -0.439696 -0.068828
-0.072565 -0.103040 0.430879
0.261876 0.217838 -0.390897
-0.161271 0.433019 -0.108186
-0.281944 -0.440029 -0.066728
-0.150108 0.037225 0.441553
-0.201872 0.434498 -0.101566
-0.231800 0.210737 0.390385
-0.278203 0.445503 -0.016322
-0.044036 0.439493 0.072227
0.266737 -0.020992 -0.446936
0.277901 0.420669 0.145128
-0.235682 -0.444534 -0.014551
-0.130142 -0.197136 -0.401147
-0.227189 -0.396317 -0.204025
0.201051 -0.332104 0.293775
-0.190555 0.422197 0.140883
-0.025957 -0.434148 -0.098547
-0.000119 -0.387583 -0.220557
-0.201002 -0.418431 -0.152853
0.042018 -0.048589 0.440382
-0.031919 0.398108 -0.202522
-0.156554 -0.299844 -0.330910
-0.232976 0.442624 -0.056005
-0.052447 0.271497 0.351079
-0.041517 0.031240 -0.446472
-0.263271 0.442960 0.048092
-0.232302 0.343344 -0.286541
-0.009756 0.274258 0.348937
-0.039499 -0.006061 -0.447405
-0.280509 -0.376398 0.235117
0.051253 0.240106 -0.377647
-0.264499 0.304102 -0.328059
-0.159651 -0.382143 0.225403
-0.149433 -0.437171 -0.084772
0.022265 -0.154535 0.415193
0.006275 0.412485 -0.171195
0.083621 -0.244351 -0.374065
0.062553 -0.131832 -0.427351
-0.085969 0.107088 0.430203
-0.253136 0.395395 -0.207847
-0.286486 -0.387797 0.215843
-0.240086 0.105400 0.430580
0.245577 0.445917 -0.003133
-0.271466 -0.083086 -0.439692
0.144733 0.443034 -0.051669
0.137795 -0.228921 -0.383736
0.015921 -0.165308 -0.415533
0.235740 0.416793 0.155895
0.046834 -0.216940 0.386468
-0.269174 0.438007 -0.085867
-0.253574 0.122484 0.426011
0.041450 -0.438207 0.073878
-0.068429 0.423964 0.135978
-0.235486 -0.273548 -0.353047
-0.133484 0.427841 0.122751
0.014285 0.237159 0.375117
0.045008 -0.011258 0.442888
-0.289113 0.251143 0.365792
0.235318 0.418509 -0.155482
0.191310 0.284503 -0.345338
-0.149778 0.280529 0.344073
-0.083775 -0.333185 0.292548
0.202905 0.445919 -0.003082
0.117199 -0.440299 0.060670
-0.016514 0.175457 -0.411585
0.150943 -0.064726 0.438255
-0.223036 0.406419 0.180859
0.224799 0.440556 0.065514
0.021743 0.078236 0.436278
-0.034064 0.326044 -0.306164
-0.270086 0.289941 -0.340543
0.252154 -0.240981 0.372002
-0.269914 -0.354429 -0.270989
-0.201266 0.113787 -0.432891
0.190091 0.383377 0.225050
0.118807 -0.299807 0.326589
0.150819 -0.408501 -0.178033
0.222574 0.093880 0.433155
-0.262508 -0.015984 0.442740
0.193889 -0.204470 0.393056
0.035946 -0.084761 0.434964
-0.115853 0.385227 -0.226275
0.014787 -0.312203 -0.319091
-0.156682 -0.154670 -0.419498
0.172908 -0.255604 -0.366418
-0.258752 0.053283 -0.444388
0.134253 0.128124 0.424373
0.210827 0.322556 0.305409
-0.149146 0.445412 0.014875
0.091524 -0.422767 -0.140808
-0.064552 -0.112496 -0.432969
0.137045 0.445787 -0.007281
0.105229 0.401264 -0.196327
-0.166818 -0.271901 -0.354324
0.047741 -0.102349 -0.435386
-0.205191 -0.362202 0.256185
0.097536 -0.421241 0.140692
0.072317 0.208469 -0.395894
-0.051888 0.296384 0.330510
-0.109438 -0.214905 -0.392025
0.260920 0.421960 0.141542
-0.194024 0.306837 0.321128
0.086994 0.445067 -0.030164
0.048834 0.426767 0.126451
0.044587 -0.296128 0.329832
0.064748 0.445518 -0.015831
0.136026 0.032398 -0.446363
-0.048067 0.412819 0.166071
-0.191513 0.043970 -0.445269
-0.166465 -0.298314 -0.332258
-0.286613 -0.298447 0.327787
-0.098685 -0.335446 0.289983
0.152752 0.007065 0.443052
0.188507 0.390366 -0.217586
0.068274 -0.231566 0.377819
-0.262409 -0.438978 0.069005
-0.087243 0.439673 -0.075445
0.133539 0.425608 0.130437
0.272968 0.380003 0.230754
0.210246 -0.358598 -0.265613
-0.106762 -0.022640 0.442531
0.060863 -0.377312 -0.237926
0.078668 -0.311734 -0.319560
0.255089 0.158278 0.414214
-0.178454 0.275098 0.348286
-0.075995 -0.328120 0.298293
-0.096450 -0.022438 -0.446891
0.056594 -0.407635 0.175681
-0.255973 0.380424 0.230042
-0.201473 0.291095 0.335172
0.266934 0.240366 0.373117
0.210048 -0.441030 0.056053
0.151092 0.382554 -0.230794
0.249274 0.435421 0.093085
-0.272370 -0.301606 -0.329356
0.221437 -0.360305 0.258977
-0.247087 0.438956 0.075616
0.284106 -0.274093 -0.352624
-0.185958 0.376914 0.235978
-0.118625 -0.200616 -0.399373
-0.039222 0.443930 0.037836
-0.182084 0.032311 -0.446371
-0.279013 0.260609 -0.363713
0.080919 -0.281045 -0.347231
-0.004190 -0.287298 0.337617
-0.182061 -0.243332 0.370404
0.056522 -0.116389 0.427484
-0.173605 0.372595 0.242400
0.066858 0.133625 0.422775
0.032523 -0.428831 -0.120173
-0.169448 0.422944 -0.143163
-0.046711 -0.212720 -0.393206
-0.270593 -0.055649 0.439693
-0.190897 -0.292191 0.333303
0.198944 -0.398997 0.194414
-0.265449 0.062521 -0.443120
-0.156052 -0.036936 -0.445837
-0.195848 -0.050196 -0.444583
0.023089 -0.421338 -0.144777
0.111909 0.440265 0.067353
0.005476 -0.361603 0.257068
-0.249705 -0.016295 -0.447084
0.204906 -0.416193 0.154715
0.118771 -0.071717 0.437148
-0.275386 0.070579 -0.441844
-0.028648 0.318005 0.309960
-0.262788 0.422723 -0.143777
-0.151471 -0.401876 -0.193117
0.182677 -0.283554 -0.345270
0.086362 0.442694 -0.055261
0.011168 0.441406 0.060150
-0.061568 0.342239 -0.287794
-0.136253 0.218879 0.385928
-0.023728 -0.206634 0.391954
0.232811 0.347331 0.277107
-0.195843 0.238025 0.374605
-0.069825 -0.244525 -0.373947
-0.087925 -0.384277 -0.226148
-0.139914 0.435123 -0.098770
-0.101204 0.169544 0.409791
-0.226966 -0.061921 0.438700
-0.233185 0.225019 0.382296
-0.043917 -0.175131 0.406929
-0.056638 -0.418832 -0.151738
-0.126786 0.261406 -0.363171
0.179758 -0.167586 -0.414547
-0.188035 -0.405404 0.180838
0.031244 0.385067 -0.226546
-0.051159 -0.443371 -0.037267
0.135991 0.168625 -0.414541
0.120366 -0.166351 0.410729
0.157124 -0.109402 0.429457
-0.161263 0.163447 -0.416706
-0.187705 0.379451 -0.236042
-0.238845 -0.158245 -0.418210
-0.046905 -0.343218 -0.285441
0.001002 -0.355782 0.264891
-0.033060 -0.181028 -0.408731
0.235217 0.336670 -0.294112
-0.208997 0.346684 -0.282294
0.215154 0.377062 0.235728
-0.178844 0.434112 -0.103294
-0.176572 -0.409221 -0.176371
0.178138 0.345735 -0.283518
-0.192602 -0.236254 -0.379399
0.243091 0.253368 0.364280
-0.014988 -0.440864 0.057103
0.065286 0.244625 -0.374575
-0.003942 0.052177 0.440139
0.190593 -0.395793 0.200701
0.033109 0.120855 0.426485
-0.093452 0.432714 0.105197
0.262092 0.435547 -0.096872
0.192931 -0.366920 0.249243
0.030761 -0.438056 -0.079185
0.190873 0.004055 -0.447500
0.039154 0.080455 0.435927
0.164026 0.411610 -0.173217
-0.253055 0.387723 0.217701
-0.227707 0.339522 0.286523
-0.169309 -0.416793 0.153048
-0.055634 -0.351600 0.270282
0.285583 0.438427 -0.083313
0.114309 -0.210911 0.389774
0.178956 0.296165 -0.335056
0.286269 -0.149555 0.416986
0.286907 0.317765 0.310200
0.226966 0.285487 -0.344470
-0.021102 0.088966 -0.438607
0.275867 0.409370 -0.178394
-0.062285 -0.401965 -0.192941
0.258056 0.330406 0.296863
0.242149 -0.353165 0.268264
-0.047567 -0.149412 -0.421390
-0.247433 -0.003682 -0.447480
-0.064905 -0.444456 0.012672
-0.097742 -0.177724 -0.410160
-0.254027 -0.319353 -0.311941
0.054470 0.374429 0.239702
0.161040 0.276428 0.347254
0.273929 0.370501 0.245483
0.024998 -0.120341 0.426336
-0.069499 -0.140949 0.420084
-0.049793 0.336847 0.289557
-0.212291 0.152349 0.416349
-0.252404 -0.225820 -0.385570
0.198865 -0.443374 0.032878
-0.290153 0.316503 -0.315816
0.179657 0.198760 -0.400841
-0.134315 0.336563 0.289879
-0.111740 -0.433115 -0.103169
0.094540 0.067848 0.437923
-0.204435 0.437725 0.082779
-0.013240 0.426053 -0.133260
0.201779 0.427661 0.123372
-0.131190 -0.405637 -0.184651
0.129739 0.295995 0.330853
-0.171344 0.439774 0.070455
0.228189 0.445307 -0.022555
0.164872 0.099674 -0.436214
0.274431 0.069387 0.437680
-0.069909 -0.395898 -0.204847
0.246557 -0.032354 -0.446270
0.283176 -0.442206 0.045234
-0.189304 -0.274960 -0.351951
-0.183503 0.267646 0.354066
-0.269104 -0.169041 0.409565
0.131311 0.445518 -0.015829
0.171049 -0.443932 0.026969
-0.119688 -0.256280 0.361604
-0.062292 0.439029 -0.079512
-0.110079 -0.375271 0.236956
0.038146 -0.390663 0.210770
-0.129478 -0.413044 -0.167537
0.160399 -0.258829 -0.364226
0.076205 -0.083160 -0.439676
0.024132 -0.444312 -0.021606
0.173238 0.444664 0.030067
-0.270842 0.303816 0.323958
-0.194305 -0.444246 0.019368
-0.087386 -0.356103 0.264477
-0.245491 0.236773 -0.379698
0.070921 0.405812 0.182262
0.120216 -0.263968 -0.360478
0.176147 0.443130 -0.050655
0.226228 0.445690 -0.010357
-0.272143 0.417206 0.154748
0.160007 -0.371839 0.242005
0.233517 -0.423025 -0.140093
0.225504 0.011178 0.442923
0.206475 -0.138351 -0.425373
-0.142848 -0.193411 0.398691
0.234113 -0.005355 -0.447427
-0.189625 -0.308706 -0.322588
-0.017002 -0.072849 -0.441322
0.065093 0.315764 0.312201
0.224239 -0.188697 0.401059
-0.126600 0.099405 0.431920
-0.115213 -0.050920 -0.444515
-0.268778 0.111519 -0.433550
0.114408 0.379407 0.231763
0.285583 0.350731 0.272723
0.012516 -0.337651 -0.291836
0.098606 0.130887 -0.427923
0.192419 0.212862 0.389302
0.282920 -0.070489 -0.441696
-0.096683 0.127722 0.424489
0.266163 -0.191603 0.399612
0.094060 0.426108 0.128717
0.179005 0.438801 0.076593
-0.089281 -0.399455 0.193514
-0.070270 -0.262613 -0.361529
0.204744 0.075429 -0.441076
-0.045879 0.015775 -0.447132
0.018247 -0.127552 -0.428595
-0.101581 0.399568 -0.199657
0.016507 -0.228434 0.379671
-0.215707 0.184493 -0.407675
-0.258095 -0.421295 0.140544
0.248212 -0.174229 0.407320
0.076626 0.431413 -0.114811
-0.020474 -0.232604 -0.381558
0.253347 -0.444436 0.013303
-0.250481 -0.303394 -0.327780
-0.203770 0.411999 0.167965
0.053082 -0.251404 0.364918
0.212462 -0.428862 0.115710
0.221809 0.386334 0.220049
-0.283598 -0.246564 -0.372561
-0.129464 -0.350556 0.271627
0.057748 -0.348337 -0.278842
-0.025345 0.000706 -0.447606
0.112577 0.174283 -0.412093
-0.214190 0.429918 0.115604
0.040304 0.299574 0.327698
-0.003519 0.100327 0.431714
0.022346 0.048235 0.440512
0.111114 0.043018 -0.445359
0.214537 0.443855 -0.042985
-0.244272 0.409461 0.173831
-0.289448 0.436593 -0.092195
0.021681 0.426910 0.125959
0.142629 0.358125 0.263191
0.221299 -0.124487 -0.429485
-0.122026 -0.310154 0.316787
0.218599 -0.417356 -0.155837
-0.008270 -0.027852 0.442342
0.275448 0.383671 -0.228906
-0.064871 0.339833 0.286170
0.248466 -0.126094 0.424665
-0.118448 -0.142331 -0.423940
-0.242465 -0.333545 0.292140
0.046702 0.221042 -0.389002
0.169985 -0.352956 -0.272888
-0.193244 -0.266565 -0.358463
-0.232693 0.154245 -0.420020
0.044058 0.183215 0.403874
-0.066571 -0.358945 0.260813
0.198942 0.257095 -0.366101
0.083111 -0.360159 0.259191
0.235591 0.445560 -0.014499
0.105935 0.137400 -0.426031
0.146950 0.445088 0.025178
-0.067227 -0.345479 -0.282527
-0.200330 0.010519 -0.447297
-0.042140 -0.240788 -0.376486
0.093945 -0.240174 0.372550
-0.100875 -0.125693 -0.429135
-0.249908 0.415319 0.159988
0.250757 -0.380114 -0.233188
0.136220 0.400723 -0.197389
0.081423 -0.377311 0.233574
0.199661 0.208272 -0.395995
0.254164 -0.385552 -0.223992
-0.276614 -0.205244 -0.397015
0.275114 -0.379201 0.230378
0.222491 -0.394811 0.202629
0.181400 0.314002 0.313964
-0.213000 0.121671 0.426247
0.050727 0.295605 0.331197
-0.177636 0.443548 0.041880
0.254186 -0.439501 -0.070057
0.076381 -0.348640 0.274098
0.219141 0.428140 -0.126076
0.147341 -0.252096 -0.368801
-0.039222 0.434210 -0.102856
-0.252882 0.282474 -0.346917
-0.161825 -0.444179 0.021489
0.141482 0.445404 0.015126
0.217205 -0.069647 -0.441829
0.101532 0.241048 -0.377006
-0.272423 0.062958 0.438698
0.012650 0.089346 -0.438522
-0.204588 -0.197339 -0.401043
0.090860 -0.430685 -0.113790
-0.287976 0.114683 0.428278
0.102976 0.175218 -0.411689
-0.020024 0.433343 -0.106733
0.144545 0.438606 -0.082178
-0.205350 0.058943 -0.443687
-0.002277 0.222407 -0.388194
-0.284601 -0.385378 -0.224286
0.190881 0.445059 0.025890
0.202446 0.266757 0.354756
-0.113104 0.314966 0.313000
0.031144 -0.350431 0.271789
0.273409 -0.101849 0.431145
-0.034205 0.254640 -0.367769
-0.252431 -0.137361 0.421376
-0.024102 0.411317 0.169541
-0.193567 0.067542 0.437972
-0.022195 -0.369782 -0.249386
0.267532 -0.055450 0.439725
-0.100804 0.375113 0.238696
0.179565 0.177730 -0.410601
0.202738 0.117416 0.427484
0.180710 -0.376707 0.234594
-0.096513 -0.171791 0.408375
-0.111243 -0.418500 0.148308
-0.136347 -0.444801 0.001702
-0.064127 0.436875 0.086578
0.003691 0.439618 -0.075792
-0.150888 0.399996 0.194463
-0.124495 -0.338519 -0.290852
0.077364 -0.435654 0.087459
-0.204280 0.433332 0.102430
0.089657 0.237420 -0.379316
-0.102178 -0.412050 -0.169833
-0.120920 0.222292 -0.388262
0.144724 0.045014 0.440817
-0.289049 0.228151 -0.384798
0.178203 -0.434199 -0.098322
0.021449 -0.082312 -0.439824
-0.092418 -0.436239 -0.089194
-0.002862 -0.142551 -0.423861
0.227693 -0.435724 -0.091500
-0.039278 -0.414414 0.159656
-0.060442 0.396710 0.200913
-0.289445 -0.392088 -0.212326
0.109265 -0.354970 0.265938
-0.277579 -0.411900 -0.170178
-0.001883 -0.311494 -0.319800
0.096201 0.445359 -0.020890
-0.100585 0.350877 0.272536
0.057287 -0.432739 -0.104851
0.244375 -0.016629 0.442720
-0.056115 -0.307824 0.319116
-0.064149 -0.290682 0.334634
0.285097 -0.434652 -0.096296
0.221238 -0.051997 -0.444413
0.009589 -0.056737 0.439521
-0.267933 0.312697 0.315268
-0.113508 -0.031551 0.441992
0.119912 0.024741 0.442497
-0.072155 -0.440174 -0.065811
-0.122636 -0.418796 0.147485
-0.096207 -0.075888 -0.440841
-0.110669 -0.118306 0.426927
0.041748 -0.230573 -0.382759
-0.204110 -0.092261 -0.437642
-0.169829 -0.101575 0.431206
-0.091611 0.315843 -0.316476
0.190384 -0.148001 0.417545
0.066766 -0.090919 -0.437942
-0.051703 0.443876 -0.042756
0.215190 -0.418372 0.148662
0.005131 0.324770 -0.307548
-0.179206 0.317242 0.310723
-0.033785 0.351957 -0.275497
0.275762 0.180584 0.405013
-0.110518 0.281095 -0.347987
-0.225357 -0.310270 -0.321023
0.229949 -0.383463 0.223172
0.088235 0.339191 -0.291252
0.232889 0.340462 0.285456
-0.278576 -0.364316 0.253076
-0.011733 -0.431001 -0.112629
0.030167 0.445917 -0.001220
-0.148689 -0.325693 -0.305400
0.019865 0.159045 -0.418291
0.092016 0.285469 -0.344486
0.063105 -0.206757 -0.396245
-0.279373 -0.275997 -0.351147
-0.175516 0.020668 0.442625
0.156181 0.170869 -0.413570
-0.213908 0.265988 0.355352
-0.040100 -0.434457 0.092815
-0.289776 -0.178122 0.405635
-0.105543 0.374224 -0.244357
-0.277757 -0.121904 0.425882
0.102362 0.145992 -0.422991
0.011130 -0.084268 0.435075
0.052521 0.440774 0.064139
-0.045981 -0.442755 0.039423
0.065407 0.256697 -0.366371
-0.107393 0.158676 -0.418424
0.157316 -0.142350 0.419580
0.154387 0.230237 -0.383564
-0.242837 0.062293 -0.443157
-0.055175 0.174201 -0.412129
-0.164545 0.324606 -0.307713
0.082930 0.070810 0.437454
0.215195 0.258062 0.361090
0.098449 -0.442314 0.044086
-0.188459 0.386998 -0.223281
-0.266820 -0.319418 -0.311875
0.276505 0.322243 0.305722
0.134113 -0.408492 0.173702
-0.074262 0.140098 0.420759
-0.154893 -0.375882 -0.240344
-0.201298 -0.261028 0.358378
0.013549 -0.058682 -0.443566
-0.139292 0.425144 0.132036
0.154653 0.445804 0.002395
0.073975 -0.254027 -0.367490
-0.078605 -0.444201 0.020789
0.205381 -0.344316 0.279673
0.078476 0.437526 0.083668
0.112736 0.400647 0.193185
0.007114 0.396705 0.200921
0.073809 0.378416 -0.237791
0.248146 0.193790 -0.403374
0.002370 -0.064614 0.438273
0.060878 0.332831 0.294112
-0.263384 0.057837 0.439509
0.097781 0.126809 0.424755
-0.216609 -0.399181 0.194052
0.110114 0.394048 0.206136
-0.090699 0.299192 -0.332388
-0.195667 -0.130323 -0.427790
0.208343 -0.307001 -0.324293
-0.065820 -0.186208 -0.406489
-0.040294 -0.437587 -0.082142
-0.117753 -0.426234 0.124757
0.284345 0.442262 0.054743
0.132495 0.180310 -0.409485
-0.227215 -0.078071 -0.440495
-0.192558 -0.039633 0.441228
-0.110626 0.043527 0.440957
-0.067777 -0.251899 0.364582
-0.181741 -0.368316 0.247189
0.219797 -0.346498 -0.281213
-0.041037 0.217317 -0.391205
0.152561 0.208495 0.391528
-0.147651 -0.168322 0.409876
-0.173718 -0.442138 0.045955
0.060863 0.064979 -0.442731
0.183564 -0.438145 0.074268
0.253714 -0.224059 -0.386611
0.222861 0.304606 -0.327615
-0.247712 0.175249 -0.411675
-0.239212 0.051119 -0.444593
0.076352 -0.329500 0.296728
0.062761 -0.250433 -0.369932
-0.187918 -0.087068 -0.438802
0.116116 -0.018666 -0.447009
-0.024114 -0.239819 0.372791
0.108797 0.171584 0.408908
0.244874 -0.441205 0.054950
-0.041975 0.330827 -0.300738
-0.045684 -0.420023 0.144078
-0.012822 0.388357 0.216629
-0.185456 -0.116911 -0.431686
-0.175639 -0.409853 0.170556
-0.197977 -0.110462 0.429206
-0.135885 -0.384958 0.220644
-0.135934 -0.097895 -0.436382
-0.090353 0.442675 -0.055470
-0.249795 -0.307884 0.319056
0.007219 -0.408740 0.173128
-0.149275 0.097121 0.432431
0.211668 0.292523 0.333914
-0.017838 0.351959 0.271141
-0.131159 0.432347 0.106839
-0.158344 -0.231617 0.377788
0.064373 -0.146785 -0.422336
0.264798 -0.335173 -0.294647
0.112111 -0.436121 -0.089722
0.260618 0.296455 0.330447
-0.226282 -0.434787 0.091338
0.230220 0.440459 -0.070479
0.283654 -0.424370 0.131174
-0.257486 -0.001785 -0.447540
0.229308 -0.261868 -0.362107
0.067114 0.253959 0.363878
-0.276961 -0.366825 -0.253737
0.128462 0.286708 0.339040
0.286920 -0.444695 0.005070
0.138333 -0.415123 -0.162039
-0.290070 0.031918 -0.446408
0.183469 -0.067960 0.437743
0.028710 -0.336217 -0.293463
-0.139155 0.378561 0.233193
0.275491 0.303357 -0.328716
0.195575 -0.265485 0.354947
0.218194 -0.021919 -0.446907
-0.281001 0.406058 0.181694
-0.052718 0.442727 0.050562
-0.026257 -0.387760 -0.220258
-0.029044 0.367291 -0.254558
0.192547 0.410129 -0.176641
-0.028123 -0.398923 -0.198912
0.142820 0.441154 0.061739
-0.159092 -0.219842 0.384752
0.136790 -0.250178 -0.370105
-0.116550 -0.366423 -0.254328
-0.099053 0.158961 0.413968
0.130626 0.119308 0.426934
-0.238272 0.318193 -0.314126
0.190317 -0.172575 -0.412389
-0.123590 -0.298571 0.327678
0.201918 -0.339671 -0.289545
-0.172499 -0.318892 0.308049
-0.061062 0.264865 0.356224
0.178092 -0.151994 0.416108
-0.049213 0.386693 0.219442
0.122347 -0.400176 0.192098
0.255663 -0.141319 -0.424304
-0.237621 -0.438531 -0.076180
-0.238506 -0.444499 0.011315
-0.262278 0.018754 -0.447039
-0.049747 0.213855 0.388797
0.164270 -0.442972 0.037133
-0.283392 0.306553 0.321412
-0.116685 -0.272609 -0.353775
-0.228703 0.092525 -0.437812
0.096126 -0.055682 0.439688
-0.256322 -0.444530 0.010320
0.060098 -0.444678 0.005620
-0.151264 -0.427381 -0.125163
0.212423 -0.105012 0.430438
0.036295 0.091953 0.433586
0.157367 -0.298196 0.328009
0.262634 -0.348641 -0.278450
-0.076037 -0.389747 0.212546
0.056088 -0.434470 0.092753
0.258529 0.033109 -0.446295
-0.063455 0.445041 0.026088
0.166557 0.125256 -0.429559
0.189510 0.205177 -0.397572
0.177123 -0.101423 0.431240
-0.077029 0.314683 0.313282
-0.075958 0.338903 0.287225
-0.206528 -0.444141 0.022697
-0.260433 -0.358712 0.261114
0.064575 0.096339 -0.436959
-0.164575 0.443397 0.043472
-0.186170 0.432346 -0.111194
0.154144 0.244430 -0.374708
0.113343 0.410482 0.171472
-0.085314 0.131432 -0.427765
-0.250898 0.282457 0.342578
-0.197030 0.440924 0.063188
0.091435 -0.277342 -0.350104
0.200279 -0.312017 -0.319277
-0.139057 0.445453 0.013565
-0.213569 -0.158632 0.413718
-0.125292 0.432077 -0.112397
-0.079771 -0.265522 0.354919
0.152267 0.417265 -0.158938
-0.133530 -0.042579 0.440950
-0.206671 -0.001247 -0.447557
-0.236215 0.366851 0.250853
0.123111 0.056059 0.439773
0.151011 -0.125880 0.424727
-0.138959 -0.329327 -0.301278
-0.192860 0.384933 0.222419
0.285694 0.297993 -0.333445
-0.143992 0.383609 0.224656
-0.177330 0.379186 -0.236490
0.259017 -0.277462 0.345658
0.205815 0.135666 0.422182
0.021715 -0.412739 -0.168241
-0.075536 0.315301 -0.317018
-0.139108 0.426543 -0.131573
0.274957 -0.366349 0.250083
0.185634 0.137949 0.421518
0.179968 -0.112872 0.428506
0.162346 0.445154 -0.027414
0.027127 0.210937 0.390283
-0.044894 0.379370 0.231826
-0.069974 0.092277 0.433514
-0.174839 -0.156155 0.414609
0.279810 -0.248263 0.367053
0.200009 0.295619 0.331184
-0.289156 0.393208 -0.212140
-0.073117 -0.443301 -0.038006
0.049429 -0.351985 0.269786
0.025066 0.073959 -0.441309
0.205354 0.411476 0.169174
0.166282 -0.183345 0.403375
0.231228 -0.140312 -0.424667
-0.062499 0.388661 -0.220468
-0.125946 -0.426830 -0.127060
0.182952 -0.432021 -0.108065
-0.271528 -0.399567 0.193294
-0.040191 0.407830 -0.181953
0.155960 -0.186617 -0.406312
-0.021787 -0.444381 -0.019426
0.265626 0.442662 -0.055600
0.122844 0.444824 -0.032731
0.035490 -0.435779 0.086898
-0.203461 -0.012266 0.442857
0.074614 -0.442117 0.046178
0.243925 -0.256613 0.361378
0.120857 -0.347895 -0.279412
-0.064719 0.128715 0.424201
-0.221628 0.445687 -0.010467
0.236890 -0.074425 -0.441073
0.188608 -0.295169 0.330678
0.085800 -0.376687 -0.238982
0.264650 -0.118763 -0.431148
-0.014701 -0.143737 0.419080
-0.091749 0.404751 -0.189068
-0.231244 -0.443884 0.027481
-0.123283 0.419337 0.148829
-0.271524 -0.424879 -0.133774
-0.171724 -0.380723 0.227805
-0.076822 0.420958 -0.148679
0.258507 0.043446 -0.445318
0.218343 0.346436 0.278260
0.235497 0.080148 0.435975
0.127596 0.016463 -0.447111
0.187717 -0.329598 0.296617
0.211164 0.439684 -0.075376
-0.121750 0.274121 0.349043
-0.209978 0.283842 0.341504
0.053293 0.431154 -0.115704
-0.126668 -0.444911 -0.002560
0.255375 -0.411372 0.167046
-0.131503 -0.398948 -0.198863
0.187339 -0.417799 -0.154606
0.094064 -0.370489 0.243992
0.141129 0.417172 0.154843
-0.227929 0.393124 -0.212304
0.163638 -0.415443 0.156799
-0.053869 -0.359068 0.260654
-0.070870 0.403206 -0.192516
0.266367 0.079398 0.436094
-0.178393 0.357724 -0.268062
-0.127618 -0.331463 -0.298855
0.272383 -0.044330 -0.445138
0.250282 0.375432 0.238226
-0.192093 0.332373 0.294632
-0.222873 0.213482 -0.393340
0.215564 0.011003 0.442929
0.162798 -0.347733 0.275267
-0.149489 0.424878 0.132951
0.053619 -0.424245 0.131604
0.197174 0.232451 -0.382255
-0.137204 0.191462 0.400206
0.236419 -0.325194 -0.305965
-0.033945 0.050950 -0.444609
0.171219 0.203563 0.394041
-0.223663 -0.020891 -0.446939
0.285949 -0.109651 0.429401
-0.208809 -0.384446 -0.225862
0.139805 0.428482 -0.124902
-0.220900 0.412465 -0.171243
0.203492 -0.279028 0.344443
0.057683 -0.283661 0.340824
0.133801 0.023096 0.442549
0.079945 -0.415373 -0.161346
0.272983 0.224178 0.382794
0.124967 -0.138624 0.420921
0.219205 -0.038113 0.441372
-0.005008 -0.295392 0.330481
0.172592 0.167256 0.410781
-0.058423 -0.386069 -0.223118
0.092789 0.293772 -0.337166
-0.142762 0.241387 0.372422
-0.240920 0.007187 -0.447402
-0.045321 -0.249503 -0.370564
0.124297 0.366223 0.251777
-0.116913 -0.423771 -0.137587
0.191344 0.182841 -0.408390
-0.143617 -0.422649 -0.141137
0.185156 -0.327337 -0.303535
-0.036096 -0.441428 0.053465
0.188799 -0.238395 -0.378113
0.070377 -0.186312 0.402091
0.086265 0.407895 -0.181802
0.155324 0.233945 0.377017
0.087036 -0.328800 -0.301876
0.212204 0.144658 0.419118
-0.060012 -0.125911 -0.429071
-0.039219 -0.435590 -0.092097
-0.186488 0.434411 0.097605
0.077088 -0.389127 -0.217947
-0.126656 0.444988 -0.030994
-0.089343 0.154893 0.415433
0.110905 -0.240819 0.372112
0.008612 -0.413512 -0.166453
0.004433 0.352663 0.270233
-0.176466 0.010711 0.442938
-0.239253 0.337758 -0.292877
0.240828 -0.197989 -0.400712
-0.166397 -0.088167 -0.438557
-0.122361 -0.355270 -0.269904
0.141924 -0.436537 0.083506
0.273802 0.438143 -0.085101
-0.068064 -0.117202 0.427248
0.255694 -0.079575 0.435904
-0.181813 -0.405235 -0.185582
-0.070402 0.300520 0.326864
0.008180 -0.285358 0.339327
0.170919 0.195287 -0.402611
0.133661 -0.444252 0.019174
0.243533 -0.400794 -0.195239
0.229983 -0.332065 0.293818
-0.233716 0.439796 0.070316
-0.169525 0.445937 -0.002523
0.033323 -0.287352 0.337569
-0.052521 0.303600 -0.328502
0.127548 -0.041959 -0.445362
0.030413 -0.093528 0.433005
-0.246473 0.306966 0.320999
-0.232289 0.287534 -0.342665
0.286401 -0.083238 0.435305
-0.079692 -0.312669 -0.318624
0.173426 -0.323999 0.302942
-0.275981 -0.357927 0.262125
0.019447 -0.247241 -0.372101
-0.073588 -0.151819 0.416170
0.168831 0.352703 -0.274535
0.196223 0.133550 0.422796
-0.032922 0.389438 0.214800
-0.140871 -0.160829 0.412927
0.016346 0.422677 -0.143904
-0.259516 -0.439962 -0.067146
-0.223595 0.138274 0.421416
0.005458 -0.069008 -0.441931
0.109940 -0.444369 0.015436
0.222176 -0.259212 0.359612
0.105030 -0.344011 -0.284420
0.078495 0.444127 -0.040109
-0.263221 0.402461 0.189625
0.170329 -0.438366 0.072870
0.158977 -0.163896 -0.416144
-0.240947 -0.440188 -0.065723
-0.201135 -0.049221 0.440322
-0.056735 -0.247474 -0.371942
-0.078335 0.436282 0.089233
0.251403 -0.063915 0.438384
-0.241115 -0.096390 -0.436719
-0.075016 0.013885 0.442838
0.082836 -0.268763 0.352405
-0.038409 0.393874 -0.210833
-0.055656 -0.431164 0.107543
-0.055399 0.332920 -0.298364
-0.043937 -0.219091 0.385196
-0.122146 0.388481 0.216420
0.089589 -0.128607 0.423935
-0.188681 -0.349811 0.272588
-0.279207 0.028736 0.442355
-0.051480 0.339371 -0.291048
0.116725 0.430941 0.112084
0.075678 0.386349 0.220024
0.021572 0.292291 0.334118
0.109739 -0.384208 -0.226265
0.181206 -0.198976 0.395856
-0.169753 -0.128168 -0.428416
0.002283 -0.031777 0.441971
0.277742 -0.372682 0.240764
-0.042926 -0.357554 -0.266960
0.192292 -0.089347 0.433939
0.012447 0.264702 0.356349
0.162462 -0.063283 0.438484
0.143903 0.112725 0.428847
0.203603 -0.436615 0.083160
0.071462 -0.401156 -0.194530
-0.154996 -0.241166 0.371876
0.276191 0.295099 0.331643
-0.229966 -0.436563 -0.087744
-0.188810 0.397471 0.199418
0.107132 -0.024192 -0.446835
0.031221 0.428353 0.120991
0.170625 0.368799 -0.252340
-0.240213 0.264197 -0.361095
-0.181864 -0.057514 -0.443751
-0.180810 -0.265067 0.355272
-0.279397 0.167133 -0.415187
-0.232366 0.165350 0.411606
-0.251441 0.151396 0.416692
-0.101276 0.016707 0.442749
0.031293 -0.070539 0.437335
0.068380 -0.275334 0.347308
-0.036245 -0.444501 -0.015581
-0.065120 -0.169502 0.409365
-0.216029 -0.404758 -0.186682
0.200924 -0.055112 0.439765
-0.057589 -0.420693 0.142216
-0.096632 0.269855 0.352353
-0.070460 -0.321075 0.305865
0.046811 -0.393481 0.205238
0.086917 0.434161 0.098720
-0.160641 -0.293413 0.332225
-0.087624 -0.064957 0.438219
-0.084600 0.445317 0.017867
0.170331 -0.359100 0.260614
0.143693 0.237997 -0.378975
0.276692 0.048266 0.440509
-0.182218 0.110729 0.429389
0.179729 0.258365 0.360884
0.285308 0.366777 -0.255315
-0.178189 -0.361506 0.257210
0.253742 0.397477 0.199407
-0.147584 0.111666 0.429154
-0.074307 -0.437094 0.080904
-0.187316 0.444941 -0.031489
0.012237 0.013190 0.442860
-0.078914 -0.198780 -0.400309
-0.137847 -0.051756 0.440082
-0.084264 -0.199708 0.395483
-0.229081 0.297397 0.329617
-0.018483 -0.229124 0.379262
-0.185551 -0.179737 -0.409289
0.163483 0.158801 0.414026
0.034248 -0.220179 0.384553
0.061670 -0.289366 -0.340147
0.169564 0.407866 0.177516
0.205078 -0.434759 -0.095816
-0.276371 -0.073660 0.436840
-0.146277 -0.074842 0.436653
0.075709 0.062001 0.438849
0.172084 0.445141 -0.027830
-0.032769 -0.305953 0.320987
0.130111 -0.425314 -0.132278
0.101183 -0.089416 -0.438277
-0.181732 0.427976 0.122288
-0.026272 -0.262479 0.357279
0.232338 -0.348955 0.273691
-0.110979 0.443708 -0.044542
0.150208 0.369173 0.247436
0.197581 -0.417819 -0.154551
-0.192322 0.281021 0.343691
0.019867 0.159228 0.413872
0.257887 -0.407804 -0.179645
-0.227427 -0.429368 0.113970
0.043715 -0.431029 0.108151
-0.184141 0.301813 0.325723
-0.005568 0.297802 0.329260
0.239654 -0.202148 0.394239
-0.065707 -0.435601 0.087694
0.142014 -0.242410 -0.375384
-0.177501 0.321595 -0.310723
0.191422 -0.342180 0.282345
-0.131476 0.390520 0.212972
-0.141245 -0.427980 -0.123102
0.161870 -0.165037 0.411297
0.213657 0.356436 0.265368
0.036653 0.068644 -0.442151
-0.202529 0.339043 0.287067
0.134075 0.331346 0.295797
0.102774 0.230339 -0.383503
-0.277682 -0.205845 0.392355
0.139473 0.246848 0.368711
0.180143 -0.434478 0.092718
0.169951 -0.411096 0.167685
0.015630 0.443397 0.043478
-0.139033 -0.348195 0.274671
0.051332 0.390961 0.212197
0.005615 -0.433217 -0.102716
-0.077445 -0.337694 -0.291787
0.093495 0.239958 0.373394
0.165834 0.443069 -0.051294
-0.063892 -0.032202 0.441931
-0.095546 -0.275147 -0.351806
-0.193392 -0.431663 -0.109665
0.072568 -0.052353 0.440026
0.033747 -0.403921 -0.188618
0.185527 0.413608 0.164246
0.264263 0.359657 -0.265569
0.165928 0.433902 0.099879
0.006053 -0.377183 -0.238144
-0.153172 0.075842 -0.441011
0.152601 -0.244282 -0.374112
0.158004 0.088795 -0.438645
0.033586 -0.175677 -0.411046
-0.162871 0.443324 -0.048603
-0.257543 0.164377 -0.416372
-0.044983 -0.384477 -0.225811
-0.105064 0.443670 0.040589
0.229508 -0.342011 -0.286891
-0.127487 -0.429787 0.112527
-0.168267 0.287351 -0.342827
-0.123766 0.135315 0.422284
0.131425 0.440188 0.067839
-0.150012 -0.120021 -0.430783
0.075367 0.402632 -0.193643
-0.199415 -0.254827 -0.366945
-0.032251 -0.431108 0.107796
0.117417 -0.431092 -0.112221
-0.095680 0.181082 0.404797
-0.206203 -0.390511 0.211068
0.204854 0.008179 -0.447371
0.247583 -0.410693 -0.172968
-0.111478 -0.301466 -0.329480
0.047811 0.437420 -0.088497
-0.086364 -0.163891 -0.416147
0.006666 0.201098 0.395297
-0.176174 -0.027351 -0.446736
0.276951 -0.359519 0.260074
-0.264790 0.445771 0.003437
-0.228560 0.112275 0.428977
-0.120425 -0.152770 -0.420181
0.231434 0.001158 0.443238
-0.134898 0.114908 0.428212
-0.056274 0.343448 0.282070
-0.122975 -0.023796 0.442494
-0.133587 -0.424713 -0.134345
0.020079 -0.246753 0.368079
-0.230672 0.084111 0.435339
-0.111062 0.444876 0.027834
-0.142920 -0.000447 -0.447582
0.244867 -0.439921 -0.067407
-0.058175 -0.214539 -0.392242
0.062437 -0.213095 0.388662
-0.202642 -0.444202 -0.025121
-0.266150 -0.444482 0.011860
0.195520 -0.325987 -0.305066
-0.144975 0.445931 -0.001666
0.106651 0.250660 -0.370474
0.086538 0.445875 0.000120
-0.156778 0.105904 0.430467
0.183683 -0.251127 0.365107
-0.188509 -0.444184 -0.025667
0.196848 -0.266211 -0.358738
-0.190073 0.202602 -0.398884
0.173490 -0.437716 -0.081328
-0.171447 -0.378559 -0.235817
-0.054631 -0.202965 -0.398177
-0.115810 0.445789 0.002865
-0.185876 -0.051681 0.440089
-0.263615 -0.227191 0.380406
-0.117820 0.377599 0.234819
-0.062421 -0.442852 -0.042753
0.091030 -0.432514 0.101506
0.230374 0.355486 -0.270947
0.185865 -0.071717 -0.441502
-0.113545 -0.289777 -0.339785
-0.220671 -0.070417 0.437354
0.180194 0.051939 0.440162
0.068838 0.333259 -0.297980
0.016303 -0.211033 -0.394066
0.064644 0.027804 0.442401
0.056284 -0.297556 0.328573
0.280093 -0.401389 -0.194071
-0.150859 0.236335 0.375604
-0.215224 0.021920 -0.446939
-0.156710 0.445837 -0.005677
-0.226619 -0.080118 0.435818
-0.058851 -0.425601 0.126937
-0.276388 -0.430092 -0.115831
0.128998 -0.157488 -0.418483
-0.091839 -0.416346 -0.158642
0.076992 -0.175399 0.406813
-0.076121 -0.420819 0.141865
-0.178562 -0.158481 -0.418125
0.011482 -0.241198 -0.376208
0.055532 0.206625 -0.396834
0.115659 -0.362511 -0.260084
-0.117306 -0.411503 0.166743
-0.058593 -0.106933 0.430008
-0.209482 0.240409 0.373087
0.053580 0.159788 0.413670
0.150724 -0.223591 -0.386888
-0.045706 0.398486 -0.201781
-0.071260 -0.076497 -0.440745
-0.111212 0.011289 -0.447273
-0.064236 0.433947 0.099679
0.086320 -0.195283 -0.402091
0.262568 0.402484 -0.193933
0.092535 0.423027 0.138580
0.112591 0.404926 0.184309
-0.068794 0.153057 0.416094
0.205605 -0.312821 0.314119
0.214237 -0.374335 -0.242686
0.097763 -0.161302 -0.417110
-0.117076 0.206668 0.392459
-0.159280 -0.180143 0.404760
0.040877 -0.095549 0.432553
-0.015048 -0.346016 -0.281834
0.075648 -0.195467 0.397644
-0.019585 -0.340154 -0.288996
0.159738 0.145947 -0.423007
0.177101 0.294628 0.332058
-0.250618 0.400371 0.193727
0.276348 0.442901 0.048723
-0.215629 0.067191 0.438027
-0.189924 -0.005301 0.443076
0.067218 0.310433 -0.321886
-0.106642 -0.031535 -0.446347
-0.135486 -0.409405 -0.175945
-0.069282 0.401317 0.191870
-0.214162 -0.171315 -0.412934
0.036831 0.010727 -0.447291
-0.201543 -0.100253 0.431502
-0.111736 -0.319540 0.307401
-0.204964 0.284078 -0.345674
0.282057 -0.022601 0.442532
0.176367 -0.142616 -0.423837
-0.161578 -0.002148 0.443175
0.149585 -0.169950 -0.413525
0.236062 -0.395332 -0.205959
-0.125541 0.398237 -0.202270
-0.177011 0.445532 0.011038
0.009266 0.445150 -0.027548
-0.017294 -0.209962 -0.394611
-0.235860 0.400353 -0.198117
-0.108076 -0.408890 0.172781
-0.281885 -0.344245 -0.284118
-0.052809 0.039162 -0.445723
-0.079180 0.358021 -0.267678
-0.221965 -0.326071 0.300618
-0.156086 -0.333300 -0.296771
0.117574 -0.095267 0.432616
0.178549 0.429650 0.116525
-0.244082 0.123567 0.425697
-0.155450 0.439523 -0.076389
-0.146845 -0.269689 0.351686
-0.107644 0.445587 -0.013661
-0.221503 0.290897 0.335348
0.248344 0.332865 0.294074
0.127146 -0.167617 -0.414534
-0.127040 0.290608 0.335602
-0.171536 -0.444269 0.018636
0.073305 -0.431224 0.107277
0.247199 0.066386 0.438155
-0.066082 0.116006 -0.432247
-0.070681 0.240732 -0.377221
0.188821 -0.335952 -0.293763
-0.156013 0.381685 0.227910
0.246897 -0.418518 -0.152611
-0.126321 0.445721 0.005012
-0.019306 0.445244 0.020214
-0.134738 -0.125669 0.424788
0.203081 -0.352230 -0.273824
-0.008870 0.045960 -0.445081
-0.131602 -0.443777 0.028616
-0.020602 0.055825 0.439795
-0.233118 0.443756 -0.044027
-0.099380 -0.435285 0.089109
-0.288957 -0.133657 -0.426821
0.081880 0.238176 0.374515
0.112626 0.426271 -0.132512
-0.173268 -0.424558 0.130526
-0.007271 0.351742 0.271420
-0.015068 0.415666 0.159026
0.249980 0.444050 -0.040921
-0.095972 0.342461 0.283189
-0.226255 0.243247 -0.375512
0.253510 -0.103408 0.430796
0.193160 -0.397476 -0.201751
0.231432 0.117363 0.427499
0.256230 -0.260439 0.358779
-0.140183 0.059874 0.439186
0.084445 -0.441823 -0.053637
-0.034144 -0.274315 0.348098
-0.265373 -0.413118 0.163012
-0.143046 0.430776 -0.117004
0.121239 0.424402 -0.138943
-0.024876 -0.436861 0.082059
-0.023450 -0.149362 0.417055
0.169248 0.341111 -0.289073
0.276394 0.435788 -0.095797
0.266033 0.430176 -0.119070
-0.186888 0.258507 0.360788
0.120809 -0.442655 -0.044839
0.036985 -0.183396 0.403353
-0.229821 0.435953 -0.095056
-0.095395 -0.420561 -0.146937
0.231472 0.427456 0.124079
0.169211 -0.193109 0.398845
0.187105 0.304126 -0.328038
0.126169 -0.201121 0.394763
-0.189911 0.161747 0.412965
0.055883 0.113544 -0.432962
0.123823 -0.196008 -0.401721
-0.177046 0.244946 -0.374357
0.056343 0.278464 -0.350029
-0.151316 -0.279832 0.343819
-0.236928 0.430978 0.111956
0.031130 -0.191586 -0.403975
0.122827 -0.428602 -0.120959
-0.199952 0.151296 -0.421081
0.191145 -0.388063 0.215392
-0.225049 0.438371 0.079307
0.256199 -0.295475 0.330408
0.129327 -0.387003 -0.221539
0.040192 -0.158718 -0.418040
-0.253319 0.376809 -0.240509
-0.246424 -0.274552 -0.352268
0.165648 0.445794 0.002719
-0.015340 -0.316869 -0.314425
-0.107479 -0.444898 -0.001378
0.055758 -0.444725 -0.008460
-0.205936 -0.143325 -0.423582
-0.161248 -0.401483 -0.193888
-0.160304 -0.393224 -0.210096
-0.127793 -0.061986 0.438689
0.017911 0.380858 -0.233663
0.221050 -0.147729 0.417643
0.104123 0.000785 0.443250
0.152867 -0.345371 0.278313
0.026513 0.273456 0.349560
-0.287051 -0.231284 0.377985
-0.132475 -0.309897 0.317043
-0.085720 0.131815 0.423300
0.159784 -0.389514 0.212939
-0.133623 -0.339187 0.285740
-0.056798 -0.285196 0.339470
0.040151 0.102769 0.431168
-0.127410 0.318734 -0.313584
-0.124143 0.069071 -0.442083
-0.121851 0.441295 -0.065202
0.080630 0.141400 0.420291
0.194351 -0.374797 0.237653
-0.277242 -0.444530 0.010319
-0.050777 0.417837 -0.157349
0.078204 0.313598 -0.318720
0.094899 -0.432833 -0.104431
0.132446 -0.113174 0.428418
0.158038 0.284610 0.340890
-0.159469 -0.381250 -0.231267
-0.256441 0.235198 0.376276
0.117305 0.317466 -0.314853
0.070568 -0.133906 0.422395
-0.209221 0.224495 -0.386960
0.140788 0.075236 0.436753
-0.165261 0.350312 -0.277617
-0.034745 0.421555 -0.147023
-0.160380 0.373366 -0.245619
-0.027493 -0.407387 0.176254
-0.198465 0.391409 -0.215669
0.001539 -0.003049 0.443146
-0.163375 0.305201 0.322736
0.127252 0.372270 -0.247232
-0.207127 -0.415665 -0.160535
0.280270 -0.393489 0.205224
0.020909 -0.257086 0.361057
0.010915 0.000969 0.443244
0.127000 0.417973 0.152618
-0.100480 -0.114584 -0.432362
-0.186601 -0.374823 -0.241968
0.265756 -0.095772 0.432503
0.163698 -0.431086 -0.112248
-0.147753 -0.351311 0.270655
0.240946 -0.444117 0.023445
0.139408 0.367545 0.249832
-0.243673 -0.047383 0.440496
0.242638 -0.331539 0.294415
0.020000 -0.290522 0.334774
-0.149370 -0.346014 -0.281836
0.099523 0.436244 -0.093758
0.156345 -0.203432 0.393585
0.257721 0.235754 0.375948
-0.149633 -0.442861 0.038303
-0.045494 0.184556 0.403294
-0.192383 -0.251112 0.365117
0.018247 0.432867 -0.108863
0.250200 0.392695 0.208793
-0.206022 -0.156723 -0.418758
-0.253457 0.441312 -0.065093
0.124185 0.138888 0.421195
0.225524 -0.282036 0.342109
0.189764 -0.031714 -0.446330
0.274867 0.445137 0.023621
0.111666 -0.438667 0.070971
0.206382 -0.269117 0.352130
-0.110745 0.364683 -0.258396
0.238514 0.430267 0.114404
-0.007461 -0.393990 -0.208593
0.030850 -0.425453 -0.131800
0.278241 -0.172703 -0.412333
-0.038307 -0.320900 -0.310394
-0.228540 -0.155824 -0.419082
0.078841 0.222612 0.383720
0.242060 -0.149073 0.417159
-0.088806 0.368173 0.248907
-0.289231 -0.042048 0.441000
0.098673 0.432256 -0.111599
0.191299 -0.403026 -0.190686
0.086790 -0.218006 -0.390191
0.004126 -0.017769 0.442684
-0.092667 -0.207159 0.391686
-0.250576 -0.355105 0.265763
0.128604 -0.300755 0.325753
-0.065970 -0.333671 0.291997
-0.142153 -0.210306 0.390083
0.063555 0.370055 0.246138
0.002337 -0.441125 0.055449
0.069945 0.373119 -0.245983
0.284584 0.091759 -0.437983
-0.176283 -0.092562 -0.437574
0.035590 -0.103747 0.430721
0.142808 0.122682 -0.430307
0.137200 0.393807 0.206610
-0.080677 0.275746 -0.352137
-0.251010 -0.444675 -0.010052
0.074432 0.357822 -0.267935
-0.093902 0.380971 0.229117
-0.207148 -0.251338 0.364963
0.136770 0.211615 -0.394291
0.177897 -0.436756 0.082526
0.238047 -0.211965 0.389238
-0.218602 0.386402 0.219934
-0.109329 0.021423 -0.446955
-0.051937 0.438528 0.078321
-0.054591 0.377218 -0.239817
0.007029 -0.306771 -0.324523
-0.183198 0.309695 0.318270
0.061806 0.442723 -0.054958
-0.064738 0.381714 0.227861
-0.003803 -0.398662 -0.199423
-0.211856 -0.101647 -0.435543
-0.267402 0.045506 -0.445124
-0.271125 0.442560 -0.056678
0.224106 0.444457 -0.036614
-0.023047 -0.417879 0.150031
-0.066488 -0.075305 0.436580
0.224855 0.401071 0.192354
0.065271 0.430918 -0.116515
0.072608 -0.025181 0.442451
-0.210077 -0.424681 -0.134455
-0.080611 0.148996 0.417556
-0.234308 -0.149293 0.417080
-0.174810 -0.330359 0.295754
-0.196998 0.442750 0.050320
0.240810 -0.436628 0.083100
-0.140371 -0.424191 0.131787
-0.103693 0.441037 0.062476
0.140593 0.382559 0.226432
-0.258626 0.252003 0.365208
0.086613 -0.171300 0.408587
0.080098 -0.032649 -0.446242
0.286207 -0.367402 0.248535
0.070165 0.105484 0.430561
0.284216 0.271126 -0.355720
0.224949 -0.403596 -0.189370
0.276050 -0.012892 -0.447191
-0.289538 -0.444569 -0.013415
0.082599 0.388404 -0.220902
0.130296 -0.236266 0.375039
-0.127588 -0.069834 -0.441800
-0.280376 -0.444059 0.025313
0.025291 -0.035997 0.441572
0.084968 -0.223215 0.382757
0.207981 -0.411105 0.167662
0.227983 -0.030517 -0.446444
-0.247147 0.445734 0.004623
-0.250833 0.355233 -0.271273
0.062135 -0.402902 -0.190973
0.272281 -0.183787 0.403183
0.277446 -0.371140 -0.247388
0.214268 0.419485 -0.152770
-0.106276 -0.092908 0.433143
-0.127484 -0.393164 0.205861
0.015109 0.070193 0.437552
-0.218405 0.162701 -0.416975
-0.250871 0.194264 0.398779
-0.123972 0.445849 -0.005322
-0.033480 -0.025326 0.442446
0.244772 0.437991 -0.085940
-0.114364 0.229654 -0.383909
0.126163 0.440172 -0.072295
0.099720 0.259124 -0.364722
-0.199592 0.126242 0.424919
-0.111683 0.164324 0.412037
-0.186389 -0.438148 -0.078603
0.014102 -0.390265 0.211549
0.254476 0.071974 -0.441623
-0.072376 0.438225 0.080234
-0.246333 -0.190148 -0.404707
0.153136 0.153611 0.415894
-0.287451 0.278181 0.345895
-0.122383 0.403824 -0.191209
-0.237294 0.156754 0.414763
-0.008248 0.161565 0.413031
-0.016730 0.346854 -0.282075
0.260606 0.229120 -0.384224
0.121082 -0.193425 0.398684
0.259837 0.259133 -0.364716
-0.144194 -0.151350 -0.420693
-0.107246 -0.339866 0.284970
0.251206 0.406353 0.181011
-0.025580 0.278996 -0.349615
0.144580 0.092746 -0.437762
0.279363 -0.290980 0.334371
-0.254811 0.188641 -0.405880
0.281299 0.202843 -0.398761
0.274903 -0.101023 -0.435683
-0.129482 0.443859 0.038582
-0.264747 0.418987 -0.154154
0.037469 0.048697 -0.444822
-0.067880 -0.438793 -0.074529
-0.047525 -0.370746 0.243613
-0.283439 0.314855 0.313110
-0.092301 0.328649 -0.303209
-0.160437 0.174081 0.407827
-0.087627 0.389686 -0.218736
-0.024692 -0.410498 -0.173419
-0.177339 -0.225085 0.381651
0.176553 0.163184 -0.416801
-0.212286 0.380208 0.230408
0.165510 -0.360220 -0.263455
-0.201051 0.407172 0.179120
-0.096575 0.445125 0.023994
0.232874 0.131677 0.423340
0.271414 0.302189 0.325392
-0.078788 -0.299771 0.326620
-0.157122 0.294269 -0.336728
0.235625 0.264647 -0.360746
0.136502 0.352173 0.270864
0.215741 0.120958 0.426455
0.051389 0.444515 0.031646
0.226501 0.160751 -0.417677
-0.109112 0.365821 0.252369
-0.211396 -0.259004 -0.364107
-0.196216 0.445715 0.005229
-0.159537 -0.443372 0.032903
0.157806 0.025145 0.442484
-0.101580 -0.430713 0.109340
-0.277705 0.216795 -0.391513
-0.100769 0.092992 -0.437707
-0.144356 0.409622 -0.177812
-0.288126 0.185587 -0.407201
-0.198547 0.218189 0.386336
0.271298 0.445042 -0.030424
0.256485 -0.444700 -0.009268
-0.251309 0.126481 -0.429204
0.218885 -0.433729 -0.100424
0.078640 -0.044286 0.440789
-0.132973 -0.074918 0.436641
0.134503 0.114365 -0.432723
-0.081309 0.233480 -0.381646
0.131338 0.387929 -0.221706
-0.114312 0.422830 0.139126
-0.161431 -0.431538 0.105871
-0.221919 -0.356202 -0.268702
-0.176703 -0.302277 0.324410
-0.161679 0.018736 0.442686
-0.074938 -0.066419 0.437987
-0.103363 -0.438786 -0.074571
0.231552 -0.413665 0.161736
0.094077 0.112031 -0.433402
0.226366 0.306382 0.321583
-0.278268 -0.402280 -0.192323
0.286310 -0.133525 0.422506
-0.048474 -0.373472 -0.243955
-0.033087 0.377724 0.234608
0.166966 0.437636 0.083175
0.096987 0.404275 -0.190167
0.196292 0.038224 0.441458
-0.177408 0.269088 -0.357301
0.286724 -0.222662 -0.387437
0.116008 -0.333560 -0.296476
-0.034466 -0.330400 -0.300061
0.159795 -0.045582 0.440666
-0.289625 0.263062 0.357622
0.190884 0.340629 0.285267
-0.126226 0.110779 0.429378
-0.194079 -0.418306 0.148847
-0.186332 -0.425390 0.127663
-0.101499 -0.442946 -0.041757
-0.131790 -0.320345 -0.310949
0.109967 -0.171389 0.408548
0.057309 0.275365 0.348079
0.090815 -0.351359 0.270593
-0.022906 0.418149 0.152127
0.124212 -0.107173 0.429955
0.120185 -0.235112 0.375722
0.212112 0.341887 -0.288193
-0.101373 -0.369868 -0.249258
-0.193803 -0.063683 -0.442774
0.175339 -0.424787 -0.134091
-0.078396 -0.120928 0.426166
-0.102642 -0.384632 0.221195
-0.252964 -0.365873 -0.255138
-0.033972 0.176865 -0.410975
-0.054515 -0.444157 -0.026540
0.098814 -0.113570 0.428303
0.032999 -0.308453 0.318487
-0.166926 -0.426953 0.122281
-0.179186 -0.434002 -0.099201
-0.026527 0.268172 -0.358012
0.273019 -0.032290 0.441923
0.075754 0.281006 -0.348056
0.105821 0.041821 0.441118
-0.136490 0.095088 0.432885
0.157474 0.262346 -0.362531
-0.283052 -0.174213 -0.411680
0.005630 0.310940 0.317025
-0.218823 0.231232 -0.382975
0.224010 0.431143 -0.115741
-0.193118 -0.392571 -0.211378
-0.202806 -0.376688 -0.238980
-0.272547 -0.176625 -0.410636
-0.287590 -0.236633 -0.379175
-0.083242 -0.282735 0.341567
0.172836 0.106858 0.430254
0.020283 -0.164182 0.411667
0.267281 0.039854 0.441304
-0.055441 0.380573 0.229790
0.216370 -0.266001 0.354547
0.187091 -0.272823 -0.353609
-0.184855 0.250641 -0.370487
-0.221369 -0.349719 0.272707
-0.021565 -0.067273 0.437852
-0.113523 -0.161244 -0.417131
-0.242230 0.385640 0.221223
0.049187 -0.310753 0.316187
-0.078829 -0.310840 0.316100
0.167555 0.216048 0.387602
0.199557 -0.413710 -0.165965
-0.094616 0.444124 0.035787
0.188461 -0.421590 -0.144077
0.056741 0.418470 0.151236
0.056159 -0.438548 -0.076079
-0.174808 0.303755 -0.328365
0.058441 0.436411 -0.093007
0.061683 0.426740 -0.130895
-0.268928 0.237303 -0.379385
-0.044359 0.094934 0.432920
-0.079963 -0.365108 0.251909
0.047150 0.441655 -0.062927
-0.126134 0.351025 0.272345
0.037897 -0.268423 0.352669
-0.100247 -0.209287 -0.394955
0.062400 0.444892 0.027663
-0.158257 0.444579 0.030974
0.036413 -0.444330 -0.021030
0.041033 -0.074101 -0.441124
-0.009574 0.398218 -0.202306
-0.067685 -0.282261 -0.346288
-0.080472 -0.431206 0.107358
0.132611 0.324271 0.303694
-0.162983 0.163779 0.412234
0.244419 -0.296412 0.329581
-0.101076 0.418627 -0.155154
0.115137 0.404932 -0.188648
0.282173 -0.310948 -0.320345
0.269447 -0.233607 -0.380965
-0.286912 -0.185455 -0.406815
-0.147312 -0.369555 -0.249719
-0.065850 -0.015040 0.442770
-0.245218 -0.412104 -0.169708
-0.218118 0.423375 -0.141966
-0.065356 0.103366 -0.435388
0.093364 -0.057650 -0.443730
-0.133692 0.345934 0.278907
-0.054952 0.254808 -0.367655
0.254748 -0.433234 0.098283
0.162887 0.405281 -0.187843
-0.119672 0.423200 -0.142451
-0.061378 -0.428267 0.117761
-0.152263 0.317692 0.310274
-0.281751 -0.183825 0.403167
0.086315 -0.255806 -0.366280
0.221003 -0.411666 0.166367
-0.288173 0.401477 -0.195911
0.022156 0.024323 0.442510
-0.000650 0.371915 0.243401
-0.033872 0.444885 -0.032088
0.234167 0.276303 -0.351705
0.190649 0.174019 -0.412207
-0.069361 0.371288 0.244324
-0.089250 -0.217491 0.386142
-0.005538 -0.424550 -0.134907
-0.240829 0.214441 0.388498
0.136640 0.412996 -0.170014
-0.197897 0.142030 -0.424417
0.000119 0.085555 -0.439370
0.138082 -0.319527 -0.311767
-0.243110 0.145350 -0.423222
0.248013 0.358911 0.262178
0.283710 0.337571 0.288736
0.102928 -0.320021 -0.311273
-0.288092 0.408830 -0.179642
-0.177761 0.356230 0.265634
-0.135210 -0.303915 -0.327320
0.064777 -0.365087 -0.256294
0.041247 -0.402520 0.187499
0.269968 0.431448 0.110338
-0.117486 -0.135884 0.421821
-0.190101 -0.283280 0.341144
-0.073237 -0.441181 0.055096
0.100814 0.341282 -0.288880
0.107169 0.256288 0.362296
-0.080771 0.410601 0.171197
-0.137957 -0.341697 -0.287247
-0.089367 -0.362018 -0.260810
0.253958 -0.323343 -0.307951
0.134795 -0.194018 -0.402735
0.032185 -0.302130 -0.328894
0.255152 0.125024 -0.429627
-0.075336 0.443813 -0.043432
0.033870 -0.374287 0.238402
-0.160681 0.312706 0.315259
-0.033398 0.228772 -0.384430
0.272388 -0.165560 0.411071
-0.068948 0.049196 -0.444775
0.142000 -0.007657 0.443002
0.035879 -0.138406 0.421000
0.028743 -0.441409 0.053661
-0.284762 -0.402054 0.188414
0.269466 0.140516 -0.424962
-0.287397 -0.356641 -0.268136
0.126575 -0.444735 -0.008141
0.067002 0.440950 0.063027
-0.118419 0.297913 0.329162
-0.205312 -0.389901 -0.216619
-0.137279 0.202502 -0.398935
-0.111928 0.390986 0.212147
0.099215 0.221902 0.384139
0.186761 0.266176 0.355207
0.137962 0.442542 0.052519
0.017208 0.384189 0.223677
-0.151512 0.183325 -0.408180
0.063500 -0.179045 0.405235
0.108186 0.437768 -0.086937
0.088435 0.201487 0.395099
0.051098 0.415148 0.160465
-0.045248 0.428482 0.120548
-0.280293 -0.059343 0.439108
-0.170184 -0.341359 0.283277
0.165542 -0.171446 -0.412877
0.104822 -0.219211 0.385125
0.098545 0.411699 -0.173012
0.056299 -0.161779 0.412585
-0.100727 0.260454 0.359465
-0.104799 0.360568 0.260042
0.011537 0.404733 0.184756
0.032919 0.314071 0.313894
0.106473 0.087502 0.434581
-0.276254 0.131098 0.423509
0.194170 -0.307972 0.318968
0.130227 0.435803 0.091375
0.017877 0.386458 -0.224193
-0.227582 -0.361130 0.257763
0.111289 -0.129509 -0.428026
0.095720 0.339194 0.286895
0.178840 -0.408782 0.173031
-0.235462 0.085146 -0.439461
-0.223843 0.324642 0.303323
0.042042 0.422636 -0.144018
0.196388 0.404037 -0.190717
0.184001 0.073442 0.437037
0.097979 -0.043033 -0.445260
-0.165619 -0.347536 -0.279874
-0.054229 0.435714 0.091773
-0.194834 0.245702 -0.373843
-0.242596 -0.234093 0.376324
0.174262 -0.302239 0.324445
-0.193725 0.041092 0.441187
-0.183391 -0.419921 -0.148712
-0.169722 0.410573 -0.175613
-0.138588 0.328968 0.298494
-0.278302 0.296851 -0.334452
0.239670 0.009174 -0.447340
-0.028804 0.125115 -0.429600
-0.267530 0.397840 0.198695
-0.289506 -0.109743 -0.433734
-0.237510 -0.394636 -0.207325
-0.129947 -0.427160 0.121571
0.283695 0.076317 0.436582
-0.182787 0.027154 0.442421
-0.187879 0.151551 -0.420989
-0.125444 0.414809 -0.165759
0.034781 -0.007333 0.443012
0.224903 -0.441294 -0.058738
