-0.223096 0.345625 0.357064
0.038171 0.377312 -0.327902
-0.019442 -0.497033 -0.027164
-0.062812 0.204237 0.452179
0.240772 -0.361115 0.340300
-0.189097 -0.041398 -0.498485
-0.137668 0.307655 0.389772
-0.076488 -0.058570 -0.496629
0.065375 -0.078859 0.489463
-0.029349 0.232996 -0.442727
-0.100451 -0.289650 -0.406877
0.284473 0.389926 -0.312498
-0.267306 0.171723 0.465418
0.262497 0.492424 0.075311
-0.067535 -0.266128 0.418454
-0.261524 0.035060 -0.498947
0.214402 -0.290786 0.401808
-0.248271 0.298713 -0.400954
0.270100 -0.490082 -0.088773
-0.012919 0.119993 -0.485756
-0.147945 0.467928 0.169777
-0.097159 -0.467196 0.168732
0.114221 0.492278 0.076322
-0.141894 0.421506 0.263914
0.255852 0.498135 0.019827
0.227844 0.029902 -0.499365
0.168966 -0.076943 -0.494105
0.090249 0.196081 -0.460122
0.254227 -0.004815 -0.500292
0.107656 0.429737 0.250288
-0.173408 -0.441719 -0.231248
-0.267735 0.240988 -0.438277
-0.279115 0.245345 -0.435778
-0.215366 -0.336044 -0.369167
0.262027 -0.427763 -0.256296
-0.205808 -0.348151 0.353322
0.270456 -0.446556 0.217516
0.103125 0.493251 0.069598
-0.213282 0.481397 -0.132291
-0.152097 -0.094630 0.486639
-0.090343 -0.485511 0.106313
-0.155811 0.493338 0.068996
0.040940 -0.127465 -0.483569
-0.254179 0.335213 -0.371103
-0.093265 -0.330232 -0.374431
-0.131195 -0.439019 -0.236669
-0.045601 -0.496433 -0.034568
-0.070641 -0.176990 0.463301
0.072862 -0.242377 -0.437032
0.050308 0.077458 -0.494167
-0.125026 -0.314107 -0.388164
0.154209 -0.166381 -0.471392
0.179402 -0.252709 -0.430977
0.097329 0.352567 -0.354374
-0.222577 0.385016 0.314371
0.187230 -0.126329 -0.483839
0.169700 -0.346618 -0.359436
-0.125754 -0.386708 -0.315558
-0.264033 0.061509 0.492069
-0.032235 0.457817 0.194928
0.206849 0.189964 -0.462672
0.144488 -0.389218 -0.312369
0.003119 0.495562 0.053610
0.071615 0.057519 -0.497052
0.113039 -0.295837 -0.402550
0.053443 -0.297310 0.396885
0.024634 -0.424319 -0.262304
0.059268 0.271448 -0.419972
0.077310 -0.485584 -0.110300
-0.269735 -0.326318 0.373503
-0.214912 0.420041 -0.270608
-0.014456 -0.492938 -0.069032
0.176471 -0.015168 0.495560
-0.221890 -0.049116 0.493372
0.083162 0.092057 -0.491746
0.280092 0.047031 0.493633
-0.021729 -0.422704 0.260205
0.286637 -0.393498 -0.306695
0.225089 0.495983 0.048420
0.248570 0.249060 0.429473
-0.182975 -0.475236 0.144823
0.241511 -0.259875 0.422505
-0.183264 -0.137421 -0.480691
-0.143150 0.341371 0.360917
0.281355 -0.437802 0.234143
0.247221 -0.200141 -0.457910
-0.246181 -0.481674 -0.126705
0.185046 -0.282463 -0.411903
-0.029150 -0.073621 0.490220
-0.264041 0.427958 0.253391
-0.289540 -0.105807 -0.488716
-0.145871 0.071984 -0.494959
0.045719 0.451903 0.208307
0.179415 0.480663 0.129725
-0.173099 -0.473461 0.150640
-0.161089 -0.291245 -0.405761
-0.166201 -0.005403 -0.500302
0.003111 -0.391969 -0.308722
-0.127733 0.428612 -0.256549
-0.253870 0.273289 0.414683
-0.180524 0.328469 -0.376891
0.182455 0.490886 0.085531
-0.188683 0.435679 0.239927
0.234431 -0.496511 0.029381
-0.045135 -0.282550 -0.411842
0.044027 -0.411736 0.277193
0.092604 -0.333886 0.367010
-0.173744 -0.009922 0.495654
-0.115820 -0.459029 -0.193915
-0.056444 0.473175 0.154564
-0.130602 -0.086634 -0.492437
0.157739 -0.349437 0.352070
0.019055 0.064054 -0.496106
-0.006674 0.354445 0.348096
-0.113067 -0.450623 -0.213180
0.188726 0.490268 -0.092257
0.113502 -0.324098 -0.379986
0.076500 -0.420983 -0.267507
-0.006936 0.497954 -0.024407
0.100118 -0.340657 -0.364989
0.044597 0.300199 0.395717
-0.242551 0.164395 0.468168
-0.052205 0.490910 -0.088527
-0.070725 -0.440229 0.229533
0.167645 0.410192 0.281052
0.006779 0.463911 -0.184572
-0.001922 0.451078 -0.214347
0.123193 -0.291624 -0.405496
-0.002123 -0.329792 0.370523
-0.145288 -0.447096 -0.220336
-0.177540 -0.469551 -0.166454
0.255762 0.253284 -0.431225
-0.090919 0.489427 0.092491
-0.226591 0.378496 0.321969
-0.290281 0.489214 0.093509
-0.016022 0.176841 0.463498
-0.237745 0.482635 -0.127082
0.097030 -0.149651 0.472755
-0.134515 -0.461911 0.182817
-0.263693 -0.370559 -0.334378
0.130600 0.479503 0.133928
0.284639 -0.474298 -0.152692
-0.160262 0.158116 0.470336
-0.239492 -0.488393 -0.096891
0.207343 -0.286662 -0.408967
-0.110665 0.172106 0.465275
-0.131909 -0.083382 0.488808
-0.045788 -0.041777 0.493967
0.193677 0.275135 -0.417538
0.283982 0.468519 0.168062
0.094600 0.399673 0.295516
0.251188 -0.493108 -0.067857
0.057094 -0.086744 -0.492418
0.142140 -0.497137 -0.022699
0.147886 0.436879 0.237835
-0.097292 0.175577 -0.468519
-0.057296 0.233463 0.437912
0.084421 -0.061716 -0.496289
0.008561 -0.343325 -0.362572
-0.066324 0.249717 -0.433271
-0.133916 0.119195 -0.485977
-0.037920 0.050671 -0.497683
0.054864 0.309567 -0.392765
-0.275349 -0.339394 -0.366133
-0.288325 0.425620 0.257468
0.136812 0.407765 -0.288690
-0.014810 0.386157 -0.317224
0.135187 -0.198747 -0.458536
0.053774 -0.407763 -0.287533
0.282675 0.024648 0.495179
0.170485 -0.288032 0.403885
0.158141 -0.349161 -0.356825
-0.282899 0.490242 -0.092405
0.085126 0.360311 -0.346673
0.042382 0.466597 0.173635
0.073780 0.254323 -0.430630
-0.155912 0.131867 0.478345
0.256025 0.204478 0.452070
0.111325 0.456456 0.198193
-0.001828 0.322162 -0.382303
-0.115050 -0.138541 -0.480350
-0.030443 0.429282 0.251083
-0.284126 -0.465789 -0.177360
-0.289847 -0.067966 -0.495614
-0.288984 -0.078260 -0.493879
-0.186927 -0.013254 -0.499998
0.190375 0.479807 0.132828
0.273163 -0.056833 0.492649
-0.242094 0.488130 -0.103960
0.106932 0.454869 -0.205898
-0.251286 -0.345879 -0.360195
0.200262 -0.032319 0.494733
0.060578 -0.341733 -0.364014
0.065369 0.184737 -0.464851
0.271077 0.273470 0.414556
0.012108 0.386694 -0.316552
0.194921 0.465477 0.176554
-0.149134 -0.495056 -0.051564
0.233038 -0.197779 0.454633
-0.139534 0.180344 -0.466683
-0.009103 0.078173 -0.494063
0.059656 -0.493769 0.058490
-0.015462 -0.483551 -0.119905
-0.117202 -0.479055 0.132306
0.131427 -0.485816 -0.109193
0.219463 -0.421985 0.261385
0.018610 0.306701 -0.394928
-0.215040 -0.262350 -0.425100
0.201302 0.462400 -0.188598
0.147395 -0.354551 -0.351287
0.021792 0.485592 -0.114640
-0.193908 0.215816 0.446982
0.053943 0.467334 0.171496
-0.082929 0.370942 0.330773
0.040774 0.032979 0.494806
0.259537 0.404570 0.289025
0.249807 0.352842 0.349743
0.067751 0.008535 -0.500051
0.043482 -0.136387 0.476594
-0.197695 -0.405620 0.285937
0.018277 -0.090323 0.487541
0.004942 0.477122 -0.146353
-0.226429 -0.168619 -0.470552
-0.150361 0.088743 0.487897
0.106896 -0.070404 -0.495231
-0.023578 -0.344058 0.357307
-0.238031 -0.495171 0.045516
-0.073209 0.495627 0.052811
0.148028 0.471663 0.158949
-0.171805 0.103983 -0.489248
-0.225564 0.109469 -0.488098
-0.133624 0.407924 0.284488
-0.122488 0.102245 0.485453
-0.211972 0.464102 -0.184061
-0.066609 -0.294056 0.399341
0.163207 0.260762 0.422339
-0.050563 0.494668 0.059803
-0.126167 0.152676 -0.476419
0.245173 -0.453336 0.202677
-0.099330 0.404787 0.288737
-0.082993 0.496044 0.047659
-0.162958 -0.493531 -0.064933
0.096460 -0.137749 0.476219
0.040125 0.236571 0.436275
-0.068633 0.266077 0.419100
0.017127 -0.106966 -0.488441
-0.185305 -0.186759 -0.463745
0.223377 0.128437 -0.483425
0.079168 0.149509 -0.477511
-0.064420 -0.414204 -0.277776
-0.014258 0.498440 0.002914
-0.058534 0.038079 -0.498703
0.258431 0.468907 0.166937
-0.181033 -0.396068 0.299156
-0.281120 0.299880 0.395971
0.148722 0.010175 -0.500022
-0.263405 0.184889 -0.464788
-0.164676 -0.384167 -0.318519
-0.228176 0.340515 -0.366108
-0.133059 0.109018 0.483843
0.241885 -0.248877 0.428812
0.256902 -0.493327 0.062579
0.212148 -0.441554 -0.231583
0.118875 0.487118 -0.108217
0.071946 -0.485000 0.108464
0.046542 0.149905 -0.477374
-0.025440 0.402514 0.291750
0.031558 0.490717 0.086335
-0.273781 0.471707 0.158820
0.284168 -0.213513 -0.451909
0.034017 0.498585 -0.010331
0.231799 0.454674 0.202468
-0.008168 0.428479 0.252482
-0.283667 -0.318663 0.380072
0.141640 0.415675 0.272747
-0.242189 -0.056121 -0.496894
0.089385 0.486759 -0.109727
0.003562 0.394985 0.301729
-0.195856 0.150037 -0.477329
0.091776 -0.189326 -0.462763
0.122686 0.484797 0.114595
-0.135477 -0.483833 -0.118657
0.137609 0.298583 -0.401052
0.147206 -0.060207 -0.496452
0.238835 0.464813 -0.182167
-0.058850 -0.194954 -0.460238
-0.285890 0.044324 -0.498197
-0.214533 -0.440091 -0.234552
0.150856 -0.276592 0.411546
0.042733 -0.497530 -0.000899
-0.003381 0.207974 -0.455057
-0.160385 0.464459 -0.183112
0.223117 -0.109253 -0.487897
-0.016392 -0.387385 -0.314769
0.010394 0.372794 -0.332891
0.069774 -0.302459 0.393001
0.203866 -0.096137 0.486323
0.257743 -0.189005 0.458291
-0.117007 0.403662 -0.294556
0.220186 0.253145 0.426983
-0.218245 0.396417 -0.304358
0.070497 0.494543 0.060666
-0.228622 0.271750 -0.419772
0.201878 0.372657 0.328775
-0.153554 0.159315 -0.474128
0.165463 -0.354916 -0.350913
0.031058 -0.334019 0.366896
0.278520 0.472641 -0.161039
-0.119489 0.491143 -0.087170
-0.006335 -0.090390 -0.491790
-0.009952 -0.483135 0.116311
0.184927 0.350693 0.351950
-0.011483 -0.173494 0.464530
0.233388 -0.105173 -0.488867
-0.286254 -0.115121 -0.486503
-0.058053 -0.416754 0.269965
-0.148965 0.332348 -0.373562
0.194949 -0.497321 0.011322
0.093431 0.235568 0.436803
-0.066284 0.471477 0.159486
-0.153827 0.498264 -0.017497
0.285963 0.187069 -0.463879
0.155530 -0.434645 -0.244296
0.125888 0.396359 0.299908
0.223487 0.241089 -0.438219
0.177583 0.473545 0.153493
-0.290077 -0.032276 -0.499145
-0.104308 -0.094818 0.486600
-0.009197 -0.323906 0.375574
-0.089902 0.414245 -0.279424
-0.231439 -0.238157 0.434959
0.186476 -0.122160 0.480522
-0.253260 -0.381442 0.317500
0.056083 0.186589 0.459840
0.048553 0.039549 -0.498584
0.078657 0.216296 0.446767
0.220446 -0.017995 -0.499785
-0.112561 -0.196784 -0.459417
0.273656 -0.196564 0.455140
0.163508 0.181365 0.461800
-0.081572 -0.437543 -0.239242
0.035989 -0.305229 0.390911
-0.174400 0.418521 0.268436
0.259947 0.279040 -0.414960
0.198671 -0.464158 0.176828
0.171492 0.484769 -0.118100
-0.274275 0.487354 0.102391
-0.068038 0.453257 -0.209490
-0.120932 0.493132 -0.075617
-0.029224 -0.049786 -0.497578
0.147959 -0.206898 -0.454878
-0.155953 -0.377590 -0.326184
-0.243969 0.231636 0.438873
0.092884 -0.391475 -0.309377
-0.044812 0.158092 0.470344
0.215935 0.262016 0.421575
0.067279 0.493037 -0.076173
0.247335 0.380895 -0.323825
-0.131174 -0.336920 0.364256
0.178611 0.312605 -0.390473
-0.064872 -0.160564 0.468991
-0.142974 0.493497 -0.073499
-0.035156 0.474500 -0.154946
0.053550 -0.485902 -0.108779
-0.058836 0.105473 -0.488935
-0.012478 -0.383391 0.315055
0.126135 -0.372154 0.328112
0.085193 -0.013578 -0.499983
0.051477 -0.262103 0.421111
0.281412 -0.378109 0.321538
-0.071664 -0.044830 -0.498114
0.024333 0.117789 -0.486355
-0.241976 0.498305 0.010369
-0.268563 0.290942 0.402336
0.282565 0.206174 0.451309
-0.029453 -0.060796 0.492076
0.267475 -0.149029 0.472970
-0.031688 -0.464900 0.174851
0.023822 -0.437878 0.233997
-0.161441 0.411852 0.278537
0.057304 0.495984 0.048410
0.016491 0.172700 -0.469511
-0.001392 0.373098 0.328260
-0.126768 -0.367038 0.333761
-0.230018 0.039427 -0.498594
0.091245 0.259518 0.423098
0.286596 0.358903 0.343516
-0.005319 -0.372860 0.327333
-0.151894 -0.370301 0.330159
0.073534 -0.195129 -0.460159
0.227999 -0.497517 -0.001591
0.012050 -0.280516 0.408955
-0.213918 0.472770 0.155738
0.073144 0.361545 0.340803
-0.196223 -0.258066 0.423543
-0.126132 0.303926 0.392745
0.101164 0.270726 -0.420448
0.210976 0.437954 0.235959
-0.135876 -0.262651 0.420750
-0.234259 0.370650 0.331114
-0.000734 -0.041690 -0.498453
-0.122154 0.175144 -0.468668
-0.184361 0.479994 -0.136940
-0.060402 0.312364 -0.390655
-0.248589 0.383114 0.316588
0.191808 -0.443495 0.223331
-0.124223 -0.451133 -0.212144
-0.229500 0.406458 -0.290558
-0.104471 -0.026806 0.495180
-0.255500 -0.137655 0.476244
-0.269960 0.241057 0.433913
0.275626 0.428759 0.251994
-0.175038 -0.447309 0.216087
0.167182 -0.387451 0.309963
-0.173903 0.491167 0.084000
-0.052326 0.433050 0.244512
-0.198765 -0.008224 -0.500224
-0.025145 -0.476875 0.139450
0.040803 0.465561 -0.180173
-0.026541 -0.195628 0.455530
-0.236536 -0.460294 0.187126
0.153885 0.315735 -0.387817
-0.051966 0.482455 -0.127839
0.250338 0.468460 -0.172448
0.286115 -0.052774 0.493076
-0.063053 0.364420 0.337850
-0.021369 -0.408934 0.281200
0.161513 0.466940 -0.176499
0.243819 0.292203 -0.405865
0.187294 -0.321090 -0.382595
0.242975 -0.189465 -0.462701
-0.019115 -0.066321 0.491276
0.246181 -0.383796 -0.318952
0.209589 0.335335 0.366384
-0.178724 0.272006 0.415485
-0.017240 -0.302695 0.392823
-0.063033 -0.159793 -0.473864
-0.277088 -0.418145 0.267683
-0.064507 -0.457657 -0.197206
0.133999 0.420550 0.265362
-0.040752 0.082861 0.488910
0.172124 0.207976 0.450501
-0.234437 0.363201 0.339102
-0.180624 -0.483760 0.113683
0.071403 0.061305 0.492091
0.224104 0.337726 -0.368823
0.087065 0.489569 0.091818
0.041076 -0.112091 -0.487223
-0.005133 0.252765 0.427215
-0.289645 0.141507 0.475404
0.134854 0.438935 0.234249
0.076899 0.067253 -0.495643
0.201076 -0.161770 0.468575
-0.169785 0.391039 0.306960
0.028667 -0.033256 -0.499101
0.230051 -0.387603 -0.314510
-0.248146 -0.496255 -0.036759
0.211581 -0.411716 -0.281545
-0.035665 0.408382 0.283794
0.261189 0.459253 0.191483
0.137104 -0.018829 0.495494
0.252938 -0.497078 -0.025978
-0.289542 0.481077 -0.133393
-0.064625 0.481069 -0.133420
0.120478 0.089282 0.487804
0.126679 0.496641 0.040296
-0.064987 -0.476744 -0.144564
0.126897 -0.454545 0.199982
0.050755 0.271474 0.415809
-0.004794 0.488920 -0.100083
0.026477 -0.471610 -0.160484
-0.197588 0.124771 0.480099
-0.083514 0.477350 0.141725
-0.004679 0.057037 -0.497121
-0.199788 -0.125392 -0.484062
-0.191050 -0.496536 0.028816
-0.078575 -0.256623 -0.428592
-0.062053 -0.243668 -0.436352
0.279055 0.498612 -0.006646
0.036759 -0.204821 0.451697
-0.116490 0.354804 -0.352197
0.186937 0.025336 -0.499735
0.156946 0.367099 -0.339178
0.025195 -0.155114 -0.475293
0.181840 0.347597 -0.359213
-0.210203 -0.494174 -0.060486
-0.111708 0.417939 0.269317
0.267794 0.339529 -0.367067
-0.184496 -0.124062 0.479997
-0.021743 -0.300548 -0.398975
0.109046 -0.474795 0.146269
-0.197074 0.474685 -0.154340
-0.176312 0.180435 0.462149
0.190683 -0.374428 0.325602
0.089462 0.172716 0.465046
-0.290010 0.316936 0.382371
0.284431 0.108821 0.483890
0.232609 -0.478942 -0.136600
0.016925 0.478314 0.138234
-0.149029 0.463120 -0.186677
-0.205498 0.369303 -0.336745
-0.061981 0.492520 -0.079172
-0.003874 -0.487715 -0.100126
0.136307 -0.388041 0.309224
-0.167172 0.064352 -0.496063
0.279470 0.479460 0.134085
0.241645 -0.037103 -0.498928
0.286394 -0.471522 0.156996
-0.023615 0.122356 -0.485104
0.169926 0.269190 0.417201
-0.136131 0.277431 0.411786
0.246142 -0.305010 -0.395417
-0.068523 -0.235242 0.436631
0.241793 0.286829 0.405213
-0.215860 -0.322999 0.376352
0.027867 0.331539 -0.374256
-0.254164 -0.370175 0.330297
-0.043434 0.486995 0.104103
0.062812 0.204999 -0.456404
-0.247118 0.326002 -0.379008
0.228947 0.393707 -0.307757
-0.163101 -0.167693 -0.470899
-0.180824 -0.314788 -0.387620
-0.268779 -0.226112 -0.445596
0.020588 0.340618 -0.366007
-0.202482 0.407280 0.285432
0.003942 -0.215797 0.446344
0.071649 0.439626 -0.236979
0.186735 -0.476122 -0.146816
0.162791 0.490685 0.086487
0.022051 0.498565 -0.004076
-0.219353 0.369064 -0.337009
0.176632 0.139873 0.475903
-0.037870 0.417240 0.270377
-0.282408 0.134858 -0.481653
0.030819 0.496580 -0.046314
0.181358 -0.495778 -0.042655
-0.288900 0.281038 0.409263
0.073401 -0.454496 0.200093
-0.031354 0.498534 -0.011483
-0.220821 0.476729 -0.147641
-0.079781 -0.490940 -0.082838
-0.056159 -0.333891 -0.371116
-0.176513 0.014815 0.495620
0.046755 0.469239 -0.170370
0.036146 0.338497 -0.368072
0.052906 -0.472744 -0.157196
0.061066 0.283035 0.407867
0.019807 0.007024 -0.500078
-0.250110 0.483536 -0.123292
-0.183654 0.386411 -0.316906
0.255944 0.016077 -0.499915
-0.215263 -0.095143 -0.490972
-0.265535 0.105775 0.484614
-0.231849 0.349086 -0.357763
0.094836 0.494935 0.057957
0.260295 -0.276623 0.411526
-0.205821 0.452810 0.206468
-0.155140 -0.405893 -0.290267
0.084479 0.104494 0.484918
0.255279 -0.399351 0.294901
0.256903 -0.339117 0.362117
0.237566 0.406578 0.286363
-0.065549 -0.224882 0.441867
-0.070274 0.489953 -0.094083
0.231744 0.497818 -0.027431
-0.055679 -0.445445 -0.223687
0.271354 -0.481512 0.123141
-0.155385 -0.013617 0.495588
-0.258955 -0.495934 -0.040729
0.174972 -0.450072 -0.214297
-0.080050 -0.427503 -0.256751
-0.246481 -0.016477 -0.499853
-0.284442 -0.474840 -0.151122
-0.255510 0.111651 -0.487641
0.012468 -0.486923 -0.103910
0.156014 -0.441142 -0.232420
0.270117 0.402123 0.292268
0.171740 -0.424266 0.257643
0.222504 0.371726 0.329860
-0.238343 0.206138 0.451326
0.269421 -0.350157 0.351370
-0.115390 -0.117020 -0.486051
-0.080266 -0.495307 -0.048470
0.093262 -0.204778 -0.455829
0.252398 -0.203761 0.452139
-0.148793 0.380444 0.319700
-0.229339 0.158844 0.470114
0.197268 -0.042611 0.493899
-0.161010 -0.182775 -0.465240
-0.087085 0.496668 -0.045494
0.108632 0.450084 -0.216561
0.247104 -0.429280 0.249418
0.268196 -0.464265 0.176543
0.020393 -0.025825 -0.499434
0.170419 -0.158250 0.469789
-0.137499 -0.283139 -0.411431
0.004306 0.454397 0.203131
-0.027619 0.013764 -0.499957
0.257972 -0.105324 -0.488831
-0.131606 -0.379334 0.320144
0.242854 -0.130678 0.478170
0.140093 -0.264296 0.419664
0.067445 0.487048 -0.108511
-0.262337 0.468874 0.167033
-0.036187 0.496127 -0.050503
0.009522 0.198138 -0.459264
-0.191164 -0.416106 -0.274895
-0.156493 0.009345 -0.500037
-0.081614 0.471504 0.159410
0.072646 0.354261 -0.352725
0.239306 -0.493119 -0.067776
0.219475 0.496920 -0.043168
0.200671 -0.071693 -0.495009
-0.113576 0.365620 -0.340811
-0.015007 -0.292482 -0.404896
0.225907 0.071104 0.490934
0.268426 -0.268589 -0.421296
-0.199755 0.230606 -0.443904
0.151847 0.387034 0.312019
-0.108559 -0.467838 0.167020
-0.176470 -0.058265 -0.496662
0.114583 -0.483352 0.115399
0.173374 -0.398108 -0.300585
-0.146361 -0.490676 0.079581
-0.094419 0.322465 0.377962
0.028717 0.346798 -0.359990
0.266680 -0.247951 -0.433878
-0.071402 0.075927 -0.494388
-0.142873 -0.261014 -0.425914
0.259676 0.253521 0.426754
-0.280295 0.282574 -0.412627
-0.272070 -0.485709 -0.109701
-0.180499 0.450067 -0.216600
-0.138678 -0.493920 0.057092
-0.262372 -0.431975 0.244997
-0.255636 -0.091656 0.487262
0.210971 -0.295372 -0.402875
-0.041825 0.044714 0.493884
-0.239526 -0.132321 0.477717
0.036000 0.485766 0.109967
-0.035445 -0.292558 0.400471
-0.170625 -0.031185 -0.499194
-0.234373 -0.413172 0.275139
0.218313 -0.455874 -0.201485
-0.113036 -0.316025 0.382336
0.043685 -0.007616 0.495696
0.239251 -0.312027 0.385766
-0.238294 -0.302717 -0.397246
0.027140 -0.211580 -0.452777
0.087571 -0.446146 -0.222264
0.154579 0.233622 -0.442418
-0.008415 -0.334501 -0.370564
-0.049915 -0.272546 -0.418839
0.157107 -0.373805 -0.330596
-0.242351 -0.436237 -0.241520
-0.117760 0.491342 0.082791
0.170187 -0.491773 -0.077079
0.136482 -0.060378 -0.496434
-0.265265 -0.290904 0.401719
-0.199213 -0.480849 -0.129692
0.189068 0.371386 0.330256
-0.018002 -0.460457 0.186690
0.197354 0.429413 -0.255235
-0.042906 -0.425932 -0.259491
-0.129691 0.498344 -0.015719
-0.013547 -0.491212 -0.080956
-0.132632 -0.179265 -0.466557
0.087931 -0.496311 -0.036077
-0.189094 0.174949 0.464208
-0.077393 0.490856 0.085672
-0.202214 -0.168904 -0.470445
-0.172399 -0.489663 0.085465
0.038019 0.074544 -0.494588
0.257383 -0.288969 0.403179
0.043109 -0.492131 -0.074606
-0.016141 0.484342 -0.119898
0.055554 0.290263 -0.407329
-0.115992 0.083630 -0.493274
0.201142 -0.431666 -0.249490
-0.093111 -0.430131 0.248022
-0.139069 0.298780 0.396848
-0.192948 -0.108976 0.483634
-0.276745 -0.182641 -0.465290
-0.070191 -0.117045 -0.486045
0.028940 0.483734 -0.122456
0.238690 0.461361 0.186427
0.183393 0.466107 0.175043
-0.108784 -0.366754 -0.338754
0.239677 0.399401 -0.300616
0.189816 -0.493967 0.056653
0.229555 -0.151383 0.472158
-0.142492 -0.439287 0.231322
-0.033740 0.388318 0.310523
-0.222950 -0.020820 0.495458
-0.094893 -0.299675 -0.399671
0.217534 -0.458832 0.190429
-0.128504 0.226344 0.441660
-0.001524 -0.471479 0.157137
-0.181131 -0.210985 -0.453044
-0.221380 -0.458868 -0.194303
0.152001 -0.361234 0.340169
0.122416 0.484326 -0.119966
-0.002477 -0.470650 -0.163266
-0.062643 0.496015 -0.051541
-0.089767 0.415906 0.272397
-0.108511 -0.434201 0.240982
0.101867 -0.442738 -0.229181
0.256476 -0.489579 -0.091229
0.010988 0.189458 0.458763
0.144603 0.497072 0.034982
-0.033224 0.301270 0.394863
0.253431 -0.152711 0.471700
-0.080378 0.184028 -0.465147
-0.115370 -0.160576 -0.473570
0.144566 0.498380 0.006234
0.069278 0.406097 -0.291075
-0.252356 0.494553 -0.065071
0.074784 0.205741 -0.456094
-0.053287 -0.495044 -0.051713
0.042997 -0.062784 -0.496174
0.203671 -0.489838 -0.089995
0.269537 -0.440707 0.228626
0.268448 0.343619 0.358880
-0.244900 0.496804 0.038285
0.176453 0.199103 -0.458862
0.114146 -0.441781 0.226585
0.032439 -0.486306 0.102967
-0.110671 -0.489792 0.084712
0.238402 0.373804 -0.331776
0.040622 0.493027 0.071144
-0.027356 0.289605 -0.407825
0.284276 -0.497332 0.011066
0.236980 0.473189 0.154525
0.243890 -0.142439 0.474924
0.060041 0.444085 0.224173
-0.223352 0.017398 0.495505
-0.148220 0.491408 -0.085631
0.203099 0.482278 0.123874
0.242665 -0.134098 -0.481705
0.201115 -0.429194 0.249559
0.256561 -0.165681 -0.471654
0.189716 -0.497208 -0.018749
-0.089909 -0.482243 0.120063
0.190938 -0.389455 0.307450
0.033530 -0.325417 0.374277
0.080134 -0.218221 -0.449751
-0.155347 -0.216910 -0.450385
0.270035 0.497342 0.031642
-0.015318 0.461596 0.185863
-0.167822 0.399203 -0.300863
-0.218099 0.497568 0.028849
-0.180099 0.495537 0.053791
-0.237519 -0.497502 0.007285
0.073964 -0.497345 -0.011143
0.069157 0.132683 -0.482253
-0.024884 -0.314729 -0.387667
0.098863 0.498005 -0.023276
-0.031809 0.490076 -0.093367
-0.188781 0.207439 0.450742
-0.082224 0.245042 0.431815
0.104624 -0.494716 0.049724
0.212716 -0.495690 0.040716
0.068079 -0.101833 0.485130
0.187620 0.304986 0.391900
-0.150943 -0.301872 0.393444
0.044673 0.250983 -0.432545
-0.160526 -0.494660 0.050244
0.028253 -0.462742 -0.185011
-0.120084 -0.220073 -0.448776
-0.083306 0.314161 0.384584
-0.131935 0.139507 0.476014
0.151216 0.282047 0.408558
0.232150 -0.471681 -0.160277
-0.271449 -0.403581 -0.293331
0.132158 0.097684 -0.490567
0.051492 0.142651 0.475055
-0.035124 0.451214 -0.214044
-0.206306 0.393118 0.304204
0.261026 -0.440553 -0.233615
-0.245564 0.475171 0.148779
0.156095 0.404525 0.289084
0.166261 0.388424 -0.314382
0.241391 0.155558 -0.475424
-0.287015 0.449337 -0.218226
-0.114919 -0.479758 -0.133643
-0.289762 0.451947 0.208217
-0.223826 0.184420 -0.464983
0.052885 0.226428 0.441616
-0.233346 0.103507 0.485153
-0.272752 0.469978 -0.168403
0.185723 0.437463 -0.241086
0.053707 -0.227743 -0.444737
0.195369 -0.487506 0.097919
-0.004714 0.443646 -0.229344
-0.251610 -0.104976 -0.488914
-0.096242 -0.058185 -0.496671
0.219674 0.390655 -0.311584
0.103476 0.101933 -0.489677
0.217229 0.052395 -0.497543
-0.021161 0.457117 0.196607
-0.273287 -0.130115 0.478326
0.263330 0.494657 -0.064111
-0.165188 -0.483642 0.114178
-0.234800 -0.425031 0.256388
0.091342 -0.378793 0.320782
0.100853 0.482299 -0.128495
0.143688 -0.453577 0.202140
-0.156410 0.473457 -0.158366
-0.105208 0.316016 -0.387576
-0.079232 0.190571 0.458311
-0.229595 0.084587 -0.493135
0.270772 -0.283896 0.406724
-0.079005 0.498426 0.003650
-0.135653 -0.023608 -0.499534
0.039742 0.114547 0.482529
0.046496 -0.428099 0.251356
-0.192719 0.457508 0.195670
-0.273101 -0.031432 0.494805
-0.128425 -0.461054 -0.189058
0.174632 0.382693 -0.321569
0.053018 -0.074311 -0.494558
0.056792 -0.150240 -0.476780
0.252828 0.421859 -0.267625
0.283418 0.349303 -0.357552
-0.102048 -0.145809 -0.478132
-0.071876 -0.460521 0.186521
-0.180873 -0.177513 -0.467214
-0.183762 -0.483289 -0.120854
-0.117651 -0.142484 0.474911
-0.134089 -0.474215 -0.152932
0.186101 -0.113139 -0.486974
0.084546 0.303182 -0.397582
0.251881 -0.256975 0.424168
0.158781 -0.497037 0.017656
0.058209 -0.110100 0.483398
-0.093878 0.331219 0.370112
-0.247700 -0.476621 -0.145007
0.170301 -0.349913 0.351607
-0.063587 0.465352 -0.180730
0.138274 0.498017 -0.023010
-0.010274 0.496886 0.037267
0.252927 -0.368719 -0.336523
-0.012013 0.195848 0.455943
-0.256274 -0.439508 -0.235735
0.165640 -0.421697 -0.266425
-0.286947 0.469887 -0.168646
-0.218259 -0.441483 0.227152
0.077097 0.008168 0.495919
-0.095887 0.496433 0.042858
-0.124683 0.488583 -0.102043
0.022145 -0.041689 -0.498453
-0.006906 -0.170826 -0.469724
-0.216909 -0.492227 -0.073942
0.020962 -0.322004 -0.381866
0.024904 -0.488320 -0.097240
-0.272886 0.497258 -0.039931
0.052719 0.454439 -0.206857
0.104760 -0.311567 0.386130
-0.087372 0.437368 0.236981
0.166527 0.498243 0.013850
0.227594 0.311306 -0.391453
-0.288953 -0.074094 0.490152
-0.110826 0.033957 -0.499037
0.250157 0.102946 0.485286
-0.085536 -0.202085 0.452838
0.163241 -0.480417 0.127751
0.159374 0.497468 -0.035234
0.156238 -0.391457 -0.309401
-0.194445 0.338974 -0.367607
-0.256903 0.095645 -0.490995
-0.072846 -0.200070 0.453678
-0.023587 0.079957 -0.493805
-0.265635 -0.140902 -0.479629
0.057069 -0.351158 -0.354773
-0.062548 0.304722 0.392110
0.213524 0.285355 -0.410791
0.145992 0.483497 0.119458
0.220259 0.393549 0.303633
0.056288 -0.074410 0.490106
-0.078228 -0.447712 -0.219086
0.018574 0.085356 -0.493024
-0.129736 -0.432019 0.244925
0.195624 0.420830 -0.269313
0.017692 0.257204 0.424508
-0.204364 0.490888 -0.088656
-0.070736 -0.439717 -0.235312
-0.133691 -0.215437 -0.451046
0.255736 -0.206619 -0.455003
-0.123616 0.404931 0.288546
0.151258 0.465377 -0.180663
0.271582 0.495783 0.050883
0.106988 -0.131358 0.477983
-0.221089 0.471834 -0.163457
-0.045298 -0.395397 0.299998
0.282628 0.241727 0.433560
-0.197317 -0.137231 -0.480749
-0.203983 0.496727 -0.044953
0.145550 0.487583 0.101295
-0.061359 -0.389912 -0.311449
0.224986 0.416848 0.270969
-0.232348 -0.412398 -0.280512
0.271894 -0.269746 0.416065
0.226219 0.046733 -0.498002
-0.057899 0.493220 0.069812
0.253918 -0.485971 0.104379
-0.243946 0.460277 -0.193847
-0.214378 0.040042 0.494389
0.249091 0.043325 -0.498278
0.055593 0.175099 -0.468684
0.281340 -0.399302 -0.299002
0.274361 0.329326 -0.376155
-0.047468 0.473161 -0.159335
0.212063 -0.133499 0.477392
0.176768 -0.491381 0.075483
-0.080721 0.255708 0.425421
-0.142464 -0.183941 -0.464803
-0.009308 -0.462635 0.180887
0.286246 0.304426 0.392347
0.019370 -0.405209 0.286526
0.137031 -0.031891 -0.499162
0.170089 -0.131728 0.477881
-0.148675 0.099985 -0.490085
0.245641 -0.399946 -0.298149
0.094914 0.497240 0.032900
-0.203985 -0.462437 0.181415
-0.164360 -0.318953 0.379824
-0.063821 0.294186 0.400068
-0.275814 0.489872 0.090368
0.150062 0.496968 -0.042720
-0.115492 -0.257180 0.424050
0.114434 -0.413997 0.273960
0.196068 -0.487670 -0.100341
0.081069 0.424949 0.258638
-0.099301 -0.425980 -0.259407
-0.084965 0.105177 -0.488998
-0.193848 -0.349831 0.351687
0.259725 0.049898 -0.497745
-0.209871 0.242930 0.432927
0.066632 -0.141297 0.475239
0.135655 -0.491054 0.077381
0.286303 0.267030 0.418518
-0.121453 -0.052583 0.493091
-0.243697 0.421174 0.264417
-0.168813 -0.280868 -0.413019
0.075315 -0.417848 0.268170
0.181341 0.447938 -0.221191
-0.277650 0.249136 0.429427
-0.023045 -0.464562 -0.180644
-0.218870 0.391460 0.306402
0.193786 0.478225 -0.142737
-0.287305 -0.365705 0.335233
0.165120 0.121491 0.480879
-0.241524 0.293308 0.400682
-0.040166 -0.486740 -0.104783
-0.278046 0.089593 -0.492262
0.107316 0.205518 -0.456187
0.223122 -0.282240 -0.412059
0.242097 0.160649 0.469563
0.199028 0.469268 0.165892
-0.044616 -0.483651 0.114139
-0.008831 -0.444106 -0.226404
-0.022038 0.445021 -0.226731
0.125338 -0.474050 -0.153411
0.196974 -0.196642 0.455107
-0.243280 -0.097722 0.485991
-0.270866 -0.454194 -0.205513
-0.283691 0.227219 -0.445574
0.011075 0.373490 0.327804
0.014666 0.474877 0.149632
0.267596 0.493786 0.065899
-0.214476 -0.028800 -0.499301
-0.205954 -0.278299 -0.414815
-0.217553 0.126590 0.479667
0.134914 0.159146 -0.474186
-0.101820 0.468356 0.168534
0.222289 -0.445669 -0.223232
0.269621 -0.494048 0.055909
0.251969 0.492510 -0.079233
0.210326 -0.494312 0.053468
-0.289845 0.064411 0.491755
-0.179122 -0.363779 0.337359
-0.038374 0.341235 0.361040
-0.268987 0.165718 -0.471920
-0.183406 -0.075280 -0.494392
-0.065054 -0.483092 -0.121569
0.087152 0.412156 -0.282411
0.275683 0.456028 0.199219
-0.019016 -0.370387 0.330063
0.146677 0.457052 -0.201033
-0.228211 -0.106269 -0.488606
0.280959 0.453212 -0.209591
0.086781 0.401195 -0.298084
-0.041679 -0.497364 0.010371
-0.252318 0.231549 -0.443440
-0.152295 -0.433238 0.242810
0.087361 -0.170077 0.465709
0.184612 -0.059762 0.492225
-0.214449 -0.101470 0.485206
-0.269065 0.420640 0.265226
0.077030 0.100973 -0.489878
0.090191 0.493170 -0.075396
-0.058558 0.300269 -0.399780
0.069684 0.146017 -0.478572
-0.011763 -0.281819 -0.412354
-0.207973 0.417057 0.270654
0.259623 0.446893 0.218475
0.163195 -0.199702 0.453831
-0.009289 -0.284844 0.406098
0.217890 0.362986 -0.343720
-0.277664 -0.143727 0.474568
0.143128 0.019189 -0.499859
-0.099487 0.124721 -0.484451
-0.234796 0.202791 -0.457324
0.190137 0.445121 -0.226541
0.279278 -0.316195 -0.386498
-0.259873 0.490207 0.088773
0.247954 -0.260751 -0.426075
-0.082901 -0.311442 -0.390288
0.172042 -0.312592 0.385282
-0.168710 -0.483053 -0.121708
-0.198829 -0.327899 -0.376544
0.176606 0.054596 0.492816
0.069998 -0.276983 0.411288
-0.131636 -0.413090 0.275257
-0.102343 -0.386145 0.311601
-0.288694 -0.280597 -0.413208
-0.212679 0.496669 0.039950
-0.185036 0.498325 -0.016140
-0.198931 -0.283184 0.407194
0.027918 0.225968 0.441858
0.130238 -0.492702 -0.070663
0.190325 0.015199 -0.499931
-0.164526 -0.476586 -0.145135
-0.207665 0.141838 -0.479726
-0.069915 -0.468894 -0.168358
0.260145 0.488228 0.098218
0.033056 -0.312232 -0.389658
-0.039650 -0.256791 0.424274
0.285396 -0.077292 -0.494045
-0.062632 0.399764 0.295395
-0.148734 0.139961 0.475876
-0.006057 0.462476 -0.188396
0.022593 -0.258331 0.423391
0.143767 0.445176 0.221960
-0.268623 -0.006481 -0.500302
-0.032283 -0.395081 0.300395
-0.113115 0.497904 -0.025525
0.134531 0.488614 -0.101861
-0.053040 -0.368185 -0.337146
0.049344 0.477248 -0.145941
0.107297 -0.491085 0.077202
0.054963 0.154234 0.471521
0.024914 0.497476 -0.035063
-0.126797 0.487878 0.099887
0.014417 -0.204722 0.451739
0.185323 0.420999 0.264683
0.021882 -0.227963 0.440349
-0.006309 0.038059 -0.498704
0.237050 0.225563 0.442071
0.076493 -0.381828 0.317016
0.164767 -0.446709 0.217226
0.068182 -0.173552 0.464510
0.030452 -0.363720 -0.341869
-0.021330 0.465979 -0.179059
0.078390 -0.251747 -0.431564
0.004734 -0.395002 0.300494
-0.227412 -0.399497 -0.298745
0.028711 0.243432 0.432662
0.154503 0.454233 0.203524
-0.004751 -0.123280 0.480213
0.243964 -0.473919 -0.153791
0.075840 -0.375682 -0.328408
0.051188 0.421090 0.264544
0.178305 -0.254793 0.425419
-0.124135 -0.452791 0.203893
-0.034539 -0.487673 0.097025
0.268944 0.477192 0.142300
-0.222596 -0.224286 0.442161
0.215032 0.225585 0.442060
-0.106495 0.426491 -0.260027
0.124056 -0.464883 -0.179876
0.182117 0.496894 0.037172
-0.134155 0.019863 -0.499847
0.098478 0.358043 0.344400
0.050191 0.413798 -0.280063
-0.173829 -0.335432 -0.369721
0.029418 0.417579 -0.274645
-0.176173 -0.492134 0.071109
-0.117283 0.458950 -0.196804
0.076134 0.392490 -0.309283
-0.197398 -0.465452 0.173380
-0.144670 0.475334 -0.152215
0.188067 -0.428039 -0.255816
0.185287 0.064286 0.491769
-0.136045 -0.473123 0.151748
-0.051932 -0.450378 -0.213675
-0.013799 -0.262377 -0.425084
0.004312 -0.496286 0.034389
0.038770 0.494672 0.059774
-0.288819 -0.311897 -0.389926
0.171628 0.451240 0.209654
-0.117109 0.347414 -0.359391
0.286409 0.280755 -0.413828
-0.104019 0.450302 -0.216076
-0.072241 -0.335332 -0.369812
0.202819 0.444072 -0.228533
0.000906 0.470861 0.161274
-0.225784 0.406069 0.287037
-0.084844 0.498320 -0.016246
-0.071257 0.395792 0.300660
-0.209917 0.289607 -0.407824
-0.267469 0.497773 -0.028433
0.018729 0.439913 -0.236432
0.000332 -0.449628 0.210940
-0.082120 -0.438342 0.233116
-0.230730 -0.032639 -0.499129
-0.006969 -0.311515 0.386169
-0.184784 0.092356 0.487275
0.122029 -0.418679 0.266808
0.249883 0.463398 0.181542
-0.091525 0.442189 -0.232111
0.131198 0.041614 0.494219
-0.059400 -0.080468 -0.493499
0.149698 0.050979 0.493207
0.130941 -0.494177 0.054709
-0.149344 -0.051166 0.493206
-0.288810 -0.489015 0.089225
-0.000991 0.430820 -0.252927
0.018622 0.443483 0.225395
-0.039596 0.397748 -0.302689
0.185067 0.115723 -0.486788
-0.010731 0.178422 -0.467484
0.232182 -0.291013 -0.405924
-0.031537 -0.479817 0.129809
-0.102511 -0.474822 -0.151172
0.122828 -0.456219 -0.200656
-0.087806 -0.329881 0.370446
0.124118 0.291036 -0.406745
0.133257 -0.303453 -0.396659
-0.138281 -0.396338 -0.302931
0.240059 -0.411755 0.277165
-0.276203 0.113646 -0.487223
-0.209616 -0.122986 -0.484634
0.075625 0.498079 0.022551
-0.092500 -0.491017 -0.082305
-0.205779 -0.496629 0.026746
0.205742 0.465926 0.175477
0.232987 0.332820 -0.373157
-0.064502 -0.450604 0.208765
0.263817 -0.243964 0.431629
0.058050 -0.497377 -0.009346
-0.120940 -0.186942 -0.463676
0.142031 -0.210496 0.448956
-0.223555 -0.463118 0.179599
-0.075384 -0.050995 0.493220
0.011620 -0.478277 -0.139011
-0.165715 0.475598 -0.151348
-0.234455 -0.485184 -0.112208
-0.109669 -0.182583 -0.465312
-0.137722 0.192006 -0.461821
-0.242047 0.453976 -0.207889
-0.290177 -0.103771 0.484724
-0.286804 0.325114 -0.379770
-0.275938 -0.457589 0.193200
-0.230508 0.441653 -0.233129
0.118621 -0.259754 0.422574
0.239981 -0.497520 0.006889
0.270990 -0.434451 0.240507
0.201596 0.451973 -0.212353
-0.184997 0.467769 -0.174289
-0.152525 -0.416452 0.270450
-0.035754 -0.329550 -0.375048
-0.031236 -0.462246 -0.186201
-0.022728 -0.336108 -0.369109
0.225428 -0.414490 0.273256
-0.196826 0.490538 0.087190
0.132589 0.465588 -0.180102
0.207763 0.386323 0.312848
0.086623 0.479187 -0.139586
-0.068730 0.451377 0.209376
0.074732 -0.321882 -0.381963
0.062230 -0.448017 -0.218468
-0.062803 0.483906 -0.121734
-0.006546 0.485551 -0.114810
0.151847 0.398371 0.297242
0.146664 0.258314 -0.428341
0.184438 -0.434018 -0.245390
-0.162796 0.290666 0.402530
0.167851 0.321492 -0.382878
-0.145858 -0.428570 -0.254890
-0.223198 0.206723 -0.455673
0.055878 0.236385 -0.440916
-0.071942 -0.089259 -0.491985
-0.091816 -0.390340 -0.310882
-0.047626 0.448312 0.215596
0.245580 -0.463762 -0.182563
-0.154560 -0.389611 0.307254
-0.142811 -0.149572 0.472783
0.132771 0.275298 0.413277
0.067137 -0.438904 0.232050
-0.269874 -0.153028 -0.475929
0.231715 -0.375372 0.324560
0.061984 -0.490873 -0.083301
-0.020612 -0.278166 0.410507
-0.074756 -0.116767 0.482001
-0.141489 0.471310 0.159971
0.008907 -0.034191 -0.499059
0.104734 0.341709 0.360611
0.168788 -0.234289 0.437177
-0.289718 -0.308832 0.388193
0.108016 0.444194 -0.228302
-0.259043 -0.323494 -0.380533
-0.144897 0.305683 -0.395696
0.009015 0.418920 0.267831
0.185067 -0.185907 0.459583
-0.010017 0.157707 -0.474683
0.180693 -0.495611 0.041440
0.105481 0.352275 0.350325
0.166077 -0.406919 0.284081
-0.091114 -0.482744 -0.122827
0.083835 0.258034 -0.428502
-0.169404 -0.487897 0.095720
0.074994 0.491514 -0.085016
-0.258732 0.302641 -0.397991
-0.067801 0.202375 -0.457498
0.161587 0.316078 0.383056
-0.037225 -0.491370 -0.079868
0.196265 0.402114 0.292280
0.134002 0.088679 0.487908
-0.049661 0.367665 -0.338554
-0.225069 0.138413 -0.480671
-0.010445 0.412042 -0.282574
0.186184 0.233675 -0.442392
0.210592 0.395971 0.300422
0.249221 0.496971 -0.042697
-0.166900 -0.359973 0.341562
0.154213 0.369864 0.332029
0.249266 0.364283 0.337990
-0.070261 -0.106543 0.484143
-0.278658 -0.306688 -0.394079
-0.125485 -0.420028 -0.268954
-0.162795 -0.108256 0.483784
-0.106709 -0.439295 0.231306
0.153022 0.300010 -0.399975
-0.062019 -0.264782 -0.423618
0.098030 0.308411 0.389169
-0.083848 0.009464 -0.500034
0.231706 0.224693 -0.446818
-0.082740 0.022421 -0.499801
0.252405 -0.247685 0.429495
0.041765 0.480627 -0.134865
0.216077 -0.451598 -0.211201
-0.112921 -0.248138 -0.433764
0.256713 -0.497416 -0.007174
-0.021084 0.247295 0.430549
-0.105395 -0.267257 0.417709
0.066813 -0.135709 -0.481214
0.024155 -0.492587 0.068478
0.049973 0.117426 0.481845
-0.058782 -0.142214 0.474986
-0.152708 -0.002223 0.495793
-0.079515 -0.213604 -0.451869
0.038005 0.121596 -0.485314
-0.207021 0.484978 0.113733
0.028757 0.441279 0.229868
-0.055569 0.482848 0.121808
0.190123 0.052095 0.493086
0.270208 -0.475420 0.144220
0.246716 0.349047 -0.357801
0.173387 0.482173 -0.129026
-0.267234 0.279213 -0.414846
0.012238 -0.425721 0.255257
-0.115933 0.091373 0.487444
0.003160 0.075649 -0.494429
-0.223798 0.449518 0.213148
0.021966 -0.013683 0.495586
-0.238060 -0.073176 0.490285
-0.160812 -0.294957 0.398661
0.228227 -0.492889 0.066634
-0.110999 0.492701 0.073397
-0.087009 0.498600 -0.005997
0.150110 -0.110668 -0.487561
-0.006587 -0.252367 0.426810
-0.239554 0.131220 -0.482657
-0.013696 0.108556 -0.488290
-0.150249 -0.263467 0.420211
0.224855 -0.496229 0.035674
0.102048 0.290212 -0.407367
0.098120 -0.497516 0.006967
0.233759 0.252400 0.427438
-0.250302 -0.485724 0.105415
-0.181113 -0.209882 0.449258
-0.038045 -0.147521 0.473490
-0.175193 0.308109 0.389410
-0.037496 0.011564 0.495766
0.045603 0.206357 0.451227
0.056470 0.425616 -0.261464
0.079460 0.379807 0.320442
-0.152508 -0.492592 -0.071421
-0.196968 -0.418819 0.266578
-0.261599 -0.295032 -0.403113
-0.116866 -0.397546 0.297303
-0.205484 0.278945 0.410727
-0.004755 0.205117 0.451783
-0.103494 -0.127057 0.479170
0.055559 -0.428819 -0.254455
-0.056734 -0.063225 -0.496126
-0.102903 -0.408878 0.281280
0.208152 0.307934 0.389549
-0.030022 -0.113472 0.482692
0.139635 -0.370031 -0.334993
0.269379 0.066065 -0.495815
-0.079851 0.457692 0.195229
-0.065194 -0.367551 -0.337883
-0.030018 -0.436126 0.237326
-0.150306 0.497476 -0.035065
-0.030178 0.072905 0.490623
0.266835 0.076659 -0.494282
0.199838 0.172111 0.465273
-0.204422 0.488508 -0.102368
-0.096866 0.377158 -0.328072
-0.069828 0.221153 0.444393
-0.113857 -0.468081 -0.170714
-0.162975 0.498387 0.005817
-0.032224 0.126713 0.479638
0.245980 -0.491314 -0.080251
0.104723 -0.355923 0.345756
-0.189991 -0.389399 0.307521
-0.188083 -0.255382 -0.429348
0.045601 0.479793 0.132879
0.148898 -0.323057 -0.380929
0.008408 -0.096735 -0.490698
0.265524 -0.317206 0.381323
0.244739 -0.497021 0.017999
-0.212159 -0.044747 -0.498123
-0.275954 -0.410415 0.279081
0.118470 -0.414189 -0.277798
0.007872 0.498488 0.000251
0.184271 0.498454 0.002103
-0.289340 -0.455849 -0.201545
0.000253 0.152205 -0.476581
0.041115 -0.484994 -0.113114
-0.271745 0.288165 -0.408912
0.000312 0.497354 -0.037781
0.189889 -0.272490 -0.418878
0.112978 0.263357 -0.425313
0.153553 0.225600 0.442051
0.077627 -0.478088 0.135476
0.016249 0.279031 0.410667
-0.079605 0.236506 -0.440847
0.176993 -0.485594 0.105964
0.176582 -0.425171 -0.260818
-0.200851 0.354044 -0.352937
0.211341 -0.227371 0.440640
0.267394 0.478610 -0.141476
-0.216934 -0.232671 -0.442142
0.029944 -0.160607 0.468976
0.008196 0.426029 -0.260786
-0.080624 0.452566 0.206963
0.099876 -0.057658 -0.496728
0.158746 -0.412367 0.276291
-0.051004 -0.459898 -0.191833
-0.137512 0.384061 -0.319853
0.134812 0.445568 -0.225692
0.031812 0.266054 0.419113
-0.250084 0.251250 -0.432392
0.270678 -0.387712 -0.314365
0.196765 -0.331757 0.368836
0.114002 -0.495567 -0.045255
0.052709 -0.085910 0.488442
0.021609 0.028986 0.494985
0.120315 -0.134362 -0.481625
0.212083 0.433318 -0.248828
-0.047391 -0.076073 -0.494255
-0.048406 0.487767 -0.105487
0.259005 0.231387 0.439005
-0.257972 0.408048 0.284300
0.053424 -0.219028 0.444751
0.095900 0.029540 0.494960
-0.128370 0.337493 0.364429
-0.039222 0.218889 0.445585
-0.131562 0.315597 -0.387935
-0.140017 -0.315081 -0.387387
-0.075332 0.493041 0.071044
-0.288604 0.060024 -0.496689
0.046966 0.462215 -0.189089
0.036538 -0.175124 -0.468111
0.109177 0.384355 0.315142
-0.135980 -0.381826 -0.321247
-0.286436 0.376723 0.324036
0.190584 -0.472576 -0.157683
0.184992 -0.468455 -0.169630
-0.054835 -0.377416 -0.326387
-0.053863 0.498028 -0.022753
-0.176723 0.002844 0.495884
0.018695 -0.373532 -0.330913
0.184094 -0.334541 0.366448
-0.245862 0.239075 -0.439374
0.226711 0.369172 -0.336890
-0.259475 0.021496 -0.499818
0.093562 0.116276 -0.486672
-0.258053 -0.470270 -0.164368
0.259377 -0.469999 0.161263
0.231300 -0.161035 -0.473398
-0.142355 0.427431 0.254310
-0.055346 -0.424548 -0.261904
0.158627 0.052760 -0.497513
0.106512 -0.081289 0.489111
-0.002304 0.458218 0.193966
-0.049264 0.367817 0.334360
-0.021106 0.486443 0.106737
0.243336 0.213313 -0.452426
-0.088729 -0.159541 -0.473942
-0.159347 0.337417 -0.369124
-0.271957 -0.477885 -0.140428
-0.168792 0.249352 -0.433481
0.239355 0.496190 -0.049922
0.030611 0.450128 0.211910
-0.089828 -0.355811 -0.349993
-0.192337 0.281475 -0.413352
0.032211 -0.376960 -0.326919
0.268226 -0.445363 -0.223854
0.007794 -0.476327 0.141246
0.266829 -0.294046 0.399348
0.265116 -0.332736 -0.372163
-0.058100 -0.496299 -0.036217
0.087153 0.020718 0.495356
-0.039041 -0.083613 -0.492957
-0.216199 0.444683 0.222961
0.078004 -0.497564 0.001012
-0.219386 0.443639 -0.229357
0.084717 0.225155 0.442286
0.274807 -0.178088 0.462843
-0.171581 0.322870 -0.381695
0.096738 -0.402744 0.290050
0.236518 0.352512 -0.354428
-0.202766 -0.486807 -0.104462
-0.100352 0.487321 -0.107362
-0.070550 0.314525 0.384294
-0.214019 -0.015366 -0.499903
0.200365 0.330058 -0.375527
-0.078021 -0.395284 0.300140
-0.177556 -0.388011 0.309261
-0.104647 0.485622 0.110656
0.185577 0.393165 -0.308437
0.105119 0.120377 -0.485650
0.236920 0.341868 -0.364790
-0.087050 0.447015 -0.222945
0.243517 0.414617 -0.278892
-0.202794 -0.259214 -0.427012
0.259837 -0.449190 0.211916
0.128780 -0.378404 -0.325236
-0.012257 -0.468156 -0.170498
-0.233403 -0.205833 0.451253
0.075914 0.137059 0.476761
-0.252693 -0.497357 0.010522
-0.247587 0.167883 -0.471173
0.046561 -0.352720 -0.353168
-0.160301 -0.497562 0.000878
0.078236 -0.189170 0.458223
0.240678 0.498146 0.019221
0.274811 0.001984 0.495869
-0.005653 -0.004455 -0.500285
0.023359 -0.175494 0.463840
0.075770 -0.062875 0.491775
0.161644 -0.051362 -0.497408
-0.155937 -0.497111 0.016006
-0.126972 0.475385 0.148158
0.273882 0.416631 -0.276013
-0.096762 0.478682 -0.141242
0.270167 0.256741 -0.429243
-0.023699 -0.323882 0.375594
-0.240040 0.069035 0.491255
-0.114053 -0.362517 0.338752
0.205953 -0.408463 0.281873
-0.031721 -0.496634 0.026646
0.124490 0.477735 -0.144346
-0.096075 0.495875 -0.052840
0.056849 -0.131897 0.477834
-0.060874 -0.181312 -0.465789
-0.087866 -0.240857 -0.437832
-0.213941 -0.375661 -0.328433
-0.256016 -0.126959 -0.483689
-0.072522 -0.486807 0.100861
-0.166228 -0.469454 -0.166735
0.016094 0.422971 0.261695
0.184230 -0.460087 0.187633
-0.085429 0.135723 -0.481414
0.047796 -0.434759 -0.244097
0.103499 -0.313238 -0.388856
0.202705 0.358022 0.344422
-0.052994 -0.415434 -0.275914
-0.138789 -0.180818 0.461705
0.022047 0.216452 -0.450879
0.033860 -0.253762 -0.430336
-0.287440 -0.467875 0.166922
0.047255 0.098190 -0.490461
-0.042984 0.035994 -0.498872
0.099493 0.464202 0.179613
0.011222 0.495698 -0.054473
0.286894 0.400342 0.294629
-0.054458 -0.234080 0.437297
-0.285123 -0.497312 -0.012999
-0.106534 -0.481712 -0.126565
0.210652 0.365380 0.336864
0.237741 -0.369090 0.331495
0.090615 -0.497325 -0.012255
0.119755 -0.283633 -0.411085
-0.029777 -0.254050 0.425846
-0.278491 -0.258634 0.423216
-0.128957 0.342794 -0.363889
0.034181 0.477013 -0.146710
-0.228981 0.412469 0.277603
-0.068096 -0.189027 0.458282
0.159108 -0.497575 0.005655
0.004400 0.107352 -0.488542
-0.150012 0.152721 0.471982
-0.047374 0.103688 -0.489310
0.209669 -0.019641 -0.499712
0.208257 0.009409 -0.500035
0.042146 -0.286617 0.404927
-0.060254 -0.489059 -0.093713
-0.059410 0.063702 0.491832
0.217079 0.043437 0.494022
0.002754 0.065510 -0.495895
0.071717 -0.036415 -0.498959
-0.179384 -0.491871 -0.076402
0.200916 -0.398756 -0.299726
-0.076358 0.122319 -0.485114
-0.007864 0.445332 0.221643
0.195020 0.174658 -0.468836
0.002469 -0.225200 -0.446076
0.211648 0.416686 0.271215
-0.147348 0.378903 -0.326145
0.214933 0.135948 -0.481352
0.005668 0.492279 -0.080571
0.254042 -0.312474 -0.389465
-0.094435 0.312786 0.385680
-0.068671 -0.067199 -0.495697
0.255035 0.389139 -0.313486
-0.289391 0.492849 0.072372
0.244334 -0.495337 -0.048097
-0.156274 -0.343455 0.357894
0.083206 -0.105984 -0.488674
0.099302 0.445955 0.220378
0.227900 0.481133 0.128021
-0.189055 -0.007228 0.495703
-0.251259 -0.159764 -0.473874
-0.053141 0.298671 0.396931
0.003834 -0.100046 0.485504
0.227454 -0.485171 -0.112270
0.130956 0.172692 0.465055
-0.279448 -0.216892 -0.450393
-0.132606 -0.374946 -0.329266
-0.107303 0.134527 -0.481744
-0.261381 -0.028401 -0.499319
0.202341 -0.040819 -0.498547
0.060028 0.438606 0.234822
-0.154160 -0.463726 0.177978
0.150728 0.134806 0.477449
0.047149 0.134973 -0.481621
-0.167584 -0.417965 0.267979
-0.076209 -0.483341 -0.120665
0.149045 0.124786 0.480096
0.169824 0.350072 -0.356803
0.091727 -0.187986 0.458716
0.179226 0.401370 -0.297833
0.212839 -0.481499 0.123197
0.227967 -0.071610 -0.495023
-0.052215 0.491556 0.081314
-0.274572 -0.495533 0.042161
0.000731 0.042948 0.494075
0.184770 -0.324465 0.375094
-0.018577 0.278515 -0.415306
0.144421 -0.494156 -0.060611
-0.030347 -0.494493 0.051791
0.153796 0.467782 0.170199
-0.007999 -0.206028 0.451157
0.151816 0.019063 0.495430
-0.088920 0.468104 0.169265
0.089743 -0.480449 0.127616
-0.212739 0.080114 0.489382
-0.007961 0.474774 -0.154048
-0.247770 -0.027843 -0.499344
-0.035863 0.093879 -0.491364
0.165608 -0.117976 0.481677
0.149164 0.494773 -0.063035
-0.040357 0.491846 -0.083090
-0.112534 0.005172 -0.500112
-0.205070 0.335028 -0.371263
-0.020119 0.420888 0.264850
-0.044739 0.498117 0.020840
-0.060088 -0.434872 0.239707
0.286576 0.485121 0.113048
-0.170590 0.258650 -0.428148
0.161802 -0.497454 -0.005090
0.271372 0.012966 0.495703
0.085084 -0.210207 0.449098
-0.031986 0.465054 0.177569
-0.037549 0.440499 0.231451
-0.009292 -0.033336 -0.499097
-0.081104 0.340580 0.361633
0.207904 0.021644 0.495314
0.102660 -0.381292 0.317687
0.286419 0.179810 0.462384
-0.200936 0.054657 0.492809
-0.236050 0.336846 0.365015
-0.174018 0.401497 0.293098
0.093313 -0.490881 -0.083249
-0.019247 0.326423 0.374456
0.039865 -0.497095 -0.025029
0.063517 -0.326270 0.373545
0.047926 -0.098138 0.485904
0.227453 -0.475616 0.143577
0.096212 0.422029 -0.267346
-0.114759 0.439633 -0.236965
-0.068980 0.270246 -0.420765
0.095104 -0.432858 0.243533
-0.099613 -0.455801 0.197183
0.281266 -0.461409 -0.188208
-0.159331 0.147054 0.473712
-0.057192 0.440647 0.231151
0.235323 -0.093823 -0.491199
0.249129 0.493437 0.068307
0.051613 -0.014170 0.495578
-0.088529 -0.495340 0.043955
0.176528 -0.201821 -0.457156
0.241245 0.478341 0.138137
-0.147305 -0.358451 -0.347281
-0.096615 -0.492629 -0.071167
0.157868 0.354431 0.348110
0.075113 0.423965 -0.264171
0.095304 0.273840 0.414298
-0.183043 0.060218 0.492208
-0.270683 -0.184534 0.460155
0.070298 -0.044147 0.493775
0.112699 -0.005461 -0.500303
0.034208 0.295509 -0.403371
-0.042689 0.214810 -0.451688
0.217166 0.398236 -0.302077
0.083192 -0.305781 0.390495
-0.098313 -0.464402 -0.181028
-0.013238 -0.186590 -0.463808
0.157720 0.026538 -0.499638
-0.084884 0.070466 -0.495178
0.219777 -0.473862 -0.153955
0.229760 0.464775 0.178240
0.002438 0.015096 0.495608
-0.229485 -0.157371 -0.474604
-0.097914 -0.265264 -0.423323
0.075268 0.463884 0.180375
-0.066157 -0.357619 0.344105
-0.036867 0.147796 0.473485
0.268274 -0.451774 -0.210843
0.238689 0.498386 0.005880
0.252262 0.324993 0.375751
0.152770 -0.450498 0.209002
-0.210077 -0.497111 -0.024129
-0.071985 -0.357820 -0.347930
-0.227690 -0.474824 -0.151168
0.031481 0.469901 -0.168607
0.202017 -0.351821 -0.354092
0.083068 -0.015269 0.495558
0.077225 0.072953 0.490615
0.270467 -0.231462 0.438625
-0.164242 -0.259462 -0.426861
0.241208 0.489232 -0.098274
0.018345 0.180669 0.462061
0.224899 -0.095707 -0.490875
0.236476 -0.145932 -0.478095
-0.164585 -0.491877 0.072601
-0.098906 0.419093 0.267569
0.186093 0.425904 -0.260990
-0.125002 -0.242375 -0.437033
-0.007601 0.498522 -0.011741
0.284311 0.447655 -0.221730
0.133207 -0.447331 -0.219860
-0.274785 0.440183 0.232072
0.283413 0.074650 0.490323
-0.226464 -0.101530 0.485193
-0.174861 -0.434347 0.240705
-0.079692 0.454716 -0.206239
