0.000537 -0.215788 -0.450889
-0.288505 0.491973 0.078426
0.149076 -0.190134 -0.462401
-0.057003 0.034697 -0.498977
0.224764 -0.373308 0.326839
-0.235125 0.497610 -0.032069
-0.087233 -0.228546 -0.444314
-0.114265 0.301814 0.394429
-0.259427 -0.059912 0.492204
-0.000942 0.135375 0.477275
0.211954 -0.494810 -0.054603
-0.173529 -0.450622 -0.213181
-0.076679 -0.217645 0.445433
-0.049463 0.469713 -0.169107
0.169065 0.457579 -0.199859
0.204193 -0.387307 -0.314860
0.030689 0.492850 -0.077256
0.100824 0.406332 0.286690
0.070588 -0.038745 0.494212
0.198698 -0.260636 0.422069
-0.213951 0.484779 -0.118061
-0.257666 0.068887 0.491271
-0.023466 0.439967 -0.236331
0.048771 -0.450750 0.208440
-0.120611 0.490118 -0.093124
-0.253632 0.382035 0.317845
-0.137471 0.319048 0.380687
0.085279 0.490873 0.085590
0.023601 0.483952 0.117812
0.223734 -0.351549 0.350014
-0.038241 -0.490100 0.082924
-0.069025 0.238022 0.435511
-0.216651 -0.400244 0.293625
0.100312 0.125879 -0.484131
-0.128817 -0.435324 -0.243112
0.285094 -0.436630 0.236368
-0.032866 0.084114 -0.493204
0.137612 0.041140 0.494270
0.237910 -0.444839 0.220777
0.223426 -0.421421 -0.266844
0.203968 -0.419282 0.265818
-0.195209 0.250528 -0.432806
-0.089649 0.491565 -0.084721
0.115836 0.145185 -0.478802
-0.043367 -0.370794 -0.334104
0.002223 0.452678 -0.210781
-0.187809 -0.472643 0.153322
0.103141 0.257579 -0.428763
0.230662 0.272285 -0.419420
0.127882 -0.466711 -0.174686
0.242280 -0.381183 0.317824
-0.088373 -0.493820 0.058015
0.131263 -0.378514 0.321090
0.086884 -0.146825 -0.477822
-0.056520 0.480091 0.131797
0.093386 0.497419 0.030691
-0.173471 -0.173039 0.464687
-0.141873 -0.075752 0.489912
0.204641 0.498284 0.011545
0.204399 0.217676 0.446148
0.175897 -0.461164 -0.188795
0.271436 -0.381700 0.317176
0.020782 0.194834 -0.460642
-0.125877 0.474765 0.149956
-0.088786 0.217735 0.446121
-0.269139 0.403330 -0.295030
-0.082676 -0.470804 -0.162820
0.040585 0.069797 0.491159
-0.058752 -0.130232 0.478294
-0.289081 -0.395355 0.300050
0.019543 0.400819 0.293997
-0.049823 0.337863 -0.368689
0.075787 0.448213 -0.220669
-0.045148 -0.461489 -0.188016
0.064159 0.145221 0.474271
0.259251 0.386305 -0.317040
0.157108 0.323720 -0.380966
0.044713 -0.129054 -0.483192
0.041066 0.394689 -0.306525
-0.156893 0.080230 -0.493766
0.119950 -0.340178 -0.365422
-0.074294 -0.347151 -0.358889
-0.028099 0.054215 0.492857
-0.123572 -0.375362 0.324570
-0.181107 -0.408431 0.281919
0.096371 0.414816 -0.278607
-0.139811 0.275874 -0.417050
0.159134 0.317931 0.381578
0.258083 -0.066826 -0.495737
-0.066358 0.440524 0.231399
0.070065 -0.393491 -0.306705
-0.101631 -0.184409 0.460207
-0.071197 -0.253902 -0.430250
0.006999 0.339097 0.362976
-0.212215 -0.061810 0.491929
0.194358 0.109161 0.483809
-0.289450 0.498075 0.022590
0.140623 -0.351403 0.350156
0.135189 0.055728 0.492694
-0.153211 0.127388 0.479478
0.083995 -0.450991 0.207904
0.066665 -0.417404 -0.272928
0.229166 0.042621 -0.498335
0.106277 0.181703 -0.466116
-0.215315 0.023214 -0.499787
-0.108335 -0.483795 -0.118839
0.170200 0.207896 -0.455095
0.235906 0.070092 0.491108
-0.164816 0.372362 -0.333368
-0.155414 0.193092 0.457180
0.161232 -0.146010 0.473938
0.088473 0.131732 0.478387
0.252045 0.466834 -0.176782
0.000548 0.392787 0.304643
-0.217633 0.355124 0.347399
0.255784 0.476854 0.143524
-0.132718 0.088690 0.487906
-0.188730 -0.480001 0.129207
0.238328 -0.306271 -0.394411
-0.194427 -0.488532 -0.096226
-0.201398 -0.471958 -0.159476
-0.015951 -0.489305 -0.092538
0.032685 0.335902 0.365870
0.220814 -0.478753 -0.137287
0.153715 -0.305272 0.390879
0.140581 -0.148824 0.473040
-0.178599 0.215330 -0.451432
-0.167863 0.496792 -0.044353
0.219728 0.481500 0.126692
0.152717 0.297713 -0.401708
-0.020104 0.463032 0.182419
0.151223 0.332705 0.368766
0.200955 -0.189198 0.458211
0.178219 -0.197014 -0.459313
-0.182223 -0.478880 -0.136827
0.155699 -0.477685 0.136797
-0.076917 -0.080757 -0.493449
-0.035911 -0.264929 0.419246
-0.059957 0.354976 0.347550
-0.082492 0.176800 0.463513
0.019506 0.489030 0.094387
0.098532 -0.496242 -0.036931
-0.128809 -0.230181 -0.443453
0.248391 0.109865 0.483642
0.137231 -0.035092 0.494508
-0.226905 0.413518 -0.280464
0.035097 -0.400405 0.293394
0.084121 -0.495639 -0.044368
-0.279892 -0.292410 -0.404947
0.264534 -0.286404 0.405068
-0.209570 0.256675 -0.429281
-0.265604 -0.312322 0.385513
-0.136752 0.494763 0.059141
0.184726 -0.486679 0.101398
-0.020591 0.354804 0.347727
-0.257217 -0.030086 0.494914
-0.107868 -0.158681 0.469640
-0.240017 -0.295289 0.398410
-0.060779 -0.068012 0.491032
0.219541 -0.491919 -0.076074
0.255477 -0.459235 0.189531
-0.114858 0.018629 -0.499869
0.193841 -0.010413 0.495645
-0.142178 0.439142 -0.237897
0.136022 -0.408677 -0.286148
0.270131 -0.456031 0.196672
-0.098512 -0.493116 0.064528
-0.219086 0.260096 -0.427319
-0.089489 0.447909 -0.221247
0.223836 -0.316600 -0.386176
-0.047076 0.266669 -0.423127
0.040099 0.481875 -0.130280
0.109291 0.206343 0.451233
-0.182390 0.327468 0.373509
-0.148712 -0.364760 -0.340801
0.093231 0.107395 0.484229
-0.027299 -0.216000 0.446244
-0.087953 0.005633 0.495934
-0.068083 -0.113453 0.482696
-0.139573 0.498011 0.023391
0.152705 -0.460125 0.187549
0.196125 0.136254 0.477007
0.285047 0.485197 -0.116300
0.081004 0.123894 -0.484679
0.044475 0.498354 0.007654
0.174680 -0.218965 -0.449359
-0.174885 0.106636 -0.488692
0.035475 -0.137521 -0.480661
-0.288522 0.397534 -0.302957
-0.174105 -0.484489 0.110614
0.127365 0.183591 0.460965
-0.055427 0.064470 0.491749
-0.092137 -0.497575 0.001610
-0.270947 0.347147 -0.359650
-0.019559 -0.456778 0.195008
-0.002776 -0.488995 0.089344
0.076046 0.137342 0.476675
-0.003311 0.308704 0.388935
0.052981 -0.162647 -0.472793
0.164941 -0.400184 0.293710
-0.254464 -0.389646 0.307211
0.112082 0.411558 0.278983
-0.174591 -0.324817 -0.379336
-0.159285 0.334820 0.366851
-0.267675 0.147976 -0.478032
-0.019917 -0.408171 0.282290
0.265814 0.293523 0.400532
-0.233287 -0.467582 -0.172162
-0.029977 -0.484314 0.111349
0.277152 0.354565 0.347973
-0.286204 0.060483 0.492180
0.112094 0.096928 0.486488
-0.184695 0.467838 -0.174105
-0.045339 0.234468 0.437382
0.052541 -0.319050 0.379740
-0.108117 -0.061071 -0.496359
-0.072628 0.498266 0.012566
0.253315 0.035790 -0.498888
0.028955 0.203970 0.452298
0.058693 0.113720 -0.487208
-0.008288 -0.468353 -0.169925
-0.016400 -0.393776 0.302031
-0.261416 -0.202682 -0.456770
-0.134473 0.450797 -0.214972
-0.222966 -0.486403 0.102561
0.152188 0.333367 -0.372688
0.088295 -0.406215 0.285087
-0.038501 -0.377903 -0.325820
0.011551 -0.302857 0.392701
0.138816 0.187824 -0.463564
-0.019156 -0.496034 -0.039492
-0.148362 0.496697 0.039605
-0.080306 0.494013 0.064326
-0.025210 0.275020 0.413472
-0.161655 0.147936 0.473442
0.073599 0.132110 -0.482411
-0.199710 -0.390410 -0.310789
0.209036 0.434187 -0.247308
-0.265574 0.471230 0.160202
0.143206 0.448637 -0.219786
-0.015637 -0.406182 -0.289883
-0.251055 -0.419714 0.265109
0.141134 0.015507 -0.499925
-0.016747 0.437566 0.236636
-0.169359 0.444261 0.223816
0.066081 -0.365773 0.335158
0.275422 0.407042 0.285748
0.093283 0.013551 0.495677
0.130370 -0.000338 0.495827
-0.030235 -0.080389 0.489241
0.008542 -0.288956 -0.407362
0.072468 0.283751 -0.411850
-0.132272 -0.078362 -0.493861
0.147019 0.440361 -0.235581
-0.136909 -0.291699 0.401119
0.060986 0.307312 -0.394466
0.026003 0.464564 -0.182830
0.101621 -0.153751 0.471341
-0.056200 -0.436910 -0.240346
-0.196693 0.364408 -0.342150
-0.241977 0.455412 -0.204689
0.020110 -0.448929 -0.216617
-0.208425 -0.290791 -0.406079
-0.233689 0.067891 0.491379
-0.216941 -0.488530 0.092044
-0.183474 -0.426826 -0.257930
-0.053941 -0.490280 0.081881
-0.082265 -0.409262 -0.285262
-0.261405 0.493217 0.069830
-0.246281 -0.451554 -0.211290
0.167808 -0.423566 0.258792
-0.161858 -0.223743 -0.446843
0.145094 -0.449128 0.212054
0.270814 -0.255493 0.425018
-0.193426 0.433473 0.243774
0.137376 0.472253 -0.162311
-0.038770 -0.443070 -0.228507
0.005057 -0.409182 0.280845
-0.242631 -0.496575 0.027948
-0.274404 0.369339 -0.336706
-0.011475 0.077902 0.489763
-0.289196 -0.141349 -0.479493
0.011082 -0.182165 0.461143
-0.248524 0.084059 0.488703
0.087380 0.346282 0.356469
-0.160826 0.320241 0.379736
0.173392 -0.457313 0.193816
-0.236086 0.040705 -0.498490
0.211654 0.415169 0.273514
0.126787 -0.470426 -0.163917
-0.048154 0.495507 -0.056238
-0.278655 -0.047627 -0.497812
-0.039432 0.349247 0.353435
-0.003129 0.488657 0.096169
0.233510 -0.157866 0.469921
0.029805 0.400102 -0.299646
0.050076 0.456061 -0.203242
-0.198317 0.422583 0.262282
0.159898 -0.484264 -0.116601
-0.198818 0.484905 -0.117531
-0.139238 -0.337605 -0.367753
-0.177290 0.288170 0.404275
-0.053099 0.456546 -0.202161
-0.264161 0.258945 -0.427979
-0.230805 -0.046801 -0.497901
0.083471 0.086977 0.488201
-0.064005 -0.172659 0.464818
0.205601 0.311484 0.386719
0.264681 -0.482555 0.118751
0.133770 -0.333774 0.367106
-0.226103 0.229588 0.439952
0.038670 -0.473348 0.151009
0.174222 -0.450319 -0.213796
0.277154 -0.495817 0.039540
0.125251 0.183876 -0.465210
0.039942 0.183758 0.460902
0.285600 -0.421142 0.262768
0.114196 -0.404747 -0.291785
0.235107 -0.423519 0.258869
0.162701 -0.252333 -0.431207
0.012378 0.053929 -0.497419
-0.185722 0.336288 0.365520
-0.204491 -0.286649 0.404906
0.008811 0.234300 -0.442085
-0.092499 -0.139231 -0.480139
0.220383 -0.437701 0.234334
-0.234618 -0.234600 -0.441126
-0.220895 -0.492831 -0.069766
0.117431 -0.438596 -0.237406
-0.256979 0.212220 -0.452964
-0.024903 0.120025 0.481227
0.063079 0.497545 -0.033537
-0.290165 0.352393 -0.354544
0.065517 0.083028 -0.493361
0.282373 -0.465580 -0.177966
0.155567 -0.496503 0.029559
0.054889 0.370806 0.330931
-0.239164 -0.183232 0.460698
-0.083467 0.477643 -0.144647
-0.056604 -0.435287 0.238918
-0.110818 0.488937 0.094833
-0.233869 -0.060158 -0.496457
-0.103675 -0.334303 -0.370743
0.260406 -0.027321 -0.499367
0.072274 -0.089603 -0.491926
-0.046525 -0.325610 -0.378617
0.226586 -0.493547 0.060541
0.110432 -0.118372 0.481567
0.101554 -0.167367 0.466644
0.284745 -0.160353 0.469064
-0.066140 -0.471838 0.155959
-0.189897 0.481535 -0.131710
0.207779 -0.107944 0.483850
-0.259075 0.118360 -0.486207
0.073945 0.457129 0.196579
0.250433 -0.304543 0.391429
-0.240268 0.479153 0.135196
0.218938 -0.192935 -0.461144
0.120924 0.493749 0.066157
0.086527 -0.368407 0.332249
-0.279400 0.495943 -0.052211
0.280964 -0.029922 -0.499250
0.251664 0.085931 -0.492941
-0.188814 0.310630 0.387400
-0.287476 -0.300269 -0.399198
-0.014155 -0.152270 -0.476161
-0.196814 -0.493928 0.057014
0.180555 -0.132406 -0.482222
0.245848 0.496245 -0.049416
-0.273537 0.421751 -0.267803
0.165176 0.188119 0.459266
-0.253164 -0.140515 -0.479747
0.170460 -0.002795 0.495783
0.221811 -0.454620 0.199815
0.181967 0.376188 0.324659
-0.020663 0.228614 0.440464
0.190773 -0.220295 -0.448659
0.228219 -0.044283 0.493764
-0.124630 0.028522 -0.499477
0.131242 -0.456356 -0.200329
-0.036728 0.163787 -0.472586
0.274793 0.241637 0.433608
-0.192611 0.227702 -0.445336
0.265242 0.492502 -0.079281
-0.105460 0.219110 0.445469
-0.107457 -0.400439 0.293346
0.039097 -0.492860 -0.069570
0.041803 0.115499 -0.486835
-0.074250 0.390542 -0.311725
-0.121758 0.480432 -0.135507
-0.076808 0.485602 -0.114598
-0.147387 -0.459915 -0.191792
0.140344 -0.426052 0.254713
-0.247504 0.495950 -0.052138
-0.097748 -0.390298 -0.310937
0.265659 0.302468 0.393907
-0.216769 0.057801 0.492469
0.180647 -0.176555 0.463475
0.121336 -0.141137 0.475283
-0.146122 0.482555 -0.127418
-0.138861 0.107336 -0.488545
0.283699 -0.492934 -0.069053
-0.143382 -0.025100 0.495318
0.172167 -0.294776 0.398797
0.004414 0.102196 0.485464
0.178732 0.358312 0.344123
-0.287294 -0.118495 -0.485701
-0.123241 -0.277328 -0.415494
0.282948 -0.185082 -0.464375
0.194592 0.446638 0.218992
0.126053 0.078912 -0.493956
0.061046 0.363839 -0.342777
0.230432 -0.476783 -0.144422
0.065331 0.103537 -0.489341
-0.043487 0.355632 -0.351391
0.058342 0.056145 -0.497239
-0.049733 0.362691 -0.344045
0.142703 -0.112838 -0.487045
-0.214839 0.457401 -0.200257
0.156545 -0.336980 -0.368319
0.040055 -0.316604 -0.386172
-0.242054 -0.494848 0.048503
0.210254 0.352943 0.349638
-0.031243 -0.231415 -0.442804
-0.057432 -0.207269 0.450546
-0.054370 -0.201480 -0.457309
-0.170356 -0.328310 0.371794
0.205611 -0.375027 -0.329172
0.143352 0.492725 0.073229
0.183416 -0.482129 -0.125055
0.041878 0.182425 -0.465815
-0.253949 -0.312837 0.385071
-0.124307 -0.440690 -0.233337
0.172094 -0.324986 -0.379182
0.252000 0.404820 -0.292901
-0.021051 -0.441677 -0.231334
0.235025 -0.258229 -0.427612
-0.122884 -0.496773 0.023540
-0.221839 -0.057833 -0.496709
0.150042 -0.441231 -0.232240
0.194402 0.239759 -0.438982
0.181346 -0.407275 -0.288272
0.172095 0.347880 0.354839
-0.248253 0.490633 0.086736
-0.055651 0.373054 -0.332604
0.120500 0.244653 0.432020
0.007465 0.493683 -0.072416
0.114791 0.185488 0.460253
0.062084 0.428374 -0.256939
0.029812 -0.118818 0.481444
-0.075593 -0.075435 0.489958
-0.053694 0.250848 0.428384
0.044373 -0.152280 -0.476158
-0.142291 0.377159 0.323527
-0.154847 0.181890 -0.466038
0.230957 -0.194470 0.456013
-0.229901 0.057505 -0.497054
-0.276310 -0.005799 0.495729
-0.284439 -0.340507 0.360764
0.274787 -0.412336 -0.280605
-0.161507 -0.287070 0.404611
0.232799 -0.490281 -0.087391
-0.062972 0.014594 0.495630
-0.034291 -0.458093 0.192076
0.163821 -0.441230 -0.232240
0.124431 -0.463495 0.178594
0.098971 0.143192 -0.479352
-0.155850 -0.378998 -0.324544
0.281710 0.175970 -0.468383
0.254455 0.492938 -0.076744
-0.003434 -0.282935 0.407358
-0.233996 0.354956 -0.352048
-0.282123 0.339662 -0.366938
0.117630 -0.219095 0.444718
0.209334 -0.495519 0.042293
-0.233065 -0.149839 -0.476902
0.222554 0.375730 -0.329649
-0.211799 -0.314051 -0.388208
-0.177615 -0.017911 -0.499789
-0.124254 0.422195 0.262870
-0.276844 -0.404877 0.287001
-0.269778 -0.465156 0.174168
0.265104 0.345545 -0.361211
0.252714 0.074571 -0.494584
0.065911 0.186336 -0.464184
-0.239000 0.086585 -0.492846
-0.270391 -0.186882 -0.463699
0.024129 -0.058958 0.492342
-0.176147 0.412250 -0.282277
0.274148 0.469999 -0.168345
0.068402 -0.432560 -0.247932
0.087794 -0.481001 0.125292
0.134622 0.270994 0.416102
-0.126913 0.145871 0.474072
-0.168797 -0.003535 -0.500269
0.093566 -0.497091 -0.025232
0.274566 -0.066689 -0.495752
-0.086468 0.030218 0.494930
-0.032621 -0.200753 -0.457635
0.120467 0.231161 -0.443631
0.161824 0.441011 -0.234349
-0.021049 -0.431722 0.245412
-0.044053 -0.410930 -0.282736
0.143493 0.002399 0.495876
-0.136688 -0.460865 -0.189513
-0.026314 0.414357 -0.279264
0.263171 0.300055 -0.399941
-0.137402 -0.427392 0.252515
-0.235466 -0.393487 -0.306710
0.275771 0.201175 -0.457998
0.031317 0.237134 -0.440487
-0.029137 -0.144057 0.474477
-0.101343 0.243795 -0.436667
-0.213079 0.493086 0.070737
-0.174757 -0.358799 -0.346925
-0.255016 0.443921 0.224506
-0.205059 0.442577 0.227234
0.185840 0.482490 0.123106
-0.177321 -0.319266 0.379555
0.284452 -0.054772 -0.497040
-0.126739 0.261919 0.421634
0.044627 0.264072 -0.424841
-0.165466 0.474425 -0.155193
-0.056408 0.484865 0.114272
-0.219346 0.309853 0.388019
0.029044 -0.462781 -0.184918
0.035919 0.108722 0.483913
0.097065 -0.230636 -0.443214
0.221734 -0.129887 0.478389
0.127127 0.206028 0.451375
0.105276 -0.137494 0.476289
-0.044408 0.460610 0.188230
0.158657 0.261476 -0.426528
0.118008 0.498431 0.003399
-0.288852 -0.497309 -0.013114
0.246968 0.432402 0.245641
0.257937 -0.014782 0.495567
-0.203946 0.164663 -0.472283
0.123129 0.387076 0.311970
-0.287572 0.176236 -0.468291
0.148538 -0.464881 -0.179881
-0.228655 -0.490896 -0.083143
-0.047167 -0.494529 0.051457
-0.279641 -0.394558 -0.305291
0.013849 0.489552 -0.096413
0.199535 -0.041434 -0.498481
-0.190336 -0.495480 0.042656
0.186709 0.353296 0.349276
0.261539 0.482355 -0.128260
-0.127568 0.295710 -0.403219
-0.082445 0.351141 0.351490
0.099900 -0.449877 0.210386
-0.094429 -0.161748 0.468582
-0.112260 0.171615 0.465459
0.210696 0.233519 -0.442469
-0.034359 0.495032 -0.060634
-0.018506 0.410538 0.280528
0.079687 -0.429362 0.249284
0.137158 -0.354860 -0.350970
0.120539 0.484962 0.113808
0.018239 -0.460858 -0.189530
-0.093175 -0.301245 -0.398419
-0.008060 -0.492189 0.070792
0.063126 -0.461811 0.183082
-0.119583 0.393987 -0.307405
0.246119 0.151564 -0.476802
0.105765 0.331561 -0.374238
-0.150257 -0.205257 -0.455615
0.202082 0.322535 0.377907
-0.172014 -0.496515 0.029282
-0.133029 0.024983 0.495164
-0.072769 -0.020664 -0.499666
0.199549 0.084377 0.488649
0.186500 0.449646 -0.217538
-0.057092 0.333296 0.368230
0.240847 0.186925 -0.463939
-0.195496 -0.425277 0.255984
0.180101 -0.393103 -0.307220
0.231259 0.343613 -0.363091
-0.290249 0.357952 0.344494
-0.271923 -0.042242 0.493929
-0.081061 0.335834 -0.370571
-0.070431 0.287794 0.404538
0.021753 0.464926 0.177877
0.281582 -0.332381 0.368301
-0.271625 -0.343211 0.358131
0.071867 -0.154529 -0.475471
-0.066774 -0.145277 0.474140
0.121052 -0.177978 -0.467040
-0.168878 0.132812 -0.482217
-0.260940 -0.308222 -0.392856
0.211111 -0.133810 -0.481793
0.010902 -0.153203 -0.475876
-0.038157 -0.424627 0.257051
-0.224302 0.373959 0.327257
-0.183941 -0.333380 -0.371580
-0.074931 0.034061 0.494757
-0.027406 0.489922 0.090129
0.013142 -0.231521 0.438595
-0.110772 0.011764 0.495757
0.015497 -0.341076 -0.364609
0.250851 0.489483 -0.096813
-0.020763 0.087715 -0.492656
-0.206049 -0.412682 0.275841
0.227557 0.464570 -0.182813
0.109501 0.428269 -0.257111
-0.155728 -0.309106 -0.392151
0.240819 -0.021717 0.495442
-0.141069 -0.488727 0.090901
0.244846 -0.059037 -0.496579
0.235094 -0.243391 -0.436498
-0.071682 -0.053333 0.493030
0.183108 0.321860 0.378445
-0.123600 -0.443604 0.223124
0.010005 -0.483122 0.116366
0.186899 -0.493870 0.057550
0.050782 -0.476638 -0.144946
-0.055749 0.397939 0.297814
0.198956 0.207085 0.450900
0.130832 0.485695 0.110307
0.127647 0.106121 0.484532
-0.261579 0.448666 0.214876
0.285849 -0.368862 -0.336356
-0.045709 -0.150133 -0.476813
-0.176782 0.489189 0.093630
-0.027845 -0.252842 0.426538
0.271820 0.247154 -0.434741
-0.033240 0.498492 -0.000003
0.020604 -0.154914 0.470940
-0.050355 -0.154537 0.471070
-0.093900 0.014155 -0.499950
0.084460 0.409319 -0.286468
0.235986 0.376452 0.324352
-0.278601 -0.478031 0.135661
-0.221396 -0.026352 0.495216
0.248784 -0.468569 0.165073
0.172886 -0.450545 0.208897
0.277060 -0.418181 -0.271751
-0.176151 0.405225 0.288157
0.210133 -0.167226 0.466693
0.194483 -0.376176 0.323671
0.230412 0.301210 0.394910
-0.264167 0.302443 -0.398140
0.113974 -0.442148 0.225888
-0.082447 0.460400 -0.193573
-0.227232 0.003620 0.495898
-0.163897 0.108622 -0.488276
-0.000456 0.490188 -0.092721
-0.075732 0.425571 -0.261537
0.116833 0.013891 0.495662
-0.244144 -0.497051 0.017338
0.133590 -0.197411 0.454786
-0.115845 -0.171140 0.465342
0.276004 0.465537 0.176410
0.012198 0.321178 0.378989
-0.074529 -0.476526 0.140596
0.222290 0.130415 0.478758
-0.214007 0.387487 0.311491
0.238917 0.466913 -0.176572
-0.085985 0.071882 0.490800
-0.244606 -0.367341 -0.338129
0.262607 -0.158776 -0.474176
0.191541 -0.184886 0.460008
0.211923 0.095362 -0.491054
-0.284935 0.428671 0.252147
-0.153994 -0.343089 -0.362786
-0.255108 0.030254 -0.499337
0.101089 -0.497352 -0.010726
-0.213603 -0.272568 -0.418824
0.015201 -0.482252 -0.124610
-0.248794 -0.121144 -0.485071
0.168771 -0.400957 -0.296809
-0.115374 -0.479573 0.130608
-0.068809 -0.056254 -0.496879
-0.099071 0.203661 -0.456962
-0.274750 -0.493540 0.060609
-0.034101 -0.451543 0.206674
-0.124009 -0.086305 -0.492494
-0.109416 0.494705 -0.063667
0.240477 0.457552 -0.199920
-0.101505 -0.430439 0.247517
0.171781 0.484914 0.114035
-0.141274 -0.484456 0.110754
-0.096589 -0.419932 -0.269100
0.098012 0.423527 -0.264889
0.239527 -0.388671 0.308433
0.208629 -0.489876 -0.089811
0.038392 -0.304276 -0.396002
-0.029381 0.374361 -0.331160
0.071232 0.317705 0.381758
-0.022274 0.494031 -0.069901
-0.038159 0.440379 -0.235549
-0.164388 -0.185118 0.459912
0.123213 -0.475197 0.144952
-0.115183 0.256994 0.424637
0.136543 -0.263286 0.420331
0.047675 0.301947 0.394323
0.276103 0.289049 0.403660
0.280018 -0.089368 0.487741
-0.108171 0.393044 0.304302
0.244267 0.497764 -0.028641
0.282649 -0.383685 0.314686
0.071824 0.473075 0.154856
0.188430 0.164074 -0.472487
0.234313 0.105393 -0.488952
-0.287697 0.447847 -0.221364
-0.111676 -0.256560 0.424406
0.231363 -0.361814 -0.343827
0.000677 -0.121889 0.480597
-0.261810 -0.485102 0.108035
-0.062036 0.341534 -0.365116
-0.148289 -0.182936 -0.465180
-0.268985 -0.016612 0.495534
0.088860 -0.117333 -0.485977
0.080860 0.018043 -0.499880
0.037641 0.054393 -0.497381
-0.004921 0.068709 -0.495433
0.024459 -0.268831 -0.421149
0.263599 0.444366 0.223603
-0.062641 0.395602 -0.305380
0.062044 0.126045 -0.484085
0.238734 0.350182 0.352475
0.145759 -0.332534 -0.372346
-0.274784 -0.474901 0.145920
0.210638 -0.354509 -0.351330
-0.234665 0.461624 -0.190666
-0.150077 0.253279 0.426901
0.232221 -0.334028 -0.370993
0.067881 0.348918 0.353773
-0.130400 0.497541 0.029192
-0.026531 -0.457193 -0.198319
-0.269773 0.184636 0.460573
0.232896 -0.485609 0.105900
-0.126641 -0.121883 -0.484896
0.003824 0.488142 -0.103906
-0.010813 0.347235 -0.359565
0.211448 0.020813 0.495351
-0.000365 0.125021 -0.484368
0.099365 0.138897 0.476200
0.259604 -0.429205 -0.253782
0.275457 -0.307346 0.389315
-0.283071 -0.050643 0.493248
0.135393 -0.497126 -0.023304
0.048518 0.307592 -0.394255
-0.288096 0.293575 -0.404830
0.122205 -0.043576 0.493821
-0.227745 0.464380 -0.183320
-0.166763 -0.051591 -0.497383
-0.196741 0.007889 0.495931
0.284393 0.258074 -0.428479
-0.127615 0.407571 0.285022
0.214075 0.485769 0.109953
0.259373 -0.368534 0.332110
-0.195474 -0.297591 -0.401323
0.247200 0.444029 0.224287
-0.031550 0.301273 0.394860
0.188113 0.489712 -0.095482
0.177604 -0.312642 -0.389331
-0.287777 -0.292468 0.400538
-0.044208 -0.073853 -0.494637
-0.029911 0.211272 -0.453432
-0.017101 0.241570 0.433643
0.033769 -0.141260 0.475249
-0.285009 -0.412245 -0.280743
0.044079 0.434814 0.241435
0.011262 0.455665 0.200090
-0.186815 -0.497345 0.010776
-0.284158 0.389866 0.308515
0.028722 -0.421515 0.262155
-0.260237 -0.491005 -0.082391
-0.207745 -0.338536 -0.366910
-0.185843 -0.311218 -0.390467
-0.214029 0.495937 0.048981
0.256187 -0.472597 0.153472
-0.162267 0.015821 -0.499920
0.152893 -0.402007 0.291103
-0.216255 0.497167 -0.040877
-0.107307 0.240775 0.434061
-0.057185 -0.477533 -0.141705
0.218949 0.196114 0.455824
0.088944 0.484841 0.114386
0.132064 -0.449211 -0.216044
-0.166313 -0.272620 0.414168
-0.044015 0.026619 -0.499631
0.107372 0.340192 0.361985
-0.102512 -0.378435 0.321177
-0.082906 -0.067316 -0.495684
-0.194266 -0.056751 0.492661
-0.245595 0.460201 -0.194016
-0.017194 0.075778 -0.494410
0.156253 -0.207140 0.450610
-0.003202 0.479450 0.134121
0.232165 -0.061810 -0.496279
-0.184006 0.245168 0.431748
-0.169748 -0.468361 -0.169903
0.115854 0.109615 0.483701
0.229174 0.497436 -0.035946
-0.158818 0.477228 0.142171
-0.033523 0.387144 0.311891
-0.182132 -0.106162 0.484223
0.151112 -0.259598 -0.426778
0.284775 0.164726 0.468044
-0.131902 0.485995 -0.112944
0.061137 -0.497174 0.014597
-0.095595 0.419269 -0.271873
-0.010021 0.214270 0.447676
0.208035 -0.002156 -0.500244
-0.024766 -0.263794 0.419995
-0.149528 -0.084329 0.488671
0.152304 -0.157263 0.470129
0.216842 0.076961 -0.494239
0.066356 -0.115033 0.482365
0.285885 0.430891 0.248277
-0.269619 0.472220 -0.162420
0.132113 -0.177006 -0.467405
0.185581 0.232156 -0.443141
0.203127 -0.091054 -0.491676
0.103783 0.447988 0.216254
0.017164 0.259486 0.423117
-0.288553 0.498396 0.005331
0.234544 0.473907 0.152444
-0.269440 -0.364870 0.336155
-0.231700 -0.088183 -0.492170
-0.157511 0.426142 0.256558
-0.011887 -0.380525 0.318649
-0.094184 0.431452 0.247298
-0.192919 -0.112848 0.482822
-0.144411 -0.154254 -0.475555
-0.282547 0.283778 -0.411832
-0.109120 0.053886 0.492893
0.070971 -0.470545 -0.163573
0.232460 -0.407793 0.282831
-0.121571 0.053072 0.492981
0.036419 0.449509 -0.217842
0.000926 0.454481 0.202930
0.064531 -0.496679 0.025622
0.278496 0.255436 0.425586
-0.218084 -0.337615 -0.367744
-0.023244 0.456916 -0.201336
-0.001216 0.340134 -0.366478
0.101459 0.047972 -0.497901
0.011480 -0.283623 0.406904
-0.201476 0.448997 -0.218983
-0.099142 0.496519 -0.046880
-0.011024 0.152896 0.471929
-0.067559 0.056834 0.492574
0.023718 -0.410255 -0.283757
-0.224197 -0.391220 -0.309715
-0.046317 -0.368004 0.332695
-0.215423 -0.373998 0.326077
-0.094887 -0.196105 -0.459721
0.221407 0.338617 -0.367955
0.192870 0.495805 -0.053488
0.029816 -0.472403 -0.158187
0.105065 0.482877 -0.126062
0.245989 0.231789 0.438793
-0.071679 0.130734 -0.482791
-0.134096 0.163857 -0.472562
0.101843 -0.328668 0.371487
0.219916 -0.244996 0.431038
0.163291 -0.493461 0.061337
0.272152 -0.216388 0.446052
-0.250125 0.215836 0.446974
-0.028705 0.476008 -0.150004
-0.178759 -0.492101 -0.074816
-0.273415 0.386364 -0.316965
0.003818 0.432083 0.246197
0.081810 -0.491466 0.074989
-0.031031 -0.478698 -0.137486
-0.195843 0.197365 0.455262
0.261169 -0.053805 0.492992
-0.172906 0.494774 -0.063020
-0.120247 -0.486670 -0.105114
0.186151 -0.444084 -0.226450
-0.090142 0.164352 0.468184
-0.108451 0.322764 0.377724
-0.089949 0.185244 0.460345
0.267001 0.084305 0.488661
0.268691 0.410427 -0.284883
-0.223991 0.491154 0.084090
-0.003860 -0.098668 0.485793
-0.200429 -0.046034 -0.497984
0.007352 -0.141987 -0.479298
-0.061736 -0.494196 -0.060336
0.189943 -0.340843 -0.364820
-0.200082 0.318579 0.381061
-0.186347 -0.497297 -0.013790
0.062892 0.441659 0.229096
-0.097828 -0.467855 0.166976
0.023337 0.411331 -0.283591
-0.109419 -0.199048 -0.458400
-0.015816 0.497247 0.032820
0.093962 0.274193 -0.418160
-0.274767 -0.497404 -0.007893
0.117110 -0.496197 0.036017
0.238259 0.318295 0.381288
0.253525 0.484593 -0.118844
-0.070383 -0.124483 0.479880
0.226858 0.085800 0.488404
0.113955 0.259874 -0.427447
0.144598 -0.412145 -0.280895
-0.072614 -0.232746 -0.442103
-0.156936 -0.437015 0.235637
-0.094463 -0.406093 -0.290001
0.217480 -0.025409 -0.499453
0.093161 0.483467 -0.123579
-0.261282 0.249534 0.429185
0.068100 0.447423 0.217399
-0.097074 -0.324909 -0.379252
-0.024855 -0.493526 -0.064962
0.203899 -0.443097 -0.228451
0.018761 0.382433 -0.321895
0.193241 -0.403842 -0.292985
-0.038969 0.172450 0.465145
-0.222231 -0.007369 0.495700
0.185023 0.258676 -0.428133
-0.205324 -0.031486 -0.499180
-0.089290 -0.387268 0.310193
-0.015242 0.056253 0.492637
0.123103 -0.491297 0.075970
-0.005752 0.374395 0.326749
-0.096960 -0.433616 -0.246091
-0.004249 0.285294 -0.410831
0.013480 -0.489749 0.084966
0.215032 -0.433338 -0.246575
-0.247477 0.048270 0.493499
0.095371 -0.192424 -0.461373
-0.188306 0.119789 -0.485813
-0.070937 0.160061 0.469743
0.109091 0.267451 -0.422611
0.138054 0.146761 -0.478367
0.110220 -0.161654 0.468615
-0.139210 0.467932 0.169764
-0.045471 0.485916 0.109254
-0.249297 0.234968 0.437119
-0.169139 -0.476644 -0.144926
0.189783 -0.437856 0.234039
-0.277194 -0.432079 -0.248770
-0.220519 0.462265 0.184258
-0.020516 0.091516 0.487420
-0.233475 -0.453079 -0.208187
-0.104430 -0.285566 -0.409733
-0.127162 -0.463545 -0.183085
0.251312 0.426885 0.255261
-0.251647 -0.253020 -0.430788
-0.025902 -0.487060 0.099797
-0.174287 0.297129 -0.402149
-0.232637 0.247742 -0.434404
0.014848 0.472274 0.157178
0.145977 0.287679 0.404619
-0.126621 -0.432857 0.243534
0.085358 -0.227044 -0.445105
0.224807 0.261581 -0.426468
0.240132 0.157632 0.470484
0.076252 -0.456169 -0.200777
-0.142243 -0.342757 0.358574
-0.154387 -0.495108 -0.050920
-0.071854 0.143117 -0.479373
-0.208775 -0.144360 -0.478574
0.190275 -0.060924 0.492057
0.184403 0.041811 -0.498400
-0.223316 -0.494599 0.050811
-0.199658 -0.345810 -0.360266
0.061137 0.487999 0.099308
0.072786 0.302590 -0.398029
0.085964 0.452033 0.208045
-0.085796 -0.433910 -0.245578
0.143903 -0.362384 -0.343241
0.017512 0.336453 -0.370040
-0.197334 0.163250 0.468598
-0.006736 0.384608 0.314847
0.231996 -0.475600 0.143631
-0.210086 0.279582 -0.414602
0.218019 -0.233832 0.437439
0.029336 -0.108715 -0.488025
-0.046684 -0.117170 -0.486016
-0.221086 -0.146862 -0.477811
0.121786 -0.368609 0.332027
0.082218 -0.326201 0.373604
0.199405 -0.232038 0.438341
-0.212812 0.462863 -0.187363
0.015583 0.494388 0.061737
0.148514 -0.443175 0.223938
-0.101788 0.416210 0.271937
-0.146319 -0.474787 0.146296
-0.089979 -0.261596 -0.425559
0.277520 0.339186 0.362896
0.028473 0.095566 0.486722
-0.026510 0.466214 0.174745
0.225625 0.435689 0.239910
0.270461 0.177974 -0.467671
-0.239333 -0.481011 -0.129106
-0.221411 0.494526 0.060784
0.094560 0.498391 0.005598
0.257238 0.326474 0.374410
0.153819 0.498645 -0.009008
0.263436 -0.490032 0.083319
-0.098400 0.385230 0.314122
-0.000499 -0.494071 0.055691
-0.257546 0.407779 0.284708
-0.092352 -0.462580 0.181033
0.036144 0.497368 0.031329
0.225469 -0.461250 -0.188589
-0.159384 0.232415 0.438463
0.197738 0.352621 0.349969
-0.279800 0.443290 -0.230020
-0.121878 -0.271360 0.415000
0.203362 -0.143151 -0.478943
-0.081826 -0.058328 0.492433
0.227264 0.349720 0.352949
-0.153465 0.406977 -0.289817
-0.252321 0.151550 -0.476807
0.116198 -0.261082 -0.425873
-0.030858 -0.496152 -0.038032
0.049095 0.253396 -0.431161
0.092288 0.447881 0.216469
0.203987 0.496349 0.043896
0.191980 -0.423475 -0.263733
-0.140906 0.384839 0.314577
0.203146 0.359149 0.343264
0.225465 -0.392508 -0.308008
-0.028950 0.486062 0.108556
-0.066749 -0.492023 0.071753
-0.048554 0.225616 -0.446364
-0.217935 -0.471786 -0.159974
0.040769 0.454105 -0.207600
0.238639 0.379994 -0.324941
-0.124250 0.464952 0.177814
0.257479 0.490057 0.089484
-0.226040 -0.385928 0.311874
-0.028730 -0.396475 0.298646
-0.187067 0.368765 0.333310
-0.056432 -0.089903 0.487629
-0.172953 -0.465881 0.172235
0.152904 -0.298733 -0.400422
0.068460 -0.497416 -0.007185
0.188316 0.370641 0.331123
0.067953 -0.425703 -0.259889
-0.178044 0.093983 0.486995
-0.056037 -0.258150 0.423494
-0.258426 -0.468242 0.165944
0.017930 -0.098758 -0.490350
0.086148 0.022095 0.495294
0.153352 0.041676 -0.498411
0.087884 0.377769 -0.327398
0.277267 -0.476997 0.139052
-0.129042 -0.495601 -0.044835
-0.046124 -0.271454 0.414938
-0.126860 -0.417744 -0.272413
-0.009519 0.165193 -0.472101
-0.213422 0.170945 -0.470117
-0.242856 -0.443901 0.222560
-0.023747 -0.442858 0.224541
0.244697 -0.483582 0.114432
-0.057745 0.453759 0.204542
0.143693 0.497339 -0.038112
0.027121 -0.462599 0.180983
-0.018071 -0.413080 -0.279478
0.240983 0.333246 0.368275
0.284990 -0.490825 -0.083636
0.030499 0.178275 -0.467545
0.169290 -0.437417 0.234873
0.157865 0.132723 -0.482242
-0.113522 0.100031 -0.490076
-0.004777 0.240699 0.434101
0.185854 -0.041479 0.493991
0.081937 -0.159211 -0.474043
0.100580 -0.294771 0.398801
-0.228491 0.415296 0.273321
0.053081 0.496509 -0.046971
0.237907 -0.404689 -0.291862
-0.097370 0.282459 0.408269
0.094335 -0.019315 -0.499726
0.040657 -0.496280 -0.036451
0.180179 -0.439573 0.230779
-0.278622 0.318638 0.381014
-0.064175 0.220246 -0.449010
0.020501 -0.311980 0.385806
0.006183 0.498532 -0.002201
-0.228934 0.078737 0.489619
0.022467 0.267423 -0.422629
-0.161777 -0.078620 0.489497
-0.153499 -0.360388 0.341103
0.220773 -0.352548 -0.353345
0.147481 -0.136521 -0.480966
0.197809 0.326464 -0.378611
-0.084845 0.457916 0.194691
-0.275287 0.413898 -0.279921
0.218480 0.476558 -0.148201
0.216628 0.440251 0.231954
0.094259 -0.496313 0.033796
0.195106 -0.453068 0.203274
-0.157974 -0.355197 -0.350624
-0.209916 0.400222 0.294787
0.073514 -0.404023 0.288221
-0.111629 0.110018 -0.487983
-0.255828 0.496470 0.042410
0.203602 0.270630 -0.420512
-0.228387 0.381293 0.318709
0.010769 -0.323229 0.376154
0.035399 0.344970 0.357657
0.109601 -0.450420 -0.213591
-0.105012 0.191983 0.457678
-0.010304 -0.447776 0.215068
0.067625 0.463218 -0.186418
0.150834 0.495897 0.049483
-0.239411 -0.481208 0.124419
0.195857 -0.473567 -0.154811
0.148040 -0.335685 0.365459
-0.243355 0.487205 -0.107852
0.099463 -0.452942 -0.208472
-0.178858 0.305646 -0.395724
-0.042850 0.464634 0.178576
0.198670 0.230376 -0.444018
-0.107331 -0.109336 -0.487877
-0.129754 0.378406 0.322075
-0.227595 0.480923 0.128783
0.053814 -0.091579 0.487278
-0.283308 0.402052 0.292362
0.120149 0.494766 -0.063101
0.014677 0.169668 0.466190
0.256704 -0.402110 0.290957
-0.239757 0.419239 -0.271923
0.286318 0.404994 0.288462
-0.200578 -0.496899 0.020735
-0.094360 0.332927 -0.373066
0.046688 0.469755 0.164479
0.101074 0.064183 -0.496087
0.123086 0.216593 0.446634
-0.289938 -0.077887 0.489603
0.175022 0.491483 -0.085200
0.150225 -0.239294 -0.438655
0.174887 0.383732 -0.320266
0.096033 -0.497557 0.000634
-0.290126 0.490086 0.089346
-0.205950 -0.057245 -0.496772
0.231290 -0.013948 -0.499967
-0.208735 -0.497409 -0.007573
0.269926 0.431533 0.247157
-0.003522 0.056096 -0.497243
0.083335 -0.460844 0.185660
0.154539 0.481207 -0.132965
0.065179 -0.098951 -0.490317
0.163905 -0.164872 0.467505
-0.088964 -0.485085 0.108104
-0.171946 -0.102950 0.484896
0.015336 -0.078288 -0.493874
-0.103507 -0.314249 0.383860
0.028130 0.428414 -0.256873
-0.066327 0.111059 -0.487765
-0.011930 0.471239 0.160176
0.224723 0.455903 0.199520
0.104836 -0.458421 0.191345
0.204659 0.043284 -0.498281
-0.245096 -0.246602 0.430116
-0.023102 0.380635 -0.324150
0.235120 0.488342 -0.103068
0.020463 -0.352529 0.349060
0.069175 -0.251527 -0.431698
-0.080092 -0.424290 0.257604
0.179760 -0.496768 0.023638
-0.137657 0.093376 -0.491470
0.189798 0.395983 0.300407
0.139118 -0.087112 0.488214
0.182838 -0.288588 0.403466
-0.047957 0.468057 0.169400
0.117479 0.482367 -0.128207
0.152860 0.158053 0.470355
0.220225 0.408166 -0.288117
0.118598 -0.413932 -0.278187
0.104133 0.152827 -0.476366
0.065811 -0.399515 0.294667
-0.248273 0.170473 -0.470279
-0.203617 0.390936 -0.311231
0.222617 0.400315 0.294664
0.128690 -0.300208 -0.399246
-0.016504 -0.484929 0.108763
-0.199282 -0.409008 -0.285646
-0.038577 -0.048730 -0.497692
-0.038896 0.454187 0.203634
-0.158833 0.094427 -0.491249
0.096450 -0.472103 -0.159054
0.064144 -0.484833 -0.113884
-0.016561 -0.010241 0.495648
-0.173771 0.467028 0.172386
0.110447 0.377757 -0.327411
0.222514 -0.457210 -0.198280
-0.028986 -0.068210 0.491003
-0.092689 0.451608 0.208905
0.211522 0.479355 0.134464
-0.248076 -0.275062 -0.417079
0.242462 -0.496874 -0.029130
0.218421 -0.417847 0.268172
-0.192170 0.477942 -0.143667
0.227234 -0.259096 0.422952
-0.210776 -0.474611 -0.151784
-0.084629 -0.453346 0.202654
-0.163485 -0.088346 -0.492142
-0.167012 -0.278628 -0.414585
0.232214 0.490560 -0.090557
-0.086734 0.326232 0.374629
-0.177545 0.381460 -0.323116
-0.071739 0.492154 0.077178
-0.216531 -0.241978 -0.437242
-0.197594 0.045901 0.493755
-0.019069 -0.345472 -0.360613
0.257863 0.496507 0.041951
-0.075666 0.341964 -0.364697
0.034511 -0.204518 -0.455946
0.108937 -0.476999 -0.143638
0.134094 0.456336 -0.202629
0.030072 -0.497607 0.003419
0.071591 0.370687 -0.335218
-0.040171 0.407511 -0.289053
0.194623 0.342587 0.359816
0.021465 -0.467338 0.168354
-0.177816 0.238918 -0.439464
0.049296 0.010511 -0.500015
-0.119066 -0.206075 -0.455247
-0.213591 0.298029 -0.401470
0.074881 -0.027339 0.495136
-0.287681 0.093793 0.487028
-0.179475 0.074910 -0.494535
0.134900 -0.316861 0.381619
-0.089061 0.002359 -0.500162
0.007887 0.356816 0.345661
-0.104213 -0.416172 0.270850
-0.072393 0.494878 -0.062061
-0.201001 0.285381 0.406226
-0.251273 -0.497187 -0.019895
0.266262 0.313779 0.384889
-0.250691 -0.496084 -0.038876
0.080706 0.079285 -0.493902
-0.104194 -0.497477 0.007839
-0.197831 -0.335531 -0.369631
0.281596 -0.453832 0.201573
-0.129474 0.162095 0.469031
0.088308 -0.383641 0.314742
-0.098744 -0.198014 0.454535
0.258670 0.021213 -0.499823
0.229005 0.402237 -0.296594
0.132897 -0.132370 -0.482232
0.271761 0.433440 -0.248628
-0.238465 -0.476752 0.139855
-0.063681 -0.222740 -0.447371
0.206995 0.252282 0.427509
-0.220655 -0.491064 0.077326
0.065503 0.401005 -0.298356
-0.235050 -0.302434 -0.397471
-0.114560 0.498565 -0.010790
0.278207 -0.009936 0.495654
-0.207966 -0.299259 -0.400003
-0.186103 0.490819 -0.089052
0.023503 0.021271 0.495331
-0.121432 -0.467010 0.169228
0.186190 0.100193 0.485926
0.042875 0.495563 0.053604
-0.160482 0.208245 0.450380
-0.142951 0.213355 0.448087
-0.134268 -0.368476 -0.336806
-0.099092 -0.291682 0.401132
0.061212 0.176845 -0.468081
-0.038111 -0.027550 -0.499357
-0.288478 0.174144 0.464510
-0.239685 -0.211539 0.448442
-0.226591 -0.448860 -0.216757
0.097560 -0.413012 -0.279581
-0.226159 -0.398527 -0.300029
-0.014352 0.419368 -0.271712
-0.058843 0.437326 -0.241346
-0.269489 -0.055855 -0.496923
-0.149155 -0.156580 0.470365
0.061351 -0.020457 -0.499675
-0.038720 0.106169 0.484520
-0.048367 -0.416820 -0.273814
-0.232211 -0.476694 -0.144743
-0.258290 -0.365181 -0.340369
0.055805 -0.229566 -0.443777
-0.049975 0.291032 -0.406748
-0.053595 -0.373409 0.326727
-0.105681 0.379749 -0.325212
-0.205726 -0.280586 -0.413216
0.106827 -0.354103 -0.351748
-0.149002 0.497301 -0.038969
0.068695 -0.482712 -0.122943
-0.045921 0.451309 -0.213831
-0.195984 0.493731 0.066277
0.222850 0.461298 -0.191535
-0.181485 -0.467748 -0.171681
-0.056831 -0.357061 -0.348709
0.176539 -0.492565 0.068606
0.216632 -0.325018 0.374619
0.219629 -0.335015 -0.370099
0.019382 -0.234110 -0.441384
0.237707 -0.255349 0.425101
0.080090 -0.030027 -0.499246
0.192409 0.072385 -0.494901
-0.165701 0.263674 0.420564
-0.213817 0.413194 0.276505
-0.125181 0.172919 0.464969
-0.125877 0.100497 -0.489978
-0.290182 -0.495372 0.043652
-0.044669 -0.258466 0.423313
-0.262698 -0.421334 -0.266975
-0.186282 0.353270 -0.353689
-0.172480 0.354991 0.347535
-0.107542 0.492924 0.071853
0.262376 0.209076 0.450007
-0.173695 -0.493749 0.058671
-0.001649 0.188623 0.459077
-0.223728 -0.481092 0.124908
0.194409 -0.341665 0.359637
0.098584 -0.379550 0.319872
-0.238848 -0.496317 -0.035998
0.253950 -0.435463 -0.242870
0.008488 0.272142 0.415402
0.106229 -0.058858 -0.496598
0.065116 0.453989 0.204074
-0.000911 0.483038 0.121122
-0.236496 -0.343140 -0.362740
-0.191435 -0.456661 0.195267
-0.017664 0.442897 0.226585
-0.003649 0.266863 0.418620
0.284851 -0.289749 -0.406808
-0.142060 0.011702 -0.499994
-0.117557 0.162216 0.468986
0.120075 0.311048 -0.391648
0.154979 0.435446 0.240334
0.169140 0.128968 -0.483279
0.240410 0.082765 0.488926
0.034632 0.461981 -0.189713
0.171388 -0.456407 -0.200205
-0.005364 -0.389509 0.307382
-0.045304 -0.083465 0.488796
-0.201426 0.439847 -0.236558
0.024822 -0.425112 -0.260920
-0.191556 -0.004792 0.495747
0.149707 -0.223924 0.442339
-0.238472 -0.497268 -0.015397
0.185752 -0.497338 -0.011509
-0.117839 0.003118 0.495889
-0.212166 -0.495615 0.041403
0.000987 0.446076 -0.224728
-0.088448 -0.320567 -0.383012
-0.051567 -0.327340 0.372627
0.092638 0.315986 -0.387602
-0.051610 -0.488016 0.095027
0.285348 0.343348 -0.363350
0.237397 0.494087 0.063820
0.265735 -0.472967 -0.156551
0.015481 0.434024 0.242813
0.278265 0.116926 0.481964
0.081414 0.494747 0.059254
0.120718 0.344780 -0.361955
0.014172 0.498546 -0.011216
0.155858 0.400995 -0.298370
-0.101202 0.359819 -0.347217
-0.087313 -0.118399 -0.485724
-0.197231 0.398623 -0.301592
-0.187426 -0.459519 -0.192740
-0.014414 0.251744 0.427837
0.104446 -0.480297 -0.131690
0.174470 0.399275 0.296043
0.216205 -0.062729 0.491796
0.259099 -0.273152 -0.418415
-0.066773 0.395094 0.301585
-0.249381 0.342317 0.360060
-0.279880 -0.124072 0.479994
0.011767 -0.224119 -0.446645
-0.287218 0.366013 -0.340378
-0.266135 0.136092 -0.481312
0.037267 -0.449003 0.212334
0.000380 0.316645 -0.387036
-0.208205 0.480730 0.129482
0.167630 -0.321181 0.377911
-0.110116 -0.149892 -0.476886
-0.026748 0.461376 -0.191326
-0.212409 0.481052 -0.133475
0.075034 -0.198268 0.454429
0.100004 -0.463210 -0.183889
0.155182 0.408519 -0.287612
0.025976 0.493295 0.069291
0.144890 -0.448102 -0.218295
0.205590 -0.143056 0.474753
-0.164993 -0.496010 -0.039783
0.055967 0.345238 -0.361509
0.230919 0.141393 0.475439
0.273523 -0.077713 -0.493973
0.269603 0.015783 -0.499920
0.050049 0.240022 -0.438831
-0.042449 -0.208006 -0.454381
0.070718 0.394678 -0.306539
0.274998 0.483013 0.121212
0.129090 0.463613 -0.185366
0.075761 0.109584 0.483709
-0.197410 0.279846 -0.414428
-0.202904 0.482445 -0.127881
-0.115349 0.479051 0.135564
0.240718 -0.140491 -0.479755
-0.167857 -0.460627 -0.190084
0.148960 0.435601 -0.244622
-0.061328 0.246793 -0.434948
-0.258481 0.357938 0.344508
-0.053054 0.390381 -0.311927
-0.263117 -0.486036 -0.108144
0.071078 -0.458245 0.191738
0.273819 -0.287196 -0.408593
0.285627 -0.471367 0.157503
0.281284 -0.426626 -0.258279
-0.218103 -0.486000 -0.108315
0.024783 -0.486328 -0.106746
0.113962 -0.421617 0.261988
0.167292 -0.126598 0.479297
0.020803 -0.000596 0.495822
-0.225114 0.497953 -0.024422
-0.019012 0.206899 0.450984
0.284777 -0.483004 -0.121887
0.051415 0.444210 -0.228272
-0.107802 -0.064383 0.491557
-0.030974 0.287085 0.405034
-0.264774 0.292434 -0.405691
0.124553 -0.486064 -0.108006
0.263368 -0.376612 0.323191
0.183920 -0.229925 0.439382
-0.166182 0.486769 0.105181
0.280169 0.465972 -0.179077
0.079784 0.172524 0.465118
-0.197083 -0.497244 -0.016755
-0.152323 -0.234257 -0.441307
0.285453 -0.102756 0.484937
0.060495 0.082779 0.488924
-0.288184 -0.064655 0.491517
0.254272 -0.413560 -0.278752
-0.214379 -0.436179 0.237225
-0.182142 -0.419165 -0.270262
0.156417 0.282832 -0.412457
0.232233 -0.444192 -0.226230
-0.147438 0.300748 0.395279
-0.253269 -0.441779 0.226589
-0.109367 -0.467227 0.168649
-0.121322 -0.202322 0.452739
-0.172654 -0.443822 0.222709
0.144525 -0.468818 0.164409
0.234773 -0.350172 0.351355
0.214402 -0.444642 -0.225317
0.073286 0.495686 0.052082
-0.082583 0.498429 0.003524
0.151493 0.071757 0.490821
0.034618 0.044829 0.493871
0.106063 -0.314725 0.383451
0.268573 -0.141417 -0.479472
0.243234 0.419877 -0.270877
0.182719 -0.296719 0.397331
-0.210307 -0.191953 0.457062
0.077160 0.038179 -0.498695
-0.187435 -0.476248 -0.146359
0.026197 0.077741 0.489791
-0.133551 -0.170472 -0.469857
0.248445 0.467969 0.169658
-0.019308 -0.460885 0.185551
0.200514 -0.495089 -0.051153
-0.077167 -0.331340 0.369194
-0.134027 -0.337349 0.363838
0.212368 -0.150824 -0.476602
0.118565 0.038010 0.494580
-0.002695 -0.137081 0.476403
-0.187212 -0.436947 -0.240282
0.048334 -0.205248 -0.455618
0.235443 0.094225 0.486953
0.182344 -0.005264 0.495738
-0.191447 0.210589 -0.453768
-0.107675 -0.128097 -0.483419
-0.136159 -0.088214 -0.492165
0.073491 0.275848 0.412893
0.236050 -0.487089 -0.103115
0.239859 0.044848 -0.498154
0.009235 0.393575 -0.307922
0.251494 0.437956 0.235956
-0.198678 -0.138292 0.476069
0.086649 0.109426 -0.488107
-0.071209 -0.494841 -0.054219
-0.225449 0.497937 0.024299
0.098645 -0.122319 0.480478
-0.241641 0.386040 -0.317372
-0.054453 0.364038 0.338242
0.182713 0.155274 -0.475522
-0.142160 0.217279 -0.450471
0.212572 -0.083904 -0.492907
-0.138339 0.447096 0.218063
-0.264938 -0.135381 -0.481314
0.269601 0.386571 -0.316706
0.263644 0.403799 -0.294361
0.237133 0.004193 -0.500129
-0.238287 0.446046 0.220194
0.204127 0.497395 0.030994
0.198577 -0.052639 -0.497270
-0.289057 -0.193936 0.456235
-0.137118 0.489736 0.091017
-0.172793 0.369247 0.332748
0.193588 -0.279441 0.409665
-0.009987 0.413531 -0.280445
0.082481 0.098133 0.486280
-0.094114 -0.497259 0.012697
0.270444 -0.019959 -0.499697
0.018882 -0.384601 0.313537
-0.107358 -0.486460 -0.106116
-0.164309 0.409722 -0.285891
0.159325 -0.463071 -0.184222
0.042645 0.402246 -0.296580
0.045512 -0.403854 0.288463
0.270996 -0.293397 0.399838
-0.232161 -0.013927 -0.499968
0.279451 0.436583 0.238349
0.014946 0.105740 -0.488880
0.179648 -0.492544 -0.071753
0.233078 -0.435358 -0.243054
0.285361 0.368564 0.333544
0.230158 0.476053 -0.149859
-0.059242 0.492077 0.077713
0.116598 0.054981 0.492774
0.116892 -0.286563 -0.409036
-0.245572 0.037707 0.494594
-0.255399 -0.332704 -0.372192
0.286174 0.393202 0.304093
-0.048248 0.435943 -0.243973
0.211083 -0.454485 -0.204814
-0.250733 -0.304494 -0.395828
-0.123351 0.453380 -0.209217
0.015254 0.486837 -0.109401
-0.211120 0.200578 0.453821
-0.258405 -0.088625 0.487897
-0.202227 0.072805 -0.494840
-0.184300 0.467512 0.170980
-0.235408 0.343455 -0.363245
-0.100688 -0.037993 -0.498853
-0.211251 0.435427 -0.244953
0.226407 0.202063 -0.457628
0.181281 -0.472610 0.153428
0.154592 0.151611 -0.476786
-0.288838 -0.497248 0.012946
0.038850 -0.043620 -0.498245
-0.219909 -0.087249 0.488185
0.141808 0.448574 0.215063
-0.094856 0.478298 0.138292
0.193391 -0.442948 0.224369
-0.095951 0.238903 0.435047
0.197915 0.485612 0.110702
0.010169 -0.311496 0.386183
-0.152813 0.407512 0.285112
-0.252423 -0.477908 0.136066
-0.091659 -0.417846 0.268173
-0.206446 -0.496531 -0.033363
0.205840 -0.437437 -0.239427
0.245629 -0.075060 0.490012
-0.140769 0.150291 0.472724
0.109834 0.311660 0.386578
-0.004168 -0.478928 0.132723
-0.195622 0.303877 0.392784
0.210574 0.493954 -0.070612
0.080219 -0.424834 -0.261405
-0.137652 -0.489678 -0.090758
0.251823 -0.388427 0.308739
0.086007 0.458406 0.193514
-0.265128 -0.358331 0.343374
0.261109 0.064261 0.491771
-0.256178 0.454318 0.203320
0.207335 0.036154 0.494663
0.185516 0.116626 0.482035
-0.074451 -0.244923 0.431079
0.063318 0.133659 0.477798
-0.233645 -0.374417 0.325614
-0.167724 0.453054 0.205972
0.138591 0.495635 0.052715
-0.242999 -0.427004 -0.257621
-0.011259 -0.487215 -0.102515
0.250505 -0.178801 -0.466731
0.268262 -0.492476 0.069121
0.158524 0.373937 0.327283
0.248072 -0.278244 -0.414854
0.253366 -0.323244 0.376142
0.157952 -0.329371 0.370884
-0.231156 0.213964 -0.452105
-0.168467 -0.477016 0.138989
0.249454 -0.353649 0.347969
-0.126063 0.362337 -0.344436
0.211466 -0.317936 -0.385110
0.019528 0.438700 0.234659
0.286318 0.194862 -0.460630
-0.062349 0.498353 0.007745
-0.161318 -0.487100 0.099626
-0.186626 0.156513 -0.475095
0.104475 -0.467010 0.169229
0.106503 0.200180 -0.458413
0.166123 0.291994 0.401601
-0.010958 -0.453113 0.203174
0.116469 -0.496701 0.025133
0.105661 0.281723 0.408784
-0.168714 -0.495414 0.043262
-0.111568 0.028180 0.495021
0.058296 -0.300078 0.394797
-0.000569 0.373380 -0.332244
0.274337 -0.306161 -0.394499
0.081539 -0.496401 0.031833
0.143677 -0.119542 0.481244
-0.094896 0.262500 0.421280
-0.279210 0.082539 0.488965
-0.139519 -0.497587 0.002301
0.124877 -0.191953 -0.461584
0.017492 0.249563 0.429167
-0.095997 -0.438769 -0.237105
-0.241413 -0.082723 0.488904
0.219057 -0.395488 0.299884
0.006635 0.254390 -0.430591
0.278354 0.491891 -0.082826
-0.098418 -0.369595 -0.335502
0.256252 0.393181 0.304121
0.275873 0.232166 0.438594
-0.108516 0.182444 0.461396
0.255764 -0.149849 -0.476900
0.182776 0.028927 0.494988
0.139397 0.314090 0.384640
-0.163425 0.119047 -0.486017
-0.217839 -0.251634 -0.431633
0.162209 -0.495753 -0.042959
0.069827 -0.358021 -0.347723
-0.012775 0.415311 0.273298
-0.134593 -0.105560 -0.488775
-0.218520 0.466393 0.174225
-0.081939 -0.312504 -0.389441
-0.259094 0.086455 -0.492865
0.199429 -0.052165 0.493125
0.164166 0.234815 0.437199
-0.110882 0.478180 -0.142886
-0.282804 -0.208319 -0.454240
0.108714 0.362995 -0.343710
0.166314 0.318080 -0.385806
-0.260439 -0.465265 -0.178878
-0.203344 -0.368820 -0.336405
0.155567 0.282699 0.408101
0.101046 -0.431437 0.245880
0.097696 -0.416381 0.270552
-0.118326 0.064915 0.491701
0.040442 0.355658 0.346849
-0.204544 0.477371 0.141653
0.233733 -0.102422 -0.489520
-0.029331 -0.372837 0.327358
-0.245125 0.098338 -0.490430
0.009125 0.305746 0.391294
-0.184352 0.438053 0.235786
0.054106 0.283769 0.407353
0.258457 -0.327800 -0.376634
-0.289836 0.136316 0.476988
0.088478 -0.366444 -0.339071
-0.226877 0.226890 -0.445736
-0.248267 0.197373 0.455259
0.104868 0.409956 -0.285556
0.100985 0.193682 0.456915
0.015851 -0.165913 -0.471567
0.241646 -0.497297 0.011856
0.101520 0.456708 -0.201801
0.179847 0.391378 0.306511
0.101608 -0.481746 0.122155
0.165644 0.439565 0.233149
-0.221565 -0.277716 0.410804
0.156685 0.202745 -0.457343
-0.188150 -0.341309 -0.364398
0.087347 0.141502 0.475405
0.091781 -0.493399 -0.065843
-0.094423 0.233719 -0.442371
-0.123423 0.489519 0.092056
0.076149 0.466110 0.175036
0.201967 0.195364 0.456160
-0.152755 0.445785 -0.007358
-0.246705 0.359797 -0.265389
0.222358 -0.203930 0.393332
-0.170041 0.328618 0.298891
0.066299 0.302027 0.325535
0.259759 -0.045145 0.440707
-0.210912 0.431166 0.111308
0.168200 -0.003546 -0.447484
-0.022905 -0.403350 -0.189937
-0.040475 -0.029557 0.442181
-0.152704 0.085635 0.434998
-0.069308 0.224149 0.382811
-0.218219 0.139133 0.421106
