-0.290288 -0.293773 -0.362219
-0.290288 -0.207837 0.404612
-0.290288 0.416737 -0.224729
-0.290288 0.361136 -0.331326
-0.290288 0.456147 0.011462
-0.290288 -0.127724 0.462086
-0.290288 0.445882 -0.084920
-0.290288 -0.059384 0.488067
-0.290288 -0.115739 0.457155
-0.290288 -0.487733 0.005115
-0.290288 -0.074142 0.480590
-0.290288 -0.125867 -0.483118
-0.290288 -0.191732 -0.454071
-0.290288 -0.437665 -0.145928
-0.290288 -0.455707 0.187211
-0.290288 0.450046 0.134676
-0.290288 0.044002 -0.456050
-0.290288 0.157022 0.462118
-0.290288 0.450862 0.167005
-0.290288 0.407784 0.222684
-0.290288 0.435009 -0.245440
-0.290288 -0.054912 -0.452368
-0.290288 -0.458190 0.149753
-0.290288 -0.356772 0.283927
-0.290288 0.362576 0.334839
-0.290288 -0.050034 0.492817
-0.290288 -0.487812 -0.005222
-0.290288 -0.124715 0.456490
-0.290288 -0.454039 -0.132453
-0.290288 0.375958 -0.298361
-0.290288 0.471105 0.122168
-0.290288 0.420539 0.255561
-0.290288 0.327987 -0.353317
-0.290288 0.277350 -0.368134
-0.290288 0.470636 -0.008277
-0.290288 0.231881 -0.402447
-0.290288 0.098854 0.467156
-0.290288 0.274817 -0.372992
-0.290288 0.343957 0.303102
-0.290288 0.335728 0.343497
-0.290288 -0.288344 0.378775
-0.290288 -0.360031 0.269368
-0.290288 -0.424112 -0.245413
-0.290288 -0.410241 -0.212559
-0.290288 -0.217927 -0.439720
-0.290288 0.207246 0.397027
-0.290288 0.163709 0.422816
-0.290288 0.166631 -0.417915
-0.290288 0.334021 0.367084
-0.290288 0.329845 0.337684
-0.290288 -0.427474 -0.139397
-0.290288 -0.061964 -0.459055
-0.290288 0.409283 0.197146
-0.290288 0.408867 -0.228660
-0.290288 -0.426136 -0.133799
-0.290288 0.307401 -0.390665
-0.290288 0.304799 0.323894
-0.290288 0.373355 0.303972
-0.290288 0.185520 0.406585
-0.290288 0.446907 -0.069204
-0.290288 0.301293 0.366954
-0.290288 0.424758 -0.191595
-0.290288 0.251598 0.416256
-0.290288 0.117547 -0.479507
-0.290288 -0.089462 -0.478003
-0.290288 -0.310437 0.383391
-0.290288 -0.141442 -0.462885
-0.290288 -0.440547 -0.121793
-0.290288 -0.443128 0.104139
-0.290288 -0.371197 -0.314420
-0.290288 -0.368122 -0.284436
-0.290288 0.486297 -0.011164
-0.290288 -0.378244 0.294829
-0.290288 0.444132 0.164371
-0.290288 0.334920 -0.340711
-0.290288 0.217069 0.407180
-0.290288 -0.449511 0.139978
-0.290288 0.091167 -0.481599
-0.290288 -0.082557 -0.470883
-0.290288 0.107852 0.460727
-0.290288 0.389339 -0.289612
-0.290288 0.455913 0.111132
-0.290288 0.488374 0.015790
-0.290288 -0.336313 0.361632
-0.290288 0.041928 0.457845
-0.290288 0.294044 -0.403519
-0.290288 -0.437322 0.111469
-0.290288 -0.256266 0.409462
-0.290288 -0.340161 -0.300974
-0.290288 0.482134 0.121991
-0.290288 0.104403 -0.482653
-0.290288 -0.084496 -0.444138
-0.290288 -0.294287 -0.378957
-0.290288 -0.165654 -0.440397
-0.290288 -0.360281 0.300321
-0.290288 -0.420585 0.142696
-0.290288 -0.000847 0.448702
-0.290288 -0.381238 0.277773
-0.290288 0.446103 0.202732
-0.290288 0.005488 0.443343
-0.290288 -0.061308 -0.448784
-0.290288 0.420548 -0.265901
-0.290288 -0.329026 0.328759
-0.290288 0.041909 0.444365
-0.290288 0.053766 0.464983
-0.290288 0.467652 0.008489
-0.290288 -0.031037 -0.491093
-0.290288 0.374159 0.316396
-0.290288 0.253588 0.410256
-0.290288 -0.491850 -0.076201
-0.290288 0.346051 0.344597
-0.290288 0.361716 -0.336154
-0.290288 0.081672 -0.458090
-0.290288 -0.379225 -0.242960
-0.290288 -0.369758 -0.328200
-0.290288 -0.063765 -0.476960
-0.290288 -0.408525 0.217561
-0.290288 0.442521 -0.061697
-0.290288 -0.417990 -0.193495
-0.290288 -0.422205 -0.166150
-0.290288 -0.231704 -0.403024
-0.290288 0.427724 0.180403
-0.290288 0.416588 0.160349
-0.290288 0.343355 -0.299118
-0.290288 -0.356670 0.293737
-0.290288 0.049618 -0.464774
-0.290288 0.321968 0.364503
-0.290288 -0.303747 -0.329231
-0.290288 -0.048558 0.489357
-0.290288 0.364260 -0.339589
-0.290288 -0.199619 0.395652
-0.290288 -0.482764 -0.050507
-0.290288 0.119122 0.438015
-0.290288 0.453461 0.080524
-0.290288 -0.034363 -0.476430
-0.290288 0.147830 0.431095
-0.290288 -0.001021 -0.452573
-0.290288 0.446562 0.010428
-0.290288 -0.302537 0.337108
-0.290288 -0.158604 -0.456903
-0.290288 -0.429492 -0.125521
-0.290288 -0.461083 0.090095
-0.290288 -0.294931 -0.385776
-0.290288 0.132330 -0.432204
-0.290288 0.132740 -0.446640
-0.290288 0.466829 0.161408
-0.290288 0.415801 -0.190197
-0.290288 0.392851 0.208993
-0.290288 0.434489 -0.166724
-0.290288 0.489504 -0.078437
-0.290288 -0.018994 0.462107
-0.290288 -0.473894 0.134382
-0.290288 -0.028508 0.473070
-0.290288 -0.241376 0.377637
-0.290288 0.351766 -0.286734
-0.290288 -0.363323 0.337643
-0.290288 0.390067 0.296746
-0.290288 -0.160253 -0.448565
-0.290288 0.304177 0.365286
-0.290288 0.342067 -0.340338
-0.290288 0.031693 -0.476764
-0.290288 -0.023267 -0.457986
-0.290288 -0.443804 -0.123820
-0.290288 0.447687 0.074349
-0.290288 0.304657 0.387429
-0.290288 -0.415643 0.269910
-0.290288 -0.459026 -0.183871
-0.290288 0.061258 0.490327
-0.290288 0.494491 0.000749
-0.290288 0.023240 -0.474638
-0.290288 -0.201633 0.449793
-0.290288 -0.041609 -0.472415
-0.290288 -0.407201 -0.181460
-0.290288 -0.339938 -0.347390
-0.290288 -0.461734 0.176094
-0.290288 -0.320804 -0.374416
-0.290288 -0.234672 0.409814
-0.290288 -0.180391 -0.466021
-0.290288 -0.439940 -0.143870
-0.290288 0.487195 -0.097472
-0.290288 -0.453211 0.183558
-0.290288 -0.326668 0.341819
-0.290288 0.353749 -0.324679
-0.290288 -0.258611 0.388646
-0.290288 0.471209 -0.066375
-0.290288 0.441386 -0.096790
-0.290288 -0.021288 -0.488792
-0.290288 0.330064 0.343452
-0.290288 0.377347 -0.245632
-0.290288 0.449220 0.026252
-0.290288 -0.480162 0.076007
-0.290288 -0.392177 0.239823
-0.290288 0.107506 -0.483397
-0.290288 -0.221111 -0.389769
-0.290288 -0.006319 0.447331
-0.290288 0.338629 0.313638
-0.290288 0.200327 0.421440
-0.290288 -0.150898 -0.455302
-0.290288 0.364884 -0.296460
-0.290288 -0.394871 0.289339
-0.290288 -0.398214 -0.249783
-0.290288 -0.458181 0.077456
-0.290288 0.365631 0.317283
-0.290288 0.097219 0.461064
-0.290288 0.327509 -0.325793
-0.290288 0.319113 0.373147
-0.290288 -0.253165 -0.369599
-0.290288 0.429066 -0.206399
-0.290288 0.157366 -0.474049
-0.290288 -0.370856 0.324306
-0.290288 0.429454 0.232999
-0.290288 -0.026748 0.453980
-0.290288 0.428054 -0.177630
-0.290288 -0.348362 -0.332709
-0.290288 -0.190002 0.414396
-0.290288 -0.338596 0.346583
-0.290288 -0.093848 -0.437571
-0.290288 0.054487 -0.485219
-0.290288 -0.297432 0.390408
-0.290288 0.366164 -0.317567
-0.290288 -0.472497 -0.044853
-0.290288 -0.465098 -0.037107
-0.290288 0.218041 0.443060
-0.290288 -0.212061 0.403649
-0.290288 -0.022882 0.455154
-0.290288 0.340204 0.327913
-0.290288 -0.164090 -0.435187
-0.290288 -0.425783 0.180083
-0.290288 -0.003632 -0.461454
-0.290288 -0.234710 -0.437003
-0.290288 0.430319 0.150078
-0.290288 -0.392111 0.267530
-0.290288 -0.495300 -0.011059
-0.290288 -0.001125 -0.472381
-0.290288 -0.159482 0.459957
-0.290288 0.166720 -0.432270
-0.290288 0.232624 0.427523
-0.290288 -0.415185 0.261384
-0.290288 0.259699 -0.419616
-0.290288 -0.307282 0.344589
-0.290288 -0.444159 -0.078656
-0.290288 0.367612 0.286826
-0.290288 -0.194588 0.409464
-0.290288 0.464213 0.135818
-0.290288 -0.354833 0.325015
-0.290288 -0.108430 0.440873
-0.290288 0.289579 0.378300
-0.290288 -0.473584 -0.075935
-0.290288 0.251999 -0.426395
-0.290288 0.022122 0.482499
-0.290288 -0.077200 -0.456822
-0.290288 0.451494 0.071686
-0.290288 0.186405 0.447849
-0.290288 0.289103 -0.372488
-0.290288 -0.125691 -0.466574
-0.290288 -0.131350 -0.427550
-0.290288 -0.359967 0.323400
-0.290288 -0.150342 -0.447168
-0.290288 0.459726 -0.152712
-0.290288 -0.297760 0.394532
-0.290288 0.199417 -0.421014
-0.290288 0.340886 -0.303862
-0.290288 0.456078 -0.033714
-0.290288 0.056141 -0.474754
-0.290288 0.447700 -0.092235
-0.290288 -0.366479 0.332534
-0.290288 0.375348 0.255528
-0.290288 0.343347 -0.323770
-0.290288 0.109271 -0.435447
-0.290288 -0.463508 -0.028361
-0.290288 -0.449803 0.029330
-0.290288 -0.437447 0.169477
-0.290288 -0.387618 -0.268301
-0.290288 0.444563 -0.097284
-0.290288 0.203669 0.394179
-0.290288 -0.199144 0.423711
-0.290288 0.431984 -0.187822
-0.290288 0.238460 0.423079
-0.290288 0.420475 -0.210837
-0.290288 -0.141237 0.427427
-0.290288 0.454740 0.046963
-0.290288 -0.039830 0.476225
-0.290288 -0.445387 -0.154078
-0.290288 -0.014925 -0.448001
-0.290288 0.361268 0.286759
-0.290288 0.165513 -0.446286
-0.290288 0.391864 0.240187
-0.290288 0.052361 -0.449199
-0.290288 -0.139023 0.451357
-0.290288 -0.280162 0.379304
-0.290288 0.455462 -0.063056
-0.290288 -0.153304 0.438226
-0.290288 0.228187 0.399904
-0.290288 0.426212 -0.223069
-0.290288 0.450431 -0.121551
-0.290288 0.482072 -0.111364
-0.290288 -0.239768 -0.433169
-0.290288 0.202623 0.426840
-0.290288 -0.115725 0.481623
-0.290288 0.454324 -0.187565
-0.290288 -0.389071 -0.243863
-0.290288 0.473331 0.148956
-0.290288 0.054658 0.460910
-0.290288 -0.287031 -0.368850
-0.290288 -0.007760 -0.452132
-0.290288 0.485612 0.024242
-0.290288 -0.344400 0.321085
-0.290288 0.402917 -0.195879
-0.290288 0.447884 -0.191924
-0.290288 -0.418123 -0.250325
-0.290288 -0.477893 -0.037540
-0.290288 0.266033 -0.366530
-0.290288 -0.254440 0.394309
-0.290288 -0.460950 -0.173655
-0.290288 -0.144973 -0.437578
-0.290288 0.462222 0.164663
-0.290288 0.003174 -0.489577
-0.290288 -0.096824 -0.466865
-0.290288 0.338249 0.324931
-0.290288 -0.387433 0.272492
-0.290288 0.013089 -0.491785
-0.290288 0.335951 -0.311515
-0.290288 0.102210 0.468463
-0.290288 -0.210460 -0.424010
-0.290288 0.143044 0.449609
-0.290288 0.415959 -0.262255
-0.290288 0.381557 0.289181
-0.290288 -0.378223 -0.283038
-0.290288 0.301826 -0.393319
-0.290288 -0.356620 -0.317271
-0.290288 0.073641 -0.485678
-0.290288 0.402292 0.228996
-0.290288 -0.143094 0.464474
-0.290288 -0.288623 0.354280
-0.290288 -0.468551 0.091805
-0.290288 0.440036 -0.211889
-0.290288 -0.203908 -0.432162
-0.290288 -0.132092 0.442871
-0.290288 0.480272 0.117261
-0.290288 -0.450193 0.170990
-0.290288 0.084920 0.436698
-0.290288 0.086429 -0.442335
-0.290288 -0.457271 0.084526
-0.290288 0.410243 0.205671
-0.290288 -0.479121 0.112259
-0.290288 -0.274844 0.402067
-0.290288 -0.316744 -0.356780
-0.290288 0.010490 0.487412
-0.290288 -0.460089 0.097307
-0.290288 -0.050717 0.445693
-0.290288 0.416982 -0.265730
-0.290288 0.004514 0.494852
-0.290288 0.491558 0.006979
-0.290288 -0.200218 -0.420661
-0.290288 0.042313 -0.469190
-0.290288 0.438315 0.225277
-0.290288 -0.206213 0.440710
-0.290288 0.125871 0.425942
-0.290288 -0.351271 -0.337795
-0.290288 0.418545 -0.156481
-0.290288 0.411325 -0.214871
-0.290288 0.442661 -0.120400
-0.290288 -0.444772 -0.207079
-0.290288 -0.169700 0.462079
-0.290288 -0.348576 0.287992
-0.290288 0.437076 0.120062
-0.290288 -0.440522 -0.089223
-0.290288 0.446252 -0.211568
-0.290288 0.347848 0.290296
-0.290288 0.459870 0.110587
-0.290288 -0.430857 0.222652
-0.290288 0.292612 -0.400319
-0.290288 0.447082 -0.160195
-0.290288 -0.460692 0.009103
-0.290288 0.293280 0.375386
-0.290288 -0.261863 -0.368715
-0.290288 -0.121859 -0.484470
-0.290288 -0.294575 -0.401759
-0.290288 -0.270940 0.385199
-0.290288 -0.230704 -0.440136
-0.290288 -0.363192 -0.310480
-0.290288 0.466344 0.138380
-0.290288 0.305421 -0.386456
-0.290288 -0.455350 0.169488
-0.290288 0.286411 0.339436
-0.290288 0.445518 0.159727
-0.290288 -0.476635 -0.045079
-0.290288 -0.062360 0.439044
-0.290288 -0.014961 0.447515
-0.290288 -0.432277 0.104152
-0.290288 -0.268621 0.374940
-0.290288 0.009600 0.476807
-0.290288 0.271923 -0.371118
-0.290288 0.347830 0.303291
-0.290288 -0.468772 -0.164079
-0.290288 -0.385648 0.219541
-0.290288 0.000996 -0.494565
-0.290288 -0.013572 0.453593
-0.290288 0.082276 0.487444
-0.290288 0.297629 0.345367
-0.290288 0.349502 -0.317590
-0.290288 0.001949 0.456784
-0.290288 -0.462246 -0.034952
-0.290288 -0.264852 -0.360241
-0.290288 0.447738 -0.208789
-0.290288 0.481609 -0.114519
-0.290288 0.208164 0.410038
-0.290288 -0.109735 -0.469279
-0.290288 -0.155399 -0.428070
-0.290288 -0.466354 0.036896
-0.290288 0.072569 -0.474370
-0.290288 -0.435061 -0.115371
-0.290288 -0.247197 0.374802
-0.290288 -0.461801 -0.057956
-0.290288 0.018101 0.461490
-0.290288 -0.461006 0.070689
-0.290288 0.098436 0.457976
-0.290288 -0.440166 0.192048
-0.290288 0.112499 0.440513
-0.290288 -0.172392 -0.433465
-0.290288 -0.151809 -0.430004
-0.290288 0.258258 0.404142
-0.290288 -0.433603 0.171716
-0.290288 -0.405451 -0.251655
-0.290288 0.333493 -0.350141
-0.290288 0.362181 -0.308257
-0.290288 -0.360155 -0.294812
-0.290288 0.439362 0.107836
-0.290288 -0.214521 0.434343
-0.290288 0.404463 0.224108
-0.290288 -0.169546 -0.452200
-0.290288 -0.108790 -0.448958
-0.290288 -0.275477 -0.383537
-0.290288 -0.275748 -0.378562
-0.290288 0.174847 -0.458299
-0.290288 0.080996 -0.481678
-0.290288 0.063307 -0.470213
-0.290288 -0.186166 -0.407002
-0.290288 0.203422 -0.441649
-0.290288 -0.030887 0.463773
-0.290288 0.307217 -0.380097
-0.290288 0.459811 0.002076
-0.290288 -0.344992 -0.310943
-0.290288 0.268173 -0.421615
-0.290288 0.311524 0.357803
-0.290288 -0.468042 -0.147737
-0.290288 -0.473941 -0.120547
-0.290288 0.053821 0.486380
-0.290288 -0.469262 -0.038977
-0.290288 -0.434953 -0.131789
-0.290288 -0.451242 0.006880
-0.290288 0.473665 -0.062284
-0.290288 0.433564 0.104183
-0.290288 -0.466202 -0.056088
-0.290288 0.264551 -0.421368
-0.290288 0.244328 -0.422303
-0.290288 0.280561 -0.388229
-0.290288 0.287283 0.355513
-0.290288 0.359816 -0.338797
-0.290288 -0.207773 0.395590
-0.290288 0.422537 0.209032
-0.290288 0.216513 0.412793
-0.290288 0.441140 0.194896
-0.290288 0.433560 0.204418
-0.290288 0.003389 0.472479
-0.290288 -0.442947 -0.057161
-0.290288 -0.302552 0.373018
-0.290288 -0.212008 -0.435760
-0.290288 -0.471378 0.148384
-0.290288 0.196557 0.406305
-0.290288 -0.317447 -0.326002
-0.290288 -0.459027 0.138718
-0.290288 0.057726 0.459523
-0.290288 0.470740 0.015576
-0.290288 0.269215 -0.368410
-0.290288 -0.190990 -0.450681
-0.290288 0.217902 -0.391112
-0.290288 -0.009638 -0.497077
-0.290288 0.135910 -0.431184
-0.290288 0.213798 0.400384
-0.290288 -0.372514 -0.299820
-0.290288 0.497798 0.018766
-0.290288 0.303962 -0.358958
-0.290288 -0.424584 -0.193845
-0.290288 -0.243791 -0.393431
-0.290288 -0.219072 -0.405857
-0.290288 -0.052280 -0.454348
-0.290288 0.342648 0.325673
-0.290288 0.439387 -0.164369
-0.290288 -0.341670 0.329279
-0.290288 0.395598 0.251664
-0.290288 0.284728 0.387701
-0.290288 -0.439033 0.131028
-0.290288 0.126779 -0.448821
-0.290288 0.437880 0.097720
-0.290288 0.209628 -0.438206
-0.290288 -0.445705 0.100096
-0.290288 0.072584 -0.443962
-0.290288 0.345079 -0.348408
-0.290288 -0.416688 -0.158911
-0.290288 0.442610 -0.085564
-0.290288 -0.365086 -0.299200
-0.290288 -0.473528 -0.133194
-0.290288 -0.199416 0.453519
-0.290288 0.439191 -0.235806
-0.290288 0.436763 -0.121663
-0.290288 -0.383574 0.232687
-0.290288 -0.364261 -0.304703
-0.290288 -0.487897 0.043005
-0.290288 -0.115384 0.468574
-0.290288 -0.452768 0.101801
-0.290288 -0.170947 0.447439
-0.290288 -0.430965 -0.118149
-0.290288 0.479226 -0.041180
-0.290288 0.438593 0.192219
-0.290288 0.255993 -0.425053
-0.290288 -0.308023 0.358311
-0.290288 0.019098 0.443070
-0.290288 -0.256578 0.363807
-0.290288 0.315366 -0.354453
-0.290288 -0.194243 0.403077
-0.290288 -0.389741 -0.301526
-0.290288 -0.394933 -0.270013
-0.290288 0.180371 0.442197
-0.290288 0.219818 0.386248
-0.290288 -0.487935 -0.058365
-0.290288 -0.331351 -0.368307
-0.290288 0.412105 0.180231
-0.290288 0.441809 0.146566
-0.290288 0.394145 -0.225827
-0.290288 0.100837 -0.482840
-0.290288 0.148057 -0.422374
-0.290288 -0.462578 0.079041
-0.290288 -0.440703 0.108827
-0.290288 -0.002689 -0.475755
-0.290288 0.457626 -0.158974
-0.290288 0.145144 -0.460905
-0.290288 -0.162028 -0.438526
-0.290288 -0.084291 0.488671
-0.290288 -0.288360 -0.351613
-0.290288 -0.416561 0.188813
-0.290288 0.423622 -0.168937
-0.290288 0.497262 -0.029319
-0.290288 0.445510 -0.088735
-0.290288 0.080703 0.451263
-0.290288 0.190626 -0.449055
-0.290288 0.268396 0.408930
-0.290288 -0.422833 0.219086
-0.290288 0.308055 0.348427
-0.290288 0.355926 0.291438
-0.290288 0.264584 -0.374416
-0.290288 -0.125254 0.439668
-0.290288 -0.426344 0.247889
-0.290288 -0.431021 -0.159673
-0.290288 -0.050941 -0.475512
-0.290288 0.443966 0.102799
-0.290288 0.055537 -0.477786
-0.290288 -0.159549 -0.436263
-0.290288 -0.253454 -0.391412
-0.290288 0.313785 0.360129
-0.290288 -0.324478 -0.323451
-0.290288 -0.173399 0.413169
-0.290288 0.343378 0.348813
-0.290288 -0.409357 -0.246670
-0.290288 -0.079471 -0.488728
-0.290288 -0.021845 0.467222
-0.290288 0.124142 0.471288
-0.290288 0.433125 -0.142510
-0.290288 0.039698 0.465754
-0.290288 0.473861 0.011940
-0.290288 0.422684 0.227112
-0.290288 0.304500 -0.368289
-0.290288 -0.325204 -0.335012
-0.290288 -0.274213 0.359418
-0.290288 0.373197 -0.286744
-0.290288 0.343996 0.296474
-0.290288 0.366464 0.311643
-0.290288 0.272282 -0.385405
-0.290288 0.250549 0.412000
-0.290288 -0.224842 -0.444464
-0.290288 -0.091028 -0.457831
-0.290288 0.461100 -0.179177
-0.290288 -0.336278 -0.299967
-0.290288 0.428918 0.188270
-0.290288 -0.444854 0.021688
-0.290288 0.167093 -0.458121
-0.290288 0.475842 -0.043772
-0.290288 0.298366 0.363585
-0.290288 0.094606 -0.482825
-0.290288 -0.473803 -0.011295
-0.290288 -0.064135 -0.453050
-0.290288 0.445936 0.006689
-0.290288 -0.368967 0.295077
-0.290288 -0.043750 -0.489682
-0.290288 0.395389 -0.275082
-0.290288 0.371419 0.314854
-0.290288 -0.366193 0.315082
-0.290288 -0.191724 -0.442991
-0.290288 0.484836 -0.062898
-0.290288 -0.409795 0.189069
-0.290288 -0.069851 0.490574
-0.290288 0.459640 -0.035225
-0.290288 -0.268311 -0.397824
-0.290288 0.463179 0.170003
-0.290288 -0.344537 0.287971
-0.290288 -0.113057 -0.434248
-0.290288 0.465902 -0.141486
-0.290288 0.123585 -0.446269
-0.290288 -0.411503 0.259081
-0.290288 0.258343 -0.392943
-0.290288 0.084151 -0.488151
-0.290288 0.433674 -0.106413
-0.290288 -0.429725 -0.156142
-0.290288 -0.180972 -0.441261
-0.290288 0.339205 0.286931
-0.290288 0.257809 0.364695
-0.290288 0.121243 -0.450043
-0.290288 -0.236715 -0.384154
-0.290288 0.417933 -0.273237
-0.290288 0.003171 0.452927
-0.290288 0.193465 -0.452342
-0.290288 -0.150486 0.417041
-0.290288 -0.487407 0.034882
-0.290288 0.180385 -0.453828
-0.290288 0.489304 0.023390
-0.290288 0.420167 -0.269526
-0.290288 0.396844 -0.257680
-0.290288 -0.391692 0.236582
-0.290288 0.267338 0.370529
-0.290288 0.182802 -0.465182
-0.290288 0.243801 -0.436625
-0.290288 0.339349 -0.337584
-0.290288 0.217664 -0.433765
-0.290288 0.113059 0.459218
-0.290288 -0.487084 0.008909
-0.290288 0.362661 0.271669
-0.290288 -0.475074 0.082723
-0.290288 -0.289008 0.336680
-0.290288 -0.321869 -0.320605
-0.290288 0.472411 -0.095105
-0.290288 0.424555 0.238637
-0.290288 0.137329 0.434421
-0.290288 -0.141960 -0.444968
-0.290288 -0.177514 -0.445954
-0.290288 -0.141548 0.468494
-0.290288 0.359298 -0.284777
-0.290288 0.076992 -0.455166
-0.290288 0.302130 0.383802
-0.290288 0.459217 -0.051439
-0.290288 -0.230250 -0.414430
-0.290288 0.223965 0.393613
-0.290288 0.051148 -0.483807
-0.290288 0.391366 -0.273688
-0.290288 0.443682 -0.197619
-0.290288 0.442234 -0.127344
-0.290288 0.384099 0.293888
-0.290288 0.342281 -0.344525
-0.290288 -0.423915 -0.196845
-0.290288 0.477005 -0.036625
-0.290288 -0.125882 -0.442445
-0.290288 0.182123 0.428412
-0.290288 -0.287233 0.340184
-0.290288 0.473055 0.003564
-0.290288 -0.130336 -0.472739
-0.290288 0.263948 -0.388326
-0.290288 -0.122674 0.462947
-0.290288 0.297330 0.397369
-0.290288 -0.441315 -0.155570
-0.290288 0.253247 -0.397960
-0.290288 -0.242230 0.420181
-0.290288 -0.022939 0.495340
-0.290288 0.462631 0.019911
-0.290288 0.445694 -0.012676
-0.290288 -0.004057 0.449993
-0.290288 -0.420739 -0.199461
-0.290288 -0.158567 0.414328
-0.290288 -0.445498 0.084742
-0.290288 0.146122 -0.466759
-0.290288 0.453600 0.069232
-0.290288 -0.397344 -0.267247
-0.290288 0.397608 -0.302820
-0.290288 -0.461696 0.023612
-0.290288 0.411182 0.201449
-0.290288 0.407543 0.202835
-0.290288 0.479581 -0.127470
-0.290288 0.196913 0.450351
-0.290288 0.440293 0.069818
-0.290288 -0.267618 0.399117
-0.290288 -0.177596 -0.421459
-0.290288 -0.418850 0.259839
-0.290288 -0.464928 0.108693
-0.290288 0.104245 0.453246
-0.290288 -0.176912 -0.465581
-0.290288 -0.110838 0.459574
-0.290288 0.176649 0.443377
-0.290288 0.343517 0.289864
-0.290288 -0.053285 -0.467998
-0.290288 0.491826 -0.018872
-0.290288 0.079352 -0.493230
-0.290288 0.116161 0.444487
-0.290288 0.276583 0.399207
-0.290288 0.075439 0.463922
-0.290288 -0.431646 -0.195460
-0.290288 0.424542 0.180310
-0.290288 0.479341 0.099436
-0.290288 0.415694 -0.182071
-0.290288 0.292831 -0.383166
-0.290288 0.485451 0.044034
-0.290288 0.226187 0.425997
-0.290288 -0.111797 -0.465664
-0.290288 0.475322 0.077715
-0.290288 0.164779 0.439753
-0.290288 -0.146714 -0.463034
-0.290288 0.402048 0.276000
-0.290288 0.193955 -0.456338
-0.290288 -0.441629 -0.229872
-0.290288 0.148683 0.426376
-0.290288 0.497044 0.029867
-0.290288 0.106006 0.430563
-0.290288 0.324626 0.362174
-0.290288 0.465552 -0.105265
-0.290288 -0.214933 -0.442698
-0.290288 0.085177 -0.459472
-0.290288 -0.450594 0.105184
-0.290288 -0.283502 0.393239
-0.290288 0.034835 -0.486698
-0.290288 0.270110 0.368618
-0.290288 -0.434218 0.215826
-0.290288 0.436062 -0.129594
-0.290288 -0.453891 -0.075969
-0.290288 0.467070 -0.050900
-0.290288 0.450556 -0.175834
-0.290288 0.021599 0.474612
-0.290288 -0.158584 -0.421433
-0.290288 0.192472 0.451343
-0.290288 -0.230381 0.436259
-0.290288 -0.372161 -0.332502
-0.290288 -0.483983 0.022337
-0.290288 -0.150578 0.426567
-0.290288 0.444678 -0.036915
-0.290288 0.455739 -0.194557
-0.290288 -0.233099 -0.387872
-0.290288 0.187863 0.410219
-0.290288 0.117428 -0.450523
-0.290288 0.285938 -0.356317
-0.290288 0.451962 0.187753
-0.290288 -0.072623 -0.442079
-0.290288 0.262096 0.392571
-0.290288 -0.467519 0.097086
-0.290288 -0.486371 0.027404
-0.290288 -0.321805 -0.325527
-0.290288 0.173357 0.446130
-0.290288 -0.309035 0.376240
-0.290288 -0.471167 -0.110150
-0.290288 0.449620 -0.065229
-0.290288 0.390567 -0.225269
-0.290288 0.428786 -0.160013
-0.290288 0.456053 -0.152731
-0.290288 -0.205982 -0.398903
-0.290288 0.286356 0.368715
-0.290288 0.431669 -0.132940
-0.290288 0.198518 -0.434306
-0.290288 0.048917 0.486258
-0.290288 0.372045 -0.283491
-0.290288 -0.025618 -0.490542
-0.290288 -0.228645 0.418753
-0.290288 0.161666 0.434119
-0.290288 0.009310 -0.456557
-0.290288 -0.355592 -0.324418
-0.290288 0.488322 0.038699
-0.290288 0.234014 -0.385773
-0.290288 -0.014468 0.463930
-0.290288 -0.218930 0.413590
-0.290288 -0.293181 0.379710
-0.290288 -0.438178 0.174506
-0.290288 -0.445009 0.106849
-0.290288 -0.177424 -0.442191
-0.290288 0.397047 0.239807
-0.290288 0.433795 0.140081
-0.290288 0.131853 0.452940
-0.290288 -0.216240 0.399505
-0.290288 0.435842 0.091906
-0.290288 0.268830 -0.403686
-0.290288 -0.353468 0.334195
-0.290288 0.017744 0.478287
-0.290288 0.240417 -0.429049
-0.290288 0.439348 -0.100978
-0.290288 0.392999 -0.219936
-0.290288 -0.486294 -0.049573
-0.290288 -0.482776 -0.087756
-0.290288 0.279217 0.384272
-0.290288 -0.100408 -0.466212
-0.290288 0.406559 -0.193150
-0.290288 0.187394 0.442082
-0.290288 0.351075 0.272388
-0.290288 -0.267125 -0.409143
-0.290288 -0.351157 0.279754
-0.290288 -0.144811 0.467299
-0.290288 0.127729 -0.453537
-0.290288 -0.193661 0.434240
-0.290288 -0.389108 0.224733
-0.290288 -0.121257 0.477147
-0.290288 -0.257728 -0.375730
-0.290288 0.124973 0.433255
-0.290288 0.130823 -0.468566
-0.290288 -0.270502 0.414294
-0.290288 0.143666 -0.424237
-0.290288 -0.160568 -0.417590
-0.290288 0.377612 0.317134
-0.290288 0.457128 -0.110870
-0.290288 -0.203573 -0.439963
-0.290288 0.395756 -0.292129
-0.290288 0.460820 0.130825
-0.290288 -0.251102 0.392920
-0.290288 0.458504 -0.171797
-0.290288 -0.271605 0.392822
-0.290288 -0.454310 -0.203326
-0.290288 -0.154328 -0.469923
-0.290288 0.444480 0.032393
-0.290288 -0.423771 -0.148771
-0.290288 0.018820 -0.499791
-0.290288 -0.068153 -0.495393
-0.290288 0.003206 0.463983
-0.290288 -0.103359 -0.443480
-0.290288 0.402647 0.267159
-0.290288 0.289526 -0.398857
-0.290288 0.011242 -0.481410
-0.290288 -0.197411 0.407941
-0.290288 0.393192 -0.239315
-0.290288 -0.473727 0.085583
-0.290288 0.345529 0.287058
-0.290288 -0.391603 -0.282227
-0.290288 -0.196647 0.435827
-0.290288 0.410119 -0.198846
-0.290288 -0.398968 0.233805
-0.290288 0.429503 -0.221242
-0.290288 -0.246609 -0.414846
-0.290288 0.377690 -0.268734
-0.290288 -0.302824 -0.390219
-0.290288 -0.091007 -0.453398
-0.290288 -0.458390 -0.178916
-0.290288 0.405021 -0.200631
-0.290288 0.311652 0.350230
-0.290288 0.452311 -0.112937
-0.290288 0.103441 -0.442138
-0.290288 0.388573 0.309265
-0.290288 0.365561 -0.314131
-0.290288 -0.454251 -0.020446
-0.290288 0.335341 0.357673
-0.290288 -0.061130 -0.491640
-0.290288 0.005823 -0.473261
-0.290288 0.301602 0.394166
-0.290288 -0.231734 -0.429169
-0.290288 -0.445604 -0.109787
-0.290288 -0.378037 0.284618
-0.290288 -0.369305 0.255394
-0.290288 0.482223 0.061275
-0.290288 0.439139 -0.160802
-0.290288 -0.452133 -0.042090
-0.290288 0.468656 -0.113558
-0.290288 -0.423193 0.186150
-0.290288 0.417763 -0.250955
-0.290288 0.253856 -0.430336
-0.290288 -0.471471 0.124739
-0.290288 0.316744 0.362101
-0.290288 -0.476423 0.005514
-0.290288 0.326137 0.323687
-0.290288 0.037385 0.475256
-0.290288 -0.303035 0.326431
-0.290288 0.315189 0.372568
-0.290288 -0.315673 -0.364912
-0.290288 0.266214 0.418154
-0.290288 -0.417019 0.163357
-0.290288 -0.378346 -0.257111
-0.290288 -0.422137 -0.154253
-0.290288 -0.461833 0.006155
-0.290288 -0.025647 0.446704
-0.290288 -0.423299 0.195956
-0.290288 0.068097 0.446533
-0.290288 0.376984 -0.303951
-0.290288 0.437343 -0.202011
-0.290288 -0.137580 0.431548
-0.290288 -0.253346 0.403621
-0.290288 -0.047188 -0.448438
-0.290288 -0.089969 -0.491673
-0.290288 -0.479145 0.130251
-0.290288 -0.205530 0.410052
-0.290288 -0.001258 0.490083
-0.290288 0.167948 -0.423404
-0.290288 0.459107 -0.142363
-0.290288 0.131556 0.470382
-0.290288 0.488983 0.074444
-0.290288 -0.488796 0.072849
-0.290288 0.328015 0.329261
-0.290288 -0.029597 -0.478664
-0.290288 0.460191 -0.102305
-0.290288 0.246702 -0.374309
-0.290288 0.487175 -0.028836
-0.290288 -0.104391 -0.488863
-0.290288 -0.418975 -0.261944
-0.290288 -0.482216 0.048017
-0.290288 -0.341997 0.348744
-0.290288 -0.471426 0.139653
-0.290288 0.134660 -0.434779
-0.290288 -0.323486 -0.332416
-0.290288 0.369907 -0.318769
-0.290288 0.437816 -0.132547
-0.290288 -0.254893 -0.377542
-0.290288 0.395012 -0.282775
-0.290288 0.067884 0.443210
-0.290288 -0.465324 0.145731
-0.290288 0.407066 -0.248650
-0.290288 0.046486 0.442818
-0.290288 0.136917 0.441617
-0.290288 -0.266485 -0.370579
-0.290288 0.294722 -0.389500
-0.290288 0.034194 0.450683
-0.290288 -0.310643 -0.342783
-0.290288 -0.224270 -0.411494
-0.290288 -0.143465 0.445070
-0.290288 -0.267359 0.384300
-0.290288 -0.257001 -0.397974
-0.290288 -0.482992 -0.066423
-0.290288 -0.039829 -0.446643
-0.290288 -0.437330 0.103989
-0.290288 -0.233381 0.377818
-0.290288 -0.178988 -0.417512
-0.290288 -0.391944 -0.266470
-0.290288 0.101144 0.484740
-0.290288 0.227046 0.433748
-0.290288 -0.391071 -0.262805
-0.290288 0.378242 -0.280085
-0.290288 0.417857 0.152983
-0.290288 -0.077365 0.486510
-0.290288 -0.309814 0.317771
-0.290288 0.442408 0.213907
-0.290288 -0.419468 0.181324
-0.290288 -0.435111 -0.097638
-0.290288 0.480639 0.076342
-0.290288 -0.482690 -0.016416
-0.290288 -0.415617 0.220003
-0.290288 0.135244 0.432033
-0.290288 -0.087315 -0.458614
-0.290288 -0.423334 -0.202742
-0.290288 0.346422 -0.301151
-0.290288 -0.128537 0.434062
-0.290288 -0.376745 -0.253592
-0.290288 0.297105 -0.373984
-0.290288 -0.155238 -0.445152
-0.290288 0.119836 -0.476665
-0.290288 -0.209680 0.390549
-0.290288 -0.344119 -0.346683
-0.290288 0.378762 0.282667
-0.290288 0.428278 -0.155848
-0.290288 0.068963 -0.490041
-0.290288 -0.383694 0.291752
-0.290288 -0.339654 0.292576
-0.290288 -0.367387 0.324016
-0.290288 0.388614 -0.245531
-0.290288 -0.308129 -0.392279
-0.290288 0.239581 0.387753
-0.290288 0.371125 -0.329545
-0.290288 0.075138 0.475888
-0.290288 -0.421431 0.208884
-0.290288 0.221449 0.426034
-0.290288 -0.421393 0.240104
-0.290288 0.242665 0.391223
-0.290288 -0.157638 0.428454
-0.290288 0.396098 -0.240971
-0.290288 0.455840 -0.114663
-0.290288 0.052456 -0.487946
-0.290288 -0.100672 0.484222
-0.290288 -0.347106 -0.314871
-0.290288 -0.240294 0.388019
-0.290288 -0.307304 -0.344677
-0.290288 0.205201 0.441405
-0.290288 0.473202 0.119571
-0.290288 -0.114198 0.460653
-0.290288 -0.435322 -0.166059
-0.290288 -0.001257 0.481284
-0.290288 -0.395916 -0.281025
-0.290288 -0.333170 0.299163
-0.290288 0.494191 -0.012281
-0.290288 -0.337027 -0.293698
-0.290288 0.349197 -0.284412
-0.290288 0.421486 0.211952
-0.290288 0.467018 0.053381
-0.290288 -0.452028 -0.150973
-0.290288 -0.493442 -0.006961
-0.290288 0.441638 0.096350
-0.290288 -0.000409 0.461382
-0.290288 -0.450916 -0.103627
-0.290288 0.486852 0.098570
-0.290288 -0.396114 0.272977
-0.290288 0.278461 -0.405487
-0.290288 0.182586 0.437701
-0.290288 0.456269 0.155549
-0.290288 0.468296 -0.143577
-0.290288 -0.439390 -0.079407
-0.290288 0.476424 -0.128793
-0.290288 0.404264 -0.215111
-0.290288 -0.017930 -0.468717
-0.290288 -0.411780 -0.219369
-0.290288 0.021050 0.466231
-0.290288 -0.295053 0.333346
-0.290288 -0.481690 0.088974
-0.290288 0.055343 -0.445201
-0.290288 0.461110 0.045892
-0.290288 0.219519 0.397048
-0.290288 -0.479489 -0.007533
-0.290288 -0.446413 0.171024
-0.290288 0.401820 0.206841
-0.290288 -0.303768 0.344906
-0.290288 0.308958 0.387316
-0.290288 0.370599 -0.250297
-0.290288 -0.423560 -0.138599
-0.290288 0.393159 -0.270913
-0.290288 -0.362913 0.276386
-0.290288 0.363454 0.311424
-0.290288 0.416327 0.204041
-0.290288 0.386122 -0.297319
-0.290288 -0.141920 0.459146
-0.290288 0.444053 0.199430
-0.290288 0.308868 -0.382936
-0.290288 -0.456572 0.172496
-0.290288 -0.048524 -0.452834
-0.290288 0.058444 -0.444656
-0.290288 0.310184 -0.388130
-0.290288 0.117214 -0.466112
-0.290288 -0.407253 -0.285069
-0.290288 -0.405868 0.239725
-0.290288 -0.076942 -0.461796
-0.290288 -0.446051 -0.075028
-0.290288 -0.144937 0.427000
-0.290288 -0.168581 0.415595
-0.290288 0.007736 0.473613
-0.290288 -0.410045 -0.184682
-0.290288 -0.341254 -0.350465
-0.290288 -0.057623 0.445073
-0.290288 -0.097688 0.485127
-0.290288 -0.254320 0.417393
-0.290288 -0.454223 0.147414
-0.290288 -0.347797 0.276374
-0.290288 0.274186 0.387423
-0.290288 -0.036213 0.454617
-0.290288 -0.409314 0.210333
-0.290288 0.033382 -0.451473
-0.290288 0.474219 0.016013
-0.290288 -0.313047 -0.331202
-0.290288 -0.392951 0.261487
-0.290288 0.187676 -0.454564
-0.290288 0.283011 -0.379222
-0.290288 0.171371 -0.441886
-0.290288 0.436750 -0.210727
-0.290288 0.166951 -0.454350
-0.290288 -0.237895 -0.427345
-0.290288 0.186601 -0.446169
-0.290288 0.015960 -0.485109
-0.290288 -0.065316 0.465152
-0.290288 -0.202872 0.424373
-0.290288 0.431148 0.214453
-0.290288 -0.206519 -0.454991
-0.290288 0.465274 -0.046729
-0.290288 -0.376704 -0.296429
-0.290288 -0.175590 0.432874
-0.290288 0.433446 -0.184645
-0.290288 -0.259259 -0.416524
-0.290288 0.083150 -0.442559
-0.290288 -0.338106 -0.323866
-0.290288 -0.116694 0.430811
-0.290288 -0.417452 -0.190067
-0.290288 0.050661 0.466984
-0.290288 -0.452243 -0.173069
-0.290288 -0.324610 0.335062
-0.290288 -0.385999 -0.232767
-0.290288 -0.189562 0.401621
-0.290288 -0.436946 0.227730
-0.290288 -0.149074 0.434167
-0.290288 -0.432575 -0.221322
-0.290288 -0.151838 -0.459752
-0.290288 0.450033 0.022664
-0.290288 0.289256 0.363598
-0.290288 0.320946 0.345393
-0.290288 -0.191751 -0.421481
-0.290288 0.485157 0.018813
-0.290288 -0.337060 0.342076
-0.290288 -0.429851 -0.218236
-0.290288 0.073214 0.489554
-0.290288 0.332697 -0.300503
-0.290288 -0.122931 0.473704
-0.290288 -0.330610 -0.300986
-0.290288 0.374375 -0.307567
-0.290288 -0.214644 0.412189
-0.290288 0.043702 -0.489667
-0.290288 -0.457733 -0.188839
-0.290288 -0.067125 0.438939
-0.290288 -0.476791 0.061709
-0.290288 -0.373119 -0.325128
-0.290288 0.369973 0.320725
-0.290288 0.379635 -0.262263
-0.290288 0.209185 0.435493
-0.290288 0.187431 -0.429702
-0.290288 0.474826 -0.059106
-0.290288 0.415422 0.235277
-0.290288 -0.262548 -0.392539
-0.290288 0.151120 -0.456024
-0.290288 -0.058084 -0.494339
-0.290288 -0.320435 -0.358827
-0.290288 -0.234780 0.397290
-0.290288 0.458261 -0.004006
-0.290288 -0.111395 0.462969
-0.290288 -0.481778 0.119156
-0.290288 -0.450991 -0.061695
-0.290288 -0.451435 0.035233
-0.290288 -0.469996 -0.067138
-0.290288 -0.309530 0.370182
-0.290288 0.434626 0.133418
-0.290288 -0.414597 0.235725
-0.290288 -0.271537 -0.384978
-0.290288 -0.472491 0.069107
-0.290288 -0.482404 0.105712
-0.290288 -0.443096 0.116642
-0.290288 -0.201950 -0.411722
-0.290288 0.398228 -0.230631
-0.290288 -0.310820 0.329573
-0.290288 -0.393764 0.284256
-0.290288 -0.291805 -0.390406
-0.290288 -0.411970 0.252290
-0.290288 0.407227 0.282241
-0.290288 -0.438876 -0.176163
-0.290288 -0.485212 -0.076073
-0.290288 -0.318666 -0.319670
-0.290288 0.045292 -0.462554
-0.290288 -0.465328 -0.154200
-0.290288 -0.416195 -0.272698
-0.290288 0.460037 0.060721
-0.290288 0.446119 0.136023
-0.290288 0.426728 -0.142953
-0.290288 -0.378663 0.242808
-0.290288 -0.214770 0.421550
-0.290288 0.300240 -0.340882
-0.290288 0.389246 -0.296879
-0.290288 -0.275536 -0.357672
-0.290288 -0.126158 0.474061
-0.290288 -0.095425 -0.481086
-0.290288 -0.312037 -0.335090
-0.290288 0.008417 -0.469645
-0.290288 -0.014434 0.456988
-0.290288 -0.475706 -0.029996
-0.290288 -0.032078 0.458699
-0.290288 0.155907 0.450041
-0.290288 -0.389714 -0.227001
-0.290288 -0.372040 -0.267499
-0.290288 -0.190745 -0.417324
-0.290288 -0.079941 -0.463032
-0.290288 -0.440680 0.122080
-0.290288 -0.317022 -0.344877
-0.290288 -0.462303 0.060478
-0.290288 -0.134951 -0.431199
-0.290288 0.197999 -0.408709
-0.290288 -0.473471 -0.116905
-0.290288 -0.166264 0.412001
-0.290288 -0.324957 -0.377409
-0.290288 0.439384 -0.221088
-0.290288 0.349623 0.310949
-0.290288 0.216669 -0.450013
-0.290288 0.094844 0.442215
-0.290288 0.107068 0.437662
-0.290288 -0.441465 0.113253
-0.290288 -0.314046 0.354048
-0.290288 -0.148936 0.449608
-0.290288 -0.035658 0.447367
-0.290288 -0.317265 -0.338990
-0.290288 0.453965 0.052657
-0.290288 0.437134 0.195979
-0.290288 0.038532 -0.467991
-0.290288 0.389851 0.280616
-0.290288 -0.190640 -0.413444
-0.290288 0.189932 -0.445600
-0.290288 -0.252859 0.363964
-0.290288 0.074095 0.478826
-0.290288 0.444755 0.079935
-0.290288 -0.450682 -0.212552
-0.290288 0.357656 -0.329528
-0.290288 -0.246632 -0.390258
-0.290288 0.478031 0.136278
-0.290288 0.334784 -0.303410
-0.290288 0.430555 -0.215117
-0.290288 -0.049232 -0.460788
-0.290288 0.141875 -0.455807
-0.290288 -0.432736 -0.164349
-0.290288 0.071921 -0.470156
-0.290288 0.101623 0.472692
-0.290288 0.424635 -0.240414
-0.290288 -0.420690 -0.232726
-0.290288 0.179157 0.454562
-0.290288 0.431373 0.181464
-0.290288 0.385670 -0.293700
-0.290288 -0.337582 -0.350730
-0.290288 -0.349889 -0.302139
-0.290288 0.115950 0.477533
-0.290288 0.141890 -0.432674
-0.290288 0.434826 -0.191959
-0.290288 0.497975 -0.020947
-0.290288 0.432749 0.147633
-0.290288 -0.474467 0.126409
-0.290288 0.134842 -0.466351
-0.290288 -0.060846 0.454293
-0.290288 -0.433981 0.226584
-0.290288 0.169382 0.446692
-0.290288 -0.334013 0.311912
-0.290288 0.321504 -0.319643
-0.290288 0.399833 -0.249307
-0.290288 0.416766 -0.269485
-0.290288 0.401355 -0.266787
-0.290288 0.374211 -0.330926
-0.290288 -0.393598 0.274781
-0.290288 0.399598 0.230626
-0.290288 -0.447623 0.187577
-0.290288 -0.026444 0.463376
-0.290288 0.274801 -0.394407
-0.290288 -0.299091 -0.370629
-0.290288 -0.410402 0.262623
-0.290288 0.385591 0.289323
-0.290288 0.440057 0.222107
-0.290288 0.318320 -0.367419
-0.290288 -0.380440 -0.250771
-0.290288 -0.404848 0.270983
-0.290288 0.480015 0.072421
-0.290288 -0.429977 -0.190901
-0.290288 -0.395825 0.228084
-0.290288 0.035970 0.464578
-0.290288 -0.477168 0.056846
-0.290288 -0.400359 0.211873
-0.290288 -0.428943 -0.225327
-0.290288 -0.237595 -0.419417
-0.290288 -0.356724 -0.306680
-0.290288 -0.194260 0.424904
-0.290288 0.281453 0.401032
-0.290288 -0.219221 -0.424895
-0.290288 -0.013164 0.443441
-0.290288 0.486076 0.101583
-0.290288 -0.404965 0.227415
-0.290288 -0.380647 0.297225
-0.290288 -0.226548 -0.441329
-0.290288 0.050780 -0.452081
-0.290288 0.462946 0.160074
-0.290288 0.021477 -0.454743
-0.290288 0.378637 -0.249122
-0.290288 0.214466 -0.444948
-0.290288 0.450351 -0.005064
-0.290288 0.412472 -0.274067
-0.290288 -0.374794 -0.307845
-0.290288 0.365410 -0.283702
-0.290288 0.232996 0.399784
-0.290288 0.482346 -0.004724
-0.290288 0.453071 0.065151
-0.290288 0.059428 -0.462245
-0.290288 -0.461648 0.121368
-0.290288 -0.291936 -0.340369
-0.290288 0.450900 0.059239
-0.290288 -0.385945 0.254923
-0.290288 -0.030823 -0.463320
-0.290288 0.447591 0.098911
-0.290288 -0.291868 -0.384361
-0.290288 -0.447184 0.103893
-0.290288 -0.319777 -0.354791
-0.290288 0.350185 0.286308
-0.290288 -0.267514 0.409289
-0.290288 0.183176 0.447563
-0.290288 0.432667 -0.120400
-0.290288 -0.200954 -0.457247
-0.290288 -0.211635 0.423710
-0.290288 -0.411369 0.268604
-0.290288 0.380872 0.271341
-0.290288 0.211018 -0.421253
-0.290288 -0.091635 0.466648
-0.290288 -0.128963 0.478270
-0.290288 -0.133824 -0.451534
-0.290288 -0.091255 0.462268
-0.290288 -0.391497 -0.214728
-0.290288 -0.425883 -0.257979
-0.290288 0.447643 -0.204817
-0.290288 -0.420502 0.248434
-0.290288 -0.298302 0.357269
-0.290288 -0.367021 0.304749
-0.290288 -0.400187 0.290870
-0.290288 0.417197 -0.216655
-0.290288 0.334421 -0.297017
-0.290288 0.456875 -0.056253
-0.290288 -0.473318 -0.003445
-0.290288 0.377187 -0.316495
-0.290288 -0.403860 0.265804
-0.290288 0.230735 -0.409874
-0.290288 0.089137 -0.475675
-0.290288 0.078667 -0.474604
-0.290288 0.451931 0.111273
-0.290288 0.446363 -0.117181
-0.290288 0.273601 -0.406529
-0.290288 0.429057 -0.134647
-0.290288 0.199325 0.403197
-0.290288 0.367890 0.323173
-0.290288 -0.195933 0.430088
-0.290288 -0.435422 0.155266
-0.290288 0.219290 0.411155
-0.290288 -0.475452 0.143123
-0.290288 -0.447283 -0.151685
-0.290288 -0.249481 0.422559
-0.290288 0.385649 0.254491
-0.290288 0.489268 0.091139
-0.290288 0.076685 -0.477960
-0.290288 0.410844 -0.282436
-0.290288 0.302062 0.329817
-0.290288 -0.449749 -0.051676
-0.290288 0.098184 0.442925
-0.290288 0.414344 -0.234811
-0.290288 -0.251075 -0.397517
-0.290288 0.046149 -0.445724
-0.290288 0.213107 0.405431
-0.290288 -0.468019 -0.093363
-0.290288 -0.157129 0.447936
-0.290288 -0.220872 -0.409043
-0.290288 0.352327 0.342259
-0.290288 0.432815 0.217680
-0.290288 -0.395519 0.205088
-0.290288 0.444848 -0.190219
-0.290288 -0.494690 0.016006
-0.290288 0.016417 0.445080
-0.290288 -0.471710 0.152940
-0.290288 0.141583 -0.461797
-0.290288 -0.245249 -0.418793
-0.290288 -0.459148 0.128604
-0.290288 0.316447 0.339858
-0.290288 0.462494 0.038474
-0.290288 0.136038 0.464045
-0.290288 -0.472261 -0.053299
-0.290288 -0.178220 0.423265
-0.290288 -0.319198 -0.312689
-0.290288 0.037874 0.490599
-0.290288 -0.181630 -0.432132
-0.290288 -0.379263 -0.313672
-0.290288 0.349745 0.276142
-0.290288 -0.024646 -0.447214
-0.290288 -0.487703 0.031472
-0.290288 0.381612 -0.286032
-0.290288 0.473300 0.127030
-0.290288 0.160675 0.439156
-0.290288 0.419550 0.166729
-0.290288 0.364226 0.276874
-0.290288 0.462990 0.110991
-0.290288 0.454452 -0.020477
-0.290288 -0.342426 0.300031
-0.290288 -0.250422 0.371788
-0.290288 0.474260 0.123350
-0.290288 -0.347642 -0.308104
-0.290288 0.052197 0.472048
-0.290288 0.374911 0.274176
-0.290288 -0.250815 0.381662
-0.290288 -0.063500 -0.443192
-0.290288 0.175686 -0.426457
-0.290288 -0.079690 0.489107
-0.290288 -0.333896 -0.297282
-0.290288 0.192131 -0.461393
-0.290288 -0.416462 -0.199389
-0.290288 0.331725 -0.343083
-0.290288 0.112198 -0.469317
-0.290288 0.456611 0.027059
-0.290288 -0.305718 -0.384347
-0.290288 0.302640 -0.388295
-0.290288 0.276948 0.410823
-0.290288 0.017600 0.495179
-0.290288 0.452717 0.056643
-0.290288 -0.413474 0.255065
-0.290288 0.105923 0.446192
-0.290288 -0.152161 -0.442606
-0.290288 -0.472595 0.013349
-0.290288 -0.229583 -0.411387
-0.290288 0.450476 -0.096484
-0.290288 -0.365172 -0.282545
-0.290288 -0.231628 0.423959
-0.290288 0.290260 -0.351033
-0.290288 0.354711 -0.299244
-0.290288 -0.172813 -0.453415
-0.290288 -0.448685 0.004430
-0.290288 0.114322 0.474129
-0.290288 0.073322 0.472622
-0.290288 -0.328617 0.325245
-0.290288 -0.142441 -0.452351
-0.290288 -0.015318 -0.493539
-0.290288 0.396010 -0.248273
-0.290288 -0.404120 0.196577
-0.290288 -0.419506 0.184770
-0.290288 0.155740 -0.466694
-0.290288 0.200533 0.416706
-0.290288 0.179555 0.450915
-0.290288 0.452078 0.005733
-0.290288 -0.403460 0.275559
-0.290288 0.381534 0.263935
-0.290288 -0.423545 0.251034
-0.290288 0.253258 0.387538
-0.290288 0.303773 -0.352005
-0.290288 -0.476982 -0.085554
-0.290288 -0.205301 0.448934
-0.290288 0.432063 0.236664
-0.290288 0.407090 0.226388
-0.290288 -0.129615 -0.469647
-0.290288 0.477147 0.023030
-0.290288 0.151163 -0.474704
-0.290288 0.393450 0.284047
-0.290288 0.423013 0.169879
-0.290288 -0.166068 -0.422859
-0.290288 0.457016 -0.100262
-0.290288 -0.408809 -0.230667
-0.290288 0.309446 -0.357782
-0.290288 0.114128 -0.447873
-0.290288 0.307996 0.320568
-0.290288 -0.408870 -0.253037
-0.290288 0.008757 0.491288
-0.290288 -0.290911 0.367922
-0.290288 -0.217556 0.437252
-0.290288 0.432881 -0.229131
-0.290288 0.047523 0.463175
-0.290288 -0.480590 0.059607
-0.290288 -0.341094 0.283580
-0.290288 -0.369365 -0.303023
-0.290288 -0.445397 0.007723
-0.290288 0.139617 0.428139
-0.290288 -0.425846 -0.254767
-0.290288 -0.386572 -0.239902
-0.290288 -0.076610 0.482706
-0.290288 -0.444084 -0.063213
-0.290288 0.471684 0.113394
-0.290288 -0.137132 0.455422
-0.290288 0.386522 0.249632
-0.290288 0.090492 0.464423
-0.290288 -0.447024 0.164897
-0.290288 -0.269919 -0.364847
-0.290288 0.426932 0.148654
-0.290288 0.127774 -0.475797
-0.290288 -0.272921 -0.381634
-0.290288 -0.450563 -0.204527
-0.290288 -0.029777 0.494515
-0.290288 -0.284910 0.350373
-0.290288 0.167289 0.423107
-0.290288 -0.328710 0.358644
-0.290288 0.080082 0.440480
-0.290288 0.211129 -0.407898
-0.290288 -0.120630 0.480252
-0.290288 0.386249 -0.227096
-0.290288 0.432229 0.108230
-0.290288 0.387775 -0.222907
-0.290288 -0.104102 0.438752
-0.290288 0.462383 -0.018232
-0.290288 0.330775 0.309989
-0.290288 0.434842 -0.215683
-0.290288 0.169649 -0.459937
-0.290288 0.009729 -0.448566
-0.290288 0.322667 -0.366033
-0.290288 -0.188696 0.448325
-0.290288 -0.339515 -0.312252
-0.290288 -0.060998 -0.487902
-0.290288 -0.226657 0.408106
-0.290288 -0.466042 -0.005532
-0.290288 0.243927 0.397485
-0.290288 0.293171 -0.337718
-0.290288 -0.324100 0.354145
-0.290288 0.358664 0.325565
-0.290288 -0.079730 -0.468153
-0.290288 -0.206843 -0.434657
-0.290288 0.029869 0.482208
-0.290288 -0.397085 0.266247
-0.290288 0.164556 0.462380
-0.290288 -0.198478 -0.401334
-0.290288 -0.297764 -0.350753
-0.290288 0.291040 0.391798
-0.290288 -0.039841 0.441401
-0.290288 0.452838 0.027719
-0.290288 -0.307176 0.373257
-0.290288 -0.372024 0.286414
-0.290288 -0.008108 -0.486306
-0.290288 -0.468201 0.066231
-0.290288 -0.378434 -0.275864
-0.290288 0.444756 0.216212
-0.290288 0.484478 0.034486
-0.290288 -0.428973 0.185708
-0.290288 -0.347763 0.321672
-0.290288 0.337097 -0.318062
-0.290288 -0.335322 0.331713
-0.290288 0.059597 0.452146
-0.290288 -0.220488 0.436008
-0.290288 -0.495090 0.019145
-0.290288 -0.276925 0.372504
-0.290288 0.305651 -0.334907
-0.290288 0.453398 0.130438
-0.290288 -0.183728 0.455680
-0.290288 -0.392970 0.295909
-0.290288 -0.273742 -0.413103
-0.290288 0.080129 -0.478362
-0.290288 -0.443722 0.140965
-0.290288 0.467141 0.068743
-0.290288 -0.360241 0.339209
-0.290288 0.356589 0.287708
-0.290288 0.246583 -0.393082
-0.290288 -0.055392 0.467723
-0.290288 0.357600 -0.347490
-0.290288 -0.400214 -0.271847
-0.290288 0.466833 0.057027
-0.290288 -0.345273 -0.302576
-0.290288 -0.470642 -0.088678
-0.290288 -0.398135 0.256635
-0.290288 -0.185312 -0.450428
-0.290288 -0.418359 0.204033
-0.290288 0.473653 -0.011973
-0.290288 0.307917 -0.337903
-0.290288 0.082852 -0.447628
-0.290288 -0.337897 -0.367340
-0.290288 0.423885 0.247365
-0.290288 0.014119 0.467317
-0.290288 0.229640 0.384708
-0.290288 -0.352020 -0.274667
-0.290288 -0.493218 0.000378
-0.290288 -0.428890 0.199033
-0.290288 -0.212721 0.399244
-0.290288 0.089012 0.445350
-0.290288 -0.482398 -0.081857
-0.290288 0.433931 0.200863
-0.290288 -0.410806 -0.271088
-0.290288 0.469615 0.110047
-0.290288 -0.095249 0.452113
-0.290288 0.058083 0.440961
-0.290288 -0.418080 0.153009
-0.290288 0.496416 0.016033
-0.290288 -0.442706 0.190334
-0.290288 0.201843 -0.434613
-0.290288 -0.174155 -0.418973
-0.290288 -0.188567 -0.456358
-0.290288 0.419918 -0.181585
-0.290288 -0.334121 -0.323012
-0.290288 -0.245678 -0.383376
-0.290288 0.306116 0.370548
-0.290288 -0.427620 -0.232549
-0.290288 -0.487817 0.095376
-0.290288 0.019293 -0.463085
-0.290288 -0.328635 0.317530
-0.290288 -0.160474 -0.453710
-0.290288 -0.407454 0.185325
-0.290288 0.006688 0.451952
-0.290288 0.449290 -0.029753
-0.290288 -0.009921 -0.464214
-0.290288 -0.467310 -0.073508
-0.290288 0.131659 -0.443214
-0.290288 0.142257 -0.451755
-0.290288 -0.184370 -0.417809
-0.290288 0.245406 -0.430974
-0.290288 0.345772 -0.285805
-0.290288 0.330069 0.347400
-0.290288 -0.237073 0.378468
-0.290288 -0.060059 0.441648
-0.290288 0.464093 -0.043825
-0.290288 -0.147020 -0.435060
-0.290288 0.405936 -0.256206
-0.290288 0.095755 0.481392
-0.290288 -0.284670 -0.350528
-0.290288 0.090660 -0.466397
-0.290288 0.281767 -0.348124
-0.290288 -0.283670 0.360263
-0.290288 -0.463050 0.051743
-0.290288 0.196739 -0.458874
-0.290288 -0.468851 0.046943
-0.290288 -0.268005 -0.373434
-0.290288 -0.093211 0.473932
-0.290288 -0.466603 0.015781
-0.290288 0.459140 0.183174
-0.290288 -0.453585 0.201524
-0.290288 0.132083 0.456177
-0.290288 -0.452894 -0.197297
-0.290288 0.022651 -0.493677
-0.290288 0.083344 0.453627
-0.290288 -0.438356 0.177993
-0.290288 -0.478651 -0.049615
-0.290288 0.484805 -0.112840
-0.290288 -0.258908 0.360322
-0.290288 -0.412834 -0.197037
-0.290288 0.368960 0.296583
-0.290288 -0.060316 -0.462926
-0.290288 0.442211 -0.179826
-0.290288 -0.046619 -0.462825
-0.290288 0.047748 0.493173
-0.290288 0.448269 0.120891
-0.290288 -0.265227 -0.367063
-0.290288 0.138345 -0.452308
-0.290288 -0.434034 0.122377
-0.290288 0.161435 0.426494
-0.290288 0.062422 0.449202
-0.290288 -0.449294 -0.058166
-0.290288 -0.440187 0.100936
-0.290288 -0.217783 -0.397785
-0.290288 0.270686 -0.362506
-0.290288 -0.097465 -0.449217
-0.290288 0.249894 -0.390571
-0.290288 -0.374899 0.276111
-0.290288 -0.477174 0.138418
-0.290288 -0.447137 -0.021715
-0.290288 -0.111619 0.455959
-0.290288 -0.408691 0.237435
-0.290288 -0.336494 0.300261
-0.290288 -0.354879 -0.335864
-0.290288 0.376723 0.271115
-0.290288 -0.399747 -0.209547
-0.290288 0.447155 0.153333
-0.290288 -0.135538 -0.448488
-0.290288 0.389255 -0.219465
-0.290288 -0.120137 0.435787
-0.290288 -0.154206 0.465859
-0.290288 0.348658 0.280930
-0.290288 -0.041177 -0.487263
-0.290288 -0.477862 -0.140088
-0.290288 -0.480975 0.093955
-0.290288 -0.484514 0.037408
-0.290288 0.050941 0.450559
-0.290288 -0.340571 0.288021
-0.290288 0.495981 -0.033049
-0.290288 0.492585 -0.051750
-0.290288 0.417289 -0.205686
-0.290288 -0.050516 -0.463864
-0.290288 -0.106137 -0.451383
-0.290288 0.223724 0.409772
-0.290288 0.088775 -0.459613
-0.290288 -0.229563 0.410043
-0.290288 0.409357 -0.279569
-0.290288 0.447898 0.056503
-0.290288 0.385605 0.232784
-0.290288 0.255893 0.379920
-0.290288 0.140082 0.440486
-0.290288 0.376307 -0.277206
-0.290288 0.399211 -0.204046
-0.290288 -0.432905 -0.229672
-0.290288 0.269759 -0.399819
-0.290288 0.450358 0.125185
-0.290288 0.072752 -0.452534
-0.290288 -0.011133 0.492219
-0.290288 0.464508 0.084280
-0.290288 0.492880 -0.076892
-0.290288 0.383083 -0.296332
-0.290288 -0.432610 0.219037
-0.290288 -0.207808 0.445779
-0.290288 -0.458635 0.053542
-0.290288 -0.276639 -0.351263
-0.290288 0.249895 -0.418655
-0.290288 0.326580 -0.364606
-0.290288 -0.221664 -0.402221
-0.290288 0.400831 -0.277138
-0.290288 0.330285 0.367026
-0.290288 0.371097 0.324819
-0.290288 0.473392 -0.000307
