-0.290288 0.102097 0.440578
-0.290288 0.172590 -0.414301
-0.290288 0.198239 0.401359
-0.290288 -0.181731 -0.419612
-0.290288 -0.440431 0.074637
-0.290288 -0.304622 -0.350381
-0.290288 -0.095461 0.443058
-0.290288 0.463767 0.067088
-0.290288 0.102816 -0.464578
-0.290288 0.095567 -0.461501
-0.290288 0.209835 -0.443272
-0.290288 -0.478190 0.041443
-0.290288 -0.441638 0.053289
-0.290288 -0.257366 0.407424
-0.290288 0.348350 0.337476
-0.290288 -0.483156 -0.008635
-0.290288 0.465387 -0.152110
-0.290288 -0.273059 -0.365096
-0.290288 -0.463907 -0.055614
-0.290288 -0.099469 -0.458180
-0.290288 0.467126 -0.045152
-0.290288 -0.310262 0.381164
-0.290288 -0.248656 0.419177
-0.290288 0.445793 -0.198462
-0.290288 0.048859 0.442495
-0.290288 -0.344461 -0.303919
-0.290288 0.118865 -0.461586
-0.290288 0.372430 -0.290203
-0.290288 0.343564 0.353875
-0.290288 -0.093032 0.457365
-0.290288 0.072872 0.461953
-0.290288 0.278564 0.409530
-0.290288 -0.267682 -0.373356
-0.290288 -0.257526 0.401752
-0.290288 0.423815 -0.217691
-0.290288 0.385736 0.240117
-0.290288 0.384552 -0.234837
-0.290288 -0.420465 0.193752
-0.290288 -0.178031 0.438512
-0.290288 -0.436968 0.114912
-0.290288 -0.441394 0.180315
-0.290288 -0.174179 -0.444719
-0.290288 -0.415806 -0.167835
-0.290288 -0.299219 0.388891
-0.290288 -0.404980 0.197072
-0.290288 -0.486868 -0.035020
-0.290288 -0.258356 -0.371688
-0.290288 -0.055949 -0.491360
-0.290288 -0.370867 0.259981
-0.290288 0.311502 0.365042
-0.290288 0.102954 -0.476391
-0.290288 0.392408 -0.257467
-0.290288 -0.468209 0.088469
-0.290288 -0.473784 0.103960
-0.290288 -0.450072 0.049010
-0.290288 0.385076 0.311314
-0.290288 -0.450432 -0.106196
-0.290288 0.446861 0.147951
-0.290288 -0.436624 -0.145885
-0.290288 0.154370 0.424119
-0.290288 -0.167139 -0.434726
-0.290288 0.323825 -0.379255
-0.290288 0.218296 -0.441969
-0.290288 0.038423 0.462118
-0.290288 0.399197 0.241457
-0.290288 0.186751 -0.448168
-0.290288 0.091887 0.482728
-0.290288 0.125264 0.433564
-0.290288 0.170672 0.429922
-0.290288 0.124139 0.474953
-0.290288 -0.027466 -0.479448
-0.290288 0.428858 0.188118
-0.290288 -0.184740 -0.434880
-0.290288 -0.009191 0.460461
-0.290288 -0.483077 0.086171
-0.290288 -0.455827 0.168974
-0.290288 -0.049146 -0.497235
-0.290288 -0.200600 -0.420240
-0.290288 -0.435528 -0.235676
-0.290288 -0.227353 0.414551
-0.290288 -0.397048 -0.242154
-0.290288 -0.437858 -0.182435
-0.290288 0.420572 0.238742
-0.290288 -0.397981 -0.224755
-0.290288 -0.330368 -0.313180
-0.290288 -0.445176 -0.005753
-0.290288 -0.303650 -0.390457
-0.290288 0.447336 0.105631
-0.290288 -0.106646 -0.484164
-0.290288 -0.423205 0.209958
-0.290288 -0.294370 -0.372108
-0.290288 -0.282461 0.407058
-0.290288 0.388378 0.278386
-0.290288 0.478795 -0.125840
-0.290288 -0.378192 -0.241531
-0.290288 -0.158137 0.433083
-0.290288 -0.397242 0.227155
-0.290288 -0.487989 0.092544
-0.290288 0.352290 -0.339983
-0.290288 -0.155344 -0.447706
-0.290288 -0.476123 -0.143360
-0.290288 -0.449561 0.037443
-0.290288 -0.482569 0.096173
-0.290288 -0.442795 -0.152808
-0.290288 0.445626 -0.014056
-0.290288 -0.322188 -0.317961
-0.290288 0.052470 -0.472972
-0.290288 0.321764 0.346078
-0.290288 0.432976 -0.124735
-0.290288 -0.367029 0.331551
-0.290288 0.160909 -0.466766
-0.290288 -0.280802 -0.394735
-0.290288 -0.465889 -0.082399
-0.290288 0.438652 0.103100
-0.290288 0.289512 0.375462
-0.290288 -0.402660 -0.195124
-0.290288 -0.257015 -0.366071
-0.290288 0.345089 0.280770
-0.290288 -0.424018 -0.241726
-0.290288 0.274130 -0.384171
-0.290288 -0.407095 -0.192636
-0.290288 0.399242 -0.300032
-0.290288 -0.190869 0.419734
-0.290288 -0.177368 -0.418022
-0.290288 0.489769 0.042723
-0.290288 -0.060588 0.450777
-0.290288 -0.354891 0.297383
-0.290288 -0.346058 -0.291339
-0.290288 -0.087315 0.453959
-0.290288 0.442169 -0.128731
-0.290288 0.376669 0.251454
-0.290288 -0.134241 0.471483
-0.290288 0.398337 0.227957
-0.290288 0.280573 0.406292
-0.290288 0.417427 0.194953
-0.290288 0.467549 0.054718
-0.290288 0.301858 -0.381113
-0.290288 0.065544 -0.450303
-0.290288 0.367338 -0.262971
-0.290288 0.442025 -0.216318
-0.290288 0.411567 -0.244091
-0.290288 0.413583 -0.249920
-0.290288 -0.036056 -0.457124
-0.290288 0.000025 -0.477739
-0.290288 -0.205301 0.412497
-0.290288 0.199362 0.407188
-0.290288 -0.391869 0.269334
-0.290288 -0.330916 0.301564
-0.290288 0.296149 -0.362461
-0.290288 -0.294477 -0.384363
-0.290288 -0.302024 0.332809
-0.290288 -0.333501 -0.326864
-0.290288 -0.397917 0.255009
-0.290288 -0.231860 -0.426216
-0.290288 0.270270 0.369266
-0.290288 0.226066 -0.429148
-0.290288 -0.230844 -0.439498
-0.290288 -0.453993 0.165899
-0.290288 -0.336343 -0.328526
-0.290288 -0.188740 -0.421031
-0.290288 -0.368658 -0.283419
-0.290288 0.342758 -0.341590
-0.290288 -0.339046 -0.354361
-0.290288 -0.353135 -0.324461
-0.290288 0.147467 0.469909
-0.290288 -0.475390 0.017473
-0.290288 0.372184 -0.321413
-0.290288 0.463467 0.143210
-0.290288 -0.485108 -0.094046
-0.290288 -0.093318 -0.474901
-0.290288 0.033030 -0.457984
-0.290288 -0.488486 0.029174
-0.290288 -0.219956 -0.399254
-0.290288 0.382354 0.233756
-0.290288 -0.413987 -0.218947
-0.290288 0.015671 -0.452729
-0.290288 0.443475 -0.174941
-0.290288 0.485853 -0.022698
-0.290288 0.365216 0.283699
-0.290288 -0.472431 0.127931
-0.290288 0.446050 0.213163
-0.290288 -0.149251 -0.469355
-0.290288 0.453252 -0.013407
-0.290288 -0.463225 -0.103274
-0.290288 -0.369534 0.274674
-0.290288 0.411304 0.193443
-0.290288 -0.035883 -0.483898
-0.290288 0.445618 -0.024045
-0.290288 -0.386117 0.305113
-0.290288 -0.462440 0.142978
-0.290288 0.397710 -0.252343
-0.290288 -0.096793 -0.441845
-0.290288 -0.144745 0.465773
-0.290288 -0.483869 0.101102
-0.290288 0.492188 0.025225
-0.290288 -0.048963 -0.452329
-0.290288 -0.181964 -0.459962
-0.290288 0.404938 0.279688
-0.290288 0.310692 0.386327
-0.290288 -0.336385 0.295672
-0.290288 -0.412751 -0.195842
-0.290288 0.457159 0.038450
-0.290288 0.303580 0.380323
-0.290288 -0.156028 -0.466319
-0.290288 -0.104837 -0.468633
-0.290288 -0.270482 0.408598
-0.290288 -0.438601 0.154757
-0.290288 -0.214599 0.387880
-0.290288 0.051251 0.470798
-0.290288 -0.407429 -0.215445
-0.290288 -0.406259 -0.272290
-0.290288 0.318329 -0.329052
-0.290288 0.445823 -0.018226
-0.290288 -0.133317 0.443899
-0.290288 0.287189 0.399561
-0.290288 -0.134644 -0.438632
-0.290288 0.114181 -0.464928
-0.290288 -0.103924 -0.448360
-0.290288 -0.430371 0.116115
-0.290288 -0.473409 0.029362
-0.290288 -0.364350 -0.287641
-0.290288 -0.408727 -0.198487
-0.290288 0.446909 0.041550
-0.290288 -0.129749 -0.446201
-0.290288 0.314799 0.365281
-0.290288 -0.219612 0.391756
-0.290288 0.404765 0.255577
-0.290288 0.313543 -0.341216
-0.290288 -0.350692 0.290069
-0.290288 -0.065499 0.472895
-0.290288 0.163214 -0.461186
-0.290288 -0.470347 0.155493
-0.290288 -0.449215 -0.110532
-0.290288 -0.406341 0.276998
-0.290288 0.330948 0.339493
-0.290288 0.312124 -0.329142
-0.290288 -0.017897 0.442880
-0.290288 -0.481588 0.077227
-0.290288 0.199404 -0.406055
-0.290288 0.026267 0.486913
-0.290288 0.118799 0.479970
-0.290288 0.155127 0.453731
-0.290288 -0.011525 -0.495037
-0.290288 -0.324009 0.355596
-0.290288 0.211167 -0.409803
-0.290288 0.344764 -0.305434
-0.290288 -0.124602 0.427025
-0.290288 -0.159984 0.423608
-0.290288 0.248122 0.419514
-0.290288 -0.444694 0.176933
-0.290288 0.033307 0.493158
-0.290288 0.407185 0.267721
-0.290288 -0.406496 0.224701
-0.290288 0.438140 -0.236174
-0.290288 0.448331 0.021126
-0.290288 0.168609 0.424103
-0.290288 -0.418322 -0.169744
-0.290288 -0.044375 -0.467916
-0.290288 -0.383839 -0.276321
-0.290288 -0.207570 0.401470
-0.290288 -0.440540 0.201506
-0.290288 0.417708 0.153937
-0.290288 0.101024 -0.486366
-0.290288 0.442832 -0.071053
-0.290288 -0.193677 0.432016
-0.290288 0.030055 -0.474390
-0.290288 -0.419306 -0.207081
-0.290288 0.359453 0.307698
-0.290288 0.449290 -0.000312
-0.290288 0.449119 -0.172238
-0.290288 -0.441716 -0.104965
-0.290288 0.445099 -0.215860
-0.290288 -0.355800 0.293458
-0.290288 -0.275517 -0.362380
-0.290288 0.353973 0.304078
-0.290288 0.332219 0.304592
-0.290288 0.438775 0.132475
-0.290288 -0.346768 0.278007
-0.290288 -0.109287 -0.447480
-0.290288 0.467835 -0.130346
-0.290288 0.433440 0.174874
-0.290288 -0.340586 0.337834
-0.290288 -0.488293 0.025830
-0.290288 -0.371812 0.251917
-0.290288 0.469234 -0.097898
-0.290288 -0.372210 0.272409
-0.290288 -0.354504 0.317294
-0.290288 -0.328305 0.307021
-0.290288 -0.381839 -0.247241
-0.290288 -0.320434 0.306777
-0.290288 0.232145 0.407917
-0.290288 0.226038 -0.415658
-0.290288 0.249079 -0.377160
-0.290288 0.449341 -0.216558
-0.290288 -0.101643 -0.455296
-0.290288 0.186728 0.403414
-0.290288 -0.407954 -0.242887
-0.290288 0.065607 -0.461589
-0.290288 -0.034498 0.469715
-0.290288 -0.439651 -0.196310
-0.290288 -0.185103 -0.455283
-0.290288 0.209835 0.392320
-0.290288 0.017813 0.474916
-0.290288 -0.090799 0.478205
-0.290288 0.253563 0.416757
-0.290288 -0.226980 0.384833
-0.290288 0.435001 -0.110239
-0.290288 -0.060772 0.474881
-0.290288 -0.425121 -0.203607
-0.290288 -0.463717 -0.156726
-0.290288 -0.228700 0.405849
-0.290288 0.375060 -0.275340
-0.290288 0.202397 -0.428523
-0.290288 -0.428422 -0.150840
-0.290288 0.423498 -0.183982
-0.290288 -0.483485 0.006440
-0.290288 -0.493251 -0.058886
-0.290288 0.436970 -0.185286
-0.290288 0.494806 0.018067
-0.290288 0.066151 -0.443856
-0.290288 0.367671 0.278685
-0.290288 0.192531 -0.459986
-0.290288 0.097365 -0.445303
-0.290288 0.493712 0.055654
-0.290288 0.419217 0.252247
-0.290288 -0.195547 0.442607
-0.290288 -0.395921 0.222889
-0.290288 -0.085021 0.441186
-0.290288 -0.399583 0.235419
-0.290288 0.111887 -0.445488
-0.290288 0.492449 0.044740
-0.290288 0.385569 -0.273481
-0.290288 0.178211 0.452327
-0.290288 -0.176004 0.412795
-0.290288 0.010354 -0.498578
-0.290288 0.076478 0.481618
-0.290288 0.484565 0.111667
-0.290288 0.363220 -0.282992
-0.290288 0.177135 -0.441843
-0.290288 -0.350803 -0.276824
-0.290288 0.282289 0.379256
-0.290288 0.190926 -0.436588
-0.290288 0.339714 0.295454
-0.290288 0.055300 0.439914
-0.290288 0.111042 -0.481882
-0.290288 -0.414609 0.233107
-0.290288 -0.421202 -0.150287
-0.290288 0.495328 0.040877
-0.290288 0.020290 0.480747
-0.290288 0.330490 0.362885
-0.290288 0.259151 -0.396928
-0.290288 -0.453414 -0.040926
-0.290288 -0.470028 0.114046
-0.290288 0.476505 0.098376
-0.290288 0.288752 -0.407211
-0.290288 -0.472426 -0.088032
-0.290288 -0.438317 -0.133122
-0.290288 -0.448204 0.207223
-0.290288 0.410561 -0.219163
-0.290288 -0.138634 -0.453434
-0.290288 -0.435606 -0.095124
-0.290288 0.138644 0.463056
-0.290288 0.458746 0.059318
-0.290288 -0.159238 0.448734
-0.290288 0.171171 -0.462394
-0.290288 0.473528 -0.156560
-0.290288 -0.062170 -0.489061
-0.290288 -0.467768 -0.015152
-0.290288 0.071516 -0.494827
-0.290288 -0.327327 0.301074
-0.290288 -0.482108 0.072898
-0.290288 -0.055342 -0.454292
-0.290288 -0.083108 -0.481051
-0.290288 -0.122123 -0.479816
-0.290288 -0.417551 -0.185888
-0.290288 0.496645 0.003154
-0.290288 -0.409405 0.258045
-0.290288 -0.013777 -0.492661
-0.290288 -0.403451 0.252343
-0.290288 -0.146230 0.469410
-0.290288 -0.046702 -0.483006
-0.290288 0.057463 -0.477816
-0.290288 -0.369467 0.289968
-0.290288 0.174492 0.442899
-0.290288 -0.161665 0.432950
-0.290288 -0.456714 0.052777
-0.290288 0.186575 0.434836
-0.290288 0.454273 -0.017874
-0.290288 0.391542 0.238874
-0.290288 -0.064973 0.490327
-0.290288 0.046579 0.455250
-0.290288 0.177574 0.419035
-0.290288 0.436233 -0.102938
-0.290288 -0.426227 0.226530
-0.290288 0.247333 0.422995
-0.290288 0.210222 0.399677
-0.290288 0.448067 -0.034550
-0.290288 -0.422046 0.248800
-0.290288 0.437762 -0.156766
-0.290288 0.233488 -0.423413
-0.290288 0.336056 0.362131
-0.290288 -0.412114 -0.188382
-0.290288 -0.042312 -0.455729
-0.290288 0.398211 0.223615
-0.290288 -0.269925 0.404386
-0.290288 0.233638 0.403905
-0.290288 -0.416908 -0.256167
-0.290288 0.147374 0.439753
-0.290288 0.344721 -0.355041
-0.290288 0.242733 -0.427905
-0.290288 0.369102 -0.330437
-0.290288 0.093091 -0.478739
-0.290288 0.054578 0.456671
-0.290288 -0.086900 0.478422
-0.290288 0.455103 -0.135912
-0.290288 -0.413982 -0.277218
-0.290288 0.228454 -0.404940
-0.290288 0.456943 -0.013668
-0.290288 0.236120 0.432299
-0.290288 -0.352961 0.287074
-0.290288 0.396309 -0.291459
-0.290288 -0.496641 -0.013514
-0.290288 -0.470386 0.036484
-0.290288 0.458842 0.102386
-0.290288 -0.209705 -0.413722
-0.290288 0.332630 -0.345229
-0.290288 0.328962 0.357153
-0.290288 -0.400527 0.285039
-0.290288 0.421037 0.177617
-0.290288 -0.406282 0.250271
-0.290288 0.219958 -0.390516
-0.290288 0.139778 -0.452997
-0.290288 0.458053 -0.037021
-0.290288 -0.111541 0.435098
-0.290288 0.445241 0.021375
-0.290288 0.130006 -0.465315
-0.290288 0.001427 -0.481523
-0.290288 -0.408190 -0.255741
-0.290288 0.114576 0.482402
-0.290288 0.218932 0.418645
-0.290288 -0.036754 -0.467937
-0.290288 -0.390986 0.256332
-0.290288 -0.437138 0.129629
-0.290288 0.457818 0.166335
-0.290288 -0.455199 -0.035757
-0.290288 0.400982 -0.288638
-0.290288 0.465321 0.045712
-0.290288 -0.160348 0.416609
-0.290288 0.395585 0.220081
-0.290288 -0.289303 0.362145
-0.290288 -0.447903 -0.060003
-0.290288 0.456896 0.145816
-0.290288 -0.063746 -0.481005
-0.290288 -0.462360 0.107230
-0.290288 -0.147262 -0.455331
-0.290288 0.278963 0.369813
-0.290288 -0.149835 0.419729
-0.290288 0.049133 0.483005
-0.290288 -0.384899 0.221929
-0.290288 -0.009200 -0.492553
-0.290288 -0.358555 -0.279375
-0.290288 -0.025519 0.443169
-0.290288 -0.290508 -0.392954
-0.290288 -0.328580 -0.371566
-0.290288 -0.462395 0.014468
-0.290288 0.300008 -0.371297
-0.290288 0.356499 0.279865
-0.290288 0.373717 -0.326190
-0.290288 -0.025538 0.472636
-0.290288 0.200484 0.395658
-0.290288 0.419332 0.148877
-0.290288 -0.331233 0.341821
-0.290288 0.358971 -0.301009
-0.290288 0.356950 -0.330420
-0.290288 0.186892 0.411555
-0.290288 -0.313712 -0.375643
-0.290288 -0.258940 -0.393603
-0.290288 0.477141 0.041027
-0.290288 -0.410042 -0.175228
-0.290288 -0.142096 -0.454049
-0.290288 0.325900 0.367046
-0.290288 -0.060280 -0.483382
-0.290288 -0.149182 0.430133
-0.290288 -0.045484 0.493544
-0.290288 0.461345 0.080052
-0.290288 -0.373483 0.321540
-0.290288 0.153624 0.447821
-0.290288 0.169758 0.458733
-0.290288 -0.137393 0.436712
-0.290288 -0.238871 -0.429241
-0.290288 0.496260 -0.028816
-0.290288 -0.197188 0.432508
-0.290288 0.410029 0.260156
-0.290288 -0.401526 0.279906
-0.290288 -0.314924 0.382326
-0.290288 0.093452 0.448588
-0.290288 -0.391671 -0.276033
-0.290288 0.400682 -0.197640
-0.290288 0.086650 -0.478437
-0.290288 -0.447810 -0.194904
-0.290288 0.123043 0.466767
-0.290288 -0.120979 0.449789
-0.290288 -0.100105 0.478390
-0.290288 0.141657 -0.470605
-0.290288 -0.111443 0.477318
-0.290288 -0.389645 0.288668
-0.290288 -0.406177 0.270499
-0.290288 0.347734 -0.303165
-0.290288 0.105157 -0.435512
-0.290288 -0.395223 -0.299370
-0.290288 -0.371662 -0.263473
-0.290288 0.456948 0.014959
-0.290288 -0.451692 -0.071579
-0.290288 -0.454703 -0.075526
-0.290288 -0.252423 -0.383044
-0.290288 -0.183541 0.424737
-0.290288 0.164958 -0.439775
-0.290288 -0.366165 0.324253
-0.290288 0.457172 -0.163024
-0.290288 -0.037059 0.493489
-0.290288 0.223457 0.410120
-0.290288 -0.469852 0.016349
-0.290288 0.091069 0.452855
-0.290288 -0.451873 -0.096683
-0.290288 0.396752 0.200956
-0.290288 -0.323946 0.303285
-0.290288 0.333294 -0.317382
-0.290288 0.465446 0.162307
-0.290288 -0.262265 -0.370103
-0.290288 -0.394406 0.207338
-0.290288 -0.131338 0.468383
-0.290288 0.453823 -0.099944
-0.290288 0.383621 0.243938
-0.290288 0.328709 -0.327341
-0.290288 0.321983 -0.361319
-0.290288 -0.472870 -0.043758
-0.290288 0.104547 0.449955
-0.290288 -0.457167 0.064664
-0.290288 0.383455 0.272765
-0.290288 0.119223 -0.435195
-0.290288 -0.201670 0.423541
-0.290288 -0.376807 -0.289640
-0.290288 0.356586 0.345880
-0.290288 -0.429067 0.156190
-0.290288 0.092021 -0.482993
-0.290288 0.312871 -0.325067
-0.290288 0.450470 -0.007521
-0.290288 0.077716 0.442153
-0.290288 0.340367 0.301551
-0.290288 0.490056 0.047589
-0.290288 0.434098 0.210299
-0.290288 -0.460324 0.158592
-0.290288 0.484655 0.018259
-0.290288 0.360884 0.269707
-0.290288 0.328923 -0.308770
-0.290288 0.408212 0.216021
-0.290288 0.383098 -0.253254
-0.290288 0.213691 0.402823
-0.290288 0.299178 -0.348843
-0.290288 0.394581 0.283208
-0.290288 0.414347 0.214087
-0.290288 -0.456669 0.105983
-0.290288 -0.348178 0.320490
-0.290288 0.471590 0.123359
-0.290288 -0.454259 -0.114603
-0.290288 0.416647 0.269106
-0.290288 0.005739 -0.470893
-0.290288 -0.440939 0.065930
-0.290288 -0.067085 0.459330
-0.290288 -0.164776 -0.437338
-0.290288 0.446099 -0.069274
-0.290288 0.413448 -0.203024
-0.290288 0.426776 0.129113
-0.290288 0.253579 0.407434
-0.290288 0.447373 0.194133
-0.290288 -0.434664 0.131805
-0.290288 0.403836 0.216062
-0.290288 0.461294 -0.035221
-0.290288 0.038275 0.484913
-0.290288 0.027961 -0.478434
-0.290288 -0.116441 0.442406
-0.290288 0.384245 0.294870
-0.290288 -0.217434 0.402846
-0.290288 -0.318620 -0.372066
-0.290288 -0.365750 0.308684
-0.290288 0.455792 -0.154506
-0.290288 -0.353680 0.333566
-0.290288 0.014127 -0.460198
-0.290288 0.166438 0.426649
-0.290288 0.423736 0.222427
-0.290288 0.196902 0.428329
-0.290288 -0.445718 -0.111194
-0.290288 -0.477280 0.014734
-0.290288 -0.481204 0.106321
-0.290288 0.217447 0.395379
-0.290288 -0.466466 -0.163950
-0.290288 -0.480384 -0.052492
-0.290288 -0.426418 -0.181105
-0.290288 -0.029114 0.483080
-0.290288 0.012700 0.453351
-0.290288 -0.470198 -0.094902
-0.290288 0.414249 -0.195133
-0.290288 0.089677 0.457405
-0.290288 -0.020866 0.454201
-0.290288 0.483074 -0.034674
-0.290288 0.240428 -0.408124
-0.290288 -0.457114 -0.090533
-0.290288 -0.455746 0.011647
-0.290288 -0.437592 0.180142
-0.290288 0.451140 -0.003642
-0.290288 -0.487166 0.055347
-0.290288 -0.380820 -0.294158
-0.290288 0.454368 0.130230
-0.290288 -0.106497 0.447992
-0.290288 0.105858 -0.488678
-0.290288 -0.203262 -0.412322
-0.290288 0.437165 0.199265
-0.290288 -0.417597 0.257528
-0.290288 -0.212125 -0.408320
-0.290288 0.118933 0.428640
-0.290288 0.222206 0.437320
-0.290288 -0.254069 0.399440
-0.290288 -0.336568 -0.348608
-0.290288 -0.476708 0.031136
-0.290288 0.331564 0.352017
-0.290288 -0.173496 -0.451659
-0.290288 0.146636 -0.459948
-0.290288 0.149338 -0.421903
-0.290288 0.383561 0.264890
-0.290288 0.393475 0.208446
-0.290288 0.189231 -0.462675
-0.290288 -0.249504 -0.427377
-0.290288 0.425866 -0.237089
-0.290288 -0.448178 -0.185625
-0.290288 0.100719 -0.456248
-0.290288 0.437070 0.204033
-0.290288 -0.043690 -0.481077
-0.290288 -0.441982 -0.165577
-0.290288 0.116067 0.476633
-0.290288 0.051983 0.440966
-0.290288 -0.466787 0.047910
-0.290288 0.240328 0.392802
-0.290288 0.399813 -0.261419
-0.290288 -0.373572 0.255075
-0.290288 0.358784 0.282244
-0.290288 0.448020 0.048778
-0.290288 -0.007997 0.467669
-0.290288 -0.435815 0.135770
-0.290288 0.263507 -0.407015
-0.290288 0.494605 -0.032338
-0.290288 0.349530 -0.279619
-0.290288 0.212303 0.415397
-0.290288 -0.443470 -0.227433
-0.290288 0.146804 -0.438332
-0.290288 0.347704 0.298339
-0.290288 -0.330362 -0.350439
-0.290288 -0.469298 0.055437
-0.290288 0.193899 0.410107
-0.290288 -0.400667 -0.240550
-0.290288 0.317479 0.336520
-0.290288 0.464063 0.052931
-0.290288 0.279536 -0.376971
-0.290288 -0.113677 -0.444531
-0.290288 0.009280 -0.455804
-0.290288 0.169336 0.415427
-0.290288 0.431501 -0.152998
-0.290288 0.446196 -0.001863
-0.290288 0.084595 0.441079
-0.290288 -0.231048 -0.389920
-0.290288 0.282812 0.375621
-0.290288 -0.450744 -0.130139
-0.290288 0.468701 -0.022488
-0.290288 -0.307635 -0.371312
-0.290288 -0.211148 0.436400
-0.290288 0.177315 0.459277
-0.290288 0.442516 0.144691
-0.290288 -0.026426 -0.460282
-0.290288 -0.362296 -0.298992
-0.290288 -0.054533 -0.458711
-0.290288 -0.432983 0.138895
-0.290288 -0.295066 0.370670
-0.290288 0.473933 -0.020493
-0.290288 0.052846 -0.444455
-0.290288 -0.259615 -0.415279
-0.290288 0.361558 0.264917
-0.290288 -0.472140 -0.091219
-0.290288 0.196411 -0.421201
-0.290288 0.411140 0.246691
-0.290288 -0.310552 -0.381836
-0.290288 0.243391 -0.395734
-0.290288 -0.291814 0.364065
-0.290288 -0.252410 -0.395105
-0.290288 -0.439432 -0.157210
-0.290288 -0.357779 -0.269856
-0.290288 -0.453850 -0.146582
-0.290288 -0.403552 0.272752
-0.290288 0.293099 -0.364996
-0.290288 0.128364 0.465174
-0.290288 0.431258 0.120243
-0.290288 0.255970 -0.371164
-0.290288 0.075186 0.474352
-0.290288 0.231803 0.379664
-0.290288 0.219523 0.403509
-0.290288 -0.097817 0.482042
-0.290288 -0.196505 -0.404994
-0.290288 -0.469052 0.139187
-0.290288 0.144924 0.460207
-0.290288 0.458488 0.132414
-0.290288 0.283553 0.357043
-0.290288 0.335628 0.365861
-0.290288 -0.445015 0.184776
-0.290288 -0.295715 0.380637
-0.290288 0.433258 0.231206
-0.290288 0.153161 0.435758
-0.290288 0.374524 -0.330812
-0.290288 0.425717 -0.206488
-0.290288 -0.395772 -0.233236
-0.290288 -0.179261 0.460174
-0.290288 0.370355 -0.318751
-0.290288 -0.276420 0.366909
-0.290288 0.320580 -0.372034
-0.290288 -0.237259 0.410605
-0.290288 0.171046 0.409870
-0.290288 -0.469366 -0.042987
-0.290288 -0.492522 -0.012532
-0.290288 -0.325601 0.314324
-0.290288 -0.304175 -0.372513
-0.290288 -0.264523 0.364564
-0.290288 0.470359 0.156088
-0.290288 0.462494 -0.083335
-0.290288 -0.335409 -0.335733
-0.290288 0.454501 0.085703
-0.290288 -0.455324 -0.060315
-0.290288 0.388433 0.309825
-0.290288 -0.366257 0.327938
-0.290288 -0.436160 0.159282
-0.290288 -0.416265 -0.259892
-0.290288 0.453244 -0.093760
-0.290288 -0.259054 0.421363
-0.290288 0.166880 0.451562
-0.290288 -0.371164 -0.318296
-0.290288 0.335173 -0.314289
-0.290288 -0.297495 -0.350656
-0.290288 0.136341 -0.440688
-0.290288 -0.117096 -0.468995
-0.290288 0.489184 0.087064
-0.290288 0.477061 -0.018783
-0.290288 -0.331097 -0.365013
-0.290288 0.150950 -0.427722
-0.290288 -0.401055 -0.281762
-0.290288 0.273376 -0.369637
-0.290288 0.022288 0.448114
-0.290288 0.450537 -0.150319
-0.290288 0.475163 0.094158
-0.290288 -0.436943 -0.099027
-0.290288 0.434072 0.221597
-0.290288 0.029040 0.453930
-0.290288 -0.377409 -0.308241
-0.290288 -0.398668 0.281482
-0.290288 0.464343 -0.093651
-0.290288 0.419764 0.263398
-0.290288 -0.203476 -0.398615
-0.290288 -0.389930 0.252203
-0.290288 0.317008 -0.356822
-0.290288 -0.112056 -0.457140
-0.290288 -0.432474 0.206899
-0.290288 -0.193344 -0.416372
-0.290288 -0.466685 0.101041
-0.290288 0.466111 0.017380
-0.290288 -0.373752 -0.295050
-0.290288 -0.472262 -0.097168
-0.290288 0.198605 0.446089
-0.290288 -0.136032 0.476190
-0.290288 0.236798 -0.388356
-0.290288 -0.247908 0.370443
-0.290288 0.289154 -0.376414
-0.290288 0.048030 -0.489318
-0.290288 -0.420660 0.160488
-0.290288 -0.323716 0.351181
-0.290288 0.022340 -0.462697
-0.290288 0.131408 -0.433374
-0.290288 -0.446598 -0.075828
-0.290288 0.111790 0.447114
-0.290288 -0.204380 0.445377
-0.290288 -0.282482 0.366876
-0.290288 -0.040429 0.455446
-0.290288 0.127552 0.446062
-0.290288 -0.485626 0.045016
-0.290288 -0.195426 0.446700
-0.290288 -0.156560 0.459114
-0.290288 -0.053097 -0.461973
-0.290288 -0.049244 -0.493845
-0.290288 0.323529 -0.310209
-0.290288 0.389174 -0.233288
-0.290288 -0.253685 -0.372426
-0.290288 0.453818 -0.083734
-0.290288 0.462775 0.094494
-0.290288 0.375204 0.260202
-0.290288 -0.306732 0.338535
-0.290288 -0.139772 0.454156
-0.290288 0.345769 0.291363
-0.290288 -0.223183 0.430115
-0.290288 0.490517 0.022219
-0.290288 0.450567 0.104962
-0.290288 0.366515 -0.280989
-0.290288 -0.160577 0.454729
-0.290288 0.040593 0.487713
-0.290288 -0.403494 -0.208624
-0.290288 -0.235002 0.387351
-0.290288 0.297064 -0.353090
-0.290288 0.436536 0.145432
-0.290288 -0.460574 0.075099
-0.290288 0.464005 -0.072864
-0.290288 0.450441 0.073626
-0.290288 0.270250 -0.393846
-0.290288 0.136234 0.475430
-0.290288 -0.437911 0.193286
-0.290288 -0.187922 0.402351
-0.290288 0.152049 0.451209
-0.290288 -0.180962 -0.463908
-0.290288 0.280353 0.347497
-0.290288 -0.287063 -0.399332
-0.290288 -0.475845 0.124476
-0.290288 -0.479919 -0.097714
-0.290288 0.112534 -0.475684
-0.290288 -0.396236 -0.253792
-0.290288 0.334789 -0.335767
-0.290288 0.292705 0.377931
-0.290288 0.071397 -0.487638
-0.290288 0.104383 0.470626
-0.290288 0.221954 0.430901
-0.290288 -0.121948 0.440326
-0.290288 -0.336519 -0.364281
-0.290288 -0.435792 0.164702
-0.290288 -0.244094 -0.405231
-0.290288 0.073296 -0.475659
-0.290288 0.170013 0.420368
-0.290288 -0.055040 0.490689
-0.290288 0.050117 -0.446772
-0.290288 -0.486469 0.013686
-0.290288 -0.414226 0.221313
-0.290288 0.422252 -0.160857
-0.290288 0.128780 -0.442999
-0.290288 0.450209 0.170496
-0.290288 -0.230047 -0.394727
-0.290288 -0.416497 0.194336
-0.290288 -0.132161 -0.430995
-0.290288 0.380441 -0.277099
-0.290288 0.275970 0.375041
-0.290288 -0.434652 0.200667
-0.290288 0.297309 0.372942
-0.290288 -0.426953 0.212535
-0.290288 -0.487398 0.066812
-0.290288 -0.366102 -0.326377
-0.290288 0.157778 0.443214
-0.290288 0.268728 0.401014
-0.290288 -0.491046 0.071347
-0.290288 0.018991 -0.496318
-0.290288 0.457407 -0.198752
-0.290288 -0.450789 -0.010301
-0.290288 -0.304980 0.368838
-0.290288 0.455587 0.152296
-0.290288 -0.483074 -0.026091
-0.290288 -0.027961 -0.471012
-0.290288 0.459992 0.098951
-0.290288 -0.347458 -0.340013
-0.290288 0.377181 -0.251241
-0.290288 -0.099159 -0.473710
-0.290288 0.136769 0.448407
-0.290288 0.467638 -0.121097
-0.290288 -0.155767 -0.420569
-0.290288 -0.412292 -0.185282
-0.290288 -0.419158 -0.258530
-0.290288 0.488935 0.056053
-0.290288 -0.273697 0.384723
-0.290288 -0.141462 -0.449577
-0.290288 0.110272 -0.457823
-0.290288 -0.410516 -0.240239
-0.290288 -0.408344 0.266910
-0.290288 0.074733 -0.479693
-0.290288 0.423621 0.212653
-0.290288 0.251688 0.383849
-0.290288 -0.291437 0.390016
-0.290288 0.148996 -0.445857
-0.290288 -0.438578 -0.164821
-0.290288 0.247813 0.410874
-0.290288 0.392998 -0.291326
-0.290288 0.298367 0.338009
-0.290288 0.480077 -0.134305
-0.290288 0.347328 0.348786
-0.290288 -0.365122 -0.295909
-0.290288 -0.007423 -0.457103
-0.290288 0.082150 0.485650
-0.290288 -0.405424 -0.263148
-0.290288 -0.443589 -0.146933
-0.290288 -0.447150 0.062004
-0.290288 -0.056440 -0.466480
-0.290288 0.247640 -0.391922
-0.290288 0.318476 0.376969
-0.290288 0.474865 -0.115346
-0.290288 -0.442941 0.107193
-0.290288 0.229584 0.414195
-0.290288 -0.259239 0.382045
-0.290288 -0.068226 0.467162
-0.290288 -0.450061 0.072014
-0.290288 -0.384968 0.236563
-0.290288 0.430179 0.130185
-0.290288 -0.460885 -0.179458
-0.290288 0.458259 0.018514
-0.290288 -0.348386 0.303446
-0.290288 -0.452545 -0.088453
-0.290288 0.197192 0.440999
-0.290288 -0.472168 -0.011841
-0.290288 -0.052928 0.478144
-0.290288 0.035146 0.486020
-0.290288 -0.472356 -0.080812
-0.290288 0.376308 -0.268567
-0.290288 0.364050 0.337268
-0.290288 0.224098 -0.431889
-0.290288 -0.344729 -0.283861
-0.290288 0.130944 0.424023
-0.290288 -0.343207 0.283484
-0.290288 0.150441 -0.451822
-0.290288 -0.181956 -0.444094
-0.290288 -0.001112 -0.474324
-0.290288 -0.090982 0.460726
-0.290288 -0.444631 0.201282
-0.290288 0.423493 0.205452
-0.290288 -0.431316 -0.112526
-0.290288 -0.340089 0.285368
-0.290288 0.218667 -0.433191
-0.290288 -0.386671 0.308281
-0.290288 0.073379 -0.491491
-0.290288 0.348194 -0.311220
-0.290288 0.327075 -0.372203
-0.290288 0.213656 -0.415117
-0.290288 -0.275706 0.394969
-0.290288 0.458344 0.041450
-0.290288 -0.006259 -0.460180
-0.290288 0.252172 -0.370453
-0.290288 -0.206130 0.428128
-0.290288 0.122650 0.457271
-0.290288 0.479097 0.107006
-0.290288 0.458799 -0.117513
-0.290288 0.094869 0.461728
-0.290288 0.475659 -0.118600
-0.290288 0.011963 -0.488141
-0.290288 0.458437 0.119470
-0.290288 0.270937 -0.374997
-0.290288 0.276172 -0.375996
-0.290288 0.435475 0.124386
-0.290288 -0.117004 -0.465607
-0.290288 0.153347 -0.460107
-0.290288 -0.479033 0.037750
-0.290288 0.305459 -0.380163
-0.290288 0.426940 -0.184506
-0.290288 0.141854 0.462034
-0.290288 0.313605 0.329427
-0.290288 -0.119863 -0.448326
-0.290288 -0.441991 -0.059733
-0.290288 -0.410243 0.212165
-0.290288 -0.153376 -0.423301
-0.290288 -0.249581 -0.415743
-0.290288 -0.168111 -0.462106
-0.290288 0.451738 0.193186
-0.290288 0.461259 -0.153083
-0.290288 -0.286381 0.363440
-0.290288 0.203639 0.432055
-0.290288 0.062123 -0.466407
-0.290288 0.220740 0.396087
-0.290288 -0.054673 0.452672
-0.290288 0.097692 -0.468413
-0.290288 0.433804 -0.162923
-0.290288 0.442989 0.074998
-0.290288 0.290277 -0.344668
-0.290288 0.096714 -0.473364
-0.290288 -0.443988 -0.098250
-0.290288 -0.017432 -0.471088
-0.290288 0.070554 -0.460268
-0.290288 0.232165 0.383771
-0.290288 0.470199 0.022182
-0.290288 0.143622 -0.443226
-0.290288 0.445772 -0.044266
-0.290288 0.309989 -0.376636
-0.290288 0.352558 -0.348607
-0.290288 0.090204 0.441381
-0.290288 0.060729 0.440326
-0.290288 0.294275 -0.369440
-0.290288 -0.472464 -0.109686
-0.290288 -0.358214 0.316964
-0.290288 -0.429621 0.220799
-0.290288 -0.449470 -0.001947
-0.290288 0.276182 0.401373
-0.290288 -0.483055 0.012668
-0.290288 0.369933 -0.287298
-0.290288 0.353894 -0.322961
-0.290288 0.086539 0.478561
-0.290288 0.079960 0.475439
-0.290288 0.061198 0.456763
-0.290288 0.113358 -0.437110
-0.290288 -0.461525 0.117582
-0.290288 0.221844 0.385440
-0.290288 0.177542 0.440410
-0.290288 0.488752 -0.028214
-0.290288 0.251674 -0.404024
-0.290288 0.357767 0.296500
-0.290288 -0.466742 0.034402
-0.290288 -0.373118 0.325575
-0.290288 0.379021 -0.324102
-0.290288 0.428125 0.151399
-0.290288 -0.386602 0.225671
-0.290288 0.385297 0.222779
-0.290288 0.463062 -0.148144
-0.290288 0.444043 0.192545
-0.290288 -0.271737 0.392602
-0.290288 -0.450160 -0.028005
-0.290288 -0.200980 0.408962
-0.290288 -0.044106 -0.471850
-0.290288 0.094596 0.486356
-0.290288 -0.110188 -0.483654
-0.290288 -0.292822 -0.402786
-0.290288 0.391616 -0.224295
-0.290288 0.254998 0.422827
-0.290288 0.229792 -0.440567
-0.290288 -0.317729 0.362964
-0.290288 0.046332 -0.447950
-0.290288 0.008899 0.473141
-0.290288 0.282925 -0.407163
-0.290288 0.032668 -0.453383
-0.290288 0.428353 0.177531
-0.290288 0.231851 0.400899
-0.290288 0.135419 0.462123
-0.290288 -0.182522 0.434243
-0.290288 0.188673 -0.421855
-0.290288 0.449314 0.061421
-0.290288 0.130829 0.430493
-0.290288 0.467779 -0.146047
-0.290288 -0.299986 0.326692
-0.290288 -0.052748 0.471048
-0.290288 -0.465153 -0.108937
-0.290288 0.296397 -0.366037
-0.290288 0.449572 0.126497
-0.290288 0.319535 -0.369020
-0.290288 -0.145129 0.473523
-0.290288 0.190110 0.448325
-0.290288 0.100641 -0.460763
-0.290288 -0.162191 -0.466279
-0.290288 0.267361 0.372347
-0.290288 -0.022089 0.492503
-0.290288 0.187814 -0.457233
-0.290288 -0.163878 -0.468928
-0.290288 -0.419199 0.209907
-0.290288 0.370508 -0.273292
-0.290288 0.200155 0.418280
-0.290288 0.065232 0.449904
-0.290288 -0.458465 -0.176896
-0.290288 -0.360068 -0.320000
-0.290288 -0.133087 0.431680
-0.290288 -0.275164 -0.358910
-0.290288 0.483273 -0.054216
-0.290288 0.304164 -0.351540
-0.290288 0.458342 -0.010802
-0.290288 0.139092 0.444187
-0.290288 -0.140426 -0.424717
-0.290288 0.313012 0.322960
-0.290288 -0.284298 0.345566
-0.290288 -0.354209 0.337259
-0.290288 -0.042016 0.472659
-0.290288 0.454290 -0.171111
-0.290288 0.466534 0.145984
-0.290288 -0.391497 0.209522
-0.290288 -0.234423 0.420840
-0.290288 -0.401206 -0.212854
-0.290288 0.419458 0.266807
-0.290288 0.289876 -0.363553
-0.290288 -0.426535 0.190518
-0.290288 0.145641 0.433628
-0.290288 -0.056308 0.456581
-0.290288 -0.329836 0.345974
-0.290288 -0.039042 -0.457916
-0.290288 -0.439488 0.077796
-0.290288 -0.051870 0.491242
-0.290288 -0.002672 -0.460713
-0.290288 0.246669 -0.415251
-0.290288 -0.183386 0.430661
-0.290288 0.035644 0.472736
-0.290288 -0.478570 0.063379
-0.290288 0.416906 0.168929
-0.290288 -0.177378 -0.434726
-0.290288 0.453909 0.201050
-0.290288 -0.375788 -0.268838
-0.290288 0.421632 0.249804
-0.290288 -0.148179 -0.449075
-0.290288 -0.136673 -0.435961
-0.290288 0.454896 -0.030956
-0.290288 0.453640 -0.129893
-0.290288 -0.447586 0.043236
-0.290288 0.443378 0.099455
-0.290288 0.263776 -0.383671
-0.290288 0.405863 -0.220305
-0.290288 -0.014774 -0.484202
-0.290288 -0.219876 0.409424
-0.290288 -0.437721 0.108424
-0.290288 0.462961 0.022235
-0.290288 -0.454001 0.149840
-0.290288 0.442099 -0.200181
-0.290288 -0.256617 -0.375758
-0.290288 0.069124 -0.442801
-0.290288 -0.114669 0.474969
-0.290288 -0.266702 -0.360811
-0.290288 0.446067 0.217021
-0.290288 0.370510 0.277117
-0.290288 -0.434291 0.203851
-0.290288 -0.402352 -0.261838
-0.290288 -0.064641 -0.442774
-0.290288 -0.443957 -0.216322
-0.290288 -0.175420 -0.429324
-0.290288 0.325993 0.307546
-0.290288 -0.363253 0.320516
-0.290288 -0.396164 -0.283674
-0.290288 -0.449896 -0.067395
-0.290288 0.426643 0.157107
-0.290288 0.444151 0.169344
-0.290288 -0.460069 -0.050987
-0.290288 -0.425278 -0.146010
-0.290288 0.064587 0.440546
-0.290288 -0.080428 0.443258
-0.290288 -0.283702 -0.384306
-0.290288 0.478239 -0.096541
-0.290288 0.431273 -0.215651
-0.290288 0.152036 -0.434844
-0.290288 0.469107 -0.001981
-0.290288 -0.461134 -0.068166
-0.290288 0.401537 0.292420
-0.290288 -0.046254 -0.456629
-0.290288 -0.275331 -0.400654
-0.290288 0.480990 0.069455
-0.290288 -0.145440 -0.432410
-0.290288 -0.415814 -0.242219
-0.290288 0.251826 -0.415343
-0.290288 -0.401568 0.212275
-0.290288 0.428981 0.246412
-0.290288 -0.391196 -0.309493
-0.290288 -0.443746 0.083007
-0.290288 0.450730 -0.030211
-0.290288 -0.454182 0.050769
-0.290288 -0.394472 -0.239621
-0.290288 0.354978 0.297793
-0.290288 -0.479623 0.045808
-0.290288 0.070312 0.468313
-0.290288 0.217921 0.409287
-0.290288 0.124706 0.462603
-0.290288 -0.185947 -0.417129
-0.290288 -0.255447 0.365092
-0.290288 -0.383591 0.280613
-0.290288 0.049140 0.473662
-0.290288 0.156463 -0.423537
-0.290288 -0.482448 -0.082044
-0.290288 0.430555 -0.168769
-0.290288 0.387071 -0.242632
-0.290288 -0.447790 0.164023
-0.290288 -0.487225 -0.073842
-0.290288 -0.269862 0.382176
-0.290288 0.041420 -0.473393
-0.290288 0.470785 -0.077059
-0.290288 -0.449718 -0.189595
-0.290288 -0.031245 -0.470213
-0.290288 -0.185137 -0.431431
-0.290288 0.390790 0.281639
-0.290288 -0.298548 -0.395414
-0.290288 0.371869 0.259798
-0.290288 -0.439124 -0.192991
-0.290288 0.449347 -0.145676
-0.290288 -0.430374 0.209407
-0.290288 -0.261386 -0.384296
-0.290288 -0.080751 0.436320
-0.290288 0.446608 0.188638
-0.290288 -0.486219 0.022503
-0.290288 0.413763 -0.199361
-0.290288 0.364073 -0.296665
-0.290288 0.443671 -0.221184
-0.290288 -0.030094 -0.460490
-0.290288 0.337478 -0.302694
-0.290288 0.353054 0.309500
-0.290288 0.383895 -0.276470
-0.290288 0.424453 -0.140020
-0.290288 -0.398956 0.288091
-0.290288 0.310656 0.368334
-0.290288 0.446184 0.098096
-0.290288 0.020519 0.477211
-0.290288 -0.001665 0.463179
-0.290288 0.155502 -0.432871
-0.290288 -0.427784 -0.240127
-0.290288 -0.465218 0.012149
-0.290288 -0.216701 0.433443
-0.290288 -0.326842 0.372141
-0.290288 -0.240212 -0.384786
-0.290288 0.473127 -0.103294
-0.290288 0.471075 -0.109259
-0.290288 -0.377017 0.257640
-0.290288 0.255654 0.390498
-0.290288 -0.489765 0.035712
-0.290288 -0.283870 0.389990
-0.290288 -0.267587 -0.409408
-0.290288 0.246677 0.396767
-0.290288 -0.080259 0.460276
-0.290288 0.217192 0.421866
-0.290288 0.096506 -0.488737
-0.290288 -0.068211 -0.443448
-0.290288 0.470788 -0.080696
-0.290288 0.345062 0.328091
-0.290288 0.449121 0.130148
-0.290288 0.481730 0.077965
-0.290288 -0.188508 -0.444183
-0.290288 0.457921 -0.064377
-0.290288 -0.246917 0.407146
-0.290288 0.300743 0.389425
-0.290288 0.377063 0.284587
-0.290288 0.362229 0.285188
-0.290288 0.461590 -0.075010
-0.290288 0.459202 -0.109598
-0.290288 -0.043705 0.441520
-0.290288 -0.480405 -0.070335
-0.290288 -0.488555 -0.016218
-0.290288 -0.424626 0.250667
-0.290288 0.224800 0.413110
-0.290288 0.395808 0.278914
-0.290288 0.485185 -0.004512
-0.290288 -0.416320 0.154911
-0.290288 -0.429554 -0.165798
-0.290288 0.068294 -0.456099
-0.290288 -0.277558 -0.374299
-0.290288 -0.446317 0.116538
-0.290288 0.434990 0.101731
-0.290288 -0.331929 -0.335218
-0.290288 0.087451 0.443352
-0.290288 0.173654 -0.417331
-0.290288 0.420373 -0.242590
-0.290288 0.005661 -0.483654
-0.290288 0.446446 -0.179792
-0.290288 0.429484 -0.242169
-0.290288 -0.445957 0.209601
-0.290288 -0.031296 0.469849
-0.290288 -0.459892 0.110191
-0.290288 -0.151697 -0.445009
-0.290288 -0.438158 0.090039
-0.290288 0.424297 0.154533
-0.290288 -0.082909 0.447851
-0.290288 -0.442607 0.132134
-0.290288 -0.376203 -0.286515
-0.290288 0.458192 -0.138664
-0.290288 0.096173 0.437520
-0.290288 -0.385787 0.252371
-0.290288 0.119388 0.465026
-0.290288 -0.444287 -0.024924
-0.290288 -0.403222 -0.219090
-0.290288 0.431604 0.124939
-0.290288 0.291818 0.360256
-0.290288 -0.150250 -0.433645
-0.290288 0.352172 0.325279
-0.290288 0.191949 -0.440843
-0.290288 -0.059258 0.457534
-0.290288 0.308189 -0.328655
-0.290288 -0.379890 0.247674
-0.290288 -0.314460 -0.343192
-0.290288 -0.413725 -0.210917
-0.290288 0.440488 -0.143389
-0.290288 0.478058 0.138676
-0.290288 -0.381267 -0.309003
-0.290288 -0.057602 0.482835
-0.290288 -0.215304 -0.414332
-0.290288 -0.393023 0.253947
-0.290288 0.174213 0.452414
-0.290288 -0.304851 0.362134
-0.290288 -0.347658 0.308662
-0.290288 -0.486032 0.038331
-0.290288 0.451390 -0.174625
-0.290288 -0.424034 -0.178910
-0.290288 -0.243627 0.393716
-0.290288 0.161079 0.417540
-0.290288 0.415780 0.171919
-0.290288 -0.470000 -0.145000
-0.290288 0.124737 0.429943
-0.290288 0.194083 0.440663
-0.290288 0.490064 0.029377
-0.290288 0.014621 0.464528
-0.290288 0.069713 -0.477094
-0.290288 -0.425119 0.130179
-0.290288 -0.367580 -0.313643
-0.290288 -0.409823 -0.211071
-0.290288 -0.490329 -0.047452
-0.290288 0.261812 0.394477
-0.290288 -0.467503 -0.152275
-0.290288 0.145084 -0.446761
-0.290288 -0.120904 0.430075
-0.290288 0.177928 0.415676
-0.290288 0.417309 -0.179030
-0.290288 -0.124237 0.467964
-0.290288 0.295458 -0.403085
-0.290288 0.314837 0.376858
-0.290288 -0.481928 -0.089721
-0.290288 0.384557 0.229717
-0.290288 -0.358286 0.276975
-0.290288 0.366192 -0.337444
-0.290288 0.265046 0.383183
-0.290288 0.278540 -0.413178
-0.290288 0.425096 0.219305
-0.290288 -0.194179 0.403854
-0.290288 0.477015 0.013267
-0.290288 -0.369461 0.311354
-0.290288 -0.469431 -0.083664
-0.290288 -0.435433 0.111734
-0.290288 -0.274742 -0.408846
-0.290288 -0.352942 -0.345343
-0.290288 0.248142 0.386013
-0.290288 -0.477510 -0.083979
-0.290288 -0.445045 0.021809
-0.290288 0.293907 0.347800
-0.290288 0.201458 0.422141
-0.290288 0.467723 0.011455
-0.290288 0.041946 -0.480384
-0.290288 0.067727 0.438240
-0.290288 0.456900 0.068950
-0.290288 0.235551 -0.427430
-0.290288 -0.411952 0.271312
-0.290288 0.325035 0.328382
-0.290288 0.337572 -0.293365
-0.290288 0.376172 0.289789
-0.290288 0.282798 0.371882
-0.290288 0.451156 -0.125851
-0.290288 -0.340071 -0.365248
-0.290288 -0.391237 -0.221255
-0.290288 -0.106032 0.435453
-0.290288 -0.006918 -0.485879
-0.290288 0.204860 -0.435977
-0.290288 0.067193 0.456502
-0.290288 0.136485 -0.429333
-0.290288 -0.446779 -0.067087
-0.290288 -0.425955 -0.236887
-0.290288 -0.146961 0.426735
-0.290288 0.259511 -0.377841
-0.290288 0.216259 -0.396379
-0.290288 0.055742 -0.496165
-0.290288 -0.480066 -0.040249
-0.290288 0.225979 0.392205
-0.290288 0.222277 -0.442937
-0.290288 -0.332137 -0.355417
-0.290288 0.313938 0.355027
-0.290288 -0.258892 -0.418568
-0.290288 -0.114363 0.436370
-0.290288 -0.377228 -0.296002
-0.290288 0.405598 -0.230418
-0.290288 0.176203 -0.420606
-0.290288 0.295471 -0.349225
-0.290288 -0.311653 0.367624
-0.290288 0.380247 0.266358
-0.290288 -0.407095 -0.231383
-0.290288 0.373558 -0.246753
-0.290288 0.370474 -0.283598
-0.290288 -0.014963 -0.496293
-0.290288 -0.069273 0.437715
-0.290288 0.409983 0.173829
-0.290288 -0.443644 0.195144
-0.290288 0.302946 -0.377090
-0.290288 -0.405129 -0.283509
-0.290288 0.392730 -0.243519
-0.290288 -0.397275 -0.245239
-0.290288 0.430730 0.210169
-0.290288 0.428039 0.134908
-0.290288 -0.399495 0.248185
-0.290288 0.425300 0.194458
-0.290288 -0.452606 0.070086
-0.290288 -0.077666 -0.467159
-0.290288 0.403938 -0.276638
-0.290288 0.160946 0.413787
-0.290288 0.349082 0.313670
-0.290288 0.286666 0.347229
-0.290288 -0.382083 -0.263115
-0.290288 0.381642 0.302367
-0.290288 0.142769 -0.440010
-0.290288 0.446528 0.152007
-0.290288 -0.475017 -0.067811
-0.290288 -0.337484 0.331274
-0.290288 -0.118198 0.437568
-0.290288 0.297638 0.395033
-0.290288 0.471902 -0.005428
-0.290288 -0.450512 0.148707
-0.290288 -0.230403 0.433407
-0.290288 -0.484975 0.105998
-0.290288 -0.323175 0.338745
-0.290288 -0.492579 0.054247
-0.290288 -0.431269 -0.172419
-0.290288 -0.359315 0.304335
-0.290288 -0.238241 0.423716
-0.290288 -0.483717 -0.017240
-0.290288 -0.141006 -0.462528
-0.290288 0.489115 0.075163
-0.290288 0.243445 -0.421504
-0.290288 -0.375176 -0.327285
-0.290288 0.398107 -0.230605
-0.290288 0.332483 0.365695
-0.290288 0.324161 0.318256
-0.290288 -0.478668 -0.046623
-0.290288 0.400966 -0.267430
-0.290288 0.367851 -0.322117
-0.290288 0.253637 0.426035
-0.290288 0.177540 -0.451176
-0.290288 -0.376951 -0.305022
-0.290288 0.454701 -0.048208
-0.290288 -0.011633 0.494643
-0.290288 -0.281186 0.391963
-0.290288 -0.279468 0.380252
-0.290288 0.468978 -0.059903
-0.290288 0.488551 -0.084560
-0.290288 -0.425127 -0.149260
-0.290288 -0.441276 -0.230761
-0.290288 -0.137173 -0.477444
-0.290288 -0.232490 -0.399645
-0.290288 0.419619 -0.233291
-0.290288 0.072175 -0.456474
-0.290288 0.423348 0.198002
-0.290288 -0.119776 0.467457
-0.290288 -0.397514 -0.295395
-0.290288 0.367475 -0.267721
-0.290288 -0.387479 -0.221233
-0.290288 0.388808 -0.221067
-0.290288 -0.426639 -0.190254
-0.290288 -0.432699 0.242916
-0.290288 -0.085500 0.444451
-0.290288 0.267505 -0.373071
-0.290288 0.277025 -0.356597
-0.290288 0.138142 -0.426043
-0.290288 0.473841 -0.077932
-0.290288 0.210888 0.395669
-0.290288 0.038535 0.445239
-0.290288 0.438400 0.110217
-0.290288 0.439845 -0.187120
-0.290288 0.069345 -0.490002
-0.290288 -0.247804 -0.384542
-0.290288 -0.331652 -0.305949
-0.290288 -0.283545 -0.410353
-0.290288 -0.149484 0.436975
-0.290288 -0.122358 0.478749
-0.290288 0.441811 0.115665
-0.290288 0.445130 0.112552
-0.290288 -0.289545 -0.385880
-0.290288 -0.453736 0.140338
-0.290288 0.357108 0.270320
-0.290288 0.271579 0.408638
-0.290288 -0.385101 0.229070
-0.290288 0.464576 0.039045
-0.290288 0.372257 -0.333393
-0.290288 0.416835 0.220803
-0.290288 0.356236 -0.316664
-0.290288 -0.184663 0.403986
-0.290288 -0.473908 -0.071716
-0.290288 0.201905 0.401425
-0.290288 -0.281746 0.357512
-0.290288 0.185084 -0.409666
-0.290288 -0.190654 -0.410035
-0.290288 -0.228080 -0.418653
-0.290288 0.455431 0.046375
-0.290288 0.449643 0.051399
-0.290288 -0.151650 -0.461062
-0.290288 -0.334799 -0.359289
-0.290288 0.369631 -0.310643
-0.290288 -0.372911 -0.287335
-0.290288 0.234704 0.436595
-0.290288 -0.453840 -0.066441
-0.290288 -0.096889 -0.436961
-0.290288 0.488275 -0.002426
-0.290288 0.483539 -0.007796
-0.290288 0.087991 0.454475
-0.290288 0.370716 0.271026
-0.290288 -0.480764 -0.073791
-0.290288 -0.456127 -0.125219
-0.290288 -0.111550 0.465345
-0.290288 0.459041 -0.102319
-0.290288 -0.177923 -0.410918
-0.290288 0.035691 -0.454603
-0.290288 -0.317358 -0.365271
-0.290288 -0.411380 -0.253130
-0.290288 -0.100054 -0.437810
-0.290288 0.470355 -0.157171
-0.290288 -0.460068 0.186573
-0.290288 0.001361 -0.462198
-0.290288 0.415020 -0.219014
-0.290288 -0.106586 -0.474031
-0.290288 -0.477980 0.084904
-0.290288 -0.480513 -0.115118
-0.290288 0.376964 0.310135
-0.290288 -0.128138 -0.449280
-0.290288 0.466668 -0.057789
-0.290288 -0.021427 0.462790
-0.290288 0.396883 -0.303253
-0.290288 0.447505 -0.124610
-0.290288 0.392945 0.268572
-0.290288 0.073496 -0.446320
-0.290288 -0.462032 0.072285
-0.290288 -0.440743 -0.095134
-0.290288 -0.472407 0.069117
-0.290288 -0.394601 0.297066
-0.290288 0.165725 -0.471369
-0.290288 -0.233160 -0.396262
-0.290288 -0.341569 0.310170
-0.290288 0.434324 -0.217929
-0.290288 0.419552 -0.224939
-0.290288 0.011744 -0.483878
-0.290288 -0.432007 -0.142333
-0.290288 -0.368705 0.286973
-0.290288 0.345951 0.318895
-0.290288 0.174022 -0.442005
-0.290288 0.471397 -0.163374
-0.290288 -0.210855 -0.441126
-0.290288 0.400631 0.287778
-0.290288 0.354502 -0.342949
-0.290288 0.472855 -0.146179
-0.290288 0.230234 0.434517
-0.290288 0.327017 -0.376736
-0.290288 -0.077187 -0.493124
-0.290288 -0.432912 -0.152162
-0.290288 0.414648 0.225779
-0.290288 0.042790 0.443723
-0.290288 -0.430350 -0.160512
-0.290288 -0.416393 -0.238255
-0.290288 0.437717 -0.227098
-0.290288 0.398239 0.280821
-0.290288 0.311958 -0.321819
-0.290288 -0.444457 0.051757
-0.290288 0.341956 0.289816
-0.290288 -0.356645 -0.298114
-0.290288 -0.010111 0.443967
-0.290288 0.106549 0.462503
-0.290288 0.048107 0.458755
-0.290288 0.244486 -0.406439
-0.290288 0.280313 0.344291
-0.290288 -0.391590 -0.255484
-0.290288 0.253198 -0.408604
-0.290288 -0.394986 0.282275
-0.290288 0.471267 -0.043359
-0.290288 -0.378206 0.250210
-0.290288 -0.331706 0.349412
-0.290288 0.446638 -0.202080
-0.290288 0.468077 0.047699
-0.290288 0.363491 -0.332316
-0.290288 -0.076271 0.471160
-0.290288 -0.219374 -0.435891
-0.290288 0.457602 0.187469
-0.290288 0.154587 -0.447836
-0.290288 -0.252850 -0.422204
-0.290288 0.143566 -0.461641
-0.290288 0.128640 0.461875
-0.290288 -0.399464 0.194886
-0.290288 0.402376 0.284150
-0.290288 0.111834 -0.448534
-0.290288 0.231166 -0.413216
-0.290288 0.085274 -0.440933
-0.290288 -0.471817 -0.128298
-0.290288 -0.089130 0.487255
-0.290288 -0.384927 -0.273151
-0.290288 0.278208 0.394980
-0.290288 0.280246 -0.353634
-0.290288 -0.420777 0.222571
-0.290288 -0.200910 0.445932
-0.290288 0.170414 0.438556
-0.290288 0.076568 0.470574
-0.290288 -0.060753 -0.468428
-0.290288 0.446866 -0.208684
-0.290288 -0.456826 -0.029070
-0.290288 0.399408 -0.222422
-0.290288 -0.356607 0.301660
-0.290288 -0.458771 0.009896
-0.290288 0.382196 -0.282678
-0.290288 0.481762 0.113389
-0.290288 0.394462 -0.265674
-0.290288 0.059856 0.472756
-0.290288 0.102615 0.446789
-0.290288 -0.300133 0.392793
-0.290288 -0.406623 -0.221043
-0.290288 0.280807 -0.384188
-0.290288 -0.353296 -0.307589
-0.290288 0.122411 0.470717
-0.290288 0.007282 -0.490977
-0.290288 0.407724 0.184064
-0.290288 -0.306865 -0.376548
-0.290288 0.252782 -0.378023
-0.290288 -0.451702 -0.166644
-0.290288 -0.141084 0.473930
-0.290288 0.455707 -0.178639
-0.290288 -0.471808 -0.027233
-0.290288 -0.445187 0.065406
-0.290288 -0.390687 -0.228241
-0.290288 -0.004508 0.452210
-0.290288 0.263835 -0.396104
-0.290288 0.179684 0.461823
-0.290288 0.485266 -0.111663
-0.290288 -0.478597 0.080432
-0.290288 -0.231916 0.416152
-0.290288 -0.186042 -0.424879
-0.290288 -0.292655 0.348777
-0.290288 -0.445542 -0.189001
-0.290288 0.292725 -0.386636
-0.290288 0.109156 0.476782
-0.290288 -0.438780 -0.140249
-0.290288 0.471258 -0.106048
-0.290288 0.304159 -0.356818
-0.290288 0.445351 0.159075
-0.290288 0.476401 -0.093514
-0.290288 -0.145947 0.447100
-0.290288 -0.384342 -0.304369
-0.290288 -0.202597 -0.405781
-0.290288 0.012158 0.482458
-0.290288 -0.204357 -0.451311
-0.290288 0.375942 0.324209
-0.290288 0.036603 0.489713
-0.290288 -0.344608 0.335603
-0.290288 0.178345 -0.456050
-0.290288 0.409804 -0.275104
-0.290288 -0.091629 -0.442384
-0.290288 -0.424499 0.214679
-0.290288 0.430283 -0.123011
-0.290288 -0.487947 -0.078460
-0.290288 0.375505 0.306420
-0.290288 0.353265 0.338888
-0.290288 0.273450 -0.387902
-0.290288 0.306961 0.369080
-0.290288 -0.103725 -0.476371
-0.290288 0.087297 0.475019
-0.290288 -0.131972 -0.450796
-0.290288 -0.342809 -0.293039
-0.290288 0.058846 -0.449680
-0.290288 -0.170907 -0.443665
-0.290288 0.446168 0.053283
-0.290288 0.279168 -0.400220
-0.290288 -0.487101 0.071666
-0.290288 0.086096 0.457166
-0.290288 0.425003 -0.170253
-0.290288 -0.097201 0.449925
-0.290288 -0.459057 0.144988
-0.290288 -0.275710 -0.377473
-0.290288 0.290591 0.348005
-0.290288 -0.181336 0.445550
-0.290288 0.379570 -0.317663
-0.290288 -0.218039 -0.412510
-0.290288 0.054659 -0.480071
-0.290288 -0.289337 0.336891
-0.290288 0.390526 -0.236620
-0.290288 0.438647 -0.100091
-0.290288 -0.441120 0.176433
-0.290288 -0.041736 -0.485412
-0.290288 0.044350 0.462995
-0.290288 -0.043139 -0.446951
-0.290288 -0.359538 -0.335665
-0.290288 -0.321663 -0.350527
-0.290288 0.137399 -0.447182
-0.290288 -0.159389 -0.420648
