0.286960 0.125136 -0.463657
0.286960 0.454122 -0.059074
0.286960 -0.203522 0.399887
0.286960 -0.291716 -0.362406
0.286960 0.176918 0.429239
0.286960 0.368139 -0.332830
0.286960 -0.063394 0.488480
0.286960 -0.116062 0.457081
0.286960 0.452191 0.083048
0.286960 -0.224793 -0.421774
0.286960 -0.456354 -0.195503
0.286960 -0.449554 -0.178862
0.286960 0.175865 -0.415155
0.286960 -0.159274 0.451762
0.286960 0.233558 0.413610
0.286960 0.459155 0.069226
0.286960 0.047308 0.477370
0.286960 -0.038752 0.467827
0.286960 0.426140 -0.167037
0.286960 -0.441140 0.154354
0.286960 0.454284 0.167636
0.286960 -0.465951 -0.010945
0.286960 0.440167 -0.185417
0.286960 0.436610 -0.140165
0.286960 -0.009323 -0.461780
0.286960 -0.246886 0.429010
0.286960 0.409462 0.236880
0.286960 0.086867 -0.463398
0.286960 0.363305 -0.316112
0.286960 -0.320356 0.348506
0.286960 -0.328775 0.319827
0.286960 -0.345365 -0.314637
0.286960 0.440379 -0.161767
0.286960 0.385173 -0.317016
0.286960 0.379541 -0.293203
0.286960 -0.389608 -0.265480
0.286960 0.084190 -0.492603
0.286960 0.466146 -0.018997
0.286960 0.480912 -0.132387
0.286960 -0.200495 -0.418785
0.286960 -0.385578 -0.304881
0.286960 -0.209759 0.410710
0.286960 -0.443714 0.190335
0.286960 0.429221 0.119500
0.286960 0.053673 0.461126
0.286960 0.462393 0.055506
0.286960 0.247444 -0.419320
0.286960 0.249969 0.383838
0.286960 0.182147 -0.444643
0.286960 0.456703 0.112353
0.286960 -0.475409 0.143430
0.286960 -0.432188 0.184407
0.286960 -0.138141 -0.471779
0.286960 -0.456446 -0.139186
0.286960 -0.428670 -0.165617
0.286960 0.464483 -0.030341
0.286960 -0.284773 -0.350985
0.286960 -0.213309 0.424939
0.286960 0.442959 -0.097729
0.286960 -0.440156 0.088185
0.286960 0.007626 0.458577
0.286960 0.449997 -0.070959
0.286960 0.486234 0.019492
0.286960 -0.212219 0.416287
0.286960 -0.454057 -0.101333
0.286960 0.432880 0.183930
0.286960 -0.044237 0.476837
0.286960 -0.178208 -0.419584
0.286960 -0.193969 0.410162
0.286960 0.446451 -0.166544
0.286960 0.308755 0.388681
0.286960 -0.368127 0.256011
0.286960 0.443190 -0.086654
0.286960 -0.058114 -0.469043
0.286960 -0.480558 0.095934
0.286960 0.023270 -0.472456
0.286960 -0.434210 -0.206864
0.286960 0.203045 0.406486
0.286960 0.473015 -0.088085
0.286960 0.459391 -0.108626
0.286960 0.185851 0.425702
0.286960 -0.374919 0.277945
0.286960 -0.383383 0.284928
0.286960 -0.212019 0.399553
0.286960 0.455504 0.047030
0.286960 0.449068 0.052679
0.286960 0.267364 0.401010
0.286960 -0.437265 0.185645
0.286960 -0.268864 0.396944
0.286960 0.151558 0.429600
0.286960 0.095500 -0.467171
0.286960 -0.154283 0.461355
0.286960 0.446311 -0.009492
0.286960 -0.083289 -0.492808
0.286960 -0.205946 0.444923
0.286960 0.440163 -0.235773
0.286960 -0.288051 0.364311
0.286960 0.026748 0.459193
0.286960 -0.042330 -0.491492
0.286960 -0.420306 -0.206570
0.286960 0.452597 0.054063
0.286960 -0.451941 0.097143
0.286960 0.498243 0.000565
0.286960 0.377140 0.279929
0.286960 -0.437151 0.083425
0.286960 -0.460255 -0.073389
0.286960 -0.048701 0.463498
0.286960 0.290831 -0.364734
0.286960 0.358350 -0.291252
0.286960 -0.452378 0.148122
0.286960 -0.452072 0.154163
0.286960 -0.025886 -0.470967
0.286960 -0.479848 -0.124596
0.286960 -0.064050 0.438593
0.286960 -0.250001 -0.392939
0.286960 0.449818 0.073592
0.286960 0.375521 0.312953
0.286960 -0.165429 -0.451982
0.286960 -0.337519 0.342758
0.286960 -0.304539 -0.333209
0.286960 -0.472646 0.072831
0.286960 -0.489322 -0.044402
0.286960 0.239090 0.420648
0.286960 -0.490324 0.037368
0.286960 0.084641 -0.447085
0.286960 -0.067926 -0.459145
0.286960 0.236119 0.399893
0.286960 0.269198 0.403694
0.286960 0.099551 -0.484239
0.286960 0.473500 -0.084233
0.286960 -0.410757 -0.263192
0.286960 -0.405216 0.247287
0.286960 0.473761 0.058403
0.286960 -0.095273 -0.490452
0.286960 -0.326205 -0.329756
0.286960 -0.490129 -0.064636
0.286960 -0.180150 -0.447926
0.286960 -0.365719 0.269221
0.286960 -0.207245 0.437844
0.286960 -0.430676 0.206956
0.286960 -0.355921 0.333113
0.286960 -0.442176 0.095365
0.286960 -0.336381 -0.304669
0.286960 -0.222784 0.422121
0.286960 -0.427709 -0.135997
0.286960 -0.046987 -0.470259
0.286960 -0.210993 -0.421184
0.286960 -0.427080 -0.155775
0.286960 -0.427332 -0.215025
0.286960 -0.435598 0.182662
0.286960 0.114363 -0.441083
0.286960 -0.435838 0.166075
0.286960 0.005088 0.444001
0.286960 -0.082191 0.435604
0.286960 -0.357629 -0.304326
0.286960 0.389650 -0.286346
0.286960 -0.125406 -0.481859
0.286960 0.332216 0.334219
0.286960 0.356445 0.335904
0.286960 0.459053 -0.136276
0.286960 0.450324 -0.064395
0.286960 -0.392636 -0.246842
0.286960 0.286224 -0.395223
0.286960 0.452119 0.023429
0.286960 -0.458375 -0.100391
0.286960 -0.447621 -0.116813
0.286960 0.113067 -0.449928
0.286960 0.301226 -0.374997
0.286960 -0.002457 0.463565
0.286960 0.116913 0.449236
0.286960 -0.151967 0.428495
0.286960 -0.257884 0.417486
0.286960 -0.450015 0.175553
0.286960 0.189942 -0.423238
0.286960 -0.002898 0.467424
0.286960 -0.182478 0.431820
0.286960 -0.457019 0.006534
0.286960 -0.233573 -0.386751
0.286960 -0.351788 0.320377
0.286960 -0.470550 0.022914
0.286960 -0.300768 -0.386310
0.286960 -0.461070 -0.056206
0.286960 -0.490134 -0.038566
0.286960 0.423827 -0.142009
0.286960 -0.373731 0.312408
0.286960 -0.453440 -0.169591
0.286960 0.458207 0.034606
0.286960 0.157329 -0.420999
0.286960 -0.261029 0.403150
0.286960 0.489647 -0.009945
0.286960 -0.451923 0.072607
0.286960 -0.471236 0.066290
0.286960 -0.034790 0.479047
0.286960 -0.270309 -0.356820
0.286960 0.224701 -0.403304
0.286960 -0.494480 -0.051774
0.286960 0.151895 -0.448831
0.286960 -0.464722 0.151088
0.286960 0.320839 -0.382702
0.286960 -0.070357 -0.479354
0.286960 0.345715 0.303963
0.286960 -0.416022 -0.205944
0.286960 0.425313 0.186728
0.286960 -0.131015 0.442840
0.286960 -0.472924 -0.001411
0.286960 0.438052 0.084044
0.286960 -0.219313 0.423522
0.286960 0.479189 -0.093644
0.286960 -0.059280 -0.451079
0.286960 0.477054 0.057400
0.286960 -0.171208 -0.440380
0.286960 -0.303244 0.382564
0.286960 0.067314 0.491224
0.286960 -0.372406 0.251195
0.286960 0.319650 -0.378495
0.286960 -0.185980 -0.445608
0.286960 -0.064953 0.466408
0.286960 0.482659 0.104769
0.286960 -0.414027 0.175295
0.286960 0.267449 0.394614
0.286960 -0.450032 0.085810
0.286960 -0.148577 -0.430894
0.286960 0.433303 0.109910
0.286960 -0.283860 0.395925
0.286960 -0.088004 0.434780
0.286960 0.048477 0.440581
0.286960 0.294598 -0.401980
0.286960 0.039932 -0.455434
0.286960 -0.376361 -0.299803
0.286960 0.432197 -0.120504
0.286960 -0.341017 0.359614
0.286960 0.399041 -0.202911
0.286960 -0.470666 0.003907
0.286960 -0.435217 -0.102094
0.286960 -0.335511 -0.334437
0.286960 0.253145 -0.413035
0.286960 -0.212365 0.436879
0.286960 0.429633 0.153996
0.286960 0.452273 -0.009457
0.286960 -0.406437 -0.216671
0.286960 0.467822 0.003913
0.286960 -0.009448 -0.453763
0.286960 -0.453371 0.010517
0.286960 -0.419999 0.227161
0.286960 0.435935 0.122191
0.286960 -0.363630 0.318167
0.286960 0.124804 -0.466754
0.286960 -0.232150 0.409830
0.286960 0.341301 0.300946
0.286960 0.406036 0.268924
0.286960 -0.201610 -0.443425
0.286960 -0.448975 -0.128840
0.286960 0.109716 -0.443915
0.286960 -0.047356 0.471043
0.286960 0.325735 -0.371693
0.286960 -0.093184 0.471109
0.286960 0.390152 -0.282369
0.286960 0.127490 -0.453146
0.286960 0.242840 -0.437086
0.286960 -0.337349 -0.301271
0.286960 0.401377 -0.267889
0.286960 -0.056066 -0.462821
0.286960 0.446603 -0.077491
0.286960 0.351442 0.278710
0.286960 0.337174 -0.315007
0.286960 0.102373 0.481548
0.286960 0.375045 0.308594
0.286960 -0.136775 0.474027
0.286960 0.457888 0.157750
0.286960 -0.404422 0.200361
0.286960 0.484630 -0.091378
0.286960 -0.414441 0.266471
0.286960 0.146815 -0.426414
0.286960 -0.422166 -0.229470
0.286960 -0.452752 0.043547
0.286960 -0.441247 0.214139
0.286960 0.257248 0.386127
0.286960 0.457643 -0.141177
0.286960 -0.357607 0.328696
0.286960 -0.030030 -0.498112
0.286960 -0.325557 0.327640
0.286960 -0.183352 0.439850
0.286960 0.154524 -0.442332
0.286960 -0.132979 -0.436852
0.286960 -0.214380 0.446920
0.286960 0.139256 -0.441231
0.286960 0.430169 0.192088
0.286960 -0.249762 0.400156
0.286960 0.125353 -0.443874
0.286960 -0.457072 -0.041775
0.286960 -0.126350 -0.457214
0.286960 0.301988 0.369808
0.286960 0.442618 0.084202
0.286960 0.011875 -0.486005
0.286960 0.271742 -0.378081
0.286960 0.175666 0.439671
0.286960 0.127375 -0.456353
0.286960 -0.082550 0.487022
0.286960 -0.189082 0.454061
0.286960 -0.450021 0.156875
0.286960 0.475321 0.134635
0.286960 0.351157 0.300032
0.286960 0.373432 0.261775
0.286960 0.320148 0.321642
0.286960 -0.379175 -0.288559
0.286960 0.331431 -0.300512
0.286960 -0.347638 0.289699
0.286960 0.012244 0.443504
0.286960 -0.408735 -0.280696
0.286960 0.226402 0.392829
0.286960 0.359645 0.341252
0.286960 0.247125 -0.387446
0.286960 -0.211153 -0.416279
0.286960 0.428232 0.222979
0.286960 -0.366573 0.263728
0.286960 0.199504 0.410673
0.286960 -0.382294 -0.235504
0.286960 -0.148712 0.431148
0.286960 0.450570 -0.032854
0.286960 0.235499 0.406463
0.286960 0.459036 0.076777
0.286960 -0.433470 -0.203657
0.286960 -0.430102 0.214508
0.286960 0.331603 0.359153
0.286960 -0.451298 0.185628
0.286960 -0.424836 -0.238749
0.286960 -0.360374 0.314795
0.286960 -0.420115 0.248991
0.286960 -0.138441 0.454873
0.286960 0.280608 0.365125
0.286960 0.393264 -0.215801
0.286960 -0.419189 -0.261451
0.286960 -0.103409 -0.477243
0.286960 0.343902 -0.336665
0.286960 -0.245540 -0.401066
0.286960 -0.223169 -0.428877
0.286960 -0.397357 -0.242925
0.286960 -0.022133 0.471637
0.286960 0.116298 -0.449664
0.286960 -0.009342 0.464520
0.286960 0.294399 0.362400
0.286960 -0.334960 0.348141
0.286960 -0.178676 -0.433451
0.286960 0.444811 0.152011
0.286960 0.391605 0.271754
0.286960 -0.383944 -0.268914
0.286960 0.226304 0.382509
0.286960 -0.457872 0.127765
0.286960 0.097135 0.474974
0.286960 0.091177 -0.491446
0.286960 0.397634 -0.221372
0.286960 -0.290617 0.335520
0.286960 0.432133 -0.238914
0.286960 -0.066459 -0.495692
0.286960 0.384209 -0.254991
0.286960 -0.205631 0.409545
0.286960 -0.472048 0.083131
0.286960 0.461983 0.110995
0.286960 0.369022 0.328335
0.286960 0.354014 -0.351361
0.286960 0.272686 0.400583
0.286960 0.424144 0.152451
0.286960 0.358231 0.299298
0.286960 -0.426392 -0.250266
0.286960 -0.074880 -0.459578
0.286960 -0.136325 -0.460604
0.286960 0.299787 0.333577
0.286960 0.212057 -0.422022
0.286960 -0.276652 0.380723
0.286960 -0.380318 0.270346
0.286960 -0.114163 0.473341
0.286960 -0.394859 -0.239854
0.286960 -0.117120 0.481761
0.286960 0.090249 0.467517
0.286960 -0.442998 -0.076371
0.286960 0.203871 0.402856
0.286960 0.390441 -0.244077
0.286960 0.440608 -0.177367
0.286960 -0.407722 -0.250822
0.286960 0.464946 -0.082773
0.286960 -0.167482 -0.464506
0.286960 -0.107423 0.440954
0.286960 -0.075553 0.446470
0.286960 -0.484971 0.083956
0.286960 0.030050 0.462395
0.286960 0.474863 -0.100757
0.286960 0.134828 0.462961
0.286960 -0.252096 0.422547
0.286960 0.476785 0.093505
0.286960 -0.333962 0.344419
0.286960 0.221231 0.392427
0.286960 -0.179825 0.405096
0.286960 -0.127704 -0.479335
0.286960 0.107768 -0.435115
0.286960 -0.436036 -0.116451
0.286960 -0.451499 0.055622
0.286960 0.492894 0.048033
0.286960 -0.457110 -0.067869
0.286960 -0.388110 -0.222502
0.286960 0.170956 -0.443144
0.286960 0.041395 -0.498351
0.286960 0.033992 0.472931
0.286960 -0.472975 0.035991
0.286960 0.104853 0.471944
0.286960 -0.182250 0.423097
0.286960 -0.437156 0.191326
0.286960 -0.486190 0.004273
0.286960 -0.482941 0.050660
0.286960 0.281325 -0.348889
0.286960 0.434748 -0.215861
0.286960 0.139160 -0.437467
0.286960 0.083829 0.484362
0.286960 0.488638 0.009162
0.286960 0.254414 0.408055
0.286960 0.257757 -0.396447
0.286960 0.291570 -0.356456
0.286960 -0.146235 0.441231
0.286960 0.287986 -0.358212
0.286960 0.493208 -0.061201
0.286960 -0.417305 0.241107
0.286960 0.306618 0.334158
0.286960 0.462865 0.015492
0.286960 0.233106 0.379812
0.286960 -0.422902 -0.235922
0.286960 0.463458 0.079576
0.286960 0.049931 0.479656
0.286960 -0.446605 -0.112860
0.286960 0.453429 -0.077362
0.286960 -0.458312 0.116932
0.286960 -0.143837 -0.460248
0.286960 -0.428218 0.167917
0.286960 0.443881 -0.162507
0.286960 0.428151 0.199979
0.286960 -0.338833 -0.319722
0.286960 0.137637 0.470898
0.286960 -0.459997 -0.182440
0.286960 0.024173 -0.455499
0.286960 -0.159465 -0.447789
0.286960 -0.419221 -0.251816
0.286960 -0.373311 0.293179
0.286960 -0.045379 -0.454987
0.286960 -0.452344 0.103971
0.286960 -0.300820 -0.380014
0.286960 0.327182 -0.332667
0.286960 -0.462021 0.085588
0.286960 -0.413884 0.207191
0.286960 -0.406344 0.260420
0.286960 0.247353 -0.378404
0.286960 0.160250 -0.437917
0.286960 -0.406283 -0.265639
0.286960 0.272238 0.375551
0.286960 0.418266 0.220043
0.286960 0.441195 0.199309
0.286960 -0.428969 -0.233067
0.286960 0.000539 -0.466069
0.286960 0.477468 -0.065341
0.286960 -0.224159 -0.440436
0.286960 -0.253887 -0.369159
0.286960 -0.148744 -0.422154
0.286960 0.423524 0.179477
0.286960 -0.248030 -0.398398
0.286960 0.241695 -0.420721
0.286960 0.157529 0.414731
0.286960 -0.379540 -0.300478
0.286960 0.273153 -0.401985
0.286960 0.448531 -0.121649
0.286960 0.468469 0.007589
0.286960 -0.348102 0.338329
0.286960 -0.315154 0.324100
0.286960 -0.388863 0.300270
0.286960 0.452086 0.127938
0.286960 -0.079616 -0.467174
0.286960 -0.437519 0.109671
0.286960 0.432947 -0.194060
0.286960 -0.425747 0.199076
0.286960 0.349765 -0.335890
0.286960 -0.460625 0.170619
0.286960 -0.380455 -0.253333
0.286960 0.042088 -0.475652
0.286960 0.433669 0.164486
0.286960 -0.250184 0.388675
0.286960 -0.443915 0.099553
0.286960 -0.289654 0.345251
0.286960 0.226783 0.389723
0.286960 0.469015 0.066131
0.286960 -0.330291 -0.350894
0.286960 0.453677 0.146978
0.286960 0.287047 0.362971
0.286960 0.430237 0.143575
0.286960 0.324538 0.350646
0.286960 0.328503 0.350474
0.286960 -0.463615 0.016667
0.286960 0.207730 0.415636
0.286960 0.158169 0.437517
0.286960 0.454337 0.109903
0.286960 -0.031090 -0.477263
0.286960 -0.108243 -0.454181
0.286960 0.025367 -0.451527
0.286960 -0.212668 -0.452212
0.286960 -0.447390 -0.000692
0.286960 -0.291434 0.352866
0.286960 0.410600 0.193777
0.286960 -0.155885 0.444514
0.286960 -0.077507 -0.461316
0.286960 0.113115 0.479660
0.286960 -0.079690 -0.491118
0.286960 -0.405288 0.209092
0.286960 0.308728 -0.324548
0.286960 0.033393 -0.487160
0.286960 0.052864 0.470650
0.286960 0.220804 0.420193
0.286960 -0.445760 0.121274
0.286960 0.415269 -0.255263
0.286960 -0.492015 0.066795
0.286960 0.045782 0.445013
0.286960 0.385980 0.299293
0.286960 -0.397314 0.216672
0.286960 0.434339 0.209828
0.286960 -0.097851 -0.464101
0.286960 -0.429219 0.164619
0.286960 0.475862 0.031882
0.286960 -0.289183 0.388070
0.286960 0.298494 0.390649
0.286960 -0.110213 -0.481561
0.286960 -0.241841 0.371465
0.286960 0.478891 -0.102767
0.286960 0.453233 -0.087978
0.286960 0.458291 -0.165441
0.286960 0.205295 -0.439498
0.286960 0.201063 -0.408941
0.286960 -0.429109 0.199576
0.286960 -0.391966 -0.222167
0.286960 0.070634 0.450445
0.286960 0.297602 -0.349379
0.286960 -0.241565 -0.412088
0.286960 -0.277889 -0.358957
0.286960 0.257742 0.413326
0.286960 0.469103 -0.167645
0.286960 0.013644 -0.479806
0.286960 -0.374035 0.301885
0.286960 -0.314134 0.383211
0.286960 -0.308578 0.376681
0.286960 0.424213 0.166430
0.286960 0.132739 -0.468783
0.286960 0.402424 -0.258561
0.286960 -0.363745 -0.269525
0.286960 0.104018 -0.435573
0.286960 -0.437039 -0.123526
0.286960 0.380499 0.259299
0.286960 0.255380 -0.368196
0.286960 0.107668 0.459029
0.286960 -0.183947 -0.411809
0.286960 -0.441541 -0.218694
0.286960 0.463734 0.044040
0.286960 -0.342509 0.356425
0.286960 0.212918 -0.437111
0.286960 0.245410 -0.412549
0.286960 0.272983 0.412287
0.286960 0.209970 -0.404792
0.286960 -0.478174 0.134020
0.286960 -0.062561 -0.465103
0.286960 0.113713 0.449757
0.286960 0.401473 0.267520
0.286960 0.156516 -0.465427
0.286960 -0.111795 -0.470547
0.286960 0.435644 -0.098365
0.286960 0.497772 -0.006100
0.286960 -0.254609 -0.412917
0.286960 0.292225 0.392411
0.286960 0.335057 -0.312518
0.286960 0.459774 -0.034593
0.286960 0.488098 -0.035372
0.286960 -0.278542 -0.379739
0.286960 -0.300330 -0.352614
0.286960 -0.465244 -0.071813
0.286960 0.377236 -0.281263
0.286960 0.493871 -0.057715
0.286960 -0.262164 0.385380
0.286960 0.179495 -0.456945
0.286960 -0.358347 0.319582
0.286960 -0.329888 0.325359
0.286960 -0.415877 -0.221936
0.286960 0.171136 0.423561
0.286960 -0.000310 0.449082
0.286960 0.343673 -0.348599
0.286960 -0.477935 -0.050106
0.286960 0.231151 -0.405427
0.286960 -0.052185 0.444643
0.286960 0.415184 0.266524
0.286960 0.161753 0.462694
0.286960 0.281109 0.393168
0.286960 0.173815 0.408258
0.286960 -0.016851 0.451229
0.286960 -0.371632 -0.332132
0.286960 0.257967 0.383051
0.286960 0.315314 -0.324314
0.286960 0.361153 -0.269618
0.286960 0.002695 0.476636
0.286960 -0.317072 -0.327296
0.286960 0.145138 0.459339
0.286960 -0.457093 -0.178798
0.286960 -0.110835 -0.477639
0.286960 0.055717 -0.496988
0.286960 -0.322371 0.308757
0.286960 0.148500 0.426638
0.286960 -0.479758 0.043050
0.286960 0.150215 0.439117
0.286960 0.468341 -0.105653
0.286960 -0.440771 0.209031
0.286960 -0.097612 0.442527
0.286960 0.260751 0.391501
0.286960 -0.451930 0.144421
0.286960 -0.232446 0.432999
0.286960 -0.409161 0.243623
0.286960 0.453297 -0.133846
0.286960 0.358605 0.326832
0.286960 -0.106861 -0.483823
0.286960 -0.071855 0.462564
0.286960 0.260259 0.410689
0.286960 -0.285664 -0.360105
0.286960 0.221710 -0.398905
0.286960 -0.299718 0.343662
0.286960 -0.172576 0.444523
0.286960 -0.461755 0.125793
0.286960 0.004674 0.455441
0.286960 -0.382987 0.314482
0.286960 0.395876 -0.268340
0.286960 -0.367646 -0.260569
0.286960 0.484654 -0.037853
0.286960 -0.083133 0.438735
0.286960 -0.480714 -0.035654
0.286960 0.446139 -0.013321
0.286960 -0.346263 -0.291730
0.286960 -0.368867 0.272728
0.286960 0.161020 -0.453289
0.286960 -0.239414 0.429856
0.286960 -0.193730 -0.448426
0.286960 -0.424429 -0.135384
0.286960 0.051082 0.482960
0.286960 0.464136 -0.115764
0.286960 -0.092141 0.433360
0.286960 -0.035049 -0.488438
0.286960 0.418907 -0.175552
0.286960 0.393142 0.279330
0.286960 0.486734 -0.075173
0.286960 -0.278660 0.356925
0.286960 -0.383222 -0.231223
0.286960 0.421103 -0.178699
0.286960 -0.047382 0.444251
0.286960 -0.238678 0.386979
0.286960 -0.411845 -0.194166
0.286960 0.031531 0.465363
0.286960 0.169605 0.460876
0.286960 0.159833 -0.442416
0.286960 0.324833 0.335313
0.286960 0.448325 -0.024538
0.286960 -0.064703 -0.451580
0.286960 0.057874 -0.453503
0.286960 -0.410955 0.218400
0.286960 0.252954 -0.409562
0.286960 -0.451735 0.169374
0.286960 0.239555 -0.431912
0.286960 -0.391874 -0.284334
0.286960 0.419635 -0.244661
0.286960 -0.483208 0.009188
0.286960 0.411357 -0.174763
0.286960 0.462828 -0.165007
0.286960 0.089967 0.484011
0.286960 -0.355134 -0.330010
0.286960 -0.274042 -0.385190
0.286960 -0.031906 0.459173
0.286960 -0.454401 0.151307
0.286960 0.262325 0.359281
0.286960 -0.441039 0.217516
0.286960 0.408918 0.246810
0.286960 -0.391222 -0.292884
0.286960 -0.300173 -0.397128
0.286960 0.062454 0.453668
0.286960 -0.469790 -0.060151
0.286960 0.088450 0.472979
0.286960 -0.380791 -0.281221
0.286960 -0.414930 -0.213522
0.286960 0.211651 0.425855
0.286960 0.010365 0.480453
0.286960 -0.402665 0.255878
0.286960 0.202646 0.411759
0.286960 0.162591 0.466700
0.286960 -0.406175 -0.246669
0.286960 0.298870 -0.359145
0.286960 -0.461764 -0.082665
0.286960 0.060902 -0.477615
0.286960 0.453606 -0.004726
0.286960 -0.418721 -0.181436
0.286960 0.418663 -0.169398
0.286960 -0.069230 0.446679
0.286960 -0.038167 -0.476201
0.286960 0.433798 0.130308
0.286960 -0.431657 -0.225309
0.286960 0.346114 -0.316091
0.286960 0.021951 -0.451663
0.286960 0.309247 0.332307
0.286960 0.441931 -0.109491
0.286960 -0.208617 -0.451625
0.286960 -0.272667 0.364089
0.286960 -0.004790 0.478024
0.286960 -0.413259 0.235933
0.286960 0.057653 0.450841
0.286960 0.479888 -0.080727
0.286960 0.208248 0.403885
0.286960 -0.325504 0.343549
0.286960 0.456041 -0.179464
0.286960 0.447720 -0.174376
0.286960 -0.341747 -0.339187
0.286960 0.079920 -0.453763
0.286960 0.315852 0.355137
0.286960 0.356507 0.309106
0.286960 0.315479 0.328066
0.286960 0.378014 -0.307837
0.286960 0.451641 0.041932
0.286960 0.451054 0.090573
0.286960 -0.034890 0.475900
0.286960 -0.421742 -0.169295
0.286960 -0.409186 0.224609
0.286960 0.463497 -0.159441
0.286960 -0.418886 0.255594
0.286960 0.476331 -0.051559
0.286960 0.099758 0.434915
0.286960 0.387258 0.288492
0.286960 0.128936 -0.449822
0.286960 -0.342579 -0.317216
0.286960 0.400328 -0.223693
0.286960 -0.228845 -0.420760
0.286960 0.259609 0.368335
0.286960 0.330728 -0.332957
0.286960 0.180126 -0.416068
0.286960 -0.132152 0.453026
0.286960 -0.447978 -0.023171
0.286960 -0.300533 -0.336629
0.286960 -0.439920 0.098086
0.286960 -0.011221 -0.475224
0.286960 -0.192562 -0.404134
0.286960 0.277670 0.388876
0.286960 0.233384 -0.394821
0.286960 -0.427360 0.159070
0.286960 -0.243685 0.378448
0.286960 0.375049 -0.309898
0.286960 -0.481938 -0.057250
0.286960 -0.348758 -0.311668
0.286960 0.360531 -0.319144
0.286960 0.439610 0.135318
0.286960 -0.466141 -0.092350
0.286960 -0.310474 -0.387250
0.286960 -0.429573 0.187856
0.286960 -0.345953 -0.352496
0.286960 -0.120769 0.436271
0.286960 0.311020 -0.384132
0.286960 0.148945 0.459819
0.286960 0.143491 0.437106
0.286960 -0.094703 0.485957
0.286960 -0.440099 -0.070892
0.286960 0.311826 0.329777
0.286960 -0.468162 -0.151608
0.286960 0.163916 0.439272
0.286960 -0.463386 0.064335
0.286960 0.350742 -0.339628
0.286960 0.291713 0.396316
0.286960 -0.335518 -0.324422
0.286960 0.360402 -0.285165
0.286960 0.274473 0.360003
0.286960 -0.056587 -0.487144
0.286960 0.014549 -0.489085
0.286960 -0.345620 -0.285973
0.286960 -0.259172 0.394750
0.286960 0.450842 0.027606
0.286960 0.332789 -0.354333
0.286960 0.463662 0.179553
0.286960 0.454346 -0.192437
0.286960 -0.060194 -0.457991
0.286960 -0.461895 -0.175180
0.286960 0.295361 -0.377317
0.286960 -0.069036 -0.483333
0.286960 0.457611 0.062125
0.286960 0.452951 0.075906
0.286960 -0.408682 -0.188095
0.286960 0.438293 0.147029
0.286960 -0.437282 -0.141228
0.286960 0.240432 -0.387180
0.286960 0.185265 -0.419316
0.286960 -0.406648 0.233645
0.286960 0.172430 -0.419539
0.286960 0.443067 -0.188974
0.286960 0.312111 0.315952
0.286960 -0.450080 0.031978
0.286960 -0.218734 0.435392
0.286960 -0.311087 -0.376760
0.286960 -0.192091 0.430077
0.286960 0.368842 0.323069
0.286960 0.400399 0.222002
0.286960 0.444522 0.196818
0.286960 0.240902 0.399125
0.286960 0.221709 -0.438918
0.286960 0.398908 -0.293887
0.286960 0.093189 0.469205
0.286960 -0.210471 -0.425574
0.286960 -0.175783 -0.421372
0.286960 -0.387224 -0.267343
0.286960 0.489259 -0.013170
0.286960 0.035035 -0.497705
0.286960 -0.020622 -0.461425
0.286960 0.312734 0.355745
0.286960 0.067934 -0.461052
0.286960 -0.301464 0.334921
0.286960 -0.461029 0.183877
0.286960 -0.287854 -0.403280
0.286960 0.430423 -0.206220
0.286960 0.136472 -0.442833
0.286960 -0.468139 0.077268
0.286960 -0.109260 -0.466765
0.286960 0.447271 -0.067000
0.286960 0.170300 0.436017
0.286960 -0.477706 0.103666
0.286960 0.290156 -0.352430
0.286960 -0.385670 -0.295969
0.286960 -0.473956 0.024821
0.286960 0.456400 -0.087469
0.286960 -0.485052 -0.095250
0.286960 0.021341 -0.484363
0.286960 0.182538 0.445944
0.286960 0.470871 -0.100481
0.286960 0.451445 0.191365
0.286960 0.370528 -0.280805
0.286960 0.083173 0.480707
0.286960 -0.260178 0.370729
0.286960 0.495575 -0.040063
0.286960 0.294008 0.337394
0.286960 -0.468024 0.090023
0.286960 -0.468144 -0.143345
0.286960 0.281384 0.403255
0.286960 0.201831 -0.431678
0.286960 -0.143725 0.438420
0.286960 -0.114368 -0.449613
0.286960 0.284918 0.359129
0.286960 0.321168 -0.338030
0.286960 0.456563 -0.156451
0.286960 -0.323440 0.347153
0.286960 -0.281315 0.359297
0.286960 0.216945 -0.413412
0.286960 0.335111 0.336740
0.286960 -0.340191 0.336883
0.286960 -0.041617 0.474876
0.286960 0.369478 0.315870
0.286960 -0.419826 -0.234659
0.286960 -0.479416 -0.060292
0.286960 0.447915 0.157644
0.286960 0.460883 -0.004083
0.286960 0.202390 0.399894
0.286960 0.093843 0.485155
0.286960 0.158501 -0.434229
0.286960 0.290157 -0.361687
0.286960 0.443808 -0.192235
0.286960 0.366840 0.272341
0.286960 0.356343 0.273614
0.286960 0.377278 0.251857
0.286960 0.464453 -0.063192
0.286960 -0.139067 0.429718
0.286960 0.385908 -0.310012
0.286960 0.358508 0.303171
0.286960 -0.003510 -0.457782
0.286960 0.403394 -0.271243
0.286960 0.432593 -0.246369
0.286960 0.080384 -0.481235
0.286960 0.253294 0.399100
0.286960 -0.448117 -0.207045
0.286960 0.436071 -0.120753
0.286960 0.017882 0.461438
0.286960 -0.444763 0.130283
0.286960 -0.101228 0.458331
0.286960 -0.447860 0.184860
0.286960 -0.202563 0.422841
0.286960 -0.223238 -0.416472
0.286960 0.454890 -0.195885
0.286960 -0.067623 -0.471397
0.286960 -0.131536 0.446528
0.286960 -0.213236 0.433521
0.286960 0.414246 -0.266235
0.286960 0.149889 0.446061
0.286960 -0.289246 0.356452
0.286960 -0.240547 0.383743
0.286960 -0.458772 -0.088864
0.286960 0.339241 0.327868
0.286960 -0.380438 -0.308172
0.286960 -0.471199 0.129186
0.286960 0.281706 0.371142
0.286960 0.281227 0.374631
0.286960 -0.454536 -0.093964
0.286960 0.375645 0.286768
0.286960 0.269988 -0.386686
0.286960 -0.123323 0.449710
0.286960 -0.418350 -0.248803
0.286960 -0.075715 -0.453154
0.286960 0.459261 0.003288
0.286960 -0.271335 0.390202
0.286960 -0.228940 0.433488
0.286960 0.318833 0.353385
0.286960 -0.274907 0.409434
0.286960 -0.466813 0.068204
0.286960 0.443689 -0.094704
0.286960 0.463893 -0.067229
0.286960 -0.205943 -0.425342
0.286960 -0.377081 0.304499
0.286960 0.405424 0.232293
0.286960 -0.277378 0.402944
0.286960 -0.378402 0.238811
0.286960 -0.434226 -0.125326
0.286960 0.470287 0.081698
0.286960 -0.493376 -0.035997
0.286960 -0.062959 0.483820
0.286960 -0.448086 0.028580
0.286960 0.417434 0.232193
0.286960 0.364332 0.277031
0.286960 0.108066 -0.450122
0.286960 -0.467418 -0.099748
0.286960 -0.479725 0.128140
0.286960 -0.440844 -0.151751
0.286960 0.291146 0.360757
0.286960 0.433014 0.159310
0.286960 -0.139007 -0.468606
0.286960 0.466058 0.062936
0.286960 0.006617 0.467092
0.286960 -0.231040 0.379751
0.286960 0.472216 -0.161845
0.286960 0.450697 0.149150
0.286960 -0.444879 0.008984
0.286960 -0.443866 0.036093
0.286960 0.430860 -0.235717
0.286960 0.058079 -0.447777
0.286960 0.455638 0.053197
0.286960 0.354411 -0.302105
0.286960 0.457996 -0.128867
0.286960 -0.418616 -0.158106
0.286960 -0.472945 0.051146
0.286960 -0.319046 0.337778
0.286960 -0.411719 -0.260168
0.286960 0.327598 0.347123
0.286960 0.460294 -0.139526
0.286960 -0.345819 -0.332019
0.286960 -0.331980 0.334532
0.286960 0.422516 -0.150000
0.286960 0.421562 0.191493
0.286960 -0.017472 -0.478156
0.286960 -0.183698 0.456346
0.286960 0.324684 0.375291
0.286960 -0.069150 0.442983
0.286960 0.089081 0.479518
0.286960 0.170020 0.431124
0.286960 -0.073420 -0.462347
0.286960 -0.479559 -0.047082
0.286960 0.448576 -0.094431
0.286960 0.401914 0.255962
0.286960 0.455571 0.150108
0.286960 -0.425027 -0.242554
0.286960 -0.168715 0.410245
0.286960 -0.170414 0.429499
0.286960 0.334386 -0.337242
0.286960 0.426943 0.226492
0.286960 -0.360222 -0.277682
0.286960 0.215691 -0.450276
0.286960 -0.384776 -0.251688
0.286960 0.240364 -0.408708
0.286960 0.373965 -0.300045
0.286960 -0.385466 -0.301195
0.286960 -0.382349 -0.278196
0.286960 -0.469440 -0.012444
0.286960 0.108297 0.469721
0.286960 0.254826 -0.425682
0.286960 -0.408479 -0.258667
0.286960 0.265194 -0.388602
0.286960 0.104868 -0.482207
0.286960 -0.400851 -0.202371
0.286960 -0.433265 -0.231700
0.286960 -0.333128 0.302460
0.286960 -0.110951 -0.448208
0.286960 -0.164470 -0.468233
0.286960 0.398812 -0.234937
0.286960 -0.140272 -0.476357
0.286960 -0.293054 0.363343
0.286960 -0.276609 -0.396780
0.286960 0.042186 0.467379
0.286960 -0.369126 -0.309366
0.286960 -0.418615 0.265239
0.286960 -0.074954 0.449718
0.286960 -0.027040 0.479208
0.286960 0.411534 -0.178685
0.286960 -0.466926 0.086466
0.286960 -0.228019 -0.384338
0.286960 -0.046180 0.451609
0.286960 -0.196719 0.420423
0.286960 -0.415746 0.238282
0.286960 0.399099 0.275790
0.286960 0.468827 0.040224
0.286960 0.054904 -0.452811
0.286960 -0.036520 0.483122
0.286960 0.338211 -0.311677
0.286960 0.422493 0.195099
0.286960 0.197748 -0.408416
0.286960 -0.482872 -0.114247
0.286960 0.272677 0.387556
0.286960 0.453733 -0.092073
0.286960 -0.384223 -0.292039
0.286960 0.131586 -0.438224
0.286960 0.128183 -0.468099
0.286960 -0.480592 0.027878
0.286960 -0.271742 0.407402
0.286960 -0.452009 -0.098806
0.286960 -0.040681 0.445813
0.286960 0.010223 -0.470454
0.286960 -0.284110 -0.408683
0.286960 0.472058 0.143961
0.286960 -0.285457 0.384618
0.286960 -0.191678 -0.420013
0.286960 -0.459354 -0.014146
0.286960 0.382343 0.240234
0.286960 0.461334 -0.030001
0.286960 0.048723 -0.497009
0.286960 -0.063252 -0.493387
0.286960 -0.461274 0.120236
0.286960 -0.407271 0.272518
0.286960 -0.175192 0.429997
0.286960 0.273394 -0.384700
0.286960 -0.428319 -0.246638
0.286960 -0.316323 -0.384819
0.286960 -0.172507 -0.423061
0.286960 -0.391901 0.273172
0.286960 0.435180 -0.240623
0.286960 0.484705 -0.117871
0.286960 -0.294776 -0.362339
0.286960 0.151776 -0.434616
0.286960 -0.442512 0.044459
0.286960 -0.412833 -0.206597
0.286960 0.202763 -0.441766
0.286960 0.156012 0.458825
0.286960 0.396539 0.298820
0.286960 -0.489210 -0.051459
0.286960 -0.480227 0.076887
0.286960 -0.220808 -0.420212
0.286960 0.114910 0.446759
0.286960 0.084592 0.462803
0.286960 0.282637 -0.410933
0.286960 0.323915 0.330085
0.286960 0.271746 -0.395189
0.286960 -0.447812 -0.099679
0.286960 -0.421655 0.206838
0.286960 -0.083005 0.483758
0.286960 0.007658 0.495201
0.286960 -0.215478 -0.402096
0.286960 0.424023 -0.199228
0.286960 -0.189773 -0.455316
0.286960 -0.377876 -0.246211
0.286960 -0.406780 -0.288639
0.286960 0.446879 -0.063467
0.286960 0.301960 0.327607
0.286960 0.263417 -0.374860
0.286960 -0.286082 -0.369456
0.286960 0.143856 -0.449454
0.286960 -0.444963 -0.014180
0.286960 0.482832 -0.012642
0.286960 0.239234 -0.412302
0.286960 0.043245 0.476962
0.286960 0.055742 0.468080
0.286960 0.171235 -0.469972
0.286960 0.187044 0.433085
0.286960 0.312815 -0.340207
0.286960 -0.035816 -0.482299
0.286960 -0.478793 -0.025972
0.286960 -0.067143 0.463818
0.286960 -0.402435 0.223314
0.286960 0.472300 -0.080218
0.286960 -0.105659 -0.457765
0.286960 -0.111029 0.438413
0.286960 -0.097766 0.476676
0.286960 0.444284 0.135938
0.286960 -0.347710 0.346212
0.286960 0.065584 -0.458751
0.286960 -0.442108 0.059714
0.286960 0.166444 0.462053
0.286960 0.412155 0.190097
0.286960 0.305115 0.371690
0.286960 0.210135 -0.395219
0.286960 0.332745 -0.314579
0.286960 0.445385 -0.071116
0.286960 0.152497 -0.420766
0.286960 -0.480581 0.073079
0.286960 0.425421 0.158395
0.286960 -0.480227 -0.086157
0.286960 -0.031208 0.444798
0.286960 0.113743 -0.454424
0.286960 -0.494526 0.024209
0.286960 0.315369 0.342209
0.286960 0.356020 0.286263
0.286960 -0.116214 0.470646
0.286960 -0.234445 -0.411059
0.286960 0.347530 -0.346559
0.286960 0.469460 -0.093729
0.286960 0.498217 0.009316
0.286960 0.337657 -0.329433
0.286960 0.202892 -0.453538
0.286960 0.466280 0.174029
0.286960 0.074686 -0.451815
0.286960 -0.486280 -0.036509
0.286960 0.383937 -0.276327
0.286960 -0.147951 0.461366
0.286960 0.439808 0.075869
0.286960 0.318572 -0.335575
0.286960 0.448083 -0.036154
0.286960 -0.474598 0.125904
0.286960 0.139642 0.463672
0.286960 0.103197 -0.444858
0.286960 0.271968 0.350769
0.286960 -0.403807 -0.218785
0.286960 -0.306664 0.331103
0.286960 -0.473194 0.062704
0.286960 0.360452 -0.278212
0.286960 0.476412 -0.043666
0.286960 0.033442 -0.472108
0.286960 -0.470191 0.007291
0.286960 -0.452729 0.131536
0.286960 0.465966 -0.168513
0.286960 0.418558 0.204882
0.286960 -0.348366 -0.279383
0.286960 0.436860 0.181689
0.286960 0.442347 -0.159030
0.286960 0.303370 -0.395399
0.286960 0.357827 0.315781
0.286960 0.283770 -0.388178
0.286960 0.230219 0.415107
0.286960 0.191515 0.426504
0.286960 0.089960 -0.461359
0.286960 -0.077179 0.476005
0.286960 -0.386400 0.262628
0.286960 -0.299217 -0.382965
0.286960 -0.445833 -0.214468
0.286960 -0.430993 -0.149263
0.286960 -0.146314 0.467569
0.286960 -0.427516 0.178267
0.286960 0.237703 0.415115
0.286960 0.437056 0.159724
0.286960 -0.151829 -0.450084
0.286960 -0.217720 -0.441932
0.286960 0.463463 0.161477
0.286960 0.270343 0.379833
0.286960 -0.452900 -0.129195
0.286960 -0.438202 -0.217387
0.286960 -0.253182 -0.373052
0.286960 -0.459465 0.131923
0.286960 -0.428652 0.156014
0.286960 0.185302 -0.427981
0.286960 0.205406 -0.421560
0.286960 0.306121 -0.348499
0.286960 0.187542 -0.450398
0.286960 0.498342 -0.012432
0.286960 -0.060164 -0.492121
0.286960 -0.037875 0.456239
0.286960 0.312033 0.359752
0.286960 0.002373 -0.459163
0.286960 -0.487608 0.035211
0.286960 0.433716 -0.131326
0.286960 0.260271 -0.389104
0.286960 0.256617 0.366233
0.286960 0.208307 -0.423576
0.286960 0.023348 0.461712
0.286960 0.403226 0.259883
0.286960 0.295299 -0.335954
0.286960 0.008500 0.463792
0.286960 0.159155 -0.424331
0.286960 0.216582 -0.406717
0.286960 -0.425171 0.254226
0.286960 0.446700 0.032771
0.286960 0.278133 0.376669
0.286960 0.357915 0.306278
0.286960 -0.426910 0.149146
0.286960 -0.456467 -0.162811
0.286960 -0.364050 0.334409
0.286960 -0.444525 0.166839
0.286960 0.063379 -0.461260
0.286960 0.340405 -0.300592
0.286960 0.129426 0.452498
0.286960 -0.101692 0.447444
0.286960 -0.296480 -0.338192
0.286960 -0.415946 0.171841
0.286960 0.081082 0.461992
0.286960 -0.396194 -0.261642
0.286960 0.023068 0.442650
0.286960 0.006547 0.489184
0.286960 -0.004538 0.474512
0.286960 0.417006 0.160819
0.286960 -0.371014 -0.302599
0.286960 0.478682 0.071989
0.286960 0.278217 0.346880
0.286960 0.056349 0.458701
0.286960 0.210986 -0.412928
0.286960 0.240545 -0.383494
0.286960 -0.368291 0.320204
0.286960 0.039271 -0.487683
0.286960 -0.177058 0.417094
0.286960 -0.248199 0.382328
0.286960 0.487833 -0.105018
0.286960 -0.243244 0.382089
0.286960 0.462094 -0.076481
0.286960 -0.461890 0.012931
0.286960 -0.447882 -0.210834
0.286960 -0.189412 -0.447752
0.286960 -0.452049 0.018935
0.286960 -0.376414 -0.317501
0.286960 -0.462207 -0.098914
0.286960 0.390182 -0.305965
0.286960 0.176293 -0.454356
0.286960 0.456267 -0.061844
0.286960 0.304593 -0.340884
0.286960 -0.168285 -0.444941
0.286960 -0.000580 0.494296
0.286960 0.416479 0.251834
0.286960 -0.391104 -0.215875
0.286960 0.280719 -0.373224
0.286960 -0.417422 0.234593
0.286960 0.217631 0.421032
0.286960 -0.414850 -0.187589
0.286960 -0.437611 0.079395
0.286960 -0.444122 0.142387
0.286960 0.456485 -0.075764
0.286960 -0.246339 0.384982
0.286960 -0.238946 -0.424675
0.286960 0.279840 0.379496
0.286960 -0.356550 0.340553
0.286960 0.429577 0.135849
0.286960 0.394042 0.302211
0.286960 -0.129023 -0.432547
0.286960 -0.460102 0.081858
0.286960 0.133786 -0.440674
0.286960 -0.424499 -0.188492
0.286960 -0.488628 -0.091693
0.286960 0.287659 0.352407
0.286960 -0.117564 0.446186
0.286960 -0.447727 0.078850
0.286960 -0.030445 0.448529
0.286960 -0.197506 0.399021
0.286960 -0.441709 -0.055578
0.286960 -0.460712 -0.045411
0.286960 0.476573 -0.088218
0.286960 -0.336550 0.303470
0.286960 0.373721 0.293742
0.286960 0.360413 0.290939
0.286960 -0.362922 -0.336922
0.286960 0.445359 -0.104040
0.286960 0.145567 -0.434386
0.286960 -0.183736 -0.427040
0.286960 0.349021 -0.319978
0.286960 0.186349 -0.411982
0.286960 0.339869 0.294959
0.286960 -0.288992 0.393599
0.286960 0.031554 -0.458500
0.286960 0.312971 0.332869
0.286960 -0.482422 -0.041231
0.286960 -0.233738 0.387443
0.286960 0.258635 0.376760
0.286960 0.399671 -0.262417
0.286960 -0.112133 -0.451955
0.286960 0.236324 0.375958
0.286960 -0.010964 0.477303
0.286960 0.448660 0.039988
0.286960 0.477987 0.052791
0.286960 0.474376 0.028756
0.286960 0.450209 0.195352
0.286960 -0.080370 0.478592
0.286960 0.147909 -0.459494
0.286960 -0.495101 -0.046440
0.286960 0.444793 0.214772
0.286960 0.340670 0.354020
0.286960 0.417400 -0.268729
0.286960 -0.141571 0.446746
0.286960 0.378355 -0.263711
0.286960 0.422565 -0.191413
0.286960 -0.417478 -0.189349
0.286960 0.252083 0.367581
0.286960 -0.451564 0.128503
0.286960 0.317307 0.320366
0.286960 -0.277015 0.348234
0.286960 0.315018 -0.329162
0.286960 0.241339 0.412609
0.286960 -0.459941 -0.171550
0.286960 0.282075 -0.376209
0.286960 -0.438126 -0.190043
0.286960 0.478457 -0.054348
0.286960 -0.111693 -0.455311
0.286960 -0.467543 -0.120896
0.286960 0.042381 0.483789
0.286960 -0.475317 0.046990
0.286960 0.026601 -0.464194
0.286960 0.096460 -0.438795
0.286960 0.114582 0.457741
0.286960 0.394835 0.249441
0.286960 -0.127322 -0.453372
0.286960 -0.081414 0.463925
0.286960 -0.458530 -0.018643
0.286960 0.390478 0.251383
0.286960 -0.239118 -0.436581
0.286960 -0.448492 -0.089431
0.286960 0.028174 0.452085
0.286960 0.296611 -0.362535
0.286960 0.485824 0.103788
0.286960 0.456105 -0.170894
0.286960 -0.322166 0.334501
0.286960 -0.270615 -0.403236
0.286960 0.221545 -0.422079
0.286960 0.152486 0.468740
0.286960 0.220580 -0.395465
0.286960 0.469087 0.013400
0.286960 -0.257894 0.383168
0.286960 -0.444223 -0.195660
0.286960 0.188773 0.416982
0.286960 -0.393188 -0.225090
0.286960 0.212987 0.443598
0.286960 0.024609 0.473521
0.286960 -0.078389 0.462431
0.286960 0.120449 0.473531
0.286960 0.049521 -0.486925
0.286960 -0.474287 0.031137
0.286960 -0.020718 -0.448276
0.286960 -0.400804 -0.240462
0.286960 0.222126 -0.446498
0.286960 0.215981 -0.429652
0.286960 0.364460 -0.326388
0.286960 0.315195 0.335651
0.286960 -0.442034 0.047822
0.286960 0.410383 -0.215529
0.286960 -0.440265 -0.090056
0.286960 -0.356815 -0.295349
0.286960 0.179533 -0.434830
0.286960 -0.000407 -0.492844
0.286960 -0.464507 -0.156940
0.286960 -0.197709 -0.412788
0.286960 -0.461565 -0.025978
0.286960 0.404323 -0.274910
0.286960 0.116446 0.468966
0.286960 -0.461176 -0.070042
0.286960 0.370084 0.295357
0.286960 0.074420 -0.448721
0.286960 0.024465 -0.467170
0.286960 0.465872 -0.056144
0.286960 -0.250777 0.365519
0.286960 0.438274 -0.182746
0.286960 -0.444197 0.200139
0.286960 -0.225422 -0.394615
0.286960 -0.012710 -0.494506
0.286960 0.471109 0.138816
0.286960 0.147437 -0.473452
0.286960 0.032209 0.470263
0.286960 0.417830 -0.179321
0.286960 -0.417267 -0.173927
0.286960 0.362026 0.328344
0.286960 -0.104254 0.441063
0.286960 0.165136 0.447240
0.286960 0.377209 0.238250
0.286960 -0.370005 0.269518
0.286960 -0.036686 0.441977
0.286960 -0.017286 -0.462522
0.286960 0.278533 0.410741
0.286960 0.052047 0.448738
0.286960 0.351190 -0.315986
0.286960 0.400006 0.195663
0.286960 -0.327789 0.308157
0.286960 0.339062 -0.325987
0.286960 -0.326146 0.316611
0.286960 0.384733 0.268096
0.286960 -0.387334 0.269807
0.286960 -0.480974 -0.002165
0.286960 0.433251 -0.124093
0.286960 0.018534 -0.479871
0.286960 0.275741 0.381996
0.286960 0.363789 -0.276482
0.286960 0.170546 -0.446994
0.286960 -0.109392 -0.486380
0.286960 0.446912 -0.002240
0.286960 0.384616 0.302275
0.286960 -0.413717 0.178738
0.286960 -0.015717 0.474606
0.286960 0.455393 0.036564
0.286960 0.466375 0.055361
0.286960 0.220927 0.423901
0.286960 -0.032983 0.482026
0.286960 -0.027709 -0.464467
0.286960 0.480539 -0.039341
0.286960 0.186722 -0.408205
0.286960 -0.399449 -0.266425
0.286960 0.475092 -0.078107
0.286960 0.261692 -0.406065
0.286960 0.046858 0.480530
0.286960 0.109024 -0.461318
0.286960 -0.473968 0.119385
0.286960 -0.496276 0.021304
0.286960 -0.445641 0.002987
0.286960 0.451067 -0.022921
0.286960 -0.455712 -0.152451
0.286960 -0.112576 -0.433803
0.286960 -0.469568 0.000288
0.286960 -0.192373 0.400720
0.286960 0.337672 -0.293097
0.286960 -0.455803 0.028460
0.286960 -0.141396 0.464738
0.286960 0.380278 0.306856
0.286960 0.465180 0.006257
0.286960 0.010728 -0.474652
0.286960 0.463443 0.165437
0.286960 -0.393176 0.262285
0.286960 -0.347928 0.276432
0.286960 0.464821 0.157277
0.286960 0.158283 -0.445654
0.286960 0.461312 0.154631
0.286960 -0.324564 0.364219
0.286960 -0.444571 -0.090507
0.286960 0.460383 -0.058852
0.286960 -0.458336 0.014169
0.286960 -0.236125 0.405792
0.286960 0.159729 0.422308
0.286960 0.494707 0.026734
0.286960 0.347146 0.290170
0.286960 0.197821 -0.402296
0.286960 -0.120796 0.476556
0.286960 0.277424 0.351383
0.286960 -0.451510 -0.036937
0.286960 0.434368 -0.170127
0.286960 0.064064 0.478955
0.286960 0.387764 0.220088
0.286960 0.438044 -0.171448
0.286960 -0.010441 0.469779
0.286960 -0.193764 -0.422376
0.286960 -0.339301 0.305351
0.286960 -0.223392 0.437420
0.286960 -0.172145 0.425785
0.286960 -0.455854 -0.010660
0.286960 -0.484682 -0.029689
0.286960 -0.121908 0.461598
0.286960 -0.439273 -0.177612
0.286960 0.060110 0.460668
0.286960 -0.377523 -0.306529
0.286960 -0.329251 -0.309141
0.286960 0.191365 -0.448859
0.286960 0.424030 -0.195538
0.286960 -0.337575 -0.292815
0.286960 0.273824 -0.371758
0.286960 -0.162401 -0.425695
0.286960 -0.060283 0.477818
0.286960 0.127182 0.445322
0.286960 -0.258176 -0.371010
0.286960 0.078642 -0.471330
0.286960 -0.223112 -0.406938
0.286960 0.485870 -0.107893
0.286960 0.467742 -0.099656
0.286960 0.362671 -0.272685
0.286960 -0.004784 0.489387
0.286960 -0.488694 0.014857
0.286960 -0.331639 0.322471
0.286960 0.047564 0.459074
0.286960 -0.400049 0.227856
0.286960 0.069258 -0.494044
0.286960 0.476006 -0.124754
0.286960 -0.203762 0.447675
0.286960 -0.350847 0.344283
0.286960 -0.278750 0.373921
0.286960 0.249988 -0.385822
0.286960 0.381561 0.300787
0.286960 -0.437320 -0.207854
0.286960 -0.239693 -0.398751
0.286960 -0.000145 -0.447912
0.286960 -0.187294 0.403000
0.286960 -0.411465 0.193330
0.286960 0.169410 -0.420758
0.286960 0.390374 0.254744
0.286960 0.451257 0.168136
0.286960 0.192839 -0.440840
0.286960 0.080541 -0.459671
0.286960 -0.175406 -0.412366
0.286960 -0.067321 -0.466746
0.286960 0.389124 0.247181
0.286960 0.278338 0.368741
0.286960 0.245199 0.375194
0.286960 0.467429 -0.014868
0.286960 -0.177891 0.455621
0.286960 -0.379753 -0.295380
0.286960 0.303685 0.392185
0.286960 -0.009248 -0.484442
0.286960 -0.093746 0.476224
0.286960 0.332568 -0.359477
0.286960 0.425458 -0.224883
0.286960 0.203801 0.394037
0.286960 -0.288002 -0.357157
0.286960 -0.331384 0.349427
0.286960 -0.247365 -0.413372
0.286960 0.443581 -0.125938
0.286960 0.122028 0.426367
0.286960 -0.221987 0.440495
0.286960 -0.479572 0.099594
0.286960 0.470374 0.123426
0.286960 0.290045 0.379065
0.286960 -0.394723 -0.258363
0.286960 0.474692 -0.048577
0.286960 -0.422174 -0.161802
0.286960 0.455698 -0.008357
0.286960 -0.225388 -0.412993
0.286960 0.335358 0.340671
0.286960 0.078484 0.458992
0.286960 -0.227420 0.414358
0.286960 -0.478248 -0.053239
0.286960 0.222716 0.426406
0.286960 0.342245 -0.320511
0.286960 0.431131 -0.171171
0.286960 -0.443347 -0.222095
0.286960 -0.185417 0.442706
0.286960 -0.311912 0.385847
0.286960 -0.176736 0.412894
0.286960 0.140921 -0.425554
0.286960 -0.418880 0.251902
0.286960 0.437136 0.115873
0.286960 0.073777 0.464083
0.286960 -0.252227 -0.383552
0.286960 -0.133133 -0.430014
0.286960 -0.306222 0.338776
0.286960 0.243162 0.372717
0.286960 -0.450906 0.036731
0.286960 0.448134 0.080522
0.286960 0.041835 0.445365
0.286960 -0.002435 0.486628
0.286960 0.151615 0.465726
0.286960 0.434257 -0.219883
0.286960 -0.451382 0.179165
0.286960 0.400996 -0.199606
0.286960 -0.034153 -0.485244
0.286960 -0.216917 -0.438399
0.286960 0.455055 0.042822
0.286960 0.490617 -0.082563
0.286960 0.461950 0.011432
0.286960 0.288894 -0.397029
0.286960 -0.216450 -0.429882
0.286960 -0.012609 0.480138
0.286960 0.387212 0.306913
0.286960 0.448219 -0.135824
0.286960 0.078322 -0.475422
0.286960 0.373717 -0.295761
0.286960 -0.044359 0.469854
0.286960 -0.414526 -0.176899
0.286960 -0.431414 0.221622
0.286960 0.417557 -0.258207
0.286960 -0.056429 0.454147
0.286960 -0.164684 0.457719
0.286960 0.454814 -0.146254
0.286960 -0.263807 0.359373
0.286960 0.399707 0.293725
0.286960 0.459342 -0.074661
0.286960 -0.285714 -0.390566
0.286960 -0.333468 0.363044
0.286960 0.054128 0.464774
0.286960 -0.366381 0.310692
0.286960 0.071301 0.484790
0.286960 0.163393 -0.418247
0.286960 0.450639 0.199033
0.286960 0.380845 -0.282081
0.286960 -0.447524 0.202512
0.286960 -0.010318 0.473555
0.286960 -0.314338 0.345238
0.286960 0.447469 0.135782
0.286960 0.390940 0.212528
0.286960 -0.485251 0.094125
0.286960 -0.415928 0.253977
0.286960 0.189700 -0.441798
0.286960 0.430991 0.140032
0.286960 0.353421 0.310404
0.286960 -0.098398 0.455090
0.286960 0.479886 -0.033129
0.286960 -0.437265 0.114014
0.286960 -0.435525 0.107030
0.286960 -0.205583 -0.406637
0.286960 0.371983 -0.308123
0.286960 -0.389441 0.237560
0.286960 -0.454245 0.084404
0.286960 0.465081 0.023357
0.286960 0.257324 0.400393
0.286960 0.278876 -0.381978
0.286960 0.206732 -0.406091
0.286960 -0.256268 0.424317
0.286960 0.438178 0.132455
0.286960 -0.445931 -0.153657
0.286960 -0.484031 -0.098514
0.286960 -0.117633 0.464952
0.286960 0.298334 -0.338308
0.286960 0.388603 0.275144
0.286960 -0.181735 -0.451598
0.286960 -0.471785 -0.121727
0.286960 -0.468319 0.098355
0.286960 0.021653 0.479275
0.286960 0.280512 0.350031
0.286960 0.072326 0.478134
0.286960 0.447293 -0.124993
0.286960 -0.436860 -0.228280
0.286960 0.127885 0.429334
0.286960 -0.361861 -0.310773
0.286960 0.029141 -0.492466
0.286960 -0.361960 0.324484
0.286960 -0.421405 0.143066
0.286960 0.464660 0.019757
0.286960 0.425167 0.190510
0.286960 -0.428624 0.183439
0.286960 -0.302728 0.338898
0.286960 0.268892 -0.393948
0.286960 -0.052880 0.488959
0.286960 0.472274 -0.146513
0.286960 0.468443 -0.031810
0.286960 -0.243167 -0.429395
0.286960 -0.358581 -0.328630
0.286960 0.043463 0.441086
0.286960 0.107214 0.475423
0.286960 -0.202623 -0.421884
0.286960 0.105412 0.430780
0.286960 -0.354344 0.290679
0.286960 0.084193 -0.461350
0.286960 0.460114 0.113588
0.286960 0.003439 0.449942
0.286960 0.173679 0.417540
0.286960 -0.414921 -0.257077
0.286960 0.040959 -0.461145
0.286960 -0.334164 0.292430
0.286960 -0.154430 -0.469272
0.286960 0.433493 0.193122
0.286960 0.008830 -0.482779
0.286960 0.000373 0.482126
0.286960 -0.323262 -0.375609
0.286960 -0.415734 -0.200893
0.286960 -0.187250 -0.451536
0.286960 -0.486917 -0.016400
0.286960 0.489765 0.066464
0.286960 0.460933 -0.024899
0.286960 -0.338993 -0.334723
0.286960 0.463445 -0.128243
0.286960 -0.207332 0.398005
0.286960 -0.401562 0.209529
0.286960 -0.445250 -0.123761
0.286960 0.182223 -0.460195
0.286960 -0.277560 -0.385596
0.286960 -0.357205 0.283239
0.286960 -0.415746 0.257630
0.286960 0.456497 0.134013
0.286960 0.459835 -0.085513
0.286960 -0.329999 -0.340252
0.286960 -0.387676 -0.239275
0.286960 0.434239 -0.105883
0.286960 0.482007 -0.105496
0.286960 0.365497 -0.292256
0.286960 -0.405225 -0.197961
0.286960 -0.425299 0.182870
0.286960 0.383799 0.248504
0.286960 -0.381411 0.292416
0.286960 -0.398024 0.234129
0.286960 0.320371 -0.318784
0.286960 0.274806 0.354455
0.286960 -0.364630 0.293761
0.286960 0.160722 -0.460170
0.286960 -0.421324 0.156582
0.286960 -0.475933 -0.066045
0.286960 0.346571 -0.356352
0.286960 -0.413029 0.272931
0.286960 0.409630 0.233637
0.286960 -0.396029 0.205401
0.286960 -0.405723 -0.271815
0.286960 -0.451133 -0.029353
0.286960 -0.358848 0.311910
0.286960 -0.418918 -0.218082
0.286960 -0.107876 -0.470334
0.286960 0.011670 0.458160
0.286960 0.311433 -0.380620
0.286960 -0.221858 -0.442887
0.286960 0.115865 -0.472903
0.286960 0.230138 0.385335
0.286960 0.419547 0.250937
0.286960 0.300931 -0.390961
0.286960 0.393212 -0.287144
0.286960 -0.347078 -0.295492
0.286960 -0.221010 0.414475
0.286960 -0.010166 0.482667
0.286960 -0.062916 0.480171
0.286960 0.475521 -0.129097
0.286960 0.427094 -0.162268
0.286960 0.157672 -0.468602
0.286960 0.341444 0.284568
0.286960 -0.439593 0.065686
0.286960 0.345289 0.356815
0.286960 0.477081 0.019849
0.286960 -0.217730 0.396590
0.286960 -0.052502 0.477963
0.286960 0.438014 0.196547
0.286960 0.060601 0.439337
0.286960 0.149189 -0.465941
0.286960 0.356124 0.267565
0.286960 -0.362592 -0.307741
0.286960 0.056044 -0.493663
0.286960 -0.490234 -0.080629
0.286960 0.467496 0.145678
0.286960 0.230123 0.419052
0.286960 -0.411213 -0.240324
0.286960 0.352336 0.286138
0.286960 -0.389582 0.295966
0.286960 -0.493630 -0.042217
0.286960 -0.134199 0.442078
0.286960 -0.288979 0.372608
0.286960 -0.435708 -0.154910
0.286960 0.207418 0.419696
0.286960 -0.261421 -0.405193
0.286960 0.011909 0.454415
