62.856334 49.506224 -42.959079
45.440140 14.651529 -57.815991
43.833955 13.861047 -3.284227
62.084343 34.985249 -59.624511
63.149335 47.402819 -12.810501
62.157319 52.664583 -38.613725
61.807162 53.935695 -59.837713
59.336038 28.242998 -7.853765
52.775623 19.775816 1.355765
61.155277 55.745240 -8.489857
59.794959 58.856815 -51.522092
36.053384 11.789510 -6.574376
62.793050 38.061905 -48.285921
56.764817 24.187942 -52.015266
37.056612 11.982271 -50.959978
58.399223 26.578331 -15.493451
39.123403 12.379387 -35.593524
57.267244 24.916514 -5.609506
62.958253 48.926790 -8.110838
53.157465 20.126573 -27.541630
61.569780 33.348344 -19.565838
49.679059 17.259524 -9.704241
60.661424 30.969301 -4.298618
50.922371 18.167186 -23.915111
63.168012 40.720709 -50.643009
61.476284 33.084789 -43.279186
60.532759 30.686329 -28.067989
44.090684 13.987396 -22.149117
60.670107 56.956738 -24.942693
36.621106 11.898593 -19.145633
36.950621 11.961906 -9.138638
60.868809 31.425400 -36.022625
38.781361 12.313666 -8.720046
49.777363 17.331054 -45.834241
39.855139 12.519983 -21.464362
63.325459 43.614382 -41.006974
36.874901 11.947357 -2.994872
55.447763 22.573391 -48.297439
55.560558 22.711664 -25.197867
62.749895 37.809345 -57.728889
62.944318 49.006015 -54.386801
62.962988 39.056475 -2.026511
40.021927 12.552030 3.125225
62.669497 37.338811 -36.429122
48.903042 16.694866 -24.691278
62.391336 51.784733 -24.172608
56.280219 23.593883 -57.671354
48.098106 16.172815 -44.798442
35.807274 11.742222 -42.053166
53.184466 20.154414 -50.023597
53.861556 20.852566 -55.573957
49.991159 17.486620 -18.225148
61.573256 33.358143 -17.281579
57.092174 24.659742 -36.430247
61.215146 55.579051 -1.865217
50.706101 18.006838 -35.326962
63.248022 46.287739 -45.666674
62.754637 50.084399 -41.372120
61.017411 31.791275 -30.141197
62.258455 52.284333 -60.382911
61.888455 53.675449 -29.382565
63.181597 47.038285 -36.680697
61.058471 56.013962 -6.609123
52.017437 19.117707 -42.442807
63.188917 40.970773 -37.246947
59.935864 58.550891 -23.291804
62.114223 35.099836 1.441556
63.313526 42.461338 -42.793196
63.324046 44.194152 -16.343559
59.875417 58.682130 -37.037049
40.762664 12.694356 -9.595573
59.107352 27.836635 -5.907087
54.365306 21.371986 -24.986466
61.570609 54.592336 -43.411876
45.010083 14.439877 -52.859839
63.013079 39.349635 -25.299157
51.885994 19.003614 -18.978272
48.208277 16.239334 -36.714077
62.893896 38.652113 -29.033263
62.046958 53.079516 -14.184655
63.131592 47.603291 -9.143205
36.765927 11.926419 -37.593066
60.812979 31.302613 -21.565244
34.725094 11.534291 1.102292
43.575288 13.741251 -31.888490
63.242357 41.610023 -27.974839
62.483492 36.515953 -58.830878
38.590392 12.276973 -46.138168
54.882263 21.905025 -4.250959
61.363022 55.168568 -51.246961
61.450365 54.926117 -0.319218
62.265673 35.680632 -33.898040
62.234494 35.561066 -51.047562
44.067627 13.976049 -16.371408
62.545150 36.752406 -12.398443
61.542314 54.670877 -3.230033
61.771819 33.917871 -58.465801
45.559543 14.710293 -41.876884
63.324146 44.153372 -42.514335
53.261836 20.234190 -13.897987
52.196444 19.273086 -23.783208
62.659388 37.279647 -33.742511
51.757190 18.891812 -39.836038
62.795120 49.854239 -0.678414
49.442779 17.087598 -58.082303
61.116781 55.852101 -23.544214
54.208512 21.210315 -47.475921
58.754895 27.210339 -17.090641
47.197565 15.629086 -31.375547
63.323874 44.264802 -55.187411
63.270093 41.941797 -35.642199
52.494115 19.531466 -25.929279
61.775677 33.928748 3.726517
50.907250 18.154061 -53.653568
56.020744 23.275797 3.834496
63.125520 47.671906 -43.333606
62.963093 39.057093 -16.512725
62.095184 52.898195 -20.290051
35.795231 11.739908 -57.027680
63.274309 41.992231 -33.413426
61.001720 56.171495 -31.454871
52.255910 19.324702 -56.264557
58.184027 26.261146 -49.323035
45.436846 14.649907 -3.606144
47.698072 15.931282 -57.759929
50.678498 17.986753 -43.312733
59.400514 28.357567 -43.968709
50.532990 17.880876 -4.859354
60.358420 57.633458 -2.007628
59.351299 28.270115 -25.767002
61.146600 55.769326 -60.996309
62.195078 35.409907 -26.343868
41.015122 12.743747 -32.810472
61.292966 32.568035 -52.476063
60.880745 56.499410 -26.944069
63.100106 47.959063 -20.021552
43.322081 13.642595 -18.446582
62.817456 49.727253 -49.233779
54.905782 21.929275 -23.604418
63.162838 40.658815 -61.050996
35.452148 11.673988 3.841615
38.160708 12.194413 -33.670212
60.899136 56.456255 -54.947493
46.917971 15.460272 -40.945205
51.469681 18.642253 -11.176073
52.502652 19.538876 -47.111766
36.320760 11.840884 -48.436967
61.577626 54.572857 -32.466627
38.411822 12.242663 -19.800990
43.140163 13.571715 -46.500499
62.146157 52.706548 -33.135381
47.199033 15.629972 -24.245434
60.576473 30.782468 -49.561403
50.102643 17.567740 -25.891032
60.730784 31.121842 -25.132652
63.032065 39.460753 -36.943205
59.343415 28.256106 -46.351520
60.040673 29.604090 -57.054257
36.382655 11.852776 2.023301
63.278600 42.043566 -8.627362
62.557919 51.158418 -50.232562
63.314532 42.473381 -4.862961
44.801141 14.337046 -5.402471
45.308853 14.586916 -31.707875
62.227735 52.399836 2.008024
47.839802 16.016856 -18.130150
43.397029 13.671796 -49.114985
63.104982 47.903966 1.392238
63.252632 46.235651 -60.233045
60.431167 30.462900 -54.285666
59.761151 58.930218 -11.088944
60.403784 57.534965 -4.433722
62.750220 37.811245 -39.811042
63.322176 44.961633 -13.382716
41.254540 12.837030 -5.427229
63.164845 47.227572 -25.766382
51.945884 19.055599 -17.215026
61.163006 55.723786 -37.350581
43.563202 13.736542 -38.998810
61.993694 53.279775 -1.889457
61.169272 55.706392 -46.402357
44.986681 14.428360 -27.899731
42.266132 13.231171 0.879631
44.292826 14.086880 -14.629886
56.795345 24.225366 -56.019923
39.920292 12.532502 -17.005337
35.037541 11.594325 -30.038568
34.761881 11.541359 -53.792134
42.259893 13.228740 -53.386407
63.094408 48.023447 -0.186110
51.849035 18.971534 -9.579111
49.577211 17.185416 -20.111484
61.986864 34.611421 -21.227519
61.015318 31.785375 -55.700800
51.757699 18.892254 -32.303692
60.110939 29.758626 -21.426614
40.820043 12.705381 -25.327794
62.501661 36.585630 -32.197949
59.846120 29.176214 -13.203167
55.967973 23.211106 -22.142563
60.177234 29.904429 -29.822911
61.160626 55.730393 -48.538985
59.823584 58.794667 -59.664122
35.203153 11.626146 -36.617639
59.886897 29.265894 -49.698467
60.516052 30.649586 -23.230336
62.517776 51.309348 -7.125243
59.551870 28.626518 -15.658217
62.688377 37.449307 -44.057165
63.325948 43.413626 -17.836910
62.968807 48.866787 -2.198224
37.420339 12.052158 3.456019
37.335251 12.035809 0.763722
38.823246 12.321714 -10.904098
57.046388 24.592589 -33.027795
61.734108 33.811568 -15.080232
62.641066 37.172418 -50.280459
56.497116 23.859772 -13.305530
58.783088 27.260436 -31.183400
38.441798 12.248422 -54.224412
54.541584 21.553748 -41.701888
62.662629 37.298616 -38.323642
62.601390 36.968084 1.803513
63.137525 40.356030 -34.702892
62.152619 35.247082 -45.765625
42.668748 13.388040 -1.076882
52.054333 19.149733 -5.655163
59.915127 58.595913 -27.151682
63.302931 42.334609 -0.375515
62.992017 48.734832 -55.953884
55.402177 22.517507 -30.629913
47.071854 15.553184 -13.348403
35.325507 11.649655 -32.088240
55.136014 22.191223 1.579310
55.477947 22.610393 -43.341628
38.364501 12.233570 2.007624
61.316525 32.634445 -31.802486
61.264767 32.488545 -12.021130
61.472034 54.865966 -56.134202
61.818229 53.904974 -24.749056
60.488922 30.589920 -51.614244
40.593286 12.661811 -49.309995
61.957211 53.416945 -16.432324
40.585069 12.660233 -31.205065
63.228651 46.506615 -56.544009
45.779864 14.818724 -49.300724
63.178405 40.845028 -1.365204
63.174866 47.114343 -2.452126
63.322326 44.900398 -18.815390
61.497439 33.144424 -35.301986
51.253297 18.454431 -30.114744
34.655002 11.520824 -38.089500
60.945951 31.595057 -34.412043
62.664165 50.598752 -38.578508
62.480748 36.505428 -48.602824
61.741880 54.116910 -9.526595
59.746773 58.961434 -55.143245
39.812914 12.511870 -43.648576
62.887165 49.330945 -36.917338
56.641633 24.036934 -2.563533
63.059525 48.351030 -38.519214
50.280559 17.697198 0.383586
45.308268 14.586628 -46.633570
63.217708 41.315170 3.875630
63.039883 48.462702 -5.464219
45.621319 14.740696 -16.544007
58.163527 26.231078 -13.477727
62.501887 36.586495 -22.608739
60.714954 56.859369 -0.407607
63.113911 40.073561 -5.440217
63.258062 46.174304 -0.753325
63.308599 45.603273 -51.435920
41.185642 12.810185 -1.458584
43.681394 13.785965 -28.901268
61.273415 55.417305 -29.685714
61.953105 53.432383 -58.013493
61.453830 33.021493 -47.975191
49.044881 16.798074 -14.075610
62.206651 35.454288 -37.858595
62.415241 36.254214 -2.994698
56.032070 23.289681 -53.268868
34.917978 11.571352 -17.538267
60.356020 30.297629 -2.074336
62.662640 37.298681 -20.213147
44.772636 14.323018 -56.181869
58.556921 26.858551 0.205674
40.953554 12.731034 -13.048760
54.967408 21.992818 -58.534298
63.321630 45.185887 -49.030056
63.326630 43.133635 -53.854783
53.229011 20.200344 -37.145255
54.668717 21.684835 -6.413561
63.327084 42.947422 -61.119499
62.784186 38.010032 -7.366587
62.566060 36.832594 -8.876285
62.303465 35.825565 3.588177
62.301661 35.818644 -18.946103
61.211362 32.338002 -39.073118
61.169549 32.220135 -37.456545
44.827079 14.349812 -11.530777
38.443739 12.248795 -24.110341
62.932680 49.072180 -33.990470
63.280783 45.917574 -3.515276
49.526619 17.148603 -34.568099
55.325021 22.422923 -46.316122
63.191288 46.928784 -18.778381
62.638027 50.747354 -33.904798
61.620156 33.490349 -54.867968
62.916542 38.784649 -13.011554
56.480607 23.839534 -18.209482
59.352719 28.272638 -21.531648
55.674927 22.851866 -33.559071
60.267314 57.831262 -15.541217
62.077988 52.962850 -48.389342
63.212517 46.688917 -6.906402
58.046406 26.059300 -8.874107
50.819766 18.089545 2.690589
60.508969 57.306594 -21.771496
51.383537 18.567480 -55.096832
42.808079 13.442327 -35.083105
63.282247 45.901033 -43.982923
61.116677 32.071094 -41.827986
59.816601 58.809828 -1.063801
63.251828 46.244738 -38.758994
37.878779 12.140243 -15.408406
62.619703 37.047388 -26.432986
58.551636 26.849160 -2.490511
59.759358 28.995212 -51.373372
36.722144 11.918006 -54.356713
50.066088 17.541141 -40.070960
54.049586 21.046445 -15.698711
41.409853 12.897544 -46.289312
63.327849 42.633361 -10.435771
54.511102 21.522318 -7.984395
61.852114 34.144214 -7.295380
59.134290 27.884503 -56.540063
55.118284 22.169489 -37.680961
53.148512 20.117341 -16.772953
59.805322 58.834315 -25.339589
49.178939 16.895619 -2.332924
61.245317 32.433718 -24.100672
62.783304 49.921420 -9.497130
62.420752 51.674134 -42.441100
59.180940 27.967397 -58.437213
61.834594 34.094826 -1.339327
41.929742 13.100105 -57.350626
63.283829 45.883153 -9.515658
63.122239 47.708977 -48.624169
49.234245 16.935862 3.251370
34.782159 11.545256 -39.855980
62.682945 50.491985 -57.243150
63.089153 48.082817 -58.961052
47.196813 15.628632 -35.245231
61.700961 33.718131 -56.750093
62.629814 37.106562 -14.471410
63.001322 48.681934 3.044714
38.341101 12.229074 -2.144638
46.345160 15.114420 -15.162085
61.640650 54.397911 -5.126201
61.217063 32.354074 -13.828547
60.896350 56.463987 -14.286092
61.103047 32.032673 -1.246108
37.852808 12.135253 -55.977056
59.775249 58.899608 -12.990800
59.575752 28.668956 -19.749392
62.958388 39.029552 -30.860568
59.746316 58.962427 -3.323626
61.828654 53.876037 -39.909048
48.472311 16.398752 -40.127036
61.716815 33.762821 -60.879906
63.031271 39.456105 -46.798536
47.733847 15.952882 1.632918
62.505736 51.354614 -36.441043
58.325184 26.468178 2.001241
58.855259 27.388680 -4.133890
63.326680 43.113073 -50.915673
59.814915 58.813488 -7.193209
52.064758 19.158782 3.381386
63.165055 40.685336 -29.686999
62.693595 37.479844 -5.592770
41.130219 12.788591 -60.379309
63.324001 44.212882 -37.880874
59.741414 58.973070 -42.945689
35.075592 11.601636 -22.791786
58.302551 26.434983 3.850825
61.646030 54.382975 -26.721134
62.502586 36.589176 -46.811454
42.516144 13.328582 -27.563075
60.416582 57.507178 -43.100252
63.128690 40.250346 -55.524449
37.990654 12.161739 -7.035112
60.823517 56.623662 -39.359676
40.570673 12.657467 -8.071414
63.322230 44.939618 -27.893222
40.703721 12.683031 -27.104896
62.663496 50.602555 -46.581010
59.019337 27.680238 -35.873250
62.171366 35.318974 -57.343521
55.191815 22.259629 -26.726974
61.622160 33.495998 -22.888410
44.386077 14.132773 -33.525017
63.325933 43.419877 -46.817608
61.890597 53.667395 -11.446052
40.274259 12.600513 -53.784939
63.327634 42.721306 2.902711
34.461206 11.483587 -2.865665
35.145053 11.614982 -43.597928
58.759450 27.218432 -19.508501
43.937294 13.911906 3.875749
42.005697 13.129699 -48.192306
50.024356 17.510775 -49.605716
34.926982 11.573082 -49.621563
36.736683 11.920800 -23.123765
51.107051 18.327489 -45.245000
63.156288 40.580466 -3.717267
62.973953 39.120649 -60.042365
62.715771 50.305360 -31.743071
36.689197 11.911676 -0.982424
62.987183 48.762317 -14.054087
60.986223 31.703360 -2.869771
39.201975 12.394484 -32.400232
51.951200 19.060214 -15.134560
55.489874 22.625013 -35.498072
52.826104 19.819633 -11.031079
40.803974 12.702293 0.652205
44.957455 14.413976 -61.005898
36.227360 11.822938 -14.561952
62.052688 53.057971 -27.699306
62.955386 39.011984 1.442288
57.277734 24.931900 -50.737241
61.531560 33.240607 2.224300
57.303224 24.969286 0.703242
63.323849 42.584824 -38.295242
62.321339 35.894107 -44.143724
63.227345 46.521373 -31.462397
53.660979 20.645750 -51.591143
63.103520 47.920479 -11.127237
62.554063 51.172915 -25.986937
59.189682 27.982931 -28.216390
61.527653 33.229594 -40.520356
46.674202 15.313089 -45.828545
54.269343 21.273038 -45.750898
48.024039 16.128094 -29.383316
62.946656 48.992719 -22.998391
61.046991 56.045828 -4.870149
52.983193 19.955987 -4.641808
63.322306 44.908269 2.899529
50.321298 17.726841 -37.916849
38.486814 12.257072 -4.144014
53.075570 20.042130 -6.729285
60.666904 56.963693 -56.738595
59.483491 28.505012 -40.498962
63.178107 40.841465 -22.449650
46.559358 15.243749 -26.477979
62.520673 36.658537 -17.115059
39.954540 12.539082 -23.431112
57.683393 25.526873 -19.864465
62.019801 34.737734 -4.863014
42.316964 13.250976 3.575510
62.954202 39.005057 -53.643645
59.948017 29.400314 -38.042614
63.158224 47.302375 -54.847042
61.581101 54.563211 -15.107454
63.309463 45.593517 -5.390950
63.138480 47.525467 -23.589794
42.697140 13.399102 -8.783477
49.239582 16.939745 -59.674934
59.973107 29.455494 -58.614984
60.936538 31.574354 0.394398
54.876794 21.899385 -51.813221
62.417938 36.264558 -41.548237
61.705264 33.730261 -13.023187
42.704234 13.401866 -4.607082
60.320839 30.220257 -9.417967
40.565346 12.656443 -36.986734
46.384742 15.138319 -28.218130
56.815284 24.253632 2.743366
60.376907 30.343566 -46.188484
63.327156 42.917582 -2.212265
48.506570 16.419437 -55.953661
57.527876 25.298779 -47.800778
63.321935 45.060915 -11.337631
41.260786 12.839463 -55.629552
52.707758 19.716909 -59.963688
49.918847 17.434003 -12.336856
63.235083 41.523006 -40.906104
63.017221 39.373879 3.036065
62.155626 35.258612 -11.779558
60.588917 57.133014 -47.502807
56.527221 23.896678 -40.868561
59.448560 28.442942 -30.143478
58.054049 26.070509 -35.702501
42.002199 13.128336 -50.349409
61.926504 34.379948 -39.362325
59.605206 28.721293 -54.807105
58.171209 26.242346 -51.229998
61.631206 54.424127 1.246450
57.497903 25.254819 -28.363748
47.082355 15.559524 -19.560996
62.195069 52.522653 0.141717
60.140947 29.824624 -41.209150
62.847984 38.383410 -32.409552
63.324441 44.032303 -24.183815
63.294949 45.757515 -54.595630
41.193475 12.813237 -38.491661
44.342387 14.111271 -35.259503
63.323939 44.238132 -58.842715
63.114824 47.792765 -30.470568
58.889906 27.450245 -47.836404
45.373520 14.618742 -1.624418
63.318373 45.492839 -33.859462
60.580029 57.152311 -7.660192
61.486704 33.114163 -10.328794
59.503443 28.540466 -32.038052
42.704674 13.402038 -23.258676
61.924979 34.374097 -28.340910
60.737862 56.809631 -58.924918
61.923861 53.542330 -41.666019
63.136899 40.348540 -14.750682
63.148931 47.407381 -4.316079
62.024494 53.163975 -34.762336
62.289819 52.166412 -40.309445
63.327240 42.883419 -31.119019
34.517711 11.494444 -4.723441
43.315549 13.640050 -25.202354
52.199090 19.275383 -12.783677
62.995818 48.713223 -28.860949
63.107696 39.999211 -48.422538
40.951655 12.730669 -3.629457
63.234605 46.439342 -50.021586
60.979644 56.232775 1.969552
48.694276 16.542960 -31.014221
51.423301 18.601995 -37.089576
63.277193 42.026724 -24.260505
57.207409 24.828756 -7.246389
56.307875 23.627786 -7.794548
60.711803 56.866209 3.824287
61.272846 55.418885 -40.914567
62.944703 38.949461 -10.668026
34.830044 11.554456 -60.066471
59.480607 28.499887 0.241579
63.132300 47.595300 -32.820224
41.146798 12.795051 -19.253020
34.984550 11.584143 -34.572220
43.903161 13.895107 -57.918584
51.722721 18.861893 -7.620315
63.095506 39.853398 -57.394854
54.032886 21.029226 -28.586353
51.198484 18.406853 -26.985156
61.196530 55.630728 -44.754232
62.747424 50.125403 -19.591152
63.237958 41.557403 -18.502591
63.090382 48.068928 -16.417551
63.321044 45.426284 -35.973232
43.536064 13.725968 -10.443107
63.200604 46.823526 -27.852182
58.448653 26.666165 -21.108667
63.327315 42.852367 -22.246373
62.345146 51.958397 -31.210998
62.907652 49.214470 -52.747050
62.687211 37.442483 -60.249531
47.904973 16.056205 -9.638288
62.286646 35.761063 -52.868477
61.204299 32.318092 -57.866530
44.034811 13.959898 -54.235797
39.166302 12.387629 0.638660
51.184983 18.395134 -22.136266
53.565393 20.547191 -32.122407
62.486636 51.426426 -11.103742
62.831388 38.286284 -23.239308
40.593766 12.661904 -50.908863
53.613659 20.596957 -42.970363
52.666465 19.681066 -22.086105
39.255520 12.404772 -60.383959
61.310411 32.617211 -28.582184
61.617485 54.462214 -13.234980
60.229883 57.912531 -38.526683
49.004431 16.768641 -50.631660
57.791337 25.685194 -4.266523
53.072539 20.039005 -1.573563
39.485179 12.448899 -18.537692
61.670369 54.315415 -49.660785
59.785792 58.876718 -57.523645
54.204939 21.206630 -2.754846
62.262520 35.668542 -15.357226
57.597595 25.401035 -38.547194
37.483020 12.064202 -60.725360
42.575723 13.351796 -58.876282
59.995541 58.421322 3.366222
41.228453 12.826866 -22.461498
42.854362 13.460360 -56.147420
57.747627 25.621085 -53.132697
45.931252 14.893229 -9.695705
61.699244 54.235262 -7.444487
39.650653 12.480693 -47.531376
59.907989 58.611411 1.540163
57.767759 25.650612 -31.752308
61.143539 32.146816 -8.816336
56.218146 23.517789 -29.394549
46.798166 15.387936 -38.161650
63.320380 42.543330 -58.081124
62.769049 37.921440 -18.011925
60.539657 57.239964 -10.858275
63.102505 47.931957 -45.150088
63.198895 41.090132 1.961164
55.991600 23.240070 -11.516060
62.613764 50.885294 0.683367
36.870870 11.946583 -43.454407
63.241110 46.365841 -21.328504
37.075537 11.985908 -25.532356
39.916148 12.531706 -6.139560
61.932055 53.511523 -31.377134
59.675347 28.845929 -17.828165
62.780226 49.938920 -44.754105
63.142272 47.482622 -46.920162
63.325683 43.522191 -14.655965
54.285279 21.289470 -40.029685
62.740654 37.755256 -54.940977
57.627379 25.444720 -10.469289
46.575105 15.253256 3.661309
62.293318 35.786651 -7.048051
59.838411 58.762476 -44.919449
56.491506 23.852895 -38.266786
37.344528 12.037592 -35.908559
63.325702 43.514669 -28.836946
51.935506 19.046591 -2.123150
48.036253 16.135469 -60.542451
39.856367 12.520219 -34.039751
62.347815 35.995642 -39.412049
62.589093 36.920923 -24.333847
45.966041 14.910350 -36.027632
63.324827 43.873609 1.692086
60.335960 30.253512 -18.517851
38.761096 12.309773 -30.271817
63.000947 39.278635 -38.889456
63.227199 41.428702 -49.141282
57.373071 25.071729 -43.943943
41.616895 12.978212 -43.121106
55.955742 23.196113 -9.529648
60.029541 29.579610 -35.421455
60.540823 30.704064 3.045448
53.910960 20.903506 -18.237954
42.651165 13.381189 -20.227984
61.615288 33.476626 -49.743574
60.328700 30.237545 -43.526699
56.406747 23.748991 -47.355420
63.248306 41.681180 -46.984945
60.886975 31.465352 -16.763200
57.017656 24.550448 -9.186384
44.488462 14.183162 -9.125316
51.281380 18.478807 -58.628339
62.823560 38.240467 -3.368438
63.327094 42.943020 -26.024499
44.713046 14.293691 -26.125042
55.624552 22.790113 -39.533775
36.984961 11.968504 -46.860329
38.272019 12.215801 -59.084627
56.141348 23.423643 -59.849864
60.471910 30.552504 -7.737942
63.167746 40.717532 -42.904194
42.189511 13.201318 -15.703827
46.944699 15.476410 -3.766723
47.563618 15.850101 -54.249487
52.297994 19.361231 -0.042302
62.948304 48.983352 -25.462537
59.072181 27.774138 -33.914746
37.280698 12.025327 -45.294671
60.027565 58.351794 -17.856355
34.935958 11.574807 -12.447663
39.709203 12.491943 -39.458798
38.357787 12.232280 -37.162192
52.582356 19.608059 -54.392381
52.680595 19.693331 -30.224410
62.895801 49.281847 -47.539800
54.591734 21.605458 -49.392745
58.712730 27.135414 -41.097408
38.824065 12.321872 -28.362311
53.790294 20.779087 -23.262914
50.717715 18.015288 -14.786034
62.637480 50.750467 -5.499857
63.322542 44.811461 -39.934383
61.493338 33.132864 -25.719449
63.103810 47.917204 -51.233946
45.148426 14.507962 2.448792
48.796250 16.617161 -21.527107
63.014186 39.356116 -44.864933
55.544407 22.691864 -19.320259
61.357770 55.183148 -18.796718
50.015258 17.504155 -29.201132
62.182489 35.361628 -13.404167
53.194021 20.164266 -8.663910
59.405376 28.366207 3.623303
61.104099 55.887304 -16.841495
50.097953 17.564327 -31.022954
58.305838 26.439804 -33.172808
54.853890 21.875769 -32.334172
42.584605 13.355256 -12.063385
37.653927 12.097040 -39.118680
41.397311 12.892657 -34.688503
63.324574 43.977427 -56.790979
60.223510 30.006202 -31.494692
62.589224 51.024815 -51.859590
62.208235 52.473150 -5.434614
38.325928 12.226159 -22.333543
59.895997 29.285906 -53.075303
57.676214 25.516345 -24.531400
60.546305 57.225532 -52.513261
46.010707 14.932332 -51.140889
48.807667 16.625468 -53.389693
61.938923 53.485703 -36.553804
40.376595 12.620176 -58.342629
62.175921 52.594643 -55.767645
41.400910 12.894059 -40.247756
43.217652 13.601907 -36.865457
56.621221 24.011910 -45.158621
52.075682 19.168264 -34.283116
60.500111 30.614527 -60.655338
61.996340 53.269826 -18.566766
61.036596 31.845354 -59.463911
35.413562 11.666574 -27.385302
63.256483 41.779000 -44.467667
61.012597 31.777706 -19.398109
56.421275 23.766801 -0.847200
56.475747 23.833577 -31.298418
37.879914 12.140461 -52.587020
59.854832 58.726822 -46.521103
58.318659 26.458608 -39.421366
60.032897 29.586990 -3.873909
48.639654 16.503215 -4.156519
62.768147 50.007589 -60.305232
61.006645 56.157825 -42.306061
57.633062 25.453055 -16.524903
50.373079 17.764519 -1.411633
58.580888 26.901139 -37.438918
59.015063 27.672643 -51.044403
62.090517 52.915744 -8.528494
61.732186 54.143820 -45.843094
61.326526 55.269876 -25.419107
50.613267 17.939288 -8.629331
57.507451 25.268822 -0.903826
47.643084 15.898081 -22.532998
53.097066 20.064295 -39.279837
42.828243 13.450183 -6.429245
38.591358 12.277159 -50.425060
63.326337 43.253926 -7.641682
61.061612 31.915872 -26.838257
62.141959 35.206201 -35.528055
54.982708 22.008594 -14.740643
63.289486 42.173777 -55.560607
59.741853 28.964108 -10.786074
45.252965 14.559411 0.151037
55.269815 22.355247 -54.649262
55.131086 22.185181 -29.116809
52.709010 19.717996 -44.775368
58.298159 26.428541 -46.194117
53.399538 20.376176 -34.026176
62.648860 50.685765 2.714060
63.291762 45.793525 -16.897842
61.213435 55.583802 -21.595414
60.572368 57.168945 -60.547218
45.949503 14.902211 -54.973116
58.038142 26.047178 -57.152862
53.116498 20.084332 -41.264426
63.325839 43.458325 -49.016048
63.324580 43.975034 -5.906288
62.314180 35.866653 -1.126537
45.927221 14.891245 -34.244619
50.552855 17.895330 -51.356012
50.732470 18.026025 -16.670439
35.539351 11.690743 -15.965061
63.296187 45.743516 1.394552
63.072210 48.274263 -60.642990
60.131509 58.126114 -9.207162
49.171831 16.890447 1.341308
53.924563 20.917533 0.178557
63.092637 48.043451 -40.212740
37.640755 12.094509 -17.226177
62.802918 49.809911 -11.047580
35.400478 11.664060 -45.119239
44.863549 14.367760 -17.902545
57.217698 24.843847 -30.284640
63.324660 43.942336 -35.075638
39.187997 12.391798 -12.931799
62.474322 51.472723 -1.858657
59.352950 28.273049 -2.299625
34.749855 11.539049 -0.800626
44.162106 14.022546 -41.377430
47.234097 15.651143 -0.492618
63.282733 45.895545 -24.353550
54.002283 20.997671 -20.116832
62.556245 51.164712 -48.065371
58.805739 27.300686 -60.980642
49.160930 16.882515 -43.710169
57.920906 25.875230 -18.300150
63.322205 44.949945 -26.077952
45.525521 14.693549 -13.308930
62.884303 38.595966 -35.288189
53.541013 20.522052 -58.636792
42.539113 13.337531 -44.832143
57.456538 25.194149 -40.403051
63.277527 45.954357 -14.858866
59.980927 58.453052 -30.958076
55.418936 22.538052 -2.493064
62.671654 37.351434 -1.739209
61.211763 55.588443 -10.112252
62.564466 36.826482 -29.609303
56.481396 23.840502 -49.113026
40.195718 12.585422 -14.740839
62.720157 50.280427 -24.396071
56.654254 24.052405 -20.046366
55.055191 22.092144 -21.069756
34.591625 11.508646 -47.862731
62.585265 51.047321 -22.285658
51.783812 18.914920 -3.900002
58.440844 26.652289 -27.369724
63.120196 40.148736 -32.713639
45.866527 14.861374 -25.015821
37.443199 12.056550 -32.249281
45.301858 14.583473 -39.354273
53.938976 20.932394 -10.441712
61.690883 33.689721 -46.067054
34.683369 11.526274 -55.561214
34.480521 11.487299 -14.302584
61.389934 32.841377 -6.216033
62.101800 35.052193 -55.605999
46.856152 15.422947 -44.027904
62.064592 53.013214 -22.460855
59.400321 28.357224 -42.101951
63.259822 41.818937 -6.840197
63.244058 46.332531 -41.441075
50.594086 17.925331 -60.236042
60.153910 58.077480 -29.104468
63.298440 42.280880 -16.743420
54.084733 21.082685 -35.900130
61.536445 54.687169 -52.711599
62.665291 50.592350 -3.360845
54.156315 21.156494 -60.412483
60.480079 30.570470 -39.812305
46.784181 15.379493 -59.288126
34.679432 11.525517 -10.789445
62.812339 49.756346 -30.132021
60.603496 30.841901 -14.536460
45.915883 14.885665 -21.333486
63.223150 41.380270 -20.546165
60.899800 56.454410 -33.548209
58.509251 26.773844 -44.529627
63.324371 44.060879 -9.441930
55.211687 22.283990 -0.477220
45.905198 14.880406 -7.799546
61.648784 54.375333 3.158833
56.319526 23.642068 1.334810
50.463878 17.830587 -6.954412
62.678028 50.519939 -17.906786
61.878893 34.219701 -30.856839
62.669702 50.567276 -28.605145
48.666703 16.522898 -27.401550
59.943523 29.390431 -6.401154
36.952705 11.962307 -11.303461
44.107026 13.995439 -42.943891
62.750120 37.810661 -45.839126
62.969925 48.860428 -17.914526
57.896147 25.838916 -42.150099
34.888794 11.565745 -51.817248
35.280901 11.641084 -24.978182
56.990348 24.510395 -22.792711
48.951831 16.730367 -32.814917
60.443580 30.490200 -12.250827
62.239013 52.357432 -53.095140
34.769751 11.542872 -9.056098
62.645083 50.707238 -54.708498
63.013608 39.352734 -51.894541
47.686288 15.924167 -50.045558
58.997283 27.641049 -13.682053
45.293613 14.579416 -37.733431
59.436983 28.422370 1.917272
55.034056 22.066235 -10.376201
61.059035 31.908608 -46.403669
36.056352 11.790080 -58.762743
58.383571 26.553814 -59.328210
58.169717 26.240158 -29.898820
55.078881 22.121185 -17.515845
56.096688 23.368896 -23.895084
36.251267 11.827531 -21.359961
47.960510 16.089737 -46.486695
63.196517 41.061682 -39.052188
38.308379 12.222787 -26.838871
63.215052 46.660269 2.955794
47.768521 15.973818 -51.957194
44.016420 13.950847 -44.615051
61.368206 55.154178 -57.716845
50.382646 17.771480 -33.364523
62.672300 50.552505 -12.640149
36.276206 11.832323 -4.676025
48.888835 16.684529 -38.291022
60.101729 58.190771 -35.171119
45.252501 14.559183 -29.494998
63.323433 44.445922 -1.285038
62.308114 52.097628 -29.287965
61.948173 34.463046 -3.005381
63.132975 47.587670 -34.647205
63.120841 40.156453 -9.321277
48.502798 16.417160 -16.420518
59.827351 29.134935 -47.983486
53.940276 20.933735 -53.512044
63.317055 45.507736 -47.223627
55.686972 22.866632 -50.534526
58.606510 26.946667 -23.148254
45.475568 14.668964 -44.166444
36.592412 11.893079 -34.254277
62.107272 35.073177 -9.718179
56.851751 24.307117 -25.175990
54.961589 21.986818 3.400574
59.773744 29.020775 -23.502678
63.323170 44.553810 -20.794442
43.672060 13.781371 -59.959574
57.254933 24.898458 -58.281114
40.028461 12.553285 -41.382706
62.902863 38.704591 -42.956811
63.021778 39.400546 -41.072248
63.219409 41.335523 -59.345960
62.459396 51.528841 -13.988975
63.244703 41.638084 -12.543033
49.304500 16.986982 -41.810103
62.039565 34.813529 -23.761292
61.619228 33.487733 0.537049
60.502722 30.620268 -47.898974
63.163252 40.663778 -26.121998
60.145706 58.095291 -40.251006
61.903421 34.291424 -44.345907
63.326514 43.181019 -19.795290
62.939057 49.035926 -21.305970
59.756534 58.940242 -33.363853
61.978779 34.580417 -41.311511
48.592192 16.471134 -7.607424
62.374211 51.849120 -44.633397
60.921168 31.540552 -44.322515
60.679152 56.937101 -12.794841
42.322450 13.253114 -2.805481
37.182088 12.006380 -29.191462
62.154586 52.674858 3.566880
57.966763 25.942488 -26.030606
60.499916 30.614098 -32.976741
59.921974 58.581047 -48.215452
63.322697 44.747799 -30.747888
60.110925 58.170807 -20.139354
60.252347 30.069622 -0.474541
49.695363 17.271388 -36.441611
56.833080 24.279733 -34.630941
62.270667 52.238421 -3.518728
49.746065 17.308280 -23.244196
47.408569 15.756486 -6.665593
63.033365 39.468358 -21.071205
62.843994 38.360059 -0.356601
49.933209 17.444453 -56.387055
58.939346 27.538098 -9.969707
58.739138 27.182340 -53.662575
63.325802 43.473367 -44.980416
53.573169 20.555208 3.439852
56.442612 23.792957 -26.726073
39.535778 12.458621 -55.577074
62.480923 51.447905 -15.727861
46.769818 15.370820 -56.607888
62.283577 52.189881 -46.322714
63.079430 39.737954 -27.590975
41.594870 12.969631 -17.718790
36.950007 11.961788 -40.774421
47.020977 15.522466 -11.360930
60.860748 56.542828 -19.713539
56.083669 23.352936 -5.830765
57.463470 25.204317 -12.344223
62.686202 37.436575 -52.826005
63.161776 47.262239 -53.011531
58.799899 27.290308 -11.772264
61.452852 33.018736 -21.248363
45.295288 14.580240 -19.589032
60.634904 57.033169 -49.976267
56.546462 23.920265 -15.165602
52.182026 19.260571 -51.824058
61.795495 33.984610 -36.687843
51.056029 18.283202 -47.127120
54.833007 21.854236 -56.230562
63.322045 45.015503 -8.150047
52.839913 19.831619 -20.355804
45.717131 14.787849 -23.347387
62.743138 37.769796 3.450101
63.241779 41.603108 -52.661630
50.357239 17.752993 -3.113801
57.644880 25.470388 -55.068343
58.443460 26.656937 -7.212759
54.874199 21.896709 -11.972164
61.798444 53.959895 -54.691639
62.009580 53.220049 -51.634889
56.867597 24.330359 -61.084424
63.169685 40.740728 -16.312369
43.477397 13.703110 -52.245461
44.080805 13.982534 1.224018
44.376229 14.127927 -50.886871
42.255993 13.227221 -13.987802
61.852313 34.144775 -51.614253
61.169538 55.705655 -35.426575
