-3.796852 48.159805 -0.212600
-24.913906 62.144083 -28.352883
-20.409135 60.927974 -37.912571
-0.850455 42.714851 -51.946624
-31.514797 62.736993 -27.266763
-0.261866 41.204168 -60.970737
-11.245676 56.049073 -55.492810
-20.080997 60.811563 -51.260287
-46.191206 59.153542 -45.285561
-44.006689 60.159710 -11.976433
-15.779368 58.929633 -44.939086
-0.277468 41.244212 -35.568351
-27.863786 62.575171 -34.968383
-16.063428 59.089486 -27.445436
-22.372578 61.542267 -34.892112
-37.250110 62.176666 -25.230749
0.531239 36.677042 -49.760899
0.736158 35.107208 -27.267257
-15.972177 59.038135 -5.428189
-29.811143 62.737965 -60.841691
-38.047167 62.036487 -1.350180
-12.602390 57.000960 1.924645
-0.662023 42.231219 -27.046986
-28.744636 62.648808 -22.537548
-42.273982 60.816026 -42.534680
-24.970310 62.153721 -21.196895
-40.618882 61.374149 -4.213886
-43.864720 60.225100 -40.416623
-1.903604 44.926992 1.905561
-36.487845 62.310727 -39.944664
-3.623713 47.900658 -33.763603
-45.808191 59.329955 -9.582486
-7.637098 52.856439 -56.624346
-26.103952 62.347447 -31.717873
-36.564397 62.297264 -23.223005
-11.699589 56.385413 -3.065431
-9.838241 54.900968 -20.046722
-19.177699 60.491105 -9.428887
-12.200896 56.727214 -20.900283
-11.368898 56.149590 -58.666275
-10.359052 55.325816 -60.989160
-10.101817 55.115979 -15.879177
-37.088091 62.205161 -47.805657
-1.444970 43.995100 -60.856328
-21.529709 61.322486 -19.119309
-34.078726 62.610295 -10.999671
-3.757599 48.105859 -42.069553
-37.077272 62.207064 -15.110433
-13.235671 57.432743 -44.271683
-3.036859 46.928682 -34.956557
-29.693046 62.728092 -2.124471
-27.326700 62.530272 -30.553393
-5.344065 50.286161 -42.847106
0.899823 33.853408 -11.363078
-7.020244 52.221731 -14.830604
-1.179932 43.456575 -38.451454
0.356837 38.013100 -3.164669
-43.687900 60.306541 -59.959806
0.047420 40.383480 -32.439354
-43.864691 60.225113 -46.229071
-2.696971 46.365745 -45.037604
-33.740070 62.640266 -53.148038
-39.237304 61.741608 -12.142303
-13.524280 57.629522 3.476304
-36.756705 62.263443 -20.455706
-24.861730 62.135166 -19.482237
-13.654974 57.718632 -53.278324
-40.167414 61.494226 -8.237491
-12.013009 56.599109 -15.141339
-22.087166 61.467845 -14.814432
0.828284 34.401447 -19.967862
-22.414815 61.553281 -48.147441
-22.317048 61.527787 -59.293496
-4.255009 48.789456 -2.239127
-7.061397 52.269140 -30.031689
-3.030758 46.918578 -15.172064
-7.491729 52.715451 -16.731311
-28.216900 62.604690 -57.934014
-40.598857 61.379475 3.512580
-35.471605 62.487022 -50.208832
-41.617569 61.052508 -29.165617
0.207853 39.154435 -13.586870
-1.068757 43.230680 -56.100437
-2.601346 46.207366 -21.260355
0.216745 39.086318 -15.545453
-16.801765 59.445609 -47.932407
-0.893211 42.824591 -15.910327
-25.799923 62.295492 -14.869662
-23.350571 61.797282 -44.334188
-10.271328 55.254256 1.062324
-22.246281 61.509335 -11.807132
-12.306599 56.799285 -52.212591
-14.658357 58.298789 -11.914155
-1.518828 44.145171 -13.858787
0.838490 34.323265 -16.659007
-6.934783 52.123277 -18.305663
-20.783740 61.060871 -13.680029
-32.883596 62.716066 -57.631912
-37.185800 62.187977 -30.468799
-30.401165 62.739731 -50.261117
-2.107974 45.342248 -46.883221
-36.603114 62.290455 -41.943704
-6.605444 51.743868 -31.917061
-6.308243 51.401482 -51.271760
-10.458484 55.406927 -25.589666
-42.958988 60.569243 -55.012213
0.872100 34.065782 -6.028162
0.687350 35.481113 -45.767581
-9.182274 54.355045 -17.252487
-16.834142 59.460331 -60.996742
-3.788605 48.148472 -27.677474
-37.954337 62.052813 -57.441477
-30.988465 62.738287 -48.805784
-20.579024 60.988245 -1.812643
-35.136712 62.516661 -20.110389
-10.499986 55.440782 -5.997742
-35.343929 62.498322 -24.596255
-42.652045 60.679824 -4.224022
-18.357542 60.152992 -55.053471
-2.423363 45.912582 -13.198078
-23.062113 61.722065 0.735868
0.615838 36.028949 -28.826003
0.646302 35.795575 -30.501495
-45.420245 59.508639 -60.742662
-12.940162 57.231260 -0.634059
-32.784083 62.724873 -12.292414
-9.238087 54.409176 -53.710574
-45.737272 59.362619 -7.342225
-42.147031 60.861762 -6.767237
-41.597126 61.059873 -38.373829
-36.938189 62.231525 -59.118171
-15.885794 58.989523 -18.794632
-33.357289 62.674143 -26.472852
0.347697 38.083123 -26.643074
-3.579751 47.827845 -50.023363
-0.812290 42.616896 2.216417
-30.571209 62.739313 -39.521282
-26.781628 62.463254 -16.665032
0.618310 36.010011 -44.246825
-1.945070 45.011246 -41.406049
-28.597875 62.636539 -25.637403
-26.052647 62.338680 -54.783772
-17.033655 59.551045 -22.580821
-3.392934 47.518430 -43.678589
-5.560155 50.539659 -32.072844
-2.738544 46.434600 -4.484557
-39.702126 61.617979 -56.589809
-37.114202 62.200569 -34.319474
-1.523229 44.154115 -7.722988
-18.303862 60.128585 -48.772973
-3.296279 47.358345 -10.752400
-11.523193 56.265143 -34.925787
-18.535433 60.233876 -1.470536
0.831324 34.378161 -50.253250
-18.958560 60.413362 -11.217012
-24.045678 61.978533 -34.079260
-37.284547 62.170610 -60.973057
-13.167180 57.386045 -10.673508
-38.575508 61.917626 -9.115235
-31.708484 62.736517 -34.031821
-28.954563 62.666357 -33.253735
-46.222657 59.139056 -47.370409
-34.763878 62.549658 -61.100702
-1.611532 44.333536 -26.624093
-25.149417 62.184329 0.625828
0.173665 39.416340 -19.613669
0.641054 35.835781 -38.906303
-13.410122 57.551687 -58.740861
-23.794342 61.912997 -46.369379
0.409206 37.611911 -7.305174
0.501668 36.903580 -4.962173
-0.280112 41.251000 -12.487916
0.874410 34.048089 -51.848965
-21.956172 61.433688 -24.493722
-41.078472 61.246725 -35.092027
-2.568342 46.152703 -16.809038
-0.340147 41.405086 -7.919811
-31.205800 62.737753 -23.987247
-18.370262 60.158775 -25.953862
-13.038373 57.298222 -19.364217
-0.757221 42.475555 -0.005344
-11.074754 55.909645 -41.393746
-21.446920 61.296144 -29.611257
-8.074364 53.280526 -3.096898
-0.448381 41.682881 -3.958708
-2.407177 45.885774 -60.561681
-30.216661 62.740184 -29.151740
-5.928557 50.964071 -54.333922
-40.701994 61.352043 -33.249251
-39.384795 61.702379 -48.003038
-41.108449 61.235925 -0.524359
-24.541188 62.080390 -42.549382
-39.052834 61.790671 -28.208018
-38.313006 61.987444 -16.377078
-8.635951 53.825187 -34.835894
0.869030 34.089301 -9.605633
-31.266892 62.737603 -52.880073
-44.112503 60.110973 -22.744401
0.627226 35.941711 3.539567
-2.103037 45.332216 -1.366375
0.563238 36.431911 -26.141502
-0.974255 43.032600 -30.259143
-33.007452 62.705104 -9.728086
-13.392069 57.539378 -23.524914
0.798165 34.632182 -4.004141
-10.630715 55.547423 -1.647455
-46.154477 59.170459 -58.711743
-1.369730 43.842222 -50.034399
0.324117 38.263760 -9.194833
-42.498449 60.735158 -39.601722
-23.935832 61.949891 -8.170236
-42.791561 60.629561 -1.808354
-9.525125 54.645546 -37.933190
-4.813624 49.557169 -34.942429
-37.704371 62.096775 -21.947887
-34.946423 62.533502 -8.975896
-32.918035 62.713018 -47.363445
-26.040097 62.336535 -13.140515
-14.057526 57.960674 0.947831
-9.018215 54.195930 -59.303891
-33.641644 62.648977 -28.285054
-4.129164 48.616506 -12.053632
0.888762 33.938144 -56.088551
-9.016330 54.194103 -60.854126
-3.698397 48.024352 -4.044424
0.234015 38.954012 -61.097656
-21.104824 61.174780 -54.531842
-2.888921 46.683662 -55.361349
-22.080701 61.466159 -46.195001
-0.523286 41.875134 -20.852900
-41.599529 61.059007 -31.038157
-3.367633 47.476525 3.687392
-37.708130 62.096114 -55.632234
-15.601031 58.829275 -53.446785
-16.475318 59.297180 -2.192789
-20.813360 61.071379 -11.174481
-2.238544 45.606477 -6.344765
-5.339948 50.280502 -2.631029
-39.723405 61.612319 -30.351077
0.233642 38.956875 -17.488711
0.827226 34.409557 -34.186325
0.491186 36.983886 -0.451807
-21.892853 61.417177 -20.974863
-3.388995 47.511906 -56.924066
-19.674329 60.667291 -33.421116
-0.141623 40.895552 -14.971683
-7.272969 52.503285 -43.329864
-44.916723 59.740557 -44.601814
-35.071406 62.522441 -54.423963
-0.040446 40.635868 -49.691210
-45.707958 59.376121 -53.761385
-32.494658 62.734585 -35.760192
0.200184 39.213185 -31.268814
-5.954882 50.994398 -35.612831
-18.298091 60.125961 -17.047360
-21.268633 61.232894 -60.865467
-5.860595 50.885776 -25.684167
-17.106129 59.583998 -30.516381
-9.539702 54.657438 -7.418819
-15.304741 58.662539 -51.522011
-5.371478 50.322297 -4.863591
-21.343201 61.259348 0.359039
-36.185082 62.363975 -53.209277
-31.339123 62.737425 -22.201676
-16.996875 59.534322 -14.053727
-25.440989 62.234155 -47.716714
-3.281637 47.334095 -13.202851
-6.486519 51.606862 -38.856160
-33.600850 62.652588 -59.040611
-11.057831 55.895839 -37.026624
-19.473271 60.595963 -47.177720
-1.407709 43.919392 -18.812956
-34.420026 62.580089 -0.987992
-2.368421 45.821586 -49.286961
-46.143837 59.175359 -14.903845
-35.314138 62.500959 -36.206178
-2.143797 45.415036 -28.337244
0.216021 39.091862 -43.387231
-46.028294 59.228577 -18.389738
0.750166 34.999893 0.638012
-16.122950 59.122982 -40.246623
0.410486 37.602104 -44.559500
-8.993726 54.172180 -25.186967
-8.828016 54.011464 -28.416771
-22.980095 61.700679 -29.079781
0.035180 40.441766 -58.806396
-38.584027 61.915360 -31.561627
-29.109027 62.679270 -36.193232
-46.118242 59.187148 -5.672058
-21.001201 61.138019 -58.165500
0.707980 35.323070 -57.828496
-13.900569 57.872348 -6.438229
-0.400672 41.560429 -40.917460
-10.701370 55.605059 -43.840995
-41.491910 61.097778 -48.574590
-18.162200 60.064174 -42.262840
-39.773010 61.599126 -17.747318
-33.129863 62.694271 0.319836
-21.570527 61.333130 -41.260326
-10.712190 55.613886 -14.446492
-3.457395 47.625193 -36.441838
-30.048728 62.740597 -26.190097
-5.125062 49.985182 -52.169185
-29.272704 62.692953 0.088835
-4.428564 49.027976 2.569667
-6.471450 51.589502 -57.331786
-9.562415 54.675966 -42.336978
0.349974 38.065675 -41.741218
-35.090055 62.520790 3.817310
-40.053522 61.524518 -26.639383
-3.565132 47.803632 -46.128209
-14.229769 58.057603 -21.425405
-4.062379 48.524723 -18.900842
-17.330420 59.685979 -28.865408
-9.328618 54.485247 -14.280406
-14.273817 58.082391 -39.751105
-12.045924 56.621551 -50.006856
-8.398471 53.594865 -15.416377
-39.735630 61.609068 -14.677357
-39.884496 61.569474 -39.453886
-11.941757 56.550528 -46.256174
-7.491262 52.714999 -4.533947
-22.356458 61.538064 -27.391488
-10.455391 55.404404 -39.794493
0.157893 39.537170 -6.732132
-4.512774 49.143706 -38.936737
-3.869556 48.259724 -9.197136
-23.766460 61.905726 -18.066546
-17.828897 59.912627 -45.895018
-1.862953 44.844393 -45.325750
0.368438 37.924230 -18.728634
-27.061336 62.508088 -49.321734
0.080830 40.127531 -54.599306
0.324651 38.259671 0.715214
0.549321 36.538525 -54.001852
-23.776676 61.908390 -52.889973
-31.319677 62.737473 -30.885398
-20.427735 60.934573 -27.211971
-15.434272 58.735431 -15.276698
-14.039494 57.950527 -36.435311
-13.983263 57.918884 -31.060347
-27.195291 62.519286 -56.048809
-37.026295 62.216029 -7.768247
-15.490463 58.767053 -46.690774
-12.393664 56.858647 -4.800243
-30.172083 62.740294 -58.869649
-2.168891 45.466024 -15.037181
-4.530034 49.167427 -46.634116
-0.970930 43.024064 -45.748003
-15.392645 58.712006 -25.535516
-7.448351 52.673381 -7.344797
-28.673068 62.642825 -27.550568
-41.864778 60.963447 -22.173371
-17.297994 59.671235 -19.216691
-39.698733 61.618881 -44.728981
-17.682659 59.846135 -32.312110
-17.824099 59.910446 0.048875
0.873314 34.056486 -36.375653
-45.860081 59.306055 -13.195092
-1.608603 44.327583 -52.310880
-8.467654 53.661963 -5.517753
-11.970741 56.570290 -11.835541
-19.712841 60.680954 -41.540379
-1.089439 43.272704 -9.210768
-3.098562 47.030878 -18.160338
-13.176144 57.392156 -13.201471
-5.671810 50.668290 -6.789325
0.132940 39.728326 -21.285967
-8.403920 53.600150 -0.657562
-15.429147 58.732547 -36.921141
-0.594985 42.059158 -5.770159
-8.403698 53.599935 -10.854131
-17.025838 59.547491 3.687056
-16.700248 59.399451 -24.311248
-26.895344 62.482687 -45.136865
-11.572691 56.298892 -29.933258
-15.678893 58.873091 -7.954431
-28.442925 62.623585 -15.955789
0.659710 35.692856 -24.593524
-33.069190 62.699640 -4.354217
0.735229 35.114324 -61.107978
0.539226 36.615861 -47.488540
-0.192481 41.026085 -9.910321
-6.185205 51.259738 -16.519455
-5.167473 50.043468 -59.484120
-24.583685 62.087652 -38.509553
-18.206122 60.084144 -50.455589
0.131608 39.738529 -8.423576
-36.173761 62.365966 -38.204143
-32.274150 62.735127 -39.150683
-37.440922 62.143108 -12.149709
-0.366169 41.471874 -22.835336
-17.214177 59.633125 -15.604725
-25.229213 62.197965 -16.408272
-10.024820 55.053169 -28.142478
-8.777853 53.962813 -12.712835
-45.219713 59.601002 -34.635947
-3.460688 47.630648 -5.914191
-23.047778 61.718328 -50.328499
-10.208065 55.202650 -3.842295
-21.418282 61.285984 -33.492970
-0.192188 41.025333 -2.223419
0.153901 39.567753 -29.731829
-11.668831 56.364442 -39.117313
-31.455441 62.737139 -56.130646
-25.900745 62.312722 -18.052473
0.541576 36.597853 1.328476
-29.156654 62.683251 2.256954
-6.809346 51.978769 -36.872339
-13.143683 57.370024 -28.235620
-3.171326 47.151392 -22.504567
-27.991163 62.585819 -1.419010
-2.399681 45.873360 -53.133290
-12.929589 57.224051 -7.780492
-0.072953 40.719300 -42.619674
-0.430325 41.636539 -46.260139
-2.016444 45.156269 -19.886750
-4.593426 49.254548 -54.893213
-43.378481 60.418115 -37.456861
-0.003640 40.541401 -24.199790
-3.929822 48.342548 -30.785654
-40.837767 61.315932 -52.732708
-2.359633 45.807030 0.697830
-31.895514 62.736058 -45.435442
-35.773369 62.436384 -6.267289
0.300790 38.442462 -57.272486
-12.621692 57.014121 -36.789033
-25.491867 62.242849 -35.238329
-29.916711 62.740921 -3.705080
-19.235937 60.511765 -13.728233
-28.769146 62.650857 -47.327582
-45.414373 59.511344 -57.008353
-15.257459 58.635931 -22.842657
-19.893588 60.745077 -53.174101
-9.047789 54.224613 -26.770482
-3.419786 47.562904 -59.951000
-37.235134 62.179300 -32.701758
-4.115584 48.597844 -60.998143
-23.229908 61.765819 -60.646065
-1.859137 44.836641 -43.154341
-20.183106 60.847787 -31.595675
-39.822661 61.585920 -22.667852
0.855027 34.196574 -14.513797
-10.204804 55.199989 -12.864288
-43.936036 60.192253 2.845861
-27.680359 62.559837 -24.038316
-9.174039 54.347058 -31.948582
-29.180175 62.685218 -49.145752
-26.172555 62.359171 -33.802674
-27.361426 62.533175 -38.382161
-17.752670 59.877968 -3.339324
-4.605659 49.271359 -24.833521
-19.200455 60.499178 3.742437
-28.764754 62.650490 -5.157023
0.097775 39.997722 -53.001233
0.269353 38.683300 -5.035672
-44.307383 60.021213 -36.180146
-11.953684 56.558660 -53.937143
-37.355071 62.158207 -28.770855
-29.743290 62.732293 -16.955187
-11.622192 56.332643 -28.288501
-43.516309 60.368461 -20.990081
-39.187430 61.754873 -33.218517
-29.895321 62.740974 -57.074771
0.727802 35.171218 -54.820172
-46.101064 59.195060 -43.156801
-19.150260 60.481370 -58.606913
-44.295076 60.026882 -33.106723
-2.585016 46.180320 -40.103590
0.852972 34.212318 -23.596235
-41.420625 61.123459 -55.999815
-12.078741 56.643926 3.802146
-23.441673 61.821037 3.665605
-13.636345 57.705930 -38.248137
-6.428270 51.539757 -2.738903
-14.909574 58.440160 -58.107176
-17.048601 59.557841 -7.129655
0.776931 34.794851 -18.270765
-6.540008 51.668482 -8.691580
-0.930872 42.921251 -59.764552
-46.099532 59.195766 -21.721543
-40.241916 61.474410 -20.466495
-3.701527 48.028800 -17.106783
-11.683493 56.374439 -26.557273
0.095201 40.017434 -47.612979
-15.694290 58.881755 -30.578923
-8.624722 53.814297 -19.235557
0.813377 34.515651 -31.411492
-13.681420 57.736663 -56.788028
-44.923522 59.737425 -17.245247
-5.018973 49.839382 -0.982204
-40.130089 61.504153 -59.179749
-18.956250 60.412542 -56.683604
-33.576429 62.654749 -42.709830
-10.643871 55.558155 -10.686617
-24.171015 62.011215 -24.881137
-1.792187 44.700605 -10.181398
-9.417001 54.557345 -9.387260
0.070221 40.208800 -44.780735
0.047899 40.379804 -27.485716
-27.373123 62.534153 -28.419665
-10.167953 55.169929 -35.768201
-38.662483 61.894493 -7.463766
-20.031814 60.794114 -24.059400
-6.667964 51.815892 -20.231702
-10.638104 55.553451 -31.333842
-43.797888 60.255882 -29.412805
-43.219624 60.475346 -31.247195
-8.062311 53.268836 -55.050288
-45.873205 59.300010 -38.178465
-25.344159 62.217608 -44.498185
0.206415 39.165455 -37.491645
-34.378504 62.583764 -7.159625
-41.712310 61.018376 -59.728650
-4.544390 49.187157 -44.592323
-39.774212 61.598806 -2.092707
-4.951490 49.746640 -9.496432
-31.001940 62.738254 2.722704
-18.892809 60.390036 -43.765158
-27.851647 62.574156 -19.683494
-15.757695 58.917436 -33.446385
-36.567116 62.296786 2.844529
-15.905782 59.000772 -38.474271
-26.866782 62.477806 -7.127692
-12.297568 56.793127 -31.277315
0.890430 33.925364 -53.614979
-5.337360 50.276945 -13.305151
-40.524131 61.399350 -24.129244
-16.449298 59.285350 -57.110251
-38.185539 62.012151 -18.236342
-31.461777 62.737124 -7.699307
-26.218197 62.366970 -58.903726
-2.722037 46.407260 2.679088
-21.887269 61.415721 -36.434227
-0.988189 43.066976 -35.033227
-33.786861 62.636125 -18.960157
-2.197130 45.523403 -51.137702
-14.783695 58.369322 -9.593620
-3.313178 47.386335 -19.960238
-34.611442 62.563148 -31.339576
-7.449879 52.674863 -45.638912
-28.732402 62.647785 -7.151175
-2.681163 46.339564 -2.908877
-4.497415 49.122598 -7.728691
-11.257824 56.058982 -8.427757
-16.606764 59.356946 -55.060350
-38.627734 61.903735 -5.049714
-39.316335 61.720588 -25.126150
-2.821989 46.572805 -9.076819
-1.457602 44.020767 -58.684018
-9.045929 54.222809 -21.509834
-29.747979 62.732685 -14.601726
-7.511812 52.734929 -40.310378
-43.540941 60.359587 -5.890836
-3.797995 48.161376 -47.865619
-7.516304 52.739286 -58.208093
0.160416 39.517842 -35.403889
-31.991535 62.735822 -51.269408
-32.938841 62.711176 -1.600429
-20.292026 60.886428 -22.057177
-38.346572 61.978516 -46.292394
-0.828834 42.659358 -47.480124
0.636706 35.869090 -2.070746
-35.365646 62.496400 -28.591095
-2.060272 45.245322 -30.379088
-37.954092 62.052856 3.764176
0.536365 36.637774 -8.970822
-38.185580 62.012144 -3.465363
-0.341887 41.409552 -29.132117
-28.646372 62.640593 -59.456670
-30.179153 62.740276 -10.409242
-41.227189 61.193147 -19.208219
-8.450087 53.644925 -30.232066
-14.313338 58.104631 -4.734438
-3.479471 47.661757 -25.000614
-6.282555 51.371889 -12.078009
-0.380907 41.509701 -52.917956
-5.334809 50.273440 -57.807279
-30.747180 62.738880 -37.384223
-5.607336 50.594014 -33.715342
-17.726076 59.865876 -39.174344
-37.958889 62.052012 -37.908394
-42.330205 60.795771 3.804429
-4.159704 48.658477 -13.928769
0.263730 38.726372 -51.185225
-5.017628 49.837534 -15.490414
-18.961252 60.414317 -7.785268
-19.886741 60.742648 -6.073907
-45.515569 59.464734 -2.132907
-35.727159 62.444511 0.009703
-27.897223 62.577966 -18.020030
-27.893050 62.577617 -54.471921
-7.729285 52.945848 -52.451461
-26.490058 62.413428 -9.379032
-41.056074 61.254794 -13.851776
-46.202592 59.148298 -30.738578
0.546043 36.563638 -55.944931
-21.081337 61.166448 -3.768215
-43.412465 60.405872 -18.202347
-32.573640 62.734391 -31.829289
-5.293997 50.217352 -28.392927
-4.256696 48.791775 -53.160691
-18.815854 60.361378 -20.353335
-33.769993 62.637618 -33.636556
-43.277167 60.454615 -34.769055
-28.470078 62.625855 -9.170783
-32.561736 62.734420 -43.916708
-15.327705 58.675461 -43.329563
-44.189465 60.075525 -49.724266
-13.558421 57.652800 -51.003666
-1.294212 43.688778 -21.174873
-37.777890 62.083845 -50.772266
-16.142440 59.133949 -10.783863
-45.806505 59.330732 -3.679503
-45.043864 59.681997 -0.290627
-31.253113 62.737637 -60.151462
-3.111930 47.053019 -32.081612
-0.996658 43.084183 -43.191631
0.470993 37.138574 -10.884825
-5.258384 50.168408 -36.713270
-2.176631 45.481750 -18.343872
-7.511189 52.734325 -12.785196
-7.202130 52.431270 -23.930120
-8.467233 53.661555 -41.208059
-35.458875 62.488149 1.652121
-25.309569 62.211697 3.747447
-3.977048 48.407451 -15.510371
-24.961650 62.152241 -60.527043
-3.503819 47.702083 1.582390
-13.632896 57.703579 -42.014290
-25.445561 62.234936 -37.110354
0.201405 39.203832 -25.508166
-1.923816 44.968060 -39.226750
-17.595583 59.806544 -58.242026
-2.092121 45.310035 -24.669649
-5.022671 49.844465 -19.446649
-33.892744 62.626754 -49.041581
-32.467896 62.734651 -14.420579
-18.232166 60.095986 -24.292948
-13.841831 57.839293 -60.857486
-17.868217 59.930505 -10.102251
-34.441778 62.578164 -39.532153
-19.269178 60.523558 -2.915543
-10.449690 55.399753 -46.456126
-14.149438 58.012398 -34.198246
-0.403546 41.567808 -39.079490
-21.845053 61.404713 -6.582911
0.896034 33.882432 -45.984520
-5.437476 50.398329 -23.859468
-7.419952 52.645838 -9.615190
-33.582816 62.654184 2.106159
-15.589419 58.822740 -0.369930
-45.951016 59.264171 -23.566404
-42.661098 60.676562 -26.112015
-0.241556 41.152041 -25.605482
0.854043 34.204119 -1.076835
-13.082015 57.327978 -48.021320
0.618375 36.009515 -34.623973
-4.566261 49.217214 -49.439274
-31.067624 62.738093 -15.816879
-8.420137 53.615878 -36.470635
-41.682672 61.029053 -17.425238
-1.195366 43.487935 -28.165798
0.886849 33.952799 -25.591848
-5.766394 50.777254 -49.615444
-18.490657 60.213517 -22.477391
-24.876474 62.137686 -9.861551
-2.966011 46.811341 -30.018296
-24.281951 62.036089 -26.851237
-40.039797 61.528168 -37.517815
-38.851780 61.844146 -42.698533
-27.518351 62.546293 0.954351
-4.971550 49.774208 -26.656134
-41.519400 61.087874 -54.163063
-43.064087 60.531380 -52.991908
-6.634291 51.777100 -27.404641
-0.710625 42.355962 -37.086335
-14.626488 58.280855 -28.067376
-41.108997 61.235727 -50.481733
-29.082175 62.677025 -37.924546
-14.044574 57.953386 -14.995576
-39.912907 61.561917 -41.099004
-9.799701 54.869530 -23.497736
-8.106182 53.311385 -47.502688
0.663569 35.663294 -40.581453
-15.810971 58.947417 -12.772554
-44.273516 60.036812 -54.382129
-1.237792 43.574139 -5.709451
-0.584948 42.033398 -33.189166
-43.221071 60.474824 -16.347589
-16.701368 59.399961 1.306127
-10.039519 55.065159 -49.934494
-19.209710 60.502461 -39.426295
-45.701261 59.379206 -26.704628
-7.351869 52.579807 -50.605584
-28.016985 62.587978 -39.924548
-9.616874 54.720390 -33.861407
-5.181292 50.062459 -11.188975
-29.248213 62.690906 -45.424212
-42.264897 60.819299 -51.702921
-35.735420 62.443058 -12.321042
-23.876794 61.934496 -0.589306
0.539169 36.616293 -12.473601
-4.618706 49.289290 -32.763994
-40.779569 61.331411 0.970109
-7.211568 52.442142 -35.243762
-35.471379 62.487043 -33.157703
-2.130860 45.388748 -54.721447
-33.823373 62.632894 -15.545217
-45.202475 59.608942 1.901713
-42.686241 60.667504 -49.764155
-0.228993 41.119797 -51.232811
-20.005040 60.784616 -17.640191
-16.962323 59.518612 -52.285812
-21.462986 61.301843 -17.237433
-15.850230 58.969510 -21.020148
-38.069521 62.032555 -44.043616
0.083975 40.103434 -4.335949
-14.026505 57.943218 -45.893732
0.899295 33.857450 2.610292
-10.252260 55.238701 3.148643
-36.736621 62.266975 -16.764652
-35.441654 62.489673 -17.860516
-32.717233 62.730789 -54.565056
-6.659996 51.806713 -53.066953
-33.667094 62.646725 -38.196649
-1.788814 44.693751 -4.440466
-42.193462 60.845034 -58.070906
-31.936909 62.735956 -25.565668
0.371526 37.900573 3.189535
-30.208491 62.740204 -41.125973
-23.215968 61.762184 -9.711972
-6.747143 51.907109 -41.487722
-25.104316 62.176621 -40.208205
0.327798 38.235560 -53.153582
-4.088827 48.561070 -21.034170
0.878873 34.013901 -21.464672
-23.113215 61.735391 -37.665619
-24.084398 61.988630 -55.001919
-5.052690 49.885720 -17.526594
-32.971388 62.708296 -21.958901
-22.948621 61.692472 -57.535232
-20.270380 60.878749 -36.277984
-12.298015 56.793432 -42.289955
-5.740398 50.747306 -30.082200
-12.100353 56.658662 -9.643386
-24.024660 61.973053 -12.780945
-25.862507 62.306187 -0.839619
0.674956 35.576060 -32.964907
-34.838425 62.543060 -41.617127
0.246555 38.857945 -32.965550
-30.636318 62.739153 -12.840859
-28.391698 62.619303 -50.940917
-9.221670 54.393253 -46.617652
-1.991202 45.104979 -36.991194
0.880498 34.001450 -59.175292
-11.559933 56.290193 0.204809
0.520661 36.758081 -52.289405
-46.079718 59.204892 -33.353760
-33.685860 62.645064 -23.608185
-1.285410 43.670894 -54.421495
-23.287905 61.780942 -41.092636
-6.859002 52.035974 -55.272762
-40.826277 61.318988 -12.180175
-12.699444 57.067134 -55.478356
-34.948395 62.533327 -56.235883
-1.441994 43.989054 -23.815500
-15.130543 58.564509 -48.545130
-31.304405 62.737511 -1.914952
-10.864768 55.738350 -21.854628
0.763121 34.900646 -12.612602
-1.680207 44.473075 -0.023620
-39.323935 61.718566 -35.941627
0.386230 37.787929 -29.785793
-45.739755 59.361476 -36.178478
-5.807266 50.824340 -22.377454
-6.938387 52.127429 -22.072816
-0.659583 42.224956 -57.744588
-7.764141 52.979654 -31.770392
-39.340820 61.714075 -0.308841
-4.401557 48.990859 -5.662560
-19.546814 60.622054 -29.879641
0.502730 36.895449 -16.935512
-16.193405 59.162630 -17.006444
-18.174859 60.069929 -5.313588
-5.229222 50.128330 -47.959881
-43.952652 60.184599 -7.506773
-29.248948 62.690967 -53.364580
-36.925065 62.233833 -9.590912
-33.015030 62.704434 -60.646304
-38.252231 62.000422 -49.101381
-23.034888 61.714967 -32.649670
-30.602892 62.739235 -54.706770
-42.275518 60.815472 -11.846152
-7.129109 52.347148 -25.883186
-36.368666 62.331688 -44.073412
-6.776282 51.940678 3.303064
-30.260556 62.740076 -19.680829
-12.014848 56.600363 -24.610504
-43.155929 60.498293 -47.898362
-15.202552 58.605032 -55.845924
-20.732002 61.042516 -9.287788
0.682962 35.514727 -22.687879
-1.711541 44.536742 -11.844728
-40.889330 61.302217 -43.116036
-11.140651 55.963400 -18.422994
-25.185313 62.190463 -3.726911
-27.309793 62.528859 3.535955
-35.467630 62.487374 -14.219789
-0.272373 41.231137 -56.301667
-10.663931 55.574518 -52.707870
-4.932725 49.720851 -40.864683
-24.616585 62.093274 -57.365614
-41.704251 61.021279 -8.389426
-1.005771 43.102701 -25.132422
0.329859 38.219772 -12.168164
-13.986195 57.920534 -25.249306
-36.943701 62.230555 -45.627778
-22.091754 61.469041 -1.579504
-34.412624 62.580744 -5.430270
0.313394 38.345911 -54.863903
-2.800624 46.537420 -37.804039
0.399540 37.685961 -35.768198
-40.058566 61.523176 -46.345097
-18.849201 60.374565 -35.531310
-12.383531 56.851738 -40.575962
-27.901802 62.578349 -43.180947
-19.421221 60.577498 -61.064284
-43.556960 60.353816 -56.599576
-24.193662 62.017121 -30.883547
-6.867138 52.045347 -6.006670
-0.127376 40.858984 3.242229
-33.895354 62.626523 -51.293631
-27.105371 62.511769 -47.035683
0.896895 33.875832 -29.075363
-22.805479 61.655147 -42.681700
-8.303056 53.502326 -8.457772
-7.087760 52.299511 1.129966
-41.394461 61.132885 -2.556276
-13.141808 57.368746 -32.868237
-44.227710 60.057910 -43.133480
-5.644536 50.636869 3.192031
-27.241706 62.523167 -26.693332
-0.663831 42.235860 -17.947548
-15.875863 58.983935 -59.767986
-44.749938 59.817377 -14.288621
-39.211241 61.748540 2.424839
-42.160553 60.856890 -10.160083
-25.063241 62.169602 -51.355730
-21.483257 61.309035 -56.129242
-0.691749 42.307513 -49.561609
-20.143075 60.833586 -49.455553
-28.126123 62.597102 -13.816537
-5.813366 50.831367 0.323805
-21.974197 61.438388 2.531843
0.453567 37.272074 -24.772831
-1.996878 45.116514 -35.383496
0.452905 37.277143 -33.314049
-7.591605 52.812318 -60.612617
-1.075510 43.244401 -40.819366
0.878288 34.018382 -38.630331
-32.419437 62.734770 -16.967205
-6.268843 51.356092 -10.471897
-32.057253 62.735660 -19.148932
-25.737005 62.284740 -22.628687
-14.960589 58.468869 3.676206
-1.227730 43.553694 -3.388152
-42.313242 60.801882 -33.480682
-39.968949 61.547012 -6.100861
0.577902 36.319570 -15.059807
-30.751547 62.738869 -32.710469
-8.439329 53.634492 -23.044530
-42.896439 60.591777 1.257838
-6.611796 51.751185 -48.743946
-42.837260 60.613097 -44.904625
-24.060813 61.982480 -48.602423
-18.111771 60.041244 -53.199821
-38.618086 61.906301 -53.426551
0.397644 37.700488 -20.893665
-28.875422 62.659741 -55.834300
-0.158006 40.937599 -16.598775
-45.519019 59.463145 -41.695596
-41.920515 60.943367 -46.676248
-44.204891 60.068420 -9.644893
-26.272492 62.376249 -5.492996
-0.856784 42.731097 -12.768056
-26.643128 62.439586 -40.907922
-21.516487 61.319038 -52.841912
-36.199106 62.361509 -4.716650
0.868740 34.091525 -40.277467
-18.177481 60.071121 -34.049277
-7.712002 52.929086 -38.014246
-45.985677 59.248207 -55.549061
-1.394520 43.892593 3.766521
-44.910027 59.743641 -51.158891
-26.158177 62.356714 -25.361724
-21.789257 61.390164 -31.299655
-27.144065 62.515004 -60.525491
0.306801 38.396417 -49.385153
-25.313572 62.212381 -11.713694
-43.180380 60.489484 -13.711688
-46.131295 59.181136 -49.577128
-14.306350 58.100699 -1.448640
-11.825296 56.471123 -6.450642
-3.255142 47.290212 -53.431536
-5.514912 50.487539 -39.405882
-35.970700 62.401679 -1.679702
-27.153418 62.515786 -3.693778
-15.128040 58.563101 -2.938565
-3.584116 47.835074 -39.368398
-12.165417 56.703024 -57.248852
-30.942532 62.738400 -46.696576
-0.747767 42.451292 -1.731943
-19.565501 60.628683 -15.528387
-8.587676 53.778368 0.967548
-0.801830 42.590049 -10.927401
-37.551733 62.123620 0.912163
-4.619633 49.290564 -22.359845
-44.945350 59.727372 -24.817468
-19.613954 60.645872 -0.093626
0.074448 40.176419 0.516601
0.607920 36.089612 -37.037167
0.311622 38.359484 -23.519777
-45.805416 59.331233 -11.202875
-45.664219 59.396267 -39.992567
-1.509097 44.125399 -48.157405
-15.072443 58.531814 -41.257514
-30.847411 62.738634 -43.701725
-23.230318 61.765926 -3.327802
-2.118868 45.364382 -22.689939
0.880653 34.000261 -47.903509
-24.146692 62.004873 -5.184518
-29.195653 62.686512 -30.573840
-8.043548 53.250639 2.880790
-11.040895 55.882024 -33.358492
-10.947122 55.805530 -48.322656
-32.190400 62.735333 -41.127530
-2.116720 45.360019 3.781394
0.274724 38.642154 -46.001600
-31.791622 62.736313 -6.080718
-34.911856 62.536561 -22.247994
-1.706039 44.525562 -16.868044
-8.937787 54.117927 -49.314165
0.468029 37.161283 -60.601471
0.128497 39.762366 -11.536280
-39.495167 61.673024 -51.380061
-44.072093 60.129586 -3.880188
-15.632702 58.847097 -35.246077
-30.759284 62.738850 -35.651580
-9.278482 54.444349 -2.214074
-8.871029 54.053181 -44.707434
-35.416405 62.491908 -47.259766
-0.520510 41.868010 -54.784472
-10.130504 55.139380 -56.773067
-17.157243 59.607239 -44.333575
-31.026480 62.738194 0.985718
-12.116456 56.669641 -60.600308
-13.046378 57.303679 -16.241769
-13.816365 57.824962 -18.037273
-6.616178 51.756233 -1.109301
0.405086 37.643479 -39.798898
-17.220742 59.636110 -12.416594
-8.996380 54.174753 -51.007744
-26.908644 62.484959 -21.290986
-2.128903 45.384772 -32.549052
-35.333251 62.499267 -27.001136
-23.555821 61.850801 -16.242844
-38.371391 61.971915 -13.822924
-27.836457 62.572886 -12.171692
-2.914250 46.725612 -58.673285
-44.195176 60.072895 -58.360145
-34.406918 62.581249 -44.343487
0.857793 34.175385 -43.127733
-20.508466 60.963214 -45.398030
-6.340354 51.438475 -45.299512
-25.121871 62.179621 -7.046205
-3.782785 48.140473 -51.697322
0.130092 39.750142 -40.455473
-21.530300 61.322640 -39.339057
-18.700147 60.308768 -37.373149
-36.154322 62.369385 -57.516161
-38.911945 61.828144 -19.713114
-45.017351 59.694209 -48.340961
-13.168948 57.387250 -3.158437
-45.218375 59.601619 -29.442782
-6.431595 51.543587 -59.866106
0.280280 38.599588 -28.374184
-26.884240 62.480789 -53.104944
0.823831 34.435561 -7.738740
-22.610304 61.604255 -22.864663
-23.441730 61.821052 -19.997775
-41.926711 60.941135 -15.340650
-42.130983 60.867543 -24.212397
-20.515727 60.965790 -7.650132
0.649900 35.768012 -6.694148
-19.018592 60.434659 2.034452
-1.837746 44.793175 -56.802754
-40.523739 61.399454 -9.882509
-37.016218 62.217802 -36.507049
-7.245714 52.476852 -33.344234
