-56.586254 -33.631081 -11.317444 19.00000000
-56.583067 -33.807352 -6.517697 19.00000000
-43.880952 -2.651316 -9.403034 19.00000000
-41.705340 -0.773666 -23.167721 19.00000000
-54.639961 -19.398387 -19.348694 19.00000000
-28.907370 6.023123 -31.447614 19.00000000
-45.637698 -4.394992 -20.028140 19.00000000
-50.415918 -10.455636 3.571424 19.00000000
-33.402945 4.304640 -16.798689 19.00000000
-53.798231 -17.102159 -55.650492 19.00000000
-53.721379 -16.908218 -39.816288 19.00000000
-22.858266 7.650795 -12.565275 19.00000000
-29.466091 5.835694 -16.038366 19.00000000
-27.115794 6.548194 -54.614577 19.00000000
-37.373157 2.216356 -53.816017 19.00000000
-22.120361 7.841895 -33.571398 19.00000000
-42.309779 -1.275915 -38.292088 19.00000000
-35.496705 3.264091 0.955945 19.00000000
-35.476918 3.274439 -20.933023 19.00000000
-56.602982 -32.706193 -9.640607 19.00000000
-51.028744 -11.488648 -5.150549 19.00000000
-44.334736 -3.058411 -50.235387 19.00000000
-33.160108 4.408101 -4.284428 19.00000000
-54.391148 -18.598429 -7.581065 19.00000000
-22.093918 7.848743 3.257064 19.00000000
-56.631072 -31.152820 -40.367680 19.00000000
-47.697994 -6.728059 -52.833382 19.00000000
-25.344901 7.006814 2.717766 19.00000000
-32.618107 4.639020 -37.857230 19.00000000
-34.147950 3.969431 -57.233014 19.00000000
-30.854920 5.369794 -60.652547 19.00000000
-55.341387 -21.700342 -9.684135 19.00000000
-46.708037 -5.537325 -45.861257 19.00000000
-44.177812 -2.911188 -11.916493 19.00000000
-30.503494 5.487684 3.707648 19.00000000
-21.756395 7.936154 -6.194225 19.00000000
-21.581416 7.981470 -7.826316 19.00000000
-55.898102 -24.200010 -0.704048 19.00000000
-34.058208 4.016362 3.538228 19.00000000
-54.041581 -17.716271 -28.511064 19.00000000
-43.479029 -2.299474 -5.360560 19.00000000
-38.630569 1.426435 -24.336619 19.00000000
-56.632022 -31.100271 -5.989921 19.00000000
-49.959405 -9.769152 -30.500274 19.00000000
-42.346528 -1.308085 -8.458662 19.00000000
-53.471618 -16.277926 -59.463077 19.00000000
-56.466389 -28.154188 -9.054812 19.00000000
-56.348284 -27.110671 -33.671246 19.00000000
-44.902076 -3.640389 -36.218529 19.00000000
-36.836957 2.553204 -29.589546 19.00000000
-47.164241 -6.086054 -41.063580 19.00000000
-42.256239 -1.229046 -26.047793 19.00000000
-36.072222 2.963121 -51.638024 19.00000000
-56.430646 -27.694841 -35.972726 19.00000000
-36.359126 2.813083 -6.914680 19.00000000
-42.779771 -1.687345 -43.473161 19.00000000
-55.579810 -22.770868 -24.842169 19.00000000
-44.601060 -3.331607 -45.060351 19.00000000
-33.717036 4.170822 -15.283157 19.00000000
-41.056083 -0.290299 -16.194112 19.00000000
-23.991164 7.357401 -29.366346 19.00000000
-48.562777 -7.789977 3.454068 19.00000000
-56.374967 -27.299923 -29.215946 19.00000000
-47.864240 -6.928023 -36.117954 19.00000000
-33.098554 4.434326 -35.833488 19.00000000
-47.736337 -6.774179 -48.341365 19.00000000
-37.595284 2.076814 -45.780278 19.00000000
-56.594139 -33.194155 -59.104571 19.00000000
-42.560237 -1.495166 -12.494878 19.00000000
-46.857773 -5.717430 -18.975137 19.00000000
-50.262102 -10.198106 -51.393704 19.00000000
-48.113276 -7.227567 -41.745140 19.00000000
-35.959193 3.022230 -41.475594 19.00000000
-52.485666 -14.161481 -0.932144 19.00000000
-56.355267 -27.160201 -27.282412 19.00000000
-51.802753 -12.793359 -47.134227 19.00000000
-56.556805 -29.634764 -44.085233 19.00000000
-21.676983 7.956720 -36.495043 19.00000000
-35.966100 3.018618 -9.929245 19.00000000
-26.308465 6.757273 1.333224 19.00000000
-26.687852 6.659021 -41.803579 19.00000000
-42.797597 -1.702950 -24.220902 19.00000000
-53.088752 -15.389901 -6.728174 19.00000000
-28.435589 6.181388 -24.828290 19.00000000
-54.262454 -18.273659 -58.916780 19.00000000
-39.139723 1.106579 -26.257562 19.00000000
-40.286371 0.282746 -0.248268 19.00000000
-43.670745 -2.467302 -27.905564 19.00000000
-55.411736 -22.016211 -7.343852 19.00000000
-53.365061 -16.009024 -11.848243 19.00000000
-51.352080 -12.033680 -38.237649 19.00000000
-54.242868 -18.224233 -34.891380 19.00000000
-46.316042 -5.090838 -16.441251 19.00000000
-49.126273 -8.588512 -43.766644 19.00000000
-55.121550 -20.965101 -58.829170 19.00000000
-56.283841 -26.653590 -8.993470 19.00000000
-50.165706 -10.061502 -55.785172 19.00000000
-51.936799 -13.043495 -26.277182 19.00000000
-38.921055 1.243948 -13.317194 19.00000000
-53.270372 -15.770068 -47.934713 19.00000000
-56.074547 -25.169126 -28.168521 19.00000000
-40.603397 0.046722 -20.329840 19.00000000
-54.620815 -19.336103 -21.252548 19.00000000
-51.717767 -12.650103 -40.912919 19.00000000
-55.524266 -22.521473 -43.107473 19.00000000
-25.731556 6.906679 -34.761147 19.00000000
-49.415598 -8.998518 -54.477559 19.00000000
-50.785186 -11.078094 -20.068406 19.00000000
-50.767052 -11.047527 2.214089 19.00000000
-45.818514 -4.580474 -22.412845 19.00000000
-56.585476 -33.673728 -27.394407 19.00000000
-43.442425 -2.267431 -3.786941 19.00000000
-47.649812 -6.670106 -17.700966 19.00000000
-56.632249 -30.870149 -28.794477 19.00000000
-38.081717 1.771231 -37.351345 19.00000000
-39.472472 0.888688 -28.525814 19.00000000
-39.913156 0.560602 -35.725086 19.00000000
-56.633572 -30.891824 -45.892823 19.00000000
-56.603289 -30.395942 -34.028279 19.00000000
-28.990830 5.995126 -53.603023 19.00000000
-53.159023 -15.533035 -31.910534 19.00000000
-56.578759 -34.044420 -8.346237 19.00000000
-56.488179 -28.511009 -32.905671 19.00000000
-26.982476 6.582720 2.809222 19.00000000
-28.425225 6.184865 1.576105 19.00000000
-48.093697 -7.204017 -37.844873 19.00000000
-44.976362 -3.716593 -16.084263 19.00000000
-56.523086 -29.082607 -35.193799 19.00000000
-54.133133 -17.947309 -17.562117 19.00000000
-54.678649 -19.524249 -56.152090 19.00000000
-37.489629 2.143187 -12.861096 19.00000000
-37.950313 1.853780 -28.184580 19.00000000
-42.056389 -1.054098 -54.409478 19.00000000
-51.025945 -11.483931 -8.194229 19.00000000
-56.224886 -26.235436 -6.817215 19.00000000
-41.701477 -0.770790 -34.064498 19.00000000
-49.560318 -9.203601 -23.407776 19.00000000
-56.580152 -33.967487 -49.392624 19.00000000
-46.978817 -5.863023 -5.662374 19.00000000
-39.354603 0.971588 -11.497600 19.00000000
-56.457936 -28.015772 -31.322035 19.00000000
-52.653750 -14.503849 -27.318367 19.00000000
-22.595583 7.718824 -25.427177 19.00000000
-54.638973 -19.395173 -25.917260 19.00000000
-24.091631 7.331382 -60.624098 19.00000000
-31.341896 5.182750 -33.719179 19.00000000
-56.533272 -29.891238 -61.120979 19.00000000
-48.121587 -7.237564 -3.520745 19.00000000
-42.096085 -1.088848 -51.625550 19.00000000
-55.817504 -23.838123 -15.425446 19.00000000
-33.399581 4.306074 -6.695342 19.00000000
-33.500682 4.263000 -18.479643 19.00000000
-44.940075 -3.679369 -0.146701 19.00000000
-34.394058 3.840727 -2.634369 19.00000000
-52.388774 -13.964122 -5.871856 19.00000000
-54.043190 -17.720330 -57.195581 19.00000000
-53.454913 -16.235771 -22.140953 19.00000000
-56.582160 -33.857638 3.523879 19.00000000
-52.861846 -14.927719 -44.470133 19.00000000
-41.472085 -0.600009 -7.088050 19.00000000
-28.239249 6.247253 -47.556960 19.00000000
-23.585403 7.462483 -46.836103 19.00000000
-29.090626 5.961648 -51.387107 19.00000000
-29.193224 5.927230 -10.948338 19.00000000
-48.345778 -7.507223 -30.664872 19.00000000
-53.085068 -15.382398 -25.561843 19.00000000
-56.581385 -33.900098 -15.112084 19.00000000
-45.178931 -3.924388 3.584012 19.00000000
-34.379141 3.848528 -35.179826 19.00000000
-40.405414 0.194119 -18.641728 19.00000000
-52.129039 -13.435070 -30.844333 19.00000000
-48.479782 -7.672365 -9.762360 19.00000000
-56.163136 -25.797465 -26.427929 19.00000000
-52.458429 -14.106001 -41.694836 19.00000000
-56.612114 -32.200990 -41.718567 19.00000000
-50.866709 -11.215513 -21.590113 19.00000000
-44.379343 -3.104169 -17.710625 19.00000000
-25.981375 6.841982 -40.010675 19.00000000
-56.453751 -27.947246 -58.894324 19.00000000
-24.678280 7.179453 -25.759573 19.00000000
-56.476202 -28.314876 -24.927270 19.00000000
-52.827293 -14.857338 -51.621233 19.00000000
-56.210385 -26.132589 -36.967187 19.00000000
-54.845943 -20.068491 -13.665647 19.00000000
-27.404705 6.473372 -6.286289 19.00000000
-55.441928 -22.151773 -15.328680 19.00000000
-35.774676 3.118725 -54.098117 19.00000000
-52.013419 -13.199562 -54.593929 19.00000000
-48.942340 -8.327860 -17.159207 19.00000000
-33.910305 4.088480 -20.305669 19.00000000
-53.104112 -15.421189 -46.128818 19.00000000
-56.548039 -29.491222 -11.456042 19.00000000
-51.466123 -12.225918 -60.293337 19.00000000
-36.900331 2.513391 -48.972459 19.00000000
-45.617601 -4.374376 -11.050258 19.00000000
-51.217914 -11.807524 -44.325280 19.00000000
-54.734122 -19.704712 -11.213090 19.00000000
-55.956823 -24.463671 -53.905058 19.00000000
-23.506904 7.482813 -58.763512 19.00000000
-42.185162 -1.166826 -56.071063 19.00000000
-56.405019 -27.513079 -1.251006 19.00000000
-25.583705 6.944969 -36.283795 19.00000000
-35.319215 3.356910 -26.559097 19.00000000
-56.087268 -25.259351 -49.765553 19.00000000
-25.115492 7.066226 -50.024151 19.00000000
-42.745172 -1.657057 -0.002734 19.00000000
-53.371809 -16.026052 -37.659372 19.00000000
-47.791638 -6.840696 -49.979745 19.00000000
-39.190599 1.074617 -9.484555 19.00000000
-34.438702 3.817380 -50.789285 19.00000000
-26.774796 6.636504 -37.434333 19.00000000
-41.915854 -0.931074 -14.675020 19.00000000
-38.171168 1.715036 -30.685793 19.00000000
-49.665142 -9.352149 -52.541452 19.00000000
-41.646966 -0.730207 -45.085470 19.00000000
-43.537635 -2.350778 -55.266857 19.00000000
-55.730715 -23.448436 -4.496579 19.00000000
-56.143471 -25.657986 -11.724804 19.00000000
-21.972966 7.880067 -18.139685 19.00000000
-55.118297 -20.954516 -28.464325 19.00000000
-53.035256 -15.280935 -39.576877 19.00000000
-56.012178 -24.726754 -45.454479 19.00000000
-31.023109 5.313373 -53.579532 19.00000000
-56.580057 -33.972842 -45.542789 19.00000000
-34.055882 4.017578 -11.425586 19.00000000
-56.169729 -25.844225 3.579643 19.00000000
-52.355510 -13.896366 -19.484476 19.00000000
-30.175625 5.597671 -22.645696 19.00000000
-49.466144 -9.070147 -9.835628 19.00000000
-36.665047 2.653099 -16.599499 19.00000000
-27.371631 6.481938 -52.768655 19.00000000
-55.325386 -21.628497 -13.821559 19.00000000
-56.633127 -30.884540 -2.308974 19.00000000
-56.608856 -32.380681 -60.940112 19.00000000
-43.514095 -2.330171 -60.952016 19.00000000
-42.953814 -1.839702 -22.437823 19.00000000
-36.337748 2.824262 -46.808016 19.00000000
-45.821357 -4.583390 -25.446329 19.00000000
-55.141852 -21.031145 -45.557097 19.00000000
-33.337260 4.332626 -33.714649 19.00000000
-21.641243 7.965976 -23.310573 19.00000000
-48.023902 -7.120066 -24.118370 19.00000000
-25.708316 6.912698 -61.002299 19.00000000
-51.930667 -13.031005 -37.143621 19.00000000
-50.495635 -10.590012 -2.551727 19.00000000
-36.270284 2.859543 -12.034778 19.00000000
-49.832117 -9.588770 -14.189593 19.00000000
-47.241829 -6.179378 -28.105132 19.00000000
-38.481952 1.519798 -43.082393 19.00000000
-46.592938 -5.398882 -20.981074 19.00000000
-52.646189 -14.488447 -29.411707 19.00000000
-32.093062 4.862716 -57.637196 19.00000000
-53.086541 -15.385398 -33.930149 19.00000000
-56.246158 -26.386319 1.899799 19.00000000
-23.454053 7.496500 -37.208488 19.00000000
-43.115765 -1.981473 -2.318193 19.00000000
-54.882057 -20.185978 -7.923413 19.00000000
-24.682606 7.178333 -5.073802 19.00000000
-35.114858 3.463780 -13.679634 19.00000000
-39.232094 1.048550 3.756731 19.00000000
-41.330044 -0.494261 -24.982934 19.00000000
-56.630570 -30.842663 -9.622451 19.00000000
-41.131694 -0.346591 -50.371017 19.00000000
-44.684058 -3.416746 -32.583848 19.00000000
-49.259368 -8.777122 -56.336830 19.00000000
-38.831018 1.300510 -20.437638 19.00000000
-54.618909 -19.329900 -33.585074 19.00000000
-43.957144 -2.718015 -52.117873 19.00000000
-56.219866 -26.199836 -24.487685 19.00000000
-54.048210 -17.733000 -42.125830 19.00000000
-54.800250 -19.919842 1.784918 19.00000000
-32.244512 4.798191 3.840543 19.00000000
-48.646017 -7.907937 -58.981633 19.00000000
-56.629745 -31.226124 -58.364601 19.00000000
-29.088537 5.962349 -17.999627 19.00000000
-44.184078 -2.916673 -40.249908 19.00000000
-52.113348 -13.403109 -61.019248 19.00000000
-49.498715 -9.116303 2.487892 19.00000000
-49.960690 -9.770972 -38.061125 19.00000000
-28.429701 6.183363 -41.895615 19.00000000
-43.397952 -2.228499 -36.831342 19.00000000
-48.168473 -7.293958 -28.981011 19.00000000
-56.155623 -25.744177 -56.186707 19.00000000
-32.316263 4.767621 -15.728091 19.00000000
-42.931916 -1.820532 -53.309495 19.00000000
-38.654863 1.411173 -32.576128 19.00000000
-37.509769 2.130535 -41.323821 19.00000000
-55.694654 -23.286521 -45.045788 19.00000000
-29.658922 5.771006 -57.592991 19.00000000
-56.500122 -28.706573 -40.084776 19.00000000
-25.278704 7.023958 -54.060822 19.00000000
-36.176621 2.908525 -33.367296 19.00000000
-21.584207 7.980747 -56.149785 19.00000000
-29.321198 5.884300 -39.234002 19.00000000
-23.255113 7.548021 -42.740040 19.00000000
-50.637789 -10.829634 -41.210414 19.00000000
-32.408498 4.728324 -20.263119 19.00000000
-27.772308 6.378172 -11.765354 19.00000000
-38.994174 1.198014 -41.265004 19.00000000
-42.104391 -1.096119 -58.127897 19.00000000
-55.106168 -20.915060 -12.167622 19.00000000
-33.527605 4.251529 -23.725303 19.00000000
-54.499058 -18.940002 -61.032309 19.00000000
-54.875420 -20.164386 -31.983633 19.00000000
-56.597410 -33.014353 -13.709804 19.00000000
-39.917974 0.557015 -31.280243 19.00000000
-55.250816 -21.385630 -35.411324 19.00000000
-53.878658 -17.305122 -12.944005 19.00000000
-51.701782 -12.623156 -16.653386 19.00000000
-23.921495 7.375443 -24.223878 19.00000000
-55.523145 -22.516442 -0.273219 19.00000000
-42.330799 -1.294316 -17.251962 19.00000000
-44.398482 -3.123802 -22.247338 19.00000000
-56.590762 -33.381580 -25.656901 19.00000000
-22.815453 7.661883 -16.262495 19.00000000
-56.386458 -27.381426 -12.646826 19.00000000
-49.439054 -9.031758 -18.747196 19.00000000
-31.432229 5.144264 -36.903688 19.00000000
-43.377210 -2.210342 -13.727796 19.00000000
-54.035077 -17.699858 -0.664421 19.00000000
-38.774378 1.336092 -39.285136 19.00000000
-48.783556 -8.102845 -13.443135 19.00000000
-48.999431 -8.408764 -4.081300 19.00000000
-49.375788 -8.942102 -47.963396 19.00000000
-56.409070 -27.541808 -10.754337 19.00000000
-51.001711 -11.443081 -55.471997 19.00000000
-49.262238 -8.781190 -46.170541 19.00000000
-50.710715 -10.952563 -29.599197 19.00000000
-31.402687 5.156850 -12.576844 19.00000000
-55.193886 -21.200425 -24.046939 19.00000000
-25.280717 7.023436 -57.637852 19.00000000
-50.156105 -10.047897 -17.486209 19.00000000
-46.708356 -5.537709 -49.399975 19.00000000
-50.253086 -10.185329 -42.935986 19.00000000
-44.956205 -3.695915 -43.069220 19.00000000
-40.674133 -0.005940 -5.378334 19.00000000
-43.378879 -2.211803 -15.813702 19.00000000
-22.045342 7.861323 -1.902847 19.00000000
-46.226794 -4.999288 -36.919741 19.00000000
-48.556727 -7.781405 -22.670596 19.00000000
-31.154922 5.262410 -0.354127 19.00000000
-56.403315 -27.500988 -15.960736 19.00000000
-43.919715 -2.685250 2.457277 19.00000000
-36.183902 2.904717 -2.595541 19.00000000
-31.554112 5.092335 -29.369353 19.00000000
-56.541699 -29.387405 -59.358787 19.00000000
-28.101461 6.292929 -4.322786 19.00000000
-50.072254 -9.929070 -11.199461 19.00000000
-32.085828 4.865798 -59.431609 19.00000000
-52.437306 -14.062975 -46.165592 19.00000000
-35.819634 3.095213 3.712402 19.00000000
-32.639027 4.630107 -42.986289 19.00000000
-53.755632 -16.994659 -46.673426 19.00000000
-44.602257 -3.332834 -34.443607 19.00000000
-47.711272 -6.744031 -7.091912 19.00000000
-52.563311 -14.319635 -10.339919 19.00000000
-23.790751 7.409303 -19.136065 19.00000000
-28.608942 6.123235 -1.001371 19.00000000
-56.355414 -27.161240 -17.684676 19.00000000
-30.453532 5.504444 -19.302688 19.00000000
-55.500085 -22.412901 -29.642326 19.00000000
-27.144418 6.540781 -0.261777 19.00000000
-38.899684 1.257374 -0.367948 19.00000000
-56.051396 -25.004918 -51.952026 19.00000000
-56.173691 -25.872327 -31.988275 19.00000000
-23.279661 7.541663 -53.096620 19.00000000
-53.228213 -15.673968 -0.940075 19.00000000
-54.763798 -19.801257 -50.293231 19.00000000
-32.625306 4.635953 -44.921472 19.00000000
-46.117940 -4.887625 -44.072889 19.00000000
-52.119431 -13.415499 -44.719650 19.00000000
-28.966505 6.003286 -7.034800 19.00000000
-35.011200 3.517989 -4.213338 19.00000000
-45.849409 -4.612165 -34.577939 19.00000000
-56.448818 -27.866467 -7.384238 19.00000000
-50.791845 -11.089320 -25.932425 19.00000000
-39.260567 1.030662 -7.914385 19.00000000
-55.547518 -22.625875 -23.118165 19.00000000
-41.420202 -0.561383 -31.915575 19.00000000
-55.545404 -22.616383 -28.019686 19.00000000
-56.041726 -24.936335 -5.910091 19.00000000
-34.551369 3.758461 -9.840791 19.00000000
-41.837056 -0.871727 -60.749694 19.00000000
-48.285247 -7.434416 0.673318 19.00000000
-48.868494 -8.223212 -34.230819 19.00000000
-42.398186 -1.353306 -30.906855 19.00000000
-50.087004 -9.949973 -33.972583 19.00000000
-28.010919 6.316377 -34.341017 19.00000000
-56.611335 -32.244275 -16.410584 19.00000000
-21.594834 7.977995 -21.328942 19.00000000
-49.832877 -9.589848 -40.338999 19.00000000
-25.284099 7.022560 -55.929023 19.00000000
-44.029443 -2.781305 -38.489536 19.00000000
-46.177947 -4.949180 -27.261081 19.00000000
-23.878801 7.386500 -34.142448 19.00000000
-28.750716 6.075675 -28.919875 19.00000000
-46.970486 -5.853003 -13.730153 19.00000000
-40.805989 -0.104106 -55.220352 19.00000000
-56.005677 -24.683025 -58.499036 19.00000000
-41.006017 -0.253025 -29.695380 19.00000000
-43.603326 -2.408284 -7.533717 19.00000000
-46.302157 -5.076595 -29.358783 19.00000000
-26.095615 6.812396 -48.605679 19.00000000
-52.689612 -14.576895 -35.198555 19.00000000
-55.877704 -24.108423 -10.180999 19.00000000
-52.743307 -14.686267 -8.495681 19.00000000
-55.372269 -21.839002 -5.220364 19.00000000
-44.759428 -3.494061 -27.024622 19.00000000
-48.288210 -7.437980 -46.887849 19.00000000
-48.806295 -8.135070 -21.064305 19.00000000
-54.938025 -20.368053 -48.213503 19.00000000
-56.327809 -26.965443 -42.016677 19.00000000
-56.561036 -29.704035 -50.062519 19.00000000
-52.746454 -14.692678 -54.540798 19.00000000
-46.528275 -5.321104 -31.344062 19.00000000
-50.848008 -11.183990 -14.119874 19.00000000
-55.659436 -23.128393 -8.894784 19.00000000
-53.551901 -16.480527 -49.637730 19.00000000
-46.663358 -5.483585 -51.117709 19.00000000
-55.277851 -21.473581 -49.452430 19.00000000
-49.151082 -8.623670 -32.652621 19.00000000
-56.614430 -32.073130 -27.898130 19.00000000
-30.123257 5.615239 -1.503435 19.00000000
-34.702028 3.679673 -46.136980 19.00000000
-31.223240 5.233303 -27.504433 19.00000000
-45.691485 -4.450167 -5.671660 19.00000000
-53.100037 -15.412887 -57.845622 19.00000000
-52.644997 -14.486021 -22.636293 19.00000000
-30.545134 5.473715 -50.684631 19.00000000
-46.533290 -5.327137 -52.642069 19.00000000
-25.609084 6.938397 -23.387773 19.00000000
-56.552343 -29.561701 -7.128388 19.00000000
-22.240164 7.810869 0.010744 19.00000000
-53.237590 -15.693068 -56.041132 19.00000000
-46.639056 -5.454354 -3.231290 19.00000000
-31.830423 4.974613 -7.680511 19.00000000
-40.953797 -0.214148 -11.745786 19.00000000
-43.013553 -1.891997 -47.600915 19.00000000
-41.068075 -0.299227 -26.867837 19.00000000
-30.798564 5.388699 1.288659 19.00000000
-54.776827 -19.843643 -52.119483 19.00000000
-51.976030 -13.123406 -33.734752 19.00000000
-56.058590 -25.055945 -60.238354 19.00000000
-27.867625 6.353487 -36.018496 19.00000000
-53.723369 -16.913241 -14.616637 19.00000000
-39.620409 0.778550 -16.800035 19.00000000
-49.825715 -9.579698 -21.389805 19.00000000
-56.369319 -27.259869 -60.990653 19.00000000
-37.355573 2.227403 -35.354649 19.00000000
-41.607465 -0.700798 -36.294230 19.00000000
-53.441894 -16.202917 -41.773859 19.00000000
-54.790490 -19.888091 -43.000057 19.00000000
-47.151472 -6.070695 -57.430016 19.00000000
-30.867334 5.365629 -40.680596 19.00000000
-50.802564 -11.107388 -16.040075 19.00000000
-21.792605 7.926777 -39.481006 19.00000000
-31.936822 4.929282 -14.112598 19.00000000
-56.572578 -29.893042 -23.033042 19.00000000
-50.109009 -9.981156 1.020761 19.00000000
-56.615828 -31.995536 -49.116982 19.00000000
-38.055963 1.787409 -47.893100 19.00000000
-41.790789 -0.837282 -42.248274 19.00000000
-56.539399 -29.349734 -57.517350 19.00000000
-31.118970 5.277728 -44.233327 19.00000000
-54.277312 -18.311156 -3.962051 19.00000000
-55.312877 -21.587526 -56.297250 19.00000000
-46.966551 -5.848269 -34.423306 19.00000000
-54.089960 -17.838358 -22.574766 19.00000000
-45.640607 -4.397977 -57.073985 19.00000000
-50.270376 -10.210304 -53.773518 19.00000000
-52.332082 -13.848646 1.850849 19.00000000
-48.252467 -7.394988 -25.765596 19.00000000
-49.428647 -9.017009 -41.886779 19.00000000
-29.305539 5.889553 -61.034357 19.00000000
-21.723994 7.944545 -27.377672 19.00000000
-56.621539 -31.680002 -11.369782 19.00000000
-56.623830 -31.553287 -14.618419 19.00000000
-51.919202 -13.007653 3.508430 19.00000000
-43.166196 -2.025621 -45.449679 19.00000000
-41.006196 -0.253158 -9.473014 19.00000000
-56.375880 -27.306404 -19.801895 19.00000000
-41.733977 -0.794986 -1.006307 19.00000000
-33.496798 4.264655 -1.232333 19.00000000
-34.092811 3.998266 -38.305364 19.00000000
-55.267511 -21.439943 -54.734444 19.00000000
-56.546862 -29.471945 3.515972 19.00000000
-22.141747 7.836357 -30.139330 19.00000000
-37.252715 2.292019 2.815274 19.00000000
-31.175977 5.253440 -21.391130 19.00000000
-53.767334 -17.024187 -33.024357 19.00000000
-46.422381 -5.199922 3.552428 19.00000000
-34.965238 3.542025 -60.555177 19.00000000
-56.365295 -27.231324 -38.493022 19.00000000
-52.932590 -15.071816 2.670651 19.00000000
-29.141165 5.944694 -55.739764 19.00000000
-22.376111 7.775662 -41.322539 19.00000000
-28.149404 6.277393 -2.613315 19.00000000
-51.187273 -11.755874 -32.847741 19.00000000
-56.058225 -25.053353 -14.272358 19.00000000
-54.508618 -18.971100 -46.229610 19.00000000
-33.566497 4.234959 -54.956746 19.00000000
-55.244822 -21.366129 -22.033420 19.00000000
-42.899764 -1.792387 -32.792972 19.00000000
-32.406682 4.729098 -25.227382 19.00000000
-53.634322 -16.688523 1.903469 19.00000000
-51.680951 -12.588044 -14.948212 19.00000000
-48.924286 -8.302275 -39.909758 19.00000000
-41.921680 -0.936174 -28.587718 19.00000000
-56.582935 -33.813866 -41.455590 19.00000000
-40.270519 0.294547 -42.699986 19.00000000
-35.459884 3.283347 -24.975173 19.00000000
-26.184410 6.789400 -12.490161 19.00000000
-46.664080 -5.484453 -11.892306 19.00000000
-21.542549 7.991535 -47.731699 19.00000000
-44.112676 -2.854168 -41.852583 19.00000000
-54.056783 -17.754634 -52.283993 19.00000000
-33.336563 4.332923 -60.643467 19.00000000
-26.332044 6.751167 -2.263356 19.00000000
-37.767957 1.968339 -3.233447 19.00000000
-42.309296 -1.275493 -20.779797 19.00000000
-50.726263 -10.978772 -36.688247 19.00000000
-56.523042 -29.081889 -14.759888 19.00000000
-48.198976 -7.330648 -55.281934 19.00000000
-31.962226 4.918459 -23.316000 19.00000000
-40.064271 0.448098 -24.139929 19.00000000
-51.986123 -13.143965 -8.428914 19.00000000
-55.818400 -23.842145 -33.338518 19.00000000
-38.074327 1.775873 1.290574 19.00000000
-56.583901 -33.760994 -18.741249 19.00000000
-53.091830 -15.396171 -13.507682 19.00000000
-56.613618 -32.118028 3.878075 19.00000000
-47.212954 -6.144647 -26.465792 19.00000000
-56.251394 -26.423455 -58.374208 19.00000000
-55.804673 -23.780513 -35.212828 19.00000000
-44.114348 -2.855631 -46.777579 19.00000000
-54.227114 -18.184477 -49.815780 19.00000000
-37.741372 1.985039 -1.092068 19.00000000
-38.255665 1.661954 -49.674491 19.00000000
-44.082235 -2.827519 -23.926624 19.00000000
-26.804711 6.628757 -18.357017 19.00000000
-53.910230 -17.384796 -31.035373 19.00000000
-56.591275 -33.353093 -30.258744 19.00000000
-44.772692 -3.507667 -28.983222 19.00000000
-56.493227 -28.593672 -51.488895 19.00000000
-44.655082 -3.387022 -54.226137 19.00000000
-47.076099 -5.980035 -38.674173 19.00000000
-55.965064 -24.500672 -47.146517 19.00000000
-54.766336 -19.809513 -23.709544 19.00000000
-45.255949 -4.003393 -38.181551 19.00000000
-56.086962 -25.257180 -34.892538 19.00000000
-56.501035 -28.721520 -21.295606 19.00000000
-25.129785 7.062524 -38.175580 19.00000000
-24.618055 7.195050 -31.153053 19.00000000
-27.237646 6.516637 -44.892921 19.00000000
-45.562299 -4.317648 -3.923002 19.00000000
-36.032739 2.983769 -31.349059 19.00000000
-51.952915 -13.076324 -48.899403 19.00000000
-23.969376 7.363043 -17.232770 19.00000000
-44.875860 -3.613497 -13.960519 19.00000000
-52.194515 -13.568437 -2.775178 19.00000000
-51.401131 -12.116363 -2.693273 19.00000000
-55.601375 -22.867698 -46.937686 19.00000000
-46.446810 -5.224980 -1.087157 19.00000000
-51.757301 -12.716743 -4.291593 19.00000000
-56.587486 -30.137166 -39.120907 19.00000000
-26.115814 6.807165 -29.692387 19.00000000
-49.945132 -9.748925 -35.826760 19.00000000
-27.162870 6.536002 -56.893204 19.00000000
-23.641032 7.448077 -27.165295 19.00000000
-55.778748 -23.664107 3.837047 19.00000000
-26.001784 6.836696 -51.554183 19.00000000
-55.629507 -22.994012 -19.956245 19.00000000
-30.637384 5.442769 -17.588683 19.00000000
-55.657386 -23.119189 -59.989466 19.00000000
-53.032453 -15.275226 0.576574 19.00000000
-30.578596 5.462490 -8.561618 19.00000000
-44.135298 -2.873970 -48.689228 19.00000000
-56.585567 -33.669216 -3.051448 19.00000000
-36.433179 2.774356 -4.156750 19.00000000
-54.533798 -19.053016 -27.922367 19.00000000
-54.337028 -18.461852 -2.393021 19.00000000
-38.886329 1.265764 -51.330769 19.00000000
-56.581198 -33.909523 -55.790313 19.00000000
-50.258032 -10.192338 -44.931279 19.00000000
-53.330392 -15.921533 -19.577227 19.00000000
-56.584110 -33.749828 1.598079 19.00000000
-26.343841 6.748112 -5.006082 19.00000000
-53.861861 -17.262733 3.439464 19.00000000
-48.729212 -8.025834 -53.406337 19.00000000
-54.492757 -18.919502 -15.369968 19.00000000
-35.298671 3.367654 -39.759108 19.00000000
-56.606574 -32.507366 -36.477538 19.00000000
-39.562257 0.821843 -22.164328 19.00000000
-45.355573 -4.105587 -23.853298 19.00000000
-32.711026 4.599432 -49.733483 19.00000000
-55.693931 -23.283278 -2.408125 19.00000000
-56.506752 -28.815133 -53.318881 19.00000000
-45.517384 -4.271573 -51.679804 19.00000000
-23.950199 7.368009 -48.556083 19.00000000
-43.567922 -2.377290 -57.617803 19.00000000
-35.052823 3.496222 -23.425110 19.00000000
-22.759182 7.676455 -35.299264 19.00000000
-30.982416 5.327023 -10.717118 19.00000000
-56.209966 -26.129612 -0.041377 19.00000000
-47.521818 -6.516153 -60.815589 19.00000000
-53.770684 -17.032642 -60.877196 19.00000000
-30.212467 5.585312 -35.660895 19.00000000
-22.065434 7.856120 -45.645485 19.00000000
-34.341989 3.867957 -48.619176 19.00000000
-49.165216 -8.643700 -25.017064 19.00000000
-56.627261 -30.788472 -21.405516 19.00000000
-56.633285 -31.030416 -56.220558 19.00000000
-52.328659 -13.841673 -38.854632 19.00000000
-56.582352 -33.845680 -57.491081 19.00000000
-24.611846 7.196658 1.072672 19.00000000
-54.236033 -18.206984 -9.719022 19.00000000
-52.604169 -14.402857 -59.318027 19.00000000
-56.095926 -25.320757 -43.246818 19.00000000
-54.655663 -19.449471 -17.725087 19.00000000
-55.629335 -22.993235 -57.320005 19.00000000
-52.309889 -13.803441 -52.902631 19.00000000
-54.763724 -19.801015 -44.557355 19.00000000
-34.697425 3.682079 -42.949871 19.00000000
-50.829248 -11.152368 -9.878665 19.00000000
-56.596252 -33.078223 -21.806109 19.00000000
-46.934024 -5.809146 -22.525247 19.00000000
-31.510209 5.111040 -3.920119 19.00000000
-30.947856 5.338617 -42.493230 19.00000000
-56.228287 -26.259563 -44.766044 19.00000000
-48.136538 -7.255546 -43.379865 19.00000000
-48.009345 -7.102557 -14.705709 19.00000000
-44.847862 -3.584776 -7.935169 19.00000000
-40.055815 0.454393 -44.393861 19.00000000
-29.269314 5.901705 -20.953353 19.00000000
-35.304951 3.364370 -15.703999 19.00000000
-31.893478 4.947748 -51.914009 19.00000000
-33.119029 4.425603 2.095178 19.00000000
-51.472884 -12.237315 -6.643870 19.00000000
-37.649915 2.042493 -51.740130 19.00000000
-50.571828 -10.718446 -57.856771 19.00000000
-53.881631 -17.312626 -21.112773 19.00000000
-27.034738 6.569185 -23.952219 19.00000000
-40.084573 0.432983 -34.043018 19.00000000
-54.791076 -19.889997 -54.241181 19.00000000
-33.900738 4.092556 -58.941253 19.00000000
-49.208229 -8.704653 -29.271584 19.00000000
-40.757273 -0.067837 -2.326547 19.00000000
-46.079248 -4.847935 -39.498920 19.00000000
-56.594085 -33.197279 -54.110136 19.00000000
-53.348606 -15.967497 -36.122932 19.00000000
-56.607942 -32.431561 -44.664930 19.00000000
-46.480923 -5.264149 1.862356 19.00000000
-51.218371 -11.808294 -34.866373 19.00000000
-56.560434 -29.694183 -41.703809 19.00000000
-43.947002 -2.709136 0.520849 19.00000000
-56.588294 -33.517503 -47.415637 19.00000000
-38.212094 1.689326 -60.512330 19.00000000
-55.023368 -20.645693 -37.416539 19.00000000
-22.121528 7.841593 -50.949672 19.00000000
-35.469293 3.278426 -49.811946 19.00000000
-50.860923 -11.205761 -49.821743 19.00000000
-33.313467 4.342763 -51.853540 19.00000000
-42.904432 -1.796473 -40.452809 19.00000000
-45.763913 -4.524464 -53.777485 19.00000000
-55.514103 -22.475841 -50.687330 19.00000000
-22.058810 7.857836 -43.921424 19.00000000
-49.630220 -9.302661 -27.671342 19.00000000
-51.642394 -12.523049 -18.480402 19.00000000
-55.823912 -23.866897 -40.460126 19.00000000
-47.775742 -6.821576 -39.899784 19.00000000
-56.622490 -30.710345 -19.416800 19.00000000
-48.265065 -7.410141 -27.303171 19.00000000
-33.811922 4.130396 -8.296073 19.00000000
-56.443567 -27.786492 3.005090 19.00000000
-29.157041 5.939368 -33.095580 19.00000000
-29.747316 5.741353 -4.523447 19.00000000
-36.345097 2.820419 -45.157592 19.00000000
-56.162486 -25.792849 -16.132555 19.00000000
-43.089619 -1.958585 -34.945294 19.00000000
-36.510470 2.733936 -18.144499 19.00000000
-26.535373 6.698509 -8.000639 19.00000000
-56.224589 -26.233336 -21.939030 19.00000000
-51.518861 -12.314816 -57.657234 19.00000000
-53.301657 -15.849017 -10.135715 19.00000000
-23.692961 7.434628 -7.111700 19.00000000
-56.631645 -31.121121 -51.246367 19.00000000
-34.378708 3.848755 -30.336579 19.00000000
-56.539119 -29.345152 -0.927792 19.00000000
-53.995811 -17.600766 -38.327268 19.00000000
-56.611101 -32.257216 0.865257 19.00000000
-48.833261 -8.173283 -11.180347 19.00000000
-34.551763 3.758255 -36.720113 19.00000000
-56.558485 -29.662272 -54.744318 19.00000000
-53.817097 -17.149769 -5.076834 19.00000000
-32.778518 4.570677 -2.660772 19.00000000
-22.431025 7.761440 -60.875115 19.00000000
-56.569235 -29.838297 -31.881091 19.00000000
-45.467946 -4.220860 -17.523878 19.00000000
-56.597781 -32.993826 -1.130931 19.00000000
-41.275567 -0.453703 1.315514 19.00000000
-51.320111 -11.979793 -53.771199 19.00000000
-56.608113 -30.474934 -52.731472 19.00000000
-56.590561 -30.187519 -26.317988 19.00000000
-41.083354 -0.310602 -46.728472 19.00000000
-56.138382 -25.621891 -20.163662 19.00000000
-25.097734 7.070824 -59.240611 19.00000000
-44.149493 -2.886397 -1.352497 19.00000000
-56.209483 -26.126189 -46.946463 19.00000000
-34.941689 3.554340 -6.229036 19.00000000
-51.056568 -11.535550 -27.677559 19.00000000
-48.679803 -7.955816 -51.828548 19.00000000
-51.569453 -12.400097 -29.249619 19.00000000
-41.990006 -0.995986 -4.842926 19.00000000
-52.402799 -13.992689 -15.450737 19.00000000
-56.504955 -28.785721 -5.552421 19.00000000
-38.426567 1.554592 -17.641934 19.00000000
-40.568543 0.072671 -37.176791 19.00000000
-27.417379 6.470090 -30.761281 19.00000000
-47.685684 -6.713252 2.455240 19.00000000
-37.913738 1.876757 -6.761906 19.00000000
-55.981476 -24.574364 1.690024 19.00000000
-56.241978 -26.356669 -48.701742 19.00000000
-54.263652 -18.276684 1.545634 19.00000000
-56.579778 -33.988845 -20.332608 19.00000000
-29.086348 5.963083 -49.504886 19.00000000
-55.496788 -22.398099 2.214147 19.00000000
-46.099426 -4.868634 -47.510128 19.00000000
-51.252794 -11.866320 -24.437321 19.00000000
-54.593016 -19.245666 -30.315588 19.00000000
-56.593164 -33.248501 -38.381246 19.00000000
-49.774910 -9.507702 -1.456632 19.00000000
-45.639084 -4.396414 -59.441118 19.00000000
-51.551782 -12.370309 -50.980491 19.00000000
-48.930974 -8.311753 -5.754172 19.00000000
-22.382982 7.773883 -57.609702 19.00000000
-49.876629 -9.651848 -49.530182 19.00000000
-49.827831 -9.582697 -59.206625 19.00000000
-50.333073 -10.315988 -4.043846 19.00000000
-24.814780 7.144103 -41.840009 19.00000000
-53.047707 -15.306297 -2.638465 19.00000000
-27.449836 6.461685 -16.780309 19.00000000
-55.699990 -23.310482 -31.178213 19.00000000
-51.832003 -12.842665 -9.905505 19.00000000
-56.509040 -28.852607 -17.688206 19.00000000
-42.882682 -1.777433 -59.482036 19.00000000
-56.456967 -27.999904 -49.597157 19.00000000
-52.516004 -14.223276 -32.672530 19.00000000
-37.731316 1.991357 -26.650112 19.00000000
-49.409924 -8.990477 -7.116914 19.00000000
-39.567442 0.817983 -47.573817 19.00000000
-50.503829 -10.603825 -39.286966 19.00000000
-47.266866 -6.209493 -59.085677 19.00000000
-56.610110 -32.312002 -18.246091 19.00000000
-40.256074 0.305302 -51.553845 19.00000000
-46.500238 -5.287382 -23.992110 19.00000000
-30.793054 5.390547 -32.089444 19.00000000
-56.446256 -27.824521 -56.487428 19.00000000
-51.918823 -13.006881 -43.036670 19.00000000
-32.906435 4.516179 -32.136351 19.00000000
-41.604475 -0.698573 3.590136 19.00000000
-24.854629 7.133783 -13.490894 19.00000000
-52.891846 -14.988825 -20.917227 19.00000000
-44.604048 -3.334672 -58.921119 19.00000000
-35.358368 3.336435 -1.101427 19.00000000
-40.281176 0.286614 -14.861889 19.00000000
-28.103961 6.292281 -9.814171 19.00000000
-31.696526 5.031660 -46.354835 19.00000000
-56.475599 -28.305002 -23.336330 19.00000000
-34.031962 4.030088 -25.979026 19.00000000
-52.312142 -13.808030 -57.291746 19.00000000
-25.793690 6.890588 -45.978403 19.00000000
-54.015228 -17.649766 -45.089458 19.00000000
-55.999137 -24.653661 -29.661221 19.00000000
-28.398414 6.193859 3.821266 19.00000000
-54.969293 -20.469774 3.688143 19.00000000
-54.447076 -18.770893 3.393537 19.00000000
-55.181902 -21.161439 -60.557789 19.00000000
-50.631457 -10.818961 -47.989643 19.00000000
-38.778801 1.333314 -58.414917 19.00000000
-36.868993 2.533078 0.081001 19.00000000
-45.416349 -4.167932 -1.558060 19.00000000
-56.011040 -24.718685 -37.579043 19.00000000
-56.550101 -29.524984 -37.022359 19.00000000
-27.623350 6.416748 -14.437508 19.00000000
-54.616477 -19.321989 -5.788304 19.00000000
-37.835186 1.926104 -5.078034 19.00000000
-21.767440 7.933294 -53.779820 19.00000000
-40.891442 -0.167725 -58.925336 19.00000000
-24.802326 7.147328 -32.824912 19.00000000
-45.992108 -4.758546 -14.740773 19.00000000
-54.405323 -18.635059 -48.221814 19.00000000
-54.415733 -18.668927 -40.675973 19.00000000
-27.859427 6.355610 -43.423930 19.00000000
-38.039653 1.797655 -10.604589 19.00000000
-30.333722 5.544636 -25.936482 19.00000000
-56.226727 -26.248497 -40.527096 19.00000000
-35.882176 3.062507 -28.104550 19.00000000
-36.978902 2.464032 -14.451699 19.00000000
-35.403373 3.312900 -56.006623 19.00000000
-31.181803 5.250957 -39.162094 19.00000000
-48.605117 -7.849979 -60.495161 19.00000000
-53.517423 -16.393520 -27.302273 19.00000000
-55.808796 -23.799023 -48.864305 19.00000000
-36.884320 2.523450 -39.626489 19.00000000
-24.148854 7.316563 -51.540151 19.00000000
-56.600480 -30.349938 1.797570 19.00000000
-49.844410 -9.606190 -60.863016 19.00000000
-25.187123 7.047675 -27.725476 19.00000000
-54.999709 -20.568724 -15.982473 19.00000000
-56.584796 -33.711144 -35.114653 19.00000000
-53.134060 -15.482188 -61.007441 19.00000000
-30.267146 5.566970 -14.237597 19.00000000
-36.707270 2.631019 -43.345279 19.00000000
-37.103536 2.385736 -20.628881 19.00000000
-24.649068 7.187019 -8.796082 19.00000000
-23.435298 7.501357 -54.692180 19.00000000
-24.558091 7.210580 -44.331863 19.00000000
-29.768888 5.734117 -43.554148 19.00000000
-43.477439 -2.298082 -19.050942 19.00000000
-55.888133 -24.155248 -56.142217 19.00000000
-55.113386 -20.938540 -20.016867 19.00000000
-53.334423 -15.931706 -16.524599 19.00000000
-56.034935 -24.888167 -8.100509 19.00000000
-22.355589 7.780977 -3.571519 19.00000000
-55.481763 -22.330635 -38.872278 19.00000000
-36.124959 2.935542 -37.933780 19.00000000
-51.642873 -12.523857 -23.091880 19.00000000
-44.597194 -3.327641 -2.784057 19.00000000
-24.967753 7.104487 -10.608916 19.00000000
-56.029583 -24.850206 -3.201782 19.00000000
-40.762448 -0.071690 -48.382027 19.00000000
-39.109599 1.125502 -4.774800 19.00000000
-54.224376 -18.177566 -36.781214 19.00000000
-54.669538 -19.494608 -57.745605 19.00000000
-52.951681 -15.110703 -42.871181 19.00000000
-54.644591 -19.413450 -38.316000 19.00000000
-44.806142 -3.541980 -60.916474 19.00000000
-53.588265 -16.572293 -43.420535 19.00000000
-48.959508 -8.352189 -36.446558 19.00000000
-56.518959 -29.015030 -19.405281 19.00000000
-22.154422 7.833074 -10.261698 19.00000000
-48.580812 -7.815535 -19.141000 19.00000000
-34.015521 4.038686 -27.911392 19.00000000
-27.478366 6.454296 -26.507768 19.00000000
-45.558955 -4.314217 -41.405446 19.00000000
-26.312739 6.756166 -25.469524 19.00000000
-55.289673 -21.512039 -17.112220 19.00000000
-39.234420 1.047088 -45.659284 19.00000000
-40.897735 -0.172410 -39.104608 19.00000000
-55.667600 -23.165050 -17.046063 19.00000000
-27.078546 6.557840 -58.647251 19.00000000
-56.581901 -33.871850 -4.766126 19.00000000
-50.264246 -10.201144 -8.706801 19.00000000
-37.877305 1.899645 -15.598045 19.00000000
-52.666278 -14.529368 -36.913117 19.00000000
-27.411879 6.471514 -32.648223 19.00000000
-40.030189 0.473471 -53.199908 19.00000000
-51.986700 -13.145140 -11.743537 19.00000000
-39.579264 0.809182 -49.327384 19.00000000
-51.763850 -12.727783 0.623308 19.00000000
-21.719533 7.945701 -31.976500 19.00000000
-46.080183 -4.848894 -9.435581 19.00000000
-55.975993 -24.549744 -21.317981 19.00000000
-51.649135 -12.534413 -20.575064 19.00000000
-50.956426 -11.366746 -46.128451 19.00000000
-55.484204 -22.341595 -26.346158 19.00000000
-55.618576 -22.944929 -55.237708 19.00000000
-56.525882 -29.128396 -3.686595 19.00000000
-46.485911 -5.270149 -7.332997 19.00000000
-34.692897 3.684448 -33.247956 19.00000000
-23.787954 7.410027 2.425493 19.00000000
-27.582278 6.427385 -51.007750 19.00000000
-31.992372 4.905615 -18.080580 19.00000000
-40.199282 0.347583 -56.840789 19.00000000
-54.985435 -20.522288 -3.038704 19.00000000
-48.062225 -7.166162 -45.201116 19.00000000
-38.683401 1.393245 -55.736679 19.00000000
-23.252273 7.548756 -22.126385 19.00000000
-48.250314 -7.392398 -32.732388 19.00000000
-56.633031 -31.044459 -42.967791 19.00000000
-49.878099 -9.653931 -15.887790 19.00000000
-43.839535 -2.615060 -31.194634 19.00000000
-40.240209 0.317114 2.428198 19.00000000
-50.453774 -10.519448 -23.702250 19.00000000
-32.500991 4.688918 -53.508182 19.00000000
-50.646988 -10.845141 -12.389976 19.00000000
-27.323434 6.494420 -20.226699 19.00000000
-47.131159 -6.046262 -32.659322 19.00000000
-42.258596 -1.231110 -10.885101 19.00000000
-28.716425 6.087178 -59.085816 19.00000000
-56.449566 -27.878726 -47.662242 19.00000000
-46.930851 -5.805329 -54.397731 19.00000000
-55.855295 -24.007804 -18.683054 19.00000000
-56.519473 -29.023441 -27.455349 19.00000000
-32.927558 4.507179 -47.745291 19.00000000
-52.628770 -14.452966 -4.160024 19.00000000
-55.445825 -22.169270 -33.340493 19.00000000
-55.709345 -23.352486 -36.880648 19.00000000
-56.545469 -29.449134 -47.179921 19.00000000
-45.671585 -4.429754 -45.794469 19.00000000
-53.668076 -16.773705 -24.650785 19.00000000
-47.109754 -6.020515 0.239015 19.00000000
-56.625070 -30.752596 -16.124270 19.00000000
-56.500408 -28.711258 -45.630899 19.00000000
-52.418140 -14.023937 -24.296796 19.00000000
-25.247431 7.032056 -0.809626 19.00000000
-47.585731 -6.593028 -10.783800 19.00000000
-55.696249 -23.293685 -12.122929 19.00000000
-50.299119 -10.258754 -32.097684 19.00000000
-55.272020 -21.454610 -1.405532 19.00000000
-47.552309 -6.552828 -8.828996 19.00000000
-56.609196 -32.362531 -32.338833 19.00000000
-49.208652 -8.705252 -0.039508 19.00000000
-54.817033 -19.974442 -35.938977 19.00000000
-24.428161 7.244228 -2.308429 19.00000000
-56.619607 -30.663140 -35.765636 19.00000000
-56.578924 -34.035465 -33.210484 19.00000000
-29.654896 5.772357 -37.249024 19.00000000
-54.096359 -17.854507 -11.261930 19.00000000
-56.007447 -24.693197 -23.247297 19.00000000
-35.534816 3.244161 -19.297942 19.00000000
-34.578239 3.744409 -41.142548 19.00000000
-22.390814 7.771854 1.502423 19.00000000
-56.593403 -33.235020 -51.745203 19.00000000
-26.001515 6.836766 -21.712144 19.00000000
-55.128223 -20.986808 -41.615160 19.00000000
-29.186650 5.929435 -12.929232 19.00000000
-52.877942 -14.960504 -49.680425 19.00000000
-56.611935 -32.211111 -20.250526 19.00000000
-32.819926 4.553036 -30.102829 19.00000000
-56.572996 -29.899881 -24.756989 19.00000000
-35.993335 3.004375 -34.919518 19.00000000
-56.533205 -29.248314 -13.116810 19.00000000
-23.039300 7.603911 -8.810529 19.00000000
-51.716207 -12.647473 -13.365919 19.00000000
-35.700889 3.157312 -58.134878 19.00000000
-54.101244 -17.866834 -19.540647 19.00000000
-35.335299 3.348499 -8.540648 19.00000000
-37.683192 2.021588 -19.273158 19.00000000
-56.609537 -32.343678 -7.693390 19.00000000
-32.194446 4.819521 -5.599953 19.00000000
-30.967052 5.332177 -55.103376 19.00000000
-56.432971 -27.711337 0.461916 19.00000000
-56.629002 -31.267308 -37.542439 19.00000000
-55.477033 -22.309396 -40.741805 19.00000000
-41.734339 -0.795255 -19.030117 19.00000000
-56.317462 -26.892055 -3.173837 19.00000000
-22.314604 7.791591 -14.603035 19.00000000
-24.716281 7.169612 -15.639757 19.00000000
-54.254140 -18.252678 -54.216549 19.00000000
-53.875998 -17.298409 -8.499027 19.00000000
-45.910623 -4.674959 -55.488578 19.00000000
-55.861331 -24.034907 -26.765064 19.00000000
-32.734282 4.589524 0.142790 19.00000000
-56.525503 -29.122183 -29.908463 19.00000000
-38.747063 1.353252 -34.538585 19.00000000
-56.595240 -33.133760 -40.080829 19.00000000
-50.829674 -11.153085 -0.706385 19.00000000
-43.893512 -2.662312 -25.766187 19.00000000
-25.229280 7.036757 -20.115125 19.00000000
-33.421598 4.296693 -12.803008 19.00000000
-47.124026 -6.037682 -43.023420 19.00000000
-50.085972 -9.948510 -5.888963 19.00000000
-55.651089 -23.090916 -52.692397 19.00000000
-47.683480 -6.710602 -19.909434 19.00000000
-53.383077 -16.054489 -53.164879 19.00000000
-36.556970 2.709619 -59.975334 19.00000000
-31.062504 5.300157 -48.113803 19.00000000
-36.588684 2.693034 -22.509199 19.00000000
-43.216976 -2.070073 -29.670798 19.00000000
-48.499942 -7.700934 -57.136685 19.00000000
-27.415453 6.470589 -40.256390 19.00000000
-39.250690 1.036867 -3.030971 19.00000000
-56.205014 -26.094489 -30.453184 19.00000000
-56.614300 -32.080316 -24.219839 19.00000000
-47.586652 -6.594136 -1.915145 19.00000000
-25.288453 7.021433 -18.151657 19.00000000
-23.482240 7.489200 -38.970837 19.00000000
-49.042707 -8.470091 -38.397568 19.00000000
-48.901226 -8.269597 -49.639688 19.00000000
-32.589904 4.651036 -9.433379 19.00000000
-56.207669 -26.113324 -4.640247 19.00000000
-56.629196 -31.256569 -54.400046 19.00000000
-56.613528 -32.122978 -4.300626 19.00000000
-50.673404 -10.889668 -60.501450 19.00000000
-56.331932 -26.994692 -52.544529 19.00000000
-32.616772 4.639589 -39.675694 19.00000000
-33.294426 4.350875 -21.983499 19.00000000
-55.298876 -21.541979 -52.163199 19.00000000
-45.390525 -4.141442 -12.615232 19.00000000
-52.632869 -14.461316 -17.158763 19.00000000
-39.504861 0.864574 -6.404459 19.00000000
-56.316437 -26.884790 -50.660741 19.00000000
-29.848543 5.707395 -30.079084 19.00000000
-54.912905 -20.286333 -0.381720 19.00000000
-30.244084 5.574706 -59.132139 19.00000000
-37.543799 2.109157 -57.012401 19.00000000
-40.545433 0.089876 -40.739816 19.00000000
-42.658474 -1.581162 -49.262534 19.00000000
-55.402401 -21.974297 -3.324897 19.00000000
