34.774536 6.373028 -53.282903
34.896240 4.435870 -53.112042
34.460068 11.378406 -2.139767
34.454902 11.460636 -8.811781
34.686482 7.774590 -25.106265
34.813607 5.751138 -7.499622
34.649464 8.363802 -40.158425
34.631779 8.645281 -28.723963
34.701858 7.529843 -46.157261
34.720658 7.230599 -55.574703
34.910202 4.213646 -31.127484
34.873629 4.795775 -2.223291
34.844985 5.251696 -23.795135
34.720851 7.227526 -16.261336
34.689806 7.721674 -35.470942
34.836244 5.390824 0.466915
34.904788 4.299818 -17.428565
34.754251 6.695903 -25.756896
34.751295 6.742964 -23.123614
34.833959 5.427190 -9.239325
34.626863 8.723530 -30.218174
34.542530 10.065861 -41.215052
34.907480 4.256962 -30.145777
34.668940 8.053795 -13.053308
34.658123 8.225974 -52.332860
34.684888 7.799952 -38.461530
34.653948 8.292426 -48.805840
34.814370 5.738997 -14.689752
34.677076 7.924295 -16.620010
34.595671 9.220022 -59.070306
34.500043 10.742131 -59.599441
34.805674 5.877406 -8.190395
34.711689 7.373359 -23.159957
34.655763 8.263537 -49.859327
34.607864 9.025940 -5.292897
34.500820 10.729754 -12.341407
34.865396 4.926813 2.530171
34.669049 8.052062 -33.374568
34.465350 11.294330 -23.875219
34.581674 9.442813 -55.773023
34.806833 5.858957 -30.628953
34.461447 11.356458 -25.091832
34.553200 9.896032 -19.612753
34.834578 5.417339 -27.982447
34.665775 8.104173 -43.825146
34.910419 4.210181 -1.820846
34.734450 7.011086 -31.747514
34.738705 6.943354 -18.883430
34.898959 4.392593 -32.476514
34.830611 5.480492 -9.875830
34.893944 4.472418 2.056936
34.700185 7.556474 3.154184
34.716880 7.290745 -2.608158
34.640702 8.503258 -2.695955
34.473119 11.170681 -46.188580
34.857048 5.059694 -40.408372
34.896624 4.429760 -33.931050
34.828400 5.515687 -50.157722
34.530102 10.263678 -4.707884
34.725659 7.150999 -56.767090
34.582055 9.436750 -13.349278
34.842663 5.288660 -18.368884
34.669542 8.044216 -55.574042
34.683809 7.817126 -44.358947
34.881330 4.673189 -35.539464
34.906789 4.267964 -35.946584
34.901239 4.356310 -26.538022
34.628917 8.690835 -13.884509
34.893716 4.476050 -39.487880
34.615294 8.907685 -22.921688
34.857181 5.057575 0.916717
34.618331 8.859342 -7.561716
34.699543 7.566688 2.214666
34.874645 4.779607 -8.422566
34.535033 10.185188 -6.650609
34.529435 10.274301 -49.523141
34.899199 4.388773 -21.744053
34.773542 6.388856 -13.453721
34.813060 5.759849 -30.048203
34.749194 6.776402 -0.225361
34.660331 8.190822 -7.898365
34.471748 11.192503 -24.498390
34.592536 9.269914 -11.992817
34.620878 8.818796 -25.941162
34.521577 10.399376 -8.451542
34.814979 5.729306 -43.041445
34.901129 4.358061 -37.486051
34.655510 8.267558 -19.812608
34.908944 4.233662 -54.899242
34.468784 11.239668 -29.183972
34.607633 9.029616 -8.142633
34.712394 7.362141 -17.985808
34.756715 6.656695 -37.865126
34.845810 5.238559 -36.801653
34.823348 5.596096 -26.820085
34.627976 8.705815 -32.468116
34.813501 5.752827 -35.982659
34.500486 10.735070 -24.964084
34.763662 6.546118 -58.823010
34.637844 8.548759 -26.755252
34.660907 8.181654 -11.706966
34.734740 7.006466 -13.751447
34.489017 10.917622 -59.045038
34.560735 9.776089 -43.363640
34.783132 6.236204 -18.606967
34.514172 10.517227 -33.450252
34.620346 8.827267 -41.538276
34.690956 7.703371 -29.250814
34.783446 6.231207 -58.111515
34.612937 8.945189 -44.795400
34.493119 10.852337 -21.362054
34.870735 4.841839 -47.820997
34.561807 9.759033 -18.014161
34.581555 9.444702 -7.357860
34.508825 10.602336 -10.140504
34.817532 5.688660 -1.917709
34.577608 9.507531 -48.426237
34.630320 8.668504 -21.827720
34.456527 11.434771 -3.355710
34.497486 10.782831 -32.789029
34.651444 8.332281 -30.659133
34.897055 4.422900 -14.628685
34.904556 4.303504 -47.921747
34.753139 6.713609 -16.515910
34.840766 5.318849 -8.097664
34.741508 6.898733 -21.288006
34.838363 5.357103 -58.687889
34.652878 8.309456 -61.095289
34.892148 4.501007 -48.930600
34.887911 4.568438 -40.678409
34.601482 9.127523 -21.274465
34.852398 5.133707 -55.524211
34.654846 8.278133 0.757889
34.546407 10.004146 2.862983
34.744371 6.853159 -17.620229
34.733139 7.031945 -10.021224
34.540718 10.094699 -48.610196
34.901348 4.354576 -5.205369
34.552844 9.901696 0.299731
34.909657 4.222317 -57.134603
34.900178 4.373195 -6.062708
34.909484 4.225072 -24.347568
34.818446 5.674116 -45.527502
34.490748 10.890067 -29.748941
34.828616 5.512237 -43.840064
34.858114 5.042721 -16.233734
34.513725 10.524354 2.735071
34.698848 7.577753 -41.255735
34.549288 9.958301 -58.908567
34.719340 7.251587 -20.759320
34.531046 10.248650 -35.013201
34.574796 9.552283 -51.477212
34.818911 5.666717 -13.258522
34.777998 6.317923 -16.037258
34.808148 5.838024 -53.337105
34.859199 5.025458 -5.071246
34.514449 10.512829 -60.950051
34.645772 8.422567 -21.177824
34.708825 7.418951 1.345359
34.815276 5.724576 -23.090884
34.599502 9.159046 -43.275965
34.871871 4.823750 -39.063633
34.810782 5.796102 -10.396054
34.738395 6.948278 -52.268908
34.542439 10.067314 -20.335706
34.866262 4.913034 -49.799693
34.804047 5.903303 -51.084457
34.550155 9.944495 -39.008455
34.733479 7.026536 -31.074446
34.870022 4.853187 -6.375053
34.758461 6.628891 -48.257273
34.628361 8.699691 -11.089621
34.759459 6.613007 -48.805576
34.751254 6.743614 -7.404547
34.773629 6.387462 -35.615828
34.588431 9.335249 -52.028131
34.583413 9.415136 -24.594595
34.504304 10.674298 -60.313827
34.873850 4.792258 -24.724873
34.459413 11.388837 -38.736420
34.745504 6.835133 -56.185230
34.689562 7.725556 -1.051313
34.763857 6.543004 -46.040121
34.505778 10.650836 -50.846972
34.458857 11.397684 -60.064042
34.583959 9.406434 -33.903706
34.470857 11.206672 -61.093689
34.890203 4.531960 -23.788855
34.455000 11.459076 -17.045602
34.506369 10.641442 -21.877672
34.769414 6.454565 -51.899713
34.823668 5.591002 -12.515140
34.872714 4.810332 -15.618530
34.618071 8.863480 -35.918470
34.904403 4.305942 -20.522674
34.464658 11.305344 -56.136495
34.906228 4.276888 -27.187294
34.791900 6.096650 -22.303731
34.619586 8.839366 -19.749054
34.696523 7.614753 -61.063572
34.606921 9.040959 -24.101431
34.467758 11.256011 -51.424744
34.659301 8.207224 -10.828220
34.459803 11.382628 -21.246531
34.626838 8.723928 -57.433031
34.788216 6.155281 -15.127753
34.828822 5.508955 -22.547095
34.604744 9.075611 -25.365842
34.460702 11.368308 -2.820621
34.713652 7.342126 -44.085454
34.906013 4.280324 -21.189597
34.484943 10.982467 -11.208203
34.523043 10.376030 3.665911
34.907453 4.257388 -19.046566
34.482279 11.024881 -26.234615
34.625471 8.745700 -50.231740
34.783749 6.226394 -0.686878
34.462902 11.333302 -35.976791
34.822932 5.602713 -54.777546
34.577589 9.507825 0.820200
34.534033 10.201104 -47.188871
34.769205 6.457884 2.441828
34.863335 4.959614 -26.697415
34.754956 6.684677 -41.032527
34.856489 5.068588 -15.130471
34.557067 9.834472 -46.668994
34.460313 11.374504 -20.571186
34.852565 5.131040 -43.286849
34.540296 10.101419 -58.273501
34.617165 8.877899 -19.065452
34.582290 9.432996 -14.500439
34.839467 5.339534 -28.768957
34.765853 6.511233 -25.237982
34.465364 11.294104 -46.728644
34.652642 8.313216 -1.187666
34.585603 9.380267 -0.073871
34.497813 10.777621 -54.733763
34.504197 10.676007 -25.555765
34.828646 5.511765 1.435541
34.584117 9.403923 -50.696236
34.615505 8.904322 -15.648677
34.477502 11.100909 -8.356651
34.827118 5.536088 -44.923505
34.905203 4.293201 -10.513601
34.537912 10.139371 -29.297293
34.785010 6.206315 3.018313
34.486865 10.951879 -16.381477
34.732002 7.050043 -35.771617
34.658132 8.225836 -27.777011
34.550791 9.934369 -11.995239
34.662738 8.152513 -41.464010
34.899292 4.387290 -59.200299
34.542075 10.073110 -4.144766
34.622127 8.798911 -3.735837
34.455613 11.449309 -9.986434
34.650894 8.341041 -37.792842
34.902779 4.331793 -28.738943
34.779548 6.293258 -26.313354
34.833889 5.428307 -2.936923
34.484209 10.994156 -0.788208
34.559584 9.794411 -60.903195
34.467694 11.257016 -52.969934
34.874764 4.777705 -22.252116
34.878892 4.712000 -7.615853
34.665632 8.106459 -34.880710
34.905406 4.289970 -47.218792
34.677031 7.925016 -53.283029
34.781769 6.257903 -45.501961
34.769945 6.446102 -39.150276
34.805386 5.881989 -55.520202
34.458554 11.402508 -26.802876
34.514781 10.507543 -28.118331
34.508543 10.606837 -15.696245
34.749901 6.765145 -35.000007
34.777108 6.332093 -30.905093
34.518300 10.451522 -50.201221
34.456304 11.438323 -34.620567
34.481465 11.037828 -49.966236
34.737912 6.955970 -40.149988
34.747998 6.795430 -4.603993
34.658221 8.224406 -34.026521
34.650582 8.346009 -56.278581
34.470244 11.216437 -18.954012
34.713255 7.348445 -38.114654
34.454626 11.465020 -31.085237
34.905551 4.287674 -60.292537
34.705100 7.478248 -34.858140
34.673485 7.981458 -3.760940
34.606185 9.052662 -51.197399
34.831836 5.460993 -59.530143
34.706318 7.458850 -43.477174
34.874248 4.785922 -17.140634
34.784625 6.212449 -47.832143
34.545939 10.011598 -14.771593
34.815824 5.715854 2.755746
34.608326 9.018587 -35.022567
34.556571 9.842379 -36.888264
34.659007 8.211904 -25.755551
34.554692 9.872273 -57.669093
34.751971 6.732200 -18.366666
34.745669 6.832508 -52.832724
34.736248 6.982457 -5.340043
34.870795 4.840883 -28.488457
34.507242 10.627540 -14.453442
34.527106 10.311360 -44.168716
34.771437 6.422356 -10.122789
34.639373 8.524416 -46.465069
34.530786 10.252786 -29.868139
34.594351 9.241032 -21.956237
34.662454 8.157034 -57.633535
34.595494 9.222838 -11.419440
34.673835 7.975888 -59.024062
34.593424 9.255782 -49.897524
34.796636 6.021268 -6.122737
34.909065 4.231737 2.628664
34.577739 9.505446 -52.823858
34.696369 7.617218 -10.442098
34.457369 11.421361 -30.553569
34.543225 10.054796 -44.917330
34.528407 10.290656 -51.728517
34.550547 9.938258 -47.737502
34.666420 8.093914 -6.827620
34.874500 4.781907 -5.661189
34.834929 5.411754 -29.533968
34.668064 8.067749 -0.622621
34.734568 7.009199 -58.426792
34.596334 9.209471 -26.674488
34.459166 11.392770 -6.752079
34.493036 10.853659 -18.067005
34.533887 10.203438 -9.305621
34.834450 5.419383 -47.121406
34.526280 10.324515 -40.588024
34.809659 5.813986 -17.537830
34.690095 7.717072 -39.111609
34.541032 10.089707 -5.803541
34.680754 7.865751 -21.186451
34.801533 5.943313 -25.836613
34.562170 9.753258 -50.187422
34.864622 4.939141 -52.776164
34.558478 9.812011 -27.726656
34.863882 4.950920 -30.721914
34.848431 5.196851 -49.262468
34.811303 5.787806 -46.411885
34.512027 10.551375 -5.513592
34.632288 8.637188 -4.619644
34.536423 10.163061 -7.922823
34.904606 4.302708 -22.841202
34.508160 10.612931 -13.413036
34.701585 7.534193 -36.121168
34.910051 4.216047 -15.996696
34.673901 7.974830 -51.059214
34.875504 4.765932 -56.926076
34.603107 9.101666 -2.799781
34.686431 7.775391 -29.884015
34.699305 7.570477 -54.971110
34.905967 4.281050 -2.742323
34.779650 6.291637 -54.218634
34.856662 5.065828 -42.557627
34.857854 5.046864 -34.062492
34.738821 6.941512 -53.397973
34.785493 6.198625 -40.264464
34.641653 8.488119 -24.334373
34.663509 8.140236 -5.713644
34.666498 8.092672 -45.769170
34.851180 5.153085 -53.262172
34.609825 8.994727 -6.159885
34.770324 6.440080 -28.891814
34.529460 10.273893 1.973295
34.517820 10.459169 0.857809
34.541599 10.080679 -25.003258
34.576423 9.526384 -4.149697
34.661991 8.164399 -18.403279
34.695873 7.625104 -57.183352
34.653075 8.306323 -15.442315
34.557834 9.822262 -27.053169
34.856570 5.067299 1.963396
34.909597 4.223276 -53.883355
34.746136 6.825077 -44.415208
34.618510 8.856483 -14.530451
34.832158 5.455868 -41.256204
34.780132 6.283955 -18.009642
34.485263 10.977380 -7.225615
34.545921 10.011882 -15.931393
34.679282 7.889187 -22.137676
34.829890 5.491963 -0.200478
34.520605 10.414848 -48.156768
34.778176 6.315099 -50.082693
34.786893 6.176343 -52.736978
34.591077 9.293146 -39.031162
34.526212 10.325588 -2.769647
34.532622 10.223573 -1.752590
34.510318 10.578570 -0.322649
34.532437 10.226508 -42.997509
34.571047 9.611950 -36.074121
34.784856 6.208771 -41.470660
34.894354 4.465895 -55.728049
34.491304 10.881227 -32.184968
34.767093 6.491506 -3.748375
34.580028 9.469009 -13.915911
34.474216 11.153211 -40.980817
34.859587 5.019281 -44.261256
34.910401 4.210475 -57.896762
34.499835 10.745437 -2.350469
34.655777 8.263309 -58.332008
34.468432 11.245278 -27.320584
34.904257 4.308271 -41.387491
34.874679 4.779057 1.454920
34.792603 6.085459 -27.067806
34.557644 9.825291 -30.474770
34.653970 8.292075 -23.798523
34.461943 11.348558 -36.660377
34.832040 5.457735 -20.620377
34.510383 10.577537 -31.583256
34.666845 8.087149 -32.625236
34.688278 7.746004 -9.844359
34.637953 8.547016 0.252839
34.909121 4.230846 -46.077908
34.572318 9.591732 -7.922933
34.725899 7.147186 0.831057
34.618477 8.857016 -52.701418
34.524465 10.353404 -57.272834
34.654944 8.276567 -16.043408
34.571103 9.611074 -25.412405
34.809514 5.816285 -25.248515
34.546231 10.006952 -40.100649
34.733555 7.025326 -11.707694
34.770835 6.431937 -36.744107
34.720270 7.236782 -54.255799
34.694283 7.650419 0.383862
34.504670 10.668476 -37.690741
34.906953 4.265361 -8.095581
34.833949 5.427356 -38.512160
34.570636 9.618498 -32.121799
34.489048 10.917127 -52.143762
34.560037 9.787211 -2.909981
34.749944 6.764467 -27.903073
34.466818 11.270962 -22.530116
34.488215 10.930395 1.398222
34.595978 9.215127 -12.858530
34.693777 7.658474 -6.439829
34.462491 11.339836 -45.566576
34.634174 8.607175 -12.738434
34.535875 10.171795 -15.372050
34.611368 8.970176 -55.379234
34.910140 4.214630 -52.408456
34.648142 8.384847 -5.202585
34.776058 6.348800 -33.145023
34.798911 5.985054 -31.374124
34.910532 4.208386 -13.525807
34.641624 8.488584 -59.381195
34.908438 4.241711 0.565246
34.564534 9.715629 -12.605823
34.460144 11.377188 -23.127688
34.593006 9.262444 -0.768996
34.619524 8.840354 -2.189885
34.586280 9.369498 2.206505
34.585713 9.378517 2.861181
34.711339 7.378938 -40.700687
34.779073 6.300809 -12.100094
34.650097 8.353722 -9.453958
34.808888 5.826246 -36.882048
34.540513 10.097971 -53.002047
34.899759 4.379855 -9.021994
34.505729 10.651623 -53.520579
34.874532 4.781405 -10.297648
34.905022 4.296092 -7.027961
34.868162 4.882783 -47.039460
34.511341 10.562300 -1.169316
34.861995 4.980942 -58.262578
34.860545 5.004033 -41.723385
34.454454 11.467765 -41.614898
34.468062 11.251163 0.382582
34.751469 6.740194 -15.530525
34.686249 7.778286 -20.603760
34.761945 6.573435 -14.659483
34.653303 8.302692 -35.453424
34.638416 8.539643 -42.102252
34.770071 6.444103 -46.625753
34.789661 6.132280 3.755706
34.571998 9.596816 -28.662914
34.627191 8.718314 -45.907941
34.453842 11.477502 -52.141074
34.464882 11.301782 -33.098733
34.820961 5.634087 -57.721016
34.708015 7.431846 -28.582718
34.646499 8.410997 -45.096752
34.909781 4.220346 -36.782609
34.658148 8.225575 -36.227834
34.660606 8.186447 -46.926334
34.805284 5.883616 -60.759501
34.551057 9.930143 -1.118666
34.578978 9.485713 -59.792944
34.834102 5.424917 -50.806096
34.775338 6.360269 -33.783793
34.901430 4.353261 -44.627081
34.723641 7.183124 -24.483284
34.585891 9.375685 -1.894439
34.579905 9.470972 -35.434564
34.462029 11.347196 -14.355275
34.871417 4.830984 3.502222
34.602052 9.118459 -20.402946
34.658312 8.222966 -23.099516
34.584313 9.400803 -41.502246
34.757938 6.637219 -21.942017
34.859376 5.022628 -48.509382
34.739013 6.938451 -47.252236
34.454203 11.471759 -48.560663
34.561866 9.758094 -56.845301
34.586854 9.360362 -3.386063
34.536196 10.166673 -25.887625
34.584644 9.395530 -53.707500
34.773515 6.389281 -43.970885
34.806912 5.857697 -21.051186
34.459583 11.386125 -38.130449
34.573510 9.572758 -40.926431
34.528044 10.296442 -26.491612
34.557814 9.822584 -32.895404
34.562086 9.754586 -34.708821
34.869393 4.863200 -1.653023
34.817599 5.687593 -8.740735
34.624358 8.763408 -58.090088
34.513396 10.529593 -3.845976
34.809888 5.810330 -49.012416
34.728353 7.108124 -36.931447
34.532873 10.219579 -23.586770
34.604636 9.077322 -29.773968
34.897990 4.408013 -33.290677
34.538238 10.134175 -38.286352
34.694796 7.642247 -27.705643
34.745184 6.840224 -10.622696
34.813749 5.748875 -11.865588
34.781373 6.264202 -10.841191
34.690931 7.703764 -42.007742
34.658982 8.212304 -51.749425
34.747342 6.805878 -57.816018
34.831634 5.464197 -54.005878
34.868221 4.881854 -2.835127
34.548385 9.972660 -28.259561
34.526307 10.324086 -27.405805
34.542175 10.071519 -9.991784
34.727828 7.116483 -8.313052
34.871044 4.836917 -46.421196
34.648754 8.375093 -8.813445
34.471331 11.199139 -47.961136
34.563962 9.724728 -23.100707
34.644620 8.440897 -48.233026
34.691556 7.693812 -49.021389
34.809945 5.809420 -23.894008
34.777563 6.324858 -42.110050
34.790735 6.115199 -19.874430
34.465753 11.287922 -4.075543
34.909545 4.224099 -29.469521
34.903039 4.327651 -51.302091
34.768342 6.471613 -23.844641
34.655687 8.264750 -14.296930
34.458994 11.395506 -10.848379
34.619989 8.832947 -23.547181
34.493833 10.840966 -43.782326
34.871071 4.836488 -29.203025
34.719771 7.244730 -14.555719
34.862905 4.966472 -3.459371
34.655204 8.272434 2.931323
34.841178 5.312292 -25.854342
34.597957 9.183628 -16.362536
34.494932 10.823479 -7.868756
34.865430 4.926280 -29.943244
34.718239 7.269105 -1.940611
34.624991 8.753331 -27.868461
34.723395 7.187033 -30.344010
34.627524 8.713022 -0.697911
34.658221 8.224408 2.250493
34.727180 7.126800 -60.444015
34.880448 4.687227 -59.661649
34.663021 8.148015 3.734194
34.599231 9.163348 -57.018228
34.895581 4.446366 -58.568239
34.832665 5.447788 -20.066459
34.701091 7.542057 -45.465677
34.854782 5.095763 -35.988169
34.862527 4.972475 -54.912838
34.617135 8.878383 -24.822118
34.457659 11.416751 -28.244139
34.803911 5.905462 -52.095045
34.713263 7.348303 -12.775502
34.602228 9.115657 -42.610950
34.572956 9.581569 -55.238378
34.732652 7.039701 -45.716651
34.684225 7.810515 -9.040488
34.903554 4.319459 -1.248823
34.865394 4.926853 -39.838760
34.903012 4.328091 -15.270562
34.495416 10.815776 -3.015826
34.815788 5.716421 -16.439898
34.612598 8.950599 -8.895213
34.774073 6.380395 -60.301539
34.708244 7.428195 -49.501912
34.539569 10.112986 -54.978239
34.610006 8.991843 -46.814711
34.496737 10.794740 -49.418594
34.514794 10.507330 -46.556143
34.901188 4.357112 3.237937
34.783759 6.226222 -47.182231
34.652376 8.317445 -10.242761
34.502117 10.709117 -56.538933
34.495896 10.808131 -37.014049
34.843591 5.273890 -0.908097
34.757435 6.645225 -1.284405
34.805888 5.874007 -2.632210
34.545993 10.010748 -3.523146
34.847879 5.205627 -37.961816
34.761578 6.579288 -55.649644
34.804872 5.890178 -28.484411
34.724806 7.164582 -25.213529
34.793289 6.074544 -43.467323
34.661604 8.170570 -13.702330
34.633007 8.625750 -33.176134
34.718997 7.257040 -9.448799
34.835502 5.402634 -17.106259
34.460926 11.364748 -21.826560
34.698276 7.586863 -13.475838
34.544414 10.035867 -16.933672
34.873160 4.803230 -34.535236
34.810993 5.792746 -4.966808
34.490235 10.898241 -17.439321
34.494232 10.834617 -36.274179
34.584693 9.394762 -45.087950
34.738767 6.942366 3.858862
34.537093 10.152404 -20.963359
34.776789 6.337169 -32.121156
34.454781 11.462560 -53.999586
34.683693 7.818974 -24.103396
34.587331 9.352769 -58.393470
34.485439 10.974581 -34.958095
34.457648 11.416920 -15.965558
34.539862 10.108326 1.320693
34.751541 6.739046 -53.924400
34.758673 6.625525 -34.373694
34.905784 4.283960 -27.870943
34.871024 4.837235 -23.303442
34.457165 11.424610 -4.775039
34.460144 11.377204 -7.731401
34.494592 10.828886 -4.479471
34.808954 5.825194 -35.339619
34.503355 10.689411 -39.647426
34.670055 8.036056 -28.408657
34.814812 5.731954 -32.077705
34.741705 6.895599 -26.335102
34.617366 8.874704 -38.523899
34.492008 10.870021 -35.531317
34.699294 7.570649 -57.990855
34.821951 5.618332 -40.517387
34.483487 11.005646 -13.832114
34.525164 10.342270 -17.674333
34.558233 9.815913 -45.645478
34.754204 6.696662 -41.712153
34.777626 6.323843 -6.833317
34.453752 11.478938 -12.942422
34.673184 7.986239 -40.526451
34.738412 6.948013 -38.642675
34.599188 9.164043 -54.366599
34.627916 8.706776 -13.308655
34.673531 7.980728 -60.372088
34.880622 4.684461 -3.939096
34.692341 7.681326 -56.442465
34.608614 9.014009 -32.001939
34.734192 7.015182 -45.002275
34.836720 5.383255 -4.162776
34.771789 6.416761 -19.237791
34.650136 8.353101 1.505759
34.456492 11.435319 -49.423567
34.474143 11.154376 -57.831861
34.716480 7.297106 -7.320750
34.497553 10.781765 -47.482738
34.896685 4.428791 -11.747358
34.737735 6.958789 -8.918732
34.742247 6.886980 -43.584218
34.733300 7.029387 -39.467500
34.714540 7.327986 -26.723703
34.909523 4.224448 -34.611364
34.768185 6.474126 -5.168415
34.730781 7.069480 -15.067188
34.564778 9.711738 -5.210730
34.686855 7.768651 -47.347143
34.529179 10.278369 -41.960066
34.537776 10.141532 -54.407022
34.651103 8.337703 -29.482772
34.711141 7.382090 -50.680173
34.587003 9.357983 -27.401273
34.470662 11.209781 -43.194757
34.662157 8.161756 -50.446016
34.570008 9.628503 -6.294024
34.631447 8.650572 -44.145290
34.780331 6.280787 -22.804313
34.714597 7.327073 -4.737204
34.698083 7.589931 -11.646562
34.685733 7.786511 -52.712979
34.624525 8.760757 -60.167466
34.595151 9.228295 -56.431104
34.530281 10.260827 -35.678086
34.902023 4.343833 -56.397278
34.699998 7.559456 -53.737594
34.811045 5.791926 2.092653
34.769065 6.460110 -20.565096
34.741837 6.893497 -55.136801
34.683924 7.815294 -31.401488
34.844660 5.256868 -35.269011
34.662957 8.149024 -55.037662
34.909101 4.231169 -25.236930
34.695995 7.623167 -46.748055
34.680261 7.873604 -26.286406
34.461087 11.362178 -12.159452
34.500184 10.739886 -23.026796
34.851587 5.146611 -32.083461
34.718944 7.257892 -16.794891
34.551850 9.917509 -8.709944
34.800955 5.952516 -14.005442
34.744173 6.856318 -49.305598
34.653288 8.302923 -7.325621
34.880896 4.680108 -14.139227
34.772159 6.410869 -38.429580
34.540452 10.098937 -14.057610
34.761985 6.572806 -17.044384
34.819381 5.659238 -19.515194
34.638566 8.537259 -41.066849
34.646524 8.410598 -16.993628
34.558184 9.816705 -21.673265
34.489497 10.909980 -55.560621
34.693122 7.668890 -49.993635
34.820673 5.638676 -56.083864
34.902672 4.333496 -49.504412
34.900898 4.361739 -42.973300
34.685387 7.792009 -19.554440
34.812232 5.773021 -60.056341
34.454837 11.461665 -33.657049
34.735752 6.990354 -33.494743
34.636887 8.563985 -34.551923
34.739927 6.923898 -42.721339
34.723225 7.189744 -48.561542
34.855483 5.084593 -13.036701
34.454775 11.462662 -37.554689
34.671009 8.020862 -4.444421
34.583770 9.409448 -18.674557
34.561633 9.761803 -16.454001
34.495051 10.821590 -30.916386
34.787324 6.169490 -59.651173
34.752775 6.719395 -1.843454
34.611594 8.966579 3.387514
34.570112 9.626834 3.486621
34.459688 11.384452 -47.276227
34.574813 9.552009 -47.285816
34.628994 8.689613 -53.762534
34.507018 10.631101 -16.811171
34.457267 11.422987 -15.086089
34.797345 6.009986 -27.644603
34.645982 8.419217 -12.210560
34.558829 9.806437 -31.421671
34.512096 10.550271 -19.855820
34.480714 11.049790 3.863527
34.653991 8.291734 -20.381645
34.841365 5.309318 -60.445903
34.585812 9.376945 -39.961764
34.690513 7.710420 -5.325058
34.883969 4.631188 -42.172383
34.820798 5.636678 3.371830
34.646459 8.411625 -6.325022
34.871616 4.827815 -0.138016
34.622972 8.785464 -15.064752
34.463794 11.319097 -58.569751
34.765949 6.509717 -11.409791
34.830680 5.479388 -47.785074
34.738518 6.946320 2.934782
34.802816 5.922891 -49.669033
34.463970 11.316302 -25.710963
34.590915 9.295722 -36.585114
34.709235 7.412431 -4.166814
34.831598 5.464772 -57.016903
34.551372 9.925118 -60.311740
34.786438 6.183584 0.057054
34.536325 10.164631 -53.733325
34.856607 5.066707 -10.849981
34.513101 10.534288 -34.523588
34.499479 10.751101 -26.953095
34.613188 8.941207 0.619947
34.877809 4.729242 -19.370503
34.503354 10.689425 -44.569923
34.507995 10.615554 -42.501552
34.811367 5.786797 -38.057411
34.453889 11.476753 -55.469827
34.573829 9.567670 -9.537579
34.891204 4.516024 -25.870698
34.525893 10.330669 -12.827865
34.784044 6.221688 -56.131645
34.507517 10.623155 -20.624940
34.587067 9.356973 -6.782594
34.868619 4.875521 -32.810400
34.703595 7.502194 -59.997269
34.879882 4.696247 -9.598602
34.509166 10.596915 -57.938621
34.849083 5.186463 -56.482516
34.794629 6.053203 -1.448546
34.762871 6.558698 0.539000
34.584102 9.404164 -46.227914
34.557643 9.825309 -37.587623
34.691092 7.701199 -39.899987
34.907184 4.261678 -50.203386
34.719330 7.251744 -47.896645
34.569577 9.635348 -29.780742
34.476238 11.121024 -56.979581
34.824261 5.581555 -52.775279
34.579309 9.480455 -30.946114
34.816228 5.709418 -33.341597
34.881556 4.669595 -57.537276
34.693536 7.662305 -22.711652
34.800094 5.966227 -39.693283
34.565754 9.696200 -33.423820
34.805712 5.876808 -38.916962
34.684517 7.805867 -18.998343
34.535237 10.181946 -36.323059
34.647072 8.401866 -25.179826
34.615316 8.907334 -1.268174
34.595068 9.229614 -47.735297
34.633437 8.618897 -31.352905
34.533307 10.212668 -32.090765
34.460075 11.378291 -5.320350
34.870443 4.846484 -20.856684
34.461658 11.353102 -1.264151
34.640575 8.505283 -51.224288
34.469946 11.221186 -40.331756
34.496725 10.794936 -19.338098
34.897532 4.415306 -16.671399
34.496408 10.799986 -6.383367
34.803122 5.918035 -34.514691
34.876963 4.742700 -54.084023
34.735249 6.998364 -46.466125
34.715934 7.305799 -11.013304
34.458583 11.402037 -19.625673
34.544107 10.040758 -56.096782
34.770264 6.441028 -50.649800
34.601817 9.122187 1.570304
34.712330 7.363167 -18.529496
34.690274 7.714231 -17.427058
34.684173 7.811329 -27.102936
34.800478 5.960105 0.768559
34.509743 10.587731 -39.061058
34.463264 11.327534 -0.319297
34.902476 4.336622 -38.542045
34.474705 11.145432 2.017877
34.875137 4.771768 -51.888842
34.758582 6.626976 -30.036081
34.863959 4.949695 -37.437267
34.740927 6.907982 -3.102160
34.662783 8.151802 -3.099926
34.795392 6.041067 -57.254152
34.650470 8.347779 -36.846605
34.831208 5.470985 -42.064708
34.574103 9.563312 -44.398427
34.551879 9.917059 -24.289470
34.615851 8.898820 -39.604909
34.795417 6.040676 -24.611034
34.683232 7.826314 -48.264023
34.622346 8.795432 2.221325
34.455345 11.453587 -59.313998
34.522916 10.378062 -11.420606
34.466351 11.278400 -39.625299
34.601269 9.130914 -10.028840
34.573004 9.580801 -49.014310
34.739939 6.923712 -49.907423
34.834815 5.413573 -6.251884
34.686894 7.768020 -37.300842
34.622703 8.789745 -17.798553
34.691919 7.688050 -42.757664
34.708556 7.423227 -21.591712
34.514664 10.509408 0.302889
34.495658 10.811924 -28.718306
34.588703 9.330932 -17.010440
34.819873 5.651409 -21.857842
34.571085 9.611355 -54.656334
34.695078 7.637759 -34.029381
34.803361 5.914229 -58.975133
34.459173 11.392647 -44.187067
34.647232 8.399329 -56.976557
34.724184 7.174476 -42.202264
34.864809 4.936152 -18.841029
34.894078 4.470290 -45.260501
34.770827 6.432060 1.351136
34.782676 6.243472 -8.747699
34.493611 10.844506 -48.607939
34.829460 5.498808 -15.814033
34.845382 5.245378 -27.250558
34.824393 5.579452 -37.486085
34.595564 9.221723 -10.743537
34.902296 4.339480 -3.318828
34.514717 10.508554 -30.352037
34.883958 4.631363 -38.043805
34.897279 4.419332 -60.890583
34.593428 9.255715 -43.808976
34.456919 11.428535 -32.028817
34.775248 6.361701 -3.077822
34.527736 10.301344 -52.400627
34.605730 9.059909 -49.267339
34.865522 4.924808 -21.684819
34.718529 7.264499 -32.992331
34.863718 4.953524 -12.376156
34.834345 5.421057 -14.227521
34.776741 6.337939 -54.926481
34.901861 4.346402 -40.064926
34.802336 5.930543 -16.941013
34.862791 4.968272 -31.371557
34.483192 11.010343 -20.156576
34.740970 6.907297 -50.940663
34.655856 8.262063 -39.398793
34.516599 10.478603 -22.418920
34.864305 4.944176 -61.069479
34.755486 6.676242 -6.125232
34.732828 7.036895 -29.145050
34.754019 6.699596 -2.413849
34.477663 11.098339 -50.506786
34.520475 10.416912 -18.562584
34.896591 4.430288 -12.905918
34.520211 10.421115 -45.443687
34.603356 9.097692 -28.359041
34.453981 11.475295 -5.961344
34.808476 5.832804 -42.496331
34.548430 9.971952 -51.034800
34.581841 9.440151 -38.190888
34.656558 8.250881 -43.233231
34.785084 6.205140 -37.398750
34.751482 6.739974 -59.882100
34.873093 4.804309 -17.721129
34.710050 7.399449 -0.574009
34.542896 10.060041 -0.552919
34.813227 5.757190 -33.988171
34.834960 5.411271 -24.617131
34.744931 6.844259 -60.962041
34.688610 7.740715 -14.245874
34.689889 7.720361 -52.070669
34.549216 9.959444 -22.278359
34.763052 6.555822 -24.440724
34.859353 5.023000 -33.383146
34.781601 6.260584 -21.432698
34.545059 10.025610 -10.712033
34.496506 10.798422 -9.341227
34.827389 5.531775 -51.694804
34.537147 10.151538 -31.012028
34.545349 10.020986 -33.897215
34.860692 5.001694 -51.221866
34.462585 11.338348 -44.818866
34.851751 5.144004 -6.954418
34.649843 8.357760 -22.583216
34.689975 7.718982 -30.690312
34.660269 8.191816 -17.739498
34.906589 4.271153 3.799364
34.801808 5.938951 -4.444507
34.668250 8.064789 -32.061207
34.850249 5.167917 -11.802609
34.596707 9.203523 -32.795306
34.773729 6.385879 -12.811868
34.454826 11.461845 -17.831845
34.477972 11.093425 -34.137401
34.906116 4.278684 -12.340595
34.560551 9.779025 -11.308436
34.801600 5.942254 -40.966626
34.574186 9.561987 -15.339050
34.586918 9.359341 -5.724728
34.716936 7.289842 -22.291164
34.559224 9.800137 -42.508879
34.698356 7.585582 -3.179804
34.515775 10.491712 -24.199771
34.673455 7.981940 -59.727358
34.505515 10.655026 -52.857076
34.733769 7.021925 -32.305304
34.722591 7.199841 -59.004025
34.884666 4.620102 -19.905599
34.837597 5.369291 -5.711748
34.742199 6.887744 -20.148713
34.766476 6.501321 -9.366754
34.742040 6.890266 -6.782116
34.530328 10.260087 -7.257125
34.591732 9.282717 -37.246843
34.717517 7.280593 -12.214772
34.819561 5.656371 -18.874892
34.857564 5.051484 -45.270005
34.658261 8.223770 -54.384267
34.468565 11.243152 -42.616057
34.796840 6.018021 -48.433142
34.904883 4.298305 -43.765024
34.640331 8.509165 -58.808571
34.695206 7.635727 -7.789702
34.699830 7.562118 -58.550369
34.619219 8.845203 -40.506736
34.791220 6.107476 -32.651644
34.613711 8.932881 -60.733479
34.905845 4.282990 -0.544293
34.673575 7.980020 -2.360096
34.470473 11.212794 3.078410
34.727714 7.118292 -51.594614
34.800138 5.965522 -29.552202
34.744111 6.857308 -27.262356
34.711539 7.375746 -15.624370
34.909291 4.228146 -18.332893
