9.066294 -35.215695 -37.773372 17.00000000
29.195959 -54.111423 -58.194857 17.00000000
16.481438 -45.544306 3.864674 17.00000000
46.548624 -57.170637 -40.963623 17.00000000
23.153953 -50.951789 -38.456454 17.00000000
9.159832 -35.394568 2.839875 17.00000000
16.583109 -45.643420 -60.668034 17.00000000
14.934584 -43.895533 3.684932 17.00000000
46.705034 -57.167811 -37.567191 17.00000000
44.900251 -57.200427 -49.446370 17.00000000
33.917771 -55.760113 -34.537780 17.00000000
41.408499 -57.081884 -25.463027 17.00000000
18.498259 -47.441780 -52.142805 17.00000000
44.503092 -57.207605 0.417856 17.00000000
14.111529 -42.955326 -20.411287 17.00000000
8.869813 -34.839963 -31.714261 17.00000000
36.187873 -56.307532 -9.984012 17.00000000
15.512830 -44.556085 -57.477306 17.00000000
22.920673 -50.805438 -11.722737 17.00000000
22.945760 -50.823141 -8.670120 17.00000000
7.915268 -32.665209 -35.894268 17.00000000
27.382668 -53.286980 -35.689211 17.00000000
40.847499 -57.047630 3.446434 17.00000000
8.160419 -33.240613 -9.961410 17.00000000
5.618828 -25.319717 -56.214764 17.00000000
6.744791 -29.445735 2.355844 17.00000000
43.206405 -57.191661 -36.232485 17.00000000
38.078603 -56.679006 -11.025491 17.00000000
38.921316 -56.797820 -40.080818 17.00000000
13.764802 -42.559247 -52.866480 17.00000000
9.098087 -35.276493 -2.015339 17.00000000
21.398719 -49.731439 -59.043382 17.00000000
13.786085 -42.583559 -33.032543 17.00000000
10.442716 -37.760845 1.834830 17.00000000
39.699709 -56.907566 -28.896629 17.00000000
7.841876 -32.492947 -17.517492 17.00000000
9.301903 -35.666252 -9.662746 17.00000000
17.928290 -46.954766 -44.725929 17.00000000
6.696641 -29.302215 -13.543723 17.00000000
7.242788 -30.930125 -31.320374 17.00000000
37.698135 -56.625363 -33.627347 17.00000000
16.253067 -45.321679 -33.007357 17.00000000
5.844477 -26.191014 -8.694825 17.00000000
12.313015 -40.620087 -20.506426 17.00000000
37.925622 -56.657437 -42.741653 17.00000000
23.689828 -51.269686 -12.988103 17.00000000
14.854406 -43.803942 -53.375740 17.00000000
24.548904 -51.779316 -11.072224 17.00000000
36.329044 -56.338974 -30.098240 17.00000000
5.706880 -25.659713 -44.348758 17.00000000
43.908617 -57.218349 -19.277546 17.00000000
34.063532 -55.804918 -53.630541 17.00000000
40.197983 -56.977818 -34.038850 17.00000000
10.912032 -38.507901 -17.005860 17.00000000
42.493913 -57.148158 -6.927460 17.00000000
38.398629 -56.724126 -21.978294 17.00000000
19.072876 -47.919507 -30.544722 17.00000000
29.223641 -54.122392 -9.160698 17.00000000
11.678753 -39.728370 1.344172 17.00000000
9.350149 -35.758513 -39.576271 17.00000000
18.836826 -47.723258 -5.747070 17.00000000
19.955162 -48.653025 -60.588467 17.00000000
30.866632 -54.773457 -8.272227 17.00000000
32.246452 -55.246369 -1.503372 17.00000000
40.153201 -56.971504 -36.168625 17.00000000
11.298900 -39.123719 -0.641976 17.00000000
45.332960 -57.192607 -18.093797 17.00000000
43.781722 -57.220642 -56.782027 17.00000000
16.175148 -45.245721 -56.099036 17.00000000
27.698416 -53.441993 -16.607890 17.00000000
46.754467 -57.166917 0.455360 17.00000000
15.050140 -44.027537 -6.547955 17.00000000
25.963815 -52.590411 -1.437032 17.00000000
18.358544 -47.325623 -19.828248 17.00000000
6.625603 -29.090471 -35.060901 17.00000000
11.844011 -39.990125 -16.978903 17.00000000
7.553820 -31.816838 -60.580409 17.00000000
11.175707 -38.927619 -4.024169 17.00000000
27.883574 -53.532894 -2.252952 17.00000000
5.242459 -23.866444 -54.857081 17.00000000
34.053095 -55.801710 -36.563815 17.00000000
25.942174 -52.579786 -25.017786 17.00000000
20.460675 -49.069489 -51.032514 17.00000000
37.795593 -56.639104 -26.173397 17.00000000
33.682672 -55.687846 -50.306923 17.00000000
42.913131 -57.173754 -29.776015 17.00000000
5.904978 -26.424627 -29.776475 17.00000000
7.942839 -32.729924 -49.490171 17.00000000
26.229672 -52.720930 -46.266388 17.00000000
13.888056 -42.700044 -44.297715 17.00000000
31.109635 -54.869751 -41.458412 17.00000000
37.915112 -56.655955 -54.311176 17.00000000
44.623153 -57.205435 -5.618371 17.00000000
14.345285 -43.222354 -41.278540 17.00000000
36.010309 -56.267984 -25.056768 17.00000000
29.556148 -54.254154 -18.904175 17.00000000
44.186227 -57.213332 -27.005423 17.00000000
31.683246 -55.073246 3.820245 17.00000000
37.355059 -56.567491 -1.180302 17.00000000
14.578375 -43.488622 -35.666026 17.00000000
13.895710 -42.708789 -56.426133 17.00000000
8.215375 -33.369603 -19.222697 17.00000000
45.404605 -57.191313 -36.782032 17.00000000
5.203364 -23.715487 -9.443119 17.00000000
18.982840 -47.844653 -10.434619 17.00000000
6.027779 -26.898797 -1.671646 17.00000000
6.827341 -29.691794 -54.659542 17.00000000
46.619463 -57.169357 -8.719854 17.00000000
11.825031 -39.961214 -9.256961 17.00000000
10.440451 -37.757239 -49.700271 17.00000000
6.853929 -29.771045 -42.982673 17.00000000
9.684701 -36.398279 -36.702234 17.00000000
8.785230 -34.678213 -47.606008 17.00000000
13.621466 -42.377587 -28.474209 17.00000000
11.340140 -39.189364 -37.986502 17.00000000
22.586204 -50.569412 -24.507981 17.00000000
15.433994 -44.466028 -25.894673 17.00000000
7.770448 -32.325296 -34.380019 17.00000000
6.495298 -28.702068 -36.854856 17.00000000
32.072745 -55.192974 -55.762918 17.00000000
30.914244 -54.792324 -10.149817 17.00000000
43.401636 -57.203582 -58.323928 17.00000000
10.326583 -37.575983 -46.048664 17.00000000
19.114283 -47.953932 -53.643921 17.00000000
25.652431 -52.433962 -28.017359 17.00000000
7.794591 -32.381963 -44.077758 17.00000000
8.227419 -33.397873 -1.853894 17.00000000
17.051469 -46.099999 1.456981 17.00000000
30.875139 -54.776828 -61.074624 17.00000000
12.285421 -40.583024 -45.078976 17.00000000
34.291057 -55.874857 -9.664570 17.00000000
19.778159 -48.505868 -15.598664 17.00000000
32.714325 -55.390188 -15.301618 17.00000000
6.175563 -27.469435 -50.259945 17.00000000
40.926325 -57.052443 -45.932681 17.00000000
8.119925 -33.145569 -55.856639 17.00000000
40.387968 -57.004604 -16.024071 17.00000000
19.736394 -48.471145 -33.749792 17.00000000
43.423420 -57.204912 2.841665 17.00000000
4.963500 -22.789300 -58.806889 17.00000000
11.723365 -39.799383 -60.647012 17.00000000
7.120764 -30.566404 -9.226129 17.00000000
29.391282 -54.188823 -59.783571 17.00000000
22.156753 -50.266361 2.325581 17.00000000
5.822730 -26.107044 -32.714480 17.00000000
40.552825 -57.027848 -40.814181 17.00000000
27.583754 -53.385701 -26.580566 17.00000000
23.180914 -50.967782 -54.939252 17.00000000
8.502788 -34.044203 -17.730619 17.00000000
17.949128 -46.975079 -8.995324 17.00000000
22.707621 -50.655093 -48.595854 17.00000000
23.333893 -51.058534 3.721377 17.00000000
43.901004 -57.218486 -31.767834 17.00000000
9.163792 -35.402141 -13.363380 17.00000000
30.288030 -54.544175 -42.827046 17.00000000
10.230030 -37.422291 -5.784028 17.00000000
8.159258 -33.237890 -12.139825 17.00000000
9.051642 -35.187675 -15.270620 17.00000000
29.579510 -54.263412 -2.906896 17.00000000
23.924528 -51.408917 -46.464342 17.00000000
13.993426 -42.820413 -60.992048 17.00000000
30.275072 -54.539041 -15.787373 17.00000000
39.320155 -56.854053 -25.709433 17.00000000
46.768699 -57.166660 -49.600629 17.00000000
16.624396 -45.683669 -50.801695 17.00000000
23.573728 -51.200812 -31.788137 17.00000000
4.820366 -22.236617 -10.555594 17.00000000
24.286538 -51.623672 -37.436993 17.00000000
43.670161 -57.219977 -38.234002 17.00000000
9.107634 -35.294749 -53.684933 17.00000000
17.266435 -46.309558 -58.602247 17.00000000
32.703202 -55.386769 -25.103158 17.00000000
4.842016 -22.320216 -14.318898 17.00000000
5.383617 -24.411497 -59.637081 17.00000000
43.913051 -57.218269 -33.510280 17.00000000
11.023779 -38.685781 3.299810 17.00000000
11.476273 -39.406061 -30.575265 17.00000000
42.208762 -57.130747 -27.034133 17.00000000
5.011772 -22.975693 -34.811590 17.00000000
22.421772 -50.453377 -5.557171 17.00000000
5.248429 -23.889495 -45.197363 17.00000000
42.921661 -57.174275 -4.626881 17.00000000
20.041849 -48.725095 -58.713589 17.00000000
44.898133 -57.200466 -20.422571 17.00000000
10.053054 -37.102683 -42.518937 17.00000000
41.235752 -57.071336 -42.436796 17.00000000
42.030347 -57.119853 -9.522246 17.00000000
26.917707 -53.058713 -29.168598 17.00000000
11.145612 -38.879714 -14.169106 17.00000000
5.633589 -25.376712 -10.215945 17.00000000
12.908065 -41.419354 3.468254 17.00000000
5.317281 -24.155353 -50.280089 17.00000000
36.082349 -56.284029 -11.703872 17.00000000
7.366279 -31.298215 -12.927108 17.00000000
5.082883 -23.250274 -18.886854 17.00000000
39.273105 -56.847419 2.340135 17.00000000
7.429286 -31.486020 -56.148757 17.00000000
34.809974 -56.000642 -30.262925 17.00000000
22.202867 -50.298903 -16.170523 17.00000000
46.202850 -57.176886 -46.943868 17.00000000
18.793239 -47.687021 -59.397764 17.00000000
22.600142 -50.579248 -46.232622 17.00000000
7.119006 -30.561165 -59.254701 17.00000000
20.477172 -49.081130 -45.260409 17.00000000
17.831304 -46.860219 2.707381 17.00000000
18.173002 -47.171366 -48.445110 17.00000000
45.278793 -57.193586 -56.135000 17.00000000
5.319236 -24.162902 -22.630033 17.00000000
16.218113 -45.287605 -35.613674 17.00000000
40.874526 -57.049281 -30.335336 17.00000000
14.783440 -43.722876 -43.237070 17.00000000
42.106080 -57.124477 -1.801390 17.00000000
16.302621 -45.369987 -21.072012 17.00000000
10.662529 -38.110742 -31.836056 17.00000000
40.204994 -56.978807 -1.136449 17.00000000
37.301899 -56.555651 -52.518758 17.00000000
18.074966 -47.089861 -50.487504 17.00000000
7.288512 -31.066413 -48.843379 17.00000000
26.522962 -52.864918 -30.796152 17.00000000
34.373802 -55.900292 -6.590525 17.00000000
30.474795 -54.618185 -39.562105 17.00000000
13.781661 -42.578506 -54.784035 17.00000000
5.794825 -25.999293 -15.981172 17.00000000
15.075389 -44.056380 -9.038172 17.00000000
4.855531 -22.372401 -43.514324 17.00000000
41.989277 -57.117345 0.133971 17.00000000
5.950570 -26.600672 -17.934721 17.00000000
7.259384 -30.979590 -5.151464 17.00000000
14.408512 -43.294582 -51.254792 17.00000000
19.304991 -48.112484 -36.490729 17.00000000
16.045042 -45.118887 -0.925037 17.00000000
20.489662 -49.089944 3.584041 17.00000000
38.429133 -56.728427 -35.067484 17.00000000
17.878123 -46.905861 -38.843882 17.00000000
13.688882 -42.468140 -5.053567 17.00000000
24.826049 -51.943727 -45.200428 17.00000000
39.206103 -56.837973 -31.170796 17.00000000
25.613548 -52.410896 -42.379356 17.00000000
46.618804 -57.169369 -14.919186 17.00000000
11.865571 -40.019085 -31.952898 17.00000000
18.121132 -47.128243 -7.191897 17.00000000
38.475087 -56.734906 -50.292752 17.00000000
6.294164 -27.927392 -15.208128 17.00000000
41.805263 -57.106110 -39.006688 17.00000000
30.846243 -54.765377 -17.714125 17.00000000
5.551166 -25.058453 -18.641856 17.00000000
30.218700 -54.516702 -33.297170 17.00000000
24.159782 -51.548477 -25.240722 17.00000000
27.720956 -53.453058 -56.853763 17.00000000
42.787263 -57.166069 -15.870253 17.00000000
8.694063 -34.493154 -41.312826 17.00000000
15.899584 -44.977087 -37.510507 17.00000000
45.956420 -57.181340 -26.671626 17.00000000
35.126120 -56.071055 -4.323598 17.00000000
24.092982 -51.508849 -59.721789 17.00000000
23.003076 -50.862283 -36.745735 17.00000000
19.310531 -48.117089 -2.641462 17.00000000
14.278491 -43.146054 2.101698 17.00000000
45.450863 -57.190477 3.689446 17.00000000
26.632626 -52.918756 -55.828827 17.00000000
9.588683 -36.214663 -44.336964 17.00000000
29.633871 -54.284953 -4.754040 17.00000000
25.240942 -52.189854 -21.058028 17.00000000
9.415139 -35.882793 -0.213547 17.00000000
23.862926 -51.372373 -29.950328 17.00000000
6.343296 -28.117104 -43.670420 17.00000000
10.744691 -38.241528 -52.804657 17.00000000
6.014240 -26.846521 -56.098026 17.00000000
40.657751 -57.036045 -6.891121 17.00000000
8.404340 -33.813132 -28.566008 17.00000000
8.631914 -34.347280 -35.949330 17.00000000
30.605763 -54.670083 -22.759435 17.00000000
4.969494 -22.812445 -52.335475 17.00000000
7.702088 -32.164844 -30.173015 17.00000000
43.215894 -57.192241 -48.728896 17.00000000
23.861151 -51.371320 -19.949352 17.00000000
6.165371 -27.430080 -48.736049 17.00000000
5.022978 -23.018964 -33.189329 17.00000000
5.796986 -26.007638 -42.475773 17.00000000
41.548850 -57.090454 -23.324239 17.00000000
4.852620 -22.361160 -40.341467 17.00000000
31.443783 -54.999638 -48.026616 17.00000000
5.193235 -23.676377 -13.703265 17.00000000
16.524631 -45.586413 -29.059465 17.00000000
35.738671 -56.207484 -61.018489 17.00000000
28.610984 -53.879616 -21.468414 17.00000000
37.003528 -56.489197 -28.333317 17.00000000
40.937304 -57.053114 1.756630 17.00000000
4.897279 -22.533604 -50.310812 17.00000000
10.699332 -38.169326 -56.949693 17.00000000
42.350003 -57.139371 -21.361121 17.00000000
19.407536 -48.197738 -48.886521 17.00000000
29.917595 -54.397384 -20.794873 17.00000000
23.952932 -51.425767 1.563489 17.00000000
35.100249 -56.065293 -13.397428 17.00000000
34.998879 -56.042715 -37.741125 17.00000000
9.989376 -36.980912 -3.994978 17.00000000
34.782035 -55.994419 -55.806731 17.00000000
17.604861 -46.639472 -35.899911 17.00000000
4.955091 -22.756832 -12.198500 17.00000000
44.067744 -57.215473 -23.550285 17.00000000
27.420762 -53.305682 -39.641458 17.00000000
10.600697 -38.012319 -24.709788 17.00000000
9.239616 -35.547140 -23.377662 17.00000000
9.166737 -35.407772 -18.490886 17.00000000
31.327400 -54.956044 -4.657530 17.00000000
30.579171 -54.659545 -28.041064 17.00000000
5.860817 -26.254108 -3.494256 17.00000000
28.029574 -53.604571 -33.480239 17.00000000
32.074214 -55.193425 -45.853061 17.00000000
11.293442 -39.115031 -36.062657 17.00000000
13.876860 -42.687255 -26.376476 17.00000000
35.715032 -56.202219 -44.890418 17.00000000
16.705616 -45.762845 -9.549426 17.00000000
14.105154 -42.948044 -10.987103 17.00000000
6.114136 -27.232248 -54.293403 17.00000000
5.492327 -24.831259 -37.688717 17.00000000
28.262261 -53.718806 -42.374031 17.00000000
8.345600 -33.675261 -37.788417 17.00000000
9.427528 -35.906484 -60.549758 17.00000000
29.806771 -54.353468 -50.565186 17.00000000
4.990677 -22.894241 -3.045405 17.00000000
5.736739 -25.775007 3.289289 17.00000000
13.043301 -41.601001 -41.689400 17.00000000
7.077203 -30.436563 -44.710850 17.00000000
32.187442 -55.228230 -38.447101 17.00000000
19.048481 -47.899225 -23.455517 17.00000000
12.549389 -40.937583 -6.532729 17.00000000
7.283410 -31.051207 -50.537068 17.00000000
28.544948 -53.853448 -54.884586 17.00000000
19.848666 -48.564485 -39.807274 17.00000000
10.959213 -38.583005 -8.681052 17.00000000
31.345566 -54.963243 -3.067758 17.00000000
33.006324 -55.479945 -48.643808 17.00000000
5.297342 -24.078365 -57.145366 17.00000000
5.946182 -26.583726 -19.676106 17.00000000
25.257607 -52.199740 -54.894290 17.00000000
6.889655 -29.877534 -10.768434 17.00000000
11.685796 -39.739580 -56.757610 17.00000000
14.125177 -42.970917 -24.798230 17.00000000
16.822703 -45.876987 -25.962433 17.00000000
21.268067 -49.639242 -30.511278 17.00000000
28.777714 -53.945686 -35.116052 17.00000000
35.526797 -56.160295 -57.845437 17.00000000
11.969109 -40.158156 3.641202 17.00000000
17.055343 -46.103776 -37.509458 17.00000000
4.806032 -22.181271 -26.818927 17.00000000
41.823407 -57.107218 -59.382773 17.00000000
30.572882 -54.657053 -1.127327 17.00000000
38.593890 -56.751656 -8.959963 17.00000000
25.394709 -52.281073 -19.069695 17.00000000
8.552706 -34.161368 -23.990239 17.00000000
5.461746 -24.713176 1.536036 17.00000000
32.109457 -55.204258 -36.394800 17.00000000
10.153790 -37.295321 -38.370518 17.00000000
11.010472 -38.664599 -41.589482 17.00000000
8.084227 -33.061781 -26.688794 17.00000000
19.675505 -48.420523 -8.819194 17.00000000
13.251284 -41.880362 -21.424515 17.00000000
21.235547 -49.616293 -57.410520 17.00000000
4.792813 -22.130226 -46.386043 17.00000000
8.738876 -34.589571 -55.654442 17.00000000
23.728727 -51.292762 -3.228027 17.00000000
5.380719 -24.400308 -29.847046 17.00000000
7.753119 -32.284621 -51.566929 17.00000000
32.967378 -55.467973 -23.191993 17.00000000
6.845164 -29.744919 -15.194425 17.00000000
18.459245 -47.409344 -34.446917 17.00000000
5.415728 -24.535487 -26.493255 17.00000000
16.069873 -45.143093 -5.794244 17.00000000
22.489103 -50.500891 -53.241590 17.00000000
18.350294 -47.318764 -21.545793 17.00000000
32.373099 -55.285299 -16.989835 17.00000000
28.478382 -53.824908 -51.119083 17.00000000
8.205902 -33.347369 -45.396595 17.00000000
24.066743 -51.493283 -50.171598 17.00000000
31.551921 -55.032879 -21.040083 17.00000000
20.062097 -48.741929 -29.696544 17.00000000
6.244746 -27.736573 -16.830294 17.00000000
15.191928 -44.189507 -2.210489 17.00000000
15.170915 -44.165503 -61.086648 17.00000000
23.404736 -51.100560 -17.192177 17.00000000
6.785735 -29.567778 -28.804923 17.00000000
11.993975 -40.191556 -5.222652 17.00000000
7.331279 -31.193889 -42.726941 17.00000000
5.337518 -24.233497 -43.661526 17.00000000
11.656977 -39.693705 -48.669987 17.00000000
6.817694 -29.663040 -49.613150 17.00000000
45.164669 -57.195649 -43.414310 17.00000000
5.913103 -26.456002 -27.955241 17.00000000
8.519648 -34.083776 -50.045529 17.00000000
6.538494 -28.830825 -27.153154 17.00000000
38.189497 -56.694641 -36.772556 17.00000000
27.475509 -53.332560 -48.361755 17.00000000
30.099272 -54.469377 2.691427 17.00000000
43.538226 -57.211922 -8.353511 17.00000000
36.670121 -56.414940 -14.718998 17.00000000
30.925907 -54.796946 -57.712398 17.00000000
11.115707 -38.832112 -26.206354 17.00000000
8.508201 -34.056908 -5.145550 17.00000000
15.234319 -44.237932 -34.198486 17.00000000
32.023216 -55.177749 -34.499978 17.00000000
4.881443 -22.472455 -60.673083 17.00000000
25.937243 -52.577365 -11.373572 17.00000000
4.930134 -22.660463 -29.843821 17.00000000
14.219803 -43.079011 -46.844160 17.00000000
46.122373 -57.178341 -57.814714 17.00000000
8.790487 -34.688266 -7.652544 17.00000000
39.702640 -56.907980 -10.217260 17.00000000
8.695283 -34.496018 -58.786526 17.00000000
10.302791 -37.538112 -0.106253 17.00000000
19.803446 -48.526891 -56.930731 17.00000000
14.944799 -43.907202 -55.984017 17.00000000
29.180227 -54.105189 -7.275549 17.00000000
6.809319 -29.638077 -17.026889 17.00000000
13.018127 -41.567188 -15.450968 17.00000000
40.554949 -57.028147 -51.676450 17.00000000
7.698176 -32.155663 2.554429 17.00000000
33.857616 -55.741622 -26.407750 17.00000000
6.787879 -29.574170 -21.521130 17.00000000
37.579404 -56.608624 -4.198852 17.00000000
25.167686 -52.146397 -47.635886 17.00000000
16.277385 -45.345385 -11.223567 17.00000000
18.566052 -47.498141 -17.983455 17.00000000
25.767064 -52.493818 -7.818551 17.00000000
25.193718 -52.161839 -33.528263 17.00000000
41.569031 -57.091686 -37.094297 17.00000000
15.433743 -44.465742 -44.425963 17.00000000
14.193573 -43.049048 -48.659434 17.00000000
20.279751 -48.922883 -37.668842 17.00000000
5.472859 -24.756087 -28.113321 17.00000000
8.338011 -33.657447 -30.250037 17.00000000
29.057924 -54.056724 -27.682825 17.00000000
8.200778 -33.335342 -57.517966 17.00000000
35.589885 -56.174346 -18.988547 17.00000000
21.921650 -50.100456 -3.837068 17.00000000
43.881603 -57.218837 -11.836912 17.00000000
25.482638 -52.333236 -13.385256 17.00000000
31.056867 -54.848841 -24.444713 17.00000000
8.149565 -33.215137 -6.439653 17.00000000
14.427401 -43.316158 -58.044850 17.00000000
12.744399 -41.199519 -60.347311 17.00000000
23.911182 -51.401000 -56.628326 17.00000000
46.454222 -57.172343 -21.402326 17.00000000
29.116633 -54.079989 -11.880863 17.00000000
26.966225 -53.082532 -37.676235 17.00000000
34.168639 -55.837227 -17.652269 17.00000000
10.608461 -38.024677 -12.616089 17.00000000
26.873955 -53.037233 -41.491510 17.00000000
15.051637 -44.029247 -19.711890 17.00000000
22.304149 -50.370375 -31.437687 17.00000000
17.860682 -46.888858 -12.860540 17.00000000
41.542056 -57.090039 -35.050382 17.00000000
6.649600 -29.162000 0.681320 17.00000000
4.793531 -22.133002 -4.724807 17.00000000
29.194000 -54.110647 -17.224597 17.00000000
16.506023 -45.568273 -41.012412 17.00000000
46.446149 -57.172489 -45.049164 17.00000000
5.428328 -24.584140 -41.556354 17.00000000
27.913513 -53.547592 -31.517404 17.00000000
16.577745 -45.638191 -44.545549 17.00000000
6.269374 -27.831667 -20.763523 17.00000000
12.454243 -40.809783 -24.311466 17.00000000
7.028190 -30.290468 -22.898031 17.00000000
30.362355 -54.573628 0.612729 17.00000000
20.955220 -49.418475 1.361618 17.00000000
8.460278 -33.944426 -39.727721 17.00000000
15.209492 -44.209571 -11.559676 17.00000000
6.353719 -28.157351 -11.473172 17.00000000
46.561233 -57.170410 -54.405128 17.00000000
35.677415 -56.193841 -0.806233 17.00000000
38.252133 -56.703472 -24.457489 17.00000000
12.350619 -40.670596 -18.306594 17.00000000
22.798411 -50.719161 -40.088506 17.00000000
20.246055 -48.894869 -31.905083 17.00000000
14.874989 -43.827455 -38.245023 17.00000000
23.001111 -50.861118 -61.063980 17.00000000
36.047815 -56.276338 -5.608415 17.00000000
31.961834 -55.158881 -18.730533 17.00000000
14.201380 -43.057967 -8.073221 17.00000000
5.783500 -25.955563 -49.662017 17.00000000
24.382735 -51.680740 -8.529844 17.00000000
20.046742 -48.729163 -24.841497 17.00000000
14.763091 -43.699630 -59.630547 17.00000000
16.683211 -45.741004 -22.727382 17.00000000
20.486706 -49.087858 -55.268369 17.00000000
33.982303 -55.779950 -44.600962 17.00000000
6.850530 -29.760914 -7.647802 17.00000000
33.300509 -55.570374 -41.146721 17.00000000
45.877660 -57.182763 -1.172706 17.00000000
27.171891 -53.183502 -10.369707 17.00000000
8.234670 -33.414892 -60.876403 17.00000000
37.764303 -56.634693 1.629388 17.00000000
14.257719 -43.122324 -3.623595 17.00000000
42.477310 -57.147144 -11.034714 17.00000000
6.445028 -28.509919 -6.391949 17.00000000
34.803782 -55.999263 -31.909434 17.00000000
41.902334 -57.112037 -17.531799 17.00000000
6.923944 -29.979739 -38.985267 17.00000000
39.609009 -56.894779 -45.161538 17.00000000
17.527714 -46.564265 -4.143322 17.00000000
6.341550 -28.110363 -3.447841 17.00000000
5.746444 -25.812479 -5.406760 17.00000000
36.019090 -56.269940 -43.299554 17.00000000
30.326387 -54.559375 -12.835612 17.00000000
6.111011 -27.220182 -58.814130 17.00000000
46.389403 -57.173515 -19.220736 17.00000000
38.111649 -56.683665 3.599348 17.00000000
9.713131 -36.452646 -32.112179 17.00000000
25.333196 -52.244582 -56.877673 17.00000000
17.737832 -46.769099 -0.168256 17.00000000
18.829832 -47.717444 -43.577494 17.00000000
36.848093 -56.454578 -20.192862 17.00000000
17.602377 -46.637051 -30.800668 17.00000000
12.695530 -41.133878 1.633882 17.00000000
30.588512 -54.663247 -55.587744 17.00000000
7.631876 -32.000049 -54.129684 17.00000000
12.182613 -40.444932 -27.769076 17.00000000
44.390107 -57.209647 -3.637816 17.00000000
21.493873 -49.798586 -6.669210 17.00000000
43.860106 -57.219225 -54.837683 17.00000000
15.524327 -44.569219 -28.432345 17.00000000
8.723408 -34.559992 -44.202025 17.00000000
43.515527 -57.210536 -46.534126 17.00000000
7.807565 -32.412415 -39.105248 17.00000000
7.630486 -31.996784 -15.339390 17.00000000
9.484941 -36.016277 -55.840296 17.00000000
8.391512 -33.783022 -51.995986 17.00000000
38.650003 -56.759568 -2.088991 17.00000000
26.088625 -52.651685 -16.512358 17.00000000
37.188449 -56.530383 -6.767025 17.00000000
7.055396 -30.371562 -57.613519 17.00000000
13.055028 -41.616752 -17.180427 17.00000000
18.659240 -47.575616 -40.644986 17.00000000
30.836213 -54.761403 -44.449590 17.00000000
9.205065 -35.481067 -28.881997 17.00000000
44.829888 -57.201699 -45.183360 17.00000000
37.263190 -56.547030 -56.855027 17.00000000
5.409488 -24.511394 -17.223912 17.00000000
5.805857 -26.041893 0.588760 17.00000000
20.329261 -48.964045 -14.135994 17.00000000
6.464995 -28.587020 -31.687152 17.00000000
5.038269 -23.078008 -31.643948 17.00000000
33.630119 -55.671692 -12.106090 17.00000000
46.647446 -57.168851 -4.156250 17.00000000
6.575872 -28.942235 -19.772664 17.00000000
31.927262 -55.148254 -13.605019 17.00000000
42.365420 -57.140312 -31.536522 17.00000000
6.137095 -27.320899 -26.467422 17.00000000
24.848275 -51.956912 -17.297882 17.00000000
10.726051 -38.211857 -47.514330 17.00000000
9.640803 -36.314333 -8.134808 17.00000000
20.622192 -49.183467 -4.018735 17.00000000
7.209468 -30.830808 -53.006104 17.00000000
12.013926 -40.218354 -13.295453 17.00000000
35.478408 -56.149518 -23.441990 17.00000000
12.610153 -41.019201 -37.447648 17.00000000
45.921884 -57.181964 -60.083700 17.00000000
10.504208 -37.858727 -61.059547 17.00000000
40.222445 -56.981267 -50.054097 17.00000000
14.504951 -43.404747 -29.366926 17.00000000
27.468772 -53.329252 -22.565223 17.00000000
27.175480 -53.185263 0.074205 17.00000000
19.168275 -47.998820 -47.062461 17.00000000
12.663310 -41.090600 -50.791756 17.00000000
6.403481 -28.349495 -45.978240 17.00000000
7.743230 -32.261411 -47.169176 17.00000000
16.864741 -45.917968 -7.809252 17.00000000
6.191524 -27.531065 -35.000591 17.00000000
28.441938 -53.807016 -61.041860 17.00000000
9.453042 -35.955275 -41.674835 17.00000000
8.872474 -34.845051 -26.994394 17.00000000
13.551748 -42.283943 -2.603194 17.00000000
34.001222 -55.785765 -1.647968 17.00000000
37.285282 -56.551950 -60.824221 17.00000000
39.262238 -56.845887 -57.775819 17.00000000
23.460328 -51.133539 -44.969798 17.00000000
14.121386 -42.966586 -39.428111 17.00000000
38.208915 -56.697379 -14.456169 17.00000000
31.568879 -55.038091 -6.796468 17.00000000
6.371859 -28.227395 -18.320671 17.00000000
29.940366 -54.406408 -48.555154 17.00000000
19.361821 -48.159731 2.041927 17.00000000
12.744413 -41.199538 -1.680723 17.00000000
6.056711 -27.010514 -46.993274 17.00000000
5.028299 -23.039511 -41.746347 17.00000000
25.881122 -52.549813 -53.564102 17.00000000
16.279863 -45.347801 -12.833871 17.00000000
33.316340 -55.575240 -4.412102 17.00000000
7.309176 -31.128009 -40.283557 17.00000000
23.908983 -51.399695 -40.890867 17.00000000
5.014147 -22.984864 -20.605708 17.00000000
21.130410 -49.542101 -12.700395 17.00000000
20.023719 -48.710022 -27.687797 17.00000000
13.960876 -42.783229 -18.765763 17.00000000
17.501893 -46.539094 -53.010137 17.00000000
11.597102 -39.598397 -7.441271 17.00000000
6.273941 -27.849305 -41.799666 17.00000000
26.058582 -52.636935 1.682928 17.00000000
44.941737 -57.199678 -15.736937 17.00000000
12.956880 -41.484921 -47.360136 17.00000000
5.462643 -24.716641 -4.377729 17.00000000
17.505363 -46.542476 -42.403256 17.00000000
29.630710 -54.283701 -30.480251 17.00000000
11.792573 -39.909548 -2.251402 17.00000000
15.985502 -45.060844 -42.589412 17.00000000
33.246551 -55.553788 -51.977424 17.00000000
8.158271 -33.235573 -7.980624 17.00000000
18.569148 -47.500715 -25.357429 17.00000000
34.734484 -55.983828 -28.294804 17.00000000
5.817845 -26.088180 -38.519471 17.00000000
10.390700 -37.678045 -22.899572 17.00000000
38.549879 -56.745451 -59.384205 17.00000000
20.366907 -48.995343 -47.177123 17.00000000
12.389062 -40.722234 -3.444931 17.00000000
7.840334 -32.489328 -23.481066 17.00000000
18.103360 -47.113467 -29.393798 17.00000000
39.134604 -56.827892 -52.583795 17.00000000
22.660803 -50.622055 -41.857268 17.00000000
41.367247 -57.079365 -14.417928 17.00000000
5.401700 -24.481322 -20.614705 17.00000000
14.236743 -43.098363 -23.157204 17.00000000
14.902049 -43.858367 -13.625937 17.00000000
13.488533 -42.199033 -35.501676 17.00000000
34.494517 -55.930382 -48.713054 17.00000000
12.211864 -40.484222 -0.016718 17.00000000
22.113954 -50.236159 -28.773367 17.00000000
5.140010 -23.470858 3.855238 17.00000000
12.845079 -41.334752 -32.567565 17.00000000
30.592908 -54.664989 -35.541071 17.00000000
34.488563 -55.929056 -39.266627 17.00000000
7.157182 -30.674955 -36.485342 17.00000000
11.268697 -39.075641 -20.138125 17.00000000
13.670988 -42.444104 -37.430201 17.00000000
30.075449 -54.459937 -46.836464 17.00000000
38.255539 -56.703952 -29.539266 17.00000000
6.165373 -27.430091 0.018211 17.00000000
45.216125 -57.194719 -30.843863 17.00000000
12.032621 -40.243465 -11.731454 17.00000000
46.795750 -57.166171 -28.784355 17.00000000
7.296324 -31.089700 3.802466 17.00000000
11.365264 -39.229357 -23.876835 17.00000000
46.443425 -57.172539 -6.649517 17.00000000
13.312974 -41.963223 -9.377580 17.00000000
46.682992 -57.168209 -32.036389 17.00000000
39.858329 -56.929930 -17.692139 17.00000000
39.335581 -56.856228 -3.647815 17.00000000
27.282942 -53.238021 -60.094372 17.00000000
28.355045 -53.764357 -29.235750 17.00000000
28.845918 -53.972713 0.638598 17.00000000
36.174943 -56.304652 -54.847649 17.00000000
27.020685 -53.109269 -14.671425 17.00000000
10.689511 -38.153693 -34.548981 17.00000000
11.728927 -39.808236 -50.662506 17.00000000
34.844239 -56.008273 -20.558034 17.00000000
21.578256 -49.858133 -51.859373 17.00000000
9.611817 -36.258902 -24.841774 17.00000000
22.712471 -50.658515 -43.520446 17.00000000
14.780518 -43.719538 -32.203344 17.00000000
22.220681 -50.311474 -22.955007 17.00000000
4.958877 -22.771450 -37.416901 17.00000000
22.655916 -50.618606 -50.296883 17.00000000
45.513497 -57.189345 -25.195310 17.00000000
13.129045 -41.716171 -30.854616 17.00000000
11.231710 -39.016766 -44.816934 17.00000000
9.594473 -36.225735 -50.287598 17.00000000
5.898230 -26.398572 -40.132894 17.00000000
5.915702 -26.466035 -12.517562 17.00000000
5.419297 -24.549269 -15.456802 17.00000000
35.123896 -56.070560 -47.150038 17.00000000
11.040846 -38.712948 -59.719439 17.00000000
9.166676 -35.407656 -3.915885 17.00000000
23.004063 -50.862869 -7.092019 17.00000000
9.209645 -35.489825 -46.027690 17.00000000
10.237096 -37.433539 -11.056378 17.00000000
11.831934 -39.972203 -34.865730 17.00000000
40.026639 -56.953660 -38.010900 17.00000000
8.707302 -34.524227 -11.150750 17.00000000
31.982458 -55.165221 -11.920720 17.00000000
10.530410 -37.900435 -54.482029 17.00000000
32.772226 -55.407986 -58.930957 17.00000000
16.188399 -45.258638 -52.504983 17.00000000
15.409781 -44.438368 -30.418339 17.00000000
15.304107 -44.317653 -4.488869 17.00000000
26.675716 -52.939910 -3.778127 17.00000000
6.828715 -29.695891 -51.600017 17.00000000
16.193787 -45.263891 -58.921996 17.00000000
5.678179 -25.548890 -57.867952 17.00000000
11.961742 -40.148260 -58.669529 17.00000000
8.925122 -34.945730 -21.954658 17.00000000
7.466847 -31.597980 -25.284435 17.00000000
24.271240 -51.614597 -6.509679 17.00000000
38.851388 -56.787961 -47.879714 17.00000000
10.936425 -38.546730 -51.225193 17.00000000
18.640823 -47.560305 -14.803867 17.00000000
28.947623 -54.013015 -36.947517 17.00000000
13.059710 -41.623041 -11.744989 17.00000000
21.721353 -49.959112 -36.918450 17.00000000
6.277792 -27.864172 -39.568888 17.00000000
6.284962 -27.891857 -60.416993 17.00000000
46.714210 -57.167645 -10.816912 17.00000000
41.093601 -57.062657 -32.638382 17.00000000
24.820275 -51.940302 -39.196293 17.00000000
21.476557 -49.786367 -17.853912 17.00000000
15.855378 -44.933994 -24.120645 17.00000000
37.702544 -56.625985 -18.443527 17.00000000
8.341279 -33.665119 3.034892 17.00000000
36.035558 -56.273608 -33.361631 17.00000000
27.848774 -53.515809 -45.503282 17.00000000
7.190603 -30.774575 -32.991737 17.00000000
7.305050 -31.115708 -1.232077 17.00000000
9.429325 -35.909921 -19.905742 17.00000000
21.489779 -49.795697 -32.851378 17.00000000
35.555587 -56.166707 -52.800866 17.00000000
41.348480 -57.078219 -48.405400 17.00000000
9.943068 -36.892357 -16.946272 17.00000000
12.690108 -41.126596 -55.673860 17.00000000
44.173806 -57.213556 -1.834520 17.00000000
29.230506 -54.125113 -38.883590 17.00000000
38.438987 -56.729817 -20.177714 17.00000000
12.794780 -41.267190 -54.076989 17.00000000
10.882067 -38.460203 -43.184320 17.00000000
36.345389 -56.342614 -41.652094 17.00000000
24.117773 -51.523556 -53.787077 17.00000000
22.664968 -50.624994 0.273315 17.00000000
41.922845 -57.113289 -54.499173 17.00000000
39.917506 -56.938274 -5.258696 17.00000000
45.495327 -57.189673 -13.458729 17.00000000
27.287440 -53.240229 -20.790023 17.00000000
4.851212 -22.355725 -56.152521 17.00000000
21.944651 -50.116687 -9.598083 17.00000000
9.462209 -35.972806 -5.700397 17.00000000
6.032137 -26.915627 -31.474258 17.00000000
26.300801 -52.755850 -44.734314 17.00000000
40.384023 -57.004048 -21.765425 17.00000000
6.085824 -27.122927 -52.556041 17.00000000
16.283341 -45.351192 -14.833015 17.00000000
7.555422 -31.820599 -11.202871 17.00000000
5.205404 -23.723364 -46.941787 17.00000000
5.285623 -24.033112 -36.067046 17.00000000
45.338967 -57.192499 -39.778649 17.00000000
9.922275 -36.852593 -29.804638 17.00000000
34.426900 -55.915323 -59.802776 17.00000000
34.442603 -55.918820 -22.097058 17.00000000
43.372758 -57.201818 -44.744360 17.00000000
13.178195 -41.782190 -39.010452 17.00000000
6.352755 -28.153628 -33.583136 17.00000000
40.153579 -56.971558 -8.701369 17.00000000
27.587248 -53.387416 -52.474042 17.00000000
13.223518 -41.843067 -22.931252 17.00000000
21.975078 -50.138159 -26.017679 17.00000000
28.303442 -53.739023 -13.590279 17.00000000
18.923216 -47.795082 -32.349033 17.00000000
7.074612 -30.428840 -27.049389 17.00000000
34.942365 -56.030129 -51.156403 17.00000000
19.802737 -48.526301 -42.309798 17.00000000
9.911030 -36.831090 -15.276462 17.00000000
28.070110 -53.624472 -5.941623 17.00000000
41.135283 -57.065202 -3.934327 17.00000000
16.283354 -45.351205 -47.235646 17.00000000
18.683903 -47.596121 -27.218823 17.00000000
5.906841 -26.431821 -7.030459 17.00000000
17.089777 -46.137344 -34.124135 17.00000000
9.661706 -36.354305 -21.575057 17.00000000
14.563288 -43.471387 -27.737722 17.00000000
40.510005 -57.021810 -27.029423 17.00000000
34.200118 -55.846903 -24.413508 17.00000000
12.037523 -40.250049 -46.884529 17.00000000
23.090769 -50.914306 -27.398902 17.00000000
42.174436 -57.128651 -19.545306 17.00000000
30.999332 -54.826042 -26.369732 17.00000000
36.283589 -56.328850 -50.234565 17.00000000
7.667496 -32.083654 -28.344805 17.00000000
11.284413 -39.100659 -28.331779 17.00000000
6.854462 -29.772634 -60.655978 17.00000000
9.193126 -35.458236 -52.027855 17.00000000
8.239622 -33.426516 -14.006127 17.00000000
15.518991 -44.563124 -50.360236 17.00000000
7.388996 -31.365928 -20.189778 17.00000000
22.871258 -50.770567 -18.724718 17.00000000
32.770136 -55.407344 -42.709770 17.00000000
5.345168 -24.263034 -11.879619 17.00000000
46.472620 -57.172011 -23.239088 17.00000000
16.681592 -45.739426 -54.627834 17.00000000
11.283861 -39.099779 -33.372011 17.00000000
41.693818 -57.099305 -56.313018 17.00000000
41.161607 -57.066809 -12.456856 17.00000000
20.003617 -48.693310 -18.794355 17.00000000
46.755996 -57.166890 2.078217 17.00000000
7.076796 -30.435349 -46.589970 17.00000000
41.640749 -57.096065 -61.013692 17.00000000
15.899991 -44.977485 -39.370081 17.00000000
35.833216 -56.228542 -16.483478 17.00000000
42.735642 -57.162917 -53.030531 17.00000000
5.430826 -24.593785 -31.960203 17.00000000
41.626438 -57.095191 -44.223082 17.00000000
7.220374 -30.863315 1.319830 17.00000000
22.838871 -50.747712 -1.792903 17.00000000
9.899692 -36.809407 -52.490788 17.00000000
15.575154 -44.627280 -17.108728 17.00000000
22.458280 -50.479140 -20.299838 17.00000000
36.743220 -56.431220 -59.269395 17.00000000
21.801533 -50.015693 -55.900834 17.00000000
7.288002 -31.064894 -3.068010 17.00000000
6.636944 -29.124276 -56.262354 17.00000000
12.811549 -41.289713 -43.767595 17.00000000
43.878799 -57.218888 -21.801599 17.00000000
34.434823 -55.917087 -42.407882 17.00000000
18.457793 -47.408137 -55.047803 17.00000000
12.935499 -41.456203 -57.769348 17.00000000
31.665609 -55.067825 -32.135398 17.00000000
42.411586 -57.143131 -50.235830 17.00000000
42.737931 -57.163057 -41.326476 17.00000000
18.307947 -47.283558 -1.754518 17.00000000
8.126909 -33.161960 -32.215086 17.00000000
7.096965 -30.495467 -18.922881 17.00000000
15.591210 -44.645621 -54.562970 17.00000000
5.614432 -25.302741 -52.502920 17.00000000
19.729062 -48.465049 -21.209566 17.00000000
6.824071 -29.682049 -4.045127 17.00000000
24.805770 -51.931697 -35.478716 17.00000000
9.444294 -35.938548 -58.657526 17.00000000
25.056942 -52.080700 -15.249106 17.00000000
25.389026 -52.277702 -50.057926 17.00000000
35.654141 -56.188657 1.561136 17.00000000
14.427319 -43.316065 -1.071580 17.00000000
44.462134 -57.208345 -35.160811 17.00000000
44.938473 -57.199737 -52.660013 17.00000000
31.733437 -55.088674 -49.935542 17.00000000
36.977293 -56.483354 -46.514165 17.00000000
10.408946 -37.707088 -18.583611 17.00000000
38.569128 -56.748165 -16.586398 17.00000000
19.021990 -47.877201 -38.036241 17.00000000
14.862290 -43.812948 -21.705880 17.00000000
12.928341 -41.446588 -25.899977 17.00000000
37.068158 -56.503592 -48.859768 17.00000000
6.086498 -27.125529 2.149639 17.00000000
16.303144 -45.370497 -48.964409 17.00000000
8.250058 -33.451009 0.231933 17.00000000
5.115526 -23.376320 -0.985998 17.00000000
21.276532 -49.645215 -19.472910 17.00000000
43.190960 -57.190718 -43.113189 17.00000000
13.242108 -41.868037 -13.392034 17.00000000
8.322813 -33.621776 -54.268988 17.00000000
5.761090 -25.869034 -25.655363 17.00000000
36.999942 -56.488398 -12.976744 17.00000000
26.461551 -52.834768 -33.973595 17.00000000
31.654739 -55.064484 -29.670895 17.00000000
38.299740 -56.710184 -38.678790 17.00000000
46.793425 -57.166213 -2.507127 17.00000000
23.107289 -50.924106 -21.646623 17.00000000
10.055839 -37.108009 -26.226108 17.00000000
36.853322 -56.455743 -22.371838 17.00000000
43.718071 -57.221792 -14.006560 17.00000000
22.620842 -50.593856 -57.581532 17.00000000
18.698303 -47.608093 -60.994850 17.00000000
30.146356 -54.488035 -52.739216 17.00000000
38.734035 -56.771416 0.365955 17.00000000
5.588887 -25.204106 -47.511762 17.00000000
5.797143 -26.008244 -60.583157 17.00000000
24.924739 -52.002273 -4.588719 17.00000000
5.309961 -24.127089 -7.729482 17.00000000
31.414841 -54.990694 -53.891488 17.00000000
25.274439 -52.209726 -31.464409 17.00000000
13.220728 -41.839319 -49.409900 17.00000000
17.677841 -46.710617 -10.860930 17.00000000
13.136570 -41.726279 -7.682291 17.00000000
12.183023 -40.445484 -39.487013 17.00000000
17.386843 -46.426937 -27.792708 17.00000000
10.380359 -37.661585 -7.504404 17.00000000
10.866639 -38.435645 -2.328398 17.00000000
5.514412 -24.916536 -34.023389 17.00000000
5.764651 -25.882781 -21.377057 17.00000000
33.428676 -55.609771 -46.991662 17.00000000
4.838822 -22.307883 -8.725709 17.00000000
27.231256 -53.212646 -18.366111 17.00000000
16.695214 -45.752705 -19.482271 17.00000000
9.769539 -36.560515 -47.533222 17.00000000
24.444019 -51.717095 0.005522 17.00000000
9.920780 -36.849735 -57.148232 17.00000000
30.541664 -54.644682 -37.680985 17.00000000
13.852454 -42.659375 -14.736425 17.00000000
25.678985 -52.449715 -40.562899 17.00000000
33.543386 -55.645031 -32.836993 17.00000000
43.903863 -57.218435 -60.214453 17.00000000
44.217016 -57.212775 -51.232405 17.00000000
19.069127 -47.916390 -12.137745 17.00000000
8.843339 -34.789336 0.839630 17.00000000
8.128122 -33.164809 -21.007117 17.00000000
11.801080 -39.923089 -40.900426 17.00000000
8.292444 -33.550497 -42.904680 17.00000000
6.313785 -28.003152 -9.323169 17.00000000
40.080308 -56.961227 -55.346454 17.00000000
25.714587 -52.468055 -6.206194 17.00000000
38.883789 -56.792529 -6.837823 17.00000000
32.008638 -55.173268 0.693190 17.00000000
19.297737 -48.106453 -0.839997 17.00000000
18.081300 -47.095127 -57.430110 17.00000000
36.459357 -56.367998 3.107789 17.00000000
33.784532 -55.719157 1.984141 17.00000000
20.410973 -49.031979 -53.398980 17.00000000
34.812530 -56.001211 -8.156293 17.00000000
11.144236 -38.877524 -10.162374 17.00000000
7.465094 -31.592756 -7.011894 17.00000000
17.966356 -46.991874 -46.449388 17.00000000
10.339176 -37.596029 -20.475460 17.00000000
16.307742 -45.374980 -3.178194 17.00000000
22.495903 -50.505689 -35.220972 17.00000000
27.336158 -53.264147 -58.361586 17.00000000
40.786273 -57.043892 -58.107902 17.00000000
10.256330 -37.464155 -40.389010 17.00000000
5.965300 -26.657547 -36.626837 17.00000000
32.943520 -55.460640 -7.772282 17.00000000
37.192973 -56.531391 -32.145075 17.00000000
38.647599 -56.759229 -27.577146 17.00000000
34.833863 -56.005963 3.769370 17.00000000
27.788180 -53.486062 -7.950804 17.00000000
17.093645 -46.141114 -17.751702 17.00000000
13.801014 -42.600613 0.716207 17.00000000
15.203335 -44.202538 -48.095383 17.00000000
22.258364 -50.338065 -14.477002 17.00000000
25.817961 -52.518805 -36.542834 17.00000000
27.005358 -53.101744 3.644717 17.00000000
44.786113 -57.202490 -29.129578 17.00000000
27.772403 -53.478316 1.903277 17.00000000
44.750381 -57.203136 -41.715388 17.00000000
27.488366 -53.338871 -25.001563 17.00000000
8.451710 -33.924316 -33.982527 17.00000000
14.735975 -43.668655 -16.115987 17.00000000
33.357153 -55.587786 -0.123336 17.00000000
6.096365 -27.163629 -22.282787 17.00000000
38.895312 -56.794154 -12.970089 17.00000000
36.441852 -56.364099 -36.782907 17.00000000
4.862566 -22.399564 -22.906808 17.00000000
25.209139 -52.170988 3.659910 17.00000000
29.018221 -54.040991 -44.434034 17.00000000
25.752443 -52.486640 -59.738532 17.00000000
39.625360 -56.897084 -61.022280 17.00000000
6.685341 -29.268534 -24.367826 17.00000000
46.804573 -57.166012 -35.600207 17.00000000
33.463967 -55.620619 -29.249416 17.00000000
29.124084 -54.082941 -23.355747 17.00000000
4.801162 -22.162464 1.349018 17.00000000
11.289372 -39.108552 -39.600503 17.00000000
21.264992 -49.637072 -42.912508 17.00000000
17.133608 -46.180072 -1.694429 17.00000000
22.773729 -50.701744 -33.176928 17.00000000
28.497070 -53.834083 -15.268909 17.00000000
21.085249 -49.510232 -22.155110 17.00000000
26.118039 -52.666125 -51.802276 17.00000000
26.855977 -53.028407 -50.440036 17.00000000
31.278177 -54.936539 -51.597761 17.00000000
9.911314 -36.831632 -13.554157 17.00000000
21.362441 -49.705838 -39.013415 17.00000000
21.139594 -49.548582 -49.063081 17.00000000
36.305000 -56.333619 -38.645310 17.00000000
12.007131 -40.209226 -14.883558 17.00000000
6.232714 -27.690115 -5.025903 17.00000000
26.920734 -53.060199 -12.646325 17.00000000
8.252547 -33.456852 -3.638343 17.00000000
4.997952 -22.922330 -6.646985 17.00000000
10.110014 -37.211608 3.443361 17.00000000
5.745364 -25.808311 -45.839419 17.00000000
11.789495 -39.904649 -43.423376 17.00000000
39.700462 -56.907672 -43.457501 17.00000000
9.622418 -36.279174 -11.986767 17.00000000
9.995346 -36.992328 -2.057670 17.00000000
21.079652 -49.506283 -35.410384 17.00000000
17.691288 -46.723725 -23.457468 17.00000000
5.906622 -26.430976 -14.363014 17.00000000
21.356294 -49.701501 -40.797254 17.00000000
5.823026 -26.108184 -23.583111 17.00000000
11.703579 -39.767888 -52.357464 17.00000000
32.641145 -55.367693 -30.927634 17.00000000
27.223396 -53.208787 -54.301916 17.00000000
46.764170 -57.166742 -52.049470 17.00000000
34.242701 -55.859993 -15.680057 17.00000000
9.245130 -35.557683 -33.949704 17.00000000
25.852998 -52.536006 -9.607713 17.00000000
6.332316 -28.074706 3.662284 17.00000000
17.632800 -46.666708 -5.757643 17.00000000
5.402788 -24.485521 -24.639703 17.00000000
17.378855 -46.419151 -14.412044 17.00000000
24.461192 -51.727283 -51.708269 17.00000000
20.440973 -49.055586 -10.323334 17.00000000
15.214044 -44.214771 0.793358 17.00000000
6.783320 -29.560579 -1.627575 17.00000000
24.150463 -51.542949 -43.360277 17.00000000
33.343044 -55.583449 -19.961429 17.00000000
11.472233 -39.399630 -21.978621 17.00000000
5.440454 -24.630962 -0.155024 17.00000000
19.557255 -48.322211 -7.196320 17.00000000
4.883735 -22.481304 -16.531445 17.00000000
20.902035 -49.380943 -8.052227 17.00000000
46.406843 -57.173200 -16.668478 17.00000000
5.661496 -25.484470 -54.493260 17.00000000
23.814597 -51.343703 -23.002035 17.00000000
25.709283 -52.465451 -22.549798 17.00000000
36.145325 -56.298055 -34.872766 17.00000000
21.424127 -49.749368 -0.815342 17.00000000
