-29.770938 -1.375006 -31.505492
-21.010725 -0.149599 -34.035977
-49.430364 -37.621519 3.784891
-38.541138 -6.828895 -46.825906
-48.997421 -39.673638 -42.659025
-49.952344 -32.296454 -50.787244
-49.952570 -32.203832 -7.127182
-36.799261 -5.419533 -21.020112
-33.631842 -3.314111 -11.914951
-49.768937 -28.186857 -20.100777
-31.300625 -2.075904 -20.347520
-35.450698 -4.438269 -34.874902
-43.953049 -12.802386 -49.912980
-48.406313 -21.735815 -14.039494
-49.096515 -39.301053 -8.598329
-48.837232 -40.275937 -10.311320
-46.345622 -46.829619 -14.238393
-49.709111 -35.987912 -9.132581
-31.704902 -2.274868 -12.096065
-49.273999 -24.997870 -54.252296
-34.171832 -3.640146 -58.972756
-31.664347 -2.254909 -27.775351
-49.779327 -28.311164 0.039840
-22.873451 -0.260598 -43.342369
-44.358670 -13.397293 -58.188114
-29.889383 -1.421155 -0.251709
-47.314689 -44.725636 -45.478619
-47.333892 -44.683944 -25.171102
-49.627872 -36.498636 -5.190727
-48.574060 -22.253500 -48.079979
-38.654773 -6.927531 -3.851319
-40.468062 -8.631942 -53.655965
-33.992592 -3.531924 -40.773931
-24.879205 -0.380120 -11.957842
-28.090351 -0.720200 -3.012012
-30.212126 -1.546906 -22.267066
-49.950458 -33.070846 -47.948164
-45.038086 -14.398364 -10.318234
-47.340933 -18.882921 3.129583
-48.595171 -41.186071 -24.410883
-34.018970 -3.547851 0.021241
-44.474410 -13.567044 -52.541289
-49.793634 -35.032856 -48.197343
-46.646594 -17.355831 2.394912
-21.056435 -0.152323 -49.351595
-22.122314 -0.215838 -39.418965
-20.949966 -0.145979 -55.501845
-43.605361 -12.292446 -54.946436
-45.440128 -15.112770 -38.438150
-49.863751 -29.321170 -8.707625
-43.447901 -12.061507 1.729853
-35.980165 -4.823528 -60.898404
-24.112575 -0.334437 -3.022473
-25.939023 -0.443274 -3.095828
-45.288784 -14.843841 -45.126523
-25.418007 -0.412227 -10.153193
-29.690648 -1.343722 -53.764474
-48.938382 -39.895624 -19.491208
-45.854694 -15.849429 -49.893233
-48.743466 -22.903189 -4.314185
-42.018637 -10.304683 -28.824689
-47.819460 -43.450353 -2.393241
-35.080381 -4.188710 -36.445606
-47.586272 -19.424281 -54.674623
-23.115092 -0.274997 0.143021
-32.461309 -2.647132 -0.247885
-35.480255 -4.459776 -7.767824
-32.276987 -2.556419 -40.817022
-44.679944 -13.868490 -7.557403
-49.691384 -36.137551 -32.681213
-48.867795 -40.161024 -38.332962
-39.709690 -7.849992 1.594832
-21.792319 -0.196174 -9.947742
-49.722654 -27.633153 -17.433627
-39.756824 -7.898591 -56.440430
-48.835606 -23.256552 -54.862632
-49.167451 -39.034339 -2.474225
-47.827184 -20.103364 -5.773340
-49.917784 -33.630051 -44.902003
-35.382131 -4.388378 -57.937616
-48.364625 -21.618305 -6.133410
-46.942078 -45.534627 -12.481102
-49.815943 -34.780782 -16.978065
-49.859139 -34.292694 -3.926534
-24.139080 -0.336016 -18.968947
-49.926077 -33.536339 -6.149233
-49.862109 -29.301528 1.572305
-49.851947 -29.179949 -53.422598
-49.287625 -38.433024 -31.829824
-21.006375 -0.149340 -35.740900
-49.952783 -32.116426 -15.212052
-39.772465 -7.914719 -48.702211
-46.442285 -16.906484 -43.082105
-49.043778 -24.054909 -23.607630
-49.597176 -26.889156 -50.457285
-48.012579 -20.625957 -53.036300
-26.717458 -0.489660 -1.502798
-39.353187 -7.533756 -45.023510
-44.450273 -13.531643 -13.866531
-28.618213 -0.925870 -50.167286
-20.960784 -0.146623 -25.815242
-49.312069 -25.220660 0.589243
-29.494124 -1.267151 -51.571453
-49.951951 -32.457750 -33.345873
-48.875864 -40.130685 -50.770157
-46.660550 -46.145870 -7.874963
-48.468226 -21.910337 -33.251063
-31.573280 -2.210090 -2.252767
-35.685768 -4.609315 -15.688798
-38.522573 -6.812781 -38.291047
-48.581910 -22.283607 -24.197804
-37.383723 -5.844808 -40.884753
-35.745915 -4.653080 1.668543
-28.326605 -0.812251 -42.430677
-45.503907 -15.226101 -15.743681
-47.582368 -44.108488 -23.415359
-41.891769 -10.149155 -34.188672
-34.449468 -3.807777 -46.231839
-47.870203 -20.224627 -20.640095
-45.671296 -15.523541 1.854978
-47.695687 -19.732701 -61.106855
-49.656356 -36.336694 -38.639451
-26.307132 -0.465209 -60.138625
-40.522116 -8.687677 -21.932965
-48.922690 -23.590527 -41.471874
-46.567735 -46.347350 -45.801150
-49.950097 -33.218949 -20.149062
-49.407392 -37.752116 -27.608088
-31.903877 -2.372793 -26.126711
-49.771171 -35.286678 -20.392624
-49.753524 -35.486075 -41.643364
-49.310066 -38.305440 -22.140047
-47.406546 -19.027225 -58.967476
-37.018809 -5.579284 -54.659710
-45.825056 -15.796765 -14.200171
-43.818187 -12.604589 -17.106495
-38.959143 -7.191725 -42.227600
-41.930262 -10.196344 -41.274631
-44.746854 -13.966625 -18.427012
-49.726906 -27.684029 -41.002892
-49.491617 -37.273277 -17.819212
-49.137782 -39.145891 -52.482629
-23.290585 -0.285455 -6.739504
-28.555817 -0.901559 -25.647263
-49.889233 -29.626028 -47.390920
-46.463672 -46.573292 -38.957332
-46.387326 -16.795886 -38.898509
-37.923385 -6.292683 -5.398626
-36.469612 -5.179668 -39.458245
-47.920850 -43.168909 -8.091190
-21.529574 -0.180517 -17.033109
-48.630484 -41.053297 -21.292743
-48.806028 -23.143118 -11.559429
-48.079903 -42.727400 -52.492528
-37.112137 -5.647193 -25.974423
-35.502019 -4.475612 -4.740354
-47.595359 -44.072426 -27.014148
-48.160722 -42.503056 -18.441086
-49.205692 -38.890554 -17.192007
-49.729059 -27.709776 -1.943762
-49.382133 -25.630687 -18.231282
-29.629729 -1.319987 2.639373
-42.512114 -10.909638 -47.142018
-48.185561 -42.434107 -20.533425
-49.742887 -27.875218 -57.787550
-43.926268 -12.763107 -10.095764
-29.158899 -1.136538 -4.542878
-47.493814 -19.219158 -32.290011
-35.989318 -4.830189 -55.900957
-48.083287 -20.825270 -7.845907
-49.786178 -28.393119 -7.155306
-49.844755 -34.455228 -15.457198
-21.213434 -0.161679 -0.187779
-47.649878 -19.603573 1.139866
-26.475761 -0.475258 -50.735045
-46.393430 -46.725826 -9.651029
-25.621790 -0.424370 -33.781112
-46.557408 -17.159679 -31.219194
-45.110669 -14.527341 -33.157423
-48.880979 -40.111454 -48.860203
-45.419270 -15.075706 -48.465240
-49.079307 -39.365754 -54.911146
-26.148133 -0.455735 -42.145840
-47.569950 -44.142958 -35.542021
-33.709520 -3.361012 -23.262247
-49.913086 -33.683127 -31.587752
-38.013436 -6.370848 -61.089466
-47.865179 -43.323443 -50.457255
-49.578231 -26.778285 -23.250109
-49.956318 -30.665593 -52.640855
-46.506158 -46.481061 -27.070505
-48.578486 -22.270477 -8.773766
-41.769906 -9.999763 -9.654670
-41.266050 -9.454741 -16.818278
-48.267192 -21.343661 -17.778138
-41.585813 -9.784446 -22.785184
-49.475942 -37.362396 -57.255263
-41.604764 -9.803987 -48.448436
-48.699310 -40.794515 -0.494520
-48.556590 -22.186504 1.627895
-43.091928 -11.620432 -6.886598
-29.552073 -1.289730 -43.676058
-47.404453 -44.530749 -31.631899
-44.330975 -13.356673 -56.468459
-49.221846 -24.737818 -52.409920
-27.769234 -0.595083 -17.127730
-39.998177 -8.147449 -4.421633
-47.262106 -44.839800 -52.245821
-23.237907 -0.282316 -46.141501
-33.399846 -3.174036 -30.135206
-24.703904 -0.369674 -44.003044
-48.445870 -41.711522 3.499372
-48.827807 -23.226644 -22.207931
-37.610118 -6.020766 -14.526833
-23.190092 -0.279467 -26.620414
-43.313441 -11.891987 -61.022207
-45.888209 -15.908984 -11.020698
-49.419802 -37.681563 -1.342626
-48.525343 -22.071339 -60.698157
-33.185438 -3.044581 -54.735811
-25.048755 -0.390223 -35.426559
-45.832232 -15.809517 -40.366558
-49.306083 -38.328088 -36.301786
-44.042331 -12.933332 -39.720606
-47.397370 -44.546129 -54.266225
-21.410866 -0.173444 -47.369559
-49.063374 -24.130062 -2.597545
-46.017520 -16.138762 -28.128502
-49.691437 -27.440785 -11.298080
-28.160601 -0.747571 -60.779653
-49.362432 -25.515392 -41.557524
-48.722450 -40.707512 1.367997
-49.726502 -27.679193 1.982005
-36.866875 -5.468731 -9.158431
-49.376982 -37.925008 -9.303478
-49.290348 -38.417542 -50.467151
-49.748885 -35.538498 -57.702420
-36.875998 -5.475369 0.689340
-37.755365 -6.146841 -34.302669
-49.490084 -26.262436 -35.921216
-36.458534 -5.171607 -37.331085
-21.270318 -0.165068 -15.142276
-46.360180 -16.747649 -6.373156
-46.427315 -16.873561 -37.338554
-47.467568 -44.393722 2.366928
-31.753473 -2.298772 -53.905046
-46.203903 -16.469954 -44.928458
-43.872947 -12.684904 -48.170080
-42.011852 -10.296365 -60.859137
-47.205209 -18.584418 -57.219468
-37.578761 -5.993548 -50.458134
-49.956395 -30.633868 -20.725220
-40.909478 -9.087083 -32.432917
-49.951379 -32.692859 -35.600293
-31.038717 -1.947006 -45.569132
-40.959549 -9.138711 -5.839605
-44.668805 -13.852154 -16.192251
-45.213626 -14.710288 -31.177364
-44.636203 -13.804337 -47.079158
-32.963879 -2.910808 -38.785757
-49.736723 -27.801471 -29.611521
-47.955478 -20.465000 -1.872720
-46.345588 -16.721720 -18.822072
-28.034712 -0.698521 -32.262591
-20.946368 -0.145764 -37.754730
-35.443114 -4.432751 -40.895145
-41.773162 -10.003754 -53.887941
-30.840742 -1.849573 -39.952211
-49.956027 -30.785048 -60.800310
-47.793789 -43.521613 -12.771711
-24.177119 -0.338283 -23.220764
-49.742133 -27.866187 -31.637423
-44.676438 -13.863348 -22.508473
-25.532148 -0.419028 -47.876956
-49.881942 -29.538797 -24.972191
-49.431168 -25.917650 2.924804
-40.596107 -8.763969 -25.560777
-41.208625 -9.395531 -51.652540
-49.486683 -26.242530 -57.398102
-46.384360 -46.745499 -29.548002
-36.208770 -4.989870 -49.243486
-49.247423 -38.661582 -14.627667
-49.569628 -36.829767 -15.816565
-26.964542 -0.504384 -20.775085
-38.786447 -7.041824 -15.326663
-42.944303 -11.439459 -40.141277
-46.691007 -46.079712 -54.482240
-47.690162 -19.717127 -3.860988
-48.043315 -20.712597 -25.339773
-32.733511 -2.781096 -13.740532
-32.962993 -2.910273 -44.205664
-43.419161 -12.021588 -51.347525
-46.591204 -17.234009 -4.121705
-48.915778 -39.980610 -33.347674
-41.243035 -9.431011 -38.092869
-29.956027 -1.447122 -12.333663
-47.973938 -20.517037 -22.905735
-43.409260 -12.009451 -28.013295
-42.771215 -11.227271 -1.935516
-22.039094 -0.210879 -1.991077
-31.104960 -1.979608 -5.804277
-39.319447 -7.504470 -10.408258
-48.397501 -41.845790 -50.502756
-49.942385 -33.352076 -13.348547
-29.186432 -1.147265 -40.617989
-46.386920 -46.739955 -16.007766
-49.768804 -35.313424 -1.276739
-49.917436 -29.963433 -27.386053
-49.037544 -39.522781 -56.667884
-44.404526 -13.464547 -27.146200
-25.998398 -0.446812 -39.745220
-49.953483 -31.829275 1.113492
-49.878721 -34.071432 -27.352555
-30.092730 -1.500385 -28.124815
-23.876286 -0.320356 -48.217950
-24.652197 -0.366593 -17.113627
-49.953659 -31.756896 -22.820195
-48.083343 -42.717849 -15.714631
-43.402554 -12.001230 -12.918543
-43.827987 -12.618963 -21.260647
-49.867931 -29.371179 -35.031587
-29.775037 -1.376603 -36.008932
-25.635222 -0.425170 -45.634517
-48.996694 -23.874340 1.793752
-33.132906 -3.012863 -51.372585
-46.448654 -46.605898 -40.632190
-41.756165 -9.982918 -14.591037
-45.921024 -15.967294 -1.125693
-48.387030 -21.681461 -12.317306
-48.725500 -40.696042 -36.387830
-47.140664 -18.442459 -43.772186
-47.003754 -18.141348 -18.489024
-26.329240 -0.466527 -15.838034
-38.321707 -6.638428 -26.637252
-46.982214 -45.447497 -0.107661
-42.452415 -10.836453 -17.359761
-23.925641 -0.323298 -41.834080
-40.762352 -8.935383 -39.900990
-36.285552 -5.045739 -42.217105
-37.468920 -5.906801 -7.509479
-47.270701 -18.728457 -36.143528
-26.604996 -0.482959 -24.634768
-41.352849 -9.544238 -20.397755
-49.954265 -31.508006 -40.249153
-48.116080 -42.626975 -39.178471
-38.556226 -6.841991 -32.894529
-47.144064 -45.096094 -1.898288
-47.068534 -18.283822 -60.347893
-49.088204 -24.225289 -29.708414
-48.116450 -42.625949 -28.572029
-47.737192 -43.678718 -41.019908
-47.826312 -20.100907 -40.601491
-49.206238 -24.677957 -21.681563
-21.348496 -0.169727 -51.031029
-49.560838 -36.879737 -29.052178
-47.131293 -45.123806 -40.891545
-45.049842 -14.419253 -28.809989
-49.552865 -26.629835 -54.099375
-35.041161 -4.165030 -38.092855
-25.560910 -0.420742 -26.361672
-47.061280 -18.267868 -39.606784
-45.048977 -14.417716 0.497452
-49.443746 -25.991255 -31.263602
-44.015247 -12.893609 -32.773700
-25.700707 -0.429073 -57.590132
-49.753065 -35.491262 -43.461209
-37.574689 -5.990014 -56.111140
-49.460195 -37.451917 -52.082390
-33.532187 -3.253941 -1.784453
-49.871967 -34.147751 -33.719368
-49.878594 -34.072870 -42.616334
-21.929620 -0.204356 -23.858659
-47.100981 -18.355184 -5.414062
-47.207050 -18.588466 -33.792015
-43.247399 -11.811025 -43.307251
-39.778889 -7.921342 -31.445518
-46.333349 -16.699973 -16.202175
-47.782923 -43.551776 -9.818396
-25.672591 -0.427397 -19.589853
-49.739029 -27.829053 -21.664078
-49.836482 -34.548706 -60.853873
-35.787232 -4.683144 -1.591937
-37.351816 -5.821592 -12.153829
-23.727082 -0.311466 -36.488662
-46.313161 -16.664100 -60.990114
-49.308319 -38.315370 -45.528903
-47.483084 -44.360035 -3.760408
-49.951552 -32.621519 -38.390688
-49.914044 -33.672304 -23.314573
-34.411064 -3.784590 -31.593161
-46.718636 -17.514275 -11.072856
-31.903510 -2.372612 -15.740687
-30.563269 -1.713015 -47.856268
-33.250599 -3.083924 -6.367449
-48.232014 -21.244501 -4.186610
-49.631687 -27.091120 -46.230134
-49.283276 -25.052160 -39.732666
-45.547288 -15.303187 -19.310633
-49.952129 -32.384906 -2.744040
-49.956838 -30.451980 -56.850819
-47.999159 -20.588128 -38.771779
-49.633334 -36.467581 -30.927166
-46.670909 -46.123365 -21.672552
-30.839018 -1.848725 -41.709791
-23.903632 -0.321986 -57.462307
-39.687954 -7.827580 -16.584896
-38.598104 -6.878342 2.766972
-49.779345 -35.194316 -23.956862
-30.208549 -1.545512 -57.665086
-36.730564 -5.369546 -57.405189
-49.667345 -36.274219 -13.570316
-49.924457 -30.047421 -49.074582
-49.708094 -27.538261 -48.576739
-40.666133 -8.836172 -2.882727
-49.906713 -33.755143 -56.150474
-31.669564 -2.257477 -4.042695
-49.842883 -29.071513 -3.030773
-43.534506 -12.188527 -41.349251
-38.515476 -6.806621 -59.177254
-30.351294 -1.608692 -15.174586
-25.934809 -0.443023 -55.852707
-49.319049 -25.261512 -55.893469
-43.674905 -12.394444 -34.567520
-48.864861 -23.368750 -51.593673
-37.339238 -5.812440 -16.490851
-49.604008 -36.634305 -54.031320
-38.427060 -6.729875 -54.173561
-48.725774 -22.835340 -56.395418
-37.201630 -5.712311 -31.678578
-34.324852 -3.732537 -56.056824
-34.334845 -3.738570 -14.107032
-48.723869 -22.828034 -7.124686
-49.956654 -30.527381 -50.714006
-49.848900 -34.408388 -21.703643
-39.921980 -8.068883 -0.205609
-23.057129 -0.271543 -20.772625
-23.702278 -0.309987 -10.668611
-49.606225 -36.621701 -35.799683
-39.376628 -7.554104 -23.908628
-49.595610 -26.879991 -39.411645
-38.421791 -6.725302 1.211329
-47.555637 -44.182691 -28.752431
-33.516207 -3.244293 -47.823387
-44.790233 -14.030247 -35.029413
-48.761659 -40.560089 -58.539731
-26.750885 -0.491652 3.817081
-45.589941 -15.378979 -54.101439
-45.694285 -15.564392 -42.076539
-49.357737 -38.034420 -5.298377
-30.147517 -1.521732 -25.373952
-46.617913 -17.292751 -29.067089
-48.494262 -41.565484 -47.766093
-42.440468 -10.821806 -26.912346
-43.332055 -11.914805 -58.530696
-48.112549 -42.636778 -60.600375
-21.019691 -0.150134 -6.094910
-40.056593 -8.207681 -37.120804
-26.097729 -0.452731 -17.757386
-42.067023 -10.363999 -43.221359
-49.953236 -31.930392 -8.948001
-27.950179 -0.665585 -12.553340
-26.444118 -0.473372 -6.190775
-47.844481 -43.380900 -44.684265
-38.927295 -7.164081 -8.415280
-49.753756 -35.483460 -11.095003
-46.530678 -46.427851 1.737771
-49.614748 -36.573249 -21.995636
-48.120538 -20.930271 -49.453670
-42.517075 -10.915720 -57.454561
-49.351560 -38.069538 1.456391
-49.387784 -37.863593 -19.806913
-49.543607 -26.575659 -37.735398
-49.754827 -28.018051 -35.950536
-30.201919 -1.542929 -55.827564
-49.952888 -32.073155 -53.835867
-48.947324 -39.862002 -5.655520
-49.953519 -31.814354 -45.890104
-22.794527 -0.255895 -55.859096
-43.130373 -11.667563 -45.184624
-49.852890 -29.191229 -5.720939
-47.505205 -19.244210 -0.466823
-48.627364 -22.457926 -2.709034
-28.346120 -0.819855 -1.044302
-27.815036 -0.612929 -39.302987
-49.471987 -37.384877 -42.960612
-46.841887 -17.785346 -7.739469
-49.145446 -39.117076 0.021397
-33.055746 -2.966275 3.672004
-47.446495 -19.115088 -41.979347
-41.831546 -10.075328 -0.981415
-49.773049 -28.236051 -38.393237
-34.038542 -3.559668 1.592555
-43.893629 -12.715236 -3.802847
-21.002787 -0.149126 2.656413
-49.792162 -28.464717 -50.194932
-41.608643 -9.807985 -36.239830
-32.531781 -2.681815 -19.273061
-21.245620 -0.163597 -30.991265
-49.952804 -30.386554 -36.852858
-27.265203 -0.522300 -47.693237
-49.907795 -33.742915 -0.022751
-32.275447 -2.555661 -46.666796
-40.354927 -8.515290 -35.014628
-40.751146 -8.923828 -57.564344
-35.241594 -4.286118 -12.275968
-47.892157 -43.248557 3.732742
-34.435613 -3.799412 -53.802825
-45.535513 -15.282263 -26.400473
-49.796232 -35.003506 1.815111
-48.660263 -40.941330 -8.265243
-27.720501 -0.576095 -52.953186
-49.781621 -28.338602 -27.710139
-34.550726 -3.868915 -42.496764
-38.520050 -6.810591 -1.928337
-49.955357 -31.060084 -34.783446
-47.591191 -19.438146 -51.743693
-28.809377 -1.000353 0.766447
-48.253584 -21.305303 -51.300814
-49.916398 -29.951010 -38.580437
-46.452663 -46.597231 -1.049274
-48.401101 -21.721124 -21.113887
-49.524918 -26.466287 -25.315930
-48.384264 -21.673665 -27.006153
-37.147845 -5.673175 -35.755916
-48.466969 -41.652954 -33.375884
-47.301700 -18.796634 -45.372699
-49.844936 -29.096074 3.676338
-49.950366 -33.108567 3.709376
-21.291352 -0.166322 -21.389581
-38.834879 -7.083863 -12.204252
-34.366584 -3.757733 -3.046838
-24.952379 -0.384480 -14.326013
-49.701293 -36.076252 -18.850228
-26.616398 -0.483638 -35.109982
-49.352382 -25.456579 -20.245606
-30.335595 -1.600966 -50.080480
-48.819024 -23.192958 -34.713372
-24.606830 -0.363889 -49.590156
-40.981552 -9.161397 -60.413637
-24.633020 -0.365450 -54.866171
-49.955490 -31.005325 -32.387313
-49.752557 -27.990901 -33.819657
-29.914086 -1.430780 -38.487509
-32.421245 -2.627415 -32.130683
-26.979578 -0.505280 0.575872
-32.168159 -2.502859 -48.570918
-46.541620 -46.404064 -31.465501
-48.653849 -40.965447 -61.098434
-48.434424 -21.815055 -15.807469
-41.924580 -10.189379 -6.903003
-44.623293 -13.785404 -60.394431
-33.415534 -3.183508 -25.656866
-49.376026 -25.594950 -14.841327
-44.499030 -13.603152 -36.785152
-46.618250 -46.237673 -47.700474
-48.376344 -21.651340 -58.208255
-28.660653 -0.942406 -56.937234
-43.423594 -12.027023 -37.813537
-46.500763 -17.035098 -35.734939
-39.220066 -7.418207 -21.006908
-27.462128 -0.534035 -28.820850
-42.907526 -11.394374 -14.382818
-44.623515 -13.785728 -42.772282
-48.553811 -41.341583 -4.341777
-40.762006 -8.935026 -23.773117
-39.569397 -7.721428 -50.517470
-48.792851 -23.092585 -17.710676
-47.090179 -45.213074 -14.452001
-20.980765 -0.147814 -41.703756
-49.682318 -36.189094 -45.157368
-42.320020 -10.674149 -51.361803
-46.812168 -17.719984 -47.348842
-49.956854 -30.445415 -6.826624
-49.730955 -35.741092 -59.243949
-39.459630 -7.626149 -25.535855
-44.666722 -13.849098 -54.834630
-30.985469 -1.920800 -13.546027
-47.728512 -19.825227 -14.430574
-21.317066 -0.167854 -19.352578
-27.983265 -0.678476 2.394953
-36.827213 -5.439871 -24.173105
-49.068001 -24.147806 -27.754299
-48.537173 -41.404141 -16.960187
-39.751003 -7.892589 -58.179701
-49.482029 -37.327788 -10.914537
-45.135321 -14.571145 -24.718667
-44.078808 -12.986831 3.205436
-41.622934 -9.822721 -55.915332
-48.491538 -21.976047 -29.117922
-41.576277 -9.774614 -50.123229
-23.750166 -0.312841 -59.275470
-37.326365 -5.803073 -2.624353
-49.024006 -23.979082 -13.092601
-48.561179 -22.204102 -43.959184
-45.835225 -15.814834 -32.351723
-30.460998 -1.662683 -8.651806
-47.679911 -43.837721 -0.543205
-34.668424 -3.939979 -5.965645
-46.361672 -46.794769 -19.208669
-23.554257 -0.301167 -30.488413
-49.090119 -24.232634 -43.189372
-32.507850 -2.670038 1.481051
-30.105680 -1.505431 -17.906086
-42.173697 -10.494772 -24.697828
-49.108499 -24.303121 -47.798122
-27.331163 -0.526231 -11.025411
-41.358444 -9.550008 3.810850
-46.610610 -46.254260 -61.001080
-47.805174 -20.041324 -18.529490
-25.538232 -0.419391 -21.463136
-48.036504 -42.847867 -34.245341
-35.415910 -4.412956 -23.098321
-49.011142 -39.622050 -35.110269
-36.296950 -5.054033 -6.183056
-43.875898 -12.689232 -15.143067
-25.122791 -0.394635 -38.293514
-43.197237 -11.749531 -36.184823
-21.273183 -0.165239 -8.149741
-35.116000 -4.210216 -48.393107
-49.585968 -36.736869 -48.327137
-46.437664 -46.629773 -24.213500
-22.925459 -0.263697 -13.972130
-49.095689 -39.304157 -39.688736
-48.974996 -23.791127 -45.294041
-27.288393 -0.523682 -41.026068
-35.782178 -4.679466 -53.348556
-48.704161 -40.776277 -26.273177
-48.441594 -21.835266 -37.739585
-34.052892 -3.568333 -49.679779
-49.761328 -35.397892 -52.413283
-21.478087 -0.177449 -3.700701
-39.885426 -8.031192 -18.144474
-22.863391 -0.259999 2.602000
-28.633846 -0.931961 -34.423809
-49.932711 -33.461388 -59.678203
-40.999169 -9.179563 -30.267383
-47.275554 -44.810603 -56.280129
-48.163125 -42.496387 -46.409343
-30.888526 -1.873090 -29.968717
-31.537751 -2.192605 -17.622931
-48.699264 -22.733671 -0.269237
-22.787542 -0.255479 -34.948871
-38.083572 -6.431726 -29.886748
-47.572141 -19.391425 -24.251542
-23.756302 -0.313207 -9.000266
-46.553273 -17.150585 -22.187348
-24.477834 -0.356202 -25.019315
-42.247571 -10.585333 -13.110331
-46.886444 -17.883342 -50.732160
-26.249772 -0.461791 2.078814
-22.982598 -0.267102 -12.204900
-31.734105 -2.289240 -7.489515
-47.928653 -43.147248 -48.467392
-35.768534 -4.669539 -32.354889
-48.869448 -23.386342 -25.746188
-48.852940 -23.323033 -36.517017
-45.845432 -15.832972 -46.664648
-49.076182 -39.377504 -59.863296
-29.459019 -1.253473 -19.345739
-41.794473 -10.029880 -4.525877
-49.829120 -28.906860 -16.385250
-49.909993 -33.718076 -53.456569
-47.932155 -43.137526 -5.927015
-24.248761 -0.342552 -28.368477
-27.182524 -0.517373 -26.386367
-31.355781 -2.103049 -43.391103
-27.920519 -0.654028 -58.980549
-48.532555 -41.421504 -12.153914
-49.434492 -37.598047 -60.882175
-33.650666 -3.325477 -27.400940
-47.397317 -44.546243 -33.656340
-49.085279 -24.214070 -38.032847
-31.495650 -2.171885 -59.141924
-46.383411 -16.788930 -48.621967
-47.438374 -19.097226 -49.180739
-35.968418 -4.814981 -17.710825
-46.521982 -46.446697 -35.911835
-36.108843 -4.917159 3.744972
-32.207993 -2.522464 -22.257843
-47.578904 -44.118105 -47.212332
-46.074790 -16.240527 -20.785987
-49.378147 -37.918385 -55.450899
-49.422052 -25.864300 -11.726475
-22.906728 -0.262581 -4.994994
-48.386897 -21.681085 3.280900
-47.695041 -19.730879 -34.976278
-49.549834 -26.612101 -28.182303
-49.291537 -38.410783 -7.026366
-34.152194 -3.628289 -20.055372
-44.349180 -13.383374 1.586728
-45.506359 -15.230459 -59.755091
-49.779585 -28.314252 -61.019783
-49.320921 -25.272465 -46.352757
-47.620663 -19.521224 -47.079164
-26.102700 -0.453027 -29.706040
-49.950687 -32.976815 -41.316119
-49.683627 -36.181654 -27.315268
-49.289880 -25.090805 -50.235450
-23.823682 -0.317222 -39.639473
-49.432465 -37.609570 -59.136088
-29.820472 -1.394306 -2.937659
-48.626166 -41.069534 -29.755283
-41.904585 -10.164866 -11.551971
-44.918569 -14.218471 -3.178038
-40.042472 -8.193121 -27.459610
-47.197894 -44.979211 -20.420919
-49.838670 -29.021112 -40.049341
-47.540728 -19.322338 -28.143792
-49.556538 -36.904188 -49.946284
-49.953585 -31.787106 -30.928735
-47.332396 -44.687193 -37.374304
-46.106691 -16.297215 -24.924455
-47.578716 -19.405886 -37.858610
-32.307770 -2.571569 -56.134114
-49.138865 -39.141819 -28.865934
-49.173623 -24.552877 -8.620401
-33.018315 -2.943675 -57.728597
-49.771229 -35.286022 -29.896275
-49.860684 -34.275243 -46.415148
-45.544928 -15.298994 -36.490758
-46.401776 -46.707667 -50.038965
-48.740886 -22.893294 -49.885983
-49.919596 -29.989275 -23.197891
-38.985715 -7.214790 -36.078142
-45.214287 -14.711464 -57.773972
-41.992355 -10.272464 -39.202684
-46.691181 -46.079333 -42.980048
-46.710555 -17.496502 -0.474722
-43.178526 -11.726594 -31.674973
-49.952198 -32.356549 -57.033345
-47.057610 -18.259795 -52.923417
-27.372063 -0.528668 -4.832583
-34.391601 -3.772838 -17.912189
-44.762967 -13.990257 -5.318525
-49.409225 -25.789233 -33.240118
-48.998951 -23.882997 3.845860
-37.432745 -5.880479 -48.468396
-46.471245 -46.556838 -52.041862
-48.367874 -41.928028 -9.572009
-49.759259 -35.421273 -50.802943
-49.527782 -37.067669 -25.304676
-48.697023 -40.803115 -14.840435
-33.770196 -3.397647 -15.658682
-47.897632 -20.301945 -16.241435
-48.318640 -21.488684 -55.117016
-48.482964 -41.607963 -43.243638
-48.414055 -21.757638 -42.387053
-39.713276 -7.853690 -60.779786
-31.293852 -2.072570 3.530686
-45.257637 -14.788494 -11.915165
-37.384358 -5.845270 -18.991811
-49.923553 -30.036616 -0.255008
-49.919260 -29.985247 -59.420733
-47.436196 -44.461833 -57.782967
-21.643766 -0.187322 -58.597284
-35.695274 -4.616232 -26.818595
-49.953149 -31.966075 -29.142235
-46.114508 -16.311104 -2.614151
-48.495882 -21.988294 -39.571529
-49.889255 -29.626283 -41.659633
-49.884050 -34.011217 -25.536493
-48.673839 -40.890287 -27.997596
-42.466593 -10.853833 3.428089
-24.333252 -0.347587 1.283738
-28.128480 -0.735056 -22.590332
-48.491444 -41.576076 -41.475335
-47.162849 -18.491253 -20.407900
-39.176981 -7.380809 -28.968115
-46.015555 -16.135271 -51.513844
-32.143157 -2.490554 -24.339112
-49.484236 -26.228213 -44.600834
-48.883563 -40.101738 3.172078
-34.513585 -3.846490 -44.341515
-27.984939 -0.679128 -7.584416
-49.953492 -31.825216 -4.473887
-29.033298 -1.087600 -29.896405
-33.208545 -3.058532 -53.114414
-24.850538 -0.378412 -51.550438
-48.042544 -42.831103 -55.987266
-48.913172 -23.554027 -58.782979
-49.956403 -30.630378 -11.237747
-49.289561 -38.422018 -38.392645
-30.890299 -1.873963 1.735078
-43.921431 -12.756013 -2.138605
-27.261473 -0.522078 -45.937809
-48.525339 -22.071325 -19.384447
-42.225291 -10.558021 -32.583883
-49.425932 -25.887006 -60.329748
-49.231526 -38.751959 -47.788437
-48.928044 -23.611060 -16.049747
-49.827083 -34.654914 -38.722125
-38.623035 -6.899982 -18.642116
-47.246034 -44.874693 -60.563940
-39.845003 -7.989512 -38.935909
-47.112536 -45.164531 -49.275458
-47.223868 -18.625454 -22.745341
-31.592268 -2.219435 -34.663395
-22.853828 -0.259429 -37.939089
-45.071367 -14.457503 -39.864278
-48.298774 -42.119842 -31.492847
-42.016070 -10.301536 -45.318555
-31.101882 -1.978093 -52.224738
-47.611869 -19.496435 -30.669715
-47.866297 -20.213617 -56.572509
-39.493244 -7.655327 -13.900813
-44.874031 -14.153150 -20.783108
-32.954073 -2.904887 -34.174353
-49.884592 -34.005095 -36.964193
-42.459359 -10.844965 1.501959
-31.540197 -2.193809 -37.574032
-46.384222 -46.745772 -58.275797
-45.006241 -14.347056 2.894703
-20.979365 -0.147731 -27.990995
-28.254780 -0.784266 -15.569343
-35.533819 -4.498751 -20.800534
-49.019400 -39.591002 -23.912765
-24.571519 -0.361785 3.729481
-37.679531 -6.081017 -22.452176
-49.955558 -30.977393 -1.527682
-27.548979 -0.539210 -30.462512
-45.743342 -15.651564 -4.448271
-40.749426 -8.922055 -7.852936
-46.104146 -16.292691 -34.012676
-30.121092 -1.511436 -33.302206
-49.730889 -27.731672 -44.253085
-34.781702 -4.008374 -52.039793
-46.659125 -46.148974 3.426808
-24.735477 -0.371555 -6.031821
-49.465186 -37.423543 -3.718714
-49.950521 -33.044965 -16.985092
-49.382181 -37.895446 -33.660890
-23.435181 -0.294071 -32.037174
-29.659316 -1.331515 -23.848548
-49.477244 -26.187292 -9.286831
-25.640085 -0.425460 -31.770749
-47.553410 -19.350231 -7.499453
-49.779873 -35.188346 -54.942388
-49.951474 -32.653716 -24.602864
-49.912827 -29.908296 -14.559020
-33.412595 -3.181734 -4.662218
-43.126527 -11.662848 -20.089975
-49.380828 -25.623052 -16.425426
-49.757236 -28.046882 -25.703179
-49.221616 -38.808300 -25.972576
-47.299269 -18.791287 -2.250912
-49.955944 -30.818784 -25.921679
-48.800466 -40.414177 -31.346947
-48.144743 -42.547412 -26.799468
-46.749558 -45.952612 -17.822427
-48.361121 -21.608427 -35.319870
-49.822654 -28.829503 -12.085500
-25.619059 -0.424207 -53.169658
-42.597527 -11.014346 -21.431049
-49.953870 -31.670167 -58.818638
-35.468745 -4.451401 0.137380
-47.596410 -19.452858 -9.069372
-29.010947 -1.078891 -48.320156
-49.605938 -36.623335 -7.286993
-48.017022 -42.901947 -54.304255
-46.709632 -17.494472 -12.780721
-35.840552 -4.721941 -13.801734
-47.925186 -43.156871 -24.709746
-49.135473 -24.406568 -1.028787
-49.203136 -38.900165 -11.484987
-49.639555 -36.432214 -46.768106
-34.706071 -3.962709 3.457583
-29.343739 -1.208557 -6.573928
-49.657254 -27.240740 -15.627366
-49.407637 -25.779939 -4.243331
-48.980764 -23.813248 -19.947829
-48.871720 -40.146267 -44.781089
-36.774743 -5.401692 -28.398314
-47.458438 -19.141354 -10.884092
-40.438494 -8.601455 -12.328115
-40.273800 -8.431641 -46.465653
-46.356027 -46.807040 -3.346345
-48.499392 -41.546192 -57.055694
-47.444454 -44.443903 -7.199308
-42.657662 -11.088065 -55.414774
-36.106758 -4.915642 -51.082536
-43.439987 -12.049901 -53.333122
-38.743032 -7.004140 -52.293365
-37.335723 -5.809882 -46.283717
-42.835938 -11.306614 -30.085586
-33.122696 -3.006699 -36.945543
-20.957470 -0.146426 -12.286341
-49.571252 -26.737444 -42.710279
-48.632835 -41.044457 -53.966071
-46.105934 -16.295868 -8.397737
-49.738891 -35.651421 -34.468544
-46.435794 -16.892210 -58.924110
-47.780912 -43.557357 -43.035730
-42.173430 -10.494444 -19.226174
-32.646936 -2.738488 -42.463536
-42.920125 -11.409819 -9.734555
-49.767790 -28.173141 -13.943961
-49.954972 -31.217762 -13.632598
-44.241185 -13.224982 -0.450792
-40.360947 -8.521497 -41.610641
-49.923304 -33.567676 -29.219791
-49.525725 -26.471009 -52.090549
-48.010582 -20.620329 -10.532048
-49.883980 -34.012009 -8.768445
-49.092675 -24.242433 -33.366758
-49.951812 -32.515092 -61.020760
-47.038445 -45.325390 -29.844483
-45.476164 -15.176804 -6.567636
-49.956239 -30.697977 -17.979783
-45.700436 -15.575322 -56.419707
-48.092719 -20.851855 -44.995380
-49.885636 -33.993297 -51.523143
-37.310494 -5.791524 -52.406432
-22.624926 -0.245789 -29.060162
-26.017679 -0.447961 -23.040596
-31.334124 -2.092390 -10.032337
-42.948453 -11.444547 -3.711288
-49.048299 -24.072250 -31.684945
-49.836117 -28.990567 -10.465834
-36.319639 -5.070542 -45.124844
-25.851879 -0.438081 -8.241207
-48.170326 -42.476396 -36.145640
-49.391712 -25.686744 -48.587006
-47.326466 -18.851103 -26.159195
-27.232074 -0.520326 -14.064508
-34.709322 -3.964672 -29.066392
-49.927979 -30.089557 -29.256778
-49.676324 -36.223172 0.417231
-41.416386 -9.609752 0.629097
-48.909724 -40.003375 -13.395174
-24.794645 -0.375081 -0.978650
-49.951677 -32.570582 -11.697657
-40.625363 -8.794135 -43.365221
-42.649913 -11.078565 -23.231379
-49.312338 -25.222235 -26.529870
-46.367412 -16.760500 -53.095360
-48.369200 -41.924350 -2.654352
-45.610357 -15.415257 -22.582368
-49.535388 -26.527557 -5.848571
-49.820928 -28.808860 -56.259221
-41.179681 -9.365687 -27.672691
-44.172997 -13.124974 -11.801821
-37.379894 -5.842022 3.601006
-49.051115 -24.083048 -6.006190
-47.707348 -43.761562 -21.761318
-25.804541 -0.435260 -36.876479
-48.536509 -41.406638 -6.341003
-42.275897 -10.620058 -59.309408
-48.077535 -42.733973 1.908621
-44.033639 -12.920583 -25.166396
-21.484266 -0.177817 -45.280940
-48.238955 -42.285890 -22.645850
-49.811260 -28.693190 -45.573115
-49.871294 -29.411415 -32.519585
-49.954066 -31.589654 -42.815938
-33.657569 -3.329645 -9.867931
-43.089648 -11.617638 -25.393181
-29.424152 -1.239888 -46.534648
-43.916645 -12.748993 -5.733357
-22.761594 -0.253933 -17.951531
-47.102412 -45.186518 -10.406159
-48.045558 -42.822735 -58.322905
-30.100409 -1.503377 -60.766786
-46.538285 -46.411287 -56.310090
-49.463387 -37.433769 -40.329416
-22.578575 -0.243027 -53.039435
-47.491017 -44.342810 -18.680150
-49.809009 -34.859129 -7.158406
-46.514270 -17.064805 -56.745040
-33.985917 -3.527894 -60.552867
-36.432452 -5.152629 -30.144984
-49.652820 -27.214791 -56.100450
-47.108101 -45.174162 -16.458316
-34.343310 -3.743681 -33.867813
-49.451212 -26.034949 -1.094325
-47.335042 -44.681447 -39.091112
-31.951459 -2.396211 -61.064760
-29.851190 -1.406274 -10.333126
-40.043314 -8.193989 -19.748822
-46.872995 -45.684623 -5.715493
-28.493492 -0.877275 -37.765462
-49.731143 -27.734714 -4.161376
-48.567616 -22.228789 -31.021547
-47.885241 -20.267015 -42.980262
-49.864664 -29.332093 -43.439948
-48.181101 -21.100988 0.461268
-49.951648 -32.582191 -26.418255
-49.841478 -29.054711 -18.262162
-49.729788 -35.754281 -2.953353
-43.295181 -11.869601 -0.509777
-40.708895 -8.880263 -10.415708
-41.106394 -9.290122 2.237415
-38.111494 -6.455962 -43.496733
-49.464747 -37.426041 -23.516675
-44.188587 -13.147839 -30.670913
-39.658974 -7.799181 -7.106201
-33.936621 -3.498131 -8.337424
-28.138086 -0.738799 -54.691317
-49.401348 -37.786477 -13.024057
-46.988714 -18.108270 -15.229326
-49.953885 -31.664202 2.800901
