56.219124 -50.106418 -57.769268 8.00000000
57.932298 -48.529265 -17.162264 8.00000000
57.290548 -49.135877 -40.527283 8.00000000
52.362488 -53.267514 -57.944355 8.00000000
51.944643 -53.583647 -59.529746 8.00000000
51.231249 -54.123387 -27.670442 8.00000000
53.992696 -51.991117 -50.287478 8.00000000
50.138909 -54.941330 -41.843881 8.00000000
54.600699 -51.476435 0.490710 8.00000000
47.680804 -56.597612 -1.347408 8.00000000
47.126235 -56.971282 -30.642663 8.00000000
55.817936 -50.446029 1.777053 8.00000000
55.551845 -50.671278 -19.695546 8.00000000
52.563242 -53.115627 -6.267184 8.00000000
57.596768 -48.846424 -54.195807 8.00000000
55.452886 -50.755048 -49.457096 8.00000000
51.186894 -54.156946 -35.108652 8.00000000
58.732109 -47.773247 -1.522565 8.00000000
55.183497 -50.983089 -46.277739 8.00000000
52.807491 -52.930833 -23.174922 8.00000000
47.373517 -56.804663 -18.610130 8.00000000
59.307675 -47.229195 -61.068005 8.00000000
53.890127 -52.077942 -15.085642 8.00000000
56.682283 -49.710838 -28.205899 8.00000000
58.896200 -47.618141 -52.996019 8.00000000
58.148874 -48.324548 -9.782546 8.00000000
57.036598 -49.375923 -27.427404 8.00000000
50.492317 -54.682450 -8.794839 8.00000000
59.539125 -47.010418 -4.174160 8.00000000
50.962971 -54.326361 -56.758294 8.00000000
53.255820 -52.591636 -38.045310 8.00000000
50.865579 -54.400047 -12.079601 8.00000000
50.747390 -54.489466 -9.713407 8.00000000
58.720013 -47.784681 -8.167959 8.00000000
57.480535 -48.956294 -4.315291 8.00000000
50.355724 -54.785793 -15.792542 8.00000000
48.085573 -56.324876 -32.939802 8.00000000
47.903065 -56.447851 -35.574919 8.00000000
54.824783 -51.286744 -55.317946 8.00000000
49.845114 -55.139291 -59.260927 8.00000000
48.487433 -56.054101 -4.041962 8.00000000
48.432481 -56.091128 3.391215 8.00000000
55.620342 -50.613294 -38.888769 8.00000000
58.772714 -47.734866 -60.435503 8.00000000
49.003095 -55.706646 -60.177756 8.00000000
55.849815 -50.419043 -5.349217 8.00000000
48.341799 -56.152230 1.521667 8.00000000
54.442752 -51.610139 -3.476257 8.00000000
51.639025 -53.814872 -18.442981 8.00000000
59.546141 -47.003786 -58.241884 8.00000000
59.432313 -47.111381 -17.807449 8.00000000
50.326520 -54.807888 -19.466584 8.00000000
49.903015 -55.100276 -60.219413 8.00000000
47.883818 -56.460820 -36.617265 8.00000000
51.685747 -53.779523 -40.606026 8.00000000
50.856707 -54.406759 -7.597609 8.00000000
56.431615 -49.926542 -18.013227 8.00000000
49.909731 -55.095751 -32.501217 8.00000000
55.222358 -50.950192 -18.956495 8.00000000
47.266567 -56.876726 -53.714690 8.00000000
58.504576 -47.988322 -29.021434 8.00000000
51.524720 -53.901353 -35.924019 8.00000000
49.074488 -55.658541 -56.102142 8.00000000
57.783762 -48.669669 -56.052823 8.00000000
57.688875 -48.759360 -18.098241 8.00000000
56.407948 -49.946576 -5.832892 8.00000000
58.235428 -48.242733 -7.321676 8.00000000
50.968155 -54.322439 -37.266833 8.00000000
48.396371 -56.115459 -14.072708 8.00000000
53.572764 -52.346594 -16.959984 8.00000000
57.016629 -49.394799 -39.677491 8.00000000
59.610428 -46.943020 -33.855548 8.00000000
46.924859 -57.106970 -9.710791 8.00000000
51.975885 -53.560010 -28.649858 8.00000000
47.176771 -56.937231 -6.919776 8.00000000
49.682683 -55.248737 -8.492952 8.00000000
53.935111 -52.039863 -29.241236 8.00000000
56.393759 -49.958587 -7.897822 8.00000000
52.436670 -53.211389 -37.564859 8.00000000
49.503300 -55.369606 -50.371886 8.00000000
54.814096 -51.295791 -30.646761 8.00000000
47.695915 -56.587430 -39.402287 8.00000000
49.118864 -55.628641 -26.786595 8.00000000
55.059887 -51.087726 -4.724321 8.00000000
53.452561 -52.442786 -48.879583 8.00000000
59.574218 -46.977247 -48.893964 8.00000000
52.586873 -53.097749 -47.952841 8.00000000
51.380226 -54.010675 -34.189391 8.00000000
54.781142 -51.323687 -36.404032 8.00000000
52.716085 -52.999989 -28.495904 8.00000000
52.512432 -53.154069 -58.772509 8.00000000
56.902875 -49.502324 3.634362 8.00000000
55.502306 -50.713213 -24.485903 8.00000000
49.042675 -55.679977 -13.947097 8.00000000
48.143182 -56.286059 -59.901684 8.00000000
59.434172 -47.109625 -32.177197 8.00000000
54.435339 -51.616414 -40.554766 8.00000000
59.521697 -47.026891 -28.960618 8.00000000
49.669883 -55.257362 -43.034936 8.00000000
56.559917 -49.817932 -42.718156 8.00000000
48.853029 -55.807761 -46.579268 8.00000000
51.069374 -54.245859 -32.629701 8.00000000
51.137913 -54.194004 -24.585321 8.00000000
58.783175 -47.724977 -2.482992 8.00000000
58.533095 -47.961364 -55.699849 8.00000000
48.236651 -56.223080 -42.453826 8.00000000
57.327107 -49.101320 1.069506 8.00000000
57.348497 -49.081101 -29.671882 8.00000000
49.193976 -55.578030 -32.032102 8.00000000
58.379893 -48.106178 -30.832615 8.00000000
48.295052 -56.183728 -21.088521 8.00000000
47.518378 -56.707055 -16.266045 8.00000000
53.161653 -52.662881 -26.706336 8.00000000
52.534782 -53.137159 -3.136772 8.00000000
53.787203 -52.165069 -30.271970 8.00000000
54.117052 -51.885847 -38.861983 8.00000000
58.990879 -47.528646 -54.967071 8.00000000
57.722918 -48.727181 -47.099489 8.00000000
51.900599 -53.616971 -35.059142 8.00000000
49.597133 -55.306381 -35.710069 8.00000000
47.750119 -56.550906 -8.888401 8.00000000
57.773056 -48.679789 -57.915047 8.00000000
46.913722 -57.114474 -54.539750 8.00000000
47.161258 -56.947683 1.079792 8.00000000
54.552947 -51.516857 -48.258888 8.00000000
53.876850 -52.089181 -34.943331 8.00000000
58.049451 -48.418527 -50.748493 8.00000000
57.988525 -48.476117 -41.123999 8.00000000
50.657218 -54.557688 -10.802387 8.00000000
55.146149 -51.014705 -45.015699 8.00000000
49.198262 -55.575142 -33.411947 8.00000000
47.704345 -56.581749 -49.290998 8.00000000
52.061897 -53.494935 -53.499684 8.00000000
54.377272 -51.665568 -55.999216 8.00000000
47.995604 -56.385498 -57.136608 8.00000000
47.571795 -56.671062 -24.850666 8.00000000
59.532329 -47.016842 -6.400909 8.00000000
57.693928 -48.754584 -33.806081 8.00000000
57.741613 -48.709510 -41.946835 8.00000000
59.174645 -47.354941 -15.181349 8.00000000
50.761146 -54.479059 -45.510464 8.00000000
52.837456 -52.908162 -25.069859 8.00000000
48.960061 -55.735642 -58.133205 8.00000000
56.348003 -49.997321 -41.773444 8.00000000
52.691195 -53.018820 -46.254685 8.00000000
55.398753 -50.800872 -27.576119 8.00000000
46.900851 -57.123147 -42.602020 8.00000000
54.239408 -51.782272 -10.403312 8.00000000
54.095511 -51.904082 -58.347008 8.00000000
47.489629 -56.726426 -25.710665 8.00000000
50.586665 -54.611068 -52.059213 8.00000000
52.449582 -53.201620 -32.694286 8.00000000
55.394932 -50.804107 -34.185334 8.00000000
55.786334 -50.472780 -46.651293 8.00000000
49.096282 -55.643856 -5.421944 8.00000000
51.495524 -53.923443 -60.141857 8.00000000
58.420840 -48.067473 -15.680143 8.00000000
48.933093 -55.753814 -16.711480 8.00000000
46.961851 -57.082045 -49.403278 8.00000000
48.893686 -55.780367 -29.596716 8.00000000
51.164226 -54.174096 -19.241886 8.00000000
51.133791 -54.197122 -26.084751 8.00000000
57.648555 -48.797473 3.739639 8.00000000
49.035698 -55.684678 -2.038935 8.00000000
59.610177 -46.943256 -51.514668 8.00000000
56.145240 -50.168962 -34.012453 8.00000000
55.255134 -50.922447 -42.699101 8.00000000
56.602357 -49.782007 -3.929049 8.00000000
58.920956 -47.594740 -26.331743 8.00000000
46.943960 -57.094100 -28.714223 8.00000000
58.913220 -47.602052 -16.467210 8.00000000
47.787973 -56.525401 -6.260539 8.00000000
46.934856 -57.100234 -60.817503 8.00000000
49.892364 -55.107453 -39.550792 8.00000000
47.450083 -56.753072 -52.536779 8.00000000
46.895564 -57.126709 -3.966984 8.00000000
57.907375 -48.552824 -25.504748 8.00000000
56.021959 -50.273321 0.956816 8.00000000
55.148168 -51.012995 -14.594131 8.00000000
50.664084 -54.552494 -33.903774 8.00000000
46.950190 -57.089902 -35.808398 8.00000000
51.766441 -53.718472 -10.060611 8.00000000
54.094561 -51.904886 3.789714 8.00000000
59.502825 -47.044730 -5.192490 8.00000000
55.534155 -50.686253 -23.436170 8.00000000
50.395944 -54.755364 -52.981610 8.00000000
55.311818 -50.874464 -41.541851 8.00000000
49.163069 -55.598855 -6.428881 8.00000000
48.961983 -55.734348 -0.235185 8.00000000
55.364640 -50.829749 -13.709365 8.00000000
55.862725 -50.408114 -42.353001 8.00000000
54.731306 -51.365874 -38.977875 8.00000000
55.416938 -50.785478 -37.019043 8.00000000
58.922760 -47.593035 -6.314938 8.00000000
47.544092 -56.689728 -10.219301 8.00000000
52.407717 -53.233295 -2.124892 8.00000000
49.211234 -55.566401 -48.670217 8.00000000
49.565707 -55.327556 -24.183155 8.00000000
58.465399 -48.025354 -21.570159 8.00000000
54.023306 -51.965205 -23.933171 8.00000000
56.306686 -50.032296 -30.179884 8.00000000
56.339619 -50.004418 -13.321241 8.00000000
49.393794 -55.443392 -23.180832 8.00000000
48.601333 -55.977355 -33.969034 8.00000000
47.746516 -56.553334 -14.524998 8.00000000
53.378602 -52.498741 -61.005971 8.00000000
48.388502 -56.120762 -32.106013 8.00000000
49.468507 -55.393050 -55.263540 8.00000000
57.426170 -49.007682 -0.971682 8.00000000
54.962542 -51.170130 -53.656178 8.00000000
58.030907 -48.436056 -2.620428 8.00000000
46.847892 -57.158831 -22.909041 8.00000000
52.066738 -53.491273 -29.550696 8.00000000
47.905025 -56.446530 -45.676948 8.00000000
59.553124 -46.997185 3.536421 8.00000000
57.266269 -49.158827 -54.910096 8.00000000
47.041971 -57.028060 -46.306943 8.00000000
50.223723 -54.884182 -22.246425 8.00000000
51.606655 -53.839362 -33.255576 8.00000000
50.826451 -54.429650 -23.673172 8.00000000
56.639222 -49.750800 -33.321132 8.00000000
55.291030 -50.892061 -20.633208 8.00000000
47.903409 -56.447619 -19.713135 8.00000000
51.419219 -53.981174 -41.405580 8.00000000
54.550854 -51.518629 -50.851463 8.00000000
59.427583 -47.115853 -42.957598 8.00000000
52.032008 -53.517549 2.656381 8.00000000
59.350782 -47.188448 -37.912021 8.00000000
54.864923 -51.252766 -10.308229 8.00000000
58.788257 -47.720173 -35.870405 8.00000000
52.031164 -53.518187 -39.294586 8.00000000
49.698934 -55.237787 -44.780515 8.00000000
49.344785 -55.476414 -51.714082 8.00000000
55.617614 -50.615604 -58.034994 8.00000000
54.716724 -51.378218 1.396505 8.00000000
54.360714 -51.679585 -60.273874 8.00000000
53.160457 -52.663786 -37.213797 8.00000000
54.451523 -51.602714 -27.556665 8.00000000
49.116045 -55.630540 -9.511559 8.00000000
59.601209 -46.951734 -1.744170 8.00000000
47.330720 -56.833499 -43.687592 8.00000000
58.593399 -47.904363 -17.527053 8.00000000
58.141839 -48.331198 -11.081043 8.00000000
50.272216 -54.848973 -21.411055 8.00000000
50.689478 -54.533281 -27.037847 8.00000000
47.679300 -56.598625 -20.630318 8.00000000
58.936365 -47.580175 -44.080370 8.00000000
50.491822 -54.682824 -57.574359 8.00000000
58.979571 -47.539334 -28.294097 8.00000000
54.570853 -51.501699 -52.532811 8.00000000
48.814058 -55.834020 -21.719333 8.00000000
49.245084 -55.543593 -17.529539 8.00000000
50.489702 -54.684428 -59.696332 8.00000000
57.535387 -48.904445 -15.592101 8.00000000
48.687477 -55.919311 -30.487208 8.00000000
59.515632 -47.032625 -50.416787 8.00000000
50.306571 -54.822981 -50.558032 8.00000000
56.275039 -50.059086 -25.920741 8.00000000
50.626929 -54.580604 -54.583367 8.00000000
49.124865 -55.624597 -39.628665 8.00000000
56.177459 -50.141688 -32.333108 8.00000000
58.348904 -48.135470 -56.578385 8.00000000
48.634113 -55.955268 -45.428610 8.00000000
56.954727 -49.453311 -22.677160 8.00000000
49.124699 -55.624709 -19.962177 8.00000000
58.395846 -48.091098 -32.091733 8.00000000
50.892462 -54.379707 -61.091704 8.00000000
49.664067 -55.261281 -43.866473 8.00000000
57.632286 -48.812851 -27.845688 8.00000000
58.367893 -48.117521 -35.233645 8.00000000
48.805793 -55.839589 -2.897841 8.00000000
52.007279 -53.536258 -17.614372 8.00000000
53.687078 -52.249826 -33.199458 8.00000000
53.209882 -52.626392 -45.653849 8.00000000
53.240963 -52.602877 -5.631286 8.00000000
46.906888 -57.119079 -16.978029 8.00000000
55.510324 -50.706426 -56.108396 8.00000000
48.973809 -55.726379 -38.845153 8.00000000
56.134286 -50.178234 -38.196011 8.00000000
56.141454 -50.172167 -23.256818 8.00000000
55.149365 -51.011982 -16.999641 8.00000000
55.109526 -51.045707 -26.613464 8.00000000
48.486652 -56.054628 -7.116781 8.00000000
47.852234 -56.482101 -5.447327 8.00000000
52.860026 -52.891086 -53.678102 8.00000000
49.897421 -55.104045 -9.318738 8.00000000
50.434393 -54.726274 -14.598564 8.00000000
50.744182 -54.491894 -51.216888 8.00000000
55.815110 -50.448421 -53.347654 8.00000000
50.866805 -54.399119 -42.227398 8.00000000
56.412600 -49.942638 -53.714964 8.00000000
57.703503 -48.745534 -35.090613 8.00000000
52.519053 -53.149060 -36.762064 8.00000000
52.070088 -53.488738 -30.645308 8.00000000
57.950976 -48.511611 -55.107168 8.00000000
50.316500 -54.815470 -43.295751 8.00000000
58.857177 -47.655027 -7.141476 8.00000000
53.378355 -52.498929 -18.694189 8.00000000
52.778971 -52.952411 -40.570574 8.00000000
51.654677 -53.803030 -52.769935 8.00000000
54.499722 -51.561912 -54.560515 8.00000000
57.952010 -48.510633 -38.922667 8.00000000
52.421411 -53.222934 -22.340237 8.00000000
53.817476 -52.139443 -3.828757 8.00000000
52.123917 -53.448012 -7.701979 8.00000000
53.212271 -52.624584 -14.551411 8.00000000
55.280780 -50.900738 -11.377624 8.00000000
59.549014 -47.001070 -27.912820 8.00000000
54.857801 -51.258795 -38.130722 8.00000000
47.247299 -56.889709 -15.138957 8.00000000
58.938153 -47.578485 -50.826213 8.00000000
57.032878 -49.379439 -18.028751 8.00000000
49.977272 -55.050242 -34.408239 8.00000000
59.382037 -47.158905 -30.119082 8.00000000
49.264170 -55.530733 -0.998162 8.00000000
57.284659 -49.141444 -30.723942 8.00000000
56.034257 -50.262910 -54.457612 8.00000000
47.164108 -56.945763 -22.142757 8.00000000
58.292405 -48.188875 -20.632094 8.00000000
50.462682 -54.704871 -29.082434 8.00000000
48.248196 -56.215300 -8.271850 8.00000000
53.782316 -52.169206 -51.792648 8.00000000
51.640508 -53.813750 -5.796723 8.00000000
47.827087 -56.499045 -51.760833 8.00000000
53.969487 -52.010763 -22.734814 8.00000000
57.051910 -49.361450 -15.090246 8.00000000
46.967218 -57.078428 -8.849305 8.00000000
49.779604 -55.183431 -26.103425 8.00000000
57.967855 -48.495656 -13.604991 8.00000000
51.220214 -54.131736 -1.183069 8.00000000
57.135032 -49.282878 -28.927404 8.00000000
48.343834 -56.150859 -26.437257 8.00000000
54.534996 -51.532053 -32.729111 8.00000000
49.010045 -55.701963 -28.807438 8.00000000
58.026033 -48.440663 -46.221015 8.00000000
48.468164 -56.067085 -20.187876 8.00000000
53.017081 -52.772262 -41.646611 8.00000000
53.911419 -52.059918 -19.461772 8.00000000
59.506475 -47.041281 -11.608973 8.00000000
49.915681 -55.091742 -5.754723 8.00000000
51.013030 -54.288488 -15.469460 8.00000000
56.259501 -50.072239 -10.586289 8.00000000
52.742692 -52.979859 -39.718914 8.00000000
57.019409 -49.392171 -53.757416 8.00000000
51.858355 -53.648931 -22.709972 8.00000000
47.517976 -56.707326 -0.543189 8.00000000
56.980782 -49.428683 -37.811421 8.00000000
54.620437 -51.459726 -19.319947 8.00000000
52.816492 -52.924023 -7.576366 8.00000000
50.161055 -54.926408 -37.115955 8.00000000
53.157291 -52.666181 -31.575434 8.00000000
53.110052 -52.701921 -4.318347 8.00000000
59.213697 -47.318028 -40.507042 8.00000000
46.876616 -57.139477 -34.447321 8.00000000
55.309889 -50.876097 -54.558173 8.00000000
46.850775 -57.156888 -15.989403 8.00000000
57.771979 -48.680807 -32.151965 8.00000000
50.544352 -54.643081 -49.002888 8.00000000
57.189279 -49.231602 -38.648414 8.00000000
56.229561 -50.097584 -39.952930 8.00000000
56.716563 -49.678435 -54.622109 8.00000000
54.575513 -51.497755 -22.273025 8.00000000
52.375826 -53.257422 -33.895267 8.00000000
56.791835 -49.607284 -13.898500 8.00000000
48.236175 -56.223400 -56.335415 8.00000000
48.243624 -56.218381 -10.841333 8.00000000
47.500485 -56.719111 -47.598327 8.00000000
58.375446 -48.110382 -58.950693 8.00000000
56.913975 -49.491832 -9.958076 8.00000000
48.886767 -55.785029 -10.433165 8.00000000
52.340474 -53.284169 -47.105097 8.00000000
54.116862 -51.886009 -59.551097 8.00000000
46.868787 -57.144752 -11.580949 8.00000000
58.142754 -48.330333 -19.827904 8.00000000
53.734543 -52.209646 -25.783755 8.00000000
49.124120 -55.625099 -7.479288 8.00000000
52.995173 -52.788837 -20.413402 8.00000000
54.780128 -51.324545 -33.563338 8.00000000
47.830015 -56.497073 -34.147519 8.00000000
49.418463 -55.426770 -3.464358 8.00000000
57.270060 -49.155244 -43.048500 8.00000000
58.826540 -47.683987 -34.261737 8.00000000
59.462258 -47.083076 -23.008836 8.00000000
57.813290 -48.641758 -43.588022 8.00000000
51.773045 -53.713475 -15.157978 8.00000000
47.054765 -57.019439 -45.393604 8.00000000
47.658838 -56.612412 -26.900435 8.00000000
53.349387 -52.520845 -12.870068 8.00000000
55.768394 -50.487967 -45.656555 8.00000000
57.007759 -49.403183 -42.043565 8.00000000
48.214359 -56.238100 -47.745405 8.00000000
58.212873 -48.264053 -36.722177 8.00000000
48.281988 -56.192531 -37.242536 8.00000000
56.285699 -50.050062 -60.997815 8.00000000
51.299009 -54.072121 -11.406536 8.00000000
48.947014 -55.744434 -47.947625 8.00000000
51.752536 -53.728992 -21.678178 8.00000000
59.557613 -46.992942 -9.470069 8.00000000
53.831848 -52.127276 -36.710428 8.00000000
52.238773 -53.361114 -8.538658 8.00000000
57.584046 -48.858450 -14.403922 8.00000000
49.917387 -55.090593 -14.124815 8.00000000
47.652293 -56.616822 -44.754460 8.00000000
48.347383 -56.148468 -58.710229 8.00000000
53.846949 -52.114493 -8.891199 8.00000000
56.360170 -49.987021 -22.213360 8.00000000
53.217703 -52.620474 1.387877 8.00000000
52.495889 -53.166585 -57.015906 8.00000000
55.673078 -50.568653 -9.547967 8.00000000
53.909776 -52.061309 -1.436446 8.00000000
56.808472 -49.591558 -16.343498 8.00000000
47.150326 -56.955050 -12.526497 8.00000000
50.303521 -54.825289 2.709937 8.00000000
55.429486 -50.774856 -6.306118 8.00000000
51.675266 -53.787453 3.545287 8.00000000
51.875880 -53.635672 -16.180556 8.00000000
56.345698 -49.999271 -44.070246 8.00000000
57.084069 -49.331051 -44.001886 8.00000000
49.361722 -55.465002 -22.266344 8.00000000
57.964642 -48.498693 -0.188090 8.00000000
57.862502 -48.595240 -39.902308 8.00000000
48.927603 -55.757513 -42.961180 8.00000000
52.662486 -53.040541 0.685349 8.00000000
52.882333 -52.874209 -24.155679 8.00000000
48.207094 -56.242995 -29.450803 8.00000000
51.364181 -54.022814 -53.546682 8.00000000
48.250327 -56.213865 -40.175235 8.00000000
52.858275 -52.892411 -44.709631 8.00000000
50.645343 -54.566673 -38.117352 8.00000000
56.118841 -50.191309 -14.381082 8.00000000
46.878717 -57.138061 -59.599664 8.00000000
49.576927 -55.319996 -14.932509 8.00000000
52.662137 -53.040805 -17.575140 8.00000000
58.323038 -48.159920 -44.124374 8.00000000
56.395646 -49.956990 -2.043111 8.00000000
49.039046 -55.682423 1.899613 8.00000000
56.077911 -50.225957 -52.528597 8.00000000
54.290218 -51.739260 -7.016474 8.00000000
46.881800 -57.135983 -56.077002 8.00000000
53.421669 -52.466158 -59.609407 8.00000000
54.697920 -51.394136 -42.257719 8.00000000
48.026514 -56.364671 -2.310067 8.00000000
51.740673 -53.737967 -37.295872 8.00000000
50.965343 -54.324567 -18.164992 8.00000000
53.144974 -52.675500 -47.028506 8.00000000
53.377475 -52.499595 -39.453428 8.00000000
55.617408 -50.615778 -22.596927 8.00000000
51.344206 -54.037927 -38.077578 8.00000000
55.173167 -50.991834 2.350784 8.00000000
59.473640 -47.072318 -14.170824 8.00000000
48.454026 -56.076611 -14.977234 8.00000000
55.215054 -50.956375 -8.601053 8.00000000
57.213332 -49.208866 -55.821857 8.00000000
53.739772 -52.205219 -42.657451 8.00000000
46.939497 -57.097107 -44.402524 8.00000000
57.351114 -49.078627 -16.611887 8.00000000
52.192003 -53.396499 -55.693809 8.00000000
52.522620 -53.146361 -15.419413 8.00000000
51.159996 -54.177297 -4.580386 8.00000000
49.696858 -55.239186 -19.108194 8.00000000
58.214089 -48.262903 -47.624744 8.00000000
59.172265 -47.357191 -52.277984 8.00000000
53.820811 -52.136619 -40.098608 8.00000000
48.804847 -55.840227 -11.693458 8.00000000
55.290027 -50.892910 -1.586324 8.00000000
54.256533 -51.767775 -53.782017 8.00000000
49.108831 -55.635401 -49.692076 8.00000000
52.585280 -53.098954 -59.599183 8.00000000
57.272508 -49.152930 -20.528926 8.00000000
56.936010 -49.471003 -24.194801 8.00000000
59.568276 -46.982863 -10.805507 8.00000000
59.460778 -47.084475 -24.968417 8.00000000
57.266503 -49.158606 -46.224629 8.00000000
48.754458 -55.874179 0.628909 8.00000000
51.283428 -54.083910 -17.037776 8.00000000
58.620614 -47.878637 -33.006251 8.00000000
57.046820 -49.366261 -2.097412 8.00000000
51.229112 -54.125005 -49.442584 8.00000000
56.736295 -49.659783 -12.408260 8.00000000
48.370211 -56.133086 -48.614373 8.00000000
51.366110 -54.021355 -39.600617 8.00000000
52.282078 -53.328351 -14.179064 8.00000000
49.224624 -55.557379 -4.593612 8.00000000
53.275462 -52.576776 -29.751470 8.00000000
58.317441 -48.165210 -8.897190 8.00000000
57.543082 -48.897171 -12.443174 8.00000000
54.133002 -51.872346 -0.227277 8.00000000
50.956770 -54.331053 -36.372778 8.00000000
46.965722 -57.079437 -27.440736 8.00000000
56.073529 -50.229666 -51.327399 8.00000000
54.586377 -51.488558 -11.209732 8.00000000
55.268530 -50.911107 -43.892666 8.00000000
55.327116 -50.861513 -51.994285 8.00000000
51.475585 -53.938528 -13.717629 8.00000000
47.018224 -57.044060 -37.782792 8.00000000
58.925517 -47.590429 -19.666964 8.00000000
55.553525 -50.669856 -39.941683 8.00000000
56.128994 -50.182714 -44.938762 8.00000000
57.795190 -48.658867 -59.647717 8.00000000
54.391461 -51.653557 -26.625777 8.00000000
57.926243 -48.534990 -3.454527 8.00000000
58.015519 -48.450601 -29.680756 8.00000000
59.609208 -46.944172 -41.599186 8.00000000
46.855850 -57.153469 -19.418117 8.00000000
49.672778 -55.255411 -29.067692 8.00000000
47.018912 -57.043597 -1.082391 8.00000000
53.317417 -52.545033 -9.686377 8.00000000
51.412246 -53.986449 -8.242623 8.00000000
58.184500 -48.290872 -49.660453 8.00000000
51.547730 -53.883944 -46.720441 8.00000000
55.525588 -50.693505 -30.498374 8.00000000
52.520181 -53.148207 -60.566756 8.00000000
59.564620 -46.986319 -25.980010 8.00000000
48.092941 -56.319912 -3.335972 8.00000000
54.703682 -51.389258 -16.202053 8.00000000
58.705677 -47.798231 -23.175720 8.00000000
49.877572 -55.117420 -25.164304 8.00000000
55.727985 -50.522173 -7.268042 8.00000000
51.361353 -54.024954 -20.224404 8.00000000
58.727609 -47.777501 -57.911078 8.00000000
50.266010 -54.853669 -24.232658 8.00000000
47.930501 -56.429365 -50.969194 8.00000000
51.612137 -53.835215 -12.289500 8.00000000
47.946753 -56.418414 -30.211835 8.00000000
47.579161 -56.666099 -17.428387 8.00000000
54.307580 -51.724563 -17.207857 8.00000000
52.226308 -53.370545 -50.838934 8.00000000
57.021400 -49.390289 -21.701742 8.00000000
59.004841 -47.515448 -49.210685 8.00000000
52.543683 -53.130425 -35.157616 8.00000000
49.396475 -55.441585 -45.690223 8.00000000
58.046019 -48.421771 -6.544689 8.00000000
58.524018 -47.969944 -51.586889 8.00000000
51.581577 -53.858336 -32.005237 8.00000000
58.482325 -48.009355 1.674584 8.00000000
50.498488 -54.677780 -47.991019 8.00000000
47.923200 -56.434284 -24.015843 8.00000000
56.602997 -49.781465 -18.927533 8.00000000
53.172297 -52.654828 -30.727487 8.00000000
55.571673 -50.654493 -10.674395 8.00000000
55.122000 -51.035147 -2.937797 8.00000000
50.420849 -54.736521 -58.467547 8.00000000
47.954361 -56.413287 -28.504265 8.00000000
57.709491 -48.739873 -10.327225 8.00000000
52.074663 -53.485277 -26.763592 8.00000000
47.227467 -56.903071 -58.227049 8.00000000
57.414126 -49.019066 -11.122788 8.00000000
49.905196 -55.098807 -46.566663 8.00000000
53.837210 -52.122737 -6.085322 8.00000000
55.923429 -50.356727 -31.436485 8.00000000
51.631372 -53.820662 -50.182316 8.00000000
48.487915 -56.053777 -17.792144 8.00000000
53.831013 -52.127983 -7.614116 8.00000000
53.393003 -52.487846 -8.247909 8.00000000
49.050753 -55.674534 -59.336450 8.00000000
54.563209 -51.508170 -9.320526 8.00000000
54.282311 -51.745954 -44.999355 8.00000000
51.066009 -54.248405 0.193551 8.00000000
48.201489 -56.246772 -25.610807 8.00000000
58.591130 -47.906507 -41.249265 8.00000000
55.814083 -50.449290 -15.103649 8.00000000
54.308857 -51.723482 -5.125107 8.00000000
55.748676 -50.504658 -50.153201 8.00000000
52.717452 -52.998955 3.194526 8.00000000
52.206623 -53.385438 -49.673964 8.00000000
56.632306 -49.756655 -51.880983 8.00000000
56.819643 -49.580999 -52.691732 8.00000000
54.710557 -51.383438 -51.724021 8.00000000
58.429675 -48.059121 -0.667041 8.00000000
59.273503 -47.261496 -33.093101 8.00000000
57.597003 -48.846203 -23.766222 8.00000000
54.117088 -51.885817 -33.833740 8.00000000
51.634837 -53.818040 -2.500929 8.00000000
49.263276 -55.531335 -34.618059 8.00000000
59.420748 -47.122313 -0.211420 8.00000000
51.511172 -53.911603 -7.114470 8.00000000
48.683205 -55.922189 -28.008793 8.00000000
57.778454 -48.674686 -28.737976 8.00000000
54.462753 -51.593208 2.760108 8.00000000
53.868401 -52.096334 -31.867500 8.00000000
54.496661 -51.564504 -20.663995 8.00000000
48.566407 -56.000888 -23.285681 8.00000000
48.496816 -56.047779 -4.975155 8.00000000
59.419710 -47.123294 -60.004593 8.00000000
58.580752 -47.916317 -29.899381 8.00000000
53.210206 -52.626147 -32.548789 8.00000000
51.202109 -54.145434 -14.528460 8.00000000
53.464401 -52.433827 -49.746468 8.00000000
52.177356 -53.407581 -24.319516 8.00000000
53.308934 -52.551451 0.159865 8.00000000
50.088677 -54.975176 -10.147329 8.00000000
57.533195 -48.906516 -7.414009 8.00000000
56.302893 -50.035507 -24.635047 8.00000000
54.832108 -51.280544 -37.297791 8.00000000
56.335325 -50.008053 -4.689695 8.00000000
57.350528 -49.079182 -13.353684 8.00000000
48.968814 -55.729745 -42.088039 8.00000000
56.959970 -49.448355 -4.887390 8.00000000
46.841123 -57.163392 -23.765629 8.00000000
55.605986 -50.625447 -48.313088 8.00000000
48.951227 -55.741595 -56.997650 8.00000000
50.882744 -54.387060 3.668935 8.00000000
48.453919 -56.076683 -13.219276 8.00000000
56.490893 -49.876363 -55.418658 8.00000000
58.330125 -48.153221 -42.222161 8.00000000
51.754739 -53.727325 -43.101882 8.00000000
58.089196 -48.380958 -52.855550 8.00000000
52.411741 -53.230250 -5.386337 8.00000000
57.849106 -48.607903 -57.035175 8.00000000
48.585529 -55.988004 -54.526994 8.00000000
50.164750 -54.923919 -11.574105 8.00000000
54.658478 -51.427524 -34.459120 8.00000000
50.307913 -54.821966 -56.161436 8.00000000
59.055284 -47.467767 2.037366 8.00000000
49.664209 -55.261185 -29.908069 8.00000000
57.183420 -49.237140 -47.371105 8.00000000
55.083600 -51.067653 -58.657032 8.00000000
53.007360 -52.779616 -55.264373 8.00000000
51.926611 -53.597290 -19.306050 8.00000000
51.666154 -53.794347 -57.918668 8.00000000
58.581265 -47.915832 -39.376066 8.00000000
50.002487 -55.033252 -27.004731 8.00000000
48.128925 -56.295666 -38.121095 8.00000000
57.434194 -49.000097 2.699886 8.00000000
52.274005 -53.334458 -12.117546 8.00000000
57.968647 -48.494907 -60.759545 8.00000000
56.576166 -49.804178 0.407399 8.00000000
47.692379 -56.589812 -13.389938 8.00000000
48.001360 -56.381619 -22.369430 8.00000000
55.820881 -50.443536 -60.380807 8.00000000
59.546764 -47.003197 -39.077600 8.00000000
53.657241 -52.275083 -54.488278 8.00000000
56.885340 -49.518899 -35.881250 8.00000000
54.798549 -51.308952 -23.339521 8.00000000
47.563855 -56.676412 1.870583 8.00000000
55.854742 -50.414872 -2.899374 8.00000000
55.276954 -50.903977 -35.033890 8.00000000
56.584609 -49.797031 -31.494906 8.00000000
57.179232 -49.241099 -25.156565 8.00000000
50.779511 -54.465164 -46.537465 8.00000000
59.384048 -47.157004 -3.051602 8.00000000
56.908443 -49.497061 -6.475796 8.00000000
49.638573 -55.278459 -52.517986 8.00000000
55.034704 -51.109044 -17.909941 8.00000000
52.497137 -53.165641 -11.207292 8.00000000
54.016736 -51.970767 -17.992151 8.00000000
58.150428 -48.323079 -1.451514 8.00000000
52.706662 -53.007118 -48.734378 8.00000000
52.906689 -52.855782 -1.535859 8.00000000
48.165632 -56.270932 -0.123312 8.00000000
53.367511 -52.507133 -28.905816 8.00000000
49.907719 -55.097107 -1.789318 8.00000000
56.270311 -50.063088 -9.707455 8.00000000
50.078919 -54.981752 -45.764534 8.00000000
57.926799 -48.534463 -31.390827 8.00000000
53.643492 -52.286721 -20.392931 8.00000000
57.192442 -49.228612 -34.493308 8.00000000
51.923689 -53.599501 -1.441987 8.00000000
49.258194 -55.534759 -36.521198 8.00000000
51.258449 -54.102808 -9.148833 8.00000000
53.179492 -52.649384 -34.824718 8.00000000
53.073326 -52.729708 -58.171725 8.00000000
59.015189 -47.505667 -48.270162 8.00000000
50.720891 -54.509515 -28.265480 8.00000000
51.806922 -53.687844 -56.612477 8.00000000
55.974889 -50.313166 -1.316789 8.00000000
55.831323 -50.434696 -26.930406 8.00000000
59.421494 -47.121608 -21.972820 8.00000000
55.099761 -51.053973 -40.497915 8.00000000
50.980913 -54.312787 -21.863073 8.00000000
58.899059 -47.615438 -22.344021 8.00000000
53.765837 -52.183156 -43.854211 8.00000000
49.483380 -55.383028 3.188524 8.00000000
56.777286 -49.621037 -51.119795 8.00000000
55.899518 -50.376968 -3.852023 8.00000000
49.711094 -55.229593 -57.096138 8.00000000
57.645242 -48.800604 -21.290165 8.00000000
47.259639 -56.881394 -48.564135 8.00000000
58.313260 -48.169163 -33.736418 8.00000000
50.612860 -54.591249 -25.475326 8.00000000
55.820111 -50.444187 -43.286185 8.00000000
59.353918 -47.185485 -27.084162 8.00000000
51.262659 -54.099624 2.650181 8.00000000
59.457689 -47.087395 1.322528 8.00000000
48.532566 -56.023691 -51.858248 8.00000000
55.330495 -50.858654 -15.933968 8.00000000
54.441920 -51.610843 -57.132741 8.00000000
57.536409 -48.903478 -52.523225 8.00000000
48.942075 -55.747762 -52.959373 8.00000000
51.109220 -54.215712 -43.575648 8.00000000
50.664819 -54.551938 -0.489706 8.00000000
57.627457 -48.817415 -49.451570 8.00000000
59.019659 -47.501441 -47.042738 8.00000000
53.410352 -52.474720 -50.920303 8.00000000
49.222592 -55.558748 -15.810592 8.00000000
56.457522 -49.904611 -40.996088 8.00000000
57.213377 -49.208823 -60.222698 8.00000000
50.196337 -54.902635 -7.234467 8.00000000
56.534635 -49.839334 1.495204 8.00000000
57.087346 -49.327954 -8.265990 8.00000000
51.212281 -54.137738 -44.805028 8.00000000
56.527305 -49.845539 -46.071798 8.00000000
58.653168 -47.847866 2.978410 8.00000000
53.901741 -52.068111 -55.291234 8.00000000
55.468847 -50.741537 3.556377 8.00000000
59.017569 -47.503417 -54.123271 8.00000000
52.341033 -53.283746 -41.471005 8.00000000
50.923672 -54.356094 -59.034370 8.00000000
49.904182 -55.099490 -49.383584 8.00000000
57.400200 -49.032230 -2.731487 8.00000000
56.475724 -49.889203 -58.630973 8.00000000
57.577988 -48.864176 -48.160126 8.00000000
58.830292 -47.680440 3.861539 8.00000000
58.919911 -47.595728 -24.161233 8.00000000
47.447049 -56.755116 -40.220959 8.00000000
47.687878 -56.592845 -41.456483 8.00000000
50.447499 -54.716358 -4.328052 8.00000000
46.873336 -57.141687 -21.258152 8.00000000
52.460722 -53.193192 -4.463851 8.00000000
50.986467 -54.308585 1.668547 8.00000000
52.041180 -53.510610 -38.378290 8.00000000
48.180621 -56.260832 -53.884374 8.00000000
46.906405 -57.119404 -50.374108 8.00000000
49.597841 -55.305904 1.290218 8.00000000
58.947649 -47.569509 -36.665665 8.00000000
50.147266 -54.935699 -36.132191 8.00000000
49.159304 -55.601392 -37.414121 8.00000000
57.533258 -48.906457 1.927314 8.00000000
54.684277 -51.405685 -2.150006 8.00000000
53.557264 -52.359715 -22.007687 8.00000000
59.616220 -46.937545 -21.181742 8.00000000
48.006885 -56.377896 0.710309 8.00000000
59.605127 -46.948030 -35.785219 8.00000000
59.486053 -47.060584 -34.813288 8.00000000
57.661028 -48.785683 -35.933350 8.00000000
50.317942 -54.814378 -3.158190 8.00000000
47.153843 -56.952679 -29.662772 8.00000000
48.717516 -55.899071 -50.849150 8.00000000
52.005788 -53.537386 -27.652487 8.00000000
49.868174 -55.123752 0.137216 8.00000000
56.675601 -49.717154 -3.075007 8.00000000
57.040536 -49.372200 -59.267194 8.00000000
59.585609 -46.966479 -23.996556 8.00000000
56.337968 -50.005815 -50.499733 8.00000000
57.572130 -48.869713 -18.877996 8.00000000
54.061018 -51.933281 -35.935422 8.00000000
53.374763 -52.501646 -48.072031 8.00000000
58.594506 -47.903316 -43.208367 8.00000000
50.708432 -54.518941 -22.848992 8.00000000
50.889200 -54.382175 -40.299791 8.00000000
50.288757 -54.836459 -44.296374 8.00000000
54.609192 -51.469245 -24.855979 8.00000000
56.944513 -49.462966 -9.093825 8.00000000
59.560316 -46.990387 -19.035760 8.00000000
55.184101 -50.982578 -32.277487 8.00000000
51.471223 -53.941828 -45.666191 8.00000000
46.881124 -57.136439 -26.047190 8.00000000
53.996152 -51.988191 -16.065180 8.00000000
47.659521 -56.611952 3.497493 8.00000000
53.288272 -52.567084 -15.500408 8.00000000
52.979245 -52.800887 -38.836861 8.00000000
52.282677 -53.327897 -54.484043 8.00000000
54.912271 -51.212685 -47.150120 8.00000000
47.659708 -56.611826 -61.044937 8.00000000
49.182447 -55.585798 -12.440891 8.00000000
51.043516 -54.265423 -31.523099 8.00000000
55.174092 -50.991050 -0.682084 8.00000000
51.195924 -54.150114 -55.898201 8.00000000
58.426832 -48.061809 -44.993287 8.00000000
47.933769 -56.427163 -11.740109 8.00000000
49.885312 -55.112205 -28.279290 8.00000000
55.416268 -50.786046 -33.232307 8.00000000
49.747999 -55.204727 -48.057301 8.00000000
47.031655 -57.035010 0.193282 8.00000000
55.224408 -50.948458 -12.830872 8.00000000
47.408487 -56.781100 -55.385271 8.00000000
49.626888 -55.286332 -20.571424 8.00000000
47.382619 -56.798530 -38.591007 8.00000000
56.870829 -49.532616 -57.586332 8.00000000
47.163959 -56.945864 -37.011075 8.00000000
57.923418 -48.537660 -26.761618 8.00000000
58.374644 -48.111140 -24.857030 8.00000000
50.124889 -54.950777 -51.457734 8.00000000
51.566764 -53.869543 -58.756752 8.00000000
50.117732 -54.955599 3.858055 8.00000000
58.795984 -47.712870 -3.660012 8.00000000
49.305026 -55.503204 -47.194073 8.00000000
52.765954 -52.962259 -21.532926 8.00000000
57.696084 -48.752546 -5.718327 8.00000000
53.897582 -52.071632 -47.475209 8.00000000
52.606564 -53.082851 -25.942006 8.00000000
53.571510 -52.347655 -53.684527 8.00000000
54.959861 -51.172399 -60.842432 8.00000000
54.542042 -51.526088 -13.602634 8.00000000
55.275040 -50.905597 -29.720474 8.00000000
58.735158 -47.770365 -38.405282 8.00000000
59.170977 -47.358409 -12.615798 8.00000000
57.535566 -48.904275 -58.797249 8.00000000
47.032740 -57.034280 -7.809999 8.00000000
47.237721 -56.896163 -3.047682 8.00000000
58.236365 -48.241848 -53.835209 8.00000000
53.067316 -52.734255 -27.668469 8.00000000
56.050014 -50.249572 -36.823603 8.00000000
53.895389 -52.073488 -14.035628 8.00000000
52.950844 -52.822375 -10.543269 8.00000000
52.825197 -52.917437 -50.283958 8.00000000
53.726815 -52.216188 -2.940064 8.00000000
51.574678 -53.863556 1.183950 8.00000000
50.088910 -54.975020 -38.758827 8.00000000
48.820727 -55.829527 -25.153706 8.00000000
47.241444 -56.893654 -57.253698 8.00000000
56.161342 -50.155331 -20.248354 8.00000000
53.440440 -52.451956 -36.051412 8.00000000
51.633938 -53.818721 -42.169720 8.00000000
57.336032 -49.092884 -36.863470 8.00000000
48.257120 -56.209287 -16.253382 8.00000000
48.783991 -55.854280 -35.686026 8.00000000
54.400486 -51.645917 -29.915057 8.00000000
49.023507 -55.692892 -25.951398 8.00000000
54.445072 -51.608175 -12.462384 8.00000000
48.361308 -56.139085 -60.937427 8.00000000
54.003279 -51.982158 1.394859 8.00000000
49.681858 -55.249293 -2.669270 8.00000000
54.764436 -51.337829 -49.688264 8.00000000
51.248484 -54.110348 -30.452179 8.00000000
54.849092 -51.266167 -5.553713 8.00000000
50.571535 -54.622515 -17.040530 8.00000000
52.456345 -53.196504 1.880392 8.00000000
53.601822 -52.321996 -10.847721 8.00000000
56.391956 -49.960114 -29.067974 8.00000000
55.185195 -50.981652 -56.898613 8.00000000
59.268272 -47.266441 -46.340412 8.00000000
54.191864 -51.822518 -21.515664 8.00000000
49.358838 -55.466945 -54.385270 8.00000000
52.967503 -52.809771 -13.570858 8.00000000
49.455943 -55.401515 -13.196706 8.00000000
54.348347 -51.690053 -8.246244 8.00000000
54.989741 -51.147106 -25.755192 8.00000000
48.400009 -56.113008 -49.829413 8.00000000
57.595520 -48.847604 -22.644970 8.00000000
52.443403 -53.206295 -18.607741 8.00000000
48.771495 -55.862699 -41.069716 8.00000000
57.038606 -49.374025 -32.264645 8.00000000
59.027531 -47.494000 -45.235370 8.00000000
58.360080 -48.124906 -14.247851 8.00000000
56.934626 -49.472312 -11.624222 8.00000000
58.178315 -48.296719 0.822066 8.00000000
48.582706 -55.989906 -5.968410 8.00000000
53.810524 -52.145327 -27.180655 8.00000000
54.665775 -51.421346 -39.792167 8.00000000
55.875275 -50.397490 -59.066584 8.00000000
51.088732 -54.231213 -48.587094 8.00000000
46.860021 -57.150658 3.395265 8.00000000
57.743962 -48.707289 -51.604184 8.00000000
50.051644 -55.000129 -33.416897 8.00000000
55.964689 -50.321801 -35.874824 8.00000000
50.489285 -54.684743 -30.111077 8.00000000
49.415310 -55.428894 -10.941514 8.00000000
48.081018 -56.327945 -46.853751 8.00000000
53.572271 -52.347011 2.255150 8.00000000
50.770022 -54.472343 -2.254965 8.00000000
54.519067 -51.545537 -28.806291 8.00000000
49.890680 -55.108588 -17.193781 8.00000000
51.560596 -53.874210 -3.600603 8.00000000
46.891093 -57.129722 -33.424222 8.00000000
56.873043 -49.530523 -19.637226 8.00000000
52.102350 -53.464330 -12.931242 8.00000000
56.544749 -49.830773 -48.494779 8.00000000
46.962460 -57.081634 -41.453364 8.00000000
54.689632 -51.401152 -31.559916 8.00000000
46.966911 -57.078635 2.529073 8.00000000
49.467021 -55.394051 -40.989990 8.00000000
53.735889 -52.208507 -24.791120 8.00000000
52.731169 -52.988577 -19.584703 8.00000000
58.275939 -48.204440 -48.778911 8.00000000
56.003695 -50.288781 -16.456133 8.00000000
51.890991 -53.624240 -23.563072 8.00000000
55.941210 -50.341675 2.996433 8.00000000
52.139874 -53.435939 -9.354887 8.00000000
52.551190 -53.124745 -52.117843 8.00000000
56.291785 -50.044910 -0.504968 8.00000000
58.944394 -47.572586 -59.411229 8.00000000
59.488776 -47.058010 -7.870016 8.00000000
52.196657 -53.392978 -35.938496 8.00000000
46.881622 -57.136104 -24.811260 8.00000000
46.925180 -57.106754 -32.515263 8.00000000
58.356090 -48.128678 -23.879610 8.00000000
51.018617 -54.284261 -20.890207 8.00000000
50.313815 -54.817501 -30.975895 8.00000000
58.196196 -48.279817 -37.934110 8.00000000
59.605316 -46.947852 -36.997267 8.00000000
47.706145 -56.580537 -42.983885 8.00000000
56.496863 -49.871309 -26.746177 8.00000000
59.504539 -47.043111 -16.475241 8.00000000
56.556338 -49.820963 -39.039467 8.00000000
58.665656 -47.836061 -12.010955 8.00000000
59.133636 -47.393705 -8.840936 8.00000000
48.843926 -55.813895 -18.476180 8.00000000
55.221776 -50.950686 -50.998454 8.00000000
49.963579 -55.059468 -54.011338 8.00000000
53.389439 -52.490543 -57.139688 8.00000000
55.860950 -50.409617 -25.300938 8.00000000
59.612909 -46.940674 -52.995312 8.00000000
55.764248 -50.491476 -18.510760 8.00000000
58.548812 -47.946508 -45.787545 8.00000000
54.029016 -51.960371 -61.061985 8.00000000
59.604119 -46.948983 -54.597923 8.00000000
53.433966 -52.456854 -56.030391 8.00000000
55.929388 -50.351683 -57.014956 8.00000000
51.614969 -53.833073 -55.091468 8.00000000
48.481865 -56.057853 -1.116915 8.00000000
50.557114 -54.633426 -6.442094 8.00000000
54.380290 -51.663014 -25.672619 8.00000000
50.523191 -54.659090 -13.348342 8.00000000
50.492192 -54.682544 1.027406 8.00000000
58.903221 -47.611504 -25.480665 8.00000000
58.960951 -47.556935 -56.280427 8.00000000
52.314525 -53.303802 -43.759726 8.00000000
56.212093 -50.112370 -11.522090 8.00000000
50.992871 -54.303740 -47.397374 8.00000000
50.273100 -54.848305 -18.521153 8.00000000
47.079358 -57.002868 -1.987240 8.00000000
46.911201 -57.116173 -13.880713 8.00000000
50.735824 -54.498217 -53.678965 8.00000000
51.532075 -53.895788 -51.490566 8.00000000
53.480228 -52.421853 3.092867 8.00000000
50.495975 -54.679682 -34.998354 8.00000000
52.418100 -53.225439 -42.775041 8.00000000
56.408953 -49.945726 -21.292387 8.00000000
57.253521 -49.170877 -0.053140 8.00000000
56.492971 -49.874604 2.505508 8.00000000
52.964519 -52.812029 -0.594037 8.00000000
53.468980 -52.430363 -6.885086 8.00000000
54.202860 -51.813210 -41.393983 8.00000000
48.965482 -55.731990 -44.427803 8.00000000
58.266395 -48.213462 -4.247226 8.00000000
57.405992 -49.026754 -32.954620 8.00000000
59.322705 -47.214988 -31.178260 8.00000000
53.112729 -52.699896 -2.524582 8.00000000
55.743452 -50.509080 -21.638396 8.00000000
54.209591 -51.807512 -37.858790 8.00000000
58.769200 -47.738187 -10.641509 8.00000000
54.830709 -51.281728 3.652280 8.00000000
56.935859 -49.471146 -49.262054 8.00000000
57.363453 -49.066964 -25.972540 8.00000000
48.068036 -56.336693 2.567294 8.00000000
58.646293 -47.854364 -27.298885 8.00000000
47.738114 -56.558995 -23.165449 8.00000000
58.072742 -48.396511 -23.145139 8.00000000
51.806072 -53.688488 -48.267565 8.00000000
53.127241 -52.688916 -42.444940 8.00000000
55.065230 -51.083203 -59.641371 8.00000000
56.344851 -49.999989 -15.680004 8.00000000
58.555217 -47.940454 -5.147814 8.00000000
56.209767 -50.114339 3.843679 8.00000000
58.820607 -47.689595 -13.571973 8.00000000
48.194772 -56.251298 -31.212655 8.00000000
52.169425 -53.413581 -20.307795 8.00000000
48.575409 -55.994823 -55.342877 8.00000000
58.945766 -47.571288 -42.115440 8.00000000
54.592000 -51.483799 -35.343889 8.00000000
52.738176 -52.983275 -16.397988 8.00000000
57.634560 -48.810702 -45.339610 8.00000000
54.047161 -51.945011 -49.332621 8.00000000
46.866490 -57.146300 -51.811516 8.00000000
52.283685 -53.327135 -31.385386 8.00000000
50.392594 -54.757898 -40.967461 8.00000000
49.853869 -55.133391 -37.836828 8.00000000
56.299398 -50.038465 -34.944887 8.00000000
59.575659 -46.975884 -56.339380 8.00000000
53.740842 -52.204314 -12.157206 8.00000000
57.025520 -49.386395 -50.225134 8.00000000
54.445601 -51.607727 -43.151824 8.00000000
57.954367 -48.508405 -8.073115 8.00000000
58.184612 -48.290767 -18.563668 8.00000000
53.105880 -52.705077 -52.840197 8.00000000
49.472501 -55.390358 -30.819471 8.00000000
59.014046 -47.506747 -57.184532 8.00000000
51.960350 -53.571764 -25.130339 8.00000000
50.168020 -54.921715 -61.090376 8.00000000
54.601964 -51.475364 -1.256365 8.00000000
48.993835 -55.712886 -8.468538 8.00000000
47.554692 -56.682586 -31.501715 8.00000000
50.398903 -54.753125 -20.520999 8.00000000
49.602358 -55.302861 2.339793 8.00000000
58.879404 -47.634017 0.690068 8.00000000
48.304367 -56.177452 -9.297721 8.00000000
52.478855 -53.179473 -45.331844 8.00000000
55.088210 -51.063751 -7.388363 8.00000000
49.738666 -55.211016 -58.055826 8.00000000
53.976732 -52.004630 -45.995797 8.00000000
50.075401 -54.984122 -12.743692 8.00000000
51.704910 -53.765025 -0.393824 8.00000000
51.234978 -54.120567 -29.347045 8.00000000
56.087350 -50.217966 -47.616918 8.00000000
56.596729 -49.786771 -56.658873 8.00000000
47.143967 -56.959334 -5.332372 8.00000000
55.994921 -50.296209 -8.747457 8.00000000
53.956980 -52.021351 -28.295653 8.00000000
53.129267 -52.687384 -33.811343 8.00000000
