-40.507944 64.284821 -48.023370 6.00000000
-42.537419 62.566846 -60.066851 6.00000000
-36.005926 67.652169 -46.328528 6.00000000
-41.019084 63.852134 -59.062673 6.00000000
-38.734134 65.659632 -34.544060 6.00000000
-44.790011 60.510490 3.456965 6.00000000
-39.542214 65.048254 -23.478366 6.00000000
-40.300418 64.460494 -4.457029 6.00000000
-44.058594 61.201860 -54.044672 6.00000000
-35.839017 67.764634 -21.602285 6.00000000
-34.674588 68.549238 -5.967014 6.00000000
-35.296340 68.130295 -41.271340 6.00000000
-45.071249 60.244651 -3.705765 6.00000000
-40.329484 64.435889 -12.673720 6.00000000
-34.924071 68.381135 -44.402294 6.00000000
-42.232815 62.824696 -4.361751 6.00000000
-46.152678 59.222433 -40.731125 6.00000000
-37.428646 66.647340 -37.227648 6.00000000
-44.321501 60.953348 -30.181487 6.00000000
-33.590895 69.279442 -57.924788 6.00000000
-42.231953 62.825426 -61.078644 6.00000000
-38.038491 66.185942 -57.070581 6.00000000
-34.372229 68.752971 -33.728078 6.00000000
-41.772918 63.214004 -38.587030 6.00000000
-34.284498 68.812085 -4.411151 6.00000000
-36.212707 67.512838 -19.270224 6.00000000
-44.665587 60.628102 -46.369748 6.00000000
-45.456508 59.880486 -34.957790 6.00000000
-41.756002 63.228324 -24.033331 6.00000000
-35.043113 68.300922 -3.926880 6.00000000
-45.461568 59.875703 -51.990581 6.00000000
-45.627246 59.719097 -5.637044 6.00000000
-46.115098 59.257956 1.683169 6.00000000
-39.033934 65.432809 -33.583121 6.00000000
-42.207297 62.846298 -42.476847 6.00000000
-42.458205 62.633901 -49.558046 6.00000000
-43.492541 61.736919 -60.019736 6.00000000
-34.230943 68.848171 -8.855706 6.00000000
-37.530541 66.570248 -58.709017 6.00000000
-44.162019 61.104097 -1.464647 6.00000000
-45.919181 59.443146 -14.816243 6.00000000
-37.065529 66.922067 -32.338069 6.00000000
-36.199574 67.521688 -5.245358 6.00000000
-40.965306 63.897658 -24.347288 6.00000000
-39.311318 65.222946 -59.213876 6.00000000
-45.684320 59.665148 -0.470818 6.00000000
-36.359897 67.413660 1.787706 6.00000000
-42.096432 62.940146 -51.526996 6.00000000
-35.135279 68.238820 -39.494671 6.00000000
-38.347952 65.951810 -30.162595 6.00000000
-37.196909 66.822667 -17.526215 6.00000000
-36.706524 67.180099 -25.874110 6.00000000
-38.482708 65.849856 -32.832079 6.00000000
-43.114381 62.078440 -7.372931 6.00000000
-45.009846 60.302692 -52.636986 6.00000000
-44.630617 60.661157 -13.286441 6.00000000
-41.078253 63.802047 -46.536138 6.00000000
-43.306167 61.913088 -48.492498 6.00000000
-43.934544 61.319117 -22.818698 6.00000000
-44.455655 60.826539 -18.477039 6.00000000
-43.535386 61.696420 -22.097819 6.00000000
-39.073704 65.402720 -3.523468 6.00000000
-39.901470 64.776448 -18.228721 6.00000000
-44.084729 61.177155 -48.685505 6.00000000
-44.221199 61.048157 -42.075948 6.00000000
-41.519026 63.428928 -31.644399 6.00000000
-37.545039 66.559279 -52.389251 6.00000000
-41.101713 63.782188 -11.322989 6.00000000
-33.847083 69.106819 -45.472092 6.00000000
-33.578739 69.287633 -38.005038 6.00000000
-39.977622 64.718833 -45.150318 6.00000000
-46.037291 59.331502 -52.381396 6.00000000
-37.774053 66.386011 -20.246642 6.00000000
-37.670070 66.464682 -21.506822 6.00000000
-33.611310 69.265686 -36.955277 6.00000000
-45.083886 60.232705 -0.760566 6.00000000
-37.568267 66.541704 -26.300654 6.00000000
-44.875132 60.430030 -35.907524 6.00000000
-33.480672 69.353711 -18.139782 6.00000000
-42.480979 62.614623 -39.994813 6.00000000
-35.533753 67.970324 -4.825220 6.00000000
-36.270913 67.473618 -24.793589 6.00000000
-38.199847 66.063863 -25.896001 6.00000000
-41.376528 63.549553 -21.810906 6.00000000
-40.627773 64.183384 -7.172508 6.00000000
-43.316945 61.902900 -40.411335 6.00000000
-37.313138 66.734730 -33.152583 6.00000000
-42.723032 62.409722 -46.023208 6.00000000
-35.253751 68.158993 -10.560676 6.00000000
-38.864133 65.561277 -2.649555 6.00000000
-39.134201 65.356949 -50.026717 6.00000000
-39.318140 65.217784 3.664308 6.00000000
-34.271576 68.820792 -31.524385 6.00000000
-33.539047 69.314377 -28.703333 6.00000000
-44.013575 61.244414 -16.787404 6.00000000
-42.612854 62.502988 -45.035561 6.00000000
-40.894148 63.957894 -34.277283 6.00000000
-41.734648 63.246401 -27.665476 6.00000000
-37.809283 66.359357 -15.695464 6.00000000
-41.109666 63.775456 1.064405 6.00000000
-37.490585 66.600477 -49.530317 6.00000000
-43.061984 62.122795 -30.627976 6.00000000
-44.885003 60.420699 -58.415061 6.00000000
-36.346755 67.422515 -55.551361 6.00000000
-36.142067 67.560436 -57.957962 6.00000000
-44.352586 60.923964 -38.706891 6.00000000
-41.340645 63.579929 -5.105218 6.00000000
-44.529167 60.757052 -28.402940 6.00000000
-42.238738 62.819683 -18.881453 6.00000000
-45.681316 59.667987 -3.378300 6.00000000
-44.001557 61.255773 -51.660579 6.00000000
-36.422305 67.371609 -48.328608 6.00000000
-34.269037 68.822503 -32.908474 6.00000000
-37.922270 66.273873 -39.868196 6.00000000
-41.492716 63.451199 -2.452968 6.00000000
-40.791367 64.044900 -50.819338 6.00000000
-41.910702 63.097369 -56.178905 6.00000000
-41.796252 63.194252 -46.342860 6.00000000
-34.618814 68.586820 -50.795204 6.00000000
-35.663130 67.883149 -60.749629 6.00000000
-40.942071 63.917327 -9.629277 6.00000000
-43.461389 61.766365 -28.587549 6.00000000
-40.594442 64.211599 -56.597246 6.00000000
-43.898694 61.353004 -37.750973 6.00000000
-45.498329 59.840955 -29.533370 6.00000000
-46.139538 59.234854 -26.585695 6.00000000
-42.740734 62.394737 -11.682671 6.00000000
-44.474533 60.808695 -0.574642 6.00000000
-37.356276 66.702093 -50.463593 6.00000000
-46.005658 59.361404 -47.552633 6.00000000
-37.416614 66.656442 -44.626548 6.00000000
-42.859155 62.294492 -31.780199 6.00000000
-43.244472 61.968316 -33.578171 6.00000000
-45.434452 59.901334 -55.835131 6.00000000
-39.998176 64.703282 -20.791228 6.00000000
-40.264592 64.490821 -57.491175 6.00000000
-43.002628 62.173040 -55.419340 6.00000000
-42.707746 62.422661 0.507255 6.00000000
-40.036078 64.674606 -24.052900 6.00000000
-35.855176 67.753746 -40.290180 6.00000000
-35.567748 67.947418 1.879870 6.00000000
-43.667524 61.571517 -34.196591 6.00000000
-39.673434 64.948976 -10.562388 6.00000000
-42.156859 62.888994 -29.855086 6.00000000
-33.582227 69.285282 -27.877705 6.00000000
-40.005861 64.697468 -58.326957 6.00000000
-43.750048 61.493511 -35.557473 6.00000000
-45.766593 59.587379 -7.618192 6.00000000
-43.993517 61.263373 -9.542731 6.00000000
-37.944536 66.257027 -29.426656 6.00000000
-34.401416 68.733304 -46.071251 6.00000000
-46.239195 59.140654 -25.753634 6.00000000
-40.660825 64.155405 -37.346565 6.00000000
-40.213861 64.533765 -21.749773 6.00000000
-34.440944 68.706670 -39.878251 6.00000000
-36.857433 67.078415 -52.111842 6.00000000
-41.029192 63.843578 -12.795706 6.00000000
-35.284168 68.138497 -47.793212 6.00000000
-34.632060 68.577894 -0.319510 6.00000000
-36.730204 67.164143 -9.158082 6.00000000
-36.457014 67.348221 -35.780009 6.00000000
-45.976958 59.388532 -21.308399 6.00000000
-36.122527 67.573603 -47.577069 6.00000000
-33.798029 69.139873 1.087259 6.00000000
-42.682031 62.444430 -15.402153 6.00000000
-42.455739 62.635989 -24.937501 6.00000000
-34.385204 68.744228 -6.848285 6.00000000
-41.592500 63.366731 -35.611070 6.00000000
-35.225219 68.178218 -30.248096 6.00000000
-34.865191 68.420808 -14.495662 6.00000000
-44.912198 60.394993 -22.657659 6.00000000
-33.617576 69.261464 -24.944038 6.00000000
-39.244549 65.273462 0.662813 6.00000000
-33.493287 69.345211 -25.860016 6.00000000
-42.442228 62.647425 -37.353023 6.00000000
-35.553437 67.957061 -36.406732 6.00000000
-34.249063 68.835961 -59.425106 6.00000000
-41.664876 63.305463 -6.044659 6.00000000
-45.958837 59.405661 -54.186679 6.00000000
-37.340825 66.713783 -45.808012 6.00000000
-41.600951 63.359577 -4.109664 6.00000000
-41.582974 63.374795 -12.146177 6.00000000
-33.760361 69.165254 -41.616628 6.00000000
-35.937588 67.698216 -16.746397 6.00000000
-41.856136 63.143559 -39.537059 6.00000000
-41.895186 63.110503 -0.991095 6.00000000
-42.567844 62.541090 -48.293797 6.00000000
-36.950409 67.009165 -43.861265 6.00000000
-44.850600 60.453219 -11.263519 6.00000000
-42.150499 62.894378 -40.847640 6.00000000
-40.590896 64.214601 -36.523958 6.00000000
-40.287413 64.471503 -32.629203 6.00000000
-45.060803 60.254525 -57.498179 6.00000000
-40.163730 64.576202 -11.755302 6.00000000
-37.876416 66.308565 -53.288246 6.00000000
-43.698886 61.541872 -23.700635 6.00000000
-40.193553 64.550956 -1.913646 6.00000000
-36.612873 67.243202 -7.501686 6.00000000
-38.448329 65.875867 -16.160153 6.00000000
-41.090122 63.792000 -41.966825 6.00000000
-41.169809 63.724544 -15.785847 6.00000000
-36.581001 67.264678 -37.380585 6.00000000
-33.646565 69.241931 -4.997696 6.00000000
-39.982660 64.715022 -46.010765 6.00000000
-35.100561 68.262213 -37.766176 6.00000000
-35.903875 67.720932 -52.651964 6.00000000
-39.460277 65.110246 -26.932441 6.00000000
-44.340671 60.935227 -17.537699 6.00000000
-37.584177 66.529667 -0.830448 6.00000000
-40.060475 64.656148 -26.446904 6.00000000
-36.020063 67.642644 -59.119400 6.00000000
-36.182226 67.533376 -27.869665 6.00000000
-43.320235 61.899790 -49.357808 6.00000000
-45.391441 59.941990 -30.387671 6.00000000
-39.554975 65.038600 -32.386694 6.00000000
-41.259673 63.648473 -39.019962 6.00000000
-39.839996 64.822958 -41.705411 6.00000000
-34.401343 68.733354 -37.845367 6.00000000
-41.424196 63.509202 -51.489104 6.00000000
-39.415305 65.144271 -11.774658 6.00000000
-45.435309 59.900525 -39.256951 6.00000000
-38.752211 65.645956 -17.536917 6.00000000
-44.531762 60.754599 -23.393467 6.00000000
-44.434992 60.846070 -32.950928 6.00000000
-35.107735 68.257380 -40.450310 6.00000000
-38.796692 65.612302 -23.292351 6.00000000
-40.636182 64.176266 -31.357392 6.00000000
-40.381080 64.392212 -46.773382 6.00000000
-41.897586 63.108472 -44.829277 6.00000000
-45.406475 59.927780 -32.149585 6.00000000
-43.377083 61.846056 -25.832726 6.00000000
-38.869534 65.557191 1.526179 6.00000000
-39.216301 65.294834 -6.445828 6.00000000
-46.168011 59.207940 -29.078773 6.00000000
-36.999875 66.971739 -3.565083 6.00000000
-44.684303 60.610410 -10.185873 6.00000000
-35.620468 67.911895 -14.603164 6.00000000
-45.441834 59.894357 -46.742276 6.00000000
-36.691912 67.189945 -59.120875 6.00000000
-37.173210 66.840597 -24.733414 6.00000000
-44.235134 61.034985 -40.873388 6.00000000
-39.810740 64.845093 -22.699924 6.00000000
-39.187759 65.316428 -8.979112 6.00000000
-36.331095 67.433067 -60.900167 6.00000000
-42.028710 62.997474 -28.466664 6.00000000
-38.716001 65.673351 -59.638750 6.00000000
-41.020974 63.850534 -49.563992 6.00000000
-36.402485 67.384964 -45.437250 6.00000000
-38.315038 65.976712 -52.056822 6.00000000
-41.677915 63.294426 -53.163443 6.00000000
-35.910825 67.716249 -10.737092 6.00000000
-43.312492 61.907110 -37.326999 6.00000000
-39.845984 64.818427 1.168851 6.00000000
-34.184640 68.879370 -55.222325 6.00000000
-35.784697 67.801236 -3.800786 6.00000000
-44.559996 60.727911 -44.348394 6.00000000
-39.300290 65.231289 -46.233286 6.00000000
-34.450554 68.700195 -34.555671 6.00000000
-35.812442 67.782541 -8.116935 6.00000000
-36.917415 67.034127 -0.539636 6.00000000
-46.199900 59.177797 -36.725448 6.00000000
-33.549890 69.307071 -60.122366 6.00000000
-34.795465 68.467790 -60.220386 6.00000000
-38.281854 66.001819 -36.563341 6.00000000
-44.272479 60.999686 -4.111089 6.00000000
-38.049413 66.177679 -38.462025 6.00000000
-40.021339 64.685758 3.650636 6.00000000
-40.472900 64.314486 -29.980669 6.00000000
-40.905191 63.948546 -35.605951 6.00000000
-41.285319 63.626763 -47.618851 6.00000000
-40.126581 64.606133 -59.225752 6.00000000
-42.514379 62.586349 -30.948142 6.00000000
-36.255395 67.484075 -11.444855 6.00000000
-43.662156 61.576591 -36.595899 6.00000000
-42.792036 62.351309 -10.686712 6.00000000
-37.124603 66.877373 2.571522 6.00000000
-43.754223 61.489565 -30.803426 6.00000000
-36.598013 67.253215 -44.622887 6.00000000
-45.530639 59.810414 -50.441783 6.00000000
-39.237217 65.279009 -8.099752 6.00000000
-37.444047 66.635687 -41.811856 6.00000000
-38.073224 66.159664 -46.260136 6.00000000
-41.670862 63.300396 -17.642597 6.00000000
-40.148913 64.588745 -30.761257 6.00000000
-36.724332 67.168100 -38.417933 6.00000000
-46.032171 59.336342 -38.562798 6.00000000
-45.264990 60.061517 -41.603730 6.00000000
-43.263901 61.951870 -15.997463 6.00000000
-34.559168 68.627009 -17.461810 6.00000000
-43.032139 62.148059 -39.488330 6.00000000
-42.768138 62.371539 -23.430806 6.00000000
-45.543511 59.798247 -40.535244 6.00000000
-43.494189 61.735361 -6.587963 6.00000000
-33.469981 69.360915 -48.486846 6.00000000
-46.098090 59.274032 -30.554253 6.00000000
-42.072224 62.960639 -34.115239 6.00000000
-35.593978 67.929744 -25.074384 6.00000000
-45.526647 59.814187 -53.528415 6.00000000
-46.183910 59.192912 -19.144992 6.00000000
-39.199521 65.307529 -4.465071 6.00000000
-39.308199 65.225306 -15.760665 6.00000000
-41.181147 63.714946 3.160947 6.00000000
-45.333678 59.996591 1.610176 6.00000000
-34.636813 68.574692 -12.594792 6.00000000
-33.500828 69.340130 -15.299428 6.00000000
-38.219324 66.049127 -3.946734 6.00000000
-38.179339 66.079379 -35.110940 6.00000000
-40.277379 64.479997 -49.952009 6.00000000
-37.058725 66.927215 -5.562525 6.00000000
-40.587924 64.217116 -54.467324 6.00000000
-36.990105 66.979131 -51.168778 6.00000000
-42.999643 62.175567 3.459577 6.00000000
-42.348561 62.726716 -9.862626 6.00000000
-37.398382 66.670236 -23.757529 6.00000000
-40.657866 64.157909 -20.323589 6.00000000
-37.477776 66.610169 -28.491455 6.00000000
-43.695109 61.545442 -53.108270 6.00000000
-43.095463 62.094455 -1.996720 6.00000000
-44.609083 60.681512 -2.040905 6.00000000
-37.580901 66.532146 -34.767506 6.00000000
-37.143073 66.863399 -15.556868 6.00000000
-39.558014 65.036300 -13.614376 6.00000000
-37.509825 66.585921 -2.020886 6.00000000
-35.572044 67.944523 -38.457349 6.00000000
-36.723481 67.168673 -12.711786 6.00000000
-36.943153 67.014654 -36.527937 6.00000000
-46.125385 59.248232 -58.938840 6.00000000
-41.012412 63.857782 -27.011165 6.00000000
-38.017412 66.201890 -23.310246 6.00000000
-44.855205 60.448866 0.993986 6.00000000
-43.144412 62.053018 -21.322145 6.00000000
-39.619998 64.989404 -55.366718 6.00000000
-42.398531 62.684416 2.563375 6.00000000
-45.142046 60.177730 -8.756587 6.00000000
-43.332482 61.888214 -46.279310 6.00000000
-37.366173 66.694605 -48.249742 6.00000000
-42.677312 62.448424 -50.714849 6.00000000
-46.060305 59.309749 -23.109404 6.00000000
-37.882563 66.303915 -27.421039 6.00000000
-46.076256 59.294672 -22.150893 6.00000000
-37.567465 66.542312 0.725530 6.00000000
-40.561030 64.239883 -25.307302 6.00000000
-38.865395 65.560323 -54.092907 6.00000000
-38.202727 66.061685 -44.428592 6.00000000
-42.827320 62.321441 -40.946330 6.00000000
-41.933137 63.078377 -57.948119 6.00000000
-35.944112 67.693821 -22.444193 6.00000000
-42.450404 62.640505 -46.754428 6.00000000
-42.109227 62.929315 -47.464301 6.00000000
-39.154371 65.341689 -9.906485 6.00000000
-37.189138 66.828546 -4.595257 6.00000000
-42.922962 62.240478 -27.882088 6.00000000
-43.120698 62.073093 -0.338200 6.00000000
-43.414987 61.810227 1.098862 6.00000000
-39.574293 65.023984 -34.685329 6.00000000
-43.680334 61.559409 2.682577 6.00000000
-40.508130 64.284663 -55.560502 6.00000000
-35.016441 68.318895 -21.630441 6.00000000
-42.729163 62.404532 -1.229806 6.00000000
-40.272472 64.484150 -9.955348 6.00000000
-42.806543 62.339029 -19.597318 6.00000000
-44.441386 60.840027 0.251294 6.00000000
-43.159729 62.040052 -35.338229 6.00000000
-44.398934 60.880154 -7.994003 6.00000000
-34.696645 68.534376 -18.560732 6.00000000
-42.885888 62.271863 -34.354584 6.00000000
-37.169244 66.843598 -42.923896 6.00000000
-35.429700 68.040436 -18.959890 6.00000000
-39.463806 65.107577 -1.086815 6.00000000
-41.400756 63.529044 -33.145266 6.00000000
-33.760132 69.165408 -52.423650 6.00000000
-44.223345 61.046129 -12.446984 6.00000000
-36.969989 66.994350 -53.703902 6.00000000
-42.541384 62.563489 -8.276758 6.00000000
-38.461547 65.865866 -8.001123 6.00000000
-37.628041 66.496481 -19.240289 6.00000000
-45.532869 59.808306 -58.064826 6.00000000
-38.885599 65.545037 -58.326580 6.00000000
-39.984508 64.713623 -37.299249 6.00000000
-41.305738 63.609478 -30.190135 6.00000000
-33.575237 69.289992 -17.030572 6.00000000
-34.528532 68.647652 -10.769948 6.00000000
-33.486871 69.349534 -8.465421 6.00000000
-43.924632 61.328486 -49.529375 6.00000000
-44.704632 60.591194 -47.388111 6.00000000
-44.424555 60.855936 -36.669753 6.00000000
-33.576457 69.289170 -3.877599 6.00000000
-37.153202 66.855735 -60.580011 6.00000000
-46.208050 59.170094 -2.788973 6.00000000
-45.608853 59.736483 -15.957645 6.00000000
-44.539675 60.747119 -8.890964 6.00000000
-38.616226 65.748839 -25.101210 6.00000000
-36.121238 67.574471 -54.342099 6.00000000
-43.257290 61.957466 -54.402596 6.00000000
-43.030718 62.149262 -53.643642 6.00000000
-44.427811 60.852858 -53.174024 6.00000000
-37.215528 66.808580 -31.472317 6.00000000
-40.571620 64.230918 -45.767393 6.00000000
-40.823941 64.017325 -44.009692 6.00000000
-38.840806 65.578926 2.603917 6.00000000
-44.925839 60.382099 -27.555028 6.00000000
-45.623605 59.722538 -45.834900 6.00000000
-37.841361 66.335087 -17.680381 6.00000000
-40.941735 63.917611 -23.547686 6.00000000
-33.830906 69.117720 -6.079796 6.00000000
-35.438295 68.034645 -17.669887 6.00000000
-45.272797 60.054139 -36.644088 6.00000000
-41.615634 63.347148 0.048101 6.00000000
-38.044990 66.181025 -42.565967 6.00000000
-43.372296 61.850580 -56.300423 6.00000000
-44.215315 61.053719 -60.028343 6.00000000
-43.232011 61.978865 -9.900531 6.00000000
-39.218984 65.292804 -60.205458 6.00000000
-37.565716 66.543635 -9.500122 6.00000000
-35.265968 68.150761 -34.860675 6.00000000
-40.320498 64.443496 -43.370890 6.00000000
-36.368227 67.408048 -15.226779 6.00000000
-43.093478 62.096134 -14.661025 6.00000000
-33.544658 69.310596 -51.165934 6.00000000
-34.509020 68.660800 1.294919 6.00000000
-43.862812 61.386922 -15.955123 6.00000000
-34.496732 68.669080 -15.154517 6.00000000
-38.718755 65.671267 -50.986935 6.00000000
-40.395476 64.380026 -39.573566 6.00000000
-44.176556 61.090356 -45.094010 6.00000000
-45.284802 60.042790 -14.643148 6.00000000
-37.411116 66.660602 -55.550362 6.00000000
-45.401280 59.932690 -23.447671 6.00000000
-39.242338 65.275135 -24.238471 6.00000000
-33.537801 69.315217 -20.196696 6.00000000
-43.253692 61.960512 -29.548571 6.00000000
-35.261356 68.153868 -11.624238 6.00000000
-43.341934 61.879280 -50.313389 6.00000000
-42.370445 62.708191 -13.664496 6.00000000
-37.293381 66.749678 -38.823763 6.00000000
-43.425716 61.800085 -5.653255 6.00000000
-43.662472 61.576293 -41.130172 6.00000000
-42.393753 62.688461 -0.312736 6.00000000
-37.370546 66.691297 -22.485810 6.00000000
-37.851190 66.327650 -31.028608 6.00000000
-44.793461 60.507229 -20.169851 6.00000000
-39.216499 65.294684 -39.546537 6.00000000
-40.303866 64.457575 -44.416913 6.00000000
-43.109751 62.082359 -60.853721 6.00000000
-39.242155 65.275273 -43.185412 6.00000000
-39.274029 65.251158 -7.259445 6.00000000
-45.189014 60.133334 -9.626916 6.00000000
-36.172827 67.539710 -29.897250 6.00000000
-40.206113 64.540324 -49.082060 6.00000000
-38.169147 66.087091 -54.118982 6.00000000
-42.838480 62.311994 -56.711046 6.00000000
-37.340148 66.714295 -57.118833 6.00000000
-42.730541 62.403365 -36.257896 6.00000000
-41.273341 63.636903 -36.446835 6.00000000
-41.805958 63.186036 -59.922821 6.00000000
-39.101625 65.381595 -21.254507 6.00000000
-35.099259 68.263091 0.601945 6.00000000
-41.375828 63.550146 -43.571739 6.00000000
-42.066893 62.965151 -23.073291 6.00000000
-41.618847 63.344427 -10.169331 6.00000000
-45.145809 60.174173 -6.912297 6.00000000
-38.609469 65.753951 -41.744429 6.00000000
-38.895668 65.537418 -35.403475 6.00000000
-40.247895 64.504955 -15.632082 6.00000000
-43.481781 61.747090 -31.909543 6.00000000
-36.578207 67.266560 -49.926327 6.00000000
-39.682243 64.942311 -0.062397 6.00000000
-40.480843 64.307762 -41.988767 6.00000000
-36.161416 67.547398 -1.160009 6.00000000
-38.923884 65.516071 -12.412698 6.00000000
-43.671562 61.567700 -4.031450 6.00000000
-43.766935 61.477549 -56.904028 6.00000000
-41.650630 63.317523 -8.263264 6.00000000
-38.113023 66.129553 -55.547939 6.00000000
-41.345867 63.575508 -45.705334 6.00000000
-38.663714 65.712911 -57.163191 6.00000000
-44.374881 60.902890 -39.607070 6.00000000
-36.144193 67.559003 -50.994408 6.00000000
-41.741246 63.240816 -11.264361 6.00000000
-44.593209 60.696517 -32.038473 6.00000000
-43.773059 61.471760 -20.696173 6.00000000
-33.583584 69.284368 0.057179 6.00000000
-39.396778 65.158288 -19.066948 6.00000000
-34.497105 68.668828 -3.202129 6.00000000
-45.929409 59.433478 -48.585466 6.00000000
-36.357475 67.415292 -59.850284 6.00000000
-43.824272 61.423352 -8.599272 6.00000000
-45.951293 59.412792 0.530110 6.00000000
-46.228697 59.150577 -12.471947 6.00000000
-37.561485 66.546836 -13.285332 6.00000000
-39.530302 65.057267 -2.233101 6.00000000
-42.220797 62.834870 -19.849232 6.00000000
-43.872820 61.377462 -47.768781 6.00000000
-39.700760 64.928301 -19.829458 6.00000000
-34.003802 69.001221 -38.793727 6.00000000
-36.258768 67.481802 -20.085263 6.00000000
-34.885774 68.406939 -29.288958 6.00000000
-41.912676 63.095698 3.692013 6.00000000
-43.455521 61.771912 1.933741 6.00000000
-46.173902 59.202372 -15.680277 6.00000000
-46.028588 59.339729 2.909452 6.00000000
-44.701235 60.594406 -3.006807 6.00000000
-33.631745 69.251916 -57.098280 6.00000000
-41.636322 63.329635 -49.947501 6.00000000
-42.611605 62.504046 -16.474326 6.00000000
-39.877426 64.794639 -53.578813 6.00000000
-35.399658 68.060679 -56.902917 6.00000000
-38.644945 65.727111 3.430941 6.00000000
-44.351675 60.924825 -14.187562 6.00000000
-37.748215 66.405560 -8.502100 6.00000000
-35.409804 68.053842 -12.737617 6.00000000
-40.964748 63.898131 -19.365213 6.00000000
-40.193755 64.550785 -40.672880 6.00000000
-39.489868 65.087858 -17.152981 6.00000000
-42.013883 63.010025 -25.573930 6.00000000
-35.973323 67.674137 -39.333942 6.00000000
-34.845869 68.433828 -13.352873 6.00000000
-33.515561 69.330203 -47.600459 6.00000000
-43.633552 61.603629 -38.850914 6.00000000
-38.405257 65.908454 -20.033692 6.00000000
-43.829851 61.418078 -2.964453 6.00000000
-39.089677 65.390635 -20.429640 6.00000000
-45.652937 59.694812 -33.976716 6.00000000
-41.776206 63.211221 -37.219785 6.00000000
-39.891552 64.783952 -56.262489 6.00000000
-37.701521 66.440888 -32.049473 6.00000000
-36.687914 67.192639 -49.147647 6.00000000
-44.662327 60.631183 -14.969190 6.00000000
-45.151499 60.168795 -1.568029 6.00000000
-42.580855 62.530076 -6.161354 6.00000000
-38.081763 66.153204 -7.069639 6.00000000
-37.678512 66.458296 -51.261651 6.00000000
-33.596224 69.275851 -21.647088 6.00000000
-40.940863 63.918349 -29.335458 6.00000000
-41.669274 63.301740 -58.654390 6.00000000
-42.649481 62.471983 -57.704670 6.00000000
-36.827114 67.098845 -28.011040 6.00000000
-38.659343 65.716218 -5.630340 6.00000000
-39.832507 64.828624 -36.302121 6.00000000
-34.124862 68.919649 -13.336434 6.00000000
-42.847485 62.304371 -51.673289 6.00000000
-46.049350 59.320105 -51.089782 6.00000000
-45.537820 59.803626 -27.188880 6.00000000
-38.485509 65.847737 -10.333701 6.00000000
-38.897855 65.535764 -0.680663 6.00000000
-42.866363 62.288391 -22.258189 6.00000000
-38.367346 65.937137 -48.871228 6.00000000
-33.651136 69.238851 -32.314329 6.00000000
-42.386583 62.694530 -53.419228 6.00000000
-44.399149 60.879951 -57.991349 6.00000000
-36.684950 67.194636 -39.335732 6.00000000
-33.614390 69.263610 -34.748770 6.00000000
-44.446375 60.835311 1.653425 6.00000000
-35.356340 68.089867 -54.248493 6.00000000
-42.872723 62.283007 -18.647853 6.00000000
-33.727013 69.187724 -35.577881 6.00000000
-39.626333 64.984612 -46.950014 6.00000000
-42.934575 62.230648 -9.046336 6.00000000
-46.201240 59.176530 -32.329233 6.00000000
-37.317913 66.731118 -7.674250 6.00000000
-42.951371 62.216430 -47.520445 6.00000000
-35.248351 68.162631 -31.295426 6.00000000
-42.160668 62.885770 -32.176088 6.00000000
-41.664827 63.305505 -19.411038 6.00000000
-44.937616 60.370967 -49.157899 6.00000000
-33.526314 69.322957 -23.495764 6.00000000
-37.102136 66.894371 -11.750255 6.00000000
-38.628646 65.739443 -27.898331 6.00000000
-41.095304 63.787613 -38.048255 6.00000000
-34.354094 68.765190 -36.984470 6.00000000
-45.940436 59.423055 -16.867672 6.00000000
-37.119727 66.881061 -29.402320 6.00000000
-41.808519 63.183868 -14.976167 6.00000000
-37.006865 66.966451 -14.504254 6.00000000
-41.631556 63.333669 -9.143848 6.00000000
-44.916144 60.391263 -61.110003 6.00000000
-41.505565 63.440322 -26.262884 6.00000000
-37.340112 66.714322 -40.374687 6.00000000
-36.329772 67.433958 -4.435563 6.00000000
-35.419396 68.047380 -2.965412 6.00000000
-45.524109 59.816586 -26.268850 6.00000000
-38.334204 65.962211 -47.868071 6.00000000
-37.265847 66.770510 -20.782956 6.00000000
-46.257094 59.123735 -34.170955 6.00000000
-35.257157 68.156698 -1.383220 6.00000000
-42.513194 62.587352 -44.205160 6.00000000
-40.819667 64.020943 -27.955343 6.00000000
-44.340247 60.935627 -50.261551 6.00000000
-39.543259 65.047463 -25.771529 6.00000000
-40.316721 64.446693 -0.916221 6.00000000
-44.479801 60.803715 -31.062019 6.00000000
-36.647190 67.220079 -41.836920 6.00000000
-42.160603 62.885825 -22.034726 6.00000000
-43.196859 62.008621 -44.186628 6.00000000
-38.321091 65.972133 -11.810211 6.00000000
-40.344679 64.423026 -28.859718 6.00000000
-40.684764 64.135140 -58.338466 6.00000000
-38.009274 66.208047 -24.245677 6.00000000
-34.567681 68.621273 -30.435078 6.00000000
-39.519387 65.065525 -29.039184 6.00000000
-38.859825 65.564537 -13.547265 6.00000000
-34.311779 68.793703 -23.360424 6.00000000
-34.365654 68.757401 0.442435 6.00000000
-45.019781 60.293301 2.359343 6.00000000
-34.892511 68.402400 -43.397029 6.00000000
-40.364996 64.405828 -14.699742 6.00000000
-43.056285 62.127619 -32.602161 6.00000000
-41.180323 63.715643 -48.587753 6.00000000
-36.254940 67.484382 -0.312234 6.00000000
-45.652860 59.694885 -17.558092 6.00000000
-33.983049 69.015204 -27.230424 6.00000000
-34.617910 68.587429 -7.686334 6.00000000
-40.842689 64.001455 2.395568 6.00000000
-35.812094 67.782775 -2.044798 6.00000000
-39.389976 65.163435 -49.138952 6.00000000
-42.199342 62.853032 1.392108 6.00000000
-41.234440 63.669833 -61.085166 6.00000000
-41.541339 63.410039 -34.672021 6.00000000
-42.269896 62.793307 -33.047108 6.00000000
-39.746917 64.893380 -48.417242 6.00000000
-38.888796 65.542618 -55.101127 6.00000000
-39.896205 64.780431 -60.307521 6.00000000
-46.085199 59.286218 -39.676263 6.00000000
-37.271466 66.766258 -46.667185 6.00000000
-44.677225 60.617100 -54.396527 6.00000000
-35.619630 67.912459 -23.386365 6.00000000
-40.827832 64.014031 -21.142678 6.00000000
-36.179197 67.535418 -31.689923 6.00000000
-44.630902 60.660888 -55.701827 6.00000000
-33.482196 69.352684 -30.965613 6.00000000
-46.154850 59.220381 -27.808562 6.00000000
-38.142797 66.107026 -2.419085 6.00000000
-45.922709 59.439811 -56.419492 6.00000000
-44.755813 60.542816 -24.904622 6.00000000
-41.924230 63.085917 -16.619484 6.00000000
-35.331096 68.106876 -19.747167 6.00000000
-33.794228 69.142434 -22.604401 6.00000000
-45.000541 60.311487 -17.303651 6.00000000
-34.716535 68.520974 -38.604960 6.00000000
-36.155373 67.551471 3.771074 6.00000000
-33.558359 69.301365 -39.501533 6.00000000
-37.736236 66.414622 -6.127637 6.00000000
-46.220538 59.158289 -43.153416 6.00000000
-37.939251 66.261025 -18.497809 6.00000000
-43.193486 62.011476 -52.503313 6.00000000
-34.749601 68.498694 -20.432618 6.00000000
-42.148917 62.895717 -7.630609 6.00000000
-39.338797 65.202156 -5.382359 6.00000000
-36.229756 67.501350 -30.850782 6.00000000
-44.125409 61.138703 -27.331633 6.00000000
-44.290762 60.982403 2.718980 6.00000000
-45.083370 60.233194 -5.126820 6.00000000
-35.297749 68.129346 -45.975471 6.00000000
-33.542571 69.312003 -33.287861 6.00000000
-38.443627 65.879424 0.667317 6.00000000
-45.799010 59.556737 -9.250979 6.00000000
-36.243113 67.492350 -9.949675 6.00000000
-44.814951 60.486915 -26.454471 6.00000000
-42.284125 62.781262 -35.104400 6.00000000
-42.797770 62.346455 -28.776067 6.00000000
-36.804285 67.114227 -23.108104 6.00000000
-36.691322 67.190343 -57.387151 6.00000000
-42.740943 62.394560 -43.148673 6.00000000
-43.360697 61.861544 -12.229926 6.00000000
-43.576396 61.657656 -45.543875 6.00000000
-34.414789 68.724294 -19.415538 6.00000000
-44.006806 61.250812 -32.317156 6.00000000
-38.584943 65.772507 -15.099647 6.00000000
-36.959760 67.002089 -30.423710 6.00000000
-33.555994 69.302958 -53.284077 6.00000000
-43.996377 61.260670 0.998786 6.00000000
-39.641112 64.973430 -30.101336 6.00000000
-35.063139 68.287429 -26.960548 6.00000000
-37.099865 66.896089 1.588479 6.00000000
-40.772054 64.061248 -2.643556 6.00000000
-46.108320 59.264363 -46.653018 6.00000000
-33.880507 69.084298 -9.756750 6.00000000
-35.605687 67.921855 -51.759092 6.00000000
-36.826412 67.099318 -13.536926 6.00000000
-37.904519 66.287303 -4.736481 6.00000000
-39.944376 64.743986 -7.789023 6.00000000
-41.252405 63.654625 -22.712441 6.00000000
-36.879899 67.062511 -56.252854 6.00000000
-40.549811 64.249380 -38.597730 6.00000000
-36.729514 67.164608 -18.566073 6.00000000
-41.068445 63.810350 -53.382058 6.00000000
-36.421384 67.372229 -43.266625 6.00000000
-36.836491 67.092526 -54.968253 6.00000000
-36.550147 67.285467 -40.756765 6.00000000
-33.467218 69.362776 3.093898 6.00000000
-33.880781 69.084114 -11.466718 6.00000000
-41.575163 63.381407 -24.865621 6.00000000
-34.116503 68.925282 -42.986405 6.00000000
-34.676993 68.547618 -16.647890 6.00000000
-38.218806 66.049519 -1.457604 6.00000000
-40.332247 64.433550 -23.178461 6.00000000
-35.954611 67.686746 -9.093178 6.00000000
-38.551942 65.797475 -45.370911 6.00000000
-41.685709 63.287828 -29.193899 6.00000000
-44.270473 61.001581 -43.249440 6.00000000
-46.074260 59.296558 -4.251076 6.00000000
-43.623125 61.613485 -11.382243 6.00000000
-42.179394 62.869918 -54.922672 6.00000000
-42.852733 62.299928 -38.086987 6.00000000
-44.113665 61.149804 -6.126972 6.00000000
-39.399329 65.156358 -52.880167 6.00000000
-40.862758 63.984466 -8.539040 6.00000000
-36.727997 67.165631 -21.751725 6.00000000
-40.447826 64.335711 1.660611 6.00000000
-38.595482 65.764533 -39.138973 6.00000000
-37.075635 66.914421 -6.764274 6.00000000
-40.748740 64.080984 -22.263709 6.00000000
-40.965801 63.897239 -17.692651 6.00000000
-42.069893 62.962612 -57.079727 6.00000000
-35.572932 67.943925 -20.723846 6.00000000
-45.215843 60.107973 -55.055804 6.00000000
-39.859244 64.808395 -38.400661 6.00000000
-38.067778 66.163784 -50.543691 6.00000000
-35.786547 67.799989 -42.710673 6.00000000
-33.625357 69.256221 -14.448256 6.00000000
-34.978639 68.344365 -48.741664 6.00000000
-38.848915 65.572791 -38.358736 6.00000000
-42.376574 62.703003 -12.346176 6.00000000
-45.547001 59.794948 -42.488898 6.00000000
-44.517630 60.767957 -19.342836 6.00000000
-36.180837 67.534313 -34.176980 6.00000000
-42.602927 62.511392 -59.215869 6.00000000
-43.692694 61.547725 -2.040695 6.00000000
-44.294870 60.978521 -22.005576 6.00000000
-41.600066 63.360326 -54.098386 6.00000000
-33.992105 69.009102 -44.270772 6.00000000
-33.927060 69.052930 -15.901634 6.00000000
-42.663800 62.459862 -3.307685 6.00000000
-41.296359 63.617417 -44.764485 6.00000000
-35.290232 68.134411 -50.656245 6.00000000
-39.811537 64.844490 -42.523437 6.00000000
-46.031340 59.337128 -24.173044 6.00000000
-44.101378 61.161418 -19.935405 6.00000000
-44.811536 60.490143 -6.015356 6.00000000
-35.473038 68.011235 -0.206500 6.00000000
-38.529141 65.814726 -19.109949 6.00000000
-40.392553 64.382500 -18.920341 6.00000000
-35.206233 68.191011 3.016113 6.00000000
-34.737707 68.506708 -9.607316 6.00000000
-34.237645 68.843655 -53.707009 6.00000000
-38.424273 65.894067 -43.615803 6.00000000
-45.388882 59.944409 -59.556662 6.00000000
-37.286147 66.755152 -35.587077 6.00000000
-36.780503 67.130252 -24.100472 6.00000000
-40.223430 64.525665 -17.254199 6.00000000
-34.674327 68.549414 -58.642175 6.00000000
-35.452117 68.025332 -56.084848 6.00000000
-38.605753 65.756763 -31.551160 6.00000000
-43.325427 61.894883 -17.481370 6.00000000
-44.344058 60.932026 -56.622280 6.00000000
-36.566215 67.274641 -17.150537 6.00000000
-41.580365 63.377003 -40.448859 6.00000000
-44.822087 60.480170 -42.390657 6.00000000
-39.779694 64.868581 -31.573369 6.00000000
-35.789927 67.797712 -49.954441 6.00000000
-36.071614 67.607908 -12.969404 6.00000000
-33.923709 69.055188 -0.768140 6.00000000
-44.464883 60.817816 -51.118644 6.00000000
-45.754235 59.599060 -1.363298 6.00000000
-41.649216 63.318720 1.938819 6.00000000
-42.204110 62.848996 -2.133264 6.00000000
-39.064187 65.409921 -14.430519 6.00000000
-35.954597 67.686755 -26.103988 6.00000000
-45.316153 60.013156 -10.775466 6.00000000
-34.939880 68.370482 -8.657127 6.00000000
-38.146251 66.104413 -37.350681 6.00000000
-38.029253 66.192931 1.707595 6.00000000
-40.309413 64.452879 -5.854475 6.00000000
-40.832371 64.010189 -26.038260 6.00000000
-44.012445 61.245482 -46.573395 6.00000000
-38.081318 66.153540 -11.066741 6.00000000
-36.780494 67.130258 -34.766761 6.00000000
-43.465635 61.762352 -27.172981 6.00000000
-45.809568 59.546758 -43.854444 6.00000000
-43.590771 61.644068 -10.539163 6.00000000
-41.266797 63.642442 -56.437604 6.00000000
-42.145495 62.898613 -15.845229 6.00000000
-41.034260 63.839288 -32.226094 6.00000000
-41.377682 63.548577 -20.304865 6.00000000
-41.642397 63.324492 -13.872947 6.00000000
-39.889240 64.785701 -8.817528 6.00000000
-33.470538 69.360539 -3.022600 6.00000000
-44.074525 61.186801 -24.549047 6.00000000
-42.063211 62.968268 -5.259327 6.00000000
-37.762258 66.394935 -54.807158 6.00000000
-35.388632 68.068108 -32.307702 6.00000000
-41.724129 63.255305 -41.669478 6.00000000
-40.109654 64.618940 2.619353 6.00000000
-39.057001 65.415357 -11.019582 6.00000000
-38.270998 66.010032 -58.728717 6.00000000
-45.136631 60.182848 -7.845285 6.00000000
-37.661849 66.470903 -10.346121 6.00000000
-34.122198 68.921444 -49.818800 6.00000000
-35.175201 68.211920 -6.534510 6.00000000
-44.990283 60.321183 -60.315385 6.00000000
-41.964662 63.051691 -48.994800 6.00000000
-43.840930 61.407605 -0.412907 6.00000000
-33.846107 69.107477 -7.478815 6.00000000
-44.003216 61.254205 -5.124443 6.00000000
-45.040531 60.273687 -34.360136 6.00000000
-36.291120 67.460003 -32.707696 6.00000000
-39.706909 64.923649 1.949138 6.00000000
-33.482348 69.352582 -42.585386 6.00000000
-33.703788 69.203373 -19.104352 6.00000000
-41.572368 63.383773 -42.798828 6.00000000
-45.032119 60.281639 -18.581771 6.00000000
-38.614237 65.750344 -53.159749 6.00000000
-43.216519 61.991979 -41.848135 6.00000000
-38.744442 65.651833 -28.740349 6.00000000
-38.949383 65.496779 -52.195957 6.00000000
-36.983046 66.984472 -26.780121 6.00000000
-44.332407 60.943038 -35.492348 6.00000000
-39.453285 65.115536 -44.136729 6.00000000
-39.018506 65.444481 -56.392127 6.00000000
-35.727123 67.840030 -44.116010 6.00000000
-34.589756 68.606399 -1.192101 6.00000000
-43.742623 61.500530 3.703879 6.00000000
-38.108072 66.133299 2.698498 6.00000000
-39.257127 65.263946 -18.103895 6.00000000
-45.300214 60.028222 -13.801914 6.00000000
-35.955860 67.685904 -48.931046 6.00000000
-34.850389 68.430782 -53.053512 6.00000000
-41.418800 63.513770 -57.308429 6.00000000
-45.758228 59.595286 -31.324484 6.00000000
-33.688221 69.213862 -12.511473 6.00000000
-42.973172 62.197975 -4.901302 6.00000000
-37.030727 66.948398 -10.927332 6.00000000
-34.261158 68.827812 -40.856448 6.00000000
-37.912621 66.281173 -33.717150 6.00000000
-39.062565 65.411148 -36.568595 6.00000000
-35.705283 67.854746 -44.898771 6.00000000
-36.670226 67.204558 -2.472199 6.00000000
-35.605348 67.922083 -33.434309 6.00000000
-46.113890 59.259098 -18.335467 6.00000000
-36.997428 66.973590 -47.513892 6.00000000
-43.285874 61.932270 -24.435584 6.00000000
-42.770361 62.369657 1.768021 6.00000000
-39.966615 64.727161 -16.462407 6.00000000
-36.285487 67.463798 -14.264747 6.00000000
-41.845477 63.152582 -21.015243 6.00000000
-45.309181 60.019747 -44.480238 6.00000000
-46.246246 59.133989 -42.144637 6.00000000
-35.818095 67.778732 -7.219831 6.00000000
-44.839500 60.463711 -29.408380 6.00000000
-44.613133 60.677683 -16.170013 6.00000000
-39.117236 65.369784 -42.335297 6.00000000
-34.359974 68.761228 -22.020842 6.00000000
-41.757517 63.227042 -6.934489 6.00000000
-37.585315 66.528807 -59.644970 6.00000000
-46.227725 59.151496 -10.385045 6.00000000
-35.016773 68.318671 -23.683291 6.00000000
-46.246117 59.134110 -57.288629 6.00000000
-40.078830 64.642261 -2.915138 6.00000000
-45.338257 59.992262 -2.590879 6.00000000
-35.858600 67.751439 -41.837508 6.00000000
-34.209290 68.862761 -47.865057 6.00000000
-34.370624 68.754053 -25.005257 6.00000000
-45.165246 60.155800 -12.721519 6.00000000
-45.032646 60.281140 0.087165 6.00000000
-42.947092 62.220052 -4.007225 6.00000000
-34.155972 68.898687 3.810339 6.00000000
-44.248381 61.022464 -11.519826 6.00000000
-44.837619 60.465488 -40.676376 6.00000000
-45.651451 59.696216 -37.409617 6.00000000
-38.281153 66.002349 -0.260949 6.00000000
-46.207449 59.170662 -13.330555 6.00000000
-33.583819 69.284210 -1.479242 6.00000000
-45.930697 59.432261 -11.642866 6.00000000
-40.800170 64.037448 -13.909516 6.00000000
-36.261826 67.479742 -18.014341 6.00000000
-44.387187 60.891258 -34.085149 6.00000000
-41.611272 63.350840 -55.382328 6.00000000
-34.342709 68.772862 -28.693315 6.00000000
-34.811965 68.456672 -49.913283 6.00000000
-40.941892 63.917479 -40.068041 6.00000000
-35.479189 68.007090 -59.685474 6.00000000
-33.702804 69.204037 -60.981724 6.00000000
-34.756816 68.493832 -5.064453 6.00000000
-43.920578 61.332318 -55.848475 6.00000000
-46.136481 59.237744 -35.282698 6.00000000
-40.579672 64.224102 -52.552036 6.00000000
-33.720785 69.191920 -46.388741 6.00000000
-38.892335 65.539941 -40.896543 6.00000000
-36.217395 67.509679 0.800253 6.00000000
-39.304163 65.228359 -47.813248 6.00000000
-40.543187 64.254987 -33.582274 6.00000000
-39.861770 64.806484 -6.753448 6.00000000
-36.077913 67.603664 -35.100849 6.00000000
-33.867139 69.093306 2.199228 6.00000000
-41.108319 63.776596 -16.764195 6.00000000
-43.253316 61.960830 -8.274542 6.00000000
-38.595972 65.764162 -46.970991 6.00000000
-35.882636 67.735243 -6.212107 6.00000000
-39.717465 64.915662 -14.932457 6.00000000
-38.541608 65.805293 -49.694988 6.00000000
-39.443759 65.122743 -40.402701 6.00000000
-37.002588 66.969687 -16.469332 6.00000000
-42.676861 62.448806 -25.768856 6.00000000
-38.320008 65.972952 -20.999383 6.00000000
-34.369017 68.755135 -2.287617 6.00000000
-44.722023 60.574756 -37.491292 6.00000000
-36.231226 67.500360 -26.936010 6.00000000
-45.692606 59.657315 -35.928885 6.00000000
-35.104556 68.259522 -28.043998 6.00000000
-33.674834 69.222883 -58.816258 6.00000000
-34.886438 68.406492 2.113735 6.00000000
-35.956675 67.685355 2.596538 6.00000000
-34.865043 68.420908 -22.637199 6.00000000
-35.067572 68.284442 -55.133618 6.00000000
-34.255129 68.831874 -48.742838 6.00000000
-37.638347 66.488683 -25.366525 6.00000000
-41.852839 63.146351 -52.333285 6.00000000
-42.639123 62.480752 -20.690379 6.00000000
-46.242425 59.137601 -53.395918 6.00000000
-44.198807 61.069324 -26.248264 6.00000000
-36.952985 67.007215 0.506776 6.00000000
-43.549516 61.683063 -43.530371 6.00000000
-46.256911 59.123908 -33.311672 6.00000000
-37.175264 66.839044 -19.887311 6.00000000
-37.611578 66.508937 3.675445 6.00000000
-35.341989 68.099537 -16.031543 6.00000000
-39.147217 65.347101 -30.802316 6.00000000
-46.051925 59.317670 -6.781858 6.00000000
-44.038154 61.221180 -7.241219 6.00000000
-37.595100 66.521403 -36.302208 6.00000000
-39.867610 64.802066 -3.795119 6.00000000
-40.344173 64.423454 -27.178363 6.00000000
-46.181054 59.195611 -50.102449 6.00000000
-40.263039 64.492136 -35.528427 6.00000000
-46.098046 59.274075 -44.919615 6.00000000
-43.082721 62.105241 -13.505259 6.00000000
-37.692828 66.447464 -16.623052 6.00000000
-40.951155 63.909637 -3.661102 6.00000000
-44.992176 60.319394 -45.353707 6.00000000
-37.679102 66.457849 -43.676531 6.00000000
-46.077831 59.293183 -55.346542 6.00000000
-42.535072 62.568832 -52.528320 6.00000000
-43.427655 61.798253 -19.273491 6.00000000
-39.771594 64.874710 -50.674277 6.00000000
-39.755297 64.887040 -51.611066 6.00000000
-39.338191 65.202614 -57.666861 6.00000000
-43.254886 61.959501 -59.040436 6.00000000
-46.231517 59.147911 -20.036746 6.00000000
-42.708355 62.422146 -26.753876 6.00000000
-40.863432 63.983895 -1.616545 6.00000000
-42.672459 62.452533 -17.622744 6.00000000
-45.040615 60.273608 -38.501304 6.00000000
-45.475033 59.862976 -20.242715 6.00000000
-44.066140 61.194726 -59.024963 6.00000000
-38.921456 65.517908 -37.488431 6.00000000
-45.443769 59.892528 -22.140879 6.00000000
-34.603251 68.597306 -57.708232 6.00000000
-38.945029 65.500073 -22.318808 6.00000000
-46.253982 59.126677 -8.561027 6.00000000
-43.523123 61.708011 -18.460485 6.00000000
-42.419545 62.666627 -39.160289 6.00000000
-38.761583 65.638865 -26.519427 6.00000000
-34.591289 68.605366 -56.760529 6.00000000
-36.653109 67.216091 -33.417941 6.00000000
-34.386366 68.743445 -41.979476 6.00000000
-38.763837 65.637159 -60.841222 6.00000000
-43.758847 61.485194 -39.738823 6.00000000
-35.767079 67.813107 -53.492383 6.00000000
-40.966228 63.896878 -0.337056 6.00000000
-34.731494 68.510895 -25.818589 6.00000000
-40.351873 64.416936 -34.694228 6.00000000
-46.227758 59.151464 -1.921792 6.00000000
-36.728403 67.165357 -46.178403 6.00000000
-43.706139 61.535016 -12.988645 6.00000000
-33.874744 69.088182 -56.224840 6.00000000
-34.900384 68.397095 -46.894513 6.00000000
-43.667700 61.571351 -58.073339 6.00000000
-37.704734 66.438457 -14.887771 6.00000000
-35.322855 68.112430 -58.745006 6.00000000
-45.005309 60.306980 -43.305807 6.00000000
-43.973702 61.282103 -60.941027 6.00000000
-45.929002 59.433863 -60.637914 6.00000000
-41.773582 63.213443 2.790577 6.00000000
-34.165395 68.892338 -29.762633 6.00000000
-45.487878 59.850834 -24.887707 6.00000000
-34.491765 68.672426 -35.610379 6.00000000
-38.315098 65.976667 -9.355633 6.00000000
-38.024953 66.196185 -60.815664 6.00000000
-39.756356 64.886238 -61.109902 6.00000000
-44.337083 60.938619 -21.139306 6.00000000
-45.330163 59.999913 -19.306962 6.00000000
-41.139421 63.750267 -14.830828 6.00000000
-45.096214 60.221052 -20.954049 6.00000000
-38.287999 65.997170 -12.963699 6.00000000
-35.608213 67.920152 -13.675392 6.00000000
-45.848730 59.509740 3.760473 6.00000000
-35.894788 67.727055 -28.665079 6.00000000
-38.111497 66.130707 -22.173138 6.00000000
-44.949893 60.359362 -33.492215 6.00000000
-40.595035 64.211097 -59.885074 6.00000000
