6.801636 41.120058 -23.817246
-29.025927 69.339621 -53.072072
8.559589 34.398733 -3.429324
7.759940 37.486640 -13.253181
-2.645597 57.288488 -31.436880
-14.565734 65.756351 3.289495
-15.083359 66.010473 -31.300766
8.507149 34.601236 -21.681556
-33.001526 69.371209 -58.718133
-0.487465 54.863562 -42.050005
-7.858250 61.809210 -44.144281
-3.880214 58.492051 -50.585442
5.973086 43.589805 -24.099342
-3.988866 58.597969 -26.237036
6.885169 40.864632 -41.588701
-0.590877 54.981694 -46.042238
-13.942111 65.450191 -5.263760
-23.392884 68.633198 -35.720727
7.835142 37.196241 2.834638
-30.287844 69.416672 -2.382366
-25.338991 68.965405 -19.424527
4.777994 46.453333 -59.198646
-20.596380 67.972732 -13.756237
2.026194 51.394121 -27.375485
-21.507108 68.213192 -22.481279
6.511964 41.983514 -3.217460
-1.751992 56.308079 -59.509571
-11.157607 63.964628 -47.945463
3.039216 49.781561 -11.683250
2.611549 50.462335 -32.395168
-9.686128 63.091702 -32.307967
6.879624 40.886043 -33.257975
-8.356871 62.161069 -3.562685
-18.708566 67.392440 -16.804922
-30.226151 69.412905 -8.367041
-25.697227 69.015913 -17.095254
-11.592990 64.222911 -26.137754
4.375706 47.277292 -12.183098
-24.335700 68.823950 -11.272356
-5.353834 59.827497 -12.499285
7.693172 37.744466 -40.252366
-21.350743 68.178365 3.848696
4.910665 46.141929 -18.110731
-0.328695 54.679973 -0.981206
7.190568 39.685310 -53.520813
-6.123794 60.467637 -38.512429
-26.977703 69.196448 -46.938120
-16.913547 66.740160 -51.352692
4.913011 46.136423 -20.784080
-2.352834 56.994443 1.153567
7.046132 40.243061 3.668468
3.037180 49.784802 0.854117
-1.476497 55.993370 -10.066450
-15.427097 66.151128 -50.175479
-1.710172 56.260306 -16.232459
-16.034973 66.392009 -43.390600
-13.912618 65.435712 -38.371137
-27.176422 69.224465 -4.960693
4.462272 47.111759 1.700946
-20.737548 68.016125 -32.083287
-17.763399 67.076928 -1.729579
-32.209462 69.385523 -32.707886
-9.270341 62.805670 -52.750545
0.855810 53.088982 -31.237556
1.095658 52.766825 -60.725739
-8.703672 62.405793 -39.290979
-8.659928 62.374924 -28.752314
8.561790 34.390236 -0.980381
3.787808 48.401487 -57.515486
-30.084534 69.404258 -5.289866
6.560501 41.838835 -22.109671
-29.687400 69.380010 -15.531565
-24.285258 68.816839 -17.987075
-10.148769 63.366154 3.340395
-22.456556 68.424655 -39.839253
-15.234246 66.074707 -55.862342
-2.553152 57.198368 -39.562485
-6.772805 61.007221 -23.653997
-13.397253 65.182699 -59.041578
4.356134 47.314719 -7.070741
-28.977257 69.336649 -23.927979
-27.796467 69.264552 -8.501363
8.495221 34.647296 -19.798365
6.081680 43.266108 -59.178494
-0.830637 55.255581 1.180649
-33.219975 69.367261 -48.326501
2.651302 50.399054 -39.440690
6.289886 42.645484 -11.982022
6.106078 43.193382 -30.773030
3.672477 48.622024 -18.582682
-33.455078 69.363012 -27.873864
3.204012 49.517836 -1.393986
-10.581365 63.622784 -34.097874
-19.082328 67.507330 -18.396228
-7.825616 61.786182 -5.043414
-20.849471 68.050529 -11.978803
-8.970583 62.594142 -54.995392
8.551474 34.430073 -33.252701
2.423273 50.762038 -49.102697
-6.969993 61.171162 -21.851624
-14.338903 65.644991 -57.542173
-33.131926 69.368852 -34.230370
-25.345104 68.966267 -47.653103
4.582002 46.882808 -46.366048
4.641175 46.769656 -53.813998
5.990289 43.538527 -25.720659
4.583577 46.879797 -30.855725
-29.617980 69.375771 -34.572630
4.188471 47.635329 -14.257221
-12.240479 64.607021 -11.910035
-7.579742 61.612678 -60.696061
-5.862297 60.250230 -10.983705
-7.401823 61.487128 -31.895899
-17.742375 67.068598 -23.089045
-8.871018 62.523883 3.848091
-14.453835 65.701416 -40.159129
-7.492420 61.551058 -16.352065
-0.378453 54.739033 -31.563464
-22.676223 68.473580 -9.746685
-7.001928 61.197712 -57.355483
7.857278 37.110760 -30.942267
2.442854 50.730868 -46.742888
4.031946 47.934638 3.682713
-0.807151 55.228752 -6.622341
2.959321 49.908740 -29.850199
-27.942880 69.273491 -25.279603
-22.341256 68.398976 -25.138775
-9.515965 62.978998 1.589361
-6.745266 60.984325 -28.442496
3.214543 49.497698 -53.306443
-2.294310 56.927589 -57.112135
5.313356 45.196736 -0.673809
-16.097101 66.416628 -46.754919
7.377335 38.964095 -14.720655
-12.763350 64.871492 -4.185391
-15.174229 66.050924 -28.225298
1.483564 52.245802 -35.271482
7.113295 39.983705 -4.029887
-15.989928 66.374159 -29.497667
-0.955700 55.398445 -26.653886
-7.488625 61.548381 -49.186356
-17.221051 66.862013 -13.017542
-2.659854 57.302387 -33.165416
-24.088732 68.788179 -4.571539
-9.533193 62.991155 -9.236887
-16.903942 66.736353 -49.587908
-1.141438 55.610620 -51.895536
8.068183 36.296335 -12.304629
-5.552244 59.992453 3.423356
2.074748 51.316831 -25.495168
1.422053 52.328421 -40.238296
7.218000 39.579380 -49.465747
-25.980113 69.055797 -22.361327
0.277687 53.865499 -21.195371
6.465229 42.122823 -4.830076
-5.371051 59.841810 -14.778749
6.507890 41.995657 -26.270930
-22.975735 68.540289 -54.522439
-10.840262 63.776370 -21.594380
-7.804918 61.771577 -34.404104
-6.967337 61.168953 -36.755773
1.546722 52.157359 -15.574788
-27.889854 69.270254 -13.396608
5.693064 44.305487 -54.861084
-27.780861 69.263599 -11.173860
8.318149 35.331072 -46.002636
7.483269 38.555024 -47.560754
-8.440990 62.220428 2.344626
7.623713 38.012688 -44.654563
-6.929122 61.137182 -12.369221
-16.510992 66.580640 -24.913325
-27.058530 69.207843 -56.012273
1.575050 52.112265 -24.205630
-29.667758 69.378810 -30.445889
6.587285 41.758997 3.763940
4.592537 46.862662 -28.974769
-4.681746 59.268726 -55.181848
-3.704959 58.321204 -33.520458
-0.905247 55.340810 2.986923
6.310067 42.585329 -39.196344
-11.689100 64.279926 -61.100960
0.678614 53.326986 2.143590
-7.677415 61.681602 -30.134375
-2.963722 57.598611 -43.535741
5.163340 45.548852 -41.299845
7.999359 36.562104 -38.308088
2.947964 49.926819 -8.568527
-26.511827 69.130764 -14.726540
-23.556746 68.669693 -58.201076
-4.387839 58.986907 -46.725539
7.525410 38.392294 -57.753316
-4.103033 58.709265 -29.638363
-4.948970 59.490895 -32.884563
7.719253 37.643754 -27.245378
7.775555 37.426340 -4.323256
8.143175 36.006747 -25.998984
-0.789446 55.208526 -43.714772
6.158851 43.036075 -49.189663
-4.336530 58.936889 -15.601361
-31.069907 69.406117 -18.585090
-24.835982 68.894485 -1.614555
-10.687852 63.685955 -14.129074
4.714021 46.603491 -57.249893
-5.201507 59.700853 -45.348359
5.148790 45.583005 -34.580081
-5.208449 59.706625 -56.786281
-20.720278 68.010817 -58.181923
3.047855 49.767809 -27.275392
-0.562533 54.949315 -29.719613
-26.947246 69.192153 -60.920494
6.432131 42.221479 -50.673278
-32.953368 69.372079 -41.285270
7.613334 38.052767 -9.474672
-31.061575 69.406268 -48.910904
6.823725 41.054215 -10.877592
-18.791459 67.417920 -57.949380
-20.458525 67.930357 -27.659778
-2.985685 57.620022 -21.980801
1.682434 51.941328 -5.994696
-22.233230 68.374916 -50.123138
4.813655 46.369631 3.492361
-24.270368 68.814739 -16.106971
-2.487491 57.134358 -12.719764
-32.201330 69.385670 3.678384
7.621102 38.022770 1.177311
-13.705622 65.334089 -21.140957
4.988295 45.959717 -8.625760
7.452136 38.675247 -17.511687
-33.374628 69.364466 -4.536969
-14.495927 65.722080 -23.710151
-9.127507 62.704877 -19.317122
-3.720171 58.336033 1.343087
-28.523931 69.308970 -1.839719
8.011572 36.514944 -47.894350
6.971891 40.529748 -2.335143
-23.782922 68.720068 -56.033107
-21.822340 68.283401 -47.993039
-12.452565 64.718915 -8.726820
-1.088433 55.550070 -49.547063
-16.216876 66.464092 -4.538848
-3.067908 57.700176 -37.611145
-17.174246 66.843466 -57.186206
-3.256686 57.884206 -27.375989
1.583813 52.098316 -19.096940
3.341673 49.254596 -14.043850
-32.127159 69.387010 -24.925238
8.110198 36.134090 -18.921084
-26.967643 69.195029 -34.666456
-19.903314 67.759691 -52.647595
2.844347 50.091760 -17.565431
1.648121 51.995948 -56.549721
5.012829 45.902130 -13.160822
-31.570511 69.397070 -0.913865
5.583979 44.561531 -15.514672
-6.602831 60.865905 -13.898181
1.678873 51.946996 -48.541791
5.922972 43.739186 -47.671097
-28.876805 69.330516 -49.340936
4.581421 46.883919 -48.355386
-28.829725 69.327641 -51.399894
-7.860107 61.810521 -18.496164
8.193858 35.811034 -2.588665
7.650554 37.909042 -6.243962
-1.182654 55.657703 -47.623790
-20.429883 67.921553 -56.411559
-5.154367 59.661661 -53.572352
-5.776215 60.178661 -52.163181
-0.618618 55.013383 -53.447526
-12.072447 64.507339 -17.890063
-13.821354 65.390906 -0.266654
4.680390 46.682429 -51.709989
4.143327 47.721654 -55.701314
-1.026211 55.478992 -8.287627
-17.693176 67.049101 -14.840269
-24.565827 68.856396 -45.725444
-21.944106 68.310521 -0.456376
-6.291981 60.607467 -0.464506
-5.981691 60.349493 -27.077544
6.846158 40.987347 -0.333283
5.508744 44.738122 -39.924647
-5.372037 59.842631 -43.451924
-33.052934 69.370280 -13.638975
-26.338943 69.106389 -24.536320
7.278502 39.345748 -28.906638
-26.022919 69.061832 -7.687450
-2.526379 57.172269 -2.376689
-15.064109 66.001023 -17.549466
7.181595 39.719960 -18.823652
-11.148926 63.959478 -27.727330
-10.951392 63.842295 -30.121973
-3.680741 58.297594 -56.331822
-5.975009 60.343938 -46.602446
-12.734660 64.857407 -46.135731
7.462217 38.636316 -20.079106
-22.316147 68.393383 -43.458732
-16.377829 66.527872 -15.869845
-19.767398 67.717913 -10.439403
-3.050931 57.683626 -35.323880
-17.792506 67.088463 -35.680246
-1.435785 55.946864 -54.661281
5.821167 44.004805 -53.080044
-2.907928 57.544221 -41.141417
-22.095137 68.344159 -57.161995
2.298610 50.960481 -41.256351
8.455908 34.799105 -50.625883
-11.706991 64.290539 -0.966847
1.964585 51.492192 -11.222290
-5.664294 60.085611 -58.540643
-17.785816 67.085811 -11.488065
-13.766128 65.363794 -27.827528
-9.200350 62.756280 -45.556581
8.386076 35.068767 -27.508309
-4.452078 59.049531 -37.788567
7.214413 39.593231 -6.336496
7.049150 40.231406 -35.508500
-1.846159 56.415650 -3.617931
7.984536 36.619344 -28.579980
-8.194861 62.046744 -20.547565
-13.258099 65.114383 -10.653715
-6.349053 60.654916 -18.554858
7.265154 39.397290 -1.140849
-13.458729 65.212880 -24.921008
2.661142 50.383391 -23.558473
8.350194 35.207327 -52.350268
-8.608347 62.338526 -10.418206
8.140757 36.016087 -55.246608
-28.206304 69.289576 -43.290446
-5.718017 60.130276 -20.340237
6.355717 42.449255 -54.221596
-29.874384 69.391427 -28.049519
-31.916548 69.390817 -12.335118
-28.620513 69.314867 -5.922932
-13.551481 65.258415 -17.714052
-29.473866 69.366972 -41.764236
-18.823734 67.427841 -12.987922
8.094531 36.194589 -34.957294
-21.347895 68.177731 -28.913508
5.120596 45.649180 -31.679752
-33.106876 69.369305 -54.652939
-9.785762 63.150808 -17.043749
-14.473146 65.710896 -19.743324
8.190253 35.824952 -4.264408
-24.553757 68.854694 0.172459
-1.715446 56.266331 -38.177845
-28.968641 69.336123 -36.645023
-25.207698 68.946894 -33.628217
-7.044403 61.233026 -19.918078
-1.939914 56.522749 3.803478
6.203978 42.901561 -29.177739
8.538107 34.481688 -25.774725
-18.861779 67.439536 -0.424088
-26.341661 69.106772 -0.940632
3.769062 48.437333 -25.566228
-26.712177 69.159011 -18.392078
7.240709 39.491689 -37.143211
0.969622 52.936113 -32.965425
-3.057193 57.689731 -16.004898
3.297252 49.339539 -43.827253
-11.801664 64.346703 -49.922168
7.599572 38.105910 -53.405009
-25.295442 68.959265 -39.537487
-22.998207 68.545294 -45.123733
-18.178222 67.229418 -24.810048
2.560393 50.543766 -61.025340
-31.933476 69.390511 -35.360199
-11.880582 64.393519 -10.336862
-21.197989 68.144343 -17.593648
-21.619750 68.238279 -34.684208
8.267207 35.527790 -36.636615
-32.273181 69.384371 -3.385836
4.080154 47.842455 -60.960999
-18.149702 67.220652 -34.107268
-13.558112 65.261671 -30.427501
-10.245320 63.423431 -56.855580
-6.889532 61.104267 -59.443156
7.050786 40.225090 -8.208471
7.943873 36.776366 -20.885377
-31.147317 69.404718 2.288150
4.721502 46.585931 -3.744549
-0.842754 55.269423 -37.039844
-23.272142 68.606305 -60.489855
-5.301397 59.783900 -9.346855
1.616072 52.046964 -22.130787
5.361396 45.083976 -58.020691
-25.820392 69.033278 -4.030576
-9.746154 63.127311 -26.957499
-30.706769 69.412680 -52.419274
6.513510 41.978905 -52.566987
-31.896718 69.391175 -17.040916
1.160502 52.679729 -7.949906
-12.997947 64.986664 -2.251722
-10.216768 63.406494 -25.424307
6.540325 41.898976 -60.987081
5.754312 44.161727 -56.479783
-21.177347 68.139746 -54.311546
0.471446 53.605248 -10.102256
-8.962460 62.588410 -37.718192
-29.836999 69.389144 -12.267759
-6.438988 60.729687 -50.475330
-20.861364 68.054185 -42.406813
7.392349 38.906117 -43.431088
-8.066417 61.956106 -14.655536
6.122422 43.144664 -27.400700
-1.670280 56.214736 -14.291897
5.928783 43.721865 -2.998461
-11.294309 64.045724 -4.367603
-0.291879 54.630522 -13.709362
-9.896531 63.216519 -43.194344
-15.508338 66.183321 -48.311286
1.944698 51.523848 -36.605123
-20.092923 67.817975 -50.938730
-4.965360 59.504521 -17.404736
-16.587407 66.610921 -44.932790
-29.517861 69.369658 -56.644036
-18.154431 67.222105 -29.175477
-8.307128 62.125967 -22.832675
1.231581 52.584257 -53.310535
1.665285 51.968626 -54.893803
-4.339740 58.940018 -2.132045
6.500331 42.018189 -47.747771
1.234349 52.580540 -0.632656
2.852358 50.079007 -37.349829
-16.767726 66.682376 -53.359834
-17.506894 66.975284 3.785589
3.999249 47.997164 -34.678964
-7.529972 61.577557 -45.823254
-14.879247 65.910267 -53.860573
1.609201 52.057902 0.950845
3.879070 48.226973 -52.381184
5.845744 43.947119 -34.717232
-32.548876 69.379389 -19.030598
-5.600775 60.032802 -25.075119
-33.315268 69.365539 -21.734081
-11.744893 64.313024 -32.142219
-2.137945 56.748967 -26.720478
-29.806295 69.387269 -43.330920
6.283719 42.663869 -56.686086
-3.363320 57.988158 -0.713642
7.801221 37.327228 -8.034150
4.472791 47.091644 -24.646003
-27.137232 69.218940 2.845595
-0.286201 54.622896 -50.563856
4.932183 46.091422 -16.315437
7.583550 38.167783 -36.325765
-19.448621 67.619924 -5.767026
-4.081803 58.688569 -41.256483
7.244838 39.475742 -27.348122
7.000343 40.419879 -47.150446
-30.351498 69.419101 -23.227945
-0.607915 55.001157 -15.366213
5.148658 45.583314 -2.264996
8.563087 34.385229 -11.074392
5.485562 44.792536 -36.538928
-15.451130 66.160651 -58.487453
3.186323 49.547393 -59.833154
8.336302 35.260975 -29.894408
7.516289 38.427515 -22.795834
-33.378225 69.364401 -15.927363
-3.937723 58.548113 -58.010638
6.641498 41.597399 -31.079911
6.223655 42.842907 -16.285637
-24.667175 68.870685 -50.292340
-25.433048 68.978666 -32.025432
-18.333995 67.277301 -55.803859
5.698967 44.291631 -50.199761
-27.995496 69.276704 -15.310924
-31.469363 69.398898 -26.950555
-32.912560 69.372816 -56.874378
-31.867237 69.391708 -10.485720
-5.778463 60.180531 -31.336015
-20.531353 67.952744 -19.032103
-1.775770 56.335242 -42.481877
7.597764 38.112894 -55.250823
-0.258009 54.585030 -3.290035
-20.861988 68.054377 -40.282602
-4.535939 59.131282 -27.734776
8.023884 36.467398 -22.658439
-12.690594 64.835773 3.210518
-11.230655 64.007962 2.416962
8.112996 36.123288 -39.849668
0.557871 53.489164 -57.285189
1.264317 52.540288 -26.256222
4.225023 47.565433 -17.081832
-6.959706 61.162609 -55.265858
-28.940080 69.334379 1.706336
-7.217045 61.356737 -7.006175
-30.491993 69.416561 -60.724821
-30.829676 69.410459 -31.597065
-1.852325 56.422693 -34.623741
-7.250609 61.380421 -10.085403
-3.432572 58.055668 -52.346977
8.493796 34.652799 -60.425665
5.411672 44.965968 -22.873208
-18.188141 67.232467 -37.999139
-5.641471 60.066636 -60.135340
3.872188 48.240133 -39.004944
-16.346068 66.515286 -38.654817
0.362785 53.751198 -24.829725
-31.523171 69.397926 -42.271909
-29.643553 69.377333 -3.755036
-15.778417 66.290344 -19.035535
2.298964 50.959916 -20.752398
-10.333138 63.475528 -11.916200
5.996573 43.519796 -60.830992
-1.528323 56.052574 -0.372050
-8.877455 62.528426 -49.941032
-31.741888 69.393973 -6.008008
-4.527523 59.123078 -7.545217
1.302495 52.489009 3.529423
0.879895 53.056631 -17.876730
-19.362581 67.593477 -15.203908
6.839591 41.006919 -12.512366
-2.941262 57.576716 -23.927103
0.601144 53.431041 -29.287830
8.542143 34.466105 -5.732014
-31.601654 69.396507 -47.369121
-2.934185 57.569817 -47.297079
6.050488 43.359084 0.445850
-13.231249 65.101201 -36.351467
2.949144 49.924940 -57.850255
8.555928 34.412870 -17.729020
8.370418 35.129231 -31.607634
-6.840397 61.063416 -42.449932
7.132910 39.907962 -45.432082
-22.560282 68.447758 -4.384955
7.947028 36.764183 -60.965534
5.068941 45.770425 -43.210898
-33.452899 69.363051 -0.387607
-26.400246 69.115032 -40.698039
3.764803 48.445476 -15.611594
-21.650080 68.245035 -2.257167
-16.507382 66.579209 -34.700856
-27.685652 69.257785 -21.521115
-17.084747 66.808001 -60.690369
7.122172 39.949427 -30.372225
6.595211 41.735372 -37.703502
-19.366086 67.594554 -21.690822
5.359115 45.089331 -27.477878
-2.663161 57.305610 -60.639200
-30.058806 69.402687 -10.553154
-16.906916 66.737532 0.952068
-14.839375 65.890692 -12.743131
-11.366207 64.088376 -39.724911
2.343936 50.888330 2.112211
2.194989 51.125427 -53.201505
-11.322157 64.062244 -35.922905
-0.059223 54.318027 -33.603436
6.176703 42.982862 -40.929514
-5.748050 60.155246 -5.400072
-10.694263 63.689758 0.280242
5.627512 44.459352 3.834042
0.902104 53.026801 -2.733202
8.387244 35.064259 3.606350
-27.303710 69.234464 -37.263011
-17.800958 67.091812 -40.398929
-8.917946 62.556998 -1.927499
-29.497254 69.368400 -0.415535
-0.232260 54.550444 -48.785330
-8.298970 62.120210 -12.658264
-33.083312 69.369731 -46.285464
-10.328136 63.472561 -59.852709
-14.022910 65.489858 -6.819116
7.773420 37.434584 -33.435320
-0.623368 55.018810 -35.048751
5.993085 43.530192 -5.683528
3.212795 49.501040 -6.233588
-25.410332 68.975463 -57.961088
-20.193270 67.848821 -25.907410
-1.898199 56.475097 -30.156058
-11.375584 64.093939 -42.088241
-2.854841 57.492469 -28.876512
-12.123308 64.537512 -37.287097
-33.380029 69.364368 -50.214340
-16.394147 66.534338 -7.471750
-14.932016 65.936173 -1.132330
-26.191872 69.085653 0.607025
0.849014 53.098110 -58.804008
0.606435 53.423935 -43.238930
-5.479628 59.932081 -29.503130
-3.472939 58.095020 -48.866971
-17.717234 67.058635 -43.878651
3.858279 48.266729 -30.712005
3.789138 48.398944 -27.973845
-25.934980 69.049434 -10.956376
-19.275106 67.566588 -39.479979
-2.227759 56.851565 -17.560362
-8.495641 62.258994 -42.530078
-15.328160 66.111922 -22.410771
-6.349524 60.655308 -32.791191
-16.146640 66.436259 -40.147856
8.429778 34.900011 -24.124810
-22.149326 68.356228 -52.335949
-13.755960 65.358802 1.407429
0.452564 53.630610 -27.350593
-7.005088 61.200339 -53.736097
5.187685 45.491709 1.070118
-25.332185 68.964445 -56.228330
-14.682895 65.813870 -36.224872
-20.981788 68.091202 -9.608540
7.888160 36.991506 -49.678417
-9.361685 62.870128 -15.432975
-22.737634 68.487258 -18.822680
5.111692 45.670081 -38.541408
-1.545437 56.072123 -24.977003
8.412394 34.967138 -38.705336
0.198689 53.971606 0.758800
8.103011 36.161845 -42.123610
3.830945 48.318998 -21.210754
5.923544 43.737482 -45.483126
-19.479583 67.629442 -41.151066
-24.532244 68.851661 -54.383441
-1.805176 56.368834 -21.109022
3.626329 48.710270 -36.536546
-31.950904 69.390196 -15.184567
-32.232967 69.385098 -51.604299
-2.878209 57.515249 -14.363425
6.693349 41.442840 -45.748010
-18.549386 67.343510 -20.025161
-17.973631 67.160237 -6.193902
-19.850054 67.743320 -1.858927
-21.431988 68.196461 -38.336125
3.483393 48.983596 -10.100979
-26.933558 69.190224 -2.658381
-28.844383 69.328536 -45.064959
5.496424 44.767040 -29.956314
-3.759946 58.374808 -13.345942
-28.597748 69.313477 -60.023341
5.555611 44.628115 -6.792974
1.944359 51.524387 -17.135967
-12.786950 64.883078 -15.602152
-32.663698 69.377314 -44.574464
-32.207281 69.385562 -39.502772
-13.985633 65.471557 -48.455840
-2.133912 56.744360 -52.759096
3.768292 48.438804 -48.553351
-0.965483 55.409621 -60.632605
4.349100 47.328169 -19.235175
5.387675 45.022296 -59.945412
-2.824994 57.463373 -10.263084
8.553087 34.423844 1.003967
-26.561854 69.137817 -27.587009
4.922275 46.114678 -5.951863
-5.429021 59.890007 1.361138
-14.410028 65.679909 -3.566051
-2.523931 57.169882 -50.348260
-20.404735 67.913823 -7.395084
-20.085698 67.815754 2.920383
-33.281010 69.366158 -60.816114
-24.920269 68.906369 -61.053840
3.504368 48.943486 -50.848137
-22.024720 68.328476 -16.199739
-31.268351 69.402531 -56.877816
5.069764 45.768492 -49.383339
-18.947516 67.465891 1.769694
-7.111417 61.282199 -39.718551
-8.096327 61.977213 -36.057734
2.452064 50.716207 -34.917250
3.603419 48.754080 -3.977864
-1.350318 55.849232 -40.524931
-4.486222 59.082815 -31.161136
-3.795191 58.409166 -39.022997
7.380105 38.953400 -12.798799
7.583230 38.169018 -38.453819
-29.362168 69.360151 -38.272270
7.460589 38.642606 -3.155739
-32.983664 69.371531 -42.838363
-13.222696 65.097002 -60.852154
5.263640 45.313428 -24.500143
-12.328671 64.658091 -14.080110
-30.622659 69.414200 -36.271891
-10.606615 63.637763 -37.955057
-9.406936 62.902060 -21.656593
-12.149316 64.552940 -34.221945
4.172813 47.665269 -5.254148
0.311085 53.820639 -54.707949
-4.401420 59.000147 -4.440534
-16.889962 66.730813 -17.752854
7.010348 40.381242 -26.082251
-17.804890 67.093370 -3.329705
-19.616960 67.671670 -60.579529
-15.203425 66.062493 -60.556590
-29.830709 69.388760 3.336852
-22.785017 68.497811 -20.996856
-2.973149 57.607801 -4.126427
6.578606 41.784866 -17.823923
-22.558867 68.447443 -13.438965
-8.053587 61.947052 -58.416511
1.753358 51.828428 -38.313431
-10.264117 63.434582 -46.821315
-31.065128 69.406204 -54.449787
3.622226 48.718116 -7.628002
-15.442331 66.157164 -26.035434
-19.887460 67.754818 -34.038960
-28.012508 69.277743 -58.613094
6.370409 42.405462 -43.130049
-26.405653 69.115794 -54.208546
-1.302441 55.794540 -2.023409
-30.947332 69.408332 -44.581122
-10.660273 63.669594 -45.182215
-20.064601 67.809269 -3.352654
-24.679772 68.872461 -25.172533
6.944311 40.636249 -51.952605
-17.210647 66.857891 -42.205341
-9.725837 63.115258 -23.411078
-12.247208 64.611013 -28.689904
7.295905 39.278545 -39.647798
-8.063249 61.953871 -40.923030
-28.425103 69.302935 -47.562908
-20.575926 67.966445 0.451999
-23.564962 68.671523 -2.998835
-0.449784 54.820517 -10.807665
-2.438106 57.086215 -55.151118
-11.934586 64.425556 -24.440332
-13.857695 65.408748 -34.570150
5.725676 44.228942 -32.351264
-22.427476 68.418179 2.695941
2.200255 51.117044 -42.770159
0.610829 53.418033 -16.293828
-3.693647 58.310176 -20.148788
6.527580 41.936966 -7.077677
6.469645 42.109659 -1.621635
-1.565539 56.095086 -5.640044
-23.641134 68.688489 -37.647263
8.526551 34.526314 -56.957709
-3.787203 58.401379 -9.204632
4.630703 46.789681 -35.868941
-29.109001 69.344693 -19.097853
0.418914 53.675807 -6.345814
-1.710530 56.260716 -23.245484
-9.456285 62.936884 -58.546363
2.399773 50.799446 -44.610980
-29.418101 69.363567 -21.553507
0.344174 53.776195 -47.259629
1.464062 52.271996 -44.046917
-15.305042 66.102761 1.178029
-18.752707 67.406008 -49.921796
-16.598756 66.615418 -9.503930
8.564573 34.379489 -47.780874
-14.987976 65.963646 -10.165244
8.054981 36.347316 1.027240
5.181366 45.506543 -10.584896
-33.383632 69.364303 -37.925642
0.611713 53.416846 -14.749101
-28.251083 69.292310 -27.274852
-27.103744 69.214218 -52.527812
0.769693 53.204652 -36.692595
-27.736833 69.260910 -0.066345
4.333015 47.358928 -10.184675
-23.531149 68.663992 -51.602979
-16.608248 66.619180 -0.611484
4.670265 46.706195 -0.646939
6.878764 40.889366 -39.914391
-33.086091 69.369680 -23.669314
7.126539 39.932563 1.196540
0.786231 53.182439 -51.442437
2.259141 51.023308 -14.040900
7.432886 38.749580 -31.891114
-1.936034 56.518317 -7.293114
-2.653279 57.295976 -58.708973
-25.593180 69.001243 -44.506961
-3.473701 58.095762 -18.134491
-30.866799 69.409788 -13.992470
-8.057753 61.949992 -51.573932
7.432178 38.752316 2.527984
7.867917 37.069679 -58.687791
2.415307 50.774718 -15.689822
-27.786725 69.263957 -30.841480
-13.543086 65.254294 -44.239468
-3.775747 58.390211 -61.019317
-33.254075 69.366644 -31.501477
-21.949258 68.311669 -59.570466
-33.079293 69.369803 -7.063454
3.777256 48.421664 -54.229725
-20.629718 67.982980 -44.507366
-21.322595 68.172096 -46.432598
-19.307683 67.576602 -35.697780
8.081769 36.243872 -10.602695
6.266478 42.715260 2.197490
-6.591193 60.856230 1.998081
-0.248890 54.572780 -18.645016
6.209037 42.886482 -14.346658
-5.821474 60.216289 -7.606714
-1.002414 55.451808 -19.948608
-7.436079 61.511300 0.869461
1.468079 52.266601 -46.825247
-27.925624 69.272438 -41.373604
0.337612 53.785010 -44.798755
2.906458 49.992890 -25.293528
-8.783358 62.462024 -56.553090
-7.858475 61.809369 -27.492250
8.260518 35.553618 -15.857336
7.819214 37.257747 -51.968418
-26.084036 69.070449 -6.120210
0.880324 53.056056 -12.399823
-29.620806 69.375944 -58.250734
-10.463979 63.553147 -54.929868
1.826736 51.711623 -33.241227
2.468361 50.690266 -2.826832
8.539056 34.478026 -42.590681
-27.386538 69.239522 -50.593023
-28.321180 69.296590 -28.897613
-0.336627 54.690627 -56.508083
7.860068 37.099986 -15.787416
-15.429692 66.152156 -33.193780
-26.076318 69.069361 -49.645187
7.335673 39.124977 -10.829226
6.654061 41.559948 -9.246144
-3.786453 58.400648 -6.084599
-14.852808 65.897287 -14.969773
-23.538011 68.665520 -29.113189
-31.694612 69.394827 -30.114807
-27.258846 69.231725 -16.853158
4.550924 46.942237 -42.198726
-4.915702 59.463236 -39.978065
8.476341 34.720202 -34.823851
-9.151270 62.721646 -35.203157
-24.067438 68.783436 -43.863832
-6.593365 60.858035 -44.354705
7.007553 40.392037 -43.725441
2.983883 49.869641 3.176253
-29.907982 69.393478 -46.593989
-19.882419 67.753269 -46.833886
-24.806709 68.890358 -14.690444
-19.271064 67.565345 -54.365801
-19.900370 67.758787 -23.991481
-24.460212 68.841506 -6.360176
-5.512523 59.959430 -41.787622
-31.066949 69.406171 -21.661954
-33.172461 69.368119 2.226817
-2.098637 56.704065 -45.858262
6.736131 41.315315 -19.466504
7.415062 38.818411 -59.564918
-12.328874 64.658191 -55.272454
1.772955 51.797233 -9.313310
-4.143287 58.748507 -36.021872
-20.353590 67.898101 -49.206416
7.604342 38.087492 -41.846392
6.319373 42.557591 -35.354682
-21.105283 68.123696 -5.258410
-28.267810 69.293331 -32.897048
-13.341722 65.155436 -50.397455
3.866470 48.251066 0.492244
1.592304 52.084800 -50.309076
4.494296 47.050521 -27.144249
0.028682 54.199955 -59.578693
-30.481114 69.416758 0.797518
-16.168743 66.445018 -2.484290
-26.203700 69.087321 -20.707541
-18.432453 67.307566 -47.358758
5.776274 44.110179 -9.679859
6.020792 43.447603 -37.459305
6.816160 41.076763 -55.405752
8.056703 36.340665 -53.462418
8.251082 35.590059 -7.887510
-24.960250 68.912006 -9.252036
5.830503 43.982892 -20.166304
4.302807 47.416691 -37.321577
7.470214 38.605439 -25.530241
2.763786 50.219999 -4.606825
5.666783 44.367174 -11.612865
-15.508909 66.183547 -52.172270
3.035202 49.787952 -21.958689
4.283407 47.453789 -32.348664
-24.045470 68.778543 -13.015496
3.531801 48.891029 -32.789448
-25.511688 68.989754 -52.907995
8.099263 36.176316 -5.813712
8.468597 34.750106 -9.163198
3.551009 48.854299 -24.030325
5.492069 44.777262 -4.297189
-9.024630 62.632281 -60.808719
2.164962 51.173224 -7.759643
-8.697854 62.401687 -31.144772
1.782182 51.782545 -58.231393
-6.334066 60.642456 -48.188068
-22.312297 68.392526 -41.635862
-25.206548 68.946732 3.710500
-11.525531 64.182892 -6.692538
-2.873915 57.511063 -7.978005
4.732840 46.559320 -39.998038
-10.392965 63.511019 -18.645226
-23.265359 68.604795 -47.157328
6.966957 40.548802 -59.700295
-5.765633 60.169863 -22.722789
2.600443 50.480013 -19.196958
2.627928 50.436262 -51.859394
7.041495 40.260968 -20.982012
-25.861306 69.039046 -12.692988
0.280196 53.862129 -8.499983
3.342227 49.253536 -47.144014
0.276899 53.866558 -38.150034
6.979897 40.498832 -16.871765
-12.178263 64.570113 -20.352391
-3.442499 58.065345 3.736995
-22.105225 68.346406 -36.768595
-13.604013 65.284205 -32.315137
-4.426991 59.025074 -10.996051
4.078803 47.845038 -40.814657
6.008268 43.484934 -18.072746
-0.646091 55.044767 -22.347434
-6.446657 60.736063 -15.521608
2.267366 51.010215 -1.085024
-22.999418 68.545564 -27.394307
-22.981439 68.541559 0.777617
6.822090 41.059087 -14.708520
-24.407344 68.834052 -20.755969
-1.437491 55.948813 -12.581379
8.181400 35.859140 -44.003473
-22.714904 68.482196 -11.390120
-25.585718 69.000191 -36.121507
-25.317986 68.962443 2.128260
-4.011982 58.620504 -23.070635
-30.447098 69.417373 -50.415774
7.203261 39.636294 -24.291389
-19.056756 67.499470 -45.016538
7.870800 37.058546 -56.584618
-0.723664 55.133381 -38.784966
4.978177 45.983465 -55.684174
-14.536932 65.742211 -46.217237
-10.320000 63.467734 -49.428664
-10.979947 63.859235 -53.245492
-7.771561 61.748038 -0.737622
0.856541 53.088000 -4.369650
-28.079901 69.281858 -54.757937
-5.042397 59.568570 -48.744146
6.085834 43.253725 -7.802245
-16.010739 66.382406 -11.391584
-15.893169 66.335817 -21.010688
-29.460413 69.366150 -40.148643
-12.876000 64.926796 -53.540126
-29.677006 69.379375 -25.895759
4.691544 46.656248 -22.752807
-9.976209 63.263787 -5.850392
-5.594596 60.027664 -3.565302
-19.445889 67.619085 -8.591837
2.632906 50.428338 -54.651500
-12.184190 64.573629 1.204739
-23.821500 68.728660 -48.796564
-17.519197 66.980159 -21.611677
8.479585 34.707675 -54.165537
4.244287 47.528596 -44.280155
-12.556408 64.769896 -40.786994
0.571170 53.471302 -23.013560
-10.118655 63.348290 -3.588400
8.290247 35.438819 -14.037725
-8.728987 62.423657 -47.934273
-6.478944 60.762906 -34.690909
3.972262 48.048769 -1.935509
-25.266895 68.955240 -37.809310
-18.448250 67.312422 -27.588559
-25.912600 69.046278 -30.474672
-10.125286 63.352224 -41.100158
-24.141299 68.796542 -30.609528
1.721901 51.878503 -3.589233
-2.300347 56.934486 -19.196570
-30.275446 69.415915 -16.982752
-25.671794 69.012327 -42.493060
4.255989 47.506219 -49.813806
5.205902 45.448951 -44.805529
-1.190287 55.666422 -57.644820
-13.915879 65.437312 -42.112929
6.329188 42.528335 -32.479490
-23.492437 68.655370 -33.702600
-27.264108 69.232046 -44.938739
-11.107013 63.934614 -16.167447
-4.601852 59.195537 -18.888835
-19.241513 67.556262 -31.627248
-9.520724 62.982356 -29.860426
-11.548367 64.196439 -2.735339
6.539113 41.902587 -58.632597
3.321839 49.292524 -40.896070
3.110358 49.668316 -56.226161
5.353641 45.102178 -52.056964
5.796675 44.062292 -42.799745
0.242496 53.912766 -40.159194
-22.033237 68.330373 -30.375661
-0.971945 55.417001 -17.583875
-16.351413 66.517404 2.542060
-31.148900 69.404690 -58.879269
-6.652716 60.907379 -2.306086
-20.650953 67.989507 -36.580740
-11.614135 64.235455 -57.000177
6.961700 40.569103 -56.988245
2.179723 51.149729 -31.000273
8.493140 34.655332 -40.870382
-1.371340 55.873245 -32.455716
-3.199663 57.828617 -53.914792
-24.074817 68.785080 -41.398618
1.993950 51.445447 -29.088221
-17.308311 66.896592 -30.837851
-23.831822 68.730959 -23.504604
7.444719 38.703889 -34.289015
-8.570007 62.311471 -7.876402
-22.852960 68.512944 -7.039290
-33.285304 69.366080 -8.742824
-1.528111 56.052331 -28.324318
-5.436606 59.896312 -36.094044
0.727964 53.260701 -49.536633
6.812394 41.087989 -27.525176
-4.042514 58.650268 -44.367112
