7.909163 -21.930728 -14.526094
6.101350 -22.044313 -3.795958
4.929072 -22.117967 -50.688205
8.311219 -21.905467 -24.591886
7.401190 -21.962644 0.079803
10.158450 -21.789406 -26.180027
6.421560 -22.024194 -16.912343
7.250478 -21.972113 -56.905307
11.514411 -21.704211 -26.827989
6.310810 -22.031152 0.489079
6.501389 -22.019178 -38.863512
7.066886 -21.983648 -55.924087
5.742992 -22.066828 -20.426460
5.529903 -22.080216 -47.474689
6.579477 -22.014272 -2.616564
5.393666 -22.088776 -49.381205
11.842720 -21.683584 -32.086181
11.670866 -21.694381 -59.741834
5.265546 -22.096826 -56.885620
8.548778 -21.890541 -16.610060
6.341209 -22.029242 -1.401931
7.622514 -21.948738 -16.325224
8.379940 -21.901149 2.766084
9.201699 -21.849519 -30.993272
7.807491 -21.937116 -30.895299
10.108920 -21.792518 -16.486113
5.537904 -22.079714 -19.847656
10.436428 -21.771941 -30.327737
7.107332 -21.981107 -40.823092
7.441203 -21.960130 -42.409986
10.954896 -21.739366 -15.034957
5.274732 -22.096249 3.156754
10.479042 -21.769263 -34.091684
5.627350 -22.074094 -14.072333
5.043317 -22.110789 -6.641178
5.269518 -22.096576 -27.838624
7.427099 -21.961016 -59.506805
8.514409 -21.892701 -50.894930
9.859053 -21.808217 -53.156956
4.972501 -22.115238 -21.905206
7.889896 -21.931939 -51.614333
7.357076 -21.965416 -14.614246
4.959009 -22.116086 -29.793311
5.098553 -22.107318 -4.795432
10.606968 -21.761226 -59.244781
9.883336 -21.806691 -56.807525
11.168910 -21.725919 -1.870405
8.026838 -21.923335 -23.432009
11.295039 -21.717995 -52.635115
7.073607 -21.983226 -44.253102
7.982208 -21.926139 -6.691561
5.557420 -22.078488 -18.645443
12.035160 -21.671493 -21.720560
11.213135 -21.723141 -41.515118
7.004200 -21.987587 -60.948982
8.892257 -21.868961 -55.484188
4.828112 -22.124310 -51.236981
11.653918 -21.695446 -6.048230
7.858436 -21.933915 -46.249941
6.320709 -22.030530 -61.021704
10.020232 -21.798090 -14.689508
4.829515 -22.124222 -57.281758
7.073362 -21.983241 -14.081712
10.747340 -21.752406 -56.541745
8.407209 -21.899436 -11.611957
4.818184 -22.124934 -59.954656
10.078474 -21.794431 1.764249
11.424487 -21.709861 -9.548441
8.263716 -21.908452 -60.381186
10.230350 -21.784889 -42.819232
5.525523 -22.080492 -25.728646
10.451205 -21.771012 -60.315507
12.024846 -21.672141 -42.426396
7.522192 -21.955042 -23.148660
11.816104 -21.685256 -35.446558
5.109533 -22.106628 -8.036943
5.073197 -22.108911 -23.987355
7.172015 -21.977043 -54.520814
9.131812 -21.853910 -5.485676
11.201874 -21.723848 -56.928414
11.052864 -21.733210 0.507811
6.008128 -22.050170 -60.426483
9.030462 -21.860277 -25.807752
11.285249 -21.718610 -50.400813
9.240151 -21.847103 -46.141824
10.445453 -21.771374 -37.397238
6.204839 -22.037810 -56.067190
10.197788 -21.786935 -8.008461
7.561226 -21.952589 -60.945371
8.484500 -21.894580 -27.514570
9.903467 -21.805427 -32.115829
10.191516 -21.787329 -41.313858
7.602890 -21.949971 -11.617505
8.904287 -21.868205 -22.252870
8.067764 -21.920763 0.350467
7.771731 -21.939363 -21.695908
5.714844 -22.068597 -42.227084
10.987679 -21.737306 -20.407499
9.496643 -21.830987 -41.690793
10.812791 -21.748294 -48.294444
10.783396 -21.750141 -58.706079
6.943319 -21.991412 -33.577712
9.066796 -21.857994 -14.513375
11.318448 -21.716524 -44.296535
7.213604 -21.974430 -57.492874
8.427480 -21.898163 -10.374992
11.944365 -21.677198 -27.607097
4.887090 -22.120604 -9.525865
5.383530 -22.089413 -56.183998
7.989383 -21.925688 -26.371985
9.830088 -21.810037 -34.951126
8.282001 -21.907303 -36.897952
9.798092 -21.812047 -23.772839
9.807957 -21.811428 -15.856176
7.303195 -21.968801 -48.931701
9.202387 -21.849475 0.114364
6.687627 -22.007477 -55.441307
9.662378 -21.820574 -46.556941
11.873467 -21.681652 -55.733318
8.621760 -21.885956 -54.038790
6.708958 -22.006137 -41.197285
5.424932 -22.086812 -42.810784
11.860992 -21.682436 -38.444602
11.821538 -21.684915 -34.279330
11.945813 -21.677107 -12.448981
9.689072 -21.818897 -12.485698
10.433403 -21.772131 -44.924448
8.406064 -21.899508 -4.455377
11.104270 -21.729981 -2.655958
5.551605 -22.078853 -58.642964
9.085770 -21.856802 -47.762544
10.812949 -21.748284 -40.966214
9.733734 -21.816091 -3.597072
6.466488 -22.021371 -13.742824
9.814292 -21.811029 -4.167173
9.440074 -21.834542 -50.389963
5.741984 -22.066892 -59.756822
8.941224 -21.865884 -39.080281
5.552936 -22.078769 -30.037426
9.730894 -21.816269 -33.528581
9.271501 -21.845133 -56.749191
11.649689 -21.695712 -22.200541
8.237398 -21.910105 -43.782249
11.886131 -21.680856 2.997703
9.055796 -21.858686 -43.890481
8.299186 -21.906223 -23.985431
5.076852 -22.108682 -51.996155
6.324709 -22.030279 -37.203712
6.647141 -22.010021 -35.240994
5.314978 -22.093720 -60.200444
8.591026 -21.887887 -54.650445
5.698078 -22.069650 -51.566380
4.848964 -22.123000 -2.975709
7.958373 -21.927636 3.204507
10.621275 -21.760327 -2.326453
5.963909 -22.052948 -13.498947
5.750402 -22.066363 -43.321314
5.969069 -22.052624 -11.715095
8.879849 -21.869740 -17.263225
6.900113 -21.994127 -24.816545
8.146944 -21.915789 -45.603317
7.256783 -21.971717 -34.129008
5.849457 -22.060139 -30.548108
8.602586 -21.887161 -53.359571
6.653531 -22.009619 -0.181860
10.593140 -21.762095 -34.665339
12.011400 -21.672986 0.341355
9.668652 -21.820180 -22.113519
10.032475 -21.797321 -13.484968
6.159629 -22.040651 -31.165020
6.555255 -22.015794 -25.989795
8.594375 -21.887677 -8.221685
4.828172 -22.124306 -34.838149
8.319383 -21.904954 -38.576173
11.761953 -21.688659 -16.490469
12.017953 -21.672574 -23.963260
11.266110 -21.719812 -6.554460
9.708273 -21.817691 -28.025862
9.769299 -21.813856 -2.295252
8.121249 -21.917403 -20.039460
6.233854 -22.035987 -32.487582
5.224147 -22.099427 -35.739020
6.464831 -22.021475 -52.974877
11.880730 -21.681196 -3.655603
4.820645 -22.124779 -28.579160
10.009161 -21.798786 -36.055832
10.487813 -21.768712 -33.451320
6.442147 -22.022900 -44.338447
6.901896 -21.994015 -17.379202
10.335116 -21.778306 -0.059137
6.771265 -22.002222 -45.394177
11.533258 -21.703027 -25.168793
5.730508 -22.067613 -10.646530
5.908650 -22.056420 -59.196577
7.690843 -21.944445 -28.519243
7.605197 -21.949826 -13.991874
11.958295 -21.676322 -19.095565
7.484061 -21.957437 -44.685277
9.224122 -21.848110 -53.855929
11.913022 -21.679167 -36.763149
4.865847 -22.121939 -5.980574
7.520073 -21.955175 -49.855779
9.011036 -21.861498 -15.537374
6.615799 -22.011990 -50.708201
7.584426 -21.951131 -36.036128
8.668696 -21.883007 -25.397524
5.639427 -22.073335 -21.823136
5.669577 -22.071441 1.621097
11.295126 -21.717989 -12.985433
6.779209 -22.001723 -7.915060
10.460623 -21.770421 -32.006866
11.125744 -21.728631 -15.678555
6.921469 -21.992785 -25.468848
7.986331 -21.925880 -8.034396
9.312463 -21.842559 -0.516763
9.913273 -21.804811 -9.335685
9.821660 -21.810567 -42.149931
10.125251 -21.791492 -38.442752
6.205335 -22.037779 -57.685558
11.044542 -21.733733 -32.869243
6.675448 -22.008242 -29.460624
5.859398 -22.059514 -27.936850
10.737470 -21.753027 -17.569616
11.320185 -21.716415 3.364031
10.757401 -21.751774 -14.456246
7.136897 -21.979249 -46.052207
5.435517 -22.086147 -46.306441
7.025701 -21.986236 -6.360713
12.043269 -21.670983 -60.395836
6.812058 -21.999659 -36.883011
11.937697 -21.677617 -46.467075
6.530587 -22.017344 -21.050402
4.944242 -22.117013 -36.917503
5.475410 -22.083640 -24.496216
7.259148 -21.971568 -39.485850
6.918693 -21.992959 -27.122107
9.729544 -21.816354 -19.401112
6.446375 -22.022635 -37.819257
11.988488 -21.674425 -57.201367
8.850917 -21.871558 -50.171727
9.300710 -21.843298 -34.563737
10.491084 -21.768507 -54.479338
9.170764 -21.851462 -54.832698
5.003184 -22.113310 -38.926249
9.542990 -21.828075 -22.759964
4.853174 -22.122735 -40.878999
6.153306 -22.041048 -5.187271
8.123593 -21.917256 -61.107029
8.836039 -21.872493 -52.435486
7.122702 -21.980141 -2.859555
6.752058 -22.003429 -11.200562
7.639716 -21.947658 -24.537224
4.866235 -22.121915 -3.835259
7.180391 -21.976517 -47.556878
10.421612 -21.772872 -19.901008
11.907907 -21.679488 -17.080760
8.180003 -21.913711 -30.404046
6.584817 -22.013937 -21.696833
11.098941 -21.730315 -54.212738
10.885808 -21.743706 -37.102847
5.363551 -22.090668 -59.266971
6.177587 -22.039523 1.365047
6.726200 -22.005053 -58.979294
4.820449 -22.124791 -13.311558
4.808335 -22.125552 -24.554748
7.194022 -21.975660 -10.674609
8.562453 -21.889682 -59.096228
4.919112 -22.118592 -23.381278
8.398330 -21.899994 -5.694845
11.974344 -21.675314 -54.523484
6.073536 -22.046060 -55.142544
11.998559 -21.673793 -30.840681
8.767921 -21.876773 3.274422
4.833974 -22.123942 -49.234785
7.688567 -21.944588 -9.350109
11.513156 -21.704290 -0.286832
8.301241 -21.906094 -42.487974
6.620295 -22.011707 -34.040776
7.349104 -21.965917 -32.506828
9.176712 -21.851088 -2.323388
7.410834 -21.962038 -50.433111
9.767820 -21.813949 -49.857041
8.510295 -21.892959 -28.861795
10.298667 -21.780596 -57.264211
6.845596 -21.997552 -38.384106
9.952535 -21.802344 -11.598000
11.393830 -21.711788 -24.373745
8.375970 -21.901399 -18.279248
5.432558 -22.086333 -26.591934
8.925489 -21.866873 -45.423256
8.555250 -21.890135 -29.937376
6.368846 -22.027506 -33.368404
6.543177 -22.016553 -12.254866
11.707241 -21.692096 -30.291441
11.968214 -21.675699 -9.266030
7.826671 -21.935911 -40.384132
11.380358 -21.712634 -40.022366
11.918886 -21.678798 -14.517758
11.437469 -21.709046 -51.892701
6.824940 -21.998850 -6.985482
9.273345 -21.845017 -59.226927
9.029940 -21.860310 -24.451970
9.080420 -21.857139 -19.307856
10.323234 -21.779053 -1.841912
11.945582 -21.677121 -22.726601
7.415176 -21.961765 3.073598
10.489014 -21.768637 -28.469358
8.729818 -21.879167 -59.606756
6.429207 -22.023713 -59.473119
5.161170 -22.103384 -17.768728
10.417932 -21.773103 -8.655823
6.369116 -22.027489 -46.264649
5.744460 -22.066736 -36.265447
5.825540 -22.061642 -18.038704
5.551093 -22.078885 -5.615623
5.034653 -22.111333 -5.447427
4.952872 -22.116471 -15.687794
5.014554 -22.112596 -16.975595
6.905954 -21.993760 -35.963524
8.168639 -21.914425 -9.110195
10.835093 -21.746893 -35.393086
5.212602 -22.100152 2.412286
5.600431 -22.075785 -17.175878
7.551505 -21.953200 -37.863241
6.254561 -22.034686 -22.135284
6.394935 -22.025867 -58.266556
10.315262 -21.779554 -31.005268
6.686081 -22.007574 -54.792978
5.727299 -22.067814 -29.439248
8.630987 -21.885376 -15.927532
8.864625 -21.870697 -49.016083
8.419991 -21.898633 -32.099183
11.145015 -21.727421 -59.413439
11.527727 -21.703375 -58.133376
10.958130 -21.739162 -18.733569
11.264515 -21.719912 -13.670924
11.990457 -21.674302 -41.083816
10.694626 -21.755718 -38.110134
6.708120 -22.006189 -47.214089
6.314047 -22.030949 -28.345719
10.274468 -21.782117 -5.476343
5.677375 -22.070951 -8.801151
5.456806 -22.084809 -4.382087
5.756660 -22.065969 0.368462
10.866503 -21.744919 -39.767227
11.782130 -21.687391 3.835436
11.400704 -21.711356 -14.299817
9.573190 -21.826178 -51.488172
11.105243 -21.729919 -3.812163
6.215124 -22.037164 1.972328
4.844369 -22.123288 -44.783064
6.319096 -22.030632 -52.343633
10.688176 -21.756124 -1.382375
7.927257 -21.929591 -11.011763
12.035172 -21.671492 -52.418565
11.382267 -21.712514 -7.644856
7.204145 -21.975024 -30.898927
9.181512 -21.850787 -27.777346
6.281400 -22.033000 -51.757587
10.576026 -21.763170 -9.542803
5.418995 -22.087185 -52.986538
10.628901 -21.759848 -29.604985
6.506042 -22.018886 -17.855714
7.088435 -21.982294 -33.017215
10.782026 -21.750227 -43.039003
5.815103 -22.062297 -8.211315
11.275985 -21.719192 -29.750463
8.482992 -21.894675 -20.506025
7.739904 -21.941363 -10.441852
4.794658 -22.126412 -16.404579
11.356490 -21.714134 -37.570152
11.269907 -21.719574 -45.921109
5.189881 -22.101580 -45.487826
10.029431 -21.797512 -51.178532
7.185956 -21.976167 -4.235714
4.860400 -22.122281 0.824290
9.682453 -21.819313 -7.871427
5.658446 -22.072140 -40.074361
5.099465 -22.107261 -31.298667
7.685546 -21.944778 3.765029
6.883600 -21.995164 -1.736187
7.406735 -21.962296 -3.529635
9.794488 -21.812274 0.457823
5.013912 -22.112636 -40.127918
11.511648 -21.704385 -3.038788
6.278542 -22.033180 3.816029
7.479097 -21.957749 -45.447183
12.022235 -21.672305 -5.524455
5.005634 -22.113156 -25.138325
4.830296 -22.124173 -59.104161
10.186240 -21.787660 1.097274
10.548507 -21.764899 -2.911103
6.862288 -21.996503 -53.925205
5.759847 -22.065769 -44.582925
11.364937 -21.713603 -40.797585
10.723356 -21.753913 2.685623
5.862807 -22.059300 -35.346911
7.205556 -21.974936 -55.152713
9.395335 -21.837352 -37.662356
7.229238 -21.973448 -48.184476
8.521868 -21.892232 -49.610638
7.268931 -21.970954 -23.751701
6.899806 -21.994146 -19.779556
12.067042 -21.669490 -28.801976
7.559644 -21.952688 -12.813951
11.213864 -21.723095 1.695392
11.968501 -21.675681 -11.557560
9.662313 -21.820578 -54.318480
6.966134 -21.989978 -49.544910
10.814989 -21.748156 -60.786369
7.193646 -21.975684 -35.478191
9.928314 -21.803866 -34.163842
11.791046 -21.686831 -58.606321
8.446596 -21.896962 -41.799436
7.701665 -21.943765 -57.848953
8.695701 -21.881310 -38.108179
8.933466 -21.866372 -31.677251
5.397659 -22.088525 -38.479764
4.883738 -22.120815 -18.700680
4.822500 -22.124662 -38.353607
5.999439 -22.050716 -26.510654
6.885423 -21.995050 -23.079668
11.590146 -21.699453 -28.044341
10.876220 -21.744309 -59.936161
5.024335 -22.111981 -53.364260
9.081753 -21.857055 -12.544723
5.967761 -22.052706 -28.865380
9.898001 -21.805770 -59.352420
9.405679 -21.836703 -55.730503
6.499103 -22.019322 -7.432490
9.063850 -21.858180 -40.160101
8.330724 -21.904242 -7.399198
5.293112 -22.095094 -11.374680
9.605777 -21.824130 -26.160528
5.030113 -22.111618 -46.903963
7.230743 -21.973353 -2.289259
10.561825 -21.764062 -41.781751
8.653661 -21.883952 -51.425933
11.776512 -21.687744 -25.728072
7.002912 -21.987668 1.849237
9.642126 -21.821847 -45.779189
9.104221 -21.855643 -33.471083
12.002758 -21.673529 -51.758485
9.835888 -21.809673 -28.702916
11.228698 -21.722163 -11.110395
8.110975 -21.918048 -33.812495
11.325349 -21.716090 -17.743776
8.150807 -21.915546 -22.785353
7.828877 -21.935773 -42.954493
9.364735 -21.839275 -25.359253
11.324122 -21.716167 -43.285707
7.533312 -21.954343 -5.290087
9.862130 -21.808024 -29.302580
9.090198 -21.856524 -60.291937
9.319397 -21.842124 -53.292255
11.114500 -21.729338 -8.268700
7.752386 -21.940578 -20.565789
8.741801 -21.878414 -33.926510
5.650815 -22.072620 -52.315825
9.921174 -21.804314 -17.970598
11.540433 -21.702577 -45.366389
11.464237 -21.707364 -28.682482
5.362419 -22.090739 -55.356243
10.725331 -21.753789 -6.131613
9.722906 -21.816771 -24.866590
9.523395 -21.829306 -49.093355
12.009230 -21.673122 -47.732126
9.258415 -21.845955 -16.081215
7.214741 -21.974359 -40.212711
7.894486 -21.931650 -32.792086
9.692355 -21.818691 -13.975244
5.786768 -22.064078 -40.595415
9.270597 -21.845190 -16.898974
10.826823 -21.747412 -25.907478
11.179336 -21.725264 -26.393732
12.052338 -21.670414 -2.497385
4.801469 -22.125984 3.663489
11.350790 -21.714492 -34.995586
9.722741 -21.816782 -17.286784
10.843663 -21.746354 -52.082850
8.681755 -21.882187 -48.255960
7.322168 -21.967609 -13.375383
7.293133 -21.969433 -34.760149
6.730452 -22.004786 -56.493923
6.208624 -22.037573 2.765388
11.787665 -21.687043 2.133760
8.061481 -21.921158 0.920080
8.395932 -21.900145 -0.958308
5.826293 -22.061594 -33.030399
7.940717 -21.928746 -50.831851
5.562455 -22.078171 -7.207950
5.901163 -22.056890 -49.529539
6.659229 -22.009261 3.220431
8.532241 -21.891580 -6.744589
6.153161 -22.041057 -24.152658
9.200284 -21.849607 -28.952585
7.711292 -21.943160 -47.009365
8.025948 -21.923391 -59.360831
11.909610 -21.679381 -39.181286
7.356117 -21.965476 -19.031655
10.159262 -21.789355 -36.627401
6.537658 -22.016900 -5.667121
9.000464 -21.862162 -43.213650
9.780663 -21.813142 -39.630198
4.816447 -22.125043 -25.908109
6.269008 -22.033779 -31.810233
11.994639 -21.674039 -24.670658
8.444001 -21.897124 -1.759812
6.510136 -22.018629 -4.665341
9.682542 -21.819307 -5.801534
6.700396 -22.006675 -57.143001
5.641215 -22.073223 -12.143763
11.926778 -21.678303 -39.839123
8.259393 -21.908723 -39.984932
6.298254 -22.031941 -25.423042
4.909991 -22.119165 -7.401316
10.392192 -21.774720 -27.844768
10.737235 -21.753041 -16.415238
12.007402 -21.673237 -17.751894
7.596856 -21.950350 -29.969462
9.635200 -21.822282 -48.497144
5.642998 -22.073111 -31.703120
8.304239 -21.905906 -40.740466
7.969923 -21.926911 -57.189130
7.046473 -21.984931 -43.170831
12.034599 -21.671528 -49.309674
7.350432 -21.965833 -31.502276
9.801260 -21.811848 -2.887339
7.664905 -21.946075 -7.161126
12.061935 -21.669811 -53.930804
7.818537 -21.936422 -36.593634
10.999472 -21.736565 -47.499877
5.825830 -22.061624 -23.623076
9.644485 -21.821698 -31.537763
10.127397 -21.791357 -56.255293
10.984203 -21.737524 -36.221754
9.455077 -21.833599 1.905939
4.848648 -22.123020 -8.895415
8.486936 -21.894427 -14.324154
10.716758 -21.754328 -24.438885
9.232992 -21.847552 -23.868070
6.975895 -21.989365 -51.851918
11.938237 -21.677583 -37.771760
10.291548 -21.781044 -35.590337
10.189096 -21.787481 -21.594243
7.177430 -21.976703 -0.614239
5.321949 -22.093282 -2.038177
5.549071 -22.079012 -3.824550
11.753638 -21.689181 -8.568025
9.891195 -21.806198 -30.020876
10.169093 -21.788737 -48.127282
7.996291 -21.925254 -29.344757
6.274122 -22.033457 -10.726431
4.971796 -22.115282 -14.011321
11.916817 -21.678928 -29.498718
10.250467 -21.783625 -58.730827
5.199397 -22.100982 -37.919851
10.060965 -21.795531 -0.825663
8.506720 -21.893184 -19.460927
8.745795 -21.878163 -37.466041
11.187100 -21.724776 -56.139935
10.881833 -21.743956 -10.036349
7.241031 -21.972707 -38.809555
11.194171 -21.724332 -17.161570
9.320859 -21.842032 -8.345359
9.564758 -21.826708 1.214356
8.097193 -21.918914 -37.475225
9.198283 -21.849733 -17.809628
9.629093 -21.822666 -21.231611
11.946549 -21.677060 -9.968837
10.655969 -21.758147 -38.689899
9.088378 -21.856639 -20.692764
8.237836 -21.910078 -58.044302
7.550106 -21.953288 -8.485911
4.860628 -22.122267 -41.521037
6.089424 -22.045062 -27.052547
9.483197 -21.831832 -44.996565
12.062679 -21.669764 -57.856852
6.047658 -22.047686 -14.521904
11.198079 -21.724087 -4.407572
5.933942 -22.054831 -19.223411
5.843375 -22.060521 -2.451481
9.384980 -21.838003 -36.464718
8.161689 -21.914862 -33.272061
8.929484 -21.866622 -56.347209
4.911600 -22.119064 -50.143596
7.861026 -21.933753 -0.860166
10.173351 -21.788470 -15.372002
8.567870 -21.889342 -57.608828
9.859199 -21.808208 -30.602142
7.556409 -21.952892 -33.537004
11.477115 -21.706555 -47.914187
5.817915 -22.062121 -53.633421
11.267002 -21.719756 -38.702356
11.068757 -21.732212 -23.414603
8.599552 -21.887351 -35.613326
9.612727 -21.823694 -59.816866
4.805374 -22.125738 -2.170840
8.542555 -21.890932 -5.157753
11.156756 -21.726683 -39.305418
10.682971 -21.756451 -40.373832
10.444634 -21.771425 -48.876569
10.364118 -21.776484 -49.815473
7.525405 -21.954840 -19.965399
8.231825 -21.910455 -21.289955
10.272920 -21.782214 -39.926713
8.124443 -21.917202 -22.150695
9.124037 -21.854398 -41.165542
11.132047 -21.728235 -34.418233
9.548079 -21.827756 -15.315022
6.892724 -21.994591 2.742172
7.075129 -21.983130 -8.730529
8.388095 -21.900637 -55.201433
8.985255 -21.863118 -51.855616
9.452596 -21.833755 -9.012253
5.793583 -22.063650 -37.351736
9.058163 -21.858537 -42.134078
8.693765 -21.881432 -29.396019
6.348727 -22.028770 -24.701553
7.921828 -21.929933 -59.961185
10.683464 -21.756420 -4.676567
6.019757 -22.049439 -4.415525
11.149445 -21.727142 -44.864167
11.137621 -21.727885 -48.804903
9.529434 -21.828927 -1.097616
11.092921 -21.730694 -42.486221
11.930461 -21.678071 1.370694
4.911993 -22.119040 -53.889976
10.306253 -21.780120 -12.958653
7.786039 -21.938464 -52.955067
6.372925 -22.027250 -23.579320
8.762441 -21.877117 -57.037302
4.902908 -22.119610 -22.834057
9.741381 -21.815611 -36.978488
12.068236 -21.669415 -32.798552
8.570601 -21.889170 -58.523818
7.969263 -21.926952 -12.286749
8.651340 -21.884097 -9.723524
5.744394 -22.066740 -16.571861
7.236423 -21.972996 -20.755471
5.026162 -22.111866 -20.178677
10.782894 -21.750173 -13.272006
8.886676 -21.869311 -26.453522
9.236171 -21.847353 -49.757168
5.711321 -22.068818 -1.352853
10.460258 -21.770444 -25.083375
8.104602 -21.918449 -38.042375
5.491032 -22.082659 -32.258581
8.563514 -21.889616 -30.932289
7.372510 -21.964446 -1.280906
10.204847 -21.786491 3.116805
10.439012 -21.771779 3.826694
5.597105 -22.075994 -54.134199
6.564308 -22.015225 -43.735101
6.705313 -22.006366 -12.976669
4.875684 -22.121321 -10.381770
7.877030 -21.932747 -27.188174
11.967579 -21.675739 -43.574509
10.227269 -21.785082 -45.994239
8.593103 -21.887756 -23.266995
9.901515 -21.805549 -18.718969
7.160501 -21.977766 -21.353056
8.821147 -21.873429 -13.783540
4.821584 -22.124720 -55.450742
10.314752 -21.779586 -61.032622
7.766133 -21.939715 -41.687807
7.588768 -21.950859 -54.111985
7.897224 -21.931478 -56.242559
9.177784 -21.851021 -18.551839
11.967660 -21.675734 -15.895682
6.811546 -21.999691 -48.577005
9.733711 -21.816092 -1.668739
9.618290 -21.823344 -55.165784
9.232810 -21.847564 -39.592235
8.703301 -21.880833 -34.455494
11.849841 -21.683137 -56.510221
8.826188 -21.873112 0.497380
6.663559 -22.008989 -28.858611
10.548571 -21.764895 -39.324661
10.615123 -21.760714 1.556663
10.439454 -21.771751 -52.996543
8.571892 -21.889089 -11.022237
6.533577 -22.017156 -14.816140
11.531118 -21.703162 -49.724597
6.204067 -22.037859 -22.900220
6.507542 -22.018792 -30.601845
4.937209 -22.117455 -43.495407
10.673813 -21.757026 -55.496705
11.029402 -21.734684 -22.336134
9.138718 -21.853476 -1.509573
5.261118 -22.097104 -39.556680
7.303543 -21.968779 -60.364134
8.502158 -21.893471 -18.919227
10.856453 -21.745551 -11.607300
10.593368 -21.762080 -51.223975
9.287492 -21.844128 -23.306642
10.205973 -21.786420 -7.396984
9.992398 -21.799839 -55.576711
11.099861 -21.730258 -32.223314
6.116356 -22.043370 -45.671850
10.532136 -21.765928 -13.825260
8.294623 -21.906510 -39.225614
5.149967 -22.104088 -30.491023
7.942858 -21.928611 -16.883676
7.322487 -21.967589 -29.393514
6.895310 -21.994428 -59.775057
9.912892 -21.804835 -52.068976
9.678750 -21.819546 -40.175912
9.230009 -21.847740 -11.975308
8.226785 -21.910772 -3.056538
6.109748 -22.043785 -47.611576
11.569726 -21.700736 -53.577829
7.103156 -21.981369 -18.124279
11.406203 -21.711010 -31.705919
8.200020 -21.912454 -47.910350
8.362901 -21.902220 -12.861562
11.892567 -21.680452 -7.387018
7.084059 -21.982569 -50.992284
5.428251 -22.086603 -13.258007
6.735972 -22.004440 -31.539448
9.419202 -21.835853 -32.802784
6.918444 -21.992975 -30.177568
8.331105 -21.904218 -56.609315
7.150214 -21.978413 -28.534664
9.005099 -21.861871 -7.489823
10.768912 -21.751051 -22.830761
11.909352 -21.679397 -23.419093
9.582850 -21.825571 -35.588404
9.524681 -21.829226 -7.249662
8.366204 -21.902012 -51.964977
10.171852 -21.788564 -43.925561
7.407627 -21.962240 -17.021614
11.941475 -21.677379 -36.095411
6.241870 -22.035484 -42.367528
6.293558 -22.032236 -19.940402
6.242428 -22.035449 -30.142263
12.013966 -21.672825 -1.879073
8.205300 -21.912122 -17.764272
7.392854 -21.963168 -15.253292
9.442662 -21.834379 -4.602398
9.517876 -21.829653 -42.768266
5.705067 -22.069211 -25.095299
11.210819 -21.723286 -46.568685
7.620006 -21.948896 -58.409642
10.121012 -21.791758 -45.420707
8.052672 -21.921712 -58.740904
11.272517 -21.719410 -27.423285
7.592010 -21.950655 1.245808
7.051610 -21.984608 -22.475933
4.865420 -22.121966 -27.183915
5.808703 -22.062700 -6.566934
11.218992 -21.722773 -19.510424
7.917529 -21.930203 -0.159420
6.032472 -22.048640 -15.168946
10.930241 -21.740915 -0.139966
9.227440 -21.847901 -47.152017
6.654644 -22.009549 -47.800254
12.015528 -21.672726 -26.371810
6.684397 -22.007680 -44.815923
7.330321 -21.967097 -53.446727
4.827897 -22.124323 -19.388244
7.923966 -21.929798 -19.200300
10.837231 -21.746759 -53.636554
5.532659 -22.080043 -14.860632
6.293748 -22.032224 -36.511435
9.371544 -21.838847 -29.744833
9.966817 -21.801446 -57.709573
10.710168 -21.754742 -7.817374
8.238545 -21.910033 -48.951031
4.856416 -22.122532 -20.773870
5.319547 -22.093433 -48.706624
11.277202 -21.719115 1.118731
10.986640 -21.737371 -21.599984
9.594496 -21.824839 2.601201
10.770243 -21.750967 -44.287521
5.494905 -22.082415 -15.401167
5.120168 -22.105960 -29.158286
8.639935 -21.884814 -28.081026
6.286484 -22.032681 -35.857446
10.042444 -21.796695 -27.357906
10.314274 -21.779616 -32.755264
8.592871 -21.887771 -2.549098
6.890622 -21.994723 -5.237385
6.374726 -22.027137 -3.115275
7.370177 -21.964593 -37.229356
11.476519 -21.706592 -21.301580
7.161772 -21.977687 -9.793403
12.045836 -21.670822 -45.763159
4.955509 -22.116306 -42.395285
6.615005 -22.012040 -41.805756
6.078164 -22.045769 -10.011856
8.050023 -21.921878 -54.595044
11.843875 -21.683511 -13.840771
11.920467 -21.678699 -1.167988
11.424396 -21.709867 -55.315863
6.535247 -22.017051 -8.419043
8.278356 -21.907532 -31.484950
5.805330 -22.062911 -55.716147
7.358945 -21.965298 -26.402721
6.422394 -22.024142 -27.565601
4.896980 -22.119983 -11.943235
4.944461 -22.117000 -58.546052
5.944301 -22.054180 -15.954281
10.068175 -21.795078 -39.015988
10.119887 -21.791829 -22.736141
6.561813 -22.015382 -42.933693
5.598970 -22.075877 -22.546713
6.160632 -22.040588 -54.526521
8.076662 -21.920204 -3.928468
8.287404 -21.906963 3.703525
10.992054 -21.737031 -53.125538
6.332525 -22.029788 -18.779667
11.325996 -21.716050 -60.276858
11.847503 -21.683283 -13.288443
8.069717 -21.920641 -44.390311
8.290364 -21.906777 -50.242628
8.839243 -21.872292 1.980659
9.067999 -21.857919 -4.201000
6.045105 -22.047847 -9.312731
9.928153 -21.803876 -25.510571
11.014372 -21.735629 -29.178133
6.612796 -22.012179 -15.389081
11.488646 -21.705830 -42.091966
6.598704 -22.013064 -16.067339
9.675914 -21.819724 -44.257961
10.359184 -21.776794 -22.164165
7.646646 -21.947222 -55.718823
5.542128 -22.079448 -41.223737
4.871926 -22.121557 -33.547305
6.054480 -22.047257 -0.211740
7.875804 -21.932824 -15.688699
5.301800 -22.094548 -16.138924
9.727949 -21.816454 -6.491481
11.943038 -21.677281 -6.535701
9.789708 -21.812574 3.467655
9.088704 -21.856618 -30.361630
7.869750 -21.933205 -27.864239
12.046671 -21.670770 -27.032048
7.695435 -21.944157 -40.936167
7.387157 -21.963526 -7.911851
5.501458 -22.082004 -57.572544
10.378313 -21.775592 -19.255396
5.597885 -22.075945 -50.010813
9.317523 -21.842241 -32.125847
12.012930 -21.672890 -44.706120
7.045743 -21.984977 -58.511042
8.503855 -21.893364 -36.254492
5.380670 -22.089593 -10.036450
12.051120 -21.670490 -10.695429
5.270438 -22.096519 -44.185933
8.434626 -21.897714 -55.957541
5.864268 -22.059208 -37.989267
8.004709 -21.924725 -9.850708
6.618877 -22.011797 -0.737707
12.045429 -21.670848 -34.835882
5.878444 -22.058318 -48.134913
11.640030 -21.696319 -47.013508
11.760943 -21.688722 -50.709718
9.836623 -21.809626 -20.424335
5.811894 -22.062499 -33.638328
11.224160 -21.722448 -12.311655
10.310650 -21.779843 -53.977493
10.936345 -21.740531 -49.735619
10.573541 -21.763326 -0.703036
11.913833 -21.679116 -40.460156
8.955156 -21.865009 -13.176313
10.987569 -21.737313 -25.390400
4.852543 -22.122775 -57.937917
4.830708 -22.124147 -15.134145
6.883797 -21.995152 -32.152410
6.168092 -22.040119 -45.104260
5.128114 -22.105461 -1.144137
4.848812 -22.123009 -56.401780
11.651092 -21.695624 -5.075450
5.108002 -22.106724 -12.694275
7.659764 -21.946398 -43.550067
11.202546 -21.723806 -51.137038
5.585561 -22.076720 -21.228609
10.614977 -21.760723 -58.099588
4.830470 -22.124162 -61.089419
7.759217 -21.940149 -18.561702
6.649805 -22.009853 -60.253079
9.443738 -21.834311 -10.961179
10.592231 -21.762152 -46.801800
4.862191 -22.122169 -47.533513
9.552244 -21.827494 -57.283704
9.359073 -21.839631 -19.941321
6.212251 -22.037345 -34.821016
5.013491 -22.112663 -31.925934
11.834185 -21.684120 -48.791908
9.030311 -21.860287 -58.024225
8.425209 -21.898305 -46.622394
10.485584 -21.768852 -10.420509
4.831301 -22.124109 -0.349667
7.834850 -21.935397 -34.367785
5.434196 -22.086230 -28.601515
6.228311 -22.036336 -46.964871
9.226062 -21.847988 -6.220248
12.058784 -21.670009 -31.561208
7.977256 -21.926450 -4.873134
5.997980 -22.050807 -41.636308
8.349432 -21.903066 -52.669354
10.844355 -21.746311 -57.525650
5.339773 -22.092162 -60.796092
10.436952 -21.771908 -3.601712
7.706309 -21.943474 -5.920089
7.685915 -21.944755 -25.278324
8.656087 -21.883799 -46.070000
7.569558 -21.952066 -22.341850
6.794316 -22.000774 -3.486697
10.373210 -21.775913 -15.957163
7.070443 -21.983425 -12.491528
6.469306 -22.021194 -49.037258
9.835046 -21.809726 -43.372768
9.060605 -21.858383 -50.803734
11.088966 -21.730942 -5.033251
4.942099 -22.117148 -36.320112
9.257892 -21.845988 -9.580335
5.213985 -22.100066 -48.120159
6.437756 -22.023176 -39.411524
8.571171 -21.889134 -0.409726
6.673299 -22.008377 -40.317655
11.834459 -21.684103 -61.065549
10.629898 -21.759785 -18.134511
12.058817 -21.670007 -20.251400
11.343663 -21.714940 -30.818069
8.169518 -21.914370 -13.694893
6.885685 -21.995033 -24.205344
8.050079 -21.921875 1.691235
8.062996 -21.921063 -25.775051
10.952061 -21.739544 -31.418505
9.785863 -21.812816 -60.481407
6.702739 -22.006528 -10.355212
7.174668 -21.976876 -16.007803
10.301317 -21.780430 -47.304734
7.141660 -21.978950 0.744769
7.726005 -21.942236 -1.908536
6.186262 -22.038978 -56.855815
10.247066 -21.783838 -12.393630
11.235692 -21.721723 -33.449852
9.161561 -21.852040 -3.384096
5.536175 -22.079822 -0.742136
12.052299 -21.670416 -59.130480
10.679389 -21.756676 -27.104765
10.410951 -21.773542 -23.570919
8.642943 -21.884625 -47.254771
8.180381 -21.913688 -15.243228
8.999489 -21.862223 -46.638140
7.576206 -21.951648 2.466737
10.125395 -21.791483 -37.893474
10.515566 -21.766969 0.524900
9.539969 -21.828265 -58.307116
6.034944 -22.048485 -12.665316
5.537470 -22.079741 -50.794146
6.595114 -22.013290 -9.282633
7.018282 -21.986702 -27.806080
6.162226 -22.040488 -17.411005
4.878285 -22.121157 1.937003
7.103402 -21.981354 -52.601466
10.539016 -21.765495 -42.387038
9.756560 -21.814657 -5.228883
10.918626 -21.741645 -7.196057
10.882903 -21.743889 -8.891142
7.762695 -21.939931 -48.563786
7.673577 -21.945530 -17.556070
6.090788 -22.044976 -51.071562
5.650757 -22.072623 0.895631
9.723825 -21.816714 -47.453818
10.285616 -21.781416 -6.836795
11.006640 -21.736115 -54.923592
6.301839 -22.031716 -50.081596
8.985436 -21.863106 -60.970763
4.830877 -22.124136 -46.230579
8.865425 -21.870647 -9.078927
4.859861 -22.122315 -32.748913
9.772358 -21.813664 -0.232076
5.499564 -22.082123 -54.821176
7.705186 -21.943544 -35.282496
8.263647 -21.908456 -34.896561
9.730706 -21.816281 -10.376906
6.802696 -22.000247 -20.369251
9.391526 -21.837592 -26.815512
8.855163 -21.871291 -36.735316
8.887692 -21.869248 -21.297382
8.856936 -21.871180 1.421135
11.998625 -21.673788 -8.004342
7.970632 -21.926866 -2.451253
9.500594 -21.830739 -38.740549
10.623728 -21.760173 -50.302086
11.637016 -21.696508 -18.432115
11.393566 -21.711804 -0.904634
10.332062 -21.778498 -20.871449
8.261905 -21.908566 -44.914784
11.189279 -21.724639 -5.657162
8.707971 -21.880539 -3.792285
9.138497 -21.853490 -10.476744
9.460947 -21.833230 -40.696619
11.850279 -21.683109 -15.299654
8.919867 -21.867226 3.867286
5.265441 -22.096833 -34.388128
