58.416643 15.985109 -0.544861 15.00000000
69.852590 40.601466 -58.290313 15.00000000
66.154001 26.964627 -39.495986 15.00000000
69.974547 42.598506 -48.583840 15.00000000
54.316300 12.405253 -6.416278 15.00000000
46.266513 7.676595 2.914833 15.00000000
68.835284 34.449806 -21.283510 15.00000000
70.000442 43.437104 -58.494142 15.00000000
58.317589 15.883499 -28.480425 15.00000000
68.795805 34.272540 -51.627536 15.00000000
69.970684 42.535248 -11.993848 15.00000000
35.614649 4.387436 -24.638415 15.00000000
54.686450 12.680827 -24.661601 15.00000000
49.568928 9.300020 -56.612654 15.00000000
38.362883 5.099161 -9.163446 15.00000000
69.454839 37.432833 -8.039035 15.00000000
69.852228 40.595541 1.385154 15.00000000
44.653918 6.989591 3.082185 15.00000000
69.143208 35.832396 -9.649119 15.00000000
50.484958 9.818220 -8.068273 15.00000000
69.625780 38.645273 -20.272959 15.00000000
39.399235 5.367551 -39.617032 15.00000000
63.002874 21.502475 -12.799335 15.00000000
39.266677 5.333222 -31.175731 15.00000000
69.003162 35.203584 -33.770363 15.00000000
69.956710 45.855531 -22.478089 15.00000000
69.381852 36.915156 -29.967924 15.00000000
42.213528 6.152539 -2.577456 15.00000000
69.678079 39.016221 -30.013743 15.00000000
51.096403 10.202342 -33.270441 15.00000000
66.218970 27.096961 -41.456989 15.00000000
67.015783 28.912431 -37.790251 15.00000000
68.474882 33.105177 -55.020868 15.00000000
47.987989 8.473259 -2.450955 15.00000000
69.336778 36.701530 -11.288110 15.00000000
54.115334 12.255636 -21.608382 15.00000000
58.865806 16.445862 -49.630747 15.00000000
66.431056 27.528959 -57.058133 15.00000000
69.987138 44.172791 0.176659 15.00000000
49.864721 9.454707 -58.288526 15.00000000
52.086885 10.824581 -40.236279 15.00000000
69.956933 45.843246 -48.026725 15.00000000
69.643742 38.772673 -4.531766 15.00000000
58.797485 16.375777 -36.547493 15.00000000
65.240431 25.103782 -37.338989 15.00000000
68.578897 33.443572 -12.195975 15.00000000
52.274328 10.942337 -13.073381 15.00000000
69.847221 40.513550 -36.470082 15.00000000
61.828717 19.839323 -10.095099 15.00000000
56.181437 13.911630 -55.588020 15.00000000
40.085915 5.545385 -17.136922 15.00000000
64.817764 24.390772 -15.198525 15.00000000
43.050294 6.433263 -26.409402 15.00000000
50.470683 9.809252 -43.554486 15.00000000
67.543692 30.244613 -39.382304 15.00000000
67.067415 29.042725 -8.825872 15.00000000
69.806112 39.924326 -28.048479 15.00000000
65.711306 26.062906 -2.325943 15.00000000
47.766147 8.357245 -4.519637 15.00000000
54.860159 12.810152 -50.595520 15.00000000
62.788560 21.198770 -59.164665 15.00000000
65.644514 25.926857 -0.398426 15.00000000
66.663138 28.022529 -27.600565 15.00000000
67.887070 31.192837 1.239373 15.00000000
69.741001 39.462506 -43.263918 15.00000000
42.123279 6.122262 -30.826709 15.00000000
60.364026 18.077572 -23.044064 15.00000000
62.992054 21.487142 -1.226453 15.00000000
69.299053 36.532143 -52.128395 15.00000000
43.840607 6.698402 -6.263337 15.00000000
43.787270 6.680508 -60.553830 15.00000000
56.180978 13.911227 -57.992528 15.00000000
69.965043 45.394752 -46.488851 15.00000000
59.294610 16.885730 0.817696 15.00000000
59.596952 17.195873 -39.183258 15.00000000
69.851137 40.577662 -30.814027 15.00000000
69.971418 45.042186 -33.083905 15.00000000
69.363335 36.820774 -31.874377 15.00000000
69.956090 45.889789 -0.623579 15.00000000
50.361665 9.740765 -60.534134 15.00000000
66.034348 26.720906 -11.479000 15.00000000
68.649291 33.672587 -37.117863 15.00000000
53.899677 12.095081 -43.631010 15.00000000
43.294441 6.515171 -55.288054 15.00000000
69.983386 44.380347 -23.627101 15.00000000
59.863421 17.475437 -36.261703 15.00000000
43.892632 6.715856 -2.195866 15.00000000
60.106590 17.767925 -6.450551 15.00000000
69.648683 38.807722 -54.673232 15.00000000
43.037833 6.429083 -59.289531 15.00000000
52.908719 11.357319 -47.187958 15.00000000
61.924200 19.973877 -1.555986 15.00000000
69.778266 39.726823 -39.321861 15.00000000
64.734454 24.250340 -29.878547 15.00000000
65.234016 25.092429 -44.466468 15.00000000
69.956720 45.855022 -28.959897 15.00000000
65.550734 25.735837 -13.860979 15.00000000
69.992662 43.867356 -47.208734 15.00000000
55.723286 13.510565 -16.393910 15.00000000
61.697806 19.681862 -38.809210 15.00000000
46.273900 7.679743 -58.717220 15.00000000
65.375928 25.379775 -59.300615 15.00000000
36.905910 4.721841 -3.736915 15.00000000
56.614329 14.290582 1.710659 15.00000000
65.951001 26.551138 -34.444490 15.00000000
59.449239 17.044348 -41.079695 15.00000000
43.409906 6.553908 -18.726496 15.00000000
57.954965 15.511519 -9.995410 15.00000000
63.081397 21.613751 -15.827860 15.00000000
66.940452 28.722335 -42.219631 15.00000000
45.903761 7.522054 -54.413743 15.00000000
46.566357 7.804336 -14.712979 15.00000000
60.549047 18.300118 -32.146685 15.00000000
46.065850 7.591108 -33.985395 15.00000000
39.622363 5.425336 -47.642640 15.00000000
47.139764 8.048622 -30.010423 15.00000000
37.580666 4.896586 -21.193624 15.00000000
47.946778 8.451707 -56.969503 15.00000000
43.389448 6.547045 -49.188922 15.00000000
44.102890 6.786395 -27.609101 15.00000000
49.678749 9.357452 -2.931428 15.00000000
64.467549 23.800432 -26.640523 15.00000000
36.660706 4.658339 -31.814251 15.00000000
65.058960 24.797344 -60.660710 15.00000000
44.885836 7.088394 -13.349599 15.00000000
69.823252 40.121058 -23.070422 15.00000000
68.971275 35.060407 -53.167520 15.00000000
58.347912 15.914604 -40.146542 15.00000000
69.956555 45.864075 -2.734403 15.00000000
67.086318 29.090428 -14.584724 15.00000000
69.901835 41.407851 -15.339506 15.00000000
69.140216 35.818962 -60.654635 15.00000000
64.897256 24.524767 0.218991 15.00000000
53.754416 11.986935 -40.687594 15.00000000
50.279174 9.688942 -53.100810 15.00000000
69.807646 39.935202 -32.351439 15.00000000
51.930251 10.726181 -16.126319 15.00000000
69.675282 38.996382 -35.671824 15.00000000
55.591857 13.395513 -33.962589 15.00000000
48.810070 8.903171 -46.825062 15.00000000
69.436946 37.305922 -36.308196 15.00000000
67.336939 29.722871 -60.791264 15.00000000
68.813370 34.351412 -59.696453 15.00000000
40.959566 5.771639 -39.190310 15.00000000
69.334097 36.689493 -41.115451 15.00000000
56.762026 14.419876 -29.116920 15.00000000
69.895748 41.308178 3.830434 15.00000000
36.135657 4.522364 -41.351552 15.00000000
67.177020 29.319314 -4.618205 15.00000000
68.225543 32.293999 -32.376421 15.00000000
44.764848 7.036850 1.428985 15.00000000
43.629454 6.627563 -50.686270 15.00000000
45.947702 7.540774 -22.821177 15.00000000
69.955270 45.935165 -10.701643 15.00000000
40.187555 5.571707 -50.552465 15.00000000
51.081539 10.193003 -3.470470 15.00000000
69.961792 45.574476 -15.608255 15.00000000
69.886560 41.157727 -50.407171 15.00000000
69.959357 42.349774 -41.403437 15.00000000
61.673573 19.652714 0.173076 15.00000000
69.955777 45.907203 -57.000319 15.00000000
69.827499 40.190597 -13.538254 15.00000000
69.938709 42.011657 -55.414656 15.00000000
67.913158 31.277707 -5.923584 15.00000000
46.827270 7.915491 -55.756915 15.00000000
41.823458 6.021676 -53.980492 15.00000000
62.078098 20.191967 -48.407132 15.00000000
69.713530 39.267661 0.350161 15.00000000
51.314114 10.339112 -37.360545 15.00000000
46.668185 7.847717 -6.515003 15.00000000
40.149374 5.561819 -44.080495 15.00000000
69.469097 37.533965 -9.878451 15.00000000
39.665376 5.436475 -8.284566 15.00000000
62.090421 20.209430 -18.374009 15.00000000
62.644320 20.994366 -34.530727 15.00000000
41.455238 5.900006 -60.957445 15.00000000
52.141740 10.859042 -8.738498 15.00000000
63.528767 22.247723 -6.655764 15.00000000
35.602079 4.384180 -52.793928 15.00000000
41.740598 5.993878 -46.731122 15.00000000
64.379618 23.652209 -46.910929 15.00000000
69.170276 35.953929 -25.627950 15.00000000
37.022439 4.752019 -58.340109 15.00000000
68.109269 31.915720 -21.486697 15.00000000
48.309457 8.641372 -25.553713 15.00000000
69.849696 40.554067 -5.632803 15.00000000
61.216471 19.102905 -56.103330 15.00000000
62.891348 21.344430 2.978512 15.00000000
63.339681 21.979768 -19.030097 15.00000000
51.025924 10.158065 -12.237359 15.00000000
42.185048 6.142985 -21.496372 15.00000000
60.166766 17.840305 -28.237361 15.00000000
57.201604 14.804681 -33.304784 15.00000000
68.080598 31.822444 -58.130914 15.00000000
65.897590 26.442346 -28.611693 15.00000000
59.637007 17.236961 -10.728341 15.00000000
61.798231 19.802655 -21.900727 15.00000000
63.897594 22.839684 -14.640063 15.00000000
57.099712 14.715485 -13.112570 15.00000000
60.756962 18.550201 -18.938848 15.00000000
65.975719 26.601486 -23.063924 15.00000000
69.953186 42.248731 -51.675052 15.00000000
63.862766 22.780978 -23.419466 15.00000000
37.153786 4.786034 -1.861161 15.00000000
58.986968 16.570149 -8.492315 15.00000000
38.970780 5.256592 -2.652537 15.00000000
66.024728 26.701312 -6.074390 15.00000000
55.870094 13.639080 -53.627776 15.00000000
62.945661 21.421398 -32.770108 15.00000000
39.250984 5.329158 -14.686400 15.00000000
60.457249 18.189702 -52.997212 15.00000000
50.949874 10.110289 -57.081772 15.00000000
69.322110 36.635670 1.765721 15.00000000
67.894730 31.217755 -52.208182 15.00000000
42.342079 6.195666 -4.416276 15.00000000
66.101170 26.857016 -21.094645 15.00000000
63.760380 22.608390 -9.514187 15.00000000
41.188314 5.830879 -48.359386 15.00000000
40.637360 5.688196 -45.528846 15.00000000
69.591356 38.401112 -60.850439 15.00000000
57.848323 15.402126 -30.079061 15.00000000
65.055904 24.792194 -20.352365 15.00000000
68.854179 34.534642 -4.079490 15.00000000
67.797746 30.902236 -33.981416 15.00000000
69.857221 40.677294 -11.724266 15.00000000
68.676300 33.760456 -18.396897 15.00000000
64.383153 23.658170 -53.324012 15.00000000
69.971160 45.056396 -4.257665 15.00000000
61.591867 19.554437 -8.566785 15.00000000
47.213886 8.080199 -28.339320 15.00000000
66.405900 27.477718 -36.244459 15.00000000
69.395366 37.011006 -20.778206 15.00000000
69.824173 40.136139 -16.375205 15.00000000
68.603474 33.523528 -33.690725 15.00000000
67.804723 30.924934 -31.509774 15.00000000
35.164166 4.270771 -50.868444 15.00000000
41.854083 6.031950 -16.964218 15.00000000
66.260652 27.181863 -9.200058 15.00000000
61.536021 19.487265 -25.960336 15.00000000
68.396521 32.850245 -5.005215 15.00000000
47.338466 8.133587 -18.163616 15.00000000
62.375667 20.613655 -7.316334 15.00000000
46.422299 7.742964 -60.793947 15.00000000
66.253098 27.166477 0.664491 15.00000000
69.970060 45.117215 2.994517 15.00000000
53.001051 11.426060 -60.929490 15.00000000
59.088529 16.674330 -56.948877 15.00000000
57.196159 14.799915 -59.574800 15.00000000
69.467218 37.520635 -56.030341 15.00000000
50.538653 9.851952 -51.612924 15.00000000
62.800021 21.215011 -39.770727 15.00000000
69.924479 41.778646 -19.780562 15.00000000
53.304823 11.652216 -4.450232 15.00000000
53.283382 11.636253 0.963779 15.00000000
61.863749 19.888212 -36.133208 15.00000000
45.566378 7.378321 -7.914715 15.00000000
69.589932 38.391013 -57.777967 15.00000000
69.984767 44.303994 -57.077738 15.00000000
60.202783 17.883627 -55.905480 15.00000000
69.978342 44.659277 -37.912909 15.00000000
60.185999 17.863439 -4.359999 15.00000000
69.574514 38.281659 -26.744713 15.00000000
67.593948 30.371435 -46.807456 15.00000000
58.159615 15.721449 -34.284467 15.00000000
53.403256 11.725499 -49.761051 15.00000000
63.427232 22.103837 -55.113384 15.00000000
60.627928 18.394997 0.813114 15.00000000
59.425467 17.019962 -18.151243 15.00000000
66.557315 27.786134 -31.999848 15.00000000
45.919533 7.528773 -44.167352 15.00000000
60.719939 18.505669 -44.056424 15.00000000
55.117012 13.001378 -10.958477 15.00000000
50.371270 9.746799 -17.212804 15.00000000
38.064385 5.021858 -38.309030 15.00000000
69.954492 45.978180 -13.645104 15.00000000
69.822035 40.101122 -47.100813 15.00000000
42.832234 6.360107 -41.983515 15.00000000
41.483557 5.907644 -8.424939 15.00000000
40.264857 5.591726 -19.748808 15.00000000
65.063922 24.805709 -50.783234 15.00000000
67.546232 30.251022 -40.905458 15.00000000
66.640564 27.965564 -12.125717 15.00000000
69.748698 39.517103 -41.293471 15.00000000
68.228809 32.304622 -46.345863 15.00000000
59.228439 16.817851 -34.354233 15.00000000
61.845255 19.862004 -12.477941 15.00000000
61.388550 19.309885 -28.239285 15.00000000
60.170719 17.845059 -60.942059 15.00000000
67.952216 31.404775 -4.253264 15.00000000
60.619969 18.385424 -7.869043 15.00000000
66.925932 28.685691 -46.646505 15.00000000
41.424171 5.891960 1.499391 15.00000000
63.538459 22.261458 -48.203137 15.00000000
69.506149 37.796760 -24.933539 15.00000000
49.775378 9.407985 -29.556099 15.00000000
69.413533 37.139860 -0.466071 15.00000000
40.135690 5.558275 -13.044874 15.00000000
67.813237 30.952635 -59.751949 15.00000000
57.640857 15.189306 -15.198807 15.00000000
66.404478 27.474823 3.650457 15.00000000
63.916782 22.872030 -35.270300 15.00000000
60.868941 18.684891 -36.441062 15.00000000
48.916255 8.958701 -40.975736 15.00000000
69.995013 42.933643 -14.053887 15.00000000
39.239226 5.326113 -54.233329 15.00000000
49.563923 9.297403 -37.664521 15.00000000
52.531830 11.104105 -24.753145 15.00000000
66.088408 26.831022 -58.872731 15.00000000
58.386227 15.953908 -11.714840 15.00000000
64.156928 23.276832 2.216027 15.00000000
39.593175 5.417777 -24.763181 15.00000000
65.191948 25.021516 -55.081135 15.00000000
67.282785 29.586214 -32.851119 15.00000000
68.870144 34.606328 -16.988238 15.00000000
52.091127 10.827247 -59.810452 15.00000000
58.023093 15.581404 -37.780755 15.00000000
46.526737 7.787457 -3.135720 15.00000000
67.708745 30.661127 -48.478761 15.00000000
36.760950 4.684300 -28.041228 15.00000000
69.958135 42.329765 -57.305744 15.00000000
53.805767 12.025165 -33.211532 15.00000000
42.776046 6.341257 -44.556708 15.00000000
67.544349 30.246272 -43.923189 15.00000000
68.160708 32.083069 -26.592187 15.00000000
60.726956 18.514109 -40.380133 15.00000000
69.305492 36.561057 -6.713197 15.00000000
42.641772 6.296209 -57.385009 15.00000000
36.846153 4.706365 1.559213 15.00000000
57.446379 15.018957 -57.648732 15.00000000
58.067556 15.627014 -5.038101 15.00000000
58.311309 15.877057 -31.461326 15.00000000
64.376816 23.647486 -44.847002 15.00000000
59.500597 17.097032 -30.516354 15.00000000
67.465336 30.046882 -28.095139 15.00000000
58.659636 16.234372 -58.554019 15.00000000
69.991178 43.949377 -1.763734 15.00000000
63.472225 22.167596 -58.134870 15.00000000
65.135930 24.927090 -5.165236 15.00000000
44.282687 6.846714 -32.538742 15.00000000
44.963395 7.121436 -48.128399 15.00000000
52.270127 10.939698 -0.311389 15.00000000
62.903817 21.362101 -50.792944 15.00000000
51.200191 10.267543 -20.893802 15.00000000
69.541422 38.046945 -39.139491 15.00000000
60.772050 18.568350 -10.464104 15.00000000
39.679551 5.440146 -1.142101 15.00000000
64.436152 23.747507 3.831470 15.00000000
67.664786 30.550195 -7.600546 15.00000000
57.242236 14.840250 -17.274250 15.00000000
69.610522 38.537056 -13.769447 15.00000000
63.159998 21.725137 -36.268669 15.00000000
69.702663 39.190585 -50.974613 15.00000000
68.361920 32.737674 -41.027539 15.00000000
69.997481 43.600866 -10.337788 15.00000000
40.993132 5.780332 -22.503052 15.00000000
38.738380 5.196406 -58.218382 15.00000000
61.047472 18.899631 -33.985510 15.00000000
69.153298 35.877699 3.442517 15.00000000
39.839113 5.481469 -42.019530 15.00000000
53.503275 11.799962 -56.648228 15.00000000
41.331289 5.867906 -26.666356 15.00000000
44.275482 6.844297 -17.483290 15.00000000
69.910377 41.547723 -60.264273 15.00000000
66.191429 27.040865 -46.954713 15.00000000
69.973418 42.580021 -36.359670 15.00000000
69.992355 43.884317 -18.945876 15.00000000
69.981807 44.467654 -36.117519 15.00000000
35.058825 4.243491 -17.594259 15.00000000
57.449265 15.021483 -52.043319 15.00000000
69.412138 37.129965 -12.951002 15.00000000
66.537747 27.746276 -15.371572 15.00000000
58.716050 16.292241 -53.246422 15.00000000
61.895909 19.933786 -24.025042 15.00000000
68.809763 34.335214 -10.482639 15.00000000
39.682938 5.441023 -10.351658 15.00000000
63.809868 22.691809 -39.269008 15.00000000
69.627988 38.660935 -11.386566 15.00000000
39.590367 5.417050 -55.819396 15.00000000
69.867115 40.839317 -56.438000 15.00000000
57.574203 15.130854 -19.024911 15.00000000
43.275405 6.508785 -11.784832 15.00000000
56.963650 14.596377 -2.902331 15.00000000
55.520383 13.332944 -25.843954 15.00000000
42.570386 6.272260 -7.012032 15.00000000
68.849582 34.514002 2.130946 15.00000000
69.979122 44.616149 -20.749057 15.00000000
63.120596 21.669300 -5.098998 15.00000000
49.207148 9.110825 -12.491377 15.00000000
70.002377 43.330084 -26.633073 15.00000000
61.084725 18.944439 -14.009914 15.00000000
47.020573 7.997843 -32.899120 15.00000000
58.440317 16.009394 -13.654048 15.00000000
37.139270 4.782275 -29.959902 15.00000000
66.002117 26.655256 -49.293545 15.00000000
56.859584 14.505278 -42.692392 15.00000000
43.337573 6.529641 -20.314224 15.00000000
63.417289 22.089746 -53.458338 15.00000000
69.794261 39.840270 -49.198272 15.00000000
69.954673 45.968231 -43.031669 15.00000000
49.777051 9.408859 -0.023954 15.00000000
45.739629 7.452130 -29.507785 15.00000000
55.131104 13.011869 -45.371746 15.00000000
68.680142 33.772955 -39.136868 15.00000000
35.630148 4.391449 -1.291621 15.00000000
40.699107 5.704186 -32.450501 15.00000000
69.949664 46.245251 -38.304432 15.00000000
57.930798 15.486728 -42.205543 15.00000000
55.954010 13.712541 -41.633423 15.00000000
62.701710 21.075693 -46.568536 15.00000000
67.815654 30.960495 -9.283687 15.00000000
49.622643 9.328111 -14.385507 15.00000000
69.972240 44.996715 -12.067198 15.00000000
68.211081 32.246948 -35.199921 15.00000000
66.795019 28.355331 -40.334710 15.00000000
61.496806 19.440096 -53.113599 15.00000000
68.762739 34.124075 -1.924289 15.00000000
38.903362 5.239132 -11.742601 15.00000000
68.184050 32.159007 -13.179774 15.00000000
35.613849 4.387228 3.062509 15.00000000
68.380651 32.798615 -23.139765 15.00000000
68.644538 33.657122 -27.165448 15.00000000
48.038276 8.499556 -10.258604 15.00000000
68.091620 31.858302 -11.118320 15.00000000
41.868690 6.036851 -56.013506 15.00000000
46.450882 7.755141 -9.866474 15.00000000
68.049611 31.721633 -18.071284 15.00000000
69.897708 41.340263 -38.139455 15.00000000
59.831467 17.437002 -14.807571 15.00000000
43.693944 6.649199 -14.996797 15.00000000
54.931986 12.863627 -47.135184 15.00000000
69.959214 45.717033 -7.901341 15.00000000
67.065312 29.037418 -59.133446 15.00000000
67.354102 29.766181 -2.930773 15.00000000
68.750671 34.069888 -35.407114 15.00000000
37.322190 4.829647 -33.396315 15.00000000
65.425381 25.480505 -35.630285 15.00000000
68.086187 31.840629 -19.673350 15.00000000
40.423642 5.632848 -37.532579 15.00000000
69.881535 41.075435 -42.188370 15.00000000
48.246555 8.608477 -39.026840 15.00000000
38.566727 5.151952 1.953359 15.00000000
69.831658 40.258700 -34.396642 15.00000000
40.761994 5.720473 -15.501689 15.00000000
41.426104 5.892461 -58.844738 15.00000000
69.084114 35.567061 -19.439258 15.00000000
58.436493 16.005471 -2.752249 15.00000000
61.775927 19.775826 -46.590717 15.00000000
62.128613 20.263553 -16.733803 15.00000000
45.050351 7.158481 -35.264896 15.00000000
69.158816 35.902476 -21.974841 15.00000000
41.527881 5.922514 -0.514773 15.00000000
69.586230 38.364757 -45.567869 15.00000000
69.994880 43.744681 2.111407 15.00000000
46.307170 7.693916 1.212970 15.00000000
57.511002 15.075528 -25.629975 15.00000000
46.532410 7.789874 -52.327282 15.00000000
64.955659 24.623216 -8.758691 15.00000000
69.393052 36.994597 -15.164332 15.00000000
52.262084 10.934645 -1.933640 15.00000000
50.442921 9.791812 -26.736261 15.00000000
69.979746 44.581650 -25.434739 15.00000000
62.218063 20.390313 -5.378627 15.00000000
68.812120 34.345799 -57.203033 15.00000000
64.169433 23.297912 -18.354824 15.00000000
63.071176 21.599267 -43.353568 15.00000000
54.956423 12.881820 -1.393699 15.00000000
53.196834 11.571819 -19.922116 15.00000000
42.414487 6.219959 -39.990090 15.00000000
53.590341 11.864782 -15.821170 15.00000000
60.572269 18.328050 -12.104004 15.00000000
48.120256 8.542428 -8.616498 15.00000000
70.002791 43.307184 -60.400380 15.00000000
38.213392 5.060447 -61.027108 15.00000000
37.729940 4.935244 -56.303639 15.00000000
64.088216 23.161007 -21.573010 15.00000000
37.549877 4.888612 -40.629104 15.00000000
52.000262 10.770163 -51.732738 15.00000000
46.080747 7.597454 -46.467227 15.00000000
68.637989 33.635818 -47.534475 15.00000000
68.807338 34.324326 -32.359197 15.00000000
59.044670 16.629340 -45.748235 15.00000000
64.281930 23.487542 -43.071699 15.00000000
34.938112 4.212229 -15.850380 15.00000000
48.370828 8.673466 -0.204791 15.00000000
69.248955 36.307203 -23.653134 15.00000000
62.356451 20.586424 -13.839816 15.00000000
38.115791 5.035170 -42.379238 15.00000000
48.555168 8.769868 -35.928147 15.00000000
69.010677 35.237325 -12.554711 15.00000000
69.947838 42.161151 1.446788 15.00000000
57.108807 14.723447 -48.341883 15.00000000
61.790557 19.793424 -31.105242 15.00000000
59.493444 17.089693 -25.122397 15.00000000
66.074964 26.803637 -30.513694 15.00000000
69.038146 35.360662 -30.951690 15.00000000
59.058844 16.643880 -4.140516 15.00000000
48.492986 8.737350 -53.486715 15.00000000
60.605158 18.367609 -38.595758 15.00000000
69.575686 38.289968 -22.390154 15.00000000
42.489131 6.245000 -37.233633 15.00000000
68.985512 35.124334 -47.766315 15.00000000
53.991540 12.163472 -26.230824 15.00000000
50.877171 10.064616 1.070020 15.00000000
38.364441 5.099565 -35.125385 15.00000000
69.904219 41.446881 -27.882466 15.00000000
69.265257 36.380399 -45.632526 15.00000000
63.047329 21.565473 -20.550560 15.00000000
42.772062 6.339920 -35.704707 15.00000000
57.745571 15.296722 -56.041577 15.00000000
68.993904 35.162013 -27.998486 15.00000000
64.490147 23.838524 -11.423311 15.00000000
66.870191 28.545030 1.365622 15.00000000
53.232274 11.598204 -58.499682 15.00000000
50.864586 10.056709 -47.316586 15.00000000
65.026917 24.743332 -1.479777 15.00000000
36.763595 4.684985 -16.157686 15.00000000
57.987064 15.544446 0.956796 15.00000000
62.252632 20.439301 -3.222562 15.00000000
66.525513 27.721358 -48.300442 15.00000000
34.938419 4.212308 -58.359978 15.00000000
51.172559 10.250184 -25.054613 15.00000000
63.685591 22.482322 -26.920716 15.00000000
37.915655 4.983340 -0.047396 15.00000000
69.950873 46.178377 -52.188642 15.00000000
43.725763 6.659873 -38.686569 15.00000000
49.094060 9.051685 -7.345057 15.00000000
69.973144 42.575542 -53.952087 15.00000000
67.983528 31.506644 -54.196720 15.00000000
65.048996 24.780549 2.071829 15.00000000
40.784596 5.726326 -11.528605 15.00000000
40.774971 5.723833 -29.492199 15.00000000
39.453583 5.381626 -6.096666 15.00000000
39.545197 5.405352 -52.281138 15.00000000
63.067784 21.594460 -22.584341 15.00000000
52.820360 11.291537 -42.389803 15.00000000
61.737157 19.729194 2.790862 15.00000000
68.298400 32.531024 -2.966772 15.00000000
69.019808 35.278322 -38.721130 15.00000000
69.980891 44.518305 -51.556877 15.00000000
69.951255 42.217112 -6.728406 15.00000000
52.579621 11.134127 -14.668555 15.00000000
62.659642 21.016078 -30.580384 15.00000000
69.911657 41.568679 -21.714522 15.00000000
67.427828 29.952231 -54.277404 15.00000000
69.994331 43.775038 -15.675329 15.00000000
69.966627 45.307180 -39.698596 15.00000000
37.677476 4.921658 -17.449341 15.00000000
53.590074 11.864583 -36.725816 15.00000000
67.194881 29.364386 -35.917507 15.00000000
61.408563 19.333956 -4.305710 15.00000000
68.695889 33.824183 -25.288713 15.00000000
58.422431 15.991047 -54.856742 15.00000000
69.894251 41.283661 -17.965437 15.00000000
55.455855 13.276456 -39.149581 15.00000000
49.441449 9.233354 -24.483055 15.00000000
69.947355 42.153247 -29.486846 15.00000000
69.957906 45.789477 -60.921147 15.00000000
48.682458 8.836435 3.591318 15.00000000
65.558941 25.752553 -15.492200 15.00000000
62.934520 21.405611 -60.708357 15.00000000
48.787395 8.891313 -60.934401 15.00000000
54.732305 12.714966 -56.276833 15.00000000
68.310809 32.571396 -48.938888 15.00000000
38.173739 5.050178 -50.188142 15.00000000
59.157982 16.745576 2.497496 15.00000000
69.263480 36.372419 -4.940079 15.00000000
63.138879 21.695209 -17.446105 15.00000000
60.472464 18.208004 -15.981441 15.00000000
57.270539 14.865027 -39.256568 15.00000000
41.132712 5.816480 -41.207690 15.00000000
66.649944 27.989235 -51.760208 15.00000000
53.441892 11.754263 -45.513833 15.00000000
47.336920 8.132778 -16.131551 15.00000000
54.122911 12.261277 -38.397815 15.00000000
56.036059 13.784366 -50.551788 15.00000000
60.048790 17.698401 -58.403989 15.00000000
65.809519 26.262954 -4.608078 15.00000000
66.116972 26.889203 -18.595439 15.00000000
49.600339 9.316447 -10.414977 15.00000000
48.461259 8.720758 -58.584900 15.00000000
43.895468 6.716807 -40.589848 15.00000000
69.951541 42.221793 -43.341274 15.00000000
68.788178 34.238296 -7.309424 15.00000000
56.832750 14.481788 -0.627066 15.00000000
66.143888 26.944028 -37.950154 15.00000000
51.849720 10.675590 -44.184035 15.00000000
69.574006 38.278055 1.496344 15.00000000
45.651626 7.414639 -42.142551 15.00000000
53.507553 11.803147 -10.329749 15.00000000
54.430061 12.489948 -9.008439 15.00000000
44.561645 6.950280 -25.373767 15.00000000
67.844407 31.054040 -23.166548 15.00000000
64.025324 23.054993 -19.983391 15.00000000
67.449443 30.006776 -20.257399 15.00000000
67.782798 30.853604 -29.400859 15.00000000
63.896646 22.838086 -31.078931 15.00000000
68.345431 32.684031 -7.935328 15.00000000
67.897067 31.225359 -2.081183 15.00000000
68.832738 34.438374 -29.296741 15.00000000
69.943179 42.084861 -25.255128 15.00000000
51.938236 10.731197 -48.584371 15.00000000
55.742258 13.527173 -7.209258 15.00000000
63.594200 22.340448 -28.508420 15.00000000
39.433382 5.376394 -21.660461 15.00000000
68.589021 33.476507 -20.005058 15.00000000
69.960232 45.660861 -49.555384 15.00000000
36.270460 4.557275 -39.493111 15.00000000
42.595014 6.280523 -24.810650 15.00000000
55.491754 13.307883 2.781525 15.00000000
67.689995 30.613810 -50.579261 15.00000000
69.156356 35.891431 -55.650159 15.00000000
67.088265 29.095340 -25.408975 15.00000000
35.625263 4.390184 -30.400931 15.00000000
61.471245 19.409351 -51.469285 15.00000000
52.387022 11.013133 -22.617231 15.00000000
45.538932 7.366628 -27.751730 15.00000000
39.587206 5.416231 -27.828299 15.00000000
53.456555 11.765180 -0.990525 15.00000000
54.469940 12.519637 -59.416945 15.00000000
40.479611 5.647342 -3.214944 15.00000000
50.555126 9.862301 -28.339350 15.00000000
68.349063 32.695847 -42.938532 15.00000000
37.786912 4.949999 -23.307344 15.00000000
68.821041 34.385852 -0.370364 15.00000000
43.053949 6.434489 -52.421791 15.00000000
53.675875 11.928461 -51.535126 15.00000000
64.776695 24.321545 -3.654223 15.00000000
56.916775 14.555343 -11.095974 15.00000000
47.004369 7.990940 -42.659187 15.00000000
53.825523 12.039873 -28.792569 15.00000000
69.955257 45.935879 -24.527124 15.00000000
35.222017 4.285753 -28.792667 15.00000000
66.974560 28.808404 -55.251489 15.00000000
47.560288 8.249589 -59.743736 15.00000000
69.960029 45.671912 1.510980 15.00000000
57.460506 15.031324 -49.934585 15.00000000
40.884278 5.752141 -6.703877 15.00000000
39.230703 5.323906 3.562376 15.00000000
52.106596 10.836964 -11.351875 15.00000000
50.669167 9.933944 -54.737951 15.00000000
45.458356 7.332301 -38.717260 15.00000000
44.976649 7.127082 -19.694637 15.00000000
41.264908 5.850715 3.790859 15.00000000
36.910979 4.723153 -51.672274 15.00000000
67.632487 30.468689 -14.057194 15.00000000
64.664678 24.132723 -34.697700 15.00000000
40.164681 5.565783 -57.419136 15.00000000
54.993295 12.909271 -52.247519 15.00000000
66.858145 28.514631 -18.576139 15.00000000
63.563938 22.297564 0.338904 15.00000000
36.569406 4.634694 -36.791454 15.00000000
53.679612 11.931244 -23.469380 15.00000000
42.933176 6.393971 2.943206 15.00000000
65.338441 25.303418 -10.229438 15.00000000
67.261808 29.533278 -57.603422 15.00000000
43.216990 6.489187 -47.455965 15.00000000
41.333758 5.868546 -24.046198 15.00000000
42.997421 6.415525 0.382030 15.00000000
64.362214 23.622873 -5.084230 15.00000000
39.656762 5.434244 0.843546 15.00000000
69.846397 40.500058 -3.295511 15.00000000
55.811693 13.587956 -30.345384 15.00000000
69.951202 46.160131 -26.235884 15.00000000
52.353098 10.991821 -35.770871 15.00000000
60.802341 18.604784 -30.290869 15.00000000
39.999649 5.523044 -59.979626 15.00000000
69.959709 45.689766 -44.954107 15.00000000
62.601976 20.934359 -28.765537 15.00000000
64.320546 23.552636 -37.209642 15.00000000
68.055237 31.739939 -44.707415 15.00000000
66.676808 28.057026 -53.556394 15.00000000
60.054288 17.705015 -26.602830 15.00000000
50.422651 9.779078 -49.483121 15.00000000
64.390091 23.669864 -55.067517 15.00000000
67.994719 31.543054 -38.222290 15.00000000
70.000399 43.439467 -33.969637 15.00000000
66.804859 28.380163 -29.172292 15.00000000
65.278670 25.181672 -12.358628 15.00000000
68.427073 32.949638 -9.849639 15.00000000
64.353222 23.607716 -48.595448 15.00000000
43.913597 6.722889 -34.345071 15.00000000
61.961248 20.026379 -33.506650 15.00000000
35.296694 4.305093 0.550310 15.00000000
47.302740 8.118053 -36.651730 15.00000000
59.154733 16.742243 -27.472279 15.00000000
47.259176 8.099494 -24.073994 15.00000000
51.538696 10.480198 -6.957091 15.00000000
67.076403 29.065406 -30.672601 15.00000000
62.605451 20.939284 -37.568546 15.00000000
52.930480 11.373521 -53.149115 15.00000000
65.620771 25.878495 -17.444585 15.00000000
45.160563 7.205434 -51.329226 15.00000000
66.706870 28.132887 -23.280661 15.00000000
56.766601 14.423880 3.846611 15.00000000
69.973690 44.916493 -9.339476 15.00000000
68.014730 31.608155 3.412986 15.00000000
60.830221 18.638318 -24.722470 15.00000000
65.805481 26.254729 -43.681945 15.00000000
63.990910 22.996984 -51.220334 15.00000000
68.154055 32.061425 -15.716172 15.00000000
69.954786 45.961955 -34.885973 15.00000000
69.146827 35.848643 -49.244119 15.00000000
63.310093 21.937838 -11.061568 15.00000000
62.698012 21.070453 1.153211 15.00000000
36.441708 4.601624 -50.117621 15.00000000
51.274024 10.313926 -41.828985 15.00000000
44.954734 7.117746 -53.022283 15.00000000
68.345668 32.684802 -52.512678 15.00000000
69.428159 37.243600 -48.268073 15.00000000
68.735100 33.999975 -49.814338 15.00000000
55.434488 13.257752 -5.635846 15.00000000
49.526749 9.277963 -20.676218 15.00000000
43.853602 6.702762 -3.730525 15.00000000
69.957555 45.808804 -19.060739 15.00000000
46.119218 7.613844 -25.352369 15.00000000
57.984234 15.541543 -23.567509 15.00000000
59.324302 16.916187 -21.733807 15.00000000
62.420571 20.677288 -53.866013 15.00000000
48.413126 8.695587 -55.356738 15.00000000
68.506780 33.208952 -30.514587 15.00000000
69.872089 40.920754 -52.886706 15.00000000
56.168892 13.900647 -44.670531 15.00000000
68.770081 34.157039 -14.008436 15.00000000
64.612242 24.044334 -40.182012 15.00000000
62.417858 20.673444 -27.084359 15.00000000
34.937904 4.212175 -22.679557 15.00000000
55.345551 13.179896 -43.547988 15.00000000
68.533723 33.296605 -61.115373 15.00000000
69.980925 44.516440 -30.286523 15.00000000
53.669377 11.923624 -34.721715 15.00000000
51.159773 10.242152 -10.289066 15.00000000
69.418356 37.174066 -33.603866 15.00000000
46.457381 7.757910 -49.003662 15.00000000
69.667675 38.942423 -7.738264 15.00000000
51.262669 10.306793 -14.489364 15.00000000
64.109164 23.196318 -1.030123 15.00000000
62.006103 20.089943 -57.679025 15.00000000
59.507830 17.104451 -43.771353 15.00000000
69.986750 44.194279 -7.770497 15.00000000
64.148151 23.262038 -16.768889 15.00000000
69.994542 42.925934 -8.946469 15.00000000
67.354931 29.768274 -24.025425 15.00000000
67.127021 29.193141 -50.124098 15.00000000
51.919762 10.719591 3.799282 15.00000000
44.024194 6.759993 -8.218574 15.00000000
55.435209 13.258383 -20.742354 15.00000000
69.130801 35.776685 -58.238325 15.00000000
69.030833 35.327826 -36.642012 15.00000000
58.393869 15.961747 -16.638416 15.00000000
67.307144 29.647682 -22.433256 15.00000000
65.409499 25.448156 -25.948198 15.00000000
45.206604 7.225049 -5.128856 15.00000000
35.431779 4.340077 -33.937188 15.00000000
42.493507 6.246468 -9.678230 15.00000000
42.187897 6.143941 -14.588319 15.00000000
53.522443 11.814233 -31.273378 15.00000000
69.904093 41.444831 -0.031583 15.00000000
60.741344 18.531416 -46.425686 15.00000000
65.235729 25.095316 -6.805605 15.00000000
48.017215 8.488542 -31.394158 15.00000000
44.341953 6.866597 -46.379915 15.00000000
69.105216 35.661807 -8.055015 15.00000000
51.913055 10.715378 -19.477622 15.00000000
69.322771 36.638640 -27.344313 15.00000000
69.995448 43.713286 -49.941680 15.00000000
35.575563 4.377313 -44.980725 15.00000000
56.363897 14.071355 -23.856195 15.00000000
67.608369 30.407826 -12.069100 15.00000000
69.969479 45.149419 -17.047876 15.00000000
37.656735 4.916286 -44.245682 15.00000000
67.641708 30.491957 -37.076159 15.00000000
69.602853 38.482659 -17.351981 15.00000000
61.687703 19.669710 -19.761862 15.00000000
53.731529 11.969896 -17.811507 15.00000000
69.925508 41.795504 -1.820219 15.00000000
64.583306 23.995557 -13.308803 15.00000000
68.271455 32.443365 -50.742614 15.00000000
68.449835 33.023691 1.342398 15.00000000
69.368643 36.844607 -53.956525 15.00000000
61.077884 18.936210 -6.372645 15.00000000
69.715447 39.281262 -59.557832 15.00000000
55.770264 13.551690 -27.881149 15.00000000
69.539307 38.031947 -52.752512 15.00000000
64.172941 23.303825 -7.513600 15.00000000
59.490018 17.086179 -12.846134 15.00000000
44.882776 7.087090 -56.362577 15.00000000
64.953586 24.619721 -23.255315 15.00000000
47.749248 8.348408 -22.363586 15.00000000
54.375763 12.449523 -53.999444 15.00000000
47.531156 8.234355 -41.091518 15.00000000
56.879820 14.522992 -20.321765 15.00000000
46.570163 7.805957 -12.676606 15.00000000
69.698102 39.158236 -37.715366 15.00000000
54.186831 12.308865 2.954960 15.00000000
52.933111 11.375479 2.795125 15.00000000
65.878857 26.404188 -55.716126 15.00000000
68.128756 31.979118 -39.693679 15.00000000
49.978954 9.514446 -39.507897 15.00000000
68.839002 34.466499 -23.424825 15.00000000
35.449994 4.344794 -47.815033 15.00000000
48.021875 8.490979 2.121834 15.00000000
69.962870 45.514947 -55.539291 15.00000000
56.832183 14.481291 -6.441258 15.00000000
66.869187 28.542497 -34.222857 15.00000000
67.637419 30.481134 -56.313835 15.00000000
66.533714 27.738062 -4.743607 15.00000000
67.286562 29.595746 -0.996663 15.00000000
51.036666 10.164814 -34.939206 15.00000000
65.742407 26.126253 -53.873017 15.00000000
64.996676 24.692355 -18.652059 15.00000000
44.603376 6.968059 -57.839130 15.00000000
59.665298 17.265982 -51.484139 15.00000000
48.195549 8.581803 -14.051680 15.00000000
68.878734 34.644897 -41.307348 15.00000000
66.480817 27.630317 -60.213225 15.00000000
35.889492 4.458613 -21.130105 15.00000000
69.817522 40.027216 -21.161128 15.00000000
60.848214 18.659961 -42.483434 15.00000000
36.770533 4.686781 -7.228862 15.00000000
62.495604 20.783619 -55.978085 15.00000000
69.397128 37.023504 -17.069045 15.00000000
66.920437 28.671825 -44.024349 15.00000000
37.487085 4.872351 -54.315906 15.00000000
65.341543 25.309738 -33.588141 15.00000000
47.595049 8.267768 -44.894559 15.00000000
69.543583 38.062272 -42.110382 15.00000000
57.671197 15.220429 -21.788980 15.00000000
69.815551 39.994946 -25.080888 15.00000000
40.194970 5.573627 -34.046609 15.00000000
53.590691 11.865043 -2.944961 15.00000000
36.042174 4.498154 -61.016435 15.00000000
46.131365 7.619019 -20.826283 15.00000000
69.926335 41.809045 -47.121834 15.00000000
56.955672 14.589393 -36.697405 15.00000000
56.247571 13.969523 -47.086055 15.00000000
59.226048 16.815398 -23.310770 15.00000000
59.278703 16.869412 -19.934472 15.00000000
60.548777 18.299793 -2.187369 15.00000000
37.477250 4.869804 -12.875693 15.00000000
64.391439 23.672137 -24.748394 15.00000000
48.430365 8.704602 -29.129703 15.00000000
65.352182 25.331408 -41.545999 15.00000000
69.905791 41.472633 -39.729988 15.00000000
68.331290 32.638026 -1.418173 15.00000000
67.498740 30.131177 -18.580061 15.00000000
68.822936 34.394362 -45.972227 15.00000000
69.445041 37.363341 -50.134113 15.00000000
69.842137 40.430302 -8.617799 15.00000000
59.974393 17.608916 -0.647850 15.00000000
58.094343 15.654493 -6.595183 15.00000000
63.257497 21.863304 -41.510739 15.00000000
54.573178 12.596497 1.127827 15.00000000
48.946449 8.974491 -43.879833 15.00000000
67.518704 30.181557 -15.776151 15.00000000
69.242250 36.277097 -35.128388 15.00000000
62.970930 21.457207 -24.434276 15.00000000
55.347090 13.181244 -36.679814 15.00000000
64.163199 23.287403 -2.632554 15.00000000
65.642371 25.922490 3.707937 15.00000000
60.480676 18.217881 -20.804612 15.00000000
69.775319 39.705919 -10.131347 15.00000000
63.198417 21.779582 -45.049473 15.00000000
69.838430 40.369591 -54.511360 15.00000000
38.212181 5.060133 -46.418419 15.00000000
53.957309 12.137987 -13.841269 15.00000000
69.130991 35.777539 -2.732949 15.00000000
52.609560 11.152936 -5.975348 15.00000000
65.420248 25.470050 -46.676809 15.00000000
69.950416 46.203616 -5.777357 15.00000000
45.336342 7.280320 -40.479216 15.00000000
61.842588 19.858224 -59.228515 15.00000000
69.954520 45.976673 -36.802538 15.00000000
52.094739 10.829516 -55.260695 15.00000000
37.668725 4.919391 -48.635259 15.00000000
52.069379 10.813584 -17.672085 15.00000000
43.540478 6.597713 -29.757596 15.00000000
51.419508 10.405322 -31.826985 15.00000000
41.852742 6.031501 -19.655786 15.00000000
41.543085 5.927615 -51.249872 15.00000000
69.952349 46.096741 -31.845083 15.00000000
56.664195 14.334234 -34.772133 15.00000000
64.713464 24.214959 -28.376965 15.00000000
55.492671 13.308685 -48.936283 15.00000000
48.990150 8.997345 -27.657877 15.00000000
68.542620 33.325550 -44.853435 15.00000000
65.556501 25.747583 -57.650565 15.00000000
35.592131 4.381604 -55.015124 15.00000000
67.051872 29.003502 -6.951015 15.00000000
68.399030 32.858408 -59.529887 15.00000000
35.192479 4.278104 -37.922776 15.00000000
41.790802 6.010720 -12.749537 15.00000000
45.131698 7.193137 -15.200364 15.00000000
69.394906 37.007742 -59.492216 15.00000000
47.344196 8.136583 -47.179494 15.00000000
69.973158 42.575763 -45.701969 15.00000000
37.343867 4.835261 -14.680157 15.00000000
66.803699 28.377235 -20.197787 15.00000000
69.963772 45.465033 -41.380566 15.00000000
35.480132 4.352599 -2.801117 15.00000000
69.554535 38.139953 -28.378784 15.00000000
38.478729 5.129162 -26.701500 15.00000000
49.709954 9.373771 -4.572589 15.00000000
67.075060 29.062018 -17.005915 15.00000000
63.067820 21.594510 -8.364695 15.00000000
58.599968 16.173164 -51.153925 15.00000000
70.004295 43.224021 -38.680617 15.00000000
68.117809 31.943503 -25.032534 15.00000000
66.110025 26.875053 -26.368560 15.00000000
69.965354 45.377551 -58.745570 15.00000000
56.626704 14.301415 -9.655665 15.00000000
56.405142 14.107460 -38.069641 15.00000000
68.943080 34.933811 -44.441123 15.00000000
36.832466 4.702820 -10.979695 15.00000000
51.191576 10.262131 -30.018772 15.00000000
49.383578 9.203091 -32.459124 15.00000000
49.899221 9.472749 2.315044 15.00000000
45.145049 7.198825 -31.152990 15.00000000
60.511235 18.254637 3.349683 15.00000000
55.694386 13.485266 -3.592882 15.00000000
38.103509 5.031990 -52.901361 15.00000000
69.802227 39.896766 -18.942583 15.00000000
44.279957 6.845798 -22.768157 15.00000000
48.511962 8.747274 -34.167351 15.00000000
57.003186 14.630987 -27.426808 15.00000000
61.671580 19.650317 -44.857201 15.00000000
66.437984 27.543069 -24.905137 15.00000000
69.531132 37.973961 -43.867225 15.00000000
69.990594 43.981703 -54.791263 15.00000000
58.025877 15.584260 3.142558 15.00000000
69.958974 45.730391 -53.751744 15.00000000
52.812142 11.285419 -38.317270 15.00000000
58.659853 16.234595 -60.675699 15.00000000
55.851006 13.622370 -60.853797 15.00000000
69.969349 42.513399 -32.299098 15.00000000
58.915862 16.497209 -47.343504 15.00000000
69.520314 37.897232 -2.823903 15.00000000
55.159763 13.033206 -32.026512 15.00000000
42.520632 6.255569 -32.973225 15.00000000
64.692169 24.179062 -31.756254 15.00000000
57.702833 15.252881 -45.218038 15.00000000
61.181373 19.060689 -17.052394 15.00000000
49.637909 9.336094 -22.536626 15.00000000
36.538928 4.626801 -9.150343 15.00000000
42.018659 6.087163 -28.250234 15.00000000
65.900273 26.447810 -52.133193 15.00000000
57.351391 14.935804 -53.749184 15.00000000
48.238811 8.604427 -6.187010 15.00000000
59.287174 16.878101 -32.687320 15.00000000
62.254460 20.441892 -42.059332 15.00000000
36.351645 4.578299 -46.531116 15.00000000
65.396058 25.420777 -30.995503 15.00000000
48.777470 8.886123 -51.656168 15.00000000
41.698512 5.979758 -43.372481 15.00000000
41.436763 5.895221 -34.894704 15.00000000
44.677358 6.999577 -10.734257 15.00000000
60.805666 18.608783 -47.917827 15.00000000
65.305590 25.236504 -48.975590 15.00000000
42.673630 6.306897 -22.932637 15.00000000
66.351543 27.366999 -44.666602 15.00000000
45.738963 7.451847 -0.289114 15.00000000
50.196590 9.637061 -45.590355 15.00000000
44.270595 6.842657 -36.580363 15.00000000
68.277165 32.461941 -56.623003 15.00000000
69.997890 43.578209 -40.319260 15.00000000
67.125799 29.190058 2.932531 15.00000000
47.697026 8.321097 -20.134066 15.00000000
48.750786 8.872168 -17.604445 15.00000000
63.752042 22.594336 -59.867005 15.00000000
69.997636 43.592271 -5.933652 15.00000000
60.753678 18.546252 -50.005777 15.00000000
35.071986 4.246899 -43.071666 15.00000000
52.042384 10.796625 -45.895083 15.00000000
38.878649 5.232732 -32.771599 15.00000000
66.686985 28.082709 -2.323242 15.00000000
66.259751 27.180028 -13.994956 15.00000000
34.989546 4.225549 -26.540702 15.00000000
36.251442 4.552349 -19.464810 15.00000000
39.165565 5.307036 -36.626935 15.00000000
39.100803 5.290265 -29.589710 15.00000000
35.199823 4.280006 -12.426391 15.00000000
65.832718 26.310209 -7.759055 15.00000000
38.384517 5.104764 -19.175498 15.00000000
64.384126 23.659809 -58.763489 15.00000000
57.059259 14.680073 -7.986925 15.00000000
50.987245 10.133766 -1.210262 15.00000000
47.857511 8.405024 -50.503081 15.00000000
51.000548 10.142123 -5.197462 15.00000000
55.486512 13.303294 -14.035141 15.00000000
45.787007 7.472314 -16.795714 15.00000000
35.276729 4.299922 -14.062496 15.00000000
47.214651 8.080525 -26.668780 15.00000000
36.737757 4.678293 -26.254834 15.00000000
49.202691 9.108494 -48.431645 15.00000000
69.699600 39.168861 -1.382139 15.00000000
69.994673 43.756119 -43.772581 15.00000000
35.013231 4.231683 -4.817545 15.00000000
52.755249 11.244460 -27.459838 15.00000000
69.287564 36.480559 -43.160865 15.00000000
37.841073 4.964025 -5.568789 15.00000000
66.719770 28.165440 -10.469299 15.00000000
