-67.505466 -4.180355 5.504048 2.00000000
-22.678794 75.024190 5.177676 2.00000000
-27.940492 72.526450 3.930490 2.00000000
-68.106357 2.137278 3.961808 2.00000000
60.715431 -45.770315 5.495303 2.00000000
6.127198 80.992650 6.057401 2.00000000
78.369227 -15.645666 5.649514 2.00000000
65.457193 52.547971 4.698839 2.00000000
-15.370581 -65.483476 3.946967 2.00000000
28.009438 77.919410 4.277103 2.00000000
22.443300 79.335420 6.710871 2.00000000
69.374525 -34.889654 5.600484 2.00000000
-42.041406 62.989116 6.542888 2.00000000
34.090086 75.798625 4.083949 2.00000000
-38.655497 65.731605 5.823280 2.00000000
61.053012 57.621025 4.944298 2.00000000
81.063139 -2.700354 5.444016 2.00000000
18.882289 -67.817241 6.168542 2.00000000
78.825068 26.290822 6.606411 2.00000000
-45.749808 59.599377 6.757474 2.00000000
37.508807 74.366441 5.184992 2.00000000
30.997897 76.945855 6.804092 2.00000000
-59.777362 -28.463355 6.744740 2.00000000
-65.464405 -14.053279 4.116126 2.00000000
9.804839 -68.745451 6.636006 2.00000000
67.363378 -37.802030 5.795830 2.00000000
68.952236 -35.553963 4.627126 2.00000000
50.952468 -54.313242 4.180988 2.00000000
17.770435 80.185838 3.981301 2.00000000
67.284483 50.107833 3.996132 2.00000000
-68.140733 9.537798 3.993437 2.00000000
71.654089 -31.181919 3.933623 2.00000000
-59.925570 40.397061 6.617670 2.00000000
-3.481449 -68.105128 5.622925 2.00000000
23.950767 78.989617 4.117482 2.00000000
65.273879 -40.575808 4.919149 2.00000000
-49.638335 55.506432 5.552697 2.00000000
78.730461 -14.450970 5.277667 2.00000000
-57.195445 45.212098 3.944229 2.00000000
17.682563 80.197006 6.562040 2.00000000
-67.240587 -6.044769 4.754984 2.00000000
-9.957850 79.146606 4.878202 2.00000000
81.482902 2.207503 4.167700 2.00000000
57.263957 -49.142998 5.137308 2.00000000
-67.386301 17.304445 3.895592 2.00000000
81.580559 8.124282 6.267643 2.00000000
-11.755722 -66.489332 5.051785 2.00000000
-4.678081 -67.953039 6.769121 2.00000000
81.571779 3.603244 6.218682 2.00000000
-68.087555 1.834753 5.679526 2.00000000
-54.958011 -36.470510 4.015329 2.00000000
-34.047696 -56.752593 6.819906 2.00000000
-68.209074 4.769977 4.309123 2.00000000
74.271245 38.369937 4.812756 2.00000000
-39.720237 64.906417 6.047414 2.00000000
-51.799158 -40.698154 4.595257 2.00000000
-65.777407 25.025785 4.123944 2.00000000
-25.721439 -61.422424 5.465505 2.00000000
-20.135013 -63.833021 3.930306 2.00000000
60.334891 -46.174933 4.532760 2.00000000
48.438036 -56.107987 6.573729 2.00000000
-66.358891 -10.558456 4.014909 2.00000000
62.679948 55.874356 6.104601 2.00000000
10.359826 80.909933 5.989485 2.00000000
47.867676 68.664542 4.258253 2.00000000
-62.304122 35.293464 5.216555 2.00000000
69.437652 46.990305 4.445931 2.00000000
-0.209878 80.708161 5.626193 2.00000000
-9.840309 79.176690 5.882500 2.00000000
-22.714355 -62.809538 6.126512 2.00000000
-63.410523 -20.302658 4.158896 2.00000000
32.886702 76.276128 5.195645 2.00000000
21.415431 -67.336011 3.991932 2.00000000
-54.704052 49.021490 4.016465 2.00000000
-47.036031 -46.101135 6.175009 2.00000000
68.070655 49.024048 4.042907 2.00000000
1.827830 80.834805 5.743754 2.00000000
-46.140953 -47.030851 6.808664 2.00000000
58.710154 -47.787001 6.084225 2.00000000
50.890629 66.555073 6.806167 2.00000000
-18.471310 -64.473396 5.790697 2.00000000
-2.370603 -68.246314 5.632020 2.00000000
-65.032300 -15.533437 6.812078 2.00000000
-20.237482 75.988639 3.947501 2.00000000
-36.787445 -54.890547 5.562121 2.00000000
74.888013 -24.862961 6.301733 2.00000000
30.879054 76.984570 5.527304 2.00000000
-8.448146 79.456709 6.867235 2.00000000
-27.410571 72.817251 6.829473 2.00000000
29.709674 77.365521 5.522245 2.00000000
-31.778013 70.389212 6.793352 2.00000000
-49.297881 55.890719 3.939883 2.00000000
-5.474227 80.021675 5.519057 2.00000000
63.398252 -42.839575 4.953322 2.00000000
57.635349 -48.809956 4.039924 2.00000000
-60.757728 -26.476108 4.043626 2.00000000
77.491114 30.545310 5.736187 2.00000000
-46.934406 58.403708 5.322624 2.00000000
62.187848 -44.204739 6.741046 2.00000000
9.768771 -68.747692 3.895667 2.00000000
-12.311000 78.544327 3.920847 2.00000000
56.619329 61.948657 6.411819 2.00000000
-7.252753 79.683802 4.884691 2.00000000
81.579415 6.615513 4.481767 2.00000000
-13.621484 78.208914 3.934230 2.00000000
-64.403554 29.668657 4.371550 2.00000000
-23.260854 74.776347 6.852903 2.00000000
-59.919912 -28.203592 5.210737 2.00000000
46.437100 69.573933 4.383967 2.00000000
19.926703 -67.618830 4.001736 2.00000000
80.072741 21.078303 3.932639 2.00000000
80.981625 15.539911 6.782279 2.00000000
66.019616 -39.648613 5.342386 2.00000000
55.276481 -50.903963 5.680153 2.00000000
-68.208011 3.772901 5.321589 2.00000000
-21.441753 -63.314506 4.119356 2.00000000
81.422359 1.256700 6.743415 2.00000000
-68.034825 0.986315 6.598680 2.00000000
11.754409 -68.624285 6.718444 2.00000000
-64.018116 -18.662831 5.631105 2.00000000
71.840807 -30.842888 5.453753 2.00000000
-68.208027 6.150359 5.293278 2.00000000
19.977753 -67.609132 6.294306 2.00000000
76.301090 33.716049 6.866576 2.00000000
-26.755986 -60.934652 5.786283 2.00000000
-55.015652 48.593289 6.817379 2.00000000
-65.361627 -14.454841 6.729428 2.00000000
-49.071093 -43.953553 3.937964 2.00000000
-11.175823 78.834871 4.315880 2.00000000
-60.364212 -27.314022 5.510013 2.00000000
75.590141 35.515696 4.024557 2.00000000
-50.723475 54.196735 4.107755 2.00000000
-40.246563 64.471668 6.723114 2.00000000
-65.052610 27.676195 4.604370 2.00000000
-58.826083 42.393456 5.035132 2.00000000
80.275971 20.008570 4.034450 2.00000000
27.292017 78.129050 5.170499 2.00000000
-68.165935 9.142024 6.491272 2.00000000
-54.078921 49.880548 4.591482 2.00000000
73.559028 -27.681627 5.558386 2.00000000
-57.223248 -32.967411 5.547629 2.00000000
23.341183 -66.946054 3.919937 2.00000000
-63.478384 32.334187 5.086813 2.00000000
-54.079907 -37.681051 6.577283 2.00000000
18.982162 -67.798268 4.055187 2.00000000
66.551307 51.118561 3.987085 2.00000000
25.638101 78.555030 6.202223 2.00000000
80.782299 -4.909934 3.887243 2.00000000
-52.379417 -39.995666 5.188639 2.00000000
-43.497288 -49.517183 4.040385 2.00000000
-67.407068 -4.964009 4.260456 2.00000000
55.706578 62.742841 5.812928 2.00000000
-24.779175 -61.866686 5.816780 2.00000000
-68.028127 11.306203 4.607170 2.00000000
-29.112418 71.883340 5.690951 2.00000000
75.544851 35.630339 6.691682 2.00000000
50.014424 67.192697 4.955429 2.00000000
72.901452 -28.917045 5.658874 2.00000000
69.768572 -34.269774 4.808163 2.00000000
13.396014 -68.522259 4.239587 2.00000000
31.397930 -64.620815 5.169351 2.00000000
-53.350235 50.881911 6.871729 2.00000000
78.881480 -13.864636 6.142745 2.00000000
-41.503125 63.433740 5.075845 2.00000000
78.447799 27.593336 6.454553 2.00000000
59.098673 -47.426754 3.942992 2.00000000
58.259664 60.405944 3.956250 2.00000000
-68.202203 8.572452 4.358057 2.00000000
33.131617 -63.979625 6.775353 2.00000000
-4.346255 80.195128 5.183983 2.00000000
-32.617034 -57.662032 4.234084 2.00000000
47.910318 68.637435 5.948457 2.00000000
25.044454 -66.510109 4.138733 2.00000000
19.353621 79.927238 4.952108 2.00000000
77.980109 29.036451 4.402238 2.00000000
36.091103 -62.810461 6.701104 2.00000000
-47.260661 58.056813 3.923986 2.00000000
-34.849577 68.443183 6.741617 2.00000000
61.830517 -44.584679 3.967092 2.00000000
79.876898 22.109160 6.848995 2.00000000
-52.577059 -39.752871 6.672853 2.00000000
24.455029 -66.660970 4.917024 2.00000000
-48.717814 56.507481 4.567524 2.00000000
-19.070485 76.449666 5.572007 2.00000000
-48.549012 -44.488717 5.807650 2.00000000
-21.253250 -63.389304 6.831908 2.00000000
-68.010508 0.595061 4.082200 2.00000000
47.469375 -56.721719 4.020058 2.00000000
-0.763731 80.644942 4.117527 2.00000000
-42.740018 -50.210407 4.317654 2.00000000
78.970750 25.721632 4.283073 2.00000000
12.908803 80.747623 6.070777 2.00000000
-36.737837 67.122621 6.745657 2.00000000
14.770475 -68.367725 3.936382 2.00000000
-67.254040 -5.973958 6.613443 2.00000000
81.519853 2.787794 5.329669 2.00000000
-64.236683 30.180915 6.349426 2.00000000
48.588249 68.206486 4.994540 2.00000000
-35.688769 67.883588 6.562580 2.00000000
64.838401 53.297121 3.951803 2.00000000
-50.587721 -42.164807 5.483627 2.00000000
38.152253 -61.864890 5.163455 2.00000000
80.448324 -6.912328 5.207092 2.00000000
-2.580334 80.416853 4.745810 2.00000000
-17.460217 -64.802765 4.767606 2.00000000
35.473297 -63.054529 4.379829 2.00000000
-66.950316 -7.572716 5.120277 2.00000000
58.787814 -47.720592 4.941650 2.00000000
-63.544149 32.168449 6.204907 2.00000000
-30.189157 -59.093530 6.638160 2.00000000
21.598656 79.497208 4.994102 2.00000000
-56.441001 46.398910 5.207788 2.00000000
56.364907 -49.985990 3.968087 2.00000000
-17.821537 76.884776 4.512612 2.00000000
41.598367 72.371339 4.668247 2.00000000
-40.472537 64.285010 3.982942 2.00000000
81.579970 7.348404 5.343686 2.00000000
81.578309 5.157401 4.108848 2.00000000
20.981385 -67.418468 6.682985 2.00000000
75.833771 -22.696191 5.574556 2.00000000
-53.380966 50.839681 3.888308 2.00000000
-36.875472 -54.826489 6.694924 2.00000000
81.257966 13.338985 5.739544 2.00000000
-29.873150 -59.267570 3.957631 2.00000000
44.758483 -58.437464 6.435869 2.00000000
27.138180 -65.974228 4.876671 2.00000000
-49.828621 -43.083816 6.586977 2.00000000
80.069679 21.094423 6.280983 2.00000000
-0.325415 -68.500087 5.520773 2.00000000
61.765951 56.866773 4.199233 2.00000000
30.414962 -64.939378 4.603681 2.00000000
-51.573304 53.171044 4.207837 2.00000000
-40.130924 64.567187 4.900557 2.00000000
28.821740 -65.455714 4.150987 2.00000000
-14.630526 77.918928 6.696711 2.00000000
28.253657 77.839850 5.503068 2.00000000
28.928879 -65.420992 5.530115 2.00000000
-27.369944 72.839546 5.325661 2.00000000
-54.106698 49.842377 5.631543 2.00000000
-33.489348 69.304973 6.726616 2.00000000
58.345766 -48.138436 4.099230 2.00000000
-16.001412 -65.277979 5.541160 2.00000000
-29.259650 -59.605453 6.785704 2.00000000
-20.236569 -63.792723 6.810906 2.00000000
15.378458 -68.291389 4.950365 2.00000000
32.269763 76.520929 4.387983 2.00000000
80.736525 -5.270072 6.702467 2.00000000
81.578622 5.569980 6.811172 2.00000000
-45.586403 59.757703 3.899106 2.00000000
-55.250622 48.270392 4.956239 2.00000000
10.880091 -68.678624 5.688186 2.00000000
-66.163482 -11.321930 5.060518 2.00000000
-67.637996 -3.124879 6.828610 2.00000000
80.482279 18.922630 5.540511 2.00000000
-68.008243 0.558616 5.637410 2.00000000
75.130872 -24.347878 5.269172 2.00000000
62.022915 56.575090 6.824460 2.00000000
62.590906 55.969445 4.024827 2.00000000
79.837511 -10.101304 5.801241 2.00000000
46.908805 -57.076856 5.717029 2.00000000
44.910488 70.544373 6.695686 2.00000000
80.324190 -7.560418 4.425601 2.00000000
-19.279385 76.367139 4.168513 2.00000000
-12.607478 78.468444 6.339815 2.00000000
42.132991 72.076898 6.646520 2.00000000
61.427794 57.209801 6.225614 2.00000000
81.547187 8.935808 4.330985 2.00000000
22.089547 -67.207947 6.148139 2.00000000
75.953549 34.595789 4.097024 2.00000000
79.487184 -11.512982 5.876656 2.00000000
-61.970516 -23.893721 3.923511 2.00000000
-51.207982 -41.413869 5.103707 2.00000000
44.211628 70.932103 4.214653 2.00000000
69.455014 -34.763036 3.885142 2.00000000
-53.998931 -37.792680 3.932045 2.00000000
34.987983 75.442339 6.730776 2.00000000
13.402256 -68.521871 5.569644 2.00000000
8.723208 -68.796375 6.640183 2.00000000
81.489751 9.859907 5.205289 2.00000000
81.421067 10.964980 5.270648 2.00000000
72.628555 -29.412552 6.793944 2.00000000
-67.804072 -1.802235 3.886359 2.00000000
4.182832 80.981168 6.792859 2.00000000
-66.497640 -9.955538 6.635140 2.00000000
-20.867976 75.739561 5.935021 2.00000000
-25.219045 73.856691 4.102958 2.00000000
63.163607 -43.122776 6.332827 2.00000000
23.263669 79.166584 5.480136 2.00000000
73.250771 -28.282777 6.612891 2.00000000
-10.421819 -66.832908 4.487587 2.00000000
70.992084 -32.345050 3.969765 2.00000000
-63.824866 -19.253837 4.280206 2.00000000
-52.488428 52.066210 4.001032 2.00000000
43.810455 71.153047 6.099640 2.00000000
79.122289 -12.929692 5.561689 2.00000000
-65.991753 -11.992890 5.759762 2.00000000
-46.954276 -46.188329 5.087958 2.00000000
-37.629804 66.475630 5.037024 2.00000000
-8.724082 -67.204737 6.848474 2.00000000
-31.099613 70.792840 5.755155 2.00000000
-20.793225 75.769091 4.772394 2.00000000
52.717468 65.219443 3.988487 2.00000000
76.421691 33.410767 4.217389 2.00000000
70.697536 45.001703 4.067905 2.00000000
81.340533 -0.028317 6.683487 2.00000000
43.742146 -58.995193 5.859056 2.00000000
-44.104610 -48.946005 5.502671 2.00000000
72.280749 -30.044073 4.440031 2.00000000
81.131720 14.344473 6.764739 2.00000000
-60.222963 39.804980 3.931207 2.00000000
16.756005 -68.118428 6.551391 2.00000000
-66.660214 -9.099775 5.220180 2.00000000
-66.284358 23.057542 6.678874 2.00000000
-58.651729 -30.514543 6.844253 2.00000000
-55.333068 48.141793 3.882251 2.00000000
-49.206184 -43.799600 5.138792 2.00000000
14.851389 -68.357566 5.834827 2.00000000
-18.855845 -64.340594 6.857006 2.00000000
-67.826595 13.840236 4.759422 2.00000000
-68.123718 2.416614 6.619081 2.00000000
57.922579 -48.525454 5.935139 2.00000000
-2.720417 -68.201854 6.607944 2.00000000
31.970167 76.629117 6.839647 2.00000000
79.773993 22.583301 5.763287 2.00000000
74.184437 38.554774 5.851306 2.00000000
-35.083519 -56.094144 6.583968 2.00000000
24.355114 -66.686543 6.807980 2.00000000
15.672351 80.452498 3.991860 2.00000000
8.998019 80.990491 4.045152 2.00000000
-66.110967 -11.527114 6.789334 2.00000000
-12.525402 -66.291084 5.689514 2.00000000
66.429679 -39.085109 6.720953 2.00000000
54.598668 -51.463847 4.455919 2.00000000
-68.125692 9.774013 5.583166 2.00000000
29.537590 -65.223719 6.612466 2.00000000
-61.856365 36.340672 4.545415 2.00000000
58.187619 60.473702 6.354663 2.00000000
56.416145 62.139749 5.200653 2.00000000
36.695878 74.749724 4.660529 2.00000000
71.815895 43.088768 3.890347 2.00000000
51.881874 -53.639091 5.907516 2.00000000
59.385124 59.347465 5.377516 2.00000000
2.286757 -68.666421 4.993924 2.00000000
81.361425 11.924589 4.789315 2.00000000
-34.467168 -56.485944 3.899814 2.00000000
78.835885 -14.041660 4.181927 2.00000000
14.174082 -68.442606 4.937136 2.00000000
2.835805 80.897451 4.648303 2.00000000
10.797197 -68.683776 3.926297 2.00000000
44.753436 -58.440233 3.972071 2.00000000
80.158931 -8.423215 4.894873 2.00000000
-64.784167 28.500259 3.880855 2.00000000
-26.408985 73.297842 6.754035 2.00000000
76.043849 -22.166770 4.090339 2.00000000
54.474396 -51.566495 6.869170 2.00000000
70.289861 -33.449727 3.972861 2.00000000
51.210684 66.322167 5.735410 2.00000000
-16.571240 -65.092355 6.626333 2.00000000
-33.436883 69.338216 5.276724 2.00000000
-10.976162 78.885973 6.357738 2.00000000
80.582628 -6.211148 6.056368 2.00000000
-68.208808 5.121131 5.267428 2.00000000
-53.423190 -38.586399 6.109179 2.00000000
-14.864913 -65.648201 5.822371 2.00000000
32.383931 -64.275003 4.562427 2.00000000
-55.979501 47.124893 3.986925 2.00000000
-44.286508 60.986424 3.901347 2.00000000
80.926635 15.977878 5.048889 2.00000000
35.916541 -62.879422 5.242545 2.00000000
43.348189 71.407636 3.910735 2.00000000
-59.436301 41.285452 4.244894 2.00000000
6.357179 -68.794596 6.863617 2.00000000
17.591999 -68.013463 4.293180 2.00000000
64.046213 54.256195 6.201706 2.00000000
-58.467786 43.044036 5.702750 2.00000000
77.808424 29.566208 5.752297 2.00000000
-64.604988 -16.851964 6.396680 2.00000000
-5.639720 -67.795537 4.446917 2.00000000
71.324071 43.985010 3.998241 2.00000000
10.972828 80.870899 5.171554 2.00000000
-68.207109 7.361051 5.321425 2.00000000
49.554189 -55.327523 5.163355 2.00000000
55.326492 63.057758 4.566054 2.00000000
63.255081 55.213994 5.200304 2.00000000
3.998126 80.969689 3.930015 2.00000000
-67.928312 -0.727483 3.943749 2.00000000
-67.501582 16.397417 4.435942 2.00000000
80.798307 16.999949 5.209305 2.00000000
-25.960923 73.508272 5.336490 2.00000000
-36.044657 -55.431080 6.867549 2.00000000
-42.017914 -50.808700 5.506694 2.00000000
-67.390679 17.269996 5.038972 2.00000000
29.876552 77.311157 6.703334 2.00000000
0.046832 -68.523791 4.411036 2.00000000
-66.971716 19.661326 4.908624 2.00000000
64.462054 -41.555631 5.578794 2.00000000
-63.261242 32.881410 6.873748 2.00000000
75.878872 -22.582530 6.556819 2.00000000
43.360641 -59.204549 4.146512 2.00000000
-67.189248 18.525662 5.019121 2.00000000
81.138382 14.291412 3.965437 2.00000000
-32.505791 69.928119 6.163371 2.00000000
-28.724948 -59.899938 3.904594 2.00000000
-3.454386 80.307109 6.814700 2.00000000
-68.209602 4.073571 6.397210 2.00000000
42.538305 -59.655817 6.801019 2.00000000
-36.656737 67.181479 3.879844 2.00000000
-45.297649 60.030647 5.903344 2.00000000
6.201329 80.992594 3.898296 2.00000000
-20.365777 75.937956 6.816561 2.00000000
-66.855036 20.270479 6.821949 2.00000000
7.180784 -68.795215 4.911430 2.00000000
8.552975 80.990826 5.381441 2.00000000
20.190742 -67.568670 5.073601 2.00000000
-46.247008 -46.931108 5.338222 2.00000000
-64.154906 -18.240748 4.032910 2.00000000
28.791189 77.664738 6.612652 2.00000000
-45.639277 -47.502671 3.950885 2.00000000
0.834069 80.773043 5.667001 2.00000000
-66.983124 -7.400021 4.109239 2.00000000
-67.951986 12.501946 4.099829 2.00000000
-55.444147 -35.775507 6.871594 2.00000000
-52.377583 -39.997886 3.891025 2.00000000
-33.052024 -57.385519 5.100883 2.00000000
-66.890603 -7.887036 6.779833 2.00000000
-66.643060 21.377140 4.134299 2.00000000
-62.781334 -21.895313 5.388198 2.00000000
-24.873264 -61.822325 4.502008 2.00000000
13.895842 -68.477541 6.872556 2.00000000
56.235111 -50.107675 5.058964 2.00000000
79.288702 -12.283591 3.923011 2.00000000
-44.493628 60.781481 5.197488 2.00000000
-61.662237 -24.550138 4.825517 2.00000000
23.709375 79.051789 6.772611 2.00000000
-40.508759 -52.059098 6.246217 2.00000000
59.620855 -46.933163 5.066636 2.00000000
-32.736728 69.781828 3.911683 2.00000000
-60.336704 -27.372596 4.285232 2.00000000
-47.989075 57.282320 4.159088 2.00000000
-25.028216 73.946314 5.065941 2.00000000
-13.147890 -66.130749 6.542094 2.00000000
-16.385191 77.350271 6.658158 2.00000000
-67.749841 14.444127 6.508521 2.00000000
73.969900 -26.810202 6.762862 2.00000000
80.977611 -3.373263 6.368428 2.00000000
16.156717 80.390936 6.373880 2.00000000
81.414907 11.064089 4.287358 2.00000000
81.513043 2.680837 6.594596 2.00000000
54.756027 63.530413 5.668968 2.00000000
34.207917 -63.554425 6.481824 2.00000000
77.946141 29.141265 6.756445 2.00000000
43.409076 -59.177970 6.812822 2.00000000
-20.899429 -63.529700 4.977883 2.00000000
45.735472 -57.820243 6.473027 2.00000000
73.131815 40.690797 3.886602 2.00000000
-58.367558 43.226025 3.879518 2.00000000
-67.707549 14.776877 4.042337 2.00000000
37.652411 74.298734 4.170156 2.00000000
-22.905003 74.934825 4.130987 2.00000000
-67.568654 15.869697 6.345420 2.00000000
-39.362844 65.201626 4.268984 2.00000000
71.201201 -32.004240 5.775899 2.00000000
-50.879648 54.008244 6.786183 2.00000000
14.727521 80.572583 5.558400 2.00000000
74.651757 37.559724 3.942539 2.00000000
-53.204462 -38.887926 4.190185 2.00000000
-39.147794 65.374502 6.865667 2.00000000
25.489645 78.593266 5.031577 2.00000000
28.215830 -65.652079 6.354013 2.00000000
-14.194220 -65.861244 6.664904 2.00000000
18.143127 -67.944265 6.784747 2.00000000
-57.645718 44.503776 4.652764 2.00000000
-54.851230 -36.617708 6.739756 2.00000000
54.008613 64.149676 5.121843 2.00000000
74.226529 -26.265912 3.927169 2.00000000
58.699915 59.991895 4.786404 2.00000000
-16.363664 -65.159974 4.360402 2.00000000
81.067853 14.853146 5.683712 2.00000000
-30.322206 71.219453 4.259380 2.00000000
57.438908 61.177855 6.870422 2.00000000
38.310930 73.988253 6.023445 2.00000000
41.224850 -60.376593 6.835020 2.00000000
-48.069274 -45.012776 4.009810 2.00000000
18.240915 -67.931987 5.096372 2.00000000
-57.898200 -31.887665 4.369513 2.00000000
-54.127548 -37.615374 5.587907 2.00000000
-50.070316 54.985057 6.631492 2.00000000
63.931118 -42.196438 4.387510 2.00000000
79.604888 23.244008 4.174808 2.00000000
-1.506565 -68.356132 6.318988 2.00000000
-8.951689 79.361050 4.083084 2.00000000
51.836087 65.867055 5.043704 2.00000000
70.129954 45.897572 5.536719 2.00000000
52.039595 -53.524688 6.846423 2.00000000
-26.188148 73.401557 4.281229 2.00000000
53.452169 -52.410873 4.108886 2.00000000
-24.357616 74.261258 6.839271 2.00000000
-4.309694 80.199718 6.356960 2.00000000
81.578076 4.851301 5.197471 2.00000000
-61.221827 -25.487903 6.696312 2.00000000
-31.176196 -58.549921 4.857457 2.00000000
-42.947486 -50.034264 5.403141 2.00000000
79.678444 -10.770413 5.092224 2.00000000
-3.402471 80.313627 5.663835 2.00000000
33.355289 -63.891262 4.970073 2.00000000
-41.260955 -51.435872 5.975017 2.00000000
60.674305 -45.814043 6.685733 2.00000000
-63.466086 -20.162013 6.456053 2.00000000
45.989162 -57.659513 5.363649 2.00000000
62.613904 -43.751727 5.379173 2.00000000
-49.145564 -43.851278 6.683674 2.00000000
-64.144148 30.464978 5.139237 2.00000000
-39.925736 -52.542157 4.643013 2.00000000
-67.490811 -4.297069 6.759080 2.00000000
-37.753428 -54.187591 4.476656 2.00000000
-63.127211 33.219183 3.986429 2.00000000
-62.366676 -22.944931 5.451577 2.00000000
72.911045 41.093101 6.545251 2.00000000
-68.208196 5.927168 4.019000 2.00000000
-34.356461 68.755607 5.880829 2.00000000
45.871148 -57.734296 4.253106 2.00000000
74.417919 -25.859990 5.520992 2.00000000
53.978047 64.175001 6.279922 2.00000000
-61.074027 37.999944 6.566783 2.00000000
-54.451785 49.368157 6.518131 2.00000000
81.578859 5.883705 5.477671 2.00000000
-7.621486 -67.415936 4.159328 2.00000000
-68.189547 8.771212 5.499355 2.00000000
-56.624089 46.110895 4.040107 2.00000000
54.539145 -51.513011 5.589735 2.00000000
59.878044 58.864080 4.353821 2.00000000
39.343893 -61.305245 4.629310 2.00000000
-49.079801 56.122595 6.691263 2.00000000
56.920579 61.665336 4.142195 2.00000000
-18.922256 -64.314243 4.048266 2.00000000
64.295082 53.954894 5.234430 2.00000000
80.075763 -8.857423 6.680986 2.00000000
79.544640 -11.289905 3.920013 2.00000000
50.992033 66.481281 4.722203 2.00000000
56.015264 62.487082 3.903792 2.00000000
-29.133000 -59.675205 5.715498 2.00000000
40.323493 73.039362 3.960649 2.00000000
48.769747 -55.896532 3.907405 2.00000000
-11.987247 78.627190 5.113514 2.00000000
-44.979004 60.322113 6.787875 2.00000000
-67.843028 -1.491980 6.878739 2.00000000
-28.168154 -60.206591 6.804153 2.00000000
-66.704338 -8.867509 6.539261 2.00000000
-32.096913 70.187169 5.319737 2.00000000
45.190281 -58.165658 4.952698 2.00000000
81.153191 -1.991844 4.459053 2.00000000
79.899617 -9.777058 4.317644 2.00000000
80.897252 -4.005508 5.303840 2.00000000
25.697569 -66.342947 5.167995 2.00000000
-37.654213 66.457906 6.447326 2.00000000
-68.004563 11.676270 6.595666 2.00000000
-65.575360 25.810237 6.588589 2.00000000
-68.207005 7.497092 4.015818 2.00000000
-67.128869 18.840881 4.034589 2.00000000
69.112834 -35.301324 6.786762 2.00000000
-5.401676 80.035458 4.197590 2.00000000
80.770705 -5.001152 5.508414 2.00000000
-4.450884 -67.981915 4.821542 2.00000000
78.705158 26.759321 4.388478 2.00000000
70.114161 45.922503 4.537836 2.00000000
76.737235 -20.419357 5.136932 2.00000000
-68.207916 6.296809 6.816133 2.00000000
62.778246 -43.576987 4.216002 2.00000000
80.956444 -3.539800 4.029075 2.00000000
-67.678520 15.005277 5.669365 2.00000000
-46.253739 59.126906 4.879603 2.00000000
-51.146120 53.686629 4.929393 2.00000000
-58.188419 43.551297 6.763589 2.00000000
52.062802 65.702072 6.829762 2.00000000
-45.044325 -48.062215 5.946711 2.00000000
72.598060 41.663446 4.169393 2.00000000
8.401871 -68.796133 3.980312 2.00000000
-19.781144 -63.973436 5.372044 2.00000000
-67.389604 17.278457 6.808387 2.00000000
-1.846630 -68.312910 4.716861 2.00000000
-68.206530 8.123761 6.350813 2.00000000
-54.734358 -36.778830 5.037422 2.00000000
-8.821937 -67.185994 5.167003 2.00000000
57.275629 61.331416 5.747392 2.00000000
67.042626 -38.242804 4.660783 2.00000000
26.450297 78.345842 6.756917 2.00000000
68.652747 48.221551 6.029110 2.00000000
-13.719081 78.183934 6.398772 2.00000000
-56.035119 -34.842720 5.010317 2.00000000
1.092186 -68.590355 5.298705 2.00000000
79.634837 23.126996 6.749398 2.00000000
-15.853260 77.522661 5.598237 2.00000000
16.120061 -68.198275 5.617184 2.00000000
-7.473530 -67.444277 6.621095 2.00000000
42.316544 71.975808 4.033845 2.00000000
-67.362364 -5.320032 5.713107 2.00000000
-26.687041 -60.967158 4.550490 2.00000000
6.940954 80.992038 4.864322 2.00000000
-39.519366 -52.878850 6.199862 2.00000000
13.837775 80.685667 6.449889 2.00000000
71.904485 42.927333 5.842357 2.00000000
-17.825353 -64.683820 6.576820 2.00000000
-31.264544 70.702332 3.918238 2.00000000
-48.860787 56.355464 5.788388 2.00000000
40.872370 -60.570021 5.572779 2.00000000
-44.156768 61.093073 6.090245 2.00000000
79.117530 -12.948169 6.589823 2.00000000
30.551184 -64.895230 6.356966 2.00000000
-62.461534 34.896767 3.909944 2.00000000
50.426988 -54.694422 5.596887 2.00000000
12.010430 80.804828 6.643710 2.00000000
48.989543 67.938513 6.531933 2.00000000
-25.468120 73.739715 6.860504 2.00000000
-66.753766 -8.607327 3.955762 2.00000000
51.635397 66.013098 3.951508 2.00000000
46.135412 69.765711 6.841662 2.00000000
52.492529 -53.196143 5.077353 2.00000000
-60.770055 38.644644 5.108941 2.00000000
5.540813 -68.793982 5.135391 2.00000000
73.045876 -28.654810 4.317553 2.00000000
43.105093 71.541520 6.839773 2.00000000
-62.927284 -21.525873 6.734450 2.00000000
34.088482 -63.601609 4.361720 2.00000000
49.210164 -55.577067 6.080543 2.00000000
77.133117 31.609916 5.702955 2.00000000
-67.073492 -6.924338 6.046874 2.00000000
23.304112 -66.955543 6.520786 2.00000000
78.195085 -16.180243 4.185196 2.00000000
61.851385 -44.562490 5.178236 2.00000000
22.266964 -67.174243 4.901864 2.00000000
-52.581291 51.938597 5.797125 2.00000000
-38.397162 -53.719139 6.877379 2.00000000
-0.389985 -68.495976 6.628717 2.00000000
49.355191 67.672428 4.038739 2.00000000
75.468510 -23.616691 5.945216 2.00000000
72.450529 41.932288 6.355032 2.00000000
0.080755 80.726224 6.844301 2.00000000
21.520993 79.512085 6.080369 2.00000000
-43.938051 -49.102651 6.775727 2.00000000
-56.625210 -33.911325 5.542204 2.00000000
-62.681220 34.343133 5.295100 2.00000000
-10.896519 -66.710638 5.670752 2.00000000
7.535119 -68.795481 6.600719 2.00000000
-53.222668 51.057214 5.309169 2.00000000
-61.952824 -23.931392 5.753394 2.00000000
-66.418290 22.537546 5.550328 2.00000000
48.545081 -56.040166 5.218646 2.00000000
-60.279931 39.684157 5.162380 2.00000000
-35.020860 68.334667 4.041205 2.00000000
-55.831610 47.357539 4.913401 2.00000000
71.586016 43.507673 4.838827 2.00000000
-14.804731 77.862471 4.762500 2.00000000
-41.535921 63.406660 4.000503 2.00000000
-65.148387 -15.175236 5.439071 2.00000000
-22.608530 -62.851529 4.474579 2.00000000
44.155928 -58.768124 4.924007 2.00000000
13.879007 80.680427 4.570107 2.00000000
-35.648154 67.913049 5.382903 2.00000000
-29.527728 71.655433 6.743690 2.00000000
12.690390 80.761531 4.243751 2.00000000
-51.337101 -41.257566 6.633293 2.00000000
-19.148601 76.418806 6.671265 2.00000000
40.423507 -60.798213 4.549029 2.00000000
-68.057130 1.345205 4.799669 2.00000000
11.669920 -68.629536 5.103711 2.00000000
67.954968 -36.989073 6.509871 2.00000000
-67.977493 12.101385 5.502313 2.00000000
-35.250239 -55.988164 4.566125 2.00000000
53.584845 -52.301275 6.850467 2.00000000
-15.685097 77.577160 4.008882 2.00000000
-66.545133 21.888384 6.513621 2.00000000
52.916735 65.054342 5.046847 2.00000000
-43.260089 61.933833 4.813827 2.00000000
-47.672913 -45.423523 4.944535 2.00000000
-67.932867 -0.654187 5.873492 2.00000000
-14.367536 -65.810224 3.925391 2.00000000
42.442476 71.906451 5.476096 2.00000000
77.568279 -18.104402 5.645342 2.00000000
4.307978 -68.793055 6.772525 2.00000000
27.204582 -65.957233 6.141910 2.00000000
78.465498 -15.350134 6.717609 2.00000000
70.618086 45.127102 6.750316 2.00000000
-33.473038 -57.117890 4.106207 2.00000000
19.705849 79.859770 6.141133 2.00000000
-62.017932 35.998002 6.348524 2.00000000
39.085976 -61.426374 6.442318 2.00000000
-6.430520 79.840005 4.280728 2.00000000
-60.493059 39.232129 6.314400 2.00000000
34.891946 -63.284196 5.811028 2.00000000
80.718533 17.635308 4.168026 2.00000000
-59.373685 41.399146 5.254948 2.00000000
81.504323 9.625465 6.713208 2.00000000
-4.062355 80.230774 3.933656 2.00000000
16.682966 80.324052 4.528281 2.00000000
17.221365 80.255623 5.453665 2.00000000
77.487492 -18.352402 4.412848 2.00000000
65.249951 -40.604688 6.762613 2.00000000
-59.195052 -29.524472 6.572518 2.00000000
57.255682 -49.150757 6.420587 2.00000000
64.596032 -41.393928 4.459693 2.00000000
8.048406 80.991205 4.171356 2.00000000
1.278307 80.800652 6.593901 2.00000000
-55.778251 -35.248186 4.120242 2.00000000
-43.575309 61.638271 6.723907 2.00000000
-66.061855 23.921411 4.233457 2.00000000
81.219280 -1.471876 6.710764 2.00000000
-56.000903 -34.896726 6.848685 2.00000000
12.097584 80.799279 5.166638 2.00000000
39.068346 73.631144 6.789772 2.00000000
70.042158 46.036143 6.764264 2.00000000
-6.563886 -67.618516 4.185398 2.00000000
-65.074786 27.608120 6.716303 2.00000000
-66.574897 -9.548869 4.202503 2.00000000
-33.694432 69.175067 3.920655 2.00000000
68.891283 47.852685 4.251189 2.00000000
32.208516 -64.344302 6.412024 2.00000000
-46.932304 58.405943 6.875825 2.00000000
27.715346 -65.814278 4.054036 2.00000000
76.441518 -21.164598 6.662970 2.00000000
76.730754 -20.435688 4.017385 2.00000000
69.744602 -34.307481 6.850274 2.00000000
65.018153 53.079515 6.809741 2.00000000
55.109305 63.237707 6.868627 2.00000000
42.930179 -59.440770 5.043998 2.00000000
41.773702 -60.075403 4.485948 2.00000000
67.666412 49.581317 4.923879 2.00000000
77.120666 -19.453064 4.427009 2.00000000
55.508092 -50.712649 4.375932 2.00000000
80.489122 18.886610 4.093006 2.00000000
-28.546021 72.194158 6.824329 2.00000000
77.149609 31.568170 3.990057 2.00000000
76.240516 33.869382 5.805832 2.00000000
80.765560 17.260762 6.233412 2.00000000
68.610882 -36.087725 5.827313 2.00000000
81.344409 12.198364 5.912632 2.00000000
30.645985 77.060498 4.517963 2.00000000
53.894318 64.244374 3.905312 2.00000000
73.720729 39.542132 5.279579 2.00000000
-1.847132 80.508912 6.730217 2.00000000
-50.387817 -42.406815 4.533472 2.00000000
78.370816 27.830876 4.585722 2.00000000
-56.030889 47.044054 6.743466 2.00000000
17.167818 -68.066722 5.437346 2.00000000
-30.418175 71.166788 6.717538 2.00000000
-61.323785 -25.270806 5.453240 2.00000000
47.233695 69.067552 4.976445 2.00000000
-68.045722 11.029893 5.654574 2.00000000
-16.956520 77.165113 5.135886 2.00000000
80.220320 20.301496 5.432096 2.00000000
69.130900 47.474469 6.761660 2.00000000
9.628344 80.956511 6.869650 2.00000000
-57.482456 44.760603 6.702945 2.00000000
-41.017811 63.834613 5.873502 2.00000000
-42.359260 62.726575 4.676126 2.00000000
1.109011 -68.591426 6.637040 2.00000000
-0.907047 -68.432329 4.281668 2.00000000
-31.070912 -58.607905 5.974963 2.00000000
71.597314 -31.285006 6.791727 2.00000000
31.253741 -64.667544 3.897453 2.00000000
-7.634196 -67.413502 5.176374 2.00000000
66.001607 51.876359 6.252417 2.00000000
-57.074331 45.402621 5.009962 2.00000000
-38.181943 66.075107 4.053990 2.00000000
67.124660 -38.130073 6.864802 2.00000000
-56.539265 46.244332 6.416021 2.00000000
18.746407 80.043548 6.613345 2.00000000
-63.402008 -20.324212 5.203492 2.00000000
-32.941713 -57.455641 6.602585 2.00000000
-56.594958 -33.959074 6.816116 2.00000000
-43.005401 -49.979796 6.676905 2.00000000
75.041730 36.729369 6.107115 2.00000000
74.000831 -26.744600 5.214554 2.00000000
-29.451789 71.697105 4.196825 2.00000000
75.755392 35.097390 5.906345 2.00000000
80.446565 -6.921512 6.745934 2.00000000
81.579562 6.810124 6.136276 2.00000000
78.620499 27.060448 5.463214 2.00000000
-47.733235 57.554345 6.464958 2.00000000
-3.026830 -68.162909 4.747072 2.00000000
-35.728511 -55.661143 5.689506 2.00000000
-56.556374 -34.020027 4.257879 2.00000000
71.644090 43.401845 6.786502 2.00000000
61.070869 -45.392389 4.510616 2.00000000
-67.080671 19.092509 6.563992 2.00000000
39.596994 73.381894 4.946367 2.00000000
36.699799 74.747875 6.146189 2.00000000
-66.591825 21.644622 5.076500 2.00000000
-60.745246 -26.502688 6.741498 2.00000000
79.905809 21.956980 4.429921 2.00000000
18.447650 80.099766 5.569950 2.00000000
1.800426 80.833102 4.611723 2.00000000
-60.294005 -27.463514 6.534129 2.00000000
81.280487 13.159621 4.552256 2.00000000
80.237923 -8.010806 6.187211 2.00000000
-60.857831 38.458479 3.950326 2.00000000
79.602317 -11.065975 6.862558 2.00000000
44.336676 70.863234 5.240347 2.00000000
60.529492 58.167853 6.818063 2.00000000
77.644926 30.070702 4.852504 2.00000000
9.962316 80.935245 4.998656 2.00000000
73.631179 39.732808 6.797047 2.00000000
81.436317 10.719618 6.397649 2.00000000
-15.566421 -65.419680 6.864096 2.00000000
41.909665 -60.000792 5.813872 2.00000000
-18.119802 76.788113 6.760820 2.00000000
49.619996 67.479726 5.821488 2.00000000
63.874613 -42.264636 6.523783 2.00000000
38.647804 73.829422 4.949144 2.00000000
74.927557 -24.779092 4.097890 2.00000000
12.204128 -68.596335 3.923281 2.00000000
-52.147506 52.478017 6.675164 2.00000000
-40.707176 -51.894701 4.299921 2.00000000
-9.348102 -67.085208 4.013120 2.00000000
-62.511166 -22.579185 4.357167 2.00000000
-66.157477 23.550157 5.241743 2.00000000
-64.595140 -16.882348 3.889091 2.00000000
-58.709016 -30.410153 5.555414 2.00000000
45.363221 70.256579 5.165533 2.00000000
-64.580032 -16.928969 5.324426 2.00000000
-8.325978 79.479918 5.853322 2.00000000
-65.497007 26.114443 4.410816 2.00000000
-23.517641 -62.461479 6.806531 2.00000000
36.900212 -62.452900 5.457004 2.00000000
-59.225106 -29.469705 4.086239 2.00000000
78.552484 -15.083106 4.099841 2.00000000
79.210322 24.785607 6.810518 2.00000000
-62.014874 -23.799270 6.780789 2.00000000
-67.550365 -3.822779 4.070186 2.00000000
53.115506 64.889652 6.381044 2.00000000
60.102215 58.626919 6.065627 2.00000000
66.477227 51.220685 5.106504 2.00000000
-32.019103 -58.042123 6.675702 2.00000000
-66.752110 20.807821 5.899165 2.00000000
72.065725 42.633509 4.780140 2.00000000
75.470790 35.815786 5.065458 2.00000000
52.877854 -52.885259 6.072640 2.00000000
-35.815350 67.791779 4.092347 2.00000000
23.393503 -66.932663 5.469972 2.00000000
-57.777929 44.295796 5.608333 2.00000000
-57.186457 -33.025488 4.062317 2.00000000
40.045354 73.170500 6.452685 2.00000000
-64.592915 29.087361 6.683777 2.00000000
-38.578692 -53.587038 4.753880 2.00000000
-17.051145 -64.936023 5.701125 2.00000000
-21.642230 75.433689 4.286653 2.00000000
68.363065 48.620922 5.166051 2.00000000
-28.238115 72.363125 5.327879 2.00000000
-67.805858 -1.788005 5.423966 2.00000000
-65.836485 -12.599536 6.805544 2.00000000
70.644041 -32.892561 5.860510 2.00000000
-6.226473 79.878768 6.826689 2.00000000
80.492492 18.868871 6.655953 2.00000000
-52.082560 52.556403 4.869060 2.00000000
26.247401 -66.202220 4.247171 2.00000000
-59.023980 42.034125 6.630565 2.00000000
79.122657 25.128122 5.082895 2.00000000
60.001987 -46.528900 6.817846 2.00000000
-11.666490 -66.512316 6.656370 2.00000000
76.777066 32.511196 6.797348 2.00000000
67.413171 49.930406 6.650670 2.00000000
-63.981393 30.964602 6.838837 2.00000000
-41.422235 -51.302245 4.795831 2.00000000
-66.006843 24.134998 6.326966 2.00000000
-61.283609 37.555440 4.529420 2.00000000
66.439074 -39.072198 4.258996 2.00000000
37.415846 -62.210737 4.097834 2.00000000
10.847548 80.878876 4.128615 2.00000000
-6.155519 -67.696738 6.600095 2.00000000
-58.115031 -31.492543 6.463482 2.00000000
33.931351 75.861611 6.733655 2.00000000
72.689161 41.497436 5.317886 2.00000000
-1.349725 80.571366 5.228427 2.00000000
74.552748 37.770541 6.401629 2.00000000
24.964438 78.728537 4.176030 2.00000000
-61.753604 36.558618 5.560016 2.00000000
59.183961 59.536656 4.004294 2.00000000
-68.078313 10.518063 6.770437 2.00000000
-16.869046 77.193462 4.090209 2.00000000
-63.877758 31.282737 5.778238 2.00000000
0.269536 80.737957 4.403635 2.00000000
-62.748095 34.174601 6.531181 2.00000000
14.813062 80.561711 6.791110 2.00000000
-37.771610 -54.174360 5.655512 2.00000000
81.413252 1.113684 3.953938 2.00000000
-21.691297 -63.215487 5.644560 2.00000000
-47.556196 -45.546370 6.810372 2.00000000
40.751033 72.837784 4.847849 2.00000000
68.076765 49.015596 6.066964 2.00000000
-34.191292 68.860267 4.707044 2.00000000
80.962888 15.689138 4.123041 2.00000000
-39.249021 -53.099233 3.933376 2.00000000
-13.436020 -66.056535 5.248910 2.00000000
-63.876708 31.285960 4.294972 2.00000000
-36.492321 -55.105311 3.960823 2.00000000
-5.337392 -67.853447 5.730445 2.00000000
3.948056 -68.772206 5.678105 2.00000000
-63.016258 -21.300656 4.244741 2.00000000
-60.813107 -26.358191 5.063955 2.00000000
-67.678839 -2.799601 3.881308 2.00000000
77.184974 -19.281068 5.504019 2.00000000
-51.253085 53.557529 5.944042 2.00000000
20.507155 79.706282 5.066636 2.00000000
73.717703 -27.345091 4.403788 2.00000000
-68.168092 3.130593 4.529409 2.00000000
-65.631778 25.591193 5.447125 2.00000000
80.544397 -6.410744 4.318304 2.00000000
35.451548 75.258397 4.954807 2.00000000
76.224471 -21.711580 5.753174 2.00000000
81.577505 4.098303 3.918957 2.00000000
18.910378 80.012139 3.940955 2.00000000
68.510030 -36.226314 3.900941 2.00000000
73.209248 40.549692 5.080444 2.00000000
-46.596225 -46.570903 4.042267 2.00000000
76.803017 32.445507 4.667935 2.00000000
46.571417 69.488550 5.889777 2.00000000
-64.910133 -15.910398 4.319138 2.00000000
2.682953 80.887951 6.767375 2.00000000
-38.662202 -53.526267 5.890557 2.00000000
-55.400727 -35.844041 4.794630 2.00000000
71.361312 43.917147 5.884687 2.00000000
-50.457328 54.517959 5.414815 2.00000000
-59.347291 -29.247052 5.547276 2.00000000
-13.192020 78.318833 5.420222 2.00000000
81.445019 1.612569 5.783904 2.00000000
-36.621115 67.207288 5.658672 2.00000000
-12.011847 -66.423361 3.930846 2.00000000
77.850720 -17.237371 6.633089 2.00000000
4.186165 -68.787368 4.436022 2.00000000
59.223479 59.499490 6.341137 2.00000000
38.565800 -61.670670 4.062724 2.00000000
49.939957 -55.047697 4.034721 2.00000000
41.175578 72.604187 6.033613 2.00000000
20.674212 79.674283 6.872065 2.00000000
65.231512 52.821202 5.806085 2.00000000
77.139978 -19.404396 6.684315 2.00000000
-57.592037 -32.385291 6.706000 2.00000000
-63.110836 33.260451 4.971238 2.00000000
47.398260 -56.766754 6.710792 2.00000000
-48.451082 -44.591957 6.805641 2.00000000
-21.884944 75.337803 6.796616 2.00000000
9.698892 -68.752035 5.566278 2.00000000
22.457491 79.332701 4.090041 2.00000000
81.322863 -0.305813 5.226382 2.00000000
-33.572746 -57.054508 5.867287 2.00000000
75.080592 36.646620 4.520243 2.00000000
75.694913 -23.046130 4.449330 2.00000000
16.264872 -68.180093 4.015064 2.00000000
81.349015 0.104888 3.965712 2.00000000
-67.965548 -0.128360 4.811212 2.00000000
-62.470434 -22.682290 6.528907 2.00000000
-54.629418 49.124053 5.049216 2.00000000
62.286678 56.293794 4.949803 2.00000000
-25.535056 -61.510301 6.747459 2.00000000
66.724229 -38.680342 5.571221 2.00000000
40.262434 -60.873860 6.494740 2.00000000
-67.679712 -2.792650 5.665839 2.00000000
-23.827222 74.510355 5.307853 2.00000000
24.478767 78.853626 5.118963 2.00000000
-13.235716 -66.108127 4.214254 2.00000000
56.505551 -49.854102 6.767593 2.00000000
6.145577 -68.794436 3.984007 2.00000000
37.781213 -62.039145 6.250160 2.00000000
4.951530 80.993534 5.059988 2.00000000
-61.185823 -25.564567 4.077943 2.00000000
2.951444 -68.708745 6.703938 2.00000000
-42.721362 62.427470 6.049763 2.00000000
77.821892 -17.325866 4.322224 2.00000000
29.548559 77.418008 4.448972 2.00000000
36.427325 -62.674988 4.099991 2.00000000
74.408480 -25.880010 6.565920 2.00000000
45.035645 70.464813 3.885802 2.00000000
50.825933 -54.405040 6.566868 2.00000000
-67.940936 12.675490 6.488442 2.00000000
15.513213 -68.274469 6.809122 2.00000000
34.539617 75.620251 5.571636 2.00000000
-55.483458 47.905215 5.862379 2.00000000
73.945723 39.063060 4.023178 2.00000000
80.315036 19.802943 6.467911 2.00000000
-59.765587 -28.484812 4.168253 2.00000000
-49.722002 -43.212895 4.089345 2.00000000
-30.236384 -59.067520 4.884585 2.00000000
-66.828080 20.411208 4.004910 2.00000000
50.419050 66.898247 4.051656 2.00000000
81.580135 7.565535 4.077404 2.00000000
-63.513040 32.246849 3.906300 2.00000000
-64.728772 28.670310 5.767130 2.00000000
21.152479 79.582672 4.056311 2.00000000
26.292263 -66.190737 6.441971 2.00000000
8.185024 80.991102 6.378076 2.00000000
-68.208774 5.165628 6.464686 2.00000000
8.172418 -68.795961 5.044119 2.00000000
-58.617404 -30.577092 3.880067 2.00000000
81.544541 8.978385 5.708022 2.00000000
-23.502566 -62.468587 3.927431 2.00000000
-66.448539 -10.208191 5.263125 2.00000000
1.557912 -68.620010 3.926261 2.00000000
-65.422553 -14.216796 5.092139 2.00000000
-7.179421 79.697733 6.717626 2.00000000
79.846820 -10.052701 6.873871 2.00000000
-34.172865 -56.673026 5.129885 2.00000000
