22.742499 -42.322888 -20.974903 16.00000000
47.923117 -50.371007 -57.202809 16.00000000
48.825960 -50.291103 -12.360962 16.00000000
49.547689 -50.168039 -28.750304 16.00000000
51.772996 -49.766321 -46.913232 16.00000000
27.765577 -45.952994 -47.227248 16.00000000
34.560997 -49.007630 3.817585 16.00000000
26.081781 -44.877515 -58.207543 16.00000000
19.880187 -39.435657 -11.403403 16.00000000
25.973068 -44.803393 -51.410676 16.00000000
59.565000 -46.954854 -23.555154 16.00000000
14.841246 -31.849190 -60.409466 16.00000000
39.941464 -50.229786 -48.564154 16.00000000
54.463987 -49.044097 -1.147703 16.00000000
12.161405 -22.150775 -57.645562 16.00000000
12.081379 -21.734277 -40.461809 16.00000000
36.557175 -49.557038 -19.273116 16.00000000
21.245559 -40.889413 -30.163294 16.00000000
35.398880 -49.255012 -2.029965 16.00000000
18.563705 -37.880834 -5.899487 16.00000000
45.019791 -50.539254 -14.163241 16.00000000
27.855347 -46.003511 -53.750650 16.00000000
16.332673 -34.606841 -28.202551 16.00000000
24.403215 -43.677604 -59.274889 16.00000000
56.503363 -48.309376 -42.177269 16.00000000
46.421336 -50.503918 -43.575145 16.00000000
39.740031 -50.195363 -52.731185 16.00000000
44.083396 -50.541535 -35.105365 16.00000000
58.944302 -47.240738 -31.041876 16.00000000
35.540607 -49.291967 -3.736206 16.00000000
46.868537 -50.464340 -2.756680 16.00000000
32.297923 -48.204771 -30.071243 16.00000000
47.640762 -50.395996 -29.216738 16.00000000
45.034706 -50.539218 -17.926015 16.00000000
12.101180 -21.837328 1.791789 16.00000000
12.436450 -23.582254 -61.019873 16.00000000
14.713606 -31.589841 -56.710665 16.00000000
16.757746 -35.310852 -41.027570 16.00000000
32.921776 -48.426092 -52.177236 16.00000000
42.321706 -50.468608 -34.460201 16.00000000
50.924725 -49.925830 -27.116019 16.00000000
37.701761 -49.847047 -10.992104 16.00000000
46.885445 -50.462844 -58.633102 16.00000000
51.484261 -49.827412 -54.638471 16.00000000
38.854975 -50.044118 -31.993537 16.00000000
12.507247 -23.950721 -42.288659 16.00000000
41.722752 -50.418550 -22.420446 16.00000000
54.781228 -48.929806 -42.139853 16.00000000
21.326475 -40.967890 -4.951894 16.00000000
38.723918 -50.021722 -20.972214 16.00000000
26.105916 -44.893971 -14.270945 16.00000000
35.625761 -49.314171 -13.663583 16.00000000
17.100011 -35.869223 -57.295897 16.00000000
35.753166 -49.347392 -38.355250 16.00000000
32.995167 -48.452129 -40.582125 16.00000000
14.312305 -30.750792 -27.816717 16.00000000
53.626783 -49.273310 -51.728165 16.00000000
26.651306 -45.265828 -30.744057 16.00000000
16.410432 -34.735626 -33.712603 16.00000000
27.321548 -45.703118 -36.239541 16.00000000
58.762348 -47.324543 -26.404238 16.00000000
45.362364 -50.538420 -37.354673 16.00000000
42.361833 -50.471961 -56.749392 16.00000000
13.842357 -29.544615 -31.184023 16.00000000
52.108212 -49.677171 -19.768645 16.00000000
30.155112 -47.240222 -41.408295 16.00000000
12.076903 -21.710980 -8.042192 16.00000000
13.206259 -27.588749 -28.181801 16.00000000
15.378981 -32.941805 -49.747507 16.00000000
15.066695 -32.307277 -51.909341 16.00000000
19.320640 -38.791040 -27.635624 16.00000000
28.229037 -46.213804 -21.510262 16.00000000
29.189214 -46.754138 -6.672709 16.00000000
47.299001 -50.426243 -23.863859 16.00000000
26.953030 -45.471549 -2.346565 16.00000000
17.569688 -36.514717 -32.788862 16.00000000
12.925013 -26.124995 -36.632662 16.00000000
12.640298 -24.643189 -15.666774 16.00000000
54.513698 -49.026188 -57.094345 16.00000000
12.681223 -24.856184 -53.755302 16.00000000
20.575856 -40.237090 -47.560140 16.00000000
42.427215 -50.477426 -59.598961 16.00000000
38.014908 -49.900560 -33.427743 16.00000000
32.254191 -48.189257 -10.094129 16.00000000
12.193658 -22.318635 -15.771289 16.00000000
39.549806 -50.162856 -25.134491 16.00000000
44.937861 -50.539454 3.089619 16.00000000
38.237563 -49.938609 -54.517509 16.00000000
52.185644 -49.656578 -15.732551 16.00000000
47.287131 -50.427293 -40.579854 16.00000000
58.512210 -47.439753 -37.041359 16.00000000
14.534225 -31.225361 -54.691634 16.00000000
13.436236 -28.502257 -38.710986 16.00000000
12.812964 -25.541834 -42.218006 16.00000000
53.210237 -49.384090 -21.428948 16.00000000
25.715533 -44.627801 -26.545477 16.00000000
29.656891 -47.013691 -18.252552 16.00000000
37.532398 -49.811328 -28.776784 16.00000000
23.796977 -43.183070 2.425961 16.00000000
35.045270 -49.162808 -5.460373 16.00000000
53.640125 -49.269762 -15.309851 16.00000000
55.117350 -48.808712 -26.324442 16.00000000
57.749686 -47.790961 -39.365180 16.00000000
26.363073 -45.069306 -45.762143 16.00000000
57.509512 -47.901582 -22.118816 16.00000000
12.435073 -23.575089 -7.360320 16.00000000
19.439572 -38.928053 3.093049 16.00000000
12.847218 -25.720112 -18.662847 16.00000000
51.270654 -49.864984 -17.229522 16.00000000
35.044131 -49.162511 -53.323261 16.00000000
51.791186 -49.761484 -14.090725 16.00000000
13.418386 -28.456445 -45.251854 16.00000000
19.016197 -38.440311 -43.492408 16.00000000
35.048468 -49.163642 -26.426697 16.00000000
50.143060 -50.063319 -11.084874 16.00000000
51.933504 -49.723635 -56.620113 16.00000000
40.076578 -50.252875 -58.392902 16.00000000
16.154006 -34.310931 -11.299152 16.00000000
12.364111 -23.205761 -10.848666 16.00000000
13.429171 -28.484126 -17.607514 16.00000000
15.074522 -32.323179 -9.110744 16.00000000
18.364889 -37.607593 -42.269848 16.00000000
12.848483 -25.726693 -60.490402 16.00000000
50.509437 -49.998876 -30.311907 16.00000000
15.739222 -33.623960 -61.056544 16.00000000
44.099114 -50.541497 -47.271680 16.00000000
53.607064 -49.278554 -4.020850 16.00000000
44.002136 -50.541733 -3.318494 16.00000000
31.382211 -47.798161 -8.689514 16.00000000
27.298749 -45.690288 -10.776404 16.00000000
12.187381 -22.285964 -30.994602 16.00000000
30.389833 -47.346945 -5.833302 16.00000000
57.641617 -47.840736 -28.150822 16.00000000
57.964003 -47.692249 0.927047 16.00000000
31.699832 -47.942577 -50.180798 16.00000000
53.918182 -49.195813 -23.785826 16.00000000
23.516498 -42.954271 -54.252850 16.00000000
29.316612 -46.825831 -12.767470 16.00000000
28.720317 -46.490269 -42.060173 16.00000000
58.152113 -47.605609 -24.192881 16.00000000
50.270476 -50.040907 -18.760380 16.00000000
59.563156 -46.955703 -7.620054 16.00000000
34.463904 -48.973185 -43.794247 16.00000000
13.407477 -28.428444 -49.730251 16.00000000
46.347320 -50.510469 -17.034141 16.00000000
54.646410 -48.978376 -34.710508 16.00000000
15.482430 -33.152000 -56.841116 16.00000000
35.443285 -49.266591 -21.085582 16.00000000
27.204662 -45.637341 -32.312743 16.00000000
12.994764 -26.488018 -48.813412 16.00000000
12.306217 -22.904453 -26.502093 16.00000000
53.491394 -49.309316 -10.680624 16.00000000
13.283324 -27.989841 -26.323810 16.00000000
50.178535 -50.057079 -52.838618 16.00000000
35.326480 -49.236134 -22.860035 16.00000000
12.488832 -23.854879 -5.088400 16.00000000
16.792636 -35.368637 -31.100872 16.00000000
17.734129 -36.740716 3.531234 16.00000000
12.774521 -25.341759 -44.062787 16.00000000
20.779057 -40.436971 -22.773164 16.00000000
58.014357 -47.669057 -46.342925 16.00000000
15.763151 -33.663593 -41.413620 16.00000000
52.158696 -49.663745 -50.912332 16.00000000
14.586487 -31.331551 -6.675709 16.00000000
48.703731 -50.301920 -52.096909 16.00000000
14.430073 -31.013736 -33.734715 16.00000000
49.092489 -50.248105 -20.443440 16.00000000
17.130273 -35.910813 -6.403942 16.00000000
34.932081 -49.133294 -19.369341 16.00000000
18.182411 -37.356807 -22.633963 16.00000000
27.802707 -45.973889 -43.533425 16.00000000
59.349986 -47.053886 -33.491520 16.00000000
38.500945 -49.983618 -40.878041 16.00000000
31.752528 -47.966537 0.296918 16.00000000
58.983077 -47.222879 -56.057443 16.00000000
19.663822 -39.186397 -29.290587 16.00000000
50.160882 -50.060184 -8.563325 16.00000000
40.255815 -50.283504 -28.192778 16.00000000
59.536997 -46.967752 -21.228120 16.00000000
35.808806 -49.361900 -42.926008 16.00000000
29.625218 -46.999289 3.475528 16.00000000
38.405082 -49.967236 -59.428012 16.00000000
25.395482 -44.409584 -41.035002 16.00000000
23.369784 -42.834591 -37.016762 16.00000000
24.235814 -43.541048 0.110967 16.00000000
39.966891 -50.234131 -36.851612 16.00000000
13.038661 -26.716480 -14.725020 16.00000000
25.372166 -44.393687 -2.155458 16.00000000
52.643728 -49.534752 -6.849227 16.00000000
17.799419 -36.830446 -9.562845 16.00000000
39.023316 -50.072885 1.901804 16.00000000
57.139606 -48.071955 -51.604370 16.00000000
25.896026 -44.750864 -36.047913 16.00000000
38.916851 -50.054692 -3.765969 16.00000000
12.421143 -23.502586 -21.858130 16.00000000
13.059549 -26.825197 -24.133846 16.00000000
58.267821 -47.552315 -52.748121 16.00000000
12.445302 -23.628326 -49.034677 16.00000000
51.572278 -49.811931 0.345265 16.00000000
12.414311 -23.467028 -43.884511 16.00000000
42.098081 -50.449918 -6.313864 16.00000000
40.101098 -50.257065 -2.679277 16.00000000
46.808433 -50.469659 -13.439339 16.00000000
15.674604 -33.516941 -48.257060 16.00000000
16.074267 -34.178866 -24.052556 16.00000000
34.842867 -49.107627 -7.075580 16.00000000
12.094956 -21.804934 -44.147060 16.00000000
30.247900 -47.282411 -34.316944 16.00000000
35.529539 -49.289081 -49.530237 16.00000000
17.031220 -35.763782 -1.255710 16.00000000
55.724766 -48.589879 -19.122928 16.00000000
43.871343 -50.542052 -31.859964 16.00000000
19.235390 -38.692829 -36.618717 16.00000000
33.319210 -48.567088 -54.164501 16.00000000
59.419375 -47.021926 -51.607801 16.00000000
40.318297 -50.294182 3.609217 16.00000000
24.397769 -43.673162 -21.457982 16.00000000
14.507199 -31.170446 -15.063309 16.00000000
12.609497 -24.482884 -25.509049 16.00000000
25.690353 -44.610633 -4.199306 16.00000000
18.131907 -37.287397 -56.162445 16.00000000
31.294533 -47.758295 -40.313337 16.00000000
13.241493 -27.772129 3.717248 16.00000000
22.430947 -42.039074 3.318969 16.00000000
51.807913 -49.757035 -33.439043 16.00000000
20.394808 -40.028517 -53.447442 16.00000000
14.042910 -30.059358 -61.010635 16.00000000
21.290623 -40.933118 -34.938686 16.00000000
23.878382 -43.249475 -48.829958 16.00000000
56.545338 -48.294254 1.661192 16.00000000
55.533364 -48.658835 -33.249116 16.00000000
31.884511 -48.026547 -41.915925 16.00000000
57.424155 -47.940896 -57.696344 16.00000000
56.614497 -48.269338 -40.470791 16.00000000
59.505681 -46.982175 -46.361220 16.00000000
33.321505 -48.567902 -31.769155 16.00000000
33.846569 -48.754176 -10.768107 16.00000000
34.038693 -48.822335 -17.797022 16.00000000
51.286456 -49.862205 -43.240657 16.00000000
16.569249 -34.998660 -7.840643 16.00000000
15.943646 -33.962530 -21.426197 16.00000000
33.651895 -48.685113 -2.722068 16.00000000
40.710865 -50.333980 -5.620812 16.00000000
42.216953 -50.459853 -52.255602 16.00000000
27.650654 -45.888321 -59.801443 16.00000000
21.862564 -41.487821 -53.101290 16.00000000
21.529730 -41.165019 -46.017568 16.00000000
12.582447 -24.342099 -14.014729 16.00000000
17.491182 -36.406824 -49.775564 16.00000000
57.788123 -47.773257 -60.350556 16.00000000
35.478729 -49.275833 -9.589245 16.00000000
53.263032 -49.370049 -17.444378 16.00000000
21.968252 -41.590324 -22.154989 16.00000000
31.012005 -47.629835 -28.983775 16.00000000
57.388435 -47.957348 -1.073752 16.00000000
41.623602 -50.410263 -50.453647 16.00000000
18.444112 -37.716472 -13.987218 16.00000000
38.372966 -49.961748 -1.721993 16.00000000
18.838143 -38.235187 1.479363 16.00000000
40.612091 -50.325725 -33.897515 16.00000000
12.674497 -24.821177 -27.661363 16.00000000
24.650867 -43.879624 3.705987 16.00000000
17.383920 -36.259409 -24.256769 16.00000000
13.651533 -29.054844 -40.737172 16.00000000
50.792787 -49.949037 -6.778704 16.00000000
41.526315 -50.402132 -36.453887 16.00000000
29.857770 -47.105026 -27.887083 16.00000000
17.385430 -36.261485 -17.570196 16.00000000
21.609473 -41.242359 -57.490161 16.00000000
32.579006 -48.304490 -18.923331 16.00000000
33.472452 -48.621453 -48.523479 16.00000000
21.918387 -41.541962 -7.637098 16.00000000
30.894207 -47.576275 -38.541817 16.00000000
23.979912 -43.332298 -23.506173 16.00000000
50.121463 -50.067117 -57.156786 16.00000000
40.701455 -50.333194 -54.975359 16.00000000
13.136339 -27.224849 -35.314282 16.00000000
28.736216 -46.499216 -9.014726 16.00000000
23.073995 -42.593303 -57.678835 16.00000000
27.511919 -45.810249 3.631033 16.00000000
18.960883 -38.376588 -19.375034 16.00000000
21.005089 -40.656190 -21.057639 16.00000000
15.241403 -32.662263 -13.857219 16.00000000
38.307272 -49.950522 -47.272798 16.00000000
18.714703 -38.088355 -52.377852 16.00000000
24.922266 -44.086936 -10.912857 16.00000000
31.318139 -47.769029 -27.105524 16.00000000
16.260099 -34.486643 -5.062113 16.00000000
42.433118 -50.477919 -24.271620 16.00000000
30.151247 -47.238465 -21.168808 16.00000000
51.562935 -49.813574 3.723555 16.00000000
20.260206 -39.873451 -18.154993 16.00000000
24.811744 -44.010858 -46.617399 16.00000000
23.678854 -43.086712 -2.897052 16.00000000
13.045264 -26.750850 -20.037232 16.00000000
19.213061 -38.667105 -57.664511 16.00000000
15.928921 -33.938143 -58.475676 16.00000000
36.435267 -49.525250 -34.270393 16.00000000
28.082527 -46.131355 -23.885490 16.00000000
59.488644 -46.990022 -38.468905 16.00000000
16.567984 -34.996565 -51.613403 16.00000000
42.614836 -50.493106 -13.758629 16.00000000
14.676594 -31.514638 -31.861672 16.00000000
33.543445 -48.646639 -21.141649 16.00000000
51.929493 -49.724701 -25.798677 16.00000000
16.350816 -34.636889 3.670532 16.00000000
56.681634 -48.245151 -36.722348 16.00000000
29.755362 -47.058463 -58.306534 16.00000000
23.133680 -42.641991 -7.869777 16.00000000
18.466606 -37.747386 -49.184157 16.00000000
42.383600 -50.473781 -32.686414 16.00000000
47.816609 -50.380433 -60.352677 16.00000000
16.006839 -34.067192 -1.929050 16.00000000
12.379760 -23.287208 -12.519217 16.00000000
27.081820 -45.559361 -37.977958 16.00000000
12.364528 -23.207933 3.750027 16.00000000
32.751657 -48.365740 -59.082240 16.00000000
12.383933 -23.308929 -58.663996 16.00000000
17.426904 -36.318484 -15.874716 16.00000000
16.557270 -34.978821 -13.083890 16.00000000
12.586711 -24.364294 -3.540234 16.00000000
48.586790 -50.312270 -54.987026 16.00000000
12.776774 -25.353484 -52.163140 16.00000000
20.695541 -40.355972 -6.677685 16.00000000
14.110277 -30.232264 -22.707573 16.00000000
54.461850 -49.044867 -60.334749 16.00000000
14.475939 -31.106930 -25.083244 16.00000000
23.062099 -42.583598 -30.439990 16.00000000
47.906513 -50.372476 -9.859572 16.00000000
15.619983 -33.426476 -32.023996 16.00000000
13.087133 -26.968757 -17.506567 16.00000000
28.597039 -46.420895 -26.910052 16.00000000
50.346372 -50.027558 1.545339 16.00000000
59.131051 -47.154724 -5.887472 16.00000000
17.336531 -36.194281 -55.216114 16.00000000
13.918437 -29.739883 -24.256280 16.00000000
54.895600 -48.888601 -11.867113 16.00000000
31.829738 -48.001643 -1.614060 16.00000000
38.066026 -49.909296 -56.150902 16.00000000
19.711542 -39.241371 -5.565078 16.00000000
13.873955 -29.625715 3.602308 16.00000000
20.450502 -40.092678 -13.748222 16.00000000
44.806334 -50.539774 -11.964063 16.00000000
41.403600 -50.391876 -42.419807 16.00000000
13.185876 -27.482667 0.001136 16.00000000
17.537895 -36.471024 -47.960762 16.00000000
17.249220 -36.074287 -29.216616 16.00000000
18.258684 -37.461631 -2.483337 16.00000000
22.652450 -42.249431 -3.788190 16.00000000
45.737268 -50.537506 -29.563669 16.00000000
57.570103 -47.873674 -44.516975 16.00000000
45.700688 -50.537595 -56.971588 16.00000000
35.147701 -49.189517 -51.435171 16.00000000
47.094164 -50.444371 -19.912924 16.00000000
51.740710 -49.774908 -49.181207 16.00000000
14.223117 -30.521882 -47.602684 16.00000000
20.023512 -39.600771 -39.708878 16.00000000
25.109839 -44.214827 -49.774441 16.00000000
43.588859 -50.542740 -22.823109 16.00000000
46.082428 -50.533913 -34.313306 16.00000000
28.072482 -46.125703 -57.467962 16.00000000
13.595088 -28.909971 -51.657760 16.00000000
48.871408 -50.286992 -33.447917 16.00000000
15.421288 -33.027768 -55.180179 16.00000000
51.587954 -49.809174 -21.518048 16.00000000
12.701614 -24.962309 -58.463068 16.00000000
29.149765 -46.731939 -52.725379 16.00000000
18.469674 -37.751603 -11.737703 16.00000000
22.566909 -42.170939 -45.091086 16.00000000
42.240908 -50.461855 -38.593240 16.00000000
56.596085 -48.275971 -47.101583 16.00000000
47.110397 -50.442935 -47.136037 16.00000000
12.441879 -23.610511 -34.967106 16.00000000
27.029450 -45.523654 -27.183937 16.00000000
13.738812 -29.278854 -5.647160 16.00000000
23.110898 -42.623406 -42.640958 16.00000000
22.425762 -42.034045 -55.712173 16.00000000
50.924270 -49.925910 -60.669318 16.00000000
15.124387 -32.424499 -27.820751 16.00000000
12.080260 -21.728449 -53.884783 16.00000000
13.180129 -27.452756 -3.068219 16.00000000
21.600587 -41.233740 -61.117663 16.00000000
17.427557 -36.319382 -12.225263 16.00000000
40.954919 -50.354377 -14.791708 16.00000000
15.106323 -32.387796 -2.475233 16.00000000
15.417078 -33.019214 -20.201148 16.00000000
48.204466 -50.346107 -14.129578 16.00000000
48.068837 -50.358110 -16.636274 16.00000000
53.447731 -49.320928 -26.616130 16.00000000
42.040421 -50.445099 -8.063191 16.00000000
23.730853 -43.129129 -16.900699 16.00000000
45.311513 -50.538543 -50.061447 16.00000000
34.027972 -48.818531 -29.885720 16.00000000
12.712215 -25.017481 -38.131928 16.00000000
19.014094 -38.437888 -59.255710 16.00000000
32.085410 -48.117892 2.301695 16.00000000
20.059990 -39.642795 -43.104078 16.00000000
25.039714 -44.167015 -15.727938 16.00000000
31.627685 -47.909773 -13.787469 16.00000000
12.574994 -24.303313 -23.574153 16.00000000
19.442344 -38.931247 -55.733321 16.00000000
21.851724 -41.477308 1.659271 16.00000000
32.277536 -48.197539 -17.415859 16.00000000
12.430328 -23.550391 0.138521 16.00000000
13.509390 -28.690017 -12.883336 16.00000000
23.379184 -42.842259 -10.710532 16.00000000
16.779627 -35.347092 -44.641572 16.00000000
21.788795 -41.416276 -36.360349 16.00000000
55.960015 -48.505127 -29.483654 16.00000000
47.624444 -50.397440 -5.887833 16.00000000
51.417816 -49.839099 -1.305446 16.00000000
34.328414 -48.925117 -59.513102 16.00000000
18.798010 -38.188952 -47.687820 16.00000000
59.515362 -46.977716 -12.107885 16.00000000
48.359394 -50.332395 -3.940226 16.00000000
23.128075 -42.637418 1.127381 16.00000000
36.373628 -49.509178 -7.906860 16.00000000
59.109176 -47.164800 -40.294325 16.00000000
24.698879 -43.918789 -28.487254 16.00000000
14.325142 -30.783741 -35.261603 16.00000000
19.165243 -38.612017 -54.059361 16.00000000
22.591189 -42.194486 -5.669156 16.00000000
37.884307 -49.878242 -13.382539 16.00000000
12.843772 -25.702176 -56.875757 16.00000000
32.270158 -48.194921 -60.789471 16.00000000
22.298448 -41.910569 -18.057392 16.00000000
17.591418 -36.544582 1.762731 16.00000000
30.231368 -47.274894 1.363453 16.00000000
12.534087 -24.090410 -31.346157 16.00000000
47.837189 -50.378612 -48.661177 16.00000000
25.803982 -44.688107 -17.289448 16.00000000
24.353336 -43.636915 -52.639998 16.00000000
31.887918 -48.028096 -5.581337 16.00000000
43.909757 -50.541958 -25.566280 16.00000000
15.761819 -33.661387 -51.324321 16.00000000
13.977963 -29.892663 1.228906 16.00000000
33.307906 -48.563078 -8.364446 16.00000000
18.999953 -38.421598 -9.997068 16.00000000
43.835669 -50.542139 -60.590042 16.00000000
47.966007 -50.367211 -1.286690 16.00000000
57.530297 -47.892008 -20.406973 16.00000000
33.631427 -48.677851 2.526703 16.00000000
42.186184 -50.457281 -3.245706 16.00000000
44.178170 -50.541305 -16.400185 16.00000000
17.763749 -36.781423 -51.466059 16.00000000
31.382808 -47.798432 -23.427949 16.00000000
15.033343 -32.239509 -21.875309 16.00000000
12.074783 -21.699944 -0.505497 16.00000000
23.967532 -43.322198 -6.726396 16.00000000
12.917482 -26.085800 -29.065765 16.00000000
34.346680 -48.931598 -15.287415 16.00000000
12.572609 -24.290896 -9.259971 16.00000000
12.147974 -22.080871 -59.922504 16.00000000
38.499197 -49.983320 -38.974214 16.00000000
46.368879 -50.508561 -0.706416 16.00000000
12.931543 -26.158981 -9.289999 16.00000000
12.228070 -22.497731 -55.860923 16.00000000
31.270002 -47.747142 -25.195280 16.00000000
12.073014 -21.690736 -11.967362 16.00000000
20.552304 -40.209957 -50.563763 16.00000000
25.212287 -44.284679 -5.805795 16.00000000
25.452427 -44.448410 -34.289374 16.00000000
16.247593 -34.465931 -35.465816 16.00000000
13.229408 -27.709231 1.897614 16.00000000
43.112027 -50.534659 -43.644991 16.00000000
12.979618 -26.409189 -1.434014 16.00000000
49.981621 -50.091714 -40.446793 16.00000000
26.009798 -44.828436 -29.207033 16.00000000
27.234637 -45.654210 -9.108758 16.00000000
12.080109 -21.727664 -42.352474 16.00000000
43.853263 -50.542096 -5.229652 16.00000000
17.738379 -36.746557 -40.873258 16.00000000
18.087228 -37.225993 -37.473773 16.00000000
38.451276 -49.975130 -18.023342 16.00000000
41.109729 -50.367316 -20.609706 16.00000000
12.113093 -21.899330 -21.525728 16.00000000
58.094557 -47.632118 3.193151 16.00000000
12.138202 -22.030011 -52.237746 16.00000000
16.854694 -35.471418 -53.382951 16.00000000
16.136925 -34.282641 -39.981814 16.00000000
17.126548 -35.905693 -14.324953 16.00000000
29.408649 -46.877624 -50.992169 16.00000000
42.087434 -50.449028 -16.272488 16.00000000
45.884932 -50.537146 -55.000881 16.00000000
39.908931 -50.224226 -46.804539 16.00000000
19.860167 -39.412592 -20.850633 16.00000000
15.914834 -33.914812 -53.285695 16.00000000
24.632942 -43.865002 -25.539751 16.00000000
44.240157 -50.541154 -10.276238 16.00000000
28.602871 -46.424177 -2.644436 16.00000000
25.382458 -44.400704 -44.334301 16.00000000
38.217080 -49.935109 -7.948207 16.00000000
20.471584 -40.116966 -56.563594 16.00000000
47.694748 -50.391218 -21.942443 16.00000000
14.227752 -30.533777 -41.379182 16.00000000
41.794267 -50.424527 -18.021863 16.00000000
37.945213 -49.888650 0.565849 16.00000000
19.788856 -39.330440 -46.444366 16.00000000
12.609891 -24.484935 -1.956536 16.00000000
17.531149 -36.461752 -27.134545 16.00000000
18.996823 -38.417991 -35.079188 16.00000000
53.045726 -49.427841 1.139468 16.00000000
15.346243 -32.875286 2.971555 16.00000000
16.600892 -35.051068 0.663117 16.00000000
38.420062 -49.969796 -16.057676 16.00000000
42.274670 -50.464677 3.646843 16.00000000
30.982250 -47.616306 -53.280584 16.00000000
19.907129 -39.466695 -48.781035 16.00000000
13.839194 -29.536496 -59.562236 16.00000000
53.552901 -49.292959 3.344069 16.00000000
12.878421 -25.882508 -4.232269 16.00000000
43.599526 -50.542714 -19.382565 16.00000000
51.594075 -49.808097 -10.247878 16.00000000
30.216326 -47.268055 -49.204135 16.00000000
30.784583 -47.526431 -10.784551 16.00000000
53.778315 -49.233010 -39.792871 16.00000000
12.200779 -22.355698 -36.601375 16.00000000
15.413143 -33.011219 -38.436960 16.00000000
12.772447 -25.330963 -6.715827 16.00000000
13.207658 -27.596032 -5.525864 16.00000000
56.482315 -48.316959 -53.320395 16.00000000
17.769722 -36.789632 -60.811810 16.00000000
13.114897 -27.113254 -46.587055 16.00000000
14.062319 -30.109174 -20.018716 16.00000000
12.377633 -23.276139 -38.050819 16.00000000
24.560805 -43.806157 -13.396727 16.00000000
34.676693 -49.048675 -28.084556 16.00000000
51.584057 -49.809859 -5.266261 16.00000000
28.955002 -46.622337 -0.870567 16.00000000
18.564268 -37.881607 -28.731429 16.00000000
14.162836 -30.367162 -16.442316 16.00000000
21.768849 -41.396931 -2.345852 16.00000000
19.684727 -39.210480 -14.885907 16.00000000
22.547553 -42.152165 -49.353119 16.00000000
29.904768 -47.126395 -54.405139 16.00000000
34.923416 -49.131035 -40.921906 16.00000000
39.253243 -50.112177 -6.452479 16.00000000
33.674935 -48.693286 -4.296254 16.00000000
36.601892 -49.568698 -44.479374 16.00000000
24.484884 -43.744225 -57.700435 16.00000000
45.760160 -50.537450 -22.050317 16.00000000
46.804268 -50.470028 -15.313484 16.00000000
49.293468 -50.212755 -7.133248 16.00000000
55.073752 -48.824418 -47.121797 16.00000000
28.725747 -46.493324 2.330884 16.00000000
18.843422 -38.241268 -31.363456 16.00000000
22.820056 -42.386154 -12.609439 16.00000000
49.655938 -50.148999 -1.411738 16.00000000
20.696578 -40.356978 -3.524545 16.00000000
12.150951 -22.096362 -4.353250 16.00000000
16.727393 -35.260580 -61.111701 16.00000000
56.035434 -48.477956 -55.109612 16.00000000
13.112140 -27.098904 -37.869482 16.00000000
42.590532 -50.491075 -48.674348 16.00000000
20.351551 -39.978683 -1.211893 16.00000000
32.115792 -48.131706 -11.731169 16.00000000
58.124367 -47.618388 -4.161223 16.00000000
19.248899 -38.708392 -38.467979 16.00000000
14.739647 -31.642755 -19.533711 16.00000000
57.643252 -47.839983 -29.726807 16.00000000
36.310765 -49.492786 -24.535424 16.00000000
47.137128 -50.440569 -50.211073 16.00000000
45.469595 -50.538158 -4.982508 16.00000000
41.116175 -50.367855 -12.849462 16.00000000
56.105168 -48.452833 -17.461801 16.00000000
38.084049 -49.912376 -48.814739 16.00000000
27.025047 -45.520652 -42.203861 16.00000000
33.037648 -48.467199 -33.709209 16.00000000
18.333689 -37.564714 -4.189840 16.00000000
14.112539 -30.238070 -4.313250 16.00000000
28.334522 -46.273165 -31.128977 16.00000000
40.393835 -50.307090 -19.167401 16.00000000
49.142420 -50.239323 -59.084315 16.00000000
37.137938 -49.708472 -22.314918 16.00000000
42.258036 -50.463286 -54.892215 16.00000000
22.013341 -41.634055 -41.959207 16.00000000
23.222949 -42.714811 -35.250748 16.00000000
57.895297 -47.723894 -48.676203 16.00000000
12.299322 -22.868569 -2.431836 16.00000000
23.480070 -42.924556 -14.606396 16.00000000
14.776834 -31.718312 -37.000730 16.00000000
34.027220 -48.818265 -50.282781 16.00000000
45.161827 -50.538908 -20.331443 16.00000000
25.488313 -44.472878 1.984631 16.00000000
37.413494 -49.780324 -42.280046 16.00000000
27.551714 -45.832644 -25.598214 16.00000000
13.730537 -29.257617 -27.846759 16.00000000
24.341713 -43.627434 -61.033361 16.00000000
17.813438 -36.849712 -53.619553 16.00000000
56.012593 -48.486185 -6.567854 16.00000000
14.019176 -29.998442 -53.186759 16.00000000
26.972762 -45.485003 -22.467491 16.00000000
23.221479 -42.713612 -1.147658 16.00000000
36.649393 -49.581084 -54.653017 16.00000000
30.451661 -47.375057 -36.394244 16.00000000
24.320779 -43.610357 -31.007204 16.00000000
15.382676 -32.949314 -7.433385 16.00000000
17.711161 -36.709149 -43.708092 16.00000000
18.015486 -37.127395 -19.040310 16.00000000
27.415165 -45.755801 -28.944033 16.00000000
49.557647 -50.166288 -48.707041 16.00000000
35.650324 -49.320576 -32.279544 16.00000000
56.862286 -48.180067 -14.546548 16.00000000
12.416016 -23.475904 1.825832 16.00000000
55.645103 -48.618579 -24.276665 16.00000000
58.862001 -47.278645 -0.440438 16.00000000
20.056717 -39.639025 -34.365522 16.00000000
13.302765 -28.091019 -10.186401 16.00000000
39.459351 -50.147398 -23.391308 16.00000000
49.188837 -50.231158 -31.217975 16.00000000
12.505825 -23.943319 -29.645910 16.00000000
36.570406 -49.560488 -46.695181 16.00000000
41.833211 -50.427781 -40.386632 16.00000000
20.446561 -40.088138 -27.812363 16.00000000
34.927679 -49.132146 -47.270874 16.00000000
59.626497 -46.926529 -49.890855 16.00000000
17.715195 -36.714693 -20.550759 16.00000000
19.281992 -38.746516 -8.061801 16.00000000
36.787058 -49.616980 -39.954581 16.00000000
12.153633 -22.110323 -24.701095 16.00000000
53.272252 -49.367597 -12.462622 16.00000000
37.964300 -49.891912 -35.269569 16.00000000
21.295041 -40.937404 -39.579811 16.00000000
13.322283 -28.192604 -54.877292 16.00000000
48.713399 -50.301065 -46.706419 16.00000000
33.894817 -48.771293 -12.657323 16.00000000
18.326264 -37.554509 -16.777244 16.00000000
23.937518 -43.297715 -4.852215 16.00000000
16.702671 -35.219636 -19.730701 16.00000000
13.435542 -28.500476 -19.697105 16.00000000
31.056786 -47.650196 -43.318114 16.00000000
13.323715 -28.200056 -43.116979 16.00000000
17.063562 -35.817348 -3.732946 16.00000000
35.010721 -49.153799 -60.966977 16.00000000
17.566542 -36.510393 -45.789910 16.00000000
52.106534 -49.677617 -28.813925 16.00000000
16.369147 -34.667250 -49.330884 16.00000000
30.670235 -47.474439 -32.560436 16.00000000
13.916044 -29.733742 -57.636349 16.00000000
19.249949 -38.709601 -23.061988 16.00000000
49.906070 -50.105003 -44.877052 16.00000000
39.891947 -50.221324 -39.973448 16.00000000
36.501852 -49.542612 -57.233893 16.00000000
23.899208 -43.266464 -55.911143 16.00000000
45.631652 -50.537763 -25.062315 16.00000000
53.251293 -49.373171 -31.220685 16.00000000
15.124344 -32.424412 -44.205479 16.00000000
33.195599 -48.523235 -46.448187 16.00000000
16.897172 -35.541769 -21.800467 16.00000000
29.048661 -46.675043 -15.473799 16.00000000
21.274367 -40.917353 -11.667325 16.00000000
34.172886 -48.869942 -24.896736 16.00000000
15.109442 -32.394134 -16.167505 16.00000000
18.753937 -38.138178 -26.243450 16.00000000
54.939615 -48.872744 -31.000094 16.00000000
13.084451 -26.954798 -53.158637 16.00000000
14.850094 -31.867169 -23.720316 16.00000000
21.558407 -41.192831 -28.661173 16.00000000
59.469544 -46.998819 -61.062366 16.00000000
27.371377 -45.731160 -15.917758 16.00000000
33.147936 -48.506326 -27.174268 16.00000000
34.840502 -49.106788 -35.196869 16.00000000
53.177129 -49.392895 -9.045953 16.00000000
14.346550 -30.838687 -8.650955 16.00000000
41.731860 -50.419311 0.990284 16.00000000
30.358212 -47.332568 -47.499897 16.00000000
57.727168 -47.801332 -8.446870 16.00000000
16.083101 -34.193498 -29.827609 16.00000000
45.922820 -50.537054 -52.521639 16.00000000
12.897600 -25.982324 -10.893447 16.00000000
26.276176 -45.010058 -0.240390 16.00000000
21.927716 -41.551010 -9.744150 16.00000000
56.593131 -48.277035 -3.300349 16.00000000
15.559840 -33.309290 0.906676 16.00000000
32.090559 -48.120233 -36.350468 16.00000000
23.297720 -42.775805 -28.842839 16.00000000
13.225036 -27.686477 -33.398869 16.00000000
12.756422 -25.247557 -45.992367 16.00000000
37.530640 -49.810869 -30.516746 16.00000000
54.768406 -48.934425 -36.790444 16.00000000
44.120765 -50.541444 -52.302400 16.00000000
23.342192 -42.812082 -25.275126 16.00000000
31.842956 -48.007653 -3.276447 16.00000000
12.665300 -24.773314 -20.554686 16.00000000
53.879743 -49.206036 -32.971090 16.00000000
54.264275 -49.103770 -5.454007 16.00000000
26.046413 -44.853401 -9.750875 16.00000000
50.570171 -49.988193 -12.888198 16.00000000
28.554102 -46.396732 -4.996833 16.00000000
37.943604 -49.888375 3.662172 16.00000000
13.975614 -29.886634 -10.294256 16.00000000
17.869923 -36.927343 0.108504 16.00000000
21.827146 -41.453471 -24.888354 16.00000000
49.657514 -50.148722 -24.055181 16.00000000
53.713448 -49.250261 -55.225109 16.00000000
13.933718 -29.779105 -55.239391 16.00000000
46.563535 -50.491333 -27.639052 16.00000000
34.958953 -49.140301 0.126311 16.00000000
56.029054 -48.480254 -27.829530 16.00000000
27.793956 -45.968964 -13.566559 16.00000000
59.347399 -47.055078 -27.851156 16.00000000
30.029014 -47.182888 -2.339981 16.00000000
13.262726 -27.882637 -60.970645 16.00000000
12.789419 -25.419296 0.115993 16.00000000
37.647581 -49.837789 -25.792143 16.00000000
13.745697 -29.296527 -34.622100 16.00000000
53.287368 -49.363577 -37.697626 16.00000000
13.196483 -27.537874 -56.469699 16.00000000
45.693800 -50.537612 -32.245302 16.00000000
13.313430 -28.146527 -23.275205 16.00000000
36.848799 -49.633079 -27.329732 16.00000000
45.904731 -50.537098 -60.181977 16.00000000
25.938852 -44.780064 -60.915865 16.00000000
49.580664 -50.162239 -21.930427 16.00000000
19.444306 -38.933506 -17.053794 16.00000000
39.948224 -50.230941 -56.705934 16.00000000
13.901975 -29.697633 -43.630287 16.00000000
16.740040 -35.281527 -26.223981 16.00000000
41.300935 -50.383296 -1.455814 16.00000000
12.725917 -25.088796 -34.606718 16.00000000
39.837599 -50.212036 -29.996937 16.00000000
20.515379 -40.167419 -24.979345 16.00000000
57.729676 -47.800177 -54.426793 16.00000000
14.329179 -30.794101 -51.832787 16.00000000
50.211111 -50.051349 -3.560941 16.00000000
44.654601 -50.540144 -58.717774 16.00000000
47.496018 -50.408806 -25.875801 16.00000000
59.572154 -46.951559 -18.732298 16.00000000
33.453988 -48.614902 0.343155 16.00000000
30.865772 -47.563346 -16.395177 16.00000000
19.065452 -38.497054 -60.838901 16.00000000
55.884828 -48.532214 -8.360604 16.00000000
18.002746 -37.109885 -34.702373 16.00000000
35.788046 -49.356487 -29.749140 16.00000000
47.407131 -50.416673 -18.305468 16.00000000
16.190680 -34.371670 -43.159955 16.00000000
14.898650 -31.965830 -48.467418 16.00000000
44.985753 -50.539337 -39.725968 16.00000000
41.323370 -50.385171 -30.871569 16.00000000
52.400682 -49.599389 -2.872015 16.00000000
47.116876 -50.442361 -11.557392 16.00000000
28.941869 -46.614946 -33.043320 16.00000000
51.905695 -49.731030 -52.719602 16.00000000
20.153653 -39.750698 -9.508380 16.00000000
38.894963 -50.050951 -51.018074 16.00000000
12.184908 -22.273097 -28.360652 16.00000000
47.167852 -50.437850 -38.724969 16.00000000
12.083913 -21.747462 -9.794791 16.00000000
59.471872 -46.997747 -16.621443 16.00000000
18.583094 -37.907480 -33.247642 16.00000000
20.521364 -40.174313 -58.165615 16.00000000
55.306722 -48.740487 -10.247918 16.00000000
13.379833 -28.357493 -1.537660 16.00000000
20.532035 -40.186607 -16.359772 16.00000000
21.747611 -41.376333 -51.078894 16.00000000
56.498703 -48.311055 -12.808429 16.00000000
21.666306 -41.297479 -16.507641 16.00000000
34.236480 -48.892503 -39.414742 16.00000000
33.578214 -48.658973 -36.712577 16.00000000
52.824742 -49.486611 -58.049401 16.00000000
41.378932 -50.389815 -47.661833 16.00000000
48.660943 -50.305707 -39.252931 16.00000000
40.271484 -50.286182 -0.073202 16.00000000
14.497797 -31.151342 3.696045 16.00000000
44.609653 -50.540253 -27.060231 16.00000000
12.483089 -23.824991 -18.607848 16.00000000
50.257827 -50.043132 -14.815547 16.00000000
14.100037 -30.205982 -12.295319 16.00000000
42.957801 -50.521770 -1.823985 16.00000000
43.473999 -50.543020 -37.192994 16.00000000
33.861312 -48.759406 -23.267063 16.00000000
55.961288 -48.504668 -0.355014 16.00000000
12.573263 -24.294301 -55.316661 16.00000000
15.495941 -33.179454 -33.967387 16.00000000
41.747775 -50.420641 -29.186364 16.00000000
14.360570 -30.872513 -50.061004 16.00000000
49.465382 -50.182517 -43.362651 16.00000000
13.263055 -27.884350 -31.164286 16.00000000
36.997177 -49.671768 -9.433676 16.00000000
43.970063 -50.541812 -8.410399 16.00000000
25.436338 -44.437440 -32.422689 16.00000000
54.779525 -48.930419 -13.750062 16.00000000
17.745704 -36.756623 -30.723968 16.00000000
14.609493 -31.378297 -58.550851 16.00000000
27.084483 -45.561177 1.505878 16.00000000
28.146578 -46.167400 -45.351588 16.00000000
30.622590 -47.452775 -56.520959 16.00000000
59.475566 -46.996046 -35.405325 16.00000000
56.468983 -48.321762 3.606801 16.00000000
15.974891 -34.014278 -18.642099 16.00000000
24.469575 -43.731736 -42.598693 16.00000000
53.034471 -49.430834 -43.153077 16.00000000
58.887687 -47.266814 -59.267892 16.00000000
27.308911 -45.696007 -40.339064 16.00000000
26.335243 -45.050331 -47.726820 16.00000000
44.027039 -50.541673 -30.141580 16.00000000
45.819701 -50.537305 -7.939345 16.00000000
12.190320 -22.301262 -18.699526 16.00000000
32.394997 -48.239210 -15.486436 16.00000000
22.223912 -41.838279 -38.252444 16.00000000
12.947009 -26.239475 -55.210230 16.00000000
47.198067 -50.435176 0.863070 16.00000000
56.613912 -48.269549 -4.994694 16.00000000
49.673203 -50.145963 -50.426938 16.00000000
18.638253 -37.983288 -24.522967 16.00000000
14.124291 -30.268233 -29.627358 16.00000000
15.305216 -32.791923 -30.534301 16.00000000
49.075045 -50.251174 0.220333 16.00000000
27.378536 -45.735188 -19.336622 16.00000000
37.105262 -49.699952 -4.181685 16.00000000
44.932861 -50.539466 -41.859921 16.00000000
23.967321 -43.322027 -44.352272 16.00000000
41.009785 -50.358963 -9.244103 16.00000000
14.434628 -31.022990 -44.914739 16.00000000
33.259284 -48.545828 -6.371687 16.00000000
47.669823 -50.393424 -7.965149 16.00000000
24.012055 -43.358518 -9.315606 16.00000000
19.349312 -38.824071 -13.115989 16.00000000
53.887776 -49.203899 -44.922247 16.00000000
19.867030 -39.420499 -32.684987 16.00000000
52.828115 -49.485714 -60.155202 16.00000000
35.068068 -49.168753 -45.423418 16.00000000
55.312005 -48.738584 -44.024020 16.00000000
43.521687 -50.542904 -41.017803 16.00000000
16.316217 -34.579586 -16.452847 16.00000000
13.291399 -28.031866 -58.598419 16.00000000
27.767633 -45.954151 -49.585037 16.00000000
56.000243 -48.490634 -45.476679 16.00000000
13.865467 -29.603929 -36.831430 16.00000000
53.484039 -49.311272 -49.413996 16.00000000
20.286000 -39.903166 -60.328675 16.00000000
29.008964 -46.652704 -19.824835 16.00000000
40.330486 -50.296265 -17.234442 16.00000000
39.337413 -50.126561 -43.080122 16.00000000
36.815505 -49.624397 -15.008766 16.00000000
44.845877 -50.539678 -1.457104 16.00000000
13.088488 -26.975808 -7.356570 16.00000000
44.030845 -50.541663 -53.941161 16.00000000
30.745380 -47.508606 -45.817013 16.00000000
39.736888 -50.194826 -10.773602 16.00000000
30.560539 -47.424562 -30.554837 16.00000000
40.829568 -50.343901 -44.341731 16.00000000
55.252906 -48.759875 -58.755121 16.00000000
52.278156 -49.631975 -23.743182 16.00000000
49.566568 -50.164719 -36.990810 16.00000000
57.610504 -47.855066 -6.629592 16.00000000
21.910387 -41.534204 -43.779637 16.00000000
59.611093 -46.933624 -43.456850 16.00000000
15.817488 -33.753586 -44.837520 16.00000000
15.164373 -32.505748 -0.746460 16.00000000
39.887845 -50.220623 -8.019908 16.00000000
36.524872 -49.548615 -5.981870 16.00000000
49.050764 -50.255444 -27.121176 16.00000000
12.844215 -25.704479 -50.285780 16.00000000
59.363559 -47.047634 -57.754373 16.00000000
37.279363 -49.745349 -50.284024 16.00000000
25.863419 -44.728632 -53.784480 16.00000000
28.009115 -46.090044 -51.614734 16.00000000
12.130179 -21.988256 -14.042412 16.00000000
23.728843 -43.127490 -33.208090 16.00000000
55.686466 -48.603678 -15.801950 16.00000000
56.071867 -48.464830 -38.298772 16.00000000
34.406165 -48.952701 -57.433750 16.00000000
28.908055 -46.595918 -48.223729 16.00000000
12.697164 -24.939148 -32.862726 16.00000000
47.269358 -50.428866 -31.070915 16.00000000
17.369542 -36.239650 -36.383508 16.00000000
22.769579 -42.344978 -47.061355 16.00000000
18.980377 -38.399046 -1.302228 16.00000000
24.099743 -43.430049 -18.815556 16.00000000
42.661570 -50.497012 -21.131158 16.00000000
37.888793 -49.879009 -23.871921 16.00000000
13.531845 -28.747650 -8.131565 16.00000000
54.370120 -49.075621 -53.452822 16.00000000
18.161559 -37.328148 -7.803285 16.00000000
30.782885 -47.525658 -12.466450 16.00000000
14.669498 -31.500219 1.800382 16.00000000
21.692930 -41.323300 -26.712640 16.00000000
36.805817 -49.621871 -0.506718 16.00000000
36.634233 -49.577131 -17.025053 16.00000000
29.269009 -46.799043 -40.114879 16.00000000
12.912823 -26.061553 -26.058696 16.00000000
14.473678 -31.102336 -42.899973 16.00000000
55.374197 -48.716178 -52.021133 16.00000000
13.182268 -27.463887 -40.516282 16.00000000
13.115480 -27.116286 -51.329720 16.00000000
29.309227 -46.821675 -38.289572 16.00000000
47.489583 -50.409376 -37.076151 16.00000000
12.179062 -22.242667 -47.374814 16.00000000
32.413766 -48.245868 -44.335535 16.00000000
54.573978 -49.004471 -7.456824 16.00000000
21.220419 -40.865030 -32.262959 16.00000000
35.620728 -49.312859 -11.887203 16.00000000
12.232982 -22.523298 -45.831341 16.00000000
28.368628 -46.292358 -17.361660 16.00000000
12.466972 -23.741106 -51.907762 16.00000000
55.347199 -48.725905 -22.525547 16.00000000
14.687963 -31.537737 -11.673428 16.00000000
46.675859 -50.481392 -45.481780 16.00000000
27.025707 -45.521102 -34.022244 16.00000000
35.893410 -49.383961 -36.441927 16.00000000
58.735528 -47.336897 -2.473850 16.00000000
22.002947 -41.623973 -0.210561 16.00000000
54.875766 -48.895747 -2.914625 16.00000000
14.096016 -30.195660 -18.146243 16.00000000
21.493926 -41.130294 -48.741242 16.00000000
13.560766 -28.821880 -47.038389 16.00000000
15.112061 -32.399455 -46.826424 16.00000000
32.071856 -48.111729 -55.764486 16.00000000
16.193846 -34.376914 -37.753932 16.00000000
54.937310 -48.873574 1.739176 16.00000000
43.589773 -50.542738 -28.565289 16.00000000
57.271479 -48.011216 -31.740577 16.00000000
12.850095 -25.735086 -31.193125 16.00000000
31.931711 -48.048008 -48.215423 16.00000000
22.275167 -41.887989 -58.988804 16.00000000
36.823744 -49.626546 1.990195 16.00000000
56.047607 -48.473570 -60.653239 16.00000000
15.963161 -33.994851 -9.502929 16.00000000
23.019702 -42.549014 -52.055785 16.00000000
29.849161 -47.101112 -3.960597 16.00000000
19.880749 -39.436304 -41.400538 16.00000000
12.940652 -26.206391 -12.914374 16.00000000
22.208143 -41.822985 -14.801627 16.00000000
19.614494 -39.129569 -51.614761 16.00000000
53.155220 -49.398721 -36.039156 16.00000000
26.241537 -44.986440 -7.739428 16.00000000
59.570851 -46.952159 -54.028923 16.00000000
59.313829 -47.070539 -14.469173 16.00000000
42.072001 -50.447738 -11.022075 16.00000000
18.284816 -37.497545 -39.204202 16.00000000
46.975022 -50.454916 2.725664 16.00000000
30.864905 -47.562952 -19.601483 16.00000000
15.354295 -32.891646 -4.146734 16.00000000
58.120234 -47.620292 -10.895836 16.00000000
38.156680 -49.924787 -45.098682 16.00000000
36.916266 -49.650671 -52.210276 16.00000000
51.686383 -49.789356 -36.952713 16.00000000
22.860351 -42.419024 -60.769553 16.00000000
20.369199 -39.999014 -36.353857 16.00000000
41.316079 -50.384562 -26.343137 16.00000000
51.781614 -49.764029 -41.318144 16.00000000
28.849468 -46.562948 -55.889665 16.00000000
26.717205 -45.310759 -5.376749 16.00000000
29.386421 -46.865115 -29.547399 16.00000000
17.663313 -36.643391 -59.155223 16.00000000
20.595424 -40.258872 1.247158 16.00000000
48.991393 -50.265887 3.588491 16.00000000
13.079806 -26.930624 -44.530590 16.00000000
12.863509 -25.804897 3.272579 16.00000000
12.519933 -24.016742 -46.986536 16.00000000
50.495178 -50.001384 -35.358497 16.00000000
43.703971 -50.542460 -50.636193 16.00000000
16.288664 -34.533953 -55.551424 16.00000000
21.308024 -40.949995 3.656906 16.00000000
43.298388 -50.543448 1.018119 16.00000000
22.074158 -41.693039 -33.291747 16.00000000
20.791879 -40.449407 -44.363377 16.00000000
12.818113 -25.568631 -39.877263 16.00000000
16.587620 -35.029087 -46.341792 16.00000000
20.634184 -40.296464 -37.863526 16.00000000
15.296908 -32.775042 -40.022761 16.00000000
53.765265 -49.236481 -19.189053 16.00000000
14.029047 -30.023778 -1.730606 16.00000000
48.259228 -50.341260 -44.937469 16.00000000
29.197419 -46.758756 -25.414581 16.00000000
57.430676 -47.937892 -18.292875 16.00000000
48.634579 -50.308040 -41.711872 16.00000000
32.824112 -48.391445 -57.512970 16.00000000
55.104575 -48.813314 -49.175055 16.00000000
48.085932 -50.356597 -35.282536 16.00000000
52.965346 -49.449218 -0.573401 16.00000000
13.409172 -28.432796 -14.752714 16.00000000
34.702335 -49.057772 -55.511860 16.00000000
53.976859 -49.180208 -29.187577 16.00000000
19.322328 -38.792984 -3.483548 16.00000000
29.521769 -46.941282 -22.723211 16.00000000
12.412700 -23.458648 -40.167541 16.00000000
44.908569 -50.539525 -45.233993 16.00000000
12.895953 -25.973754 -22.696891 16.00000000
26.874807 -45.418216 -20.878239 16.00000000
26.094416 -44.886130 -24.671316 16.00000000
45.945156 -50.537000 -9.872740 16.00000000
30.304855 -47.308307 -0.545478 16.00000000
24.368283 -43.649108 -38.499419 16.00000000
35.877553 -49.379826 -58.975140 16.00000000
14.111045 -30.234234 -38.419664 16.00000000
46.408681 -50.505038 -35.867208 16.00000000
42.959613 -50.521921 -45.732800 16.00000000
12.081794 -21.736436 -50.262097 16.00000000
15.528853 -33.246327 -25.928628 16.00000000
28.820295 -46.546531 -36.487973 16.00000000
26.707094 -45.303866 -55.230406 16.00000000
25.770618 -44.665359 -19.076671 16.00000000
21.240880 -40.884874 -55.375032 16.00000000
45.245629 -50.538704 1.013911 16.00000000
44.004250 -50.541728 -56.517669 16.00000000
39.189488 -50.101282 -61.049405 16.00000000
25.318008 -44.356761 -22.759020 16.00000000
23.591567 -43.015508 -40.644811 16.00000000
