6.898295 34.207221 -22.219598
5.801312 34.131014 -50.290994
8.020752 34.285197 -0.562273
4.173364 34.017922 -36.966240
6.392415 34.172078 -36.227782
2.646107 33.911824 -40.511597
4.343408 34.029735 -9.175617
6.193497 34.158259 -4.388369
7.915233 34.277867 -55.499470
2.376177 33.893073 -59.948152
3.403586 33.964446 -26.081145
3.674155 33.983242 -57.648111
5.780933 34.129599 -37.801120
5.145822 34.085478 -9.234137
2.674432 33.913792 -43.044352
5.739450 34.126717 -46.384709
3.700092 33.985044 -35.222740
1.503445 33.832445 -32.205654
1.482899 33.831017 -33.646034
5.423067 34.104738 -38.368916
3.002737 33.936599 -41.407803
8.351802 34.308195 -25.715170
2.749378 33.918999 -58.397454
6.886444 34.206398 -57.077753
1.742752 33.849069 -57.502107
4.039298 34.008608 -25.785459
2.260926 33.885066 0.328246
8.485074 34.317453 -56.022572
1.712628 33.846976 -45.359144
8.202012 34.297789 -28.492725
1.737032 33.848672 -19.816097
6.328107 34.167610 -26.458178
8.421997 34.313071 -6.524246
8.496911 34.318276 -44.421328
0.957840 33.794542 -51.027140
4.898538 34.068299 -6.818640
4.077590 34.011269 -18.781765
4.273227 34.024859 -20.799715
7.602071 34.256112 -14.645019
2.709817 33.916250 -39.470773
8.555609 34.322353 -32.555625
2.115012 33.874930 -39.590530
2.929703 33.931526 -43.645541
1.949311 33.863419 -33.066726
2.339357 33.890515 -30.039796
3.274579 33.955484 -43.149397
2.210102 33.881536 -6.412059
8.307486 34.305116 -35.541000
6.248266 34.162064 -14.232403
5.440024 34.105916 -49.277854
2.101241 33.873973 -9.939268
3.996950 34.005667 -1.276940
6.121461 34.153255 -13.603136
6.212067 34.159549 -53.859806
3.709593 33.985704 -59.072659
1.615748 33.840246 -30.057563
3.710883 33.985794 2.674403
4.181341 34.018476 -54.869698
4.746630 34.057746 -1.309620
1.594603 33.838777 -49.957108
5.814322 34.131918 -16.633554
3.217094 33.951491 -21.517482
7.495754 34.248726 -58.388567
5.246032 34.092439 -50.650870
2.495765 33.901380 -19.600198
7.425061 34.243815 -4.214199
6.397563 34.172435 -6.782868
3.652154 33.981714 -26.764705
2.477051 33.900080 -46.590960
6.250812 34.162241 -57.180269
1.142763 33.807388 -15.865932
3.572066 33.976150 -61.050456
6.510124 34.180255 -16.340916
3.596679 33.977860 -6.754826
5.867709 34.135627 1.719131
5.942732 34.140839 -28.683391
0.975947 33.795800 -2.693918
4.005190 34.006239 -47.925062
6.521640 34.181055 -11.955984
1.981252 33.865638 -5.689535
8.528690 34.320483 -23.666950
2.225716 33.882620 -59.353826
3.148840 33.946749 -23.340518
1.027914 33.799410 -43.015617
1.520706 33.833644 -20.868975
1.056040 33.801364 -0.454374
3.094674 33.942986 -4.555800
5.486316 34.109132 -59.125200
6.747969 34.196778 -52.323297
7.552073 34.252638 -7.938505
2.690612 33.914916 -38.257186
4.969448 34.073225 -47.024350
1.616300 33.840285 -13.760966
6.805066 34.200744 -35.106889
4.097580 34.012657 -13.284671
4.743999 34.057564 -33.221506
4.563340 34.045013 -27.922105
2.223200 33.882445 -51.230024
7.635563 34.258438 -48.142733
3.044327 33.939489 -50.434342
8.362190 34.308917 -5.455538
5.098848 34.082215 -58.498401
6.253701 34.162441 -0.833294
1.274070 33.816510 -58.116372
1.285541 33.817307 -55.654404
3.715578 33.986120 -4.474137
0.951975 33.794134 -5.622861
8.445108 34.314677 -15.323356
7.291800 34.234557 -49.227442
6.458516 34.176670 -58.943725
5.187699 34.088387 -5.396632
3.172594 33.948399 -49.112751
4.261593 34.024051 -32.700078
8.509830 34.319173 -2.312648
2.704493 33.915881 -12.103013
3.672138 33.983102 -53.122795
6.928355 34.209309 -47.036046
5.472695 34.108185 -10.061398
5.813558 34.131865 -50.916727
2.873906 33.927649 -45.977967
2.097087 33.873684 -55.677600
7.061761 34.218577 0.294419
7.282676 34.233923 3.209321
8.276976 34.302997 -33.499610
5.725699 34.125761 -36.413838
2.803936 33.922789 -44.258059
5.847849 34.134247 1.153230
2.182021 33.879585 -56.473225
5.284211 34.095092 -1.983012
4.396614 34.033431 -11.631829
5.824739 34.132642 -22.856722
6.239023 34.161422 -29.803939
1.634505 33.841549 0.633867
6.369202 34.170465 -46.817520
5.127107 34.084178 -0.847149
2.366675 33.892413 -57.707548
7.113254 34.222154 -10.064235
2.099444 33.873848 1.503335
8.437888 34.314175 -18.584945
2.012149 33.867784 -16.913095
7.847111 34.273134 -2.005462
4.748692 34.057890 -57.525261
2.074457 33.872112 -38.461323
0.927410 33.792428 -47.147704
7.185870 34.227198 -45.312868
7.704103 34.263200 0.402393
2.203055 33.881046 -0.959894
2.262708 33.885190 -21.979435
2.785466 33.921506 -37.582987
5.886254 34.136915 -1.865517
1.993905 33.866517 -3.644667
4.704610 34.054827 3.700077
7.516138 34.250142 -57.058039
6.103555 34.152011 -26.985661
1.826286 33.854872 -40.117610
4.250852 34.023305 -6.583691
2.233864 33.883186 -36.489086
6.806256 34.200827 -12.612923
7.332276 34.237369 0.916298
2.540610 33.904496 1.897314
1.138920 33.807121 -57.322715
1.609113 33.839785 -56.908173
5.444582 34.106232 -23.887024
3.927642 34.000852 -2.174900
6.452059 34.176221 -25.680045
7.231930 34.230398 -55.104053
3.260967 33.954538 -28.823906
6.104142 34.152052 -45.413889
5.699726 34.123957 -0.766144
3.787455 33.991113 -50.160286
1.500010 33.832206 -42.588174
2.750509 33.919077 -1.348832
3.210453 33.951029 2.384621
1.072655 33.802518 -27.088508
6.553759 34.183286 -9.795673
3.238060 33.952947 -47.271705
1.264905 33.815873 1.757157
1.002049 33.797613 -6.436087
6.088720 34.150980 -3.512972
3.764588 33.989525 -51.987512
6.676502 34.191813 -21.232507
7.091708 34.220657 -48.387225
0.930338 33.792631 -11.691673
4.987280 34.074464 -44.755091
6.352650 34.169315 -21.696072
3.475218 33.969422 -15.269448
5.723756 34.125626 -47.041006
6.026016 34.146624 -49.707670
7.838396 34.272529 -46.491046
4.048868 34.009273 -24.102014
7.943258 34.279814 -52.320836
4.519894 34.041995 -28.858221
8.202477 34.297821 -16.058346
3.764389 33.989511 1.416113
0.939600 33.793275 -54.547877
3.819103 33.993312 -31.548557
8.289935 34.303897 -29.202339
4.165040 34.017344 -17.760576
5.771437 34.128939 -6.410655
7.033909 34.216642 -25.780605
1.041548 33.800357 -4.855218
2.864047 33.926965 -17.953467
3.247348 33.953592 -32.509536
7.143161 34.224231 -23.330873
3.485365 33.970127 -55.890834
5.845531 34.134086 -8.300655
6.399617 34.172578 -34.019602
8.340544 34.307413 -3.044038
5.155457 34.086147 -43.271167
7.036386 34.216814 -11.580336
1.710787 33.846849 0.037241
5.334509 34.098586 -34.493324
7.430467 34.244190 -16.833001
4.999019 34.075280 -31.814422
5.850374 34.134423 -18.535779
8.238452 34.300321 -25.033683
3.629301 33.980126 -40.905872
3.999859 34.005869 -6.075076
2.661958 33.912926 -23.002593
3.994091 34.005468 -21.432383
4.151504 34.016403 -57.950073
7.609242 34.256610 -43.552327
2.814536 33.923525 -53.950142
5.816750 34.132087 -60.241971
7.952902 34.280484 -20.910603
6.181039 34.157394 -53.169928
7.564656 34.253512 -25.566695
3.560032 33.975314 -40.246003
3.754026 33.988791 -20.422425
6.494033 34.179137 -61.008264
7.104659 34.221557 -16.123245
4.436042 34.036170 -60.311487
4.079718 34.011416 -42.286000
4.369226 34.031528 -58.511439
0.948956 33.793925 -8.062925
0.926791 33.792385 -9.167674
3.203726 33.950562 -25.499785
7.080890 34.219906 -21.671271
2.661769 33.912913 3.808748
7.171119 34.226174 -1.992189
6.506558 34.180007 -17.506407
7.245314 34.231328 -27.895252
1.136279 33.806938 -24.931823
7.219134 34.229509 -40.020962
2.289567 33.887056 -27.105597
4.872159 34.066467 -12.019570
8.141141 34.293560 -13.416349
3.359258 33.961367 -33.849426
1.819385 33.854393 -25.003880
5.820168 34.132324 -42.438410
7.381098 34.240761 -4.799009
7.671545 34.260938 -37.444187
5.267885 34.093957 -19.422764
8.379613 34.310127 -17.167092
3.750427 33.988541 -28.491819
6.267842 34.163424 -46.031607
5.495093 34.109741 -45.203438
7.056151 34.218187 -24.886860
7.844588 34.272959 -57.757878
4.864346 34.065924 -3.763990
0.987829 33.796625 2.701353
8.285275 34.303573 -48.322178
6.900880 34.207400 -8.034905
3.395683 33.963897 -7.922829
3.174919 33.948561 -11.764546
5.152792 34.085962 -40.788098
8.400465 34.311575 -10.984789
6.604813 34.186833 -45.094677
7.765305 34.267451 -24.553643
6.759055 34.197548 -33.524749
6.261398 34.162976 -5.615490
0.972094 33.795532 -38.834582
8.520489 34.319913 -57.758518
5.449115 34.106547 -4.588820
4.887751 34.067550 -54.761070
4.487289 34.039730 -55.423136
2.708047 33.916127 -5.330017
7.072233 34.219304 -5.780006
7.806081 34.270284 -53.541871
1.608161 33.839719 -2.667812
5.813898 34.131889 -7.373155
4.615141 34.048612 -10.529746
1.187830 33.810519 -18.331328
2.862011 33.926823 -45.329403
4.138494 34.015499 -40.056350
3.303301 33.957479 -18.599310
6.147850 34.155088 -39.628419
3.426050 33.966007 -0.877821
7.905717 34.277206 -39.547972
6.708296 34.194022 -14.732218
1.088927 33.803648 -25.667379
1.705248 33.846464 -48.052642
7.129335 34.223271 -57.762577
7.822630 34.271434 -31.113859
3.101293 33.943446 -42.400088
3.945308 34.002079 -27.882129
3.233891 33.952657 -14.738290
6.261067 34.162953 -15.073830
1.524841 33.833931 -58.793053
3.874899 33.997188 -12.703825
6.069393 34.149638 -10.121537
4.040065 34.008662 -14.552920
1.581017 33.837833 -54.999515
3.214786 33.951330 -60.620040
5.616127 34.118150 -51.501146
8.091255 34.290095 -36.045966
3.687401 33.984162 -48.787564
8.576131 34.323779 -40.118820
1.003594 33.797720 -1.718945
0.970368 33.795412 -16.404075
5.383558 34.101993 -52.895554
8.573266 34.323580 -40.832116
6.413866 34.173568 -25.098442
4.275183 34.024995 -27.143373
4.728527 34.056489 -32.359290
5.154957 34.086112 -23.169476
1.920418 33.861411 -34.895027
2.100250 33.873904 -2.388192
2.388085 33.893900 -30.746958
6.103443 34.152003 -10.786338
1.835354 33.855502 -10.426217
2.640707 33.911449 -14.600866
4.587261 34.046675 -5.119037
4.333622 34.029055 -8.567543
1.815187 33.854101 -25.632980
7.638457 34.258639 -22.242312
5.014545 34.076358 -21.594445
7.380084 34.240690 -23.881911
2.523171 33.903284 -2.017474
1.278102 33.816790 -27.677968
4.913459 34.069336 -37.768559
3.216005 33.951415 -52.359387
2.435325 33.897182 -50.550364
2.661948 33.912925 -21.295928
7.661594 34.260247 -30.264937
5.028111 34.077301 -2.490797
2.746128 33.918773 -31.227462
4.379511 34.032243 -40.939209
2.734510 33.917966 -15.351195
4.616455 34.048703 -15.586047
2.987639 33.935550 -24.562430
2.503168 33.901895 0.983808
3.570898 33.976069 -59.672113
3.023602 33.938049 -59.122041
1.773169 33.851182 -22.387218
3.686908 33.984128 -44.524323
3.191818 33.949735 -10.527149
6.569540 34.184382 -60.218157
6.518982 34.180870 -56.416303
8.570468 34.323385 -50.352346
2.825861 33.924312 -3.851196
8.542105 34.321415 -14.422400
7.119983 34.222621 -39.295328
3.600537 33.978128 -36.683082
5.343672 34.099222 -49.836422
7.122237 34.222778 -53.054815
5.041040 34.078199 -41.401834
1.117995 33.805668 -41.626660
5.049174 34.078764 -14.652712
2.252079 33.884452 -0.283618
7.435483 34.244539 -3.246444
2.692121 33.915021 -31.964634
7.102178 34.221384 -14.285915
6.344068 34.168719 -20.678110
5.871123 34.135864 -41.564065
5.262217 34.093564 -57.837282
1.297750 33.818155 -14.396913
4.287221 34.025831 -51.596361
8.510664 34.319231 -8.192157
5.417484 34.104350 -33.716219
6.867697 34.205095 -30.252946
7.040000 34.217065 -8.880819
7.065400 34.218830 -58.857657
4.473867 34.038798 -46.664305
5.515789 34.111179 -11.693360
4.656867 34.051510 2.946558
8.131834 34.292914 -20.118402
6.444250 34.175679 -0.198887
8.125598 34.292481 -37.061635
6.849284 34.203816 -38.096046
2.645931 33.911812 -56.992523
5.407493 34.103656 -47.658725
3.254225 33.954070 -16.672500
3.436575 33.966738 -39.444243
3.335468 33.959714 -12.945345
1.462687 33.829613 -5.880030
3.414505 33.965205 -19.862229
8.237068 34.300224 0.034039
4.314587 34.027733 -44.576479
0.981212 33.796165 -59.167721
3.686190 33.984078 -30.903555
0.924107 33.792198 -18.851547
7.458529 34.246140 -13.663521
7.878986 34.275349 -12.022075
4.172349 34.017851 -26.389154
1.775189 33.851322 -51.882609
4.045624 34.009048 3.875654
4.068955 34.010669 -29.959699
4.691595 34.053923 2.259493
8.398376 34.311430 0.648740
2.321295 33.889260 -49.869896
7.879136 34.275359 -14.065813
1.465724 33.829824 -44.526529
4.182494 34.018556 -49.603723
5.899475 34.137834 -27.578547
5.336115 34.098697 -39.440846
6.006944 34.145299 -56.050143
4.219968 34.021159 -16.307182
2.873271 33.927605 3.216878
8.454368 34.315320 -47.751944
0.916731 33.791686 -17.494659
4.841809 34.064358 -8.288731
4.603499 34.047803 -34.453675
3.107435 33.943873 -27.086092
1.081102 33.803105 -51.952611
2.736551 33.918108 -3.241836
3.512474 33.972010 3.625369
7.469940 34.246933 -36.066341
4.485718 34.039621 -14.894706
5.068255 34.080089 -42.681585
3.067755 33.941116 -15.926403
0.987603 33.796609 -9.877514
6.923350 34.208961 -17.908143
1.020630 33.798904 -56.436563
2.251104 33.884384 -45.305332
4.433514 34.035994 -3.301035
6.447101 34.175877 -43.115368
4.938443 34.071071 -17.925232
6.010051 34.145515 -59.573814
2.346862 33.891036 -52.403832
3.833837 33.994335 -42.963166
6.668915 34.191286 1.943020
3.847760 33.995302 -37.517153
7.926037 34.278617 -56.199467
7.593796 34.255537 -59.307091
2.899191 33.929406 -23.963195
2.779252 33.921074 -34.155175
0.956013 33.794415 1.282858
4.395846 34.033378 -0.853534
5.181561 34.087961 -60.338238
7.314662 34.236146 -1.410851
3.793823 33.991555 -52.556923
1.529386 33.834247 -28.236428
5.022381 34.076903 -36.404331
1.113842 33.805379 -60.559026
1.697137 33.845900 -46.789195
1.586459 33.838212 -1.958922
1.882101 33.858750 -7.344255
2.190962 33.880206 -33.638857
3.185496 33.949295 -28.039121
3.604966 33.978436 -3.924211
5.128004 34.084240 -59.588326
2.620676 33.910058 -7.951401
8.292989 34.304109 -4.681385
8.558393 34.322547 -60.204845
4.619124 34.048888 -39.103079
4.085254 34.011801 3.187266
2.858904 33.926607 -6.519719
6.926723 34.209196 -6.482938
6.869011 34.205186 -49.713252
3.481423 33.969853 -45.115348
8.456353 34.315458 -43.747089
7.736119 34.265424 -38.112639
2.980295 33.935040 -22.143364
5.976159 34.143161 -47.734152
7.582024 34.254719 -60.306025
6.533895 34.181906 -48.712376
5.716091 34.125094 -56.898561
3.679449 33.983610 -8.782054
3.416753 33.965361 -30.376058
3.351579 33.960833 -0.106887
5.200680 34.089289 -41.992737
6.825455 34.202161 -3.916613
0.958804 33.794609 -52.751086
5.293520 34.095738 -12.586881
7.358109 34.239164 -38.653989
1.554578 33.835997 -47.410450
4.604752 34.047890 -35.860628
4.512571 34.041486 -50.885787
7.066497 34.218906 -42.730029
5.627800 34.118961 -32.695819
3.470472 33.969093 -45.728957
2.625149 33.910369 -18.497797
6.111764 34.152581 -31.683856
5.401534 34.103242 -61.061735
1.264549 33.815849 -53.812558
8.521002 34.319949 -43.113467
4.672221 34.052577 -23.618551
4.770323 34.059392 -52.960503
1.991695 33.866363 -8.100381
0.926349 33.792354 -34.082166
8.484593 34.317420 -51.525620
6.608408 34.187083 -40.176278
4.785846 34.060471 -26.840052
4.769779 34.059354 -7.571012
2.039271 33.869668 -43.019812
2.025109 33.868684 -29.492803
7.670570 34.260870 -21.520517
1.555064 33.836031 -50.632142
4.406770 34.034136 -4.330535
0.936112 33.793032 -31.661397
8.548398 34.321852 -38.298782
6.807525 34.200915 -35.705329
7.328451 34.237103 -26.539505
6.790709 34.199747 -51.462533
8.503791 34.318753 -3.913201
4.589800 34.046851 1.239399
1.088350 33.803608 -43.812970
3.565739 33.975711 -5.073124
6.280318 34.164290 -9.084192
8.576447 34.323801 -24.456435
2.846934 33.925776 -54.733110
5.001669 34.075464 -6.141586
2.592418 33.908095 -28.661521
4.038682 34.008566 -22.034530
6.703325 34.193676 -31.881897
1.352264 33.821942 -22.887027
6.769069 34.198244 -4.563505
7.762657 34.267267 -15.460446
5.356781 34.100133 -14.161858
6.840134 34.203180 -20.384476
1.053076 33.801158 -48.383940
8.119914 34.292086 -56.750909
4.982179 34.074110 -52.275311
7.099101 34.221171 -41.334287
0.909937 33.791214 -42.273270
5.327581 34.098105 2.118260
4.656208 34.051465 -59.192420
8.472255 34.316563 -45.853358
7.711076 34.263684 -51.210133
1.111721 33.805232 0.190500
5.064345 34.079818 -57.068693
7.133542 34.223563 -19.741489
1.024121 33.799146 -1.126665
1.651939 33.842760 -1.117617
7.754965 34.266733 -8.990779
7.621048 34.257430 -50.065839
3.985963 34.004903 -57.092392
4.093846 34.012398 -54.185324
5.674028 34.122172 0.010072
3.936667 34.001479 -51.157608
3.591072 33.977471 -24.981890
3.334847 33.959671 -54.347429
3.501008 33.971214 -43.935127
8.511485 34.319288 -19.228783
8.223451 34.299278 -30.737732
6.999436 34.214247 -43.645257
5.856975 34.134881 -58.577011
5.634619 34.119434 -13.185252
6.081787 34.150499 -22.263122
2.199922 33.880828 -41.582532
2.189575 33.880110 -55.108356
2.956264 33.933371 -51.363887
7.036872 34.216848 -18.822048
2.144078 33.876949 -58.771837
7.928070 34.278759 -42.960811
8.343871 34.307644 -12.338459
4.819644 34.062818 -11.214102
5.233023 34.091536 -40.063082
6.325165 34.167406 0.555230
1.974989 33.865202 -37.193646
7.193747 34.227746 -30.760026
3.798260 33.991864 -23.192470
4.029888 34.007955 -2.869575
6.367850 34.170371 -50.973512
7.703384 34.263150 -52.940081
5.607474 34.117548 -43.704785
4.008616 34.006477 -0.427122
3.530469 33.973260 -19.305079
2.431882 33.896942 -52.953600
2.087720 33.873034 3.532585
6.374555 34.170837 -43.761471
6.488836 34.178776 -28.424475
6.584066 34.185392 -13.168429
4.461536 34.037941 -56.816838
4.974746 34.073593 -27.537511
5.548369 34.113443 -30.533310
2.102526 33.874062 -19.159878
2.053858 33.870681 2.813395
8.529583 34.320545 -54.912439
5.729011 34.125992 -9.497717
2.050049 33.870417 -14.983092
4.544889 34.043731 -30.426509
6.062158 34.149135 -55.371907
7.349812 34.238587 -33.418763
7.622574 34.257536 -61.084656
1.057947 33.801496 -21.852538
6.374177 34.170811 -37.538566
7.808821 34.270474 -54.892613
2.429565 33.896781 -25.360990
4.529149 34.042638 0.593629
8.554963 34.322308 -10.255747
7.162434 34.225570 -34.333271
6.525556 34.181327 -31.232448
6.526706 34.181407 -48.028526
3.921010 34.000391 -47.317390
7.591982 34.255411 -36.660501
6.411752 34.173421 -18.231398
1.868616 33.857813 -14.345415
1.635696 33.841632 -5.180921
2.113950 33.874856 -12.640878
6.895721 34.207042 -29.210668
4.882024 34.067152 -53.542068
1.953850 33.863734 -28.907376
3.030018 33.938495 -35.502921
2.314627 33.888797 -61.079812
8.457542 34.315541 -34.196532
6.374777 34.170852 -40.919493
4.360533 34.030924 -52.564049
4.235437 34.022234 -53.593719
3.230476 33.952420 -31.604427
8.076667 34.289081 -16.598818
6.476492 34.177918 -2.126633
3.539377 33.973879 -46.364603
4.437690 34.036284 -14.150857
2.176610 33.879209 -1.522892
5.552847 34.113754 -53.562395
5.554133 34.113843 -22.009033
2.233527 33.883163 -23.364961
5.371334 34.101144 -16.255483
3.303691 33.957506 -37.927332
1.397653 33.825095 -61.111379
1.525871 33.834003 3.231971
8.120474 34.292125 -9.560458
2.613279 33.909544 -5.879556
2.958246 33.933509 -59.811014
1.475767 33.830522 -39.504013
4.705264 34.054873 -33.887111
7.892261 34.276271 -49.498478
5.841940 34.133837 -34.198090
6.174819 34.156962 2.755831
8.543489 34.321511 -26.681852
1.815976 33.854156 2.052388
3.813919 33.992952 0.212277
4.271895 34.024767 -38.629238
2.160054 33.878059 -31.527541
5.342909 34.099169 -24.653733
1.688643 33.845310 -17.419036
6.834667 34.202801 -23.845095
8.408097 34.312106 -52.867271
3.471130 33.969138 -18.026980
4.996555 34.075108 -0.197115
5.726409 34.125811 -20.429495
2.293457 33.887326 -13.249811
6.435924 34.175100 -1.583518
5.913063 34.138778 -31.039277
1.896584 33.859756 -15.674588
1.108176 33.804986 -46.516754
4.956389 34.072318 -55.732645
7.118809 34.222540 -32.779256
8.002651 34.283940 -32.210593
4.625913 34.049360 -12.559352
1.453081 33.828946 -19.284282
4.971076 34.073338 -16.709910
4.770212 34.059385 -48.305928
4.346780 34.029969 -45.482372
7.235322 34.230634 -55.710957
1.507924 33.832756 -9.418772
7.273435 34.233281 -31.374700
5.366266 34.100792 -28.638743
8.559741 34.322640 -20.508995
2.091240 33.873278 -10.943967
3.737639 33.987652 -16.032405
2.144369 33.876969 -47.154911
0.921319 33.792005 -40.777519
6.611368 34.187288 -10.452271
3.510383 33.971865 -29.344236
1.617820 33.840390 -31.661679
7.262989 34.232556 -47.552313
7.812325 34.270718 -38.976829
5.198388 34.089130 1.437415
5.721146 34.125445 -15.266580
2.960936 33.933695 -20.556952
5.622027 34.118559 -2.861751
5.800042 34.130926 -48.271979
5.258948 34.093337 -46.015539
8.381899 34.310286 3.528657
5.030150 34.077442 -26.247103
4.937505 34.071006 -56.395856
1.650809 33.842682 -36.216333
3.625748 33.979879 -33.139875
1.459466 33.829389 -7.740710
7.280538 34.233775 -54.148200
6.017678 34.146045 -5.024535
1.458678 33.829335 -24.432907
4.607514 34.048082 -49.216398
2.859969 33.926681 -36.212395
5.899807 34.137857 -48.965990
8.407785 34.312084 -60.989727
3.805047 33.992335 -56.547918
8.464139 34.315999 -34.981152
3.507188 33.971643 -23.797935
4.952148 34.072023 -43.822156
4.477416 34.039044 -18.292338
3.953909 34.002677 -32.189145
3.844660 33.995087 -55.421614
5.684075 34.122870 -26.400690
2.191731 33.880259 -35.786800
1.632924 33.841439 -23.466787
3.067989 33.941132 -53.237631
2.420585 33.896158 -11.432724
2.814022 33.923489 -29.450637
7.535670 34.251499 2.638845
4.430460 34.035782 -31.529606
5.107304 34.082802 -20.719225
1.567594 33.836901 -35.439932
4.235596 34.022245 -59.620204
2.434403 33.897118 -32.788008
8.057073 34.287720 -59.908056
6.339989 34.168436 -6.242190
4.741712 34.057405 -60.801308
8.418065 34.312798 -47.082497
1.952044 33.863608 -42.241172
2.548640 33.905054 -27.624393
3.541448 33.974023 -9.959879
7.538204 34.251675 -0.167803
5.986826 34.143902 -34.847986
5.445212 34.106276 -11.110470
6.689912 34.192745 -44.460836
7.260125 34.232357 -20.926217
3.376185 33.962543 -53.692254
1.272799 33.816422 -11.135820
4.480258 34.039242 -5.741156
6.063505 34.149229 -12.715005
6.073196 34.149902 -15.793145
2.263870 33.885271 -20.153114
4.892802 34.067901 -17.359285
7.450146 34.245558 -44.149611
7.885752 34.275819 -6.850226
2.025162 33.868688 -53.340478
4.384809 34.032611 -43.952303
6.335438 34.168120 -19.006410
7.893873 34.276383 -7.404368
5.200790 34.089296 -31.292317
2.563325 33.906074 -8.733153
6.147213 34.155044 -35.411689
3.180746 33.948966 1.821231
5.086826 34.081379 -37.091699
8.557192 34.322463 -49.478862
7.621323 34.257449 -27.253568
1.455937 33.829144 -4.327855
5.891180 34.137257 -24.895851
7.551824 34.252621 -19.237527
5.109423 34.082949 -30.189599
8.515134 34.319541 -7.471353
5.542340 34.113024 -25.478662
6.196207 34.158447 -52.147058
7.894562 34.276431 -33.106293
5.496849 34.109863 -8.771071
3.812591 33.992859 -60.365785
0.921057 33.791987 -7.342744
0.923783 33.792176 3.755070
8.012430 34.284619 -10.536829
4.730443 34.056622 -22.538658
7.079205 34.219789 -37.249379
2.641848 33.911529 -17.276022
7.927888 34.278746 -54.338062
7.171517 34.226201 -7.089894
6.889498 34.206610 -40.738886
6.473418 34.177705 -42.435583
4.000393 34.005906 -36.158222
8.465759 34.316111 -17.832076
6.500460 34.179584 -22.773500
6.494117 34.179143 -38.918394
2.740577 33.918387 -19.092735
1.207523 33.811887 -13.034291
4.637312 34.050152 -13.190439
7.437770 34.244698 -12.480400
6.943655 34.210372 -46.314052
4.472189 34.038681 -43.227112
7.211078 34.228950 -32.246622
3.049695 33.939861 -38.930027
7.719001 34.264235 -47.224020
1.106997 33.804904 -40.057623
3.542494 33.974096 -14.188279
7.764953 34.267427 -2.724216
3.434899 33.966621 -13.580293
8.451674 34.315133 -31.632476
6.828299 34.202358 -59.514436
4.250866 34.023306 -48.745503
1.622926 33.840745 1.219767
5.990235 34.144139 -17.805948
7.326420 34.236962 -9.517423
5.352146 34.099811 3.843740
4.395988 34.033387 -50.284949
2.330336 33.889888 -16.366335
2.047050 33.870208 -18.471792
1.016085 33.798588 -45.392031
8.558599 34.322561 2.827537
5.257457 34.093233 -55.202679
3.092962 33.942867 -1.931213
1.901732 33.860113 -53.973461
7.086990 34.220329 -50.311670
3.426517 33.966039 -49.604413
4.657665 34.051566 -29.715464
3.421973 33.965723 -48.302560
7.811423 34.270655 2.077919
4.019454 34.007230 -34.661102
6.532429 34.181804 -19.728445
1.235529 33.813833 -37.896806
8.521593 34.319990 -22.598399
2.867624 33.927213 -56.243791
7.730596 34.265040 -17.730780
5.097965 34.082153 -35.166619
2.335169 33.890224 -20.772993
7.365809 34.239699 -51.681009
2.350980 33.891322 -4.267336
3.006387 33.936853 -9.053279
7.272176 34.233194 -22.714207
3.494788 33.970782 -54.937267
1.584168 33.838052 -51.288853
1.419606 33.826620 -53.082937
8.403302 34.311773 -41.566468
6.371435 34.170620 -24.466772
7.503052 34.249233 1.519232
1.722302 33.847648 -48.738988
2.444601 33.897826 -13.843445
5.992610 34.144304 -40.203713
4.321297 34.028199 -35.333309
4.943953 34.071454 -25.150408
5.926592 34.139717 -57.751470
2.582975 33.907439 -36.959413
0.982109 33.796228 -28.415215
3.577107 33.976500 -11.033435
6.278551 34.164168 -29.185944
7.711863 34.263739 -23.211059
6.878342 34.205835 -13.709396
1.644075 33.842214 -21.566681
5.017915 34.076592 0.845836
7.917142 34.277999 -26.068487
2.186218 33.879876 -54.506845
7.649545 34.259410 -28.996141
7.292769 34.234625 -52.409664
2.758606 33.919640 -9.945565
4.044905 34.008998 -15.399964
0.939046 33.793236 -13.723528
3.407121 33.964692 -6.152647
6.263204 34.163102 -30.456171
5.781105 34.129611 -38.974149
8.403218 34.311767 -21.692492
3.588374 33.977283 -3.322824
3.700605 33.985080 -9.394433
1.939740 33.862754 -26.454963
7.548382 34.252382 -42.434966
4.313877 34.027683 -17.208820
8.344875 34.307714 -1.456818
2.530900 33.903821 -51.840999
1.251655 33.814953 -15.296440
2.608445 33.909208 -10.555115
7.491064 34.248400 -20.289487
2.426615 33.896577 -26.072538
0.983888 33.796351 -20.463214
7.193399 34.227721 -56.401070
6.834307 34.202776 -53.521595
2.956821 33.933410 -11.137597
7.489051 34.248260 -35.116937
3.168334 33.948103 -8.445095
5.493449 34.109627 -32.113127
7.993830 34.283327 -58.769536
4.616236 34.048688 -19.032044
2.569695 33.906516 -42.118371
3.932179 34.001167 -33.965601
1.211124 33.812137 -49.286071
7.475942 34.247350 -40.529656
0.920140 33.791923 -26.374548
3.264743 33.954801 -17.456186
2.255019 33.884656 -48.289177
2.798801 33.922432 -0.693377
4.264977 34.024286 -8.002371
5.357886 34.100210 3.010501
8.448293 34.314898 -59.306745
3.168729 33.948131 -34.717697
1.356319 33.822224 -29.406476
3.749225 33.988457 2.098581
1.285338 33.817293 -34.709371
7.659652 34.260112 -5.811869
3.014262 33.937400 -57.799527
6.843055 34.203383 -5.148601
7.623017 34.257567 -11.418733
2.132634 33.876154 -37.762756
6.829858 34.202467 -15.436953
4.105630 34.013216 -22.685026
2.133206 33.876194 -28.276405
8.538382 34.321156 -12.895283
7.696582 34.262677 -10.000188
8.507015 34.318977 -54.155992
2.835431 33.924977 -55.696166
0.982637 33.796264 -21.094767
3.739176 33.987759 -11.646370
2.184346 33.879746 -44.209187
6.978891 34.212820 -60.698178
2.625909 33.910421 -47.690435
1.653839 33.842892 -6.825494
6.495794 34.179259 -32.634012
4.211563 34.020576 -9.799164
5.767851 34.128690 -14.653499
6.811357 34.201181 -27.095474
2.118967 33.875205 -34.237473
6.120553 34.153192 -2.592403
5.316752 34.097352 -54.133912
5.240213 34.092035 -29.512308
5.772783 34.129032 -54.583746
7.818223 34.271128 -41.434133
7.799295 34.269813 -45.423208
0.946103 33.793726 -29.971966
3.619203 33.979425 -38.904739
3.005853 33.936816 -14.067552
6.673609 34.191612 -2.760840
6.436017 34.175107 -8.493090
1.548884 33.835601 -11.969275
2.170256 33.878768 -4.843038
8.403324 34.311774 1.499263
1.210516 33.812095 -3.400464
8.417621 34.312767 -30.077232
2.796237 33.922254 0.052634
2.870020 33.927380 -2.510316
2.785644 33.921518 -26.580880
1.160266 33.808604 -33.162962
4.019415 34.007227 -41.355424
7.219200 34.229514 -17.446340
5.286779 34.095270 -18.644304
7.242073 34.231103 -29.715555
7.905449 34.277187 -3.886330
7.777080 34.268269 -44.753420
5.290918 34.095558 -7.942298
6.126997 34.153639 -23.964912
7.357050 34.239090 -45.919072
4.616263 34.048690 -19.820252
1.642978 33.842138 -59.690122
3.335548 33.959719 -22.698739
5.530825 34.112224 -55.758834
4.913063 34.069308 -51.431583
1.233303 33.813678 -16.919698
2.755659 33.919435 -48.647188
6.539956 34.182327 -36.967578
1.093680 33.803979 -23.994778
6.735068 34.195882 3.079131
2.187971 33.879998 -45.987465
3.567742 33.975850 -21.034141
3.679926 33.983643 -41.826275
5.992781 34.144315 -44.313352
3.846861 33.995240 -7.525746
8.418803 34.312849 -9.048087
2.448434 33.898092 -7.044858
3.078937 33.941893 -39.903701
4.820634 34.062887 -38.361132
4.857557 34.065452 -9.712581
1.509599 33.832872 -12.560931
3.212791 33.951192 -57.209294
6.052364 34.148455 -33.117237
4.568692 34.045385 -24.437812
0.921961 33.792049 -3.940415
6.840354 34.203196 -0.645980
6.307361 34.166169 -7.834416
4.544352 34.043694 -47.567778
0.928953 33.792535 -37.409667
5.829268 34.132956 -43.087853
2.772732 33.920621 -12.691413
7.831346 34.272039 3.714876
3.058505 33.940473 0.768655
6.218755 34.160014 -11.337726
4.632823 34.049840 -40.365178
1.001953 33.797606 -19.801351
5.664706 34.121524 -3.988438
5.035000 34.077779 -3.066900
2.425267 33.896483 -9.370027
6.397713 34.172446 3.638209
7.949152 34.280223 -27.834718
1.811690 33.853858 -41.121223
7.541159 34.251880 -28.425811
4.701227 34.054592 -54.106963
1.076188 33.802763 -59.806271
6.971682 34.212319 -42.035477
2.634449 33.911015 -60.456097
4.018774 34.007183 -38.093744
2.814573 33.923528 -33.348108
1.741271 33.848966 -8.748238
2.229351 33.882873 -24.089064
1.921809 33.861508 -60.360187
0.924446 33.792222 -36.592653
3.368953 33.962040 -2.739275
5.678794 34.122503 -28.124515
3.346429 33.960475 -7.290461
8.479716 34.317081 -27.248776
0.988467 33.796670 -30.791317
1.423563 33.826895 -52.451684
2.694243 33.915168 2.690912
7.746701 34.266159 -34.010822
8.429556 34.313596 -42.246134
7.490369 34.248352 -18.325792
6.512978 34.180453 1.266451
4.605123 34.047916 -45.986434
5.617914 34.118274 -21.109882
8.383034 34.310365 -38.972270
5.609164 34.117666 0.645725
7.768952 34.267705 -48.743947
3.685860 33.984055 0.784945
2.279087 33.886328 -17.800559
2.120793 33.875331 -32.115133
8.464598 34.316031 -11.624476
