-21.410517 6.302034 -50.621835
-21.396769 6.122294 -39.865155
-21.162296 3.056734 -5.805429
-21.526306 7.815888 -29.271013
-21.468033 7.054011 -16.200268
-21.520229 7.736444 -60.811548
-21.067739 1.820471 -44.774531
-21.355518 5.582969 -4.623511
-21.320395 5.123762 -11.702812
-20.927816 -0.008916 -59.830920
-20.979447 0.666120 -60.439452
-21.261091 4.348405 -7.546762
-21.045127 1.524836 -46.035511
-21.480655 7.219044 -34.150633
-21.355015 5.576387 -22.286889
-21.519098 7.721657 -9.845257
-21.523536 7.779679 -18.090512
-21.408065 6.269977 -16.525621
-21.166466 3.111260 -18.516958
-21.386445 5.987320 -7.289526
-21.050727 1.598052 -51.195225
-21.444314 6.743904 -57.256879
-21.253467 4.248731 -10.237107
-21.343407 5.424622 -21.349661
-21.039142 1.446591 -8.401523
-20.922052 -0.084273 -49.841542
-21.333968 5.301221 -18.268833
-21.318486 5.098807 -32.324405
-21.479832 7.208283 -49.256323
-21.086915 2.071186 -6.721870
-21.170954 3.169936 -50.489393
-21.300373 4.861982 -60.946719
-20.919499 -0.117652 -29.937186
-20.998717 0.918060 -29.100339
-21.235461 4.013313 -55.302646
-20.928990 0.006440 -47.894855
-21.287336 4.691538 1.585620
-21.482825 7.247406 -17.613637
-21.218345 3.789531 -47.989118
-21.071084 1.864211 -0.470294
-21.207333 3.645565 -47.088959
-21.416665 6.382411 -47.064591
-21.112952 2.411602 -37.996693
-21.264122 4.388039 -39.478928
-21.180746 3.297951 -53.000874
-21.329017 5.236481 -45.908206
-20.918909 -0.125369 -4.934417
-21.395364 6.103928 -51.792492
-21.061446 1.738202 -60.951878
-21.166815 3.115812 -11.505684
-21.114487 2.431663 -24.303879
-21.459139 6.937733 -8.811788
-21.070513 1.856743 -42.363215
-21.104020 2.294824 -18.783934
-21.264559 4.393748 -37.451163
-21.483284 7.253415 -4.253053
-20.967239 0.506511 -32.722570
-21.168311 3.135377 -36.197947
-21.191931 3.444192 -41.174407
-21.244325 4.129206 -20.597671
-21.421861 6.450345 -46.474172
-21.006418 1.018748 -17.608535
-21.527765 7.834973 -4.424647
-21.499000 7.458881 -16.830653
-21.535891 7.941214 -40.790469
-21.361119 5.656189 -27.050412
-21.438848 6.672447 -41.633754
-20.921806 -0.087487 -11.949726
-21.348757 5.494568 -55.515090
-21.209546 3.674490 -21.684878
-21.478350 7.188902 -19.235165
-21.063994 1.771510 -12.115378
-21.298334 4.835331 -7.842257
-21.444009 6.739926 -53.243046
-21.530852 7.875328 -39.350191
-21.521746 7.756270 -47.819814
-21.144527 2.824424 -41.061440
-20.983909 0.724455 -30.252780
-21.519483 7.726679 -60.055457
-21.530171 7.866423 -19.514414
-21.433646 6.604437 -2.429373
-21.012411 1.097102 -19.142994
-21.458113 6.924315 -0.751189
-21.263258 4.376735 -27.527693
-20.934295 0.075790 -2.058402
-21.167127 3.119900 -3.140179
-21.110650 2.381509 -33.689380
-21.375073 5.838638 -46.239285
-21.539461 7.987888 -11.007220
-21.252436 4.235251 -47.585882
-21.179075 3.276110 -17.255036
-21.104955 2.307042 -54.022852
-21.438332 6.665696 -33.467241
-21.035377 1.397363 -4.733269
-21.158405 3.005859 -12.132682
-21.420657 6.434614 -9.130096
-21.051385 1.606663 -2.539271
-20.931774 0.042831 -54.895737
-21.180232 3.291229 -2.569932
-21.212612 3.714574 -5.629921
-21.084232 2.036108 -8.078711
-21.423217 6.468086 -3.532151
-21.465981 7.027185 0.429729
-21.472138 7.107681 -30.071523
-21.253957 4.255135 -0.252771
-20.999507 0.928395 -5.120122
-21.154843 2.959292 -10.967362
-21.201170 3.564979 -27.476059
-21.031233 1.343181 -0.841659
-21.274457 4.523153 -21.436177
-21.126892 2.593855 -17.061077
-21.152449 2.927993 -51.044524
-21.527666 7.833673 -43.025595
-21.329552 5.243479 -58.334755
-21.200748 3.559468 -13.319812
-21.152394 2.927271 -32.100081
-20.974617 0.602973 -49.821426
-20.982830 0.710354 -54.091807
-21.178496 3.268533 -15.946375
-21.366326 5.724268 -45.432339
-21.462681 6.984049 -28.831802
-20.953475 0.326562 -21.506164
-21.203996 3.601934 -6.789368
-20.982753 0.709340 -46.680440
-21.044215 1.512918 -5.439150
-21.354542 5.570201 -6.188479
-21.537429 7.961319 -44.909216
-21.281770 4.618767 -34.869608
-21.138627 2.747276 -21.944998
-21.107303 2.337747 -2.293522
-21.278262 4.572909 -8.422404
-20.927199 -0.016982 -34.876169
-21.392467 6.066044 -14.908527
-20.917908 -0.138457 -31.441003
-21.175088 3.223980 -0.273445
-20.967894 0.515079 -34.105428
-21.068508 1.830527 2.503172
-21.072305 1.880171 0.667828
-21.412327 6.325695 -5.649290
-21.063431 1.764148 1.690186
-21.436453 6.641128 -43.074432
-21.078931 1.966806 -8.819616
-21.346422 5.464048 -51.775863
-21.162513 3.059571 -27.930322
-21.216266 3.762355 -24.420202
-21.476294 7.162021 -36.594120
-21.306811 4.946160 -22.062665
-21.536969 7.955301 -6.960924
-21.483584 7.257333 -50.520511
-21.016640 1.152394 -34.663089
-21.160811 3.037322 -2.002483
-21.470330 7.084045 2.860779
-21.344261 5.435795 -19.425581
-21.150795 2.906369 -54.059912
-20.946207 0.231531 -14.473693
-21.247456 4.170138 -52.330040
-21.171246 3.173754 -16.569168
-21.538973 7.981503 -37.275276
-21.123995 2.555977 -56.465170
-21.095600 2.184732 -7.300074
-21.274555 4.524432 -10.997777
-21.210129 3.682122 -37.913586
-21.289846 4.724355 0.952314
-21.063274 1.762098 -23.516769
-21.122240 2.533029 -51.466927
-21.507993 7.576457 -42.306400
-21.537071 7.956638 -56.177207
-21.099974 2.241918 -14.524284
-21.015146 1.132856 -32.736966
-21.345405 5.450749 -17.447234
-21.119970 2.503357 -48.652275
-21.120588 2.511436 -47.044458
-20.947846 0.252965 -43.924771
-21.278755 4.579346 -12.335256
-20.987159 0.766951 -10.921520
-21.033450 1.372170 -45.441626
-21.330069 5.250246 -4.100661
-21.343423 5.424835 -8.246390
-21.077303 1.945518 -48.166861
-21.487019 7.302243 -35.299041
-20.919736 -0.114549 -1.016285
-21.124901 2.567829 -37.404058
-21.220061 3.811971 -16.757244
-21.256899 4.293592 -60.845939
-21.299031 4.844436 -52.072489
-21.102244 2.271599 -21.464530
-21.446176 6.768253 -30.581349
-21.186250 3.369921 -29.558724
-21.527741 7.834649 2.034357
-21.322094 5.145971 0.403291
-20.923855 -0.060702 -32.379536
-21.127691 2.604306 -55.752144
-21.496979 7.432464 -7.575144
-21.442214 6.716446 -35.446504
-20.995787 0.879758 -44.039422
-21.154237 2.951375 -36.922541
-21.390095 6.035032 -10.497797
-21.161127 3.041456 -42.992393
-21.353467 5.556155 -25.200075
-21.032150 1.355170 0.260925
-21.011343 1.083142 -61.096431
-21.395449 6.105032 -56.654774
-21.364600 5.701708 -57.866263
-21.405693 6.238963 -26.271359
-20.923187 -0.069437 -37.015202
-20.942961 0.189101 -53.434270
-21.081309 1.997888 -34.158801
-21.251144 4.218355 -58.627988
-21.433951 6.608414 -24.510210
-21.120039 2.504260 -28.303855
-21.054546 1.647983 -20.396525
-21.181084 3.302369 -14.843326
-21.306697 4.944668 -51.378477
-20.970893 0.554291 -55.225098
-21.297803 4.828386 -49.271008
-21.439928 6.686568 -25.823062
-21.017274 1.160681 -55.404577
-21.527532 7.831919 -26.405502
-21.072178 1.878516 -36.624521
-21.395829 6.110008 -21.096209
-21.379344 5.894476 -5.233428
-21.182771 3.324432 0.915306
-21.353411 5.555414 -0.882593
-21.310534 4.994833 -15.536500
-21.067451 1.816715 -56.564850
-21.104741 2.304243 -33.089613
-21.380839 5.914018 -2.296676
-21.121050 2.517477 -3.913141
-20.988361 0.782672 -52.109488
-21.528142 7.839900 -27.179179
-21.445614 6.760910 -4.575625
-21.092908 2.149545 -29.535490
-21.524332 7.790081 -20.197228
-21.206268 3.631630 -54.590161
-21.538816 7.979452 -53.049528
-21.078248 1.957874 -37.384702
-20.984403 0.730915 -23.000292
-20.970310 0.546659 -34.951092
-21.500782 7.482180 -14.538878
-20.954292 0.337239 -50.536985
-21.527890 7.836598 -12.650248
-21.391094 6.048101 -43.231013
-21.309763 4.984749 -16.963826
-21.061048 1.733000 -58.920996
-21.306345 4.940068 -47.649025
-21.447343 6.783508 -10.556365
-21.000398 0.940043 -0.257443
-21.369557 5.766514 -48.871946
-21.335169 5.316924 -1.739506
-21.406400 6.248213 -58.102284
-21.084672 2.041855 -38.739905
-21.327242 5.213280 -16.255126
-20.927445 -0.013769 -8.946242
-21.430339 6.561195 -15.523366
-21.120770 2.513816 -41.844698
-21.283494 4.641306 -9.011578
-21.275628 4.538469 -22.891816
-21.475440 7.150861 -52.764381
-21.476257 7.161536 3.807841
-21.539525 7.988722 -17.492760
-21.475829 7.155943 -22.981570
-20.980964 0.685955 -5.696050
-21.102221 2.271295 -28.853074
-21.244101 4.126275 -35.420808
-21.275966 4.542889 -35.921819
-20.921691 -0.088996 1.052964
-21.005741 1.009898 -26.930058
-21.372304 5.802427 -57.247717
-20.981867 0.697766 -58.062814
-21.204493 3.608432 -12.145634
-20.930738 0.029289 -41.512190
-20.940035 0.150834 -13.501434
-21.464653 7.009830 -52.052378
-21.423595 6.473022 -59.514048
-21.259874 4.332491 -24.099586
-21.217279 3.775591 -11.360385
-21.104522 2.301387 -40.018814
-20.921408 -0.092693 -56.057894
-21.381673 5.924929 -8.743594
-20.917864 -0.139024 0.255919
-20.987629 0.773094 -54.656547
-20.997803 0.906108 -4.222917
-21.434311 6.613122 -43.686915
-21.504273 7.527823 -36.013767
-21.452747 6.854161 -31.285238
-21.241249 4.088982 -42.653334
-20.956977 0.372339 -20.824504
-21.379046 5.890582 -31.332441
-21.240595 4.080429 -8.772788
-21.292014 4.752703 -44.069862
-21.399710 6.160741 1.388356
-21.434803 6.619556 -49.146660
-21.486462 7.294957 -55.668007
-21.451974 6.844059 -13.589963
-21.520756 7.743324 -0.291278
-21.464246 7.004506 -22.098770
-21.397877 6.136781 -19.695964
-21.276218 4.546181 -9.737120
-20.929434 0.012238 -38.459258
-21.518334 7.711658 -57.481903
-21.357248 5.605580 -13.628442
-21.419602 6.420813 -31.930850
-21.153879 2.946687 -28.736793
-20.919024 -0.123857 -12.824165
-21.100672 2.251053 -26.633165
-21.487000 7.301995 -8.234980
-21.206753 3.637971 -59.018852
-21.190201 3.421568 -52.302031
-21.215422 3.751318 -21.113123
-21.428256 6.533966 -32.537168
-21.033069 1.367186 3.629069
-20.935633 0.093287 -51.746349
-21.353161 5.552147 -12.161474
-21.192283 3.448798 -40.005645
-21.397452 6.131216 -24.176497
-21.150301 2.899909 -42.330904
-21.034383 1.384366 -39.739073
-21.314723 5.049609 -50.504967
-21.154748 2.958055 -10.343548
-20.941399 0.168668 2.230977
-20.965916 0.489214 -45.434671
-21.172462 3.189646 -24.664826
-21.046568 1.543685 -13.555660
-20.924142 -0.056952 -43.186434
-21.067298 1.814705 -26.104615
-21.001427 0.953491 -53.353880
-21.121681 2.525723 -0.536713
-21.244078 4.125974 -26.112127
-20.964210 0.466907 -40.759216
-20.972620 0.576869 -44.631055
-21.422259 6.455550 -26.838746
-20.936404 0.103366 -22.694528
-21.030469 1.333194 -35.316223
-21.464171 7.003524 -18.587956
-21.166415 3.110585 -45.212487
-21.124727 2.565545 -29.995929
-21.531781 7.887467 -11.822052
-21.385787 5.978709 -35.541301
-21.523870 7.784042 -16.256297
-21.189472 3.412046 -34.335473
-21.049956 1.587973 -53.338428
-21.332411 5.280862 -30.644253
-20.965539 0.484290 2.818949
-21.075804 1.925915 3.872494
-20.934019 0.072187 -5.756306
-21.061227 1.735335 -41.219454
-21.439237 6.677526 -40.072239
-21.015753 1.140801 -21.997989
-21.470644 7.088155 -45.141585
-21.275040 4.530784 -13.322037
-21.334290 5.305428 -15.004075
-20.922161 -0.082854 -54.348058
-21.136119 2.714494 -46.113135
-21.189858 3.417089 -38.876943
-21.526300 7.815817 -13.308445
-21.434013 6.609234 -41.000942
-21.175962 3.235410 -55.803692
-21.435892 6.633797 3.538173
-21.508954 7.589026 -46.355049
-21.216985 3.771756 -1.001034
-21.223138 3.852199 -60.371451
-21.234725 4.003694 -49.814788
-21.144779 2.827718 -48.124180
-21.174688 3.218757 -25.934135
-21.433544 6.603099 -14.113834
-21.312594 5.021762 -28.325242
-21.362021 5.667991 -32.101019
-21.172489 3.190003 -54.966021
-21.539784 7.992107 0.387835
-21.485764 7.285830 -41.001238
-21.274924 4.529264 -1.971704
-21.129404 2.626699 -59.691840
-21.181046 3.301875 -4.366969
-21.024722 1.258063 -36.338927
-21.163321 3.070133 -33.844062
-21.363024 5.681105 -52.329193
-21.285715 4.670341 -57.985461
-21.259703 4.330254 -46.669882
-21.532603 7.898220 -1.715239
-21.095086 2.178019 -13.339054
-20.921751 -0.088215 -21.905784
-20.956159 0.361653 -9.848417
-21.360956 5.654060 -33.344019
-20.917658 -0.141727 -2.728831
-21.023742 1.245250 -60.534618
-20.921389 -0.092943 -20.386495
-21.306739 4.945225 -52.711201
-21.418585 6.407525 -38.751919
-20.958939 0.397990 -19.643315
-21.150396 2.901147 3.193731
-21.064082 1.772660 -50.306008
-21.366895 5.731712 -0.181831
-21.240293 4.076481 -44.355105
-21.169535 3.151376 -39.399269
-21.359818 5.639182 -26.247407
-21.015215 1.133757 1.545785
-21.322943 5.157068 -59.479939
-21.266024 4.412906 -23.534264
-21.488487 7.321431 -1.983970
-21.183853 3.338582 3.802896
-21.421346 6.443622 -8.285126
-21.284575 4.655437 3.874039
-21.258444 4.313794 2.614795
-21.382856 5.940395 -1.601087
-20.992066 0.831110 -57.181418
-21.537905 7.967533 -24.146891
-21.302614 4.891289 2.859458
-21.038356 1.436316 -38.921788
-20.963479 0.457352 -56.608601
-21.033804 1.376798 -25.289475
-21.364794 5.704242 -12.890476
-21.409095 6.283449 -44.262553
-20.973235 0.584907 -37.370917
-21.305377 4.927406 -53.310335
-21.511110 7.617217 -52.022915
-20.928092 -0.005306 -45.995948
-21.016813 1.154655 -19.740703
-21.345990 5.458399 -54.213370
-21.040002 1.457829 -6.544685
-21.270502 4.471446 -3.748939
-21.088226 2.088325 -3.007961
-20.934923 0.084011 -3.850996
-21.008996 1.052452 -30.697988
-21.354702 5.572298 -44.707940
-21.064653 1.780121 -38.032893
-21.470740 7.089407 -47.947673
-21.212359 3.711268 -22.386278
-21.480787 7.220767 -13.113111
-21.089182 2.100823 -56.072352
-21.486456 7.294884 -44.285484
-21.294396 4.783837 -49.865114
-21.214705 3.741940 -28.080344
-21.314436 5.045849 -56.110011
-21.036666 1.414221 -28.210065
-21.173177 3.198995 -12.697760
-21.149573 2.890391 -33.211372
-21.097423 2.208567 -1.114474
-20.941880 0.174958 -27.583926
-21.439683 6.683361 -58.865815
-21.296127 4.806472 -36.690774
-21.062388 1.750508 -30.192676
-21.176477 3.242136 -13.933840
-21.201082 3.563836 -46.531711
-21.378239 5.880031 -33.871257
-21.187930 3.391878 -23.026217
-21.404520 6.223632 -9.795159
-21.440256 6.690851 -29.379566
-21.529412 7.856496 -49.515777
-21.014828 1.128701 -40.869817
-20.937827 0.121979 -11.128391
-21.406389 6.248072 -44.909219
-21.369533 5.766207 -59.449133
-20.959104 0.400152 -7.519901
-20.938248 0.127471 -15.187377
-21.289237 4.716396 -13.930433
-21.532553 7.897570 -18.782034
-21.320207 5.121298 -26.712203
-21.163323 3.070165 -26.951070
-21.270360 4.469592 -55.919859
-21.137171 2.728239 -52.811488
-21.470952 7.092178 -26.533823
-21.008831 1.050297 -15.280205
-21.523439 7.778409 -30.388208
-21.354498 5.569627 -27.662900
-20.955496 0.352981 -47.362972
-21.344323 5.436596 -23.996569
-21.014384 1.122901 -21.423317
-21.248407 4.182571 -48.925941
-21.248933 4.189455 -2.562206
-21.372044 5.799027 3.878212
-21.469883 7.078208 -5.696140
-21.013773 1.114912 -11.763839
-20.969918 0.541541 -11.524247
-20.965545 0.484359 1.051384
-20.965145 0.479129 -1.046722
-21.525269 7.802334 -37.935710
-20.991599 0.824998 -16.948733
-20.985404 0.744006 -59.264348
-21.086668 2.067960 -22.841656
-20.947646 0.250348 -26.014537
-21.293004 4.765642 -1.344056
-21.262358 4.364970 -53.007250
-20.978998 0.660246 -32.052054
-21.462970 6.987819 -27.304019
-20.989115 0.792526 -6.646800
-21.206421 3.633632 -33.199779
-21.309822 4.985530 -37.451410
-20.943048 0.190228 -35.611860
-20.985558 0.746021 -13.269502
-21.134664 2.695469 -34.588901
-21.221173 3.826512 -4.177589
-21.225061 3.877336 -3.459185
-20.966629 0.498532 -29.521940
-21.347028 5.471966 -9.988892
-21.259391 4.326183 -22.238283
-21.187211 3.382483 -19.038193
-21.167265 3.121695 -22.495813
-21.063653 1.767059 -18.425369
-21.235102 4.008620 -46.059173
-21.233865 3.992445 -8.158866
-21.331256 5.265754 -60.058252
-21.129370 2.626257 -12.611071
-21.536053 7.943330 -58.237540
-21.391497 6.053370 -11.712227
-21.495013 7.406756 -37.309250
-20.956613 0.367584 -25.337457
-21.323861 5.169076 -22.819616
-21.322706 5.153978 -24.503243
-21.425012 6.491543 0.176113
-21.259201 4.323693 -17.038914
-21.536756 7.952522 -34.852120
-21.028133 1.302655 -29.702775
-21.020561 1.203656 -34.019688
-21.325357 5.188634 -42.546425
-21.380987 5.915950 -7.877882
-21.293571 4.773063 -2.522661
-21.348972 5.497381 -29.065906
-21.086471 2.065377 -49.217273
-21.365376 5.711858 -38.693866
-21.290317 4.730508 -31.059061
-21.301598 4.878003 2.171280
-21.253982 4.255454 -17.914235
-20.939985 0.150188 -16.259778
-20.982560 0.706819 -12.348929
-21.114450 2.431183 -11.802147
-21.404373 6.221709 -27.682068
-20.969748 0.539310 -18.586161
-21.539667 7.990579 -46.926283
-21.027038 1.288335 -52.757235
-21.371686 5.794352 -50.349833
-21.020157 1.198381 -20.832661
-21.379088 5.891120 -21.768254
-21.522396 7.764775 -9.141737
-21.046776 1.546394 -15.963548
-21.358536 5.622424 2.636985
-21.402558 6.197976 -6.347015
-21.134414 2.692197 -35.753324
-21.531837 7.888201 -50.118276
-21.222628 3.845534 -41.682893
-21.295325 4.795991 -48.616803
-21.503906 7.523022 -58.786108
-21.280897 4.607359 -4.421779
-21.185318 3.357735 -43.791498
-21.234537 4.001236 -13.895733
-21.389383 6.025724 -14.141277
-21.277241 4.559549 -53.984047
-21.259802 4.331549 -14.707847
-21.023151 1.237525 -12.720671
-21.289155 4.715315 -38.565434
-21.146194 2.846209 -13.344924
-21.012873 1.103144 -56.171835
-21.375973 5.850401 -43.873852
-21.118931 2.489776 -52.049941
-21.222352 3.841926 -20.088977
-21.132234 2.663698 1.396898
-20.935927 0.097128 -49.114144
-21.111592 2.393815 -16.426595
-21.469282 7.070352 -60.213489
-21.513559 7.649235 -21.070219
-21.363934 5.692998 -56.187193
-21.374212 5.827381 -58.686361
-21.318773 5.102557 -25.885477
-21.111486 2.392432 -57.710374
-21.144809 2.828106 -19.442242
-21.236271 4.023899 -33.748859
-21.537935 7.967926 -2.858497
-21.386476 5.987714 -18.516078
-21.405806 6.240443 -1.085184
-21.091801 2.135069 -58.394784
-21.053659 1.636384 -30.957995
-21.418619 6.407968 -45.647582
-21.428137 6.532411 -52.386419
-21.165614 3.100110 -23.711505
-21.039383 1.449734 -3.229499
-21.109660 2.368563 -27.602485
-21.258975 4.320740 -32.627266
-21.515817 7.678751 -5.939038
-21.252719 4.238941 -6.813851
-20.972826 0.579559 -8.679767
-21.313989 5.040003 -41.045838
-21.448408 6.797437 -37.650738
-21.234103 3.995552 -6.168236
-21.012295 1.095592 -18.432851
-21.476058 7.158940 -23.577617
-20.970888 0.554226 -38.172992
-21.269290 4.455598 -50.367610
-21.338920 5.365960 -43.260665
-21.170462 3.163498 -21.420505
-21.023128 1.237218 -48.072177
-21.532634 7.898624 -59.330387
-21.431307 6.573852 -55.445812
-21.474634 7.140319 -57.731939
-21.330120 5.250904 -56.784680
-21.429351 6.548278 -6.888950
-21.380163 5.905185 -22.812840
-21.013173 1.107070 -8.920196
-21.210205 3.683108 -49.289118
-21.519697 7.729484 -55.100410
-21.337089 5.342019 -14.221069
-21.216591 3.766602 -53.888265
-20.951174 0.296477 -0.240818
-21.221666 3.832957 1.279975
-21.418875 6.411308 -19.187115
-21.320281 5.122268 -31.741446
-21.235282 4.010976 -19.199413
-21.221288 3.828014 -40.700556
-21.335115 5.316219 -20.266200
-21.045503 1.529754 -41.793917
-20.932557 0.053075 -17.638792
-20.964667 0.472885 -52.815052
-21.318896 5.104159 -9.417791
-21.500005 7.472020 -25.755211
-21.467656 7.049087 -58.299397
-20.994190 0.858882 -39.345362
-20.975274 0.611563 -9.295642
-21.181564 3.308651 -1.398589
-21.210978 3.693218 2.822168
-21.533682 7.912324 -53.784906
-21.253168 4.244816 -26.833012
-21.130559 2.641791 -6.288408
-21.477199 7.173848 -3.436899
-21.336180 5.330143 -34.474836
-20.918156 -0.135213 -40.723811
-20.967069 0.504288 -38.812545
-21.481384 7.228569 -43.446348
-20.930786 0.029920 -39.936097
-20.951761 0.304150 3.373248
-21.119326 2.494935 -36.563233
-21.494046 7.394115 -51.202189
-21.537952 7.968148 1.374363
-21.178260 3.265459 1.756908
-21.388419 6.013124 -24.803691
-20.936810 0.108680 -58.510361
-21.216801 3.769347 -14.458816
-21.534877 7.927955 -33.397025
-21.512975 7.641595 -56.906063
-20.994915 0.868349 -25.771455
-21.268088 4.439886 -60.023330
-21.224789 3.873790 -9.430125
-20.931598 0.040538 -28.934824
-20.929036 0.007041 -18.317433
-20.933033 0.059288 -19.041831
-21.196866 3.508710 -37.314831
-21.080080 1.981822 -55.370856
-21.023545 1.242664 -44.471987
-21.293534 4.772577 -17.586051
-21.216584 3.766508 -43.290141
-21.504489 7.530646 -54.392916
-20.971155 0.557707 -47.969255
-21.226207 3.892321 -15.214957
-21.458267 6.926338 -54.712764
-21.347790 5.481923 -49.627636
-21.298448 4.836826 -45.166316
-21.403857 6.214958 -52.878209
-21.254739 4.265361 -34.329906
-20.961468 0.431057 -36.728495
-21.092987 2.150575 -4.918943
-21.470794 7.090120 -9.975938
-21.367112 5.734548 -47.461290
-21.486931 7.301090 -53.562152
-21.460200 6.951609 -46.067201
-21.089434 2.104126 -35.329332
-21.057114 1.681561 -1.354119
-21.149544 2.890014 -49.652162
-20.930841 0.030641 -46.674431
-21.041045 1.471464 -54.791006
-21.532960 7.902893 -23.286596
-21.527804 7.835470 -38.687088
-21.190001 3.418956 -17.982878
-21.059352 1.710815 -47.544760
-21.475970 7.157782 -24.746914
-21.331088 5.263563 3.508325
-21.237839 4.044400 -29.132900
-21.361372 5.659505 -35.026926
-21.062354 1.750063 -21.134045
-21.473655 7.127516 -33.048558
-21.239044 4.060158 -45.112781
-21.023951 1.247973 -14.725615
-21.071578 1.870661 -10.521582
-21.243226 4.114828 -12.856007
-21.445760 6.762818 -42.363314
-21.284695 4.657009 -54.634167
-21.012801 1.102202 -10.397270
-21.493732 7.390004 -41.725178
-21.117702 2.473706 -45.308367
-21.266109 4.414016 -40.914504
-21.330583 5.256959 -36.140567
-21.040224 1.460742 -59.575712
-21.387753 6.004412 -20.391714
-21.014354 1.122504 -51.529470
-21.199508 3.543248 -9.932177
-21.036019 1.405759 -11.137258
-20.932530 0.052721 -45.073013
-21.299759 4.853957 -10.352480
-21.164502 3.085582 -37.853978
-21.530766 7.874203 -5.028305
-21.502848 7.509198 -10.510155
-21.213058 3.720406 -59.781207
-21.246347 4.155634 2.062961
-21.533714 7.912750 -32.057978
-21.212524 3.713431 -35.811727
-21.082833 2.017810 -17.028640
-21.277919 4.568417 -32.021702
-21.436657 6.643802 2.369580
-21.409908 6.294073 -60.298314
-21.280100 4.596937 -19.227672
-21.314591 5.047882 -20.830262
-21.073236 1.892342 -34.813900
-21.156272 2.977976 -0.905174
-20.954401 0.338671 -28.260812
-21.463881 6.999726 1.191923
-21.285651 4.669508 -30.221704
-21.440685 6.696455 -5.150301
-21.069471 1.843112 -5.982585
-21.320311 5.122659 -58.913037
-21.523345 7.777172 3.403817
-21.148348 2.874375 -30.948978
-20.982284 0.703211 -3.607488
-21.338738 5.363582 -36.890287
-20.994758 0.866308 -24.066040
-20.918831 -0.126380 -10.323417
-21.392712 6.069256 -55.126334
-21.516303 7.685112 -1.102054
-21.147649 2.865243 -17.818689
-21.134735 2.696402 -44.006798
-20.924129 -0.057113 -33.258037
-21.414132 6.349305 -56.117111
-21.063399 1.763727 -27.668789
-20.998179 0.911031 -2.352668
-21.084684 2.042012 -44.189973
-21.196910 3.509292 -42.566303
-20.962840 0.448995 -31.146566
-21.168090 3.132485 -49.128117
-21.407024 6.256373 -38.027807
-21.102027 2.268768 -49.806152
-21.257167 4.297106 -43.614484
-21.045515 1.529918 -42.982674
-20.987905 0.776703 -41.547288
-21.152735 2.931739 -9.632818
-21.438178 6.663683 -21.578727
-21.241577 4.093276 -24.948447
-20.987017 0.765094 -1.666952
-21.430373 6.561636 -28.428068
-21.020927 1.208444 -58.305287
-21.495106 7.407974 -15.665280
-21.471323 7.097024 2.012297
-21.097569 2.210473 -57.105886
-21.004527 0.994022 -7.920853
-21.023126 1.237195 -56.804218
-20.920255 -0.107770 -34.221751
-21.098067 2.216991 -13.895771
-21.020097 1.197588 -38.212391
-21.102634 2.276694 -32.392394
-21.063268 1.762017 -57.801637
-21.453644 6.865886 -17.075654
-21.523992 7.785642 -3.710970
-20.922149 -0.083009 -39.264179
-21.349445 5.503568 -32.731241
-21.173309 3.200721 -20.593960
-21.070873 1.861443 -3.712313
-21.222157 3.839371 -32.175300
-21.299930 4.856199 -5.562701
-21.239971 4.072280 -50.836775
-21.348419 5.490155 -39.328895
-21.033916 1.378263 -53.996682
-21.435056 6.622860 -20.481345
-21.417000 6.386799 -29.885016
-21.222811 3.847927 -18.499122
-21.322703 5.153930 -23.449051
-21.155146 2.963256 2.305842
-21.366984 5.732872 0.455337
-21.458229 6.925835 -11.506533
-21.205402 3.620320 -25.450400
-21.476058 7.158943 -39.192736
-21.507760 7.573420 -27.756572
-21.222842 3.848325 -34.834878
-21.203321 3.593110 -31.051877
-21.116907 2.463305 -20.609839
-21.348477 5.490915 -60.621788
-21.359516 5.635233 -6.758759
-20.982827 0.710315 -20.148350
-21.279180 4.584904 -56.659370
-21.376346 5.855272 -36.600412
-20.991031 0.817573 -27.768100
-21.372513 5.805161 -41.182841
-21.460695 6.958082 -14.818068
-21.046235 1.539327 -29.022346
-21.303224 4.899264 -6.987775
-21.365117 5.708462 -28.349372
-21.099090 2.230360 -60.136224
-21.096201 2.192588 -25.199037
-21.200707 3.558935 -10.674525
-21.301562 4.877538 -57.378367
-21.149822 2.893650 -25.310821
-21.034114 1.380847 -16.737862
-21.114331 2.429631 -59.156962
-21.234025 3.994534 -57.958045
-21.093997 2.163773 -50.822931
-21.077813 1.952178 -45.622575
-21.292776 4.762668 -6.144435
-21.069383 1.841962 -35.879921
-21.467328 7.044794 -32.025589
-20.956978 0.372362 1.644623
-21.007583 1.033974 2.193214
-20.921582 -0.090415 -61.019860
-21.522105 7.760970 -28.337605
-21.110525 2.379872 -5.649059
-21.407266 6.259538 -12.432841
-21.451975 6.844074 -34.761978
-21.041909 1.482760 -48.915148
-21.420469 6.432158 -48.119929
-21.258496 4.314472 -16.164474
-21.428460 6.536634 -22.875513
-21.520216 7.736270 2.823982
-21.529830 7.861964 -48.805586
-21.099022 2.229472 -30.646797
-20.917548 -0.143166 -50.908130
-21.445272 6.756430 -50.072606
-21.188793 3.403164 -48.541520
-21.148587 2.877501 -60.467781
-21.204996 3.615010 -28.705307
-21.385502 5.974983 -42.234977
-21.005159 1.002283 -47.479594
-21.315391 5.058342 -12.664185
-21.359550 5.635689 -48.256868
-21.257839 4.305893 -40.200025
-21.476149 7.160120 -59.445197
-21.111196 2.388641 -10.112882
-21.208812 3.664894 -2.018369
-21.279840 4.593535 -45.787272
-21.120555 2.511003 -1.636890
-21.528304 7.842011 -22.637551
-21.031997 1.353177 -32.139084
-20.988038 0.778445 -49.018207
-20.986494 0.758261 0.428919
-21.194939 3.483513 -51.660845
-21.382140 5.931024 2.178600
-21.269396 4.456991 0.375722
-21.305757 4.932373 -0.467303
-21.278563 4.576834 -3.117375
-21.400808 6.175104 -33.052528
-21.020609 1.204286 -9.658840
-20.927052 -0.018898 -27.064474
-21.148520 2.876631 -57.046678
-21.527921 7.837011 -34.115727
-21.523360 7.777376 -21.957649
-21.007869 1.037719 -59.934565
-20.933567 0.066271 -6.989450
-21.125133 2.570852 -25.827856
-21.027819 1.298546 -22.551184
-21.103764 2.291479 -61.047796
-21.521460 7.752534 -13.929272
-21.400261 6.167943 -4.018001
-21.347244 5.474794 -3.005866
-21.145385 2.835639 -14.533114
-21.124376 2.560962 0.209521
-21.200594 3.557446 -7.587558
-21.028413 1.306312 -36.950638
-21.487725 7.311478 -6.698775
-21.074847 1.913412 -22.141457
-21.308881 4.973219 -19.728179
-21.010923 1.077649 2.949343
-21.233211 3.983893 3.561656
-20.929973 0.019294 -8.139679
-21.365767 5.716969 -40.397370
-21.245826 4.148822 -31.370715
-21.418037 6.400355 0.774318
-21.079599 1.975535 -39.416275
-20.993747 0.853088 -15.953267
-20.938456 0.130194 -24.230424
-21.533789 7.913722 -31.431474
-21.304592 4.917153 -32.921187
-21.365517 5.713696 -15.500781
-21.021915 1.221357 -5.933821
-21.082437 2.012635 -12.638691
-21.261633 4.355490 -28.617480
-21.118358 2.482279 2.731939
-21.175655 3.231393 -32.655879
-21.441808 6.711144 -37.036014
-21.100147 2.244185 -11.010875
-21.149851 2.894031 -40.375996
-21.220303 3.815132 -23.686482
-21.411648 6.316826 -51.214387
-21.445633 6.761156 -60.891668
-21.256881 4.293366 -29.777034
-21.299110 4.845471 -39.909893
-21.154084 2.949370 -7.779508
-21.413159 6.336575 2.918373
-21.390467 6.039895 -30.337099
-21.277744 4.566132 -25.586599
-20.920942 -0.098786 2.881980
-21.414499 6.354097 -36.138081
-20.920006 -0.111018 -23.686448
-21.231005 3.955059 0.672271
-20.989561 0.798361 3.872418
-21.408387 6.274192 -13.553651
-21.195851 3.495437 -8.491178
-21.025448 1.267552 -26.335466
-21.521660 7.755144 -40.158206
-21.479451 7.203303 -28.263816
-21.198388 3.528609 -61.014808
-20.918140 -0.135426 -37.622288
-20.944103 0.204030 -57.429061
-21.257013 4.295082 -38.058343
-21.164465 3.085092 -9.013694
-21.482737 7.246257 -48.670032
-21.322774 5.154866 -33.696919
-21.412830 6.332279 -23.469430
-21.176868 3.247249 -44.453200
-21.101825 2.266123 -17.719391
-20.937736 0.120789 -30.533625
-21.144998 2.830581 -58.491468
-21.105889 2.319251 -53.376663
-21.249965 4.202946 -4.889558
-21.440516 6.694253 -1.792412
-21.274822 4.527926 -41.621137
-20.941701 0.172624 -42.103609
-20.989333 0.795376 -14.055298
-21.373158 5.813600 -16.842785
-21.336508 5.334429 -41.848580
-21.290317 4.730508 -55.416269
-21.075631 1.923651 -52.399175
-21.353520 5.556843 1.322214
-21.488528 7.321973 -12.429165
-21.245471 4.144184 -57.203877
-21.254443 4.261494 -36.458968
-21.195254 3.487630 -57.445994
-21.002990 0.973933 -43.383207
-21.281483 4.615017 -29.265658
-21.440854 6.698676 -54.047481
-21.122005 2.529964 -8.794179
-20.976823 0.631815 -33.523411
-21.292224 4.755445 -18.365302
-21.102833 2.279302 -40.673697
-21.453950 6.869896 -7.732510
-21.363069 5.681696 -3.697366
-21.338558 5.361231 -29.779366
-21.099275 2.232779 -31.750982
-21.235371 4.012133 -38.879621
-21.401766 6.187627 -49.544527
-21.016122 1.145621 -31.377888
-21.396208 6.114954 -37.320774
-21.013347 1.109344 -42.344409
-21.264794 4.396818 -51.476793
-21.467757 7.050405 -46.843050
-21.325880 5.195471 -38.089386
-21.415667 6.369364 -17.925943
-21.304709 4.918671 -4.976492
-20.967615 0.511422 -2.879083
-21.051577 1.609170 -27.072322
-21.002531 0.967923 -50.475354
-21.539300 7.985779 -41.826604
-20.918186 -0.134822 -44.472673
-21.502787 7.508394 -32.504668
-21.166422 3.110682 -56.452852
-21.027228 1.290827 -49.723660
-21.048812 1.573017 -40.460749
-21.002928 0.973119 -40.166066
-20.932016 0.045999 -52.443890
-21.346117 5.460057 -53.604991
-21.338832 5.364809 -7.336488
-21.444892 6.751458 -19.747998
-21.514957 7.667516 -45.636447
-21.104368 2.299375 -43.351510
-21.539280 7.985522 -36.660899
-21.021668 1.218128 -7.294019
-21.433683 6.604911 -13.004773
-21.061359 1.737067 -46.653301
-21.395500 6.105703 -53.949430
-21.180956 3.300695 -35.397991
-21.361074 5.655607 -11.133229
-20.930588 0.027322 -16.898940
-21.415728 6.370163 -34.190379
-21.470238 7.082841 -38.583845
-21.141749 2.788098 -7.064417
-21.209543 3.674450 -26.557867
-21.129406 2.626719 -15.674499
-21.066459 1.803738 -15.001005
-21.217212 3.774726 -56.544312
-21.495882 7.418122 -30.943229
-21.120433 2.509409 -54.930294
-21.350130 5.512518 -52.893547
-21.234801 4.004689 -30.417264
-21.034392 1.384489 -24.380061
-21.046930 1.548409 -43.661672
-21.211749 3.703295 -36.521809
-20.992855 0.841417 -51.038809
-21.333519 5.295352 -46.635153
-20.979645 0.668716 -22.380175
-21.487225 7.304933 -11.091866
-21.066982 1.810578 -33.441742
-20.921928 -0.085901 -36.307370
-21.519049 7.721011 -25.160933
-21.259420 4.326556 -19.792458
-21.119923 2.502738 3.651788
-21.406629 6.251204 -22.251877
-21.161095 3.041031 -57.890304
-20.968504 0.523052 -42.839400
-21.323783 5.168051 -35.389971
-21.070636 1.858349 -19.359169
