-6.162806 -19.118552 -50.784384 3.00000000
34.490118 10.900096 3.827624 3.00000000
12.769609 33.732026 -59.885414 3.00000000
-8.257737 -17.930461 -31.043834 3.00000000
8.887267 -21.869274 -0.581950 3.00000000
0.155469 33.625800 -47.845650 3.00000000
-0.065476 -21.366290 -1.881132 3.00000000
-6.181925 -19.109398 -59.448444 3.00000000
-19.018021 17.931342 -37.290846 3.00000000
0.184456 33.633456 -51.108423 3.00000000
20.928014 -18.364171 -51.318220 3.00000000
-16.766522 21.938084 -46.833859 3.00000000
29.484940 22.855849 -39.334693 3.00000000
-19.199246 -5.334551 -14.898844 3.00000000
29.466103 22.882143 -19.429470 3.00000000
0.809112 33.772080 -39.677066 3.00000000
34.405456 11.732430 -60.858913 3.00000000
-3.796262 -20.181486 -29.406868 3.00000000
-1.512392 -20.991494 -12.546998 3.00000000
-7.419839 30.635818 -6.669627 3.00000000
-14.122786 25.274804 -45.980815 3.00000000
18.430290 31.844275 -20.318722 3.00000000
-21.094899 11.462153 -11.383424 3.00000000
27.684985 -12.876484 3.170918 3.00000000
-17.131929 21.370703 -1.658308 3.00000000
30.641200 21.152819 -31.163016 3.00000000
-21.440553 9.228621 -58.893723 3.00000000
-6.929890 30.900935 -20.784324 3.00000000
31.149417 -8.122882 -0.936277 3.00000000
7.850122 -21.934438 -13.954270 3.00000000
-12.441514 -14.756317 -27.160889 3.00000000
-7.633909 30.513842 -26.968441 3.00000000
18.166912 -19.763754 0.064644 3.00000000
-11.874773 27.470822 -27.340191 3.00000000
-21.325448 10.093367 -36.842130 3.00000000
-2.292946 32.938762 -44.555156 3.00000000
34.085951 13.108072 -39.615141 3.00000000
27.847552 -12.698003 -36.705651 3.00000000
26.953931 25.852179 -35.552003 3.00000000
-7.273649 30.714923 -60.912733 3.00000000
-12.627684 26.775120 -49.430057 3.00000000
-16.075579 -10.712092 -40.778738 3.00000000
-7.453316 -18.411471 -20.316037 3.00000000
23.474755 28.871933 -22.020187 3.00000000
34.850589 3.278659 -24.968612 3.00000000
-20.259254 -2.563487 -9.209393 3.00000000
-18.228938 -7.309390 -51.653102 3.00000000
21.231496 30.381447 -9.710276 3.00000000
-19.248539 17.437903 -8.332893 3.00000000
-3.078690 -20.470991 -4.745623 3.00000000
26.089475 -14.493554 -50.500503 3.00000000
32.152415 18.435365 -11.614147 3.00000000
-2.535364 -20.651546 -35.762774 3.00000000
-17.207116 21.253956 -5.642679 3.00000000
22.127641 29.806532 -32.238139 3.00000000
27.140553 -13.448523 -30.384285 3.00000000
-15.142648 -11.902800 -52.284356 3.00000000
10.410186 -21.773590 -58.611621 3.00000000
34.833677 5.431685 1.729611 3.00000000
-0.581865 -21.235923 -57.963167 3.00000000
12.041244 -21.671111 -5.964192 3.00000000
29.723562 22.522755 3.053965 3.00000000
-16.921798 -9.512694 -4.939565 3.00000000
34.856899 3.375851 -34.794317 3.00000000
31.475480 -7.539061 -14.276037 3.00000000
4.993676 -22.113907 -55.261967 3.00000000
1.029437 33.799516 -17.767364 3.00000000
30.730534 -8.819824 -58.264316 3.00000000
-11.553080 -15.531402 -40.420804 3.00000000
5.443462 -22.085648 -15.028479 3.00000000
-3.543348 32.478073 -36.383529 3.00000000
-16.638078 -9.926896 -18.522920 3.00000000
-20.427047 -2.000951 -42.216467 3.00000000
12.240607 33.846926 -33.920548 3.00000000
-21.008183 1.041829 -41.351093 3.00000000
33.643681 14.720153 -9.969465 3.00000000
24.883318 -15.569189 -61.023041 3.00000000
-5.225026 -19.567547 0.982049 3.00000000
34.502908 0.922665 0.839714 3.00000000
-2.137647 -20.783713 -32.285424 3.00000000
-15.748118 23.348964 -3.487261 3.00000000
34.508995 10.599635 -32.619888 3.00000000
-10.257805 28.764850 -32.645705 3.00000000
-20.750530 12.964385 -32.232377 3.00000000
13.676731 33.503012 -39.186333 3.00000000
14.487046 -21.092560 3.590736 3.00000000
-21.122688 2.538884 -26.568276 3.00000000
-4.319089 -19.970439 -7.533591 3.00000000
15.550115 -20.779036 -0.337343 3.00000000
3.773801 33.990165 -41.746424 3.00000000
34.894183 3.950166 -19.414295 3.00000000
7.739113 34.265632 -7.286720 3.00000000
31.541823 19.614072 2.633529 3.00000000
22.974094 -17.036429 -20.083857 3.00000000
31.357223 -7.750802 -22.501240 3.00000000
-9.632102 29.213080 -4.066265 3.00000000
32.836190 16.916506 3.535916 3.00000000
-13.650219 25.771345 -6.892009 3.00000000
31.410784 19.856248 -24.598324 3.00000000
-3.178277 32.619798 -26.844080 3.00000000
-8.973417 -17.469557 -59.839982 3.00000000
21.007811 -18.314603 -1.715121 3.00000000
10.362446 -21.776589 -2.758800 3.00000000
-20.527754 13.846822 -29.169723 3.00000000
-8.166915 -17.988952 -6.989780 3.00000000
31.059773 -8.283391 3.816466 3.00000000
-7.056356 -18.633159 -9.873270 3.00000000
-11.768820 27.557291 -46.058991 3.00000000
12.491615 -21.588149 -0.973403 3.00000000
33.565915 14.955120 -31.145101 3.00000000
29.613554 22.676315 -15.746651 3.00000000
-7.745071 30.444333 -54.900581 3.00000000
33.115066 16.198164 -27.169708 3.00000000
27.188360 25.599163 -40.203826 3.00000000
16.469271 32.660616 -34.216374 3.00000000
34.268353 -0.185303 -49.426316 3.00000000
-16.663095 22.098680 -49.982915 3.00000000
-17.219618 21.234545 -23.341977 3.00000000
34.786442 6.183520 -40.302039 3.00000000
34.574189 9.561951 -41.417966 3.00000000
-4.453924 -19.916012 -1.971996 3.00000000
-4.474911 32.109600 -3.908252 3.00000000
-9.430962 29.357168 2.208067 3.00000000
-20.599227 13.563708 -9.422126 3.00000000
-20.192921 14.933877 -14.359035 3.00000000
-21.068922 11.616389 -7.634072 3.00000000
6.496727 34.179324 -34.522926 3.00000000
34.567640 9.666188 -8.682151 3.00000000
-21.027955 1.300334 -44.625981 3.00000000
8.459120 34.315650 -28.667779 3.00000000
-16.950886 -9.466176 -52.503703 3.00000000
32.822076 16.952862 -37.098483 3.00000000
33.684885 14.595656 -58.126811 3.00000000
15.355121 -20.843578 -34.641285 3.00000000
34.591575 9.285215 -52.869947 3.00000000
32.488372 17.708864 -6.139704 3.00000000
-3.466622 32.507860 -60.849505 3.00000000
34.639829 8.517153 -45.747848 3.00000000
-20.517999 -1.656582 -36.965912 3.00000000
-19.379311 -4.940479 -17.859781 3.00000000
-19.595289 16.578951 -0.917696 3.00000000
23.172932 29.094324 -17.150718 3.00000000
34.789514 6.134624 -36.631156 3.00000000
6.183324 -22.039162 -9.288452 3.00000000
-21.006315 1.017402 1.278285 3.00000000
34.740145 6.920423 -57.933980 3.00000000
31.641819 19.429268 -33.062088 3.00000000
27.846351 -12.699435 -6.201567 3.00000000
6.400483 34.172638 -11.064865 3.00000000
-13.643505 25.778400 -13.545072 3.00000000
27.791581 -12.764483 -22.266349 3.00000000
19.379928 31.389647 -42.826557 3.00000000
-20.457726 14.124208 -41.549976 3.00000000
32.515187 -5.470360 -24.589811 3.00000000
11.184763 34.042424 -49.212808 3.00000000
-2.232394 -20.752227 -40.579681 3.00000000
6.007267 34.145322 -24.003939 3.00000000
-9.365944 -17.216766 -51.001308 3.00000000
29.386554 -10.788536 0.659904 3.00000000
-21.304236 4.912495 -19.377498 3.00000000
13.425578 -21.372896 -47.872290 3.00000000
3.071049 -21.962853 3.428017 3.00000000
26.300171 26.489553 -60.946761 3.00000000
-6.185692 -19.107595 -32.513485 3.00000000
9.329783 34.275211 -35.734151 3.00000000
-21.260584 10.580586 -17.466702 3.00000000
33.534946 -2.823551 3.380536 3.00000000
-7.871940 -18.177683 -44.555232 3.00000000
23.622824 -16.571705 -36.860001 3.00000000
3.200077 -21.980028 -51.192770 3.00000000
4.683018 -22.119517 -25.303509 3.00000000
15.049230 33.133754 -24.477512 3.00000000
34.718278 2.268212 -45.565064 3.00000000
28.439924 24.190454 -26.689102 3.00000000
34.755428 6.677176 -33.677023 3.00000000
-2.124585 32.994487 -6.328738 3.00000000
-16.965178 21.629624 -59.307087 3.00000000
-21.110906 2.384855 -33.225643 3.00000000
17.648161 32.184732 -23.543954 3.00000000
-10.503833 28.588605 -49.071462 3.00000000
-5.034992 -19.658533 -45.578807 3.00000000
-5.147791 -19.604526 -35.529247 3.00000000
34.482889 11.015168 -1.286558 3.00000000
15.957872 32.831804 -58.868337 3.00000000
-19.860555 -3.700811 -3.299802 3.00000000
34.615003 8.912308 -21.230571 3.00000000
3.656829 -22.040827 -10.993552 3.00000000
29.964627 -10.003969 -47.158397 3.00000000
-14.817263 24.489136 -48.722316 3.00000000
25.696153 27.064395 -47.419952 3.00000000
-21.272502 4.497595 -46.222821 3.00000000
9.898756 34.213641 -14.171544 3.00000000
9.255815 -21.846118 -24.122251 3.00000000
7.498193 -21.956549 -26.605708 3.00000000
34.726090 2.326892 -11.252242 3.00000000
33.645697 14.714061 -50.936297 3.00000000
25.515012 -15.025830 -17.231136 3.00000000
19.944627 -18.896294 3.517127 3.00000000
-21.370599 5.780141 -9.523954 3.00000000
-18.476812 -6.851292 -11.459953 3.00000000
-7.959209 30.310433 -16.639745 3.00000000
9.020281 34.295312 -31.590639 3.00000000
-5.697969 31.544019 -24.988194 3.00000000
-11.092518 28.109226 -23.641105 3.00000000
-17.692247 -8.280584 -57.599340 3.00000000
25.423211 27.310187 -28.675967 3.00000000
32.467211 17.754623 -30.773623 3.00000000
-20.292967 14.632814 -23.182831 3.00000000
34.790701 6.115726 -29.547467 3.00000000
-20.988467 12.021893 -55.583432 3.00000000
34.662497 8.156343 -17.784449 3.00000000
-20.275500 -2.514405 -0.016086 3.00000000
-18.149445 -7.456303 -60.637389 3.00000000
33.265754 15.810016 -40.162918 3.00000000
-17.561818 -8.489167 -21.088555 3.00000000
23.101222 29.147162 -48.404063 3.00000000
6.309168 34.166295 -42.663688 3.00000000
34.854063 3.332170 -8.542196 3.00000000
-2.637017 32.824879 -29.913836 3.00000000
15.352529 -20.844436 -10.635245 3.00000000
-13.035426 -14.191080 -53.728950 3.00000000
-20.577159 -1.432587 -19.710787 3.00000000
-8.097682 30.223847 -13.051037 3.00000000
18.833398 -19.455544 -21.800002 3.00000000
34.779848 2.730781 3.502983 3.00000000
16.553644 -20.420695 -38.055122 3.00000000
34.433425 0.541755 -24.049980 3.00000000
28.351160 24.299222 -46.212897 3.00000000
34.885679 4.603976 -51.256848 3.00000000
-7.252876 30.726164 0.033339 3.00000000
22.225097 -17.553439 -10.082992 3.00000000
-15.796028 23.283937 -44.847302 3.00000000
-21.197864 10.941277 -61.039360 3.00000000
-19.167185 -5.403883 -5.761517 3.00000000
4.000261 -22.075169 -21.652142 3.00000000
17.809031 32.119793 3.196206 3.00000000
-21.036317 11.814531 2.791857 3.00000000
-21.350269 5.514341 -4.011177 3.00000000
-21.108009 11.395833 -39.417277 3.00000000
-15.911929 23.126631 -0.170484 3.00000000
34.618313 1.517324 -40.403754 3.00000000
31.728089 19.269832 -28.374756 3.00000000
30.319618 21.667097 -47.854789 3.00000000
25.186992 27.508272 -17.623817 3.00000000
1.148328 -21.652498 -34.444380 3.00000000
-18.654365 18.690941 -2.499223 3.00000000
14.277989 -21.147773 -13.736527 3.00000000
34.346534 0.124378 -30.453362 3.00000000
9.477318 34.265630 -20.468258 3.00000000
33.668981 -2.420230 -47.999792 3.00000000
12.492809 -21.587920 -51.477888 3.00000000
-12.881359 26.540075 -39.034689 3.00000000
34.460981 11.363871 -49.656670 3.00000000
29.998750 22.138620 -52.897265 3.00000000
24.916196 27.735352 -14.625777 3.00000000
11.660017 -21.695063 -54.830753 3.00000000
25.738421 27.024169 2.831167 3.00000000
32.718600 -4.995041 -48.871944 3.00000000
7.711509 -21.943147 -35.999933 3.00000000
-8.925609 29.706148 -40.582545 3.00000000
14.824637 33.208388 -10.306352 3.00000000
25.158953 -15.344241 -5.702136 3.00000000
33.597273 -2.636004 -57.909404 3.00000000
31.910823 18.932119 -52.286506 3.00000000
11.187798 -21.724732 -40.708570 3.00000000
9.532784 34.262027 -58.482435 3.00000000
-5.328643 -19.517937 -26.448672 3.00000000
10.973370 34.070576 -17.168273 3.00000000
-2.730384 -20.586738 -16.431355 3.00000000
-17.784759 -8.130283 -1.004577 3.00000000
-21.448360 9.169968 -50.378736 3.00000000
26.406176 26.388669 -42.548047 3.00000000
15.716188 32.912118 -7.823218 3.00000000
27.374518 -13.202694 -14.699979 3.00000000
21.728299 -17.864085 -4.322087 3.00000000
-18.342218 -7.100035 -45.494131 3.00000000
-20.090818 15.241131 -38.997545 3.00000000
33.266961 15.806906 -4.370047 3.00000000
-21.428313 6.534705 -57.463291 3.00000000
-9.971413 28.970010 -43.481909 3.00000000
-6.640747 -18.865263 -56.055407 3.00000000
24.799297 -15.637759 -46.339226 3.00000000
12.741501 -21.540134 -59.861242 3.00000000
-10.698160 -16.236613 -53.840577 3.00000000
-18.832042 -6.128624 -42.211584 3.00000000
33.295470 15.733472 -1.453042 3.00000000
-13.450713 25.980972 -55.190528 3.00000000
-21.203760 10.911451 -46.128117 3.00000000
22.162424 -17.592628 -34.656877 3.00000000
-21.406445 9.484878 -54.878903 3.00000000
-7.600526 -18.329258 -1.404601 3.00000000
28.836869 23.704052 -30.064455 3.00000000
32.632114 17.398025 0.440841 3.00000000
27.792965 24.946622 2.771184 3.00000000
34.538146 10.135642 -5.439379 3.00000000
-5.531490 31.621004 -33.397366 3.00000000
-15.215598 24.014130 -60.969440 3.00000000
13.174388 -21.439236 -22.902130 3.00000000
32.599589 -5.289862 -2.459355 3.00000000
-8.185534 -17.976961 -53.829320 3.00000000
29.117612 -11.153547 -13.058889 3.00000000
18.061854 -19.812337 -35.544908 3.00000000
2.302226 33.887935 -20.907554 3.00000000
20.328564 -18.688541 -19.301861 3.00000000
27.329661 -13.249826 -2.867921 3.00000000
-20.641167 13.397580 0.242950 3.00000000
-20.957185 12.145802 -58.573415 3.00000000
-20.565197 -1.477877 -22.703046 3.00000000
2.079124 -21.830775 -24.002246 3.00000000
-5.537626 31.618167 -16.274566 3.00000000
1.562315 -21.729164 0.877784 3.00000000
-20.535033 -1.592088 -58.701269 3.00000000
33.325052 15.657274 -44.072714 3.00000000
-20.598110 -1.353261 -31.476598 3.00000000
-4.996322 31.868483 -57.727605 3.00000000
3.600636 -22.033347 -47.655944 3.00000000
25.647894 27.110322 -7.952157 3.00000000
-20.797543 12.778163 -5.113312 3.00000000
-21.192534 3.452068 -58.779414 3.00000000
-14.606696 24.740232 -20.918346 3.00000000
-10.865763 -16.107764 -57.355544 3.00000000
9.205290 34.283297 -10.532254 3.00000000
-9.388997 -17.201219 -10.284524 3.00000000
26.537224 -14.078688 -57.490012 3.00000000
17.188349 32.370345 -48.441267 3.00000000
-8.591506 -17.715511 -41.486591 3.00000000
17.464724 32.258780 -39.978702 3.00000000
-9.462222 29.334775 -46.141448 3.00000000
32.787391 -4.824628 -8.535567 3.00000000
-2.503057 -20.662282 -0.413858 3.00000000
34.592441 9.271430 -26.929680 3.00000000
-14.781382 24.531923 -57.632092 3.00000000
-19.848621 -3.731552 -47.306261 3.00000000
-19.297922 -5.121166 -0.163198 3.00000000
32.300380 18.115393 -41.530616 3.00000000
33.426250 -3.150627 -18.994208 3.00000000
33.217658 -3.758746 -21.994518 3.00000000
-7.053002 30.834318 -4.076659 3.00000000
-15.917848 -10.932269 -26.343850 3.00000000
-20.603404 13.547164 -61.096075 3.00000000
-6.875830 -18.733977 -28.726063 3.00000000
-15.705321 -11.213322 -55.534611 3.00000000
-4.880057 31.922247 3.378558 3.00000000
-15.551285 -11.402072 -47.450174 3.00000000
-11.197778 -15.829347 -48.437675 3.00000000
23.333391 -16.779044 -44.164216 3.00000000
34.909004 4.232702 -31.705785 3.00000000
-5.669898 -19.354549 3.540023 3.00000000
-18.697133 18.601608 -5.638798 3.00000000
29.066187 -11.223342 -25.255746 3.00000000
12.185630 33.855967 -56.520020 3.00000000
30.767518 20.950810 -50.579897 3.00000000
29.727888 -10.325273 -9.703205 3.00000000
31.413418 -7.650183 -35.219101 3.00000000
-1.915076 33.063831 3.838335 3.00000000
-2.081179 33.008853 -18.820645 3.00000000
9.615653 34.251322 -23.425963 3.00000000
10.019188 34.197612 -46.327483 3.00000000
-1.378684 -21.034760 -54.678301 3.00000000
-13.715106 -13.512174 -3.744032 3.00000000
-20.987757 0.774767 -57.392133 3.00000000
19.837286 31.160122 -28.149710 3.00000000
9.809555 -21.811327 -37.883154 3.00000000
1.344465 -21.686102 -31.383134 3.00000000
9.244071 -21.846856 2.176931 3.00000000
-12.839675 -14.377380 -37.597457 3.00000000
23.310298 28.993109 -8.380096 3.00000000
18.937421 -19.407440 -28.815934 3.00000000
-15.548080 23.617651 -36.292465 3.00000000
31.604839 -7.307440 -16.953887 3.00000000
-15.042504 -12.025512 2.448333 3.00000000
4.334129 34.029090 -55.497861 3.00000000
-14.813186 24.493998 -52.389080 3.00000000
-14.203710 -12.984844 -24.800365 3.00000000
-11.815964 -15.310957 -3.037658 3.00000000
34.898251 4.012816 -14.045025 3.00000000
-5.597562 31.590450 -38.536809 3.00000000
34.877537 3.693757 -28.600796 3.00000000
5.225893 34.091040 -7.969780 3.00000000
18.618245 31.754293 -52.055898 3.00000000
33.120917 16.183093 -24.271529 3.00000000
-3.343511 -20.364245 -43.603088 3.00000000
15.200150 33.083602 -36.864774 3.00000000
29.083331 23.402048 -49.813020 3.00000000
-19.309107 -5.096979 -57.981578 3.00000000
-2.390536 -20.699674 -19.589365 3.00000000
6.163123 34.156149 -39.354897 3.00000000
-10.996999 -15.997714 3.875607 3.00000000
14.789313 33.220127 2.563573 3.00000000
34.389682 11.814527 -27.184432 3.00000000
32.105215 18.537435 -20.664989 3.00000000
29.029333 23.468215 -6.028392 3.00000000
-11.847357 -15.284632 -14.157067 3.00000000
-12.412997 26.974041 -17.865960 3.00000000
-21.477222 8.953125 -40.136903 3.00000000
-11.942137 -15.205152 0.139350 3.00000000
34.766586 2.631145 -42.804968 3.00000000
27.877920 24.854931 -54.337789 3.00000000
34.306097 -0.035797 -37.490787 3.00000000
27.813443 24.924520 -23.185064 3.00000000
31.619482 -7.281223 -46.532180 3.00000000
34.685987 7.782459 3.864629 3.00000000
34.835072 5.409486 -2.689053 3.00000000
31.799390 -6.959094 -51.716362 3.00000000
28.132097 24.567654 -59.868478 3.00000000
-10.346236 28.701502 -51.783370 3.00000000
17.245522 -20.152106 2.842084 3.00000000
8.030696 34.285888 -16.719417 3.00000000
18.296111 -19.704007 -17.472804 3.00000000
21.585743 30.155519 -44.826683 3.00000000
30.679469 21.091619 -3.070270 3.00000000
32.804130 -4.783161 -36.231989 3.00000000
28.785305 -11.579722 -51.924253 3.00000000
-21.116902 2.463242 -30.052704 3.00000000
12.604001 -21.566554 -11.203943 3.00000000
25.190512 27.505320 -4.686233 3.00000000
26.919081 -13.681224 -60.373586 3.00000000
-20.296905 -2.449735 -6.212024 3.00000000
15.632785 -20.751673 -28.511025 3.00000000
15.538635 -20.782836 -19.934701 3.00000000
30.244034 -9.575255 -41.236140 3.00000000
34.660456 8.188845 -3.226729 3.00000000
-17.755862 20.360750 -19.554575 3.00000000
-0.577118 -21.237122 -22.994212 3.00000000
-1.117868 -21.100605 -60.758154 3.00000000
29.148207 23.322552 -35.613208 3.00000000
34.433605 0.542848 -27.067330 3.00000000
-20.969567 0.536943 -8.077292 3.00000000
-18.247101 19.481146 -16.737910 3.00000000
-8.486973 -17.782831 -17.744188 3.00000000
8.856292 34.305962 3.181182 3.00000000
25.575791 -14.969514 -43.055150 3.00000000
-21.323303 5.161786 -60.681243 3.00000000
18.734764 31.698511 -60.556173 3.00000000
20.038019 -18.845759 -14.754451 3.00000000
-19.339848 -5.030503 -9.212333 3.00000000
-21.108212 2.349630 -18.248963 3.00000000
1.538248 33.834862 -58.626442 3.00000000
1.688394 -21.754086 -38.780423 3.00000000
3.100351 -21.966753 -57.826752 3.00000000
6.649083 34.189908 -60.893878 3.00000000
26.921860 25.886792 -14.068319 3.00000000
0.076667 -21.402176 -28.436727 3.00000000
29.540346 -10.579808 -34.731578 3.00000000
8.605168 -21.886998 -48.392822 3.00000000
-19.092285 17.776219 -13.152225 3.00000000
32.334706 -5.847346 -57.878245 3.00000000
26.761956 26.050075 -25.769212 3.00000000
8.453102 -21.896553 -44.778609 3.00000000
25.919687 -14.650874 -27.862057 3.00000000
1.842814 33.856020 -31.221160 3.00000000
-19.314058 -5.086274 -53.569957 3.00000000
-21.294490 4.785076 -36.436040 3.00000000
-5.566139 -19.404228 -40.118915 3.00000000
34.867488 3.538956 -0.588209 3.00000000
-21.087155 2.074317 -54.556638 3.00000000
-19.415313 17.024780 -41.297936 3.00000000
6.638636 -22.010555 -33.093016 3.00000000
-20.895966 -0.225502 -25.599877 3.00000000
34.801519 5.943537 -22.805501 3.00000000
-21.404712 9.497894 -28.387012 3.00000000
-7.024076 -18.651186 -24.467040 3.00000000
8.450914 -21.896690 -4.828621 3.00000000
19.483188 -19.145985 -24.855692 3.00000000
34.228592 12.568011 -35.558084 3.00000000
-14.475331 -12.691695 -0.636744 3.00000000
-12.674697 -14.534392 -60.320247 3.00000000
2.095588 -21.832968 -41.761523 3.00000000
-15.125016 -11.924406 -10.479910 3.00000000
-18.811640 18.362427 -33.013288 3.00000000
-20.920993 12.289166 -49.025470 3.00000000
34.631259 1.614567 -16.623997 3.00000000
21.917475 29.941881 -13.374581 3.00000000
29.967963 -9.999441 -22.822161 3.00000000
-13.447714 -13.798699 -57.321805 3.00000000
-4.519015 -19.889737 -11.839385 3.00000000
-2.094000 33.004610 -53.338581 3.00000000
-9.367536 -17.215741 -14.982019 3.00000000
-18.886265 -6.011367 3.096674 3.00000000
20.381530 30.856158 -33.822935 3.00000000
-21.403189 6.206231 -25.551656 3.00000000
-19.987553 15.551880 -11.131140 3.00000000
32.374277 17.955592 -58.027672 3.00000000
9.053969 -21.858800 -20.527003 3.00000000
27.187961 -13.398710 0.219070 3.00000000
-18.492665 -6.821994 -55.497724 3.00000000
8.093176 34.290228 -26.118892 3.00000000
-20.440258 14.189579 -2.416102 3.00000000
4.313172 34.027634 -18.437737 3.00000000
9.904570 34.212867 -4.447899 3.00000000
0.903330 -21.610874 -11.647762 3.00000000
34.062672 13.196210 -23.109922 3.00000000
-6.879372 -18.731999 -12.953697 3.00000000
30.050888 22.065840 -25.346615 3.00000000
21.531994 -17.986834 -28.160343 3.00000000
2.032423 33.869192 -10.276179 3.00000000
-20.135307 -2.937952 -50.646168 3.00000000
20.332699 30.883431 -54.976050 3.00000000
-10.109295 28.871237 -1.334719 3.00000000
27.090034 -13.501603 -25.422972 3.00000000
31.225504 -7.986647 -7.548398 3.00000000
11.418138 34.003743 -41.427163 3.00000000
-5.760352 -19.311241 -18.085953 3.00000000
3.581950 33.976837 -44.440121 3.00000000
31.051958 20.495930 -55.755612 3.00000000
-15.213696 -11.815740 -13.791979 3.00000000
13.025091 33.667527 -6.284991 3.00000000
30.055457 -9.868075 -16.895495 3.00000000
25.499450 27.246255 -56.427108 3.00000000
-19.438268 -4.788609 -60.952256 3.00000000
33.813452 -1.985502 -15.828716 3.00000000
9.368930 34.272669 -43.206696 3.00000000
32.283950 18.150923 -17.110767 3.00000000
30.751701 -8.786956 -44.208996 3.00000000
11.043286 -21.733812 -30.297175 3.00000000
-21.489048 8.773547 -5.747899 3.00000000
24.668876 27.942747 -34.626282 3.00000000
0.549199 33.722130 -5.083178 3.00000000
3.243593 33.953331 -52.481638 3.00000000
23.084378 -16.957427 -58.264703 3.00000000
26.256277 -14.339002 -33.090575 3.00000000
-8.906033 -17.512953 2.288425 3.00000000
34.334345 0.076097 -21.036126 3.00000000
-21.109286 11.389373 -25.101745 3.00000000
-18.119059 19.710415 -25.627513 3.00000000
9.888286 -21.806381 -27.833555 3.00000000
-4.817066 31.951377 -8.615089 3.00000000
30.750337 20.978287 -6.012830 3.00000000
-19.237216 17.465953 -50.376678 3.00000000
-18.122007 19.705138 -39.656005 3.00000000
-1.427464 -21.019717 -8.249103 3.00000000
31.285654 20.087502 -14.634168 3.00000000
-21.524813 8.222909 -12.747343 3.00000000
-5.664876 31.559322 -29.254353 3.00000000
-15.710688 -11.206746 -33.211440 3.00000000
20.767930 30.640351 -50.315814 3.00000000
-21.519718 7.729761 -45.385455 3.00000000
-15.728881 23.375072 -6.693654 3.00000000
33.048388 -4.178070 -42.477871 3.00000000
-16.437845 22.412831 -16.264283 3.00000000
31.969568 18.823551 -46.186449 3.00000000
27.315009 25.462472 -49.518401 3.00000000
33.014320 16.457671 -13.600406 3.00000000
24.570343 -15.824610 -21.865817 3.00000000
3.322829 -21.996368 -2.707098 3.00000000
-17.113829 -9.205596 2.483888 3.00000000
30.805694 20.889759 -18.438872 3.00000000
-10.253509 28.767928 -9.408697 3.00000000
-18.889828 -6.003663 -48.620512 3.00000000
-0.451130 33.465584 -26.654544 3.00000000
-19.118112 -5.510003 -31.851222 3.00000000
-21.445399 6.758096 -42.741148 3.00000000
-9.405132 -17.189330 -23.072674 3.00000000
27.783386 -12.773094 -9.517872 3.00000000
-0.783630 33.377764 -21.681648 3.00000000
32.020545 -6.503562 -32.505567 3.00000000
30.923775 -8.519761 -49.378631 3.00000000
17.237228 32.350614 -45.536856 3.00000000
-17.323252 21.073628 -8.573586 3.00000000
1.773304 33.851192 -27.951703 3.00000000
-12.627929 -14.578903 -34.244466 3.00000000
16.281187 32.724364 0.467862 3.00000000
0.402882 -21.484531 -49.367874 3.00000000
27.278214 -13.303881 -19.280956 3.00000000
-0.303592 -21.306176 -36.975187 3.00000000
13.460121 33.557698 -50.811197 3.00000000
6.978888 34.212820 -13.942032 3.00000000
3.956735 -22.072342 -44.981553 3.00000000
-0.715773 -21.202117 -46.974083 3.00000000
-9.638536 -17.017356 -36.386133 3.00000000
28.001444 -12.514486 -45.272190 3.00000000
12.775501 -21.533601 -36.460054 3.00000000
23.027536 29.201455 -57.724680 3.00000000
-21.392038 6.060441 -39.407903 3.00000000
20.340441 30.879107 2.256269 3.00000000
-11.897273 27.451891 2.670143 3.00000000
-18.169585 19.619945 -49.075835 3.00000000
-20.943096 12.201611 -20.854317 3.00000000
6.960605 34.211549 -4.295264 3.00000000
24.799149 27.833504 -31.339365 3.00000000
-3.277098 -20.391054 -48.331292 3.00000000
33.521903 -2.862800 -44.965510 3.00000000
20.255525 30.926533 -4.045131 3.00000000
33.566854 14.952282 -19.557216 3.00000000
-19.299030 17.312830 -18.824464 3.00000000
20.668109 30.696102 -18.665391 3.00000000
31.960106 -6.629806 -42.070255 3.00000000
34.791451 6.103792 -26.689350 3.00000000
-7.241489 -18.529769 -37.905956 3.00000000
-8.161124 30.184177 -23.562439 3.00000000
-20.255587 -2.574567 3.445590 3.00000000
2.609290 33.909267 -37.049678 3.00000000
-2.708420 32.801245 -15.950030 3.00000000
-11.681420 27.628620 -14.433335 3.00000000
31.941866 -6.667905 -26.845391 3.00000000
30.206173 21.848519 -22.094072 3.00000000
-16.982032 21.603453 -11.830065 3.00000000
10.731410 34.102798 1.046995 3.00000000
24.878801 -15.572875 -30.854662 3.00000000
-12.312043 -14.879537 -23.830719 3.00000000
-19.004516 17.959550 -60.896025 3.00000000
0.741190 -21.569940 -19.810374 3.00000000
-19.273678 17.375629 -24.256136 3.00000000
5.295383 -22.094951 -37.553496 3.00000000
31.618134 19.473040 -60.248591 3.00000000
-9.901154 -16.823855 -0.812333 3.00000000
-5.119791 31.811387 -44.235548 3.00000000
-21.164178 3.081337 -9.717641 3.00000000
-17.713800 20.436065 -43.815265 3.00000000
14.185573 -21.172180 -45.162133 3.00000000
-17.938384 20.033929 -36.030163 3.00000000
28.486971 24.132805 -9.955967 3.00000000
31.892117 -6.771821 -10.038157 3.00000000
32.857779 16.860897 -48.407408 3.00000000
25.387742 -15.143753 -1.552759 3.00000000
-18.239584 -7.289716 -17.768415 3.00000000
-21.277350 10.454649 -43.104509 3.00000000
16.018773 32.811566 -42.909150 3.00000000
29.579856 -10.526184 -3.250831 3.00000000
-12.072679 27.289366 -21.223856 3.00000000
-4.329492 -19.966240 -24.005627 3.00000000
19.857933 -18.943206 -45.412476 3.00000000
33.064767 -4.137495 -27.770125 3.00000000
34.691968 7.687260 -11.048396 3.00000000
34.832590 5.448993 -6.675211 3.00000000
-21.533023 8.096506 -34.302817 3.00000000
33.966824 -1.379689 -35.091151 3.00000000
-20.968384 0.521479 -11.730700 3.00000000
34.539146 10.119731 -12.159586 3.00000000
33.786813 14.240655 -47.434776 3.00000000
30.971691 20.624295 -36.227569 3.00000000
-21.172959 3.196152 -2.433188 3.00000000
34.866362 3.521613 -38.597301 3.00000000
18.599417 31.763307 -16.712727 3.00000000
6.247037 34.161978 -49.712308 3.00000000
34.769083 2.649906 -5.137602 3.00000000
-10.742453 -16.203978 -45.017932 3.00000000
1.864814 33.857549 -24.372194 3.00000000
26.465625 26.332092 -20.019468 3.00000000
6.779860 34.198993 -46.283541 3.00000000
-18.338236 19.317962 -10.772847 3.00000000
-0.278279 -21.312566 -5.131345 3.00000000
-21.521362 7.751257 -2.196663 3.00000000
-20.157674 -2.870379 -55.564842 3.00000000
27.644240 25.107138 -0.606274 3.00000000
33.558095 -2.753895 -51.643483 3.00000000
-16.392671 22.474144 -20.059878 3.00000000
-20.187221 14.951029 -46.444788 3.00000000
-21.008064 1.040269 -60.606496 3.00000000
-2.259492 32.949834 -0.233109 3.00000000
12.376998 33.824497 -23.927293 3.00000000
-18.344091 19.307477 -53.002979 3.00000000
-9.708578 29.158295 -60.084582 3.00000000
18.446411 -19.634503 -42.485452 3.00000000
-14.529449 24.832348 3.635212 3.00000000
32.283167 18.152615 -3.166787 3.00000000
30.354620 -9.403538 -52.802479 3.00000000
8.939570 34.300554 -50.765396 3.00000000
23.851454 -16.407924 -24.543027 3.00000000
-12.743431 -14.468977 -45.025958 3.00000000
26.929624 25.878413 -30.223972 3.00000000
3.181665 -21.977577 -18.300100 3.00000000
21.692724 -17.886330 -60.325597 3.00000000
20.401196 30.845174 -6.917258 3.00000000
32.991542 16.516343 -33.765600 3.00000000
33.617617 -2.574788 -12.826043 3.00000000
34.813426 2.983051 -22.362928 3.00000000
-17.230548 21.217572 -33.535366 3.00000000
28.603110 -11.796993 -40.682369 3.00000000
34.327827 0.050276 -8.101411 3.00000000
14.620747 33.264684 -13.059787 3.00000000
-20.045398 -3.209586 -34.114022 3.00000000
-10.826750 28.326122 -38.910358 3.00000000
-14.151217 -13.041498 -42.710695 3.00000000
-16.255696 22.660053 -38.719394 3.00000000
30.925662 20.697905 -0.051309 3.00000000
33.758984 -2.149401 -24.754514 3.00000000
34.522382 10.386549 -23.825454 3.00000000
18.142035 31.982273 -57.007757 3.00000000
-11.258091 27.974102 -6.584564 3.00000000
34.165925 12.805275 -3.397785 3.00000000
9.029331 -21.860348 -51.541099 3.00000000
4.719352 34.055851 -31.008250 3.00000000
34.276239 12.387610 -20.413033 3.00000000
-9.627581 29.216318 -36.479905 3.00000000
17.575660 -20.023945 -26.449843 3.00000000
-9.182222 29.535356 -57.102229 3.00000000
16.731579 32.554730 -14.540277 3.00000000
-5.171253 31.787589 -19.016414 3.00000000
34.095939 13.070256 -42.821852 3.00000000
24.814141 -15.625645 2.131395 3.00000000
30.075976 -9.836213 -37.783568 3.00000000
-16.230640 -10.495641 -1.265120 3.00000000
6.066155 -22.046524 -19.163364 3.00000000
33.312978 15.688375 -16.476411 3.00000000
-11.266862 -15.771416 -17.641588 3.00000000
2.849854 33.925979 2.499329 3.00000000
-13.997282 -13.207633 -6.692231 3.00000000
-2.660731 -20.609885 3.634581 3.00000000
3.496074 33.970871 -2.780228 3.00000000
30.119249 21.970414 -59.049187 3.00000000
34.333701 12.105876 -7.233963 3.00000000
33.656078 -2.459053 -7.173935 3.00000000
-21.514283 8.385037 3.635712 3.00000000
-10.702820 -16.233179 -33.155999 3.00000000
-20.713944 -0.914683 -3.571452 3.00000000
-16.182415 22.759513 -27.613737 3.00000000
23.816136 28.620394 -11.320352 3.00000000
24.462756 28.115592 0.385795 3.00000000
34.819146 3.026029 -49.110582 3.00000000
-21.274433 4.522844 -6.901872 3.00000000
-12.507923 26.886086 -58.194212 3.00000000
34.609920 8.993221 -30.235300 3.00000000
-19.092368 17.776048 -29.451379 3.00000000
-5.043690 31.846578 -54.596479 3.00000000
-19.740724 16.218690 -27.172414 3.00000000
22.460986 29.591855 -24.803026 3.00000000
-13.593158 -13.643787 -18.238726 3.00000000
34.785399 2.772487 -54.026668 3.00000000
14.525750 33.288667 -20.578392 3.00000000
11.547458 33.978178 -9.208537 3.00000000
12.663611 -21.555100 -27.946424 3.00000000
-3.943569 32.322703 -13.071761 3.00000000
32.171110 -6.189064 -20.311783 3.00000000
-21.022953 1.234936 -36.624465 3.00000000
32.675790 -5.101093 -14.717956 3.00000000
29.579654 -10.526459 -30.460537 3.00000000
-16.557622 -10.039206 -59.932192 3.00000000
26.789577 -13.817294 -39.213320 3.00000000
-19.661034 16.416092 3.672023 3.00000000
34.858043 5.043852 -46.449644 3.00000000
33.651792 14.695645 -6.830042 3.00000000
12.055813 -21.670195 2.657986 3.00000000
25.782053 26.982644 -53.012660 3.00000000
-17.749049 -8.189745 -40.576337 3.00000000
21.813024 -17.811107 -55.597377 3.00000000
21.327925 -18.114437 -41.183408 3.00000000
21.157795 -18.220819 -37.231615 3.00000000
-10.093297 28.882698 -19.491572 3.00000000
17.269492 -20.142801 -12.804207 3.00000000
-20.922057 -0.084214 -51.984493 3.00000000
-19.564812 -4.462636 -21.164766 3.00000000
30.541039 -9.114069 -32.441022 3.00000000
-20.490157 -1.761999 -28.180275 3.00000000
22.100052 -17.631629 -47.468089 3.00000000
-11.834294 27.503857 -3.152356 3.00000000
34.654248 8.287646 -60.627923 3.00000000
-6.014690 -19.189468 -42.987815 3.00000000
-1.934283 33.057474 -39.335374 3.00000000
3.136752 33.945909 -33.766173 3.00000000
23.258622 -16.832605 -0.764189 3.00000000
34.608655 9.013353 -35.668764 3.00000000
-14.940718 24.341918 -17.690167 3.00000000
-17.078299 21.453975 1.826773 3.00000000
-7.548024 30.566456 -9.441276 3.00000000
-21.521759 7.756447 -18.493762 3.00000000
4.699728 -22.120602 -40.168183 3.00000000
16.762755 -20.339518 -23.542658 3.00000000
-21.283814 4.645486 -15.685471 3.00000000
0.336784 33.673689 -55.974266 3.00000000
21.675268 -17.897245 -23.390947 3.00000000
-16.295195 -10.405528 -15.862424 3.00000000
33.830661 14.074640 -55.279137 3.00000000
20.029427 31.052809 -24.023671 3.00000000
32.259487 -6.004464 -5.371767 3.00000000
-21.200837 10.926237 -0.707671 3.00000000
-21.021644 1.217822 -14.446747 3.00000000
-16.348768 22.533731 -56.622104 3.00000000
33.884610 13.870379 1.756701 3.00000000
34.206377 -0.430797 -53.413515 3.00000000
24.636407 27.969974 -44.474664 3.00000000
33.609771 -2.598396 -3.492157 3.00000000
-3.920076 32.331824 -48.133214 3.00000000
-15.654593 -11.275483 -36.749247 3.00000000
22.197682 29.761425 -29.247846 3.00000000
22.548619 29.535418 -35.707125 3.00000000
-6.710789 -18.826147 -47.977540 3.00000000
-21.439080 6.675474 -29.427939 3.00000000
26.205117 26.580016 -10.973150 3.00000000
30.136508 21.946322 -44.319111 3.00000000
-21.291039 4.739959 -31.566941 3.00000000
15.605276 -20.760778 -53.075557 3.00000000
-9.514031 -17.109092 -4.491184 3.00000000
-16.697329 -9.844188 -8.695159 3.00000000
34.336495 0.084613 -44.000558 3.00000000
-19.598998 16.569765 -43.893078 3.00000000
6.593987 -22.013360 -52.414047 3.00000000
0.698982 33.750915 -44.338693 3.00000000
34.607604 1.452238 -56.711288 3.00000000
-19.245844 -5.233786 -28.186400 3.00000000
18.828045 -19.458020 -56.096027 3.00000000
-7.925649 30.331419 -50.156890 3.00000000
24.491026 28.091886 -59.691354 3.00000000
-21.496577 7.427208 0.727357 3.00000000
-20.003493 15.503913 -33.288714 3.00000000
5.805155 -22.062922 -42.865744 3.00000000
-21.438075 6.662333 -47.940124 3.00000000
17.933567 32.069521 -9.972081 3.00000000
-4.661280 32.023417 -51.218366 3.00000000
13.928686 33.439403 -45.418106 3.00000000
27.946597 -12.579891 -49.012683 3.00000000
3.939041 34.001644 -5.525177 3.00000000
27.158775 25.631094 -5.625937 3.00000000
-21.337208 10.005028 -32.273970 3.00000000
20.524899 30.776085 -58.181494 3.00000000
29.146079 23.325159 -56.077679 3.00000000
-21.084112 2.034534 -5.633520 3.00000000
7.616345 -21.949126 -59.896556 3.00000000
-20.281770 14.666507 -57.994799 3.00000000
7.571750 -21.951928 -29.977716 3.00000000
-4.012641 32.295889 -41.655049 3.00000000
3.566559 -22.028811 -60.456034 3.00000000
34.636287 8.573535 0.325717 3.00000000
-18.632159 -6.560867 -22.740200 3.00000000
-17.749502 -8.189021 -32.781802 3.00000000
22.662761 -17.259456 -16.342466 3.00000000
9.667165 34.244465 -39.309004 3.00000000
-14.625528 -12.529593 -60.167167 3.00000000
16.509054 32.644557 -28.186132 3.00000000
31.887018 -6.782470 -38.807992 3.00000000
18.000485 -19.840717 -5.423672 3.00000000
4.107566 34.013351 -26.387002 3.00000000
-7.121659 30.797167 -35.798903 3.00000000
30.976895 20.615972 -41.395910 3.00000000
-16.567832 -10.024953 -23.592100 3.00000000
-10.150656 -16.640020 -20.122574 3.00000000
-20.263202 14.722385 -50.551523 3.00000000
23.102806 29.145994 -51.443280 3.00000000
-8.159316 30.185307 -30.642464 3.00000000
-21.109460 2.365945 -49.177429 3.00000000
-11.734133 27.585599 -36.249333 3.00000000
30.272354 21.742682 -10.279649 3.00000000
10.576697 -21.763128 -13.793701 3.00000000
-11.953041 -15.196008 -6.797563 3.00000000
-15.101386 24.150325 -30.553788 3.00000000
-17.776749 -8.145086 -28.670276 3.00000000
34.522215 1.020325 -33.477203 3.00000000
-4.040359 -20.082953 -53.981209 3.00000000
-20.241994 14.786204 -20.088780 3.00000000
-12.274323 27.102531 -9.682774 3.00000000
-14.486548 -12.679590 -38.820377 3.00000000
22.915976 29.283655 -54.789967 3.00000000
9.006182 -21.861803 -10.706373 3.00000000
-19.032430 17.901244 -46.577505 3.00000000
-14.353323 25.032571 -43.001140 3.00000000
2.275115 -21.856874 -7.919405 3.00000000
-19.266423 17.393601 -57.109316 3.00000000
2.321803 -21.863091 -15.688619 3.00000000
-3.961198 -20.114907 -57.005297 3.00000000
4.831391 -22.124104 -28.439732 3.00000000
-6.608654 -18.883186 -4.425084 3.00000000
22.895433 29.298792 -39.686759 3.00000000
14.393576 -21.117246 -17.244309 3.00000000
25.283640 -15.240211 -53.834536 3.00000000
34.434762 0.549881 -3.575034 3.00000000
-17.981055 19.957523 -30.276239 3.00000000
-1.708344 -20.926377 -26.021607 3.00000000
-1.142994 33.282849 -2.643008 3.00000000
8.043263 -21.922303 -40.263479 3.00000000
-21.120289 11.333711 -14.699110 3.00000000
32.656703 17.344850 -54.626681 3.00000000
-19.523944 -4.567911 -37.522852 3.00000000
-21.252851 10.638675 -3.402302 3.00000000
6.738152 -22.004303 -22.498975 3.00000000
0.125415 -21.414483 -17.170262 3.00000000
23.081355 29.161800 3.304245 3.00000000
29.169569 23.296076 -42.330041 3.00000000
12.213148 -21.641657 -19.427448 3.00000000
0.437849 -21.493359 -44.320379 3.00000000
0.594186 33.730775 -34.918145 3.00000000
-20.845181 12.589462 -52.474002 3.00000000
-3.825163 32.368670 -22.126274 3.00000000
-17.251849 -8.984874 -37.797027 3.00000000
-16.189949 22.749288 -41.399730 3.00000000
-21.222787 3.847611 -43.248426 3.00000000
12.454178 33.811661 -31.257777 3.00000000
29.451798 -10.699986 -60.208481 3.00000000
-17.939995 20.031044 -55.561588 3.00000000
34.255695 -0.235445 -11.358744 3.00000000
34.430490 11.602142 -57.312162 3.00000000
25.004632 -15.470183 -8.564346 3.00000000
-9.055843 -17.416474 -26.346198 3.00000000
-11.086052 28.114504 -29.822506 3.00000000
34.743216 6.871549 -55.211645 3.00000000
-5.303333 -19.530055 -21.255903 3.00000000
22.923435 29.278160 -5.063911 3.00000000
-7.794082 -18.221164 -34.536398 3.00000000
18.662826 31.732950 -31.148267 3.00000000
7.601202 -21.950077 -56.538375 3.00000000
-19.899004 15.818347 -4.770469 3.00000000
-21.148977 2.882605 3.819949 3.00000000
-18.865132 -6.057068 -34.622852 3.00000000
14.101440 33.395789 -16.069165 3.00000000
-17.220276 -9.035365 -47.850858 3.00000000
-1.641564 -20.948569 -51.596359 3.00000000
34.376223 0.241981 -60.934975 3.00000000
24.752315 27.872778 -37.862763 3.00000000
11.940740 33.900433 -11.962907 3.00000000
-11.426143 27.836953 -54.244520 3.00000000
-12.251953 -14.936725 -50.759195 3.00000000
34.455349 11.453520 -46.452018 3.00000000
18.722127 -19.507000 -9.022882 3.00000000
21.083923 -18.267011 1.210820 3.00000000
-13.178235 -14.055166 3.143175 3.00000000
-11.899799 -15.240655 -10.196742 3.00000000
-13.043011 26.390295 -33.849950 3.00000000
24.328789 -16.021744 -11.555680 3.00000000
-13.548906 25.877798 -24.133092 3.00000000
-19.728538 -4.040883 -25.833426 3.00000000
16.809548 -20.321353 -2.949908 3.00000000
15.702124 -20.728722 -58.459518 3.00000000
-20.386989 14.349878 -36.330286 3.00000000
5.542263 -22.079440 -5.993399 3.00000000
16.028365 -20.620737 -32.055253 3.00000000
33.960910 13.581497 -13.989185 3.00000000
34.705217 7.476382 -50.112995 3.00000000
-21.454327 9.125136 -9.571599 3.00000000
14.740771 -21.025551 -41.899865 3.00000000
31.158054 -8.107417 -55.333279 3.00000000
30.548704 -9.102167 -19.936489 3.00000000
34.362232 11.957388 -30.433157 3.00000000
34.465639 11.289732 -16.527196 3.00000000
-21.318605 5.100352 -54.677789 3.00000000
31.678283 19.361879 -38.696704 3.00000000
9.763249 -21.814237 -7.918370 3.00000000
16.062574 32.797011 -3.628514 3.00000000
-11.320362 -15.726552 -30.296272 3.00000000
32.558536 -5.379815 -61.051801 3.00000000
-13.338728 26.098638 -60.679954 3.00000000
5.984148 34.143716 1.769412 3.00000000
15.305893 -20.859873 -6.302144 3.00000000
19.099649 31.523827 -36.329728 3.00000000
9.009997 -21.861563 -17.723576 3.00000000
1.032839 33.799752 -14.218563 3.00000000
34.810235 5.804815 -16.257714 3.00000000
-21.497414 7.438154 -22.704600 3.00000000
1.077730 -21.640887 -55.788139 3.00000000
24.362370 28.199772 -41.805676 3.00000000
17.677330 -19.984476 -47.780796 3.00000000
-1.101289 33.293864 -9.082512 3.00000000
-14.270421 25.119679 -27.816031 3.00000000
-3.644426 -20.242777 -59.877660 3.00000000
12.934205 -21.502668 -8.428192 3.00000000
-0.909021 33.344646 -32.598048 3.00000000
-13.884950 -13.328868 -30.419480 3.00000000
-16.412202 -10.242198 -44.834342 3.00000000
-15.207575 -11.823241 -19.563224 3.00000000
12.447156 33.812959 -2.568443 3.00000000
31.226922 -7.984108 -29.446390 3.00000000
24.084086 -16.221448 -48.873540 3.00000000
-0.888177 33.350151 -12.100549 3.00000000
-15.182695 24.053365 -11.310436 3.00000000
34.494141 10.836064 -37.646447 3.00000000
29.319265 -10.879862 -55.254498 3.00000000
33.891883 -1.676537 -40.808418 3.00000000
9.122801 34.288654 -0.983656 3.00000000
22.470462 -17.397212 3.602893 3.00000000
22.287555 -17.514385 -12.934426 3.00000000
-20.851530 -0.393750 -48.158320 3.00000000
34.662320 8.159172 -38.350723 3.00000000
14.518440 33.290513 -53.764494 3.00000000
-20.683213 -1.031039 -16.322722 3.00000000
-21.303684 4.905274 2.076350 3.00000000
7.861951 34.274165 -53.714039 3.00000000
-12.959122 -14.263700 -21.135330 3.00000000
-18.643047 18.714581 2.364869 3.00000000
-12.178527 27.191292 -42.354229 3.00000000
32.998348 -4.302034 -30.619865 3.00000000
31.276485 -7.895364 -60.952385 3.00000000
-13.049994 26.383824 -30.266207 3.00000000
15.160567 33.096756 -31.303422 3.00000000
-21.259708 4.330322 -22.432940 3.00000000
21.451527 30.241956 -0.906086 3.00000000
32.595193 17.477864 -9.086930 3.00000000
10.884857 34.082363 -53.430613 3.00000000
11.636993 -21.696510 -33.377422 3.00000000
-2.505781 32.868316 -56.142581 3.00000000
20.252483 30.928231 -39.726627 3.00000000
-21.294780 4.788857 -12.573395 3.00000000
6.262648 -22.034178 1.976860 3.00000000
3.357065 33.961214 -48.305391 3.00000000
18.962055 31.589698 -0.156577 3.00000000
25.662688 27.096243 -23.122544 3.00000000
13.686935 33.500436 -48.046444 3.00000000
12.336061 33.831229 -28.498582 3.00000000
-17.061500 -9.289281 -12.589134 3.00000000
23.290974 -16.809429 -52.277975 3.00000000
-19.863417 -3.693439 -44.493266 3.00000000
29.332235 23.069010 0.393015 3.00000000
24.145256 -16.171527 -40.853191 3.00000000
-14.445450 24.932515 -1.942210 3.00000000
1.009089 33.798102 -0.692483 3.00000000
32.563781 -5.368858 0.478199 3.00000000
34.805935 5.873250 -43.196426 3.00000000
6.269846 -22.033726 -2.582728 3.00000000
-20.345761 -2.302132 -12.537002 3.00000000
-20.067895 15.310113 -53.579676 3.00000000
18.618941 -19.554718 -60.212967 3.00000000
28.395423 24.244984 -33.300435 3.00000000
6.712744 34.194331 -57.756373 3.00000000
