67.402304 49.990577 1.002572 7.00000000
60.141014 58.585871 -27.919402 7.00000000
62.471100 56.120763 -18.765731 7.00000000
68.143045 48.932482 -19.170212 7.00000000
67.804740 49.434565 -13.259516 7.00000000
65.320394 52.742306 2.292215 7.00000000
68.640862 48.193631 -39.326772 7.00000000
65.200199 52.901184 -40.705769 7.00000000
61.824281 56.805063 -16.358923 7.00000000
68.102322 48.992916 -28.267974 7.00000000
69.459654 46.978426 -24.960550 7.00000000
68.551139 48.326814 -4.300034 7.00000000
65.700584 52.262445 -9.513473 7.00000000
68.981866 47.687531 -53.450737 7.00000000
68.830636 47.911979 -36.611173 7.00000000
66.503674 51.178327 -4.976761 7.00000000
61.106402 57.564542 -55.249197 7.00000000
65.723001 52.210178 -58.322382 7.00000000
59.799533 58.947140 -51.550211 7.00000000
67.622829 49.699101 -48.676061 7.00000000
62.089015 56.524989 -10.592288 7.00000000
66.142465 51.655756 -46.506282 7.00000000
60.737714 57.954594 -8.921836 7.00000000
63.376883 55.057861 -44.799823 7.00000000
66.036294 51.796088 -41.752748 7.00000000
66.028524 51.806357 -59.323708 7.00000000
65.150777 52.962377 -32.511285 7.00000000
61.760969 56.872044 -1.651894 7.00000000
64.222221 54.059271 -2.232029 7.00000000
68.963577 47.714676 -58.768371 7.00000000
59.738272 59.011951 -43.940614 7.00000000
59.768645 58.979818 0.861031 7.00000000
69.883147 46.349901 -24.405236 7.00000000
66.983335 50.544345 -14.678878 7.00000000
65.531191 52.470114 -13.330099 7.00000000
59.710834 59.040980 -4.429100 7.00000000
68.997500 47.664329 -56.611812 7.00000000
62.714522 55.848969 -27.025416 7.00000000
68.065016 49.048292 -4.764416 7.00000000
66.782630 50.809625 -21.170404 7.00000000
60.469331 58.238529 -21.629031 7.00000000
68.041040 49.083870 -24.858918 7.00000000
67.106389 50.381698 -5.151047 7.00000000
67.271199 50.163864 -35.496637 7.00000000
66.061415 51.762879 -21.444172 7.00000000
62.954785 55.563017 -24.250488 7.00000000
64.564330 53.655142 -59.794270 7.00000000
65.370554 52.676002 -8.535711 7.00000000
68.495950 48.408714 -20.732389 7.00000000
66.804563 50.780630 1.304519 7.00000000
65.569611 52.418533 -38.887115 7.00000000
66.874057 50.688782 -44.222927 7.00000000
66.938329 50.603830 -6.006133 7.00000000
65.470026 52.550935 -42.800810 7.00000000
64.583693 53.632268 -43.134898 7.00000000
66.662295 50.968677 -51.625073 7.00000000
61.567257 57.076982 -47.779669 7.00000000
62.422093 56.172610 -41.997210 7.00000000
62.426250 56.168212 -50.525936 7.00000000
65.127841 52.989471 -19.917347 7.00000000
68.420488 48.520718 -10.083675 7.00000000
63.445891 54.976342 -9.887273 7.00000000
69.866049 46.375277 -12.645731 7.00000000
62.135932 56.475353 -37.125389 7.00000000
63.326921 55.126737 3.329537 7.00000000
60.811194 57.876857 -19.568599 7.00000000
69.007771 47.649084 -33.053383 7.00000000
62.344994 56.254177 -36.009712 7.00000000
64.869965 53.294097 -3.111998 7.00000000
65.783403 52.148050 -19.456728 7.00000000
65.981866 51.893004 -4.590580 7.00000000
63.057865 55.446398 -8.424684 7.00000000
64.411423 53.835769 -37.756990 7.00000000
66.141120 51.683009 3.060828 7.00000000
62.251146 56.353463 -38.622345 7.00000000
66.137103 51.673379 -9.095621 7.00000000
68.456153 48.467775 -25.831337 7.00000000
68.062752 49.051640 -35.663446 7.00000000
61.516776 57.130388 -21.022052 7.00000000
61.912627 56.711598 -23.881186 7.00000000
65.970576 51.882949 -60.933876 7.00000000
68.950373 47.734276 -20.192804 7.00000000
63.084980 55.409953 -15.427876 7.00000000
61.011026 57.665445 -47.493516 7.00000000
67.926939 49.253203 -42.813964 7.00000000
67.016909 50.499967 -2.864343 7.00000000
69.001836 47.657903 -9.743074 7.00000000
64.790762 53.387659 -56.616249 7.00000000
61.916903 56.707074 -8.683849 7.00000000
66.586206 51.069246 -38.242331 7.00000000
67.601701 49.727027 -50.018883 7.00000000
68.739724 48.046905 -29.784707 7.00000000
59.895410 58.845707 -46.702009 7.00000000
69.165563 47.414899 -34.535058 7.00000000
68.345023 48.632698 -48.302336 7.00000000
63.679278 54.700646 -47.810016 7.00000000
66.337196 51.398373 -36.660489 7.00000000
60.863646 57.821365 -52.334809 7.00000000
65.075633 53.051144 -2.244578 7.00000000
66.590724 51.063275 -58.611379 7.00000000
69.358535 47.128514 3.108541 7.00000000
60.728166 57.964696 -28.152591 7.00000000
68.566283 48.304317 -44.295548 7.00000000
66.566691 51.095040 -49.724841 7.00000000
60.723490 57.969642 -34.991954 7.00000000
61.726845 56.908146 -46.373709 7.00000000
68.791447 47.970146 -23.379327 7.00000000
61.569133 57.074997 -25.829256 7.00000000
61.104134 57.566941 2.183252 7.00000000
66.591490 51.062263 -29.120231 7.00000000
60.244579 58.476305 -7.858485 7.00000000
69.428864 47.024123 -32.416717 7.00000000
66.605372 51.043909 -3.524612 7.00000000
69.341422 47.153899 -21.964885 7.00000000
62.895941 55.637917 -17.161688 7.00000000
59.901321 58.839454 -5.763180 7.00000000
68.267268 48.748118 -14.485659 7.00000000
60.290698 58.427514 -23.162182 7.00000000
65.337561 52.719613 -21.655891 7.00000000
64.060607 54.250185 -12.033029 7.00000000
66.232413 51.536869 -58.058396 7.00000000
65.846358 52.077884 2.344445 7.00000000
66.647870 50.987738 -1.792601 7.00000000
59.863412 58.879560 -45.804340 7.00000000
67.226727 50.222645 -24.482134 7.00000000
63.764026 54.600534 -37.796603 7.00000000
68.249883 48.773924 -8.702006 7.00000000
69.887780 46.343025 -45.338573 7.00000000
61.625359 57.015513 -2.790080 7.00000000
68.556587 48.318720 -17.856753 7.00000000
66.124527 51.698535 -2.828901 7.00000000
66.993871 50.530420 -38.890413 7.00000000
65.372477 52.673459 -18.754175 7.00000000
68.701168 48.104128 -58.033813 7.00000000
61.301646 57.357984 -45.731356 7.00000000
65.298124 52.771743 -10.421087 7.00000000
67.829472 49.397854 -50.701900 7.00000000
69.787365 46.492056 -5.412031 7.00000000
62.686341 55.881557 -36.737420 7.00000000
59.846820 58.897113 -26.304759 7.00000000
68.407466 48.540023 -47.098828 7.00000000
62.646939 55.920148 -2.913066 7.00000000
60.824564 57.862712 -30.155841 7.00000000
62.573320 56.007106 -23.587986 7.00000000
69.870756 46.368291 -13.787914 7.00000000
68.320114 48.669668 -50.967081 7.00000000
63.422608 55.003847 -26.436195 7.00000000
69.408103 47.054940 -4.774573 7.00000000
61.656227 56.982856 -42.333350 7.00000000
67.399666 49.994065 -29.315489 7.00000000
62.916825 55.617890 -6.985221 7.00000000
62.659987 55.904724 -56.756731 7.00000000
65.276240 52.800670 -29.004312 7.00000000
61.017644 57.658443 -17.625204 7.00000000
60.913521 57.768599 -44.134998 7.00000000
60.874032 57.810377 -43.323723 7.00000000
60.151885 58.574371 3.561808 7.00000000
66.281192 51.472396 -42.720581 7.00000000
61.277235 57.383809 -37.730051 7.00000000
69.689298 46.637601 -31.741982 7.00000000
64.867806 53.296648 -4.945437 7.00000000
68.160406 48.906702 -39.341301 7.00000000
68.344367 48.633702 3.612307 7.00000000
62.184311 56.424171 -25.431947 7.00000000
59.766370 58.982225 -31.354761 7.00000000
60.303249 58.414236 -60.979900 7.00000000
64.010661 54.309185 -23.364192 7.00000000
60.681928 58.013613 -37.870567 7.00000000
64.124892 54.174245 -52.667456 7.00000000
59.771453 58.976848 -0.606191 7.00000000
64.143543 54.152213 -18.864035 7.00000000
61.568647 57.075511 -50.825603 7.00000000
68.518916 48.374639 -3.082493 7.00000000
61.917693 56.706238 -52.904106 7.00000000
61.504630 57.143237 3.552018 7.00000000
65.086637 53.038145 -37.241400 7.00000000
60.785277 57.904275 -29.134596 7.00000000
68.143472 48.931829 -57.512166 7.00000000
65.787397 52.125061 -33.562447 7.00000000
66.974274 50.556322 -46.467802 7.00000000
67.955571 49.210705 -47.730587 7.00000000
62.469837 56.122099 -13.783565 7.00000000
62.467017 56.125083 -11.283251 7.00000000
66.501740 51.180885 -13.784782 7.00000000
60.075023 58.655686 -35.977648 7.00000000
61.224838 57.439243 -20.273038 7.00000000
67.807193 49.430924 -14.265620 7.00000000
60.027193 58.706289 -18.557642 7.00000000
67.971981 49.186365 -22.363171 7.00000000
69.659562 46.681733 -36.047132 7.00000000
64.912556 53.243785 -27.975611 7.00000000
64.148276 54.146622 -24.417219 7.00000000
60.188105 58.536052 -55.462155 7.00000000
69.832225 46.425477 -57.522260 7.00000000
61.806017 56.824386 -45.202259 7.00000000
67.193130 50.267052 -42.052752 7.00000000
64.244605 54.032830 -5.459463 7.00000000
66.493847 51.191321 -28.297940 7.00000000
63.948828 54.382228 -40.295669 7.00000000
60.672156 58.023951 -15.854668 7.00000000
69.586856 46.789640 -29.153613 7.00000000
69.757766 46.535985 -59.415174 7.00000000
67.930768 49.247528 -17.805674 7.00000000
65.715125 52.220588 -43.987743 7.00000000
63.214850 55.249269 -39.869643 7.00000000
68.557869 48.316816 -19.436547 7.00000000
66.234059 51.534691 -23.871244 7.00000000
61.952780 56.669119 -59.728194 7.00000000
68.971882 47.702350 -51.845071 7.00000000
67.572819 49.765201 2.723998 7.00000000
69.360357 47.125797 -20.991208 7.00000000
68.598370 48.256696 -37.617507 7.00000000
67.818106 49.414728 -10.476131 7.00000000
63.610512 54.781878 -28.780186 7.00000000
69.231498 47.317043 -57.680387 7.00000000
69.744417 46.555797 -26.772951 7.00000000
69.559508 46.830228 -11.625941 7.00000000
61.333719 57.324053 -56.122725 7.00000000
62.168867 56.440510 -60.558227 7.00000000
64.788141 53.390755 -18.465939 7.00000000
66.915739 50.633690 -27.071236 7.00000000
62.603758 55.971153 -12.946450 7.00000000
59.941859 58.796567 -41.190138 7.00000000
64.914433 53.241567 -51.475150 7.00000000
62.760240 55.796631 -27.947571 7.00000000
65.806741 52.120545 -15.715859 7.00000000
64.284265 53.985979 -54.217267 7.00000000
65.103628 53.018074 -0.660922 7.00000000
62.629435 55.940824 2.032657 7.00000000
65.767473 52.151398 -48.092370 7.00000000
68.770383 48.001404 -45.005619 7.00000000
67.422893 49.963364 -39.325668 7.00000000
69.433272 47.017583 -6.673911 7.00000000
68.512463 48.384194 -60.937080 7.00000000
61.295347 57.364648 -8.789834 7.00000000
69.885909 46.345802 -4.224764 7.00000000
65.822281 52.078957 -55.709094 7.00000000
69.223347 47.329140 -60.956554 7.00000000
66.313013 51.430336 -34.534710 7.00000000
61.393880 57.260405 -21.969404 7.00000000
67.583431 49.751174 3.607952 7.00000000
61.966559 56.654541 -20.371429 7.00000000
69.270968 47.258462 -16.496679 7.00000000
64.680112 53.518369 -1.536394 7.00000000
62.485210 56.105835 -52.867792 7.00000000
66.180589 51.605367 -51.437243 7.00000000
66.916328 50.632909 -7.820887 7.00000000
63.369230 55.066902 -35.054932 7.00000000
67.936053 49.239679 -37.278758 7.00000000
61.648834 56.990678 -48.699856 7.00000000
63.018882 55.480765 -44.148085 7.00000000
69.057617 47.575125 3.685792 7.00000000
68.085748 49.017499 -60.139122 7.00000000
59.777161 58.970808 -33.688937 7.00000000
67.365353 50.039417 -37.377449 7.00000000
69.643103 46.706162 -58.416446 7.00000000
67.210528 50.244055 -20.412418 7.00000000
66.322416 51.417905 -15.808141 7.00000000
69.884790 46.347462 -49.977076 7.00000000
64.204005 54.080789 2.989699 7.00000000
65.810512 52.098959 -28.850957 7.00000000
64.754096 53.430972 -16.536613 7.00000000
68.078994 49.027530 -42.030213 7.00000000
68.223211 48.813488 -41.077755 7.00000000
65.361507 52.687961 -17.014281 7.00000000
68.336535 48.645300 -36.521174 7.00000000
64.826830 53.345052 -53.937139 7.00000000
62.625424 55.945561 -9.425601 7.00000000
69.938166 46.268244 -17.231278 7.00000000
67.044006 50.464151 -1.038590 7.00000000
68.097015 49.000803 -2.053878 7.00000000
69.254726 47.282568 -31.306392 7.00000000
65.916630 51.954250 -35.966833 7.00000000
66.429275 51.276666 -18.118481 7.00000000
66.543809 51.125281 -12.260052 7.00000000
66.483267 51.205305 -33.505989 7.00000000
68.114119 48.975415 -15.373317 7.00000000
65.548778 52.441048 -1.932497 7.00000000
69.330351 47.170330 -14.068257 7.00000000
63.382047 55.051761 -14.592728 7.00000000
68.270416 48.743438 -26.916786 7.00000000
69.594646 46.778078 -34.116261 7.00000000
63.756773 54.609101 -54.962233 7.00000000
60.645295 58.052368 -1.994293 7.00000000
60.652941 58.044280 2.695758 7.00000000
59.763593 58.985163 -59.167802 7.00000000
63.668343 54.713562 -51.683750 7.00000000
66.595392 51.057102 -10.482797 7.00000000
63.026821 55.477213 -21.527800 7.00000000
64.069938 54.239162 -41.342541 7.00000000
67.764327 49.494542 -6.878594 7.00000000
69.733636 46.571797 -9.782529 7.00000000
69.270795 47.258720 -15.618996 7.00000000
68.696690 48.110788 -12.915477 7.00000000
64.467779 53.769196 -46.375950 7.00000000
68.507289 48.391873 -56.108839 7.00000000
69.210551 47.348134 -12.222517 7.00000000
67.028890 50.484133 -53.490587 7.00000000
68.130027 48.951811 -6.241741 7.00000000
69.903105 46.320280 -36.886634 7.00000000
61.277979 57.383023 -14.714745 7.00000000
60.685788 58.009529 -18.740545 7.00000000
63.166440 55.308701 -20.526157 7.00000000
63.281579 55.170443 -46.716163 7.00000000
59.771307 58.977002 2.872658 7.00000000
60.839214 57.847212 -35.960729 7.00000000
61.414593 57.238492 -58.886191 7.00000000
62.878041 55.651361 -33.086970 7.00000000
60.699226 57.995313 3.835099 7.00000000
65.000730 53.139626 -47.149274 7.00000000
67.161297 50.309126 -52.537487 7.00000000
66.063947 51.759538 -50.416562 7.00000000
62.523147 56.065700 -47.176120 7.00000000
61.253999 57.408392 -6.565939 7.00000000
69.422343 47.033801 -19.931094 7.00000000
66.497423 51.186594 -61.001745 7.00000000
61.778903 56.853071 -35.362214 7.00000000
63.690855 54.686969 -1.427701 7.00000000
63.324923 55.119241 -24.982015 7.00000000
64.064166 54.245980 -36.200054 7.00000000
63.076495 55.429486 2.500320 7.00000000
63.043659 55.451496 -45.412063 7.00000000
65.398120 52.642887 -30.450849 7.00000000
67.479023 49.889174 -6.089066 7.00000000
60.187891 58.536278 -16.652543 7.00000000
60.960027 57.719399 -22.788189 7.00000000
59.817947 58.927659 -25.326614 7.00000000
69.920838 46.293962 -0.486843 7.00000000
67.185209 50.277520 -50.664989 7.00000000
63.153027 55.322300 -29.732026 7.00000000
63.174076 55.297436 -54.754317 7.00000000
59.847710 58.896172 -17.626363 7.00000000
62.505880 56.083967 -16.360723 7.00000000
62.140484 56.470538 -19.411788 7.00000000
59.784822 58.962704 -37.811526 7.00000000
64.431216 53.812388 -11.101245 7.00000000
64.933797 53.218693 -4.117581 7.00000000
63.077897 55.411052 -49.246333 7.00000000
62.926093 55.600140 -19.627726 7.00000000
64.740385 53.447169 -15.006788 7.00000000
60.333233 58.382514 -56.854294 7.00000000
62.294687 56.307399 -22.841889 7.00000000
67.007677 50.512171 -13.070301 7.00000000
66.801291 50.784960 -15.516271 7.00000000
66.855394 50.713450 -36.441177 7.00000000
63.980179 54.345194 -44.301589 7.00000000
69.578549 46.801969 -10.548433 7.00000000
69.916653 46.300173 -19.808679 7.00000000
66.560870 51.102730 -6.643854 7.00000000
64.385935 53.865878 -27.744903 7.00000000
69.389499 47.082546 -46.926427 7.00000000
59.841136 58.903127 -10.297085 7.00000000
66.921745 50.625751 -59.408123 7.00000000
64.942200 53.208766 -22.203361 7.00000000
62.815844 55.722553 -41.036938 7.00000000
65.187767 52.917618 -15.555681 7.00000000
64.309630 53.956016 -42.194383 7.00000000
67.580229 49.755407 -30.071824 7.00000000
62.284641 56.318027 -12.196121 7.00000000
65.980929 51.882426 -14.104355 7.00000000
60.757674 57.933478 -53.434652 7.00000000
64.605537 53.606464 -49.378465 7.00000000
69.354582 47.134371 -9.262901 7.00000000
67.568054 49.771499 -17.217354 7.00000000
64.120874 54.178992 -38.434239 7.00000000
60.214087 58.508565 -53.928260 7.00000000
67.486564 49.879208 -32.544927 7.00000000
60.408801 58.302567 -59.559606 7.00000000
65.668126 52.282710 -51.878745 7.00000000
60.182754 58.541713 -2.907732 7.00000000
64.953297 53.195658 1.608160 7.00000000
66.880651 50.680067 -18.443247 7.00000000
69.143337 47.447886 -38.788926 7.00000000
64.507727 53.722006 -33.913293 7.00000000
59.745582 59.004217 -12.854805 7.00000000
63.972811 54.353897 -46.037490 7.00000000
62.300446 56.301306 -33.462170 7.00000000
61.325984 57.332235 -15.624934 7.00000000
67.032813 50.478949 -17.165397 7.00000000
65.392182 52.647413 -4.564196 7.00000000
63.992992 54.330057 1.155112 7.00000000
67.371089 50.031835 -23.454792 7.00000000
67.821793 49.409257 -20.538998 7.00000000
64.685510 53.511992 -26.940561 7.00000000
68.801567 47.955138 -7.378393 7.00000000
64.096345 54.207968 -59.032281 7.00000000
66.997686 50.525377 -28.587748 7.00000000
65.042833 53.089890 -34.770984 7.00000000
62.026378 56.591256 -7.697578 7.00000000
62.332050 56.267871 -17.685191 7.00000000
63.293617 55.156222 -27.971060 7.00000000
62.256612 56.347680 -32.576709 7.00000000
68.052222 49.067257 -51.958814 7.00000000
63.164083 55.316540 -10.875675 7.00000000
63.983032 54.341823 -34.648113 7.00000000
67.082936 50.412698 -11.961346 7.00000000
64.317432 53.946799 -4.451001 7.00000000
61.189092 57.477060 0.721001 7.00000000
62.946643 55.566100 -38.446584 7.00000000
60.298095 58.419688 -11.206583 7.00000000
62.358702 56.239674 -14.754118 7.00000000
61.395575 57.258612 -41.105293 7.00000000
69.946848 46.255360 -46.797526 7.00000000
61.318836 57.339798 -3.701733 7.00000000
69.377372 47.100544 -50.459995 7.00000000
68.656861 48.169886 -57.115185 7.00000000
60.700147 57.994338 -27.120586 7.00000000
61.741218 56.892940 1.106553 7.00000000
69.324957 47.178336 -41.004609 7.00000000
69.141294 47.450929 -5.539297 7.00000000
66.396916 51.319435 -14.721115 7.00000000
63.198779 55.268253 -31.326073 7.00000000
69.909693 46.310502 -2.104685 7.00000000
62.201902 56.405560 -39.888748 7.00000000
63.322337 55.126612 -7.659149 7.00000000
66.835719 50.739455 -34.666155 7.00000000
66.427798 51.278618 -17.083384 7.00000000
65.538066 52.454615 -59.090705 7.00000000
63.758887 54.606604 -49.316381 7.00000000
64.259742 54.014948 -16.088295 7.00000000
62.843031 55.694977 -30.703912 7.00000000
69.858095 46.387082 -48.630798 7.00000000
69.120793 47.481344 -46.042810 7.00000000
68.061259 49.053850 -44.712112 7.00000000
62.379295 56.217888 -48.321846 7.00000000
64.340816 53.919175 1.895551 7.00000000
62.610368 55.963345 -4.243785 7.00000000
67.282477 50.148957 -58.725685 7.00000000
64.008819 54.311361 -9.296810 7.00000000
63.017081 55.499715 -0.791257 7.00000000
66.982679 50.545213 -26.031024 7.00000000
66.446196 51.257640 -0.788507 7.00000000
61.858731 56.768617 -13.233323 7.00000000
63.637624 54.749851 -42.650509 7.00000000
62.773697 55.774452 -39.346070 7.00000000
69.286503 47.235406 -28.376409 7.00000000
59.969231 58.767608 -15.701887 7.00000000
67.520056 49.834941 -60.993241 7.00000000
60.270682 58.448690 -24.110507 7.00000000
66.303137 51.443390 -44.427311 7.00000000
69.822448 46.439987 -27.671730 7.00000000
62.374762 56.222684 0.779479 7.00000000
67.121256 50.362049 -33.790041 7.00000000
60.679716 58.015953 -20.815629 7.00000000
60.050452 58.681682 -35.075851 7.00000000
63.027031 55.471138 -47.630976 7.00000000
66.544072 51.124937 -47.046495 7.00000000
67.766116 49.491886 -24.060589 7.00000000
59.937735 58.800930 -47.548764 7.00000000
67.213298 50.240392 0.071950 7.00000000
61.660607 56.978222 2.765791 7.00000000
61.069102 57.604003 -57.224871 7.00000000
62.621908 55.949714 -10.333210 7.00000000
69.100885 47.510907 1.814592 7.00000000
65.048332 53.083394 -6.994830 7.00000000
63.406866 55.022443 -32.377960 7.00000000
65.314539 52.756794 -49.605735 7.00000000
69.543015 46.854706 -56.708852 7.00000000
65.862574 52.049825 -10.706783 7.00000000
61.958687 56.662869 -40.749548 7.00000000
69.947656 46.254161 -11.074791 7.00000000
63.125773 55.356423 -23.452771 7.00000000
60.769877 57.920567 -58.443736 7.00000000
62.099367 56.514037 -27.122608 7.00000000
67.469036 49.902375 -55.017681 7.00000000
68.843622 47.892707 -25.186887 7.00000000
69.451879 46.989966 -7.797247 7.00000000
67.160232 50.310534 -31.951825 7.00000000
65.826130 52.106484 -3.683027 7.00000000
64.606208 53.605671 -44.059266 7.00000000
66.159391 51.655791 1.432716 7.00000000
63.949611 54.381303 -59.920999 7.00000000
63.901105 54.438604 -27.255973 7.00000000
64.214265 54.068670 -60.850749 7.00000000
66.236032 51.532085 -31.794118 7.00000000
67.773319 49.481196 1.902896 7.00000000
67.895080 49.300492 -26.230495 7.00000000
63.149939 55.325949 -36.398047 7.00000000
65.127355 52.990045 -12.656758 7.00000000
69.814471 46.451829 3.713939 7.00000000
60.721468 57.971781 -5.881238 7.00000000
66.286724 51.465079 -12.949452 7.00000000
59.927410 58.811853 -32.813212 7.00000000
60.171549 58.553567 2.258738 7.00000000
66.289541 51.461361 -39.350089 7.00000000
67.613370 49.711602 -40.190273 7.00000000
67.161033 50.309472 2.185090 7.00000000
61.941786 56.680750 -30.239616 7.00000000
68.784372 47.980642 -35.600690 7.00000000
69.932278 46.276984 -51.741144 7.00000000
61.390598 57.263877 -60.651864 7.00000000
68.350667 48.624335 -22.825421 7.00000000
62.268652 56.334942 -34.835902 7.00000000
61.381271 57.273744 -53.787507 7.00000000
67.456780 49.918575 -12.477793 7.00000000
62.165968 56.443577 -3.445472 7.00000000
68.706469 48.096279 -6.388954 7.00000000
62.519433 56.069630 -55.052792 7.00000000
66.821814 50.757834 -39.755060 7.00000000
61.266268 57.395412 -34.668181 7.00000000
66.315794 51.426660 -40.488310 7.00000000
66.062544 51.787154 -0.287136 7.00000000
69.868869 46.371091 -23.343710 7.00000000
64.696209 53.499354 -55.140783 7.00000000
59.954861 58.782811 -13.708908 7.00000000
67.694684 49.597897 -8.834587 7.00000000
61.596282 57.046275 -17.282159 7.00000000
64.508549 53.721035 -12.738340 7.00000000
61.634740 57.005588 -11.984799 7.00000000
65.638783 52.340965 -14.944140 7.00000000
63.760202 54.605050 -57.326935 7.00000000
61.210964 57.453920 -51.537792 7.00000000
63.383361 55.057439 1.450988 7.00000000
61.859113 56.768213 -14.120306 7.00000000
69.125181 47.474834 -17.773630 7.00000000
65.494246 52.512534 -60.487244 7.00000000
64.628246 53.579638 -6.293956 7.00000000
63.436087 54.987924 -41.203216 7.00000000
64.248206 54.028576 -29.294076 7.00000000
67.067677 50.432864 3.360275 7.00000000
68.457074 48.466399 -43.202959 7.00000000
67.229098 50.219511 -22.187696 7.00000000
69.907172 46.314244 -54.037192 7.00000000
64.829967 53.341347 -23.884609 7.00000000
65.604729 52.372733 -36.793947 7.00000000
63.258613 55.197572 -56.630379 7.00000000
68.097782 48.999662 -16.477687 7.00000000
69.924758 46.288145 -40.985485 7.00000000
63.060528 55.431569 -52.828916 7.00000000
64.266062 54.007482 -35.380516 7.00000000
62.451800 56.141182 -1.176881 7.00000000
63.121854 55.364849 -16.325124 7.00000000
69.493545 46.928127 -53.487800 7.00000000
68.501351 48.400696 -24.584267 7.00000000
67.469234 49.902113 -21.118809 7.00000000
69.272310 47.256471 -37.097798 7.00000000
65.127049 52.990407 -25.153693 7.00000000
66.750145 50.852562 -24.917935 7.00000000
62.617005 55.955505 -20.676508 7.00000000
59.728558 59.022228 -40.392558 7.00000000
60.543438 58.160128 -41.071344 7.00000000
59.777879 58.970050 -57.969691 7.00000000
69.619651 46.740973 2.310450 7.00000000
62.037067 56.579948 1.887132 7.00000000
65.432501 52.594117 -2.834449 7.00000000
60.506788 58.198902 -45.349961 7.00000000
65.728282 52.207953 -32.348954 7.00000000
60.656252 58.040777 -7.067263 7.00000000
69.606942 46.759829 -37.689066 7.00000000
68.510431 48.387213 -32.012408 7.00000000
61.788089 56.843353 -51.991388 7.00000000
60.068296 58.662803 -43.205325 7.00000000
66.929542 50.615446 -47.874276 7.00000000
63.889996 54.451725 -12.973495 7.00000000
63.887575 54.454586 -25.329914 7.00000000
69.897530 46.328554 -43.995732 7.00000000
67.631432 49.687729 -41.533374 7.00000000
59.923604 58.815879 -42.282143 7.00000000
69.916537 46.300345 -39.454402 7.00000000
69.072516 47.553010 -2.487357 7.00000000
60.272295 58.446983 -44.299917 7.00000000
69.935005 46.272937 -30.528878 7.00000000
64.318243 53.945841 -44.933592 7.00000000
68.584677 48.277020 -31.042488 7.00000000
66.074709 51.745311 -30.956661 7.00000000
64.942767 53.208097 -33.376122 7.00000000
59.757952 58.991131 -44.759605 7.00000000
65.234293 52.857035 -57.927085 7.00000000
65.362782 52.686294 -56.963502 7.00000000
67.508257 49.850535 -46.775085 7.00000000
60.940825 57.739713 -23.787872 7.00000000
65.477181 52.547216 -37.876525 7.00000000
61.476065 57.173458 -33.042106 7.00000000
66.315372 51.427218 -48.673187 7.00000000
61.330182 57.327794 -18.608310 7.00000000
62.863707 55.680524 -1.910165 7.00000000
62.708238 55.847741 -0.146849 7.00000000
62.445815 56.147513 -51.942986 7.00000000
62.777982 55.769830 3.832966 7.00000000
62.363631 56.234460 -24.418406 7.00000000
69.454996 46.985339 -30.373819 7.00000000
60.319315 58.397239 -57.684467 7.00000000
63.824962 54.528549 3.837012 7.00000000
64.231163 54.048709 -55.697646 7.00000000
66.086075 51.730290 -37.662364 7.00000000
68.844505 47.891395 -42.000654 7.00000000
68.152866 48.917915 -1.182319 7.00000000
65.117017 53.002257 -20.849138 7.00000000
66.658043 50.974296 -42.016792 7.00000000
68.864640 47.861517 -21.561530 7.00000000
67.038987 50.470788 -30.001776 7.00000000
69.021603 47.628556 -40.337428 7.00000000
69.253514 47.284367 -55.552756 7.00000000
67.609261 49.717035 -34.605779 7.00000000
63.228057 55.242745 -3.798876 7.00000000
68.160942 48.905906 -40.202488 7.00000000
68.190570 48.861941 -29.987647 7.00000000
67.390868 50.005693 -36.537644 7.00000000
61.275725 57.385407 -13.569809 7.00000000
61.116401 57.553963 -31.357835 7.00000000
62.934939 55.587937 -22.518419 7.00000000
64.744823 53.441927 -8.089576 7.00000000
64.349730 53.908646 -31.079644 7.00000000
66.161936 51.641238 -7.418465 7.00000000
68.651143 48.178394 -2.070402 7.00000000
60.953730 57.726060 -9.732951 7.00000000
68.970012 47.705125 -30.563375 7.00000000
64.269413 54.003524 -47.673460 7.00000000
63.643975 54.742348 -11.432558 7.00000000
63.886981 54.455288 -50.660321 7.00000000
66.370451 51.354418 -47.814813 7.00000000
65.908037 51.990295 -8.188082 7.00000000
60.885274 57.798484 -26.121491 7.00000000
66.636789 51.002389 -52.963146 7.00000000
64.804772 53.371110 -11.905284 7.00000000
69.941242 46.263680 -60.187854 7.00000000
62.643042 55.924741 -59.242100 7.00000000
64.106871 54.195533 -48.466889 7.00000000
69.254518 47.282877 -43.982273 7.00000000
59.936387 58.802356 -14.621179 7.00000000
65.670387 52.302568 -20.484613 7.00000000
67.396655 49.998044 -15.261691 7.00000000
62.811281 55.732659 -32.168756 7.00000000
68.581039 48.282433 -11.905149 7.00000000
61.031129 57.644177 -11.776279 7.00000000
64.581398 53.634979 -14.161003 7.00000000
60.771589 57.918756 -33.071796 7.00000000
66.838291 50.736054 -9.208442 7.00000000
64.762040 53.421589 -48.468130 7.00000000
63.362588 55.075516 -12.239912 7.00000000
68.388761 48.567799 -21.811732 7.00000000
64.149785 54.144840 -31.955364 7.00000000
62.338955 56.260565 -31.166073 7.00000000
65.510065 52.502753 -23.685967 7.00000000
67.397696 49.996668 -45.501481 7.00000000
64.652769 53.550669 -52.233753 7.00000000
63.503513 54.908274 -19.446187 7.00000000
60.877428 57.806784 -0.126184 7.00000000
60.844916 57.841180 -48.291390 7.00000000
69.517206 46.893010 -52.449241 7.00000000
61.655047 56.984105 -57.344759 7.00000000
64.794763 53.382933 -38.391290 7.00000000
69.455340 46.984828 -22.997813 7.00000000
67.595373 49.735390 -56.987609 7.00000000
64.778043 53.402684 -45.681749 7.00000000
68.971568 47.702825 -11.112744 7.00000000
61.566093 57.078213 -32.200407 7.00000000
64.854979 53.311801 -50.475960 7.00000000
60.164830 58.560675 -52.214743 7.00000000
68.886483 47.829103 -14.767508 7.00000000
61.410160 57.243182 -44.581787 7.00000000
64.371469 53.882966 -39.257702 7.00000000
69.620186 46.740173 -47.963122 7.00000000
67.580107 49.755568 -38.107551 7.00000000
65.915182 51.961717 -23.198439 7.00000000
68.043723 49.079883 -33.303066 7.00000000
63.589105 54.807166 -52.785684 7.00000000
59.732779 59.017762 -7.514320 7.00000000
65.602123 52.383215 -31.272331 7.00000000
67.725805 49.551711 -11.445042 7.00000000
63.494600 54.918804 -38.587332 7.00000000
60.885809 57.797917 -4.899567 7.00000000
69.464309 46.971518 -18.456731 7.00000000
64.932301 53.220461 -60.589529 7.00000000
69.229019 47.320735 0.795929 7.00000000
69.929206 46.281542 -6.747265 7.00000000
66.322066 51.418368 -20.610700 7.00000000
66.002795 51.849273 -16.517267 7.00000000
63.255383 55.201389 -51.067072 7.00000000
67.484225 49.882299 -47.809712 7.00000000
67.022685 50.492334 -57.919036 7.00000000
59.920668 58.818986 -29.843113 7.00000000
62.868666 55.664955 -28.743953 7.00000000
60.673249 58.022795 -51.154189 7.00000000
61.697212 56.939496 -24.777006 7.00000000
68.074132 49.034763 -3.307437 7.00000000
67.337606 50.076092 -10.876417 7.00000000
65.813353 52.090757 -53.784634 7.00000000
69.828504 46.430998 -22.079037 7.00000000
64.869185 53.295018 -30.988249 7.00000000
63.354418 55.084943 -13.139247 7.00000000
68.398903 48.552733 -59.139517 7.00000000
69.740955 46.560934 -41.808507 7.00000000
65.688779 52.273853 -5.286969 7.00000000
62.611930 55.961500 -7.744134 7.00000000
62.969651 55.550265 -14.094443 7.00000000
66.388915 51.330014 -53.953087 7.00000000
66.111012 51.697330 -54.927523 7.00000000
67.348763 50.061345 -26.739181 7.00000000
62.680395 55.880616 -58.367601 7.00000000
64.657900 53.544609 -41.218780 7.00000000
66.209065 51.567729 -56.700397 7.00000000
60.868173 57.816576 -54.461965 7.00000000
65.593703 52.400635 -22.415059 7.00000000
63.618763 54.772131 -33.347474 7.00000000
60.018083 58.715926 -9.201105 7.00000000
68.769653 48.002487 -27.802307 7.00000000
69.130895 47.466366 -1.280001 7.00000000
68.840242 47.897722 -49.408767 7.00000000
61.890088 56.735444 -37.950233 7.00000000
68.751275 48.029778 -8.252175 7.00000000
61.081825 57.590543 -49.367735 7.00000000
62.638510 55.931100 -29.868150 7.00000000
68.083410 49.020983 -31.235941 7.00000000
61.541990 57.103713 -29.378470 7.00000000
68.687809 48.123955 -59.847279 7.00000000
66.537053 51.134214 -43.566862 7.00000000
63.567684 54.832469 -5.705747 7.00000000
65.537201 52.455720 -0.052866 7.00000000
66.794629 50.793766 -24.056304 7.00000000
63.973818 54.352707 -37.063202 7.00000000
66.748160 50.855186 -37.454816 7.00000000
61.559472 57.085218 -54.664434 7.00000000
60.918537 57.763293 -46.437874 7.00000000
60.408427 58.302963 -4.327102 7.00000000
69.817383 46.447504 -42.978500 7.00000000
69.256414 47.280063 -54.394071 7.00000000
63.593426 54.803656 2.480701 7.00000000
61.441096 57.210454 -40.176211 7.00000000
68.585887 48.275236 -15.618655 7.00000000
69.783365 46.497992 -16.435420 7.00000000
68.000206 49.144456 -56.640691 7.00000000
62.273064 56.330275 -4.980960 7.00000000
61.814044 56.815894 -49.780938 7.00000000
61.788705 56.842701 -15.039992 7.00000000
62.591029 55.988060 -53.940456 7.00000000
60.778661 57.911274 -32.048842 7.00000000
64.037385 54.277616 -8.206074 7.00000000
68.463178 48.457366 0.999365 7.00000000
61.530006 57.116391 -19.567093 7.00000000
60.482093 58.225028 -50.059642 7.00000000
66.465802 51.234216 2.100786 7.00000000
66.918322 50.630276 -19.399726 7.00000000
62.820401 55.715229 -60.225739 7.00000000
66.339467 51.395369 -19.304855 7.00000000
67.013235 50.504825 -60.669857 7.00000000
61.217858 57.446627 -28.546346 7.00000000
59.979436 58.756812 -60.275266 7.00000000
65.648788 52.314335 -34.917719 7.00000000
63.311664 55.134905 -50.117451 7.00000000
62.306149 56.295273 -45.656789 7.00000000
64.620140 53.589214 -40.220601 7.00000000
65.691329 52.275018 -11.519724 7.00000000
64.677322 53.521664 -22.934743 7.00000000
64.556289 53.664640 -20.337236 7.00000000
66.221390 51.554190 -11.494800 7.00000000
67.479064 49.889121 -28.482813 7.00000000
67.381064 50.018651 -2.046383 7.00000000
61.453693 57.197127 -26.931282 7.00000000
67.437931 49.943487 -4.238914 7.00000000
66.122980 51.697155 -5.644396 7.00000000
65.680966 52.279064 0.940473 7.00000000
63.909531 54.428649 -10.589890 7.00000000
62.992429 55.512013 -41.846671 7.00000000
62.193637 56.414304 -29.360710 7.00000000
61.840957 56.787421 0.103930 7.00000000
66.729102 50.880375 -32.724496 7.00000000
69.876741 46.359408 -18.810554 7.00000000
67.703044 49.585491 -52.882756 7.00000000
65.710818 52.226280 -39.799268 7.00000000
60.243803 58.477126 -20.101472 7.00000000
66.914602 50.635193 -23.097893 7.00000000
67.343694 50.068044 -60.023137 7.00000000
67.606504 49.720678 -7.917986 7.00000000
62.992124 55.517048 -25.728208 7.00000000
65.526227 52.470263 -50.596849 7.00000000
66.747527 50.856022 -35.583264 7.00000000
61.021263 57.654615 -10.874258 7.00000000
64.646514 53.558058 -57.717262 7.00000000
64.272185 54.000250 -57.058185 7.00000000
65.350625 52.710587 -45.407630 7.00000000
62.662234 55.905783 -46.339161 7.00000000
67.106871 50.381063 -56.656529 7.00000000
68.399384 48.552019 -49.977829 7.00000000
65.529316 52.466143 3.761065 7.00000000
62.381846 56.215189 -21.996183 7.00000000
68.722094 48.073093 0.255597 7.00000000
63.915025 54.422159 -6.574982 7.00000000
69.328224 47.173486 -39.684972 7.00000000
62.672165 55.890338 -61.036430 7.00000000
64.261023 54.013435 -3.465249 7.00000000
66.058159 51.767187 -38.509534 7.00000000
65.174535 52.934312 -5.816233 7.00000000
67.087824 50.406238 -54.357894 7.00000000
59.830108 58.914794 -56.275462 7.00000000
69.869229 46.370557 -53.038819 7.00000000
62.197130 56.410609 3.828402 7.00000000
61.197333 57.468342 -7.955754 7.00000000
63.950214 54.380591 -46.911013 7.00000000
62.234619 56.370948 -6.875085 7.00000000
59.786630 58.960791 -57.140801 7.00000000
64.434861 53.808082 -21.805579 7.00000000
67.328158 50.088579 -43.744735 7.00000000
66.583286 51.073106 -45.347419 7.00000000
63.663652 54.719103 -13.849793 7.00000000
66.438171 51.264910 -55.767036 7.00000000
68.463856 48.456352 -10.973101 7.00000000
64.027190 54.289660 -26.299955 7.00000000
68.640379 48.194348 -54.436256 7.00000000
61.942369 56.680132 -47.192039 7.00000000
66.519766 51.157063 -60.076667 7.00000000
63.529756 54.877274 -8.830570 7.00000000
61.966591 56.654507 -44.237497 7.00000000
62.709126 55.854704 -35.320694 7.00000000
66.410412 51.301598 -22.455211 7.00000000
60.310880 58.406162 0.343400 7.00000000
66.479705 51.210013 -30.251513 7.00000000
68.189616 48.863360 -23.807934 7.00000000
67.810922 49.425382 -55.724519 7.00000000
61.719684 56.915722 -5.508247 7.00000000
65.193460 52.910093 -26.491648 7.00000000
64.701403 53.493218 -36.130255 7.00000000
68.181126 48.875975 2.625983 7.00000000
69.342678 47.152034 -13.161383 7.00000000
59.870670 58.871882 -6.625271 7.00000000
65.726367 52.216750 -27.413776 7.00000000
63.078169 55.416716 -18.299283 7.00000000
65.597445 52.396677 -25.651668 7.00000000
60.386007 58.326682 1.379963 7.00000000
66.780935 50.811866 -41.144235 7.00000000
66.280922 51.472751 -25.507192 7.00000000
69.662500 46.677374 -46.112776 7.00000000
62.954030 55.573402 -5.912519 7.00000000
64.546510 53.676192 -24.913548 7.00000000
62.692807 55.870608 -42.779115 7.00000000
68.827875 47.916076 -50.946976 7.00000000
65.821069 52.104706 -12.579537 7.00000000
64.796629 53.380729 2.985230 7.00000000
69.694607 46.629722 -2.990734 7.00000000
60.785027 57.904539 -42.031409 7.00000000
64.513842 53.714783 -17.493211 7.00000000
59.961833 58.775436 -22.199630 7.00000000
64.328675 53.933518 -33.139228 7.00000000
61.582454 57.060903 -10.092443 7.00000000
65.787168 52.125367 -47.154738 7.00000000
60.210544 58.512312 -30.675669 7.00000000
64.930415 53.222688 -53.106433 7.00000000
64.286513 53.983323 -7.298281 7.00000000
68.178535 48.879797 -38.532654 7.00000000
69.262893 47.270460 -0.086846 7.00000000
60.349566 58.365234 -1.165634 7.00000000
65.163348 52.947527 -44.245584 7.00000000
69.489341 46.934365 -33.217356 7.00000000
68.389557 48.566609 -33.915601 7.00000000
59.727104 59.023766 -24.409012 7.00000000
62.299069 56.302763 -2.156480 7.00000000
67.228253 50.220628 -16.290102 7.00000000
63.698052 54.678468 -55.981618 7.00000000
65.974390 51.877908 -49.599774 7.00000000
63.648402 54.737118 -21.887637 7.00000000
63.559399 54.842257 -58.842828 7.00000000
59.721165 59.030050 -48.578150 7.00000000
63.995073 54.327599 -20.640975 7.00000000
65.178042 52.930169 -59.765657 7.00000000
68.349778 48.625664 -7.155523 7.00000000
65.036957 53.096831 -58.980539 7.00000000
59.719415 59.031901 -3.611417 7.00000000
59.768868 58.979582 -1.625081 7.00000000
60.650222 58.047157 -56.039139 7.00000000
62.375401 56.222008 -26.254070 7.00000000
63.586692 54.810016 -43.597467 7.00000000
68.329579 48.655619 -45.408001 7.00000000
67.837440 49.386035 -27.572999 7.00000000
62.220496 56.385889 -6.070641 7.00000000
66.612337 51.034708 -54.988500 7.00000000
64.675173 53.524204 -25.856782 7.00000000
60.948486 57.731608 -24.991455 7.00000000
63.746069 54.621745 -31.291105 7.00000000
59.743017 59.006931 -19.330115 7.00000000
67.966984 49.193780 -21.379454 7.00000000
69.258176 47.277448 -59.522994 7.00000000
69.731966 46.574275 -15.460091 7.00000000
62.988897 55.534640 0.764213 7.00000000
63.797237 54.561300 -0.518284 7.00000000
69.902611 46.321014 -8.820271 7.00000000
61.039234 57.635602 -1.329845 7.00000000
68.042156 49.082202 -43.688837 7.00000000
61.900258 56.724684 -34.076339 7.00000000
61.476556 57.172938 -43.389093 7.00000000
68.439991 48.491757 -32.823743 7.00000000
60.652250 58.045011 -34.106115 7.00000000
60.389911 58.322552 -39.171253 7.00000000
65.292459 52.783268 -48.729517 7.00000000
61.820094 56.809493 -18.032480 7.00000000
67.972182 49.186062 -32.020559 7.00000000
59.965857 58.771179 -53.114246 7.00000000
67.837403 49.386079 -58.286510 7.00000000
66.870010 50.694128 -4.279128 7.00000000
66.115104 51.713297 -1.409059 7.00000000
63.184926 55.284618 -53.690536 7.00000000
65.667675 52.300805 -7.345592 7.00000000
65.204178 52.895926 -55.595241 7.00000000
68.620566 48.223778 1.951798 7.00000000
63.311898 55.143233 0.053259 7.00000000
61.739900 56.894334 -39.125372 7.00000000
65.268220 52.811271 -14.074525 7.00000000
65.606830 52.373761 -6.315152 7.00000000
60.349787 58.365001 -5.155890 7.00000000
63.017893 55.481933 -55.873223 7.00000000
65.989864 51.857453 -26.452130 7.00000000
68.260921 48.757539 -13.444881 7.00000000
68.780125 47.986944 -55.318529 7.00000000
69.900759 46.323763 -25.765542 7.00000000
59.797081 58.949735 -28.605069 7.00000000
69.492058 46.930333 -23.937820 7.00000000
61.896704 56.728443 -55.366169 7.00000000
67.162027 50.308161 -49.238451 7.00000000
69.112381 47.493829 -47.768038 7.00000000
64.393397 53.857063 -51.273883 7.00000000
59.756259 58.992922 -49.813881 7.00000000
64.180478 54.108582 -30.178556 7.00000000
63.580476 54.817358 -24.131783 7.00000000
68.612809 48.235269 -28.781004 7.00000000
66.606399 51.042551 0.141705 7.00000000
60.964011 57.715184 -3.024451 7.00000000
69.088147 47.529809 -4.063569 7.00000000
60.215897 58.506650 -12.433910 7.00000000
69.605417 46.762093 -38.603561 7.00000000
69.663460 46.675948 -60.964907 7.00000000
60.298885 58.418852 -49.114672 7.00000000
60.913434 57.768692 -39.618173 7.00000000
65.260190 52.825438 -54.638240 7.00000000
63.886463 54.455900 -58.227313 7.00000000
68.914164 47.788012 -43.275241 7.00000000
69.923242 46.290394 0.764275 7.00000000
61.390100 57.264404 -30.425626 7.00000000
65.916315 51.967429 -17.367734 7.00000000
65.620733 52.359498 -29.718631 7.00000000
68.208580 48.835199 -49.255237 7.00000000
63.806989 54.549781 -17.431323 7.00000000
61.598576 57.043847 -11.096386 7.00000000
63.361472 55.076066 -60.422579 7.00000000
68.832131 47.909764 -22.510151 7.00000000
65.183340 52.923470 -46.320777 7.00000000
67.066689 50.434173 -55.836221 7.00000000
66.513272 51.165647 -26.377379 7.00000000
64.009931 54.310047 -15.222968 7.00000000
67.523999 49.829728 -25.266397 7.00000000
64.303401 53.963374 -50.135633 7.00000000
65.327408 52.733034 -17.900532 7.00000000
66.576074 51.082634 -8.435236 7.00000000
60.696692 57.997994 -13.176607 7.00000000
69.233611 47.313906 -48.700645 7.00000000
69.737130 46.566612 -55.639279 7.00000000
60.979156 57.699161 -38.774031 7.00000000
68.594504 48.262453 -5.382046 7.00000000
67.081783 50.414223 -42.986769 7.00000000
68.168503 48.894680 -46.222040 7.00000000
65.892583 51.986036 -52.756919 7.00000000
69.224030 47.328125 -27.338228 7.00000000
63.766142 54.598034 -39.379986 7.00000000
59.726830 59.024057 -39.259053 7.00000000
65.171985 52.937325 -39.509468 7.00000000
67.144062 50.331906 -40.586611 7.00000000
62.431222 56.162952 -55.922012 7.00000000
68.005367 49.136816 -9.721638 7.00000000
67.753414 49.510731 -59.273387 7.00000000
60.685089 58.010268 -13.971246 7.00000000
61.942094 56.680424 -27.965462 7.00000000
63.234062 55.226575 -57.522790 7.00000000
62.528370 56.060175 -37.829668 7.00000000
68.453706 48.471412 -16.959931 7.00000000
68.477927 48.435450 -53.444519 7.00000000
69.905157 46.317235 -21.145722 7.00000000
67.665588 49.641079 -19.779093 7.00000000
61.383316 57.271581 -0.476741 7.00000000
68.774485 47.995317 -26.911456 7.00000000
61.916719 56.707269 -4.361197 7.00000000
64.196723 54.089391 0.184657 7.00000000
68.604464 48.247674 -0.540744 7.00000000
64.801235 53.375288 -29.819997 7.00000000
69.817420 46.447449 -34.987137 7.00000000
63.633966 54.754171 -3.096519 7.00000000
59.739916 59.010212 -27.143568 7.00000000
68.937489 47.753398 -18.833991 7.00000000
63.757421 54.608336 -53.797074 7.00000000
62.239243 56.366055 2.918357 7.00000000
69.443767 47.002005 -49.453721 7.00000000
61.996260 56.623119 -58.587938 7.00000000
69.002258 47.657267 -26.139883 7.00000000
65.993666 51.852430 -45.649625 7.00000000
65.101918 53.020093 -11.253134 7.00000000
59.783136 58.964487 -20.964388 7.00000000
67.766725 49.490982 0.187788 7.00000000
61.129524 57.540080 -16.694981 7.00000000
64.604327 53.607893 -9.906201 7.00000000
65.059785 53.069865 0.798251 7.00000000
64.910324 53.246421 -42.162355 7.00000000
67.076466 50.421251 -30.916310 7.00000000
67.514922 49.841725 -53.764721 7.00000000
63.763755 54.600854 -29.620792 7.00000000
69.391999 47.078836 -44.916903 7.00000000
67.078459 50.418616 -6.932903 7.00000000
68.045732 49.076890 -53.979446 7.00000000
61.690564 56.946529 -22.909993 7.00000000
67.615417 49.708898 -44.480157 7.00000000
67.391833 50.004417 -9.707594 7.00000000
67.594496 49.736550 -3.347184 7.00000000
65.115921 53.003552 -9.473639 7.00000000
59.710624 59.041201 -11.615377 7.00000000
