18.276498 -3.410853 -2.102356
21.666451 5.439424 -8.399332
21.216014 2.404936 -45.560658
-6.139047 13.871197 -54.162775
4.837613 -8.779661 -47.253313
-1.224523 -6.638456 -1.936922
21.515492 8.331005 -30.802199
-8.136205 8.392281 -46.011777
18.101099 -3.622560 5.718691
-5.258170 15.166204 -9.724359
-0.542124 19.234152 -5.361333
13.488417 19.466655 1.853671
14.229934 19.059619 -38.239843
16.058049 17.803190 -45.076386
19.968299 -0.861321 -52.265319
-0.172424 19.437016 -21.595197
21.342579 2.924192 -56.613661
4.486081 -8.734974 -1.866083
-7.383214 11.292936 -46.637031
18.329745 15.543642 -53.331513
20.639818 11.580923 -3.545995
1.242041 -7.871118 -34.017008
-3.976080 -4.449843 -40.144854
-6.102864 13.928120 3.094553
19.505534 13.877426 -15.941769
4.710566 20.961035 -10.363721
-2.238191 -5.949637 4.060183
9.306553 -8.664099 -53.612989
-8.118220 3.692879 -39.469372
-8.188975 7.977174 -25.847788
-6.878516 -0.288525 -45.557056
-6.389259 -1.239579 -29.538169
9.904143 20.747353 -34.462759
15.786205 -5.821466 -26.133848
-2.868061 17.653262 -58.762009
-1.996671 -6.125406 -20.311052
-6.731455 -0.601670 4.363506
-7.738221 1.987704 -50.829631
20.760630 0.920768 -49.642198
0.205443 -7.421511 -40.306942
17.133022 -4.657516 -46.296888
17.255288 -4.542877 -13.198155
-8.156888 3.964631 -47.772548
15.728064 -5.863639 -45.195950
10.926696 20.485137 -25.925191
9.398575 20.844175 -6.152459
0.218254 19.625094 -42.898452
20.733141 0.851493 -2.308852
6.873375 -8.894032 -12.889786
-7.135420 0.278641 -19.181555
21.603226 4.560885 -45.236765
6.989809 -8.894115 -46.531469
-7.717265 1.909805 -48.015067
3.450555 -8.546854 1.093841
20.024739 12.954904 -1.491787
6.393490 -8.893690 2.583694
21.547415 8.076782 -24.318061
9.964663 -8.537901 -41.752283
19.186184 14.381507 -32.581543
-8.235900 4.593855 -50.744401
18.966348 14.702169 -45.861365
21.414544 8.897288 -55.100262
8.137850 -8.829276 -7.089537
21.467616 3.576993 -31.912247
20.946268 1.471816 -17.123019
20.789088 0.992487 -56.845872
20.461917 0.167966 -31.182555
20.400924 12.163385 -25.305255
2.117648 -8.181356 -56.684389
21.467875 3.578345 3.987183
21.112462 10.196789 -15.729738
15.773705 18.027255 2.179207
13.196227 19.604417 -21.965065
-3.027074 17.521907 -42.035891
17.663089 16.310141 -35.345077
-4.514132 -3.875972 -11.800887
21.122895 10.156023 -24.031610
19.584649 -1.556401 4.125612
16.394800 -5.327176 6.739835
-0.742474 19.124215 -55.893136
1.673111 20.234556 -22.868129
19.415638 14.019323 -10.139835
-8.270211 7.155296 -12.223475
-3.494595 -4.908581 -58.565818
-2.015402 -6.111774 -60.646595
21.374345 9.108894 -26.334870
21.080062 1.882516 -36.348393
21.678409 6.523992 -4.894048
-5.190131 -3.063422 -21.904065
12.180791 20.047924 -46.750155
18.508386 15.327372 -11.505482
-8.142748 3.852026 -23.413265
-7.579941 10.711406 -52.742199
6.555560 -8.893806 -18.285402
21.342137 9.278432 -5.716656
20.969082 1.541847 4.185961
-8.145195 8.321560 -17.439316
-5.135662 -3.132106 -14.239388
7.797325 21.050874 -26.975670
-6.844487 -0.360983 -60.626362
4.180143 -8.686579 -33.348443
10.120204 -8.498093 -37.238962
17.794100 -3.973620 -58.015328
-0.774219 19.106796 -16.383169
17.395021 -4.397921 -41.840894
11.428452 20.321690 2.430486
-0.438898 -7.093597 -19.319991
14.209710 -6.873988 -3.178739
14.118830 19.120809 -47.411502
-5.904986 14.239421 -2.046156
7.670944 -8.861579 -15.523787
-3.180558 17.395120 -14.265476
20.396129 0.022579 -60.477849
13.907942 19.236955 -1.406407
17.972389 15.976271 -51.300993
20.162390 12.671310 -19.496974
4.520552 20.937169 -14.281324
-7.311521 0.724412 -17.221518
1.078756 -7.806318 -2.707954
1.455687 -7.955903 -30.593756
-6.957774 12.317797 -23.990664
7.907794 -8.846869 -36.852818
-6.308704 13.582760 -16.427086
4.708447 -8.763241 -50.215473
-7.173756 0.375683 -52.654052
15.053921 18.544433 -24.102537
15.237417 -6.219542 -9.339079
12.572163 -7.695864 -60.553780
-3.672777 16.938637 -27.127010
7.767203 -8.855601 -41.539081
-1.075332 18.930113 -32.500806
21.237842 2.489680 -59.398306
8.121696 -8.831305 -4.352527
-2.990952 -5.354059 -56.005202
-8.307326 5.825495 -28.169873
8.756878 -8.751526 5.809124
2.137490 -8.187820 -36.385733
20.440209 0.116075 -4.718591
-7.341155 11.398932 -57.516012
21.427667 8.828211 -36.044674
-4.586919 -3.796436 -31.894136
18.369253 15.495812 -25.560424
16.335832 17.573039 -60.877624
7.085440 -8.894183 -29.348802
-5.979302 -1.925133 -10.561295
-2.770361 17.733968 -53.946628
20.471573 12.006807 5.654607
-7.002962 12.221951 -2.293138
2.765399 -8.373568 -38.632168
-3.951346 -4.476225 -60.976462
11.697505 20.234046 -11.034576
9.718150 20.782973 -27.730564
-8.154556 8.247929 -39.245395
21.678149 6.188651 -10.549645
10.417430 -8.422023 -39.773587
13.733998 19.332754 -45.159742
-6.899253 -0.244368 -43.513450
-6.754296 -0.553033 -15.522595
10.999931 20.461281 -2.698092
-5.238814 -2.996311 -52.970195
-2.756940 17.745055 -7.383916
7.153170 21.090954 -60.883845
5.145876 21.015710 -24.570904
-7.720052 1.918404 -31.103872
18.046409 15.886660 5.511106
4.110085 -8.673162 -31.101417
12.851558 -7.569129 -54.072243
-8.307232 5.951545 -15.042370
18.759078 -2.790237 -53.402166
14.698017 18.770658 -43.466721
5.008660 -8.801405 -37.534825
-8.260560 7.306871 -31.703268
-1.805288 18.461294 -46.200697
21.521174 8.285753 -3.671760
21.678203 6.258616 -40.414051
-1.782675 18.477696 -40.327198
11.399752 -8.133785 -43.242944
17.829715 16.132430 -39.616280
7.304910 -8.884311 -44.359952
20.495699 0.253102 -7.186699
10.714034 20.543011 -44.911337
-7.834565 9.833186 -21.276116
16.359477 -5.356354 -21.678544
-4.002077 -4.422115 -37.558717
10.575037 20.578813 -17.637096
20.295467 12.387941 -13.894801
-2.489612 -5.766662 -25.562543
-6.245856 13.696862 0.456669
-7.495998 10.969081 6.233655
21.337336 2.896820 -1.613290
18.663098 -2.922123 -44.969246
17.460008 16.526731 -23.317814
12.421239 19.952503 -33.593692
-4.892213 -3.426835 -17.207774
16.726321 17.236897 -25.286419
21.623955 7.434836 -28.723477
-5.912749 -2.030179 -23.724170
16.422423 17.501296 -53.356801
-8.307430 5.686004 -41.454438
3.443882 -8.545576 -28.854400
-5.281460 15.134199 -34.700390
21.498370 3.737553 -11.157614
5.678309 -8.860151 -41.715566
-7.333690 0.780529 -56.515716
19.876832 13.224431 -35.670488
4.562910 20.942489 -34.929655
11.291308 -8.168931 -58.711781
-5.111761 -3.161041 -55.115268
9.624641 20.800881 -42.671855
14.258760 19.043743 -17.029734
-7.494794 1.223368 -5.032799
7.430086 -8.876537 -49.548074
20.682433 0.723700 -12.336896
-4.156119 16.454913 0.009414
20.316035 12.344144 -47.682815
-4.379824 -4.019221 0.202648
-8.048706 3.326964 -35.304987
12.736110 19.821353 6.687542
-8.307061 6.180649 -45.908741
20.939469 1.450947 -25.343392
2.629524 -8.338570 -54.658523
-7.712072 10.305813 1.466293
-3.667263 16.943808 -44.225056
-7.282808 11.545976 -17.830837
-1.560210 -6.425082 -23.437200
-5.029353 15.458810 -18.322525
4.589293 20.945803 -44.389664
-6.423226 -1.177683 -13.229528
10.341493 -8.441458 -45.707109
21.183456 2.278533 -19.638816
9.254845 -8.673920 -13.679002
21.673580 6.636595 -2.265992
17.450712 -4.338711 -54.952265
20.311233 -0.157490 -0.254373
-8.038010 3.270660 -1.769202
-7.949150 9.388267 -32.385143
21.274421 9.563972 -60.829647
21.285771 2.675758 6.389306
4.656085 -8.756585 -59.666565
-3.251422 -5.137279 1.539949
-6.308670 -1.386435 -47.492344
2.962870 20.621798 -31.006427
-0.163779 19.441760 -13.499684
21.619007 4.694288 -60.929863
2.947792 20.617939 -6.573961
18.556026 -3.069250 -39.991520
-8.306986 6.281202 5.766349
-0.265994 19.385672 -51.344584
-7.395040 0.935827 -9.831442
11.195405 -8.200013 -27.429878
20.912812 10.828762 -8.542183
6.103295 21.084066 -8.273546
3.890217 20.828402 -32.689540
16.496485 -5.243178 -38.230104
-8.307144 6.069594 -38.720969
-0.213092 19.414701 1.264167
-6.502212 -1.033747 -38.792340
11.256326 20.377760 -22.318599
13.482661 19.469369 -8.988525
-8.295272 5.442692 -56.814680
9.538458 -8.620051 -50.248288
10.993697 -8.265385 4.463776
11.741709 -8.022958 -49.723202
-7.740111 1.995090 -38.399881
-6.453202 13.320419 -8.924265
19.134090 14.463734 -0.520847
14.787627 -6.516458 -20.124034
13.634881 19.387342 -11.562999
15.157932 18.475390 -30.139178
5.226358 21.025818 -58.993298
21.327916 2.847636 1.998895
19.070981 14.557930 4.256698
0.064223 -7.354931 -53.810755
-8.239084 7.582989 -43.174281
16.102396 -5.568719 -30.749633
-0.402552 -7.113614 -58.829045
-5.498763 -2.637965 -37.136378
-8.153210 3.935343 2.223433
-3.974500 16.648019 -37.932749
-0.625206 19.188563 -30.428710
-4.851126 15.673920 -42.799562
0.509339 19.761800 -60.543796
-3.877129 -4.548820 -53.688135
-6.260640 -1.473959 -27.171571
-1.940043 18.363550 -9.417165
12.236785 -7.828366 -45.198152
2.639573 20.539056 -12.349261
1.759092 -8.064553 -58.857161
13.251613 19.578303 -15.382200
-0.066226 19.491491 -10.885432
21.667173 6.739653 -19.198333
-1.488101 18.668586 -49.977570
-7.796011 2.213506 -20.510909
9.988302 -8.531851 -32.448559
9.740523 20.778688 -11.318812
19.688302 13.567987 -22.657897
17.962173 -3.790245 -34.865789
-5.305539 15.101111 -45.182835
16.551417 17.394419 -28.367470
-7.960178 9.332865 -36.779296
21.296520 2.717491 -40.960538
-2.269694 18.124439 -38.075546
21.010842 10.526292 -48.748271
-0.594168 19.205594 -37.954922
12.101173 20.079521 -20.216878
12.296910 -7.804612 -57.000225
12.068682 -7.894781 6.286758
16.729941 17.233493 -21.569724
13.120475 -7.442835 -18.714523
16.143172 17.732663 4.286284
-8.050401 8.861823 -19.430174
17.119862 -4.669855 -10.877953
15.320434 -6.159324 -7.137440
14.076811 -6.946913 -55.608697
19.357331 -1.914017 -56.865896
-8.226541 7.681660 -29.167801
19.987620 -0.826240 -44.897919
1.627674 -8.021742 -12.820400
13.456770 -7.284897 3.600825
2.526495 -8.312033 -50.265914
21.551664 4.155168 -16.028723
19.519771 -1.658467 -38.961097
21.677916 5.888984 0.268068
-0.815888 19.083931 -34.808323
-6.283384 13.628730 -48.068469
-8.249477 4.705664 -30.828496
-2.226740 18.155596 -28.700572
-4.658743 -3.709482 -29.225055
-7.798322 2.222534 6.841550
19.320836 14.168964 -7.947749
14.745265 -6.543297 -33.110810
12.093016 -7.885167 1.748713
-8.255730 7.382731 -36.784715
20.974913 10.637151 -18.486512
19.175791 -2.199614 -4.655871
18.431152 -3.224185 -48.212861
10.356374 -8.437649 0.301955
15.510697 18.218662 -33.283624
3.594042 -8.574334 -6.621713
6.465804 -8.893742 -31.286792
12.165973 20.053805 4.607630
-4.279674 -4.126038 6.678841
16.857745 -4.915623 -8.350671
-7.047240 0.070751 -48.786092
10.083207 20.705496 -29.960248
6.246769 21.091658 -3.483023
20.976488 10.632290 -53.898068
18.673893 -2.907289 -15.409311
11.138947 -8.218311 -22.876869
14.314270 19.013171 3.770359
21.518017 3.890418 -34.222615
10.266701 -8.460600 -20.469207
13.770855 -7.114799 -27.420143
16.088883 17.777644 -38.946736
12.737528 19.820685 -55.335717
5.109652 -8.814243 -11.787731
0.989552 19.968620 -29.029391
19.294583 14.210403 6.639597
-7.877351 9.667054 -4.456747
-8.257215 4.830198 -59.151539
12.868381 -7.561228 -47.277683
16.103531 -5.567781 -17.311217
8.009830 21.037344 -2.554290
19.658360 -1.424062 -2.513521
-7.751809 10.154518 -29.187275
-8.193081 7.944871 -23.467719
5.820162 21.066464 6.737103
13.334438 19.539253 -27.016654
-3.781337 -4.638909 -49.080173
1.824247 20.283539 -51.427604
-2.639360 17.842182 -56.418788
1.078040 -7.806034 0.111917
21.474194 8.583295 -17.175835
19.049039 14.588177 -55.090411
20.008085 -0.789082 -42.872539
-6.269783 13.653423 -43.776717
6.956921 21.091106 -15.804386
20.742785 0.875797 -47.592745
-6.135552 -1.678515 6.620850
-3.137263 -5.232835 -33.457487
21.461573 3.545441 -26.747494
17.394947 -4.398000 -23.287422
4.493751 -8.735949 -17.625998
21.463263 8.640834 -8.795074
-8.253059 4.763315 -54.032529
-6.698715 -0.671386 1.400500
11.947047 -7.942837 -38.558386
3.020534 20.636557 -48.272427
-3.514658 17.086894 -34.578158
19.542768 -1.622288 1.517245
-3.567226 -4.840274 -18.297595
14.117436 19.121577 -31.850633
-7.456846 1.106279 -7.760647
4.382288 -8.721780 -35.505624
19.559740 -1.595588 -32.552804
12.767285 -7.608707 -40.800267
3.571290 -8.569976 -15.143114
-7.372656 0.879166 -58.922361
-6.035607 14.033928 -11.692478
21.459967 8.658186 -11.265729
16.689596 -5.073284 -19.659497
-8.219192 4.460795 6.853426
21.647945 7.048945 -37.790038
-7.903658 9.564910 -11.875515
14.742713 -6.544914 -5.292498
8.306357 21.005905 -48.591761
-2.719465 -5.578994 -31.151835
-1.869791 -6.217744 6.210084
19.393930 14.053588 -5.457787
12.901211 -7.545810 -33.341033
-4.180520 16.428968 -20.169338
20.983935 10.609312 -1.023340
-7.704185 10.330024 -39.273439
-2.428603 18.009176 -21.068458
7.760510 21.053218 -10.275225
21.547169 4.119801 -21.390425
20.176704 -0.442832 -34.261797
-8.039374 3.277842 -16.070811
14.391359 -6.767520 -17.208760
4.711503 -8.763630 -26.468153
16.431407 17.493851 -0.229328
-6.072246 13.976288 -32.784487
-4.728579 -3.624937 -33.964880
7.392586 21.076643 -24.554266
-1.892891 18.397752 -26.834910
4.703902 -8.762664 -44.700064
8.255192 -8.814538 -0.046556
3.774643 20.806449 -56.966183
13.969253 -7.005932 -43.795009
-7.539204 10.836455 -35.482790
1.244485 20.069336 -32.930885
21.637809 4.989584 -13.482658
12.525360 19.911182 -23.828729
3.917209 -8.636224 3.335105
-7.078890 12.059880 -33.019729
-8.250556 7.463986 -4.831382
21.382828 3.134327 -28.983087
18.839390 -2.679880 -51.398348
6.485713 -8.893756 -60.678281
-3.029380 -5.322219 -27.829360
5.862512 21.069097 -0.339518
13.217351 19.594457 -29.953533
20.750460 11.300850 -30.371650
-0.574375 -7.018984 -27.009991
16.088705 -5.580028 -3.617580
3.765613 20.804734 -18.982821
2.607833 -8.332983 -52.313042
3.573142 -8.570331 -41.305534
14.093591 19.134709 -3.466808
-3.730541 16.884477 -60.599227
2.716882 -8.361072 -19.100917
-8.173676 8.097521 -34.680378
20.825868 1.102234 -43.854365
-3.141336 -5.229460 -51.008901
8.900556 20.930367 6.494114
21.651472 6.992204 -26.416131
-8.295533 6.757611 2.025990
2.463413 -8.293993 -17.130439
-7.865525 2.485117 -29.098465
11.339002 -8.153473 -4.384807
-0.776247 19.105683 -24.536108
-8.007740 9.084554 -8.874461
-2.250831 -5.940438 -38.919445
-0.040346 -7.305631 2.069576
-2.695784 -5.598615 -44.442707
20.964397 10.669598 -12.443975
-8.249171 4.700747 -8.615063
20.105300 12.792875 -49.647634
18.163931 15.744383 1.608320
9.177958 -8.688524 -56.673259
18.095399 15.827351 -20.150032
20.376333 12.215748 -17.056839
18.087241 15.837226 -2.502526
-8.085241 3.519281 -4.372493
18.167549 -3.542355 -31.392854
1.636710 20.222759 -46.224251
20.171900 12.651060 -57.784963
0.334126 19.679513 -8.269446
17.791271 -3.976629 -4.359996
20.625746 11.616545 -33.891590
-5.167967 -3.092997 -7.762182
21.610552 4.618526 -19.479299
21.677842 5.794247 -31.724080
12.491656 -7.727671 -31.210858
14.264859 19.040384 -60.103077
-8.273591 7.102210 -54.779134
-3.847945 -4.576267 -23.164109
-2.669226 17.817511 -5.021651
-6.243108 13.701851 -57.854284
4.302197 -8.709954 6.423334
20.672392 11.498468 -38.207845
1.970888 20.331065 -4.643224
-2.958631 -5.380838 -0.514541
1.343351 -7.911323 -6.899545
15.561212 -5.984670 -15.053464
-7.155043 11.867962 -50.556884
14.972920 -6.399062 -53.581452
13.191444 -7.409505 -10.778898
16.578736 17.371785 -5.368022
21.343576 9.270856 -41.138909
-3.911144 16.715138 -16.859485
1.129073 -7.826286 6.053844
-8.086193 3.524290 -10.972388
2.214668 -8.212962 -21.416149
6.732629 21.091281 -31.390759
16.791912 17.175211 -12.328886
20.445067 12.069387 -52.068212
-3.963978 16.659207 3.539147
0.429320 19.724220 -2.797955
12.377154 19.969998 -57.536376
-5.236176 15.196427 -36.845021
-6.887683 -0.269003 -41.323691
-1.580321 -6.412299 -57.270629
-7.999930 3.070208 -56.015198
11.561708 -8.081295 -12.588786
15.529138 -6.007935 -23.920285
8.474899 -8.786943 -34.101953
-4.032567 16.586280 -49.693744
-6.178389 13.809304 -50.115791
-7.714111 1.900073 -12.389637
2.139017 20.385555 -9.494902
-6.641320 12.978884 -35.954999
13.863651 19.261348 -49.866728
20.326021 12.322879 -43.188173
21.566302 7.926374 6.812556
0.275194 19.651835 -54.209043
-7.540859 1.365502 -15.229689
1.917252 20.313682 -37.373813
6.143123 21.086542 -41.923057
19.279190 14.234700 -51.307285
2.717480 20.558995 -2.633760
0.051366 19.546717 -58.424723
3.990466 20.847444 -22.413050
-1.615271 -6.390084 -16.303317
-7.710569 1.889143 -43.187158
21.646528 5.126518 -6.383719
7.833956 -8.851455 -39.113806
-7.374289 11.315429 -26.668756
21.367366 3.053599 -48.779716
15.906563 -5.730488 -50.283839
8.624082 20.965514 -50.902878
8.205444 21.018734 -17.603605
-8.285526 6.914771 -8.127003
13.837412 -7.078277 -35.378063
-1.057856 -6.744396 -43.630593
-6.317400 13.566973 -38.585798
16.212991 17.674817 -47.341879
-1.700405 18.534072 -60.166798
14.208094 19.071647 -56.824315
-3.816990 -4.605378 -15.177785
3.834564 20.817831 5.774280
-8.218046 4.451676 -20.934264
20.052272 12.904731 -29.057815
-2.621473 -5.660184 -4.277694
-5.712892 -2.342784 -5.502635
3.186190 20.678953 -39.056658
20.772295 0.950167 -54.907311
-1.435177 -6.504558 -51.159216
-8.200662 4.313236 -18.711013
-5.075579 15.403018 -56.625065
5.937924 -8.876681 -3.405068
-1.735229 -6.313834 -48.796505
-4.019726 16.599933 -55.196684
2.347082 20.452988 -58.534250
-5.290378 -2.925229 -26.187872
5.718341 21.060134 4.646688
17.337772 16.657098 -10.467082
-2.562686 17.905520 -18.120498
-4.462625 -3.930908 -2.454934
1.064212 19.998115 -49.534779
11.683135 -8.041941 -25.096821
3.415902 20.737744 -0.403506
20.700041 0.768074 -27.401135
21.160578 10.008786 -32.034047
21.631568 4.891572 -53.299869
17.325254 -4.472098 -43.836895
21.668390 5.469876 -28.982969
15.478108 18.242379 -9.025083
6.422436 21.091522 -49.627514
6.714540 21.091295 2.921322
19.283005 -2.030946 -18.835380
-0.332406 -7.152247 -14.281472
1.415290 20.136816 -26.786731
11.694895 -8.038130 -1.580286
-7.473550 11.037989 -6.012997
15.916463 17.920499 -35.407281
-6.916138 -0.208413 -23.972782
12.543529 -7.707176 -20.866808
-4.696166 -3.664177 -57.257273
18.789021 -2.749092 -22.305063
-7.092251 12.026208 -4.295596
-6.092491 13.944438 -22.948546
19.894522 -0.995274 -11.395446
-6.726743 -0.611704 -6.525433
-3.942465 -4.485697 -43.140301
7.776609 21.052193 -39.703866
2.557257 -8.319956 -61.096484
-0.735768 -6.930097 -4.744584
-8.179527 4.144919 -37.564583
13.387332 -7.317508 -13.159701
-7.967642 2.900250 -6.575052
-5.109844 15.361662 -60.504385
15.459078 18.256228 -41.517298
17.029601 16.951671 -41.205651
-7.433371 11.161325 -9.915399
-5.550281 -2.566947 3.583371
18.688986 -2.886549 -60.928438
-8.135826 3.796904 -42.252589
4.221287 20.891287 -4.682593
11.020179 20.454685 -4.889224
5.650476 -8.858379 -5.638804
21.351995 9.226541 2.744888
18.869196 -2.638923 -9.400531
21.649137 7.029775 -60.988694
21.624690 7.423009 -12.936542
16.971145 17.006648 6.868815
18.112447 15.806712 -5.467317
7.298658 -8.884700 -58.686178
4.791420 20.971190 1.541425
11.841996 -7.984341 -52.183704
1.045242 -7.793018 -28.462474
21.664609 6.780889 -42.885565
-6.023253 -1.855764 -33.829530
-2.716265 -5.581645 -46.635818
-0.212746 -7.218149 -60.994179
20.833641 11.073047 -36.120107
21.678397 6.507537 -48.017323
16.552122 -5.197218 -32.786471
21.011401 10.524565 -44.064634
-4.888540 15.628764 -27.880771
-5.893337 -2.060818 -50.992738
-1.252880 18.817620 -1.428681
-7.676106 10.416216 -24.730424
-0.043484 -7.304152 -31.645898
8.517538 20.979059 -35.855014
19.453954 13.958843 -3.207455
-8.274044 7.095095 0.005849
4.923105 20.987730 -40.294071
-8.180958 4.156321 -44.634045
-7.935773 2.759592 -46.215580
-2.293476 -5.909403 -41.641464
16.055946 17.804934 -56.537701
-6.368783 -1.276893 -54.438407
6.927687 21.091129 -45.941015
8.611499 -8.769786 -30.986257
-7.791376 10.000885 -2.208180
17.176763 -4.616504 -15.673894
-8.298338 6.713555 -19.100524
18.064954 -3.666187 -25.136638
13.332922 -7.343061 -23.465581
14.440877 -6.736147 -48.464163
21.367665 3.055160 -51.378729
17.359132 -4.436079 -52.802826
-8.306840 6.476812 -10.085083
21.073021 1.860901 -14.733391
-4.349956 16.248816 -8.111144
-4.602991 15.973405 -32.696051
-7.009637 12.207792 1.836379
5.894375 21.071078 -18.199471
6.981594 -8.894109 -55.488052
-7.789528 10.008060 -44.328384
-8.132072 8.424793 -48.163101
-5.076221 -3.204068 -47.355169
1.817880 -8.083704 2.951482
1.682316 20.237540 4.444068
20.404147 12.156521 -10.547330
8.959681 -8.726054 2.247288
21.358435 9.192641 5.023678
21.511298 3.837552 -43.209960
21.590475 4.460554 -47.199898
18.456847 15.389767 -60.101013
20.836384 11.064581 -20.484322
8.261367 21.011625 -33.071077
6.485398 -8.893756 -8.175956
1.979720 20.333927 6.662050
11.467667 20.308916 -48.601257
-1.654939 18.562878 -43.197367
5.557159 -8.852437 0.496509
21.277156 2.642311 -9.476133
20.186207 12.620594 2.606569
-4.687658 -3.674477 -9.651432
3.641357 20.781132 -27.591352
17.513375 16.469813 -48.812719
12.938707 19.725833 -36.349962
8.475810 20.984363 -8.197099
-8.266044 7.220743 -2.480413
3.874431 -8.628032 -24.414984
21.632980 4.913751 -3.527093
13.681761 -7.163687 -8.413572
20.282651 -0.218113 -14.651801
17.957213 15.994644 -42.827096
-4.175432 16.434378 -3.252017
-7.534029 10.852342 -14.319141
10.087051 -8.506578 -16.019810
12.614261 19.875902 -6.957614
9.504466 20.823896 -52.827607
11.692937 -8.038764 -8.798014
-8.306974 6.297829 -21.591890
4.596447 -8.749004 -54.580452
11.000499 -8.263181 -55.159622
-4.039721 16.578673 -52.166800
21.375125 9.104788 -52.108092
14.913749 18.633531 -6.826499
7.093405 21.091000 -53.718489
21.084398 1.895827 -22.833946
2.990429 -8.431530 -46.554503
19.227072 -2.118939 -13.352748
-2.472299 -5.779262 -6.439797
-6.554707 -0.938087 -3.618293
-7.464994 1.131421 -22.222328
-2.929940 17.602146 1.754278
20.031890 -0.745861 -9.242675
21.383303 3.136807 -7.398314
4.634584 20.951491 -37.037134
-5.049637 -3.236251 -59.787750
-8.307021 6.233959 -51.786247
21.208309 2.375023 -53.479929
19.025805 14.620206 -47.991583
21.284341 9.525211 -38.259785
19.868949 13.238795 -26.863720
21.678100 6.125335 -23.328899
6.032025 21.079636 -33.451046
-1.788440 18.473515 -11.990125
20.747859 11.307435 -41.216915
19.764563 -1.231234 -16.427674
-0.391299 19.316913 -45.023398
5.435654 -8.844701 -21.419668
17.389701 16.601715 3.292209
15.040677 -6.356133 -40.845966
-6.466967 13.295427 6.578740
7.151880 -8.893815 -27.216965
3.275122 -8.504860 -4.408517
20.871554 10.956066 -27.445775
-2.408638 -5.825593 -14.057436
-5.046523 15.438088 -15.725014
18.705203 15.062163 -57.335645
10.164415 -8.486778 -6.135079
19.203701 -2.155706 6.819298
19.162477 -2.220561 -24.324114
9.412921 -8.643895 -2.259612
5.544658 -8.851642 -14.343893
-7.101499 12.002902 4.094769
18.784975 -2.754651 -42.446558
2.005637 20.342327 -55.230321
0.992557 -7.772110 -48.496846
18.273677 -3.414258 -7.504415
-2.094893 -6.053923 -53.126630
10.497130 20.598880 -39.048251
-5.706842 -2.351123 -42.981547
-1.820475 -6.253634 -36.014934
15.637507 -5.929328 -12.719495
9.128803 -8.697861 -18.481749
-8.307399 5.727359 -6.171266
15.309465 -6.167280 -36.400707
-5.176260 15.278763 -5.369475
6.744420 21.091272 -13.356691
-6.991600 12.246050 -21.382123
17.577159 16.401787 -55.059723
-7.294860 11.515603 -54.720532
10.690624 20.549041 -54.834848
-7.638776 1.667626 -0.490072
20.688396 0.738728 -41.046146
14.476413 -6.713633 -60.536600
18.162950 15.745570 -37.226286
21.161361 2.192753 -5.552586
-2.390755 18.036628 -31.208303
19.100116 14.517360 -38.755022
19.788826 -1.187182 -55.036939
21.514931 3.866132 0.127562
-5.171599 -3.088599 -49.400555
-5.680855 14.585361 -20.246705
-8.156689 3.963046 -14.015423
-2.841304 17.675365 -48.494943
8.605990 20.967814 -55.310343
20.024023 -0.760146 -58.489468
-0.206893 -7.221372 -37.339461
-8.307259 5.914590 -25.599294
18.389469 15.471337 -30.940373
-8.133216 8.415799 -50.396957
-6.943278 -0.150623 -32.405590
-7.217763 0.487079 -27.874496
16.874367 17.097664 -7.641569
-7.973193 9.264916 -54.499760
2.793559 20.578466 2.403366
21.559784 7.978279 -50.120886
-6.433788 13.355665 -18.546828
19.775344 13.409372 -60.749355
21.511929 3.842515 -37.163123
5.775564 21.063692 -27.504141
4.004702 20.850148 -42.167545
9.361292 20.851315 3.353901
-6.337161 -1.334518 -58.351507
-6.108043 -1.721934 -56.471514
0.518136 19.765931 -0.700000
20.312997 -0.153749 -18.654678
15.930773 17.908643 -16.349258
16.962252 17.015011 -32.340580
10.577110 -8.381156 -29.388253
6.422347 -8.893711 -53.137186
12.221319 20.031841 -50.762395
-6.978324 12.274209 -40.400112
-0.773608 -6.909257 0.036229
-7.927300 2.726486 -58.132323
20.703152 0.775915 2.193989
19.459344 13.950334 -24.652906
-6.591914 -0.870285 -20.990827
-8.035857 8.937758 -13.896174
-8.230427 4.550273 0.023865
20.222850 -0.344955 -24.526110
4.382218 20.919794 -50.350583
19.057791 14.576113 -13.716372
12.302009 19.999819 -13.420629
-2.303676 18.099791 -35.963717
15.356804 18.330659 6.336262
7.716601 -8.858743 -20.176563
3.251326 20.695624 -25.569972
-5.150121 15.313050 -47.453645
8.058876 21.034222 -58.392275
-5.748785 14.485155 -13.866152
-2.804241 17.705981 -1.189542
16.771899 -4.996114 -48.564676
5.817209 21.066281 -21.111097
5.430367 21.042231 -55.399758
-6.257261 13.676156 -28.284175
20.361919 -0.049982 -36.553037
-6.769978 12.716123 -60.161622
1.203564 -7.855848 -42.996056
-5.075265 15.403397 6.856289
21.623410 7.443600 -56.838023
-7.279172 11.555140 -42.255131
-4.012499 -4.411000 -20.353840
-8.091857 3.554107 -26.444814
-8.095768 3.574693 -33.121488
-8.208850 7.820822 -57.671088
11.234985 -8.187185 -34.192099
2.397176 20.469223 -60.702389
-1.051194 -6.748631 -46.922281
-8.302520 5.559339 -3.459588
19.968319 13.057716 -39.653134
-1.163374 -6.677325 -33.401021
-8.291777 5.386438 3.978960
18.260240 15.627787 -27.875639
-5.917841 14.219197 -25.358402
17.448175 16.539351 -58.756864
16.279356 -5.422540 4.206738
-8.307216 5.972873 -35.357318
18.024033 -3.715579 -17.443405
20.163008 12.669993 0.520289
21.651487 5.204409 -50.852909
8.043452 -8.838444 -9.930706
7.346308 21.079590 -6.273067
10.302933 20.648900 -13.890206
9.120702 -8.699399 -47.934846
18.321820 -3.356149 -0.097221
-7.647361 1.694114 -24.589621
16.997218 -4.784850 -27.953028
1.028561 -7.786398 -25.923970
15.723059 18.064113 -49.275731
-0.480179 19.268143 6.561876
7.271600 21.084346 -43.684749
2.476386 -8.298219 -11.047988
12.648392 -7.664544 -16.753217
-5.443552 14.911456 -39.996824
20.689794 11.454417 -45.893655
17.795938 -3.971666 3.297354
-3.726441 -4.690537 -7.539649
13.982162 -6.998849 -38.750457
1.709715 20.246420 -14.204300
18.557372 -3.067401 -20.402813
9.664225 -8.596163 -8.546026
12.668878 19.853052 -53.389287
-5.217764 -3.025329 -39.815184
-2.164603 -6.003192 -11.327293
21.292021 9.495205 -28.778202
-5.553478 14.760399 -52.186854
1.959490 20.327371 -35.055744
21.626555 7.393012 -58.821429
-5.069435 15.410434 -30.712194
-8.221040 7.724934 -59.855659
21.075709 10.326145 -58.195869
21.677909 5.879685 3.587853
17.119437 -4.670254 -6.153037
-6.439545 -1.147944 -1.100246
-5.246130 15.182750 4.525679
16.339765 -5.372638 -60.042480
20.478783 0.210470 5.723004
-7.530016 1.332045 1.515569
5.946872 -8.877251 -39.581891
4.518959 20.936969 -29.647218
1.489959 -7.969504 -14.992322
5.228559 -8.829359 -56.547965
14.162806 -6.899725 -50.992093
4.087524 20.865879 -46.322090
21.593716 4.486055 -24.880463
19.696230 -1.355305 -50.011808
-0.508939 -7.055022 4.694150
16.544788 17.399912 -14.480379
15.407801 -6.095950 -1.766146
-3.361396 -5.033851 -35.503788
-7.029174 0.032282 -34.819277
17.704054 -4.069358 -37.283383
2.089955 20.369654 -16.867344
9.565915 -8.614836 -11.714998
-3.804276 16.815340 -22.552002
19.260531 -2.066303 -27.711216
10.155196 20.686954 -57.179278
6.575060 -8.893820 -23.033321
9.853511 20.757049 -47.059500
2.399985 20.470134 -20.738312
-1.029383 -6.762494 -29.150018
21.558957 7.984863 0.710123
21.664480 6.782966 -45.603578
-7.996381 9.143854 -6.630914
-6.420219 13.380300 -45.900128
9.749520 20.776965 -59.800378
16.415546 -5.310038 1.335390
-7.246982 0.561042 5.978588
18.170593 -3.538682 -28.947929
21.633443 7.282223 -33.774385
1.217129 -7.861231 -9.233776
-2.370030 18.051661 5.114987
13.174771 -7.417335 -0.111138
11.861323 20.174705 -59.660731
6.453391 21.091498 -38.005986
-3.734685 16.880591 -10.698559
9.335080 -8.658681 -24.998881
-7.996783 9.141759 3.153739
17.395704 16.595312 -17.322908
-7.709963 1.887274 -61.023341
6.547803 -8.893800 4.882732
-6.792787 12.667742 -14.102992
-3.959039 -4.468019 3.587975
-8.307193 6.003573 -33.344688
-7.317487 11.458580 -37.472887
21.435666 8.786106 -44.970143
14.711394 -6.564757 1.825700
14.612539 18.824991 -54.044249
14.884101 18.652376 -27.942975
8.386091 20.995769 -19.913378
12.549558 19.901579 -18.001079
16.092112 -5.577214 -58.079233
-2.942537 17.591740 -24.398792
-7.508312 1.265077 -36.604425
9.758019 20.775337 -23.983729
17.734420 16.234065 -46.682883
12.347143 -7.784765 -6.721057
18.957044 14.714995 -18.125618
15.169807 18.466748 -21.966933
-8.298848 6.705547 -49.062953
9.324424 -8.660705 -27.075675
-8.102997 8.587230 6.234279
9.232666 -8.678133 -59.242362
-0.010556 19.517636 -47.632151
21.627713 4.831024 6.479912
6.435144 -8.893720 -33.851079
-6.620900 13.015958 -30.512672
14.480699 -6.710917 5.925697
-6.428712 13.364882 -6.835805
10.609203 -8.372942 -60.677006
12.124364 20.070318 -0.101343
1.709274 20.246277 -44.051926
17.648968 -4.127925 -50.306191
-2.801782 -5.510792 -9.365823
-4.290010 -4.115015 -4.795924
20.629742 11.606428 -6.090194
20.885136 10.914159 -56.168897
16.412572 17.509457 -2.355658
12.750158 19.814730 -39.268358
21.624688 4.783511 -57.218921
1.682183 -8.039499 -23.978943
0.409291 -7.517619 -51.682670
0.860594 19.917672 -39.086757
20.151299 12.694927 -53.950608
21.639597 7.183224 -53.465611
13.897923 19.242473 -19.629543
21.533396 8.188418 -20.819238
9.428262 20.838490 -1.159134
-8.018136 9.030276 -41.100113
-0.435361 -7.095545 -21.505558
0.003703 19.524332 -18.984075
4.600234 20.947177 -52.551141
21.467542 8.618308 -1.378126
-6.170790 -1.622896 -17.328937
10.352597 20.636108 0.722821
-1.187882 18.858802 3.342163
13.401460 19.507654 -41.315339
21.677863 5.820298 -17.433218
-7.642644 10.518931 -60.171960
7.743788 21.054283 0.664676
20.860478 10.990242 1.272393
3.882749 -8.629625 -8.990305
-0.250868 -7.197153 -55.929128
-2.377273 18.046407 -51.672618
19.450232 13.964717 -41.808727
10.245493 20.663695 -32.135609
18.867698 -2.640982 -36.334289
8.261649 21.011589 -22.086797
14.451151 -6.729638 -58.063467
-7.772013 2.119738 -54.085503
-7.822188 2.315787 4.334696
