15.978908 -34.020932 -51.096445
43.297088 -50.543451 -50.153476
48.557679 -50.314846 -21.283435
15.922459 -33.927440 -27.616340
17.352350 -36.216022 -16.912302
37.139330 -49.708835 -12.496153
15.364177 -32.911725 -35.837228
12.677232 -24.835413 -18.885388
12.853934 -25.755062 -24.246125
41.349096 -50.387321 -21.556942
42.292523 -50.466169 -58.442743
44.580993 -50.540323 -6.412893
20.006761 -39.581474 -6.559072
57.953148 -47.697249 -7.692001
41.821758 -50.426824 -24.839380
43.559375 -50.542812 -32.108851
15.373385 -32.930434 -19.793993
42.014266 -50.442913 -54.884735
44.005758 -50.541725 -57.447723
30.650729 -47.465570 -5.077878
36.515165 -49.546084 -16.696595
21.489327 -41.125834 -17.824635
19.313355 -38.782647 -13.781105
13.487408 -28.633598 -60.533004
28.938216 -46.612891 -60.921746
24.911421 -44.079542 -46.401961
58.297180 -47.538793 -46.957343
43.076186 -50.531664 -4.254395
40.243167 -50.281343 -31.140774
25.249305 -44.309918 -28.856137
20.102368 -39.691616 -30.547989
41.362053 -50.388404 -54.566696
24.395559 -43.671358 -37.910447
37.042354 -49.683549 -19.869984
18.855083 -38.254702 -56.042999
12.968633 -26.352020 -18.632167
15.215918 -32.610480 -39.252981
26.487495 -45.154139 -29.272805
24.594161 -43.833366 -58.131527
12.858700 -25.779871 -0.624730
49.568167 -50.164437 -6.399599
24.363056 -43.644845 -25.215885
23.126611 -42.636224 -4.742896
24.421854 -43.692808 -60.520496
54.443508 -49.051475 -37.198584
50.792995 -49.949000 -52.951409
15.970832 -34.007556 -1.857587
28.233311 -46.216208 -2.531056
12.612321 -24.497578 -28.126310
29.194048 -46.756859 -34.439340
12.727759 -25.098381 -8.399920
12.331141 -23.034168 -35.239024
21.230114 -40.874433 -5.216184
13.117702 -27.127855 -59.954330
37.394600 -49.775397 -1.103253
17.973608 -37.069840 -59.796581
27.480975 -45.792835 -21.345954
25.372566 -44.393960 1.987390
43.020299 -50.526993 -60.362878
15.205446 -32.589203 -19.399937
41.080362 -50.364861 -16.035847
53.857725 -49.211891 -0.103312
24.319948 -43.609679 -32.324787
16.650231 -35.132784 -50.407093
42.541053 -50.486940 -23.188094
24.738724 -43.951293 -18.352986
58.175615 -47.594784 -24.521176
49.218340 -50.225969 -26.882622
30.408436 -47.355404 -19.113482
13.085157 -26.958469 -22.489863
35.707051 -49.335368 -41.368230
52.725565 -49.512987 -17.787159
48.049940 -50.359783 3.342897
36.657059 -49.583083 -38.197733
33.765920 -48.725565 -17.060735
23.258602 -42.743894 -58.007862
59.473017 -46.997220 -31.125385
12.425642 -23.526005 -59.727769
56.323153 -48.374300 -46.985383
18.508470 -37.804922 -50.605151
15.165301 -32.507632 -10.352617
42.027953 -50.444057 -59.720670
13.497879 -28.660472 -32.534592
25.947886 -44.786223 -31.466357
58.040462 -47.657034 -47.512889
27.618598 -45.870282 -30.871091
21.454138 -41.091705 -14.286443
52.568878 -49.554658 -34.763621
30.542811 -47.416502 -33.438776
15.421904 -33.029020 -49.508667
13.993865 -29.933480 -60.843058
44.536358 -50.540432 -16.469874
22.778978 -42.352645 -52.378707
50.503388 -49.999940 -57.767838
12.436947 -23.584842 -29.372678
13.174151 -27.421642 3.864030
12.189089 -22.294858 3.100740
13.176507 -27.433904 -54.640583
30.752821 -47.511989 -25.829365
55.373965 -48.716262 -14.028782
58.049053 -47.653077 -29.921579
50.702498 -49.964918 -13.823740
23.104866 -42.618485 -39.009230
12.210747 -22.407574 -6.649068
17.828750 -36.870756 -29.937774
22.963008 -42.502766 -16.308433
16.692453 -35.202713 -15.736942
15.175053 -32.527447 -4.545983
18.923528 -38.333553 -4.496949
43.766143 -50.542308 -26.023591
57.950034 -47.698683 1.384626
51.739546 -49.775217 -19.160316
19.129793 -38.571177 -54.231505
28.955924 -46.622856 -28.169052
34.979958 -49.145778 -10.697877
45.946172 -50.536997 -47.383080
48.009419 -50.363369 -34.011335
40.843277 -50.345047 3.449774
15.641366 -33.461890 -59.062036
15.114948 -32.405321 -27.822762
24.730554 -43.944628 -60.017601
53.470826 -49.314786 -52.249616
13.317565 -28.168049 -52.489514
21.969390 -41.591428 -54.739149
37.915217 -49.883524 -43.019070
13.384711 -28.370014 -42.761406
12.537048 -24.105822 -14.505279
57.061543 -48.107909 -11.489830
25.197311 -44.274468 -17.678430
32.575407 -48.303213 -50.377969
38.871455 -50.046934 -35.244615
43.576875 -50.542769 -25.318633
29.620564 -46.996878 -31.121551
59.008479 -47.211179 -58.521651
42.375795 -50.473128 -14.928594
13.431394 -28.489829 -55.860796
52.986984 -49.443463 -43.958193
22.619798 -42.222233 -26.117947
25.581036 -44.536098 -51.524227
15.653730 -33.482369 -18.299315
59.595096 -46.940992 -43.935923
43.630485 -50.542639 -56.329165
14.090744 -30.182130 -8.760591
58.249025 -47.560973 -1.831074
51.002382 -49.912171 -13.090514
53.377299 -49.339660 -49.305637
19.750889 -39.286701 -25.862645
21.574184 -41.208134 -21.340891
16.321347 -34.588083 -20.837190
49.898663 -50.106306 -7.027966
34.155892 -48.863913 -14.035506
31.980540 -48.070209 -12.232557
54.381662 -49.072551 -47.847931
12.829355 -25.627139 -30.331910
33.008014 -48.456687 -0.368275
27.564824 -45.840021 -13.419104
24.376755 -43.656019 -23.605606
54.515590 -49.025506 -31.385440
51.192171 -49.878789 -8.125309
42.569781 -50.489341 -31.208197
13.136474 -27.225553 -39.116922
50.296031 -50.036412 -48.485209
19.548183 -39.053177 2.681738
43.207162 -50.542610 -21.927220
30.670175 -47.474412 2.980752
58.213285 -47.577434 -12.673160
33.242166 -48.539755 -17.081265
55.953362 -48.507523 -12.479286
35.754873 -49.347837 -28.110288
38.081663 -49.911968 -47.589426
26.288865 -45.018709 -31.068387
17.571156 -36.516736 -39.922471
25.050334 -44.174256 0.501307
12.144291 -22.061703 -54.774575
58.258832 -47.556456 -59.707932
40.360313 -50.301362 -23.677136
35.797317 -49.358905 0.091419
19.201413 -38.653686 -55.880118
31.678534 -47.932893 -47.179332
49.341735 -50.204265 -55.840585
47.478634 -50.410345 -29.973030
49.532172 -50.170769 -41.037980
18.254539 -37.455935 -38.016141
23.136842 -42.644570 -13.043351
15.972273 -34.009943 1.869900
35.900537 -49.385819 -7.616336
18.293612 -37.509634 -51.921022
15.407816 -33.000395 -50.172479
26.522632 -45.178096 -23.436147
26.047831 -44.854368 -39.240083
39.045088 -50.076606 -31.026588
12.202191 -22.363042 -22.374767
18.131121 -37.286317 -57.752695
13.301273 -28.083253 -41.485060
28.654898 -46.453455 -5.323320
49.874830 -50.110498 -33.219726
19.823146 -39.369943 -54.784964
17.563237 -36.505851 -60.727207
58.633388 -47.383941 -19.769471
20.571993 -40.232640 0.903082
31.945484 -48.054270 -55.699873
49.345998 -50.203515 0.871817
12.953753 -26.274576 -29.481731
39.704311 -50.189259 -2.303364
39.076408 -50.081958 -10.268233
35.773132 -49.352598 -55.004953
58.645366 -47.378423 -37.933034
23.444846 -42.895822 3.266661
47.040324 -50.449136 -4.495172
38.242781 -49.939501 3.865568
36.321918 -49.495695 -22.105337
44.937380 -50.539455 -4.647596
21.289499 -40.932029 0.891525
12.754184 -25.235911 -36.586655
16.121088 -34.256412 -0.827608
14.472410 -31.099759 -42.186772
25.349095 -44.377957 -32.364191
30.102445 -47.216275 -22.723230
13.301456 -28.084207 -25.327142
32.391242 -48.237878 -38.131037
20.089163 -39.676403 -20.103199
15.175152 -32.527649 -7.307130
17.609681 -36.569681 -58.524772
15.342199 -32.867068 -45.319847
23.592679 -43.016416 -42.591501
59.595255 -46.940919 -14.702907
52.410961 -49.596656 -23.194292
39.344973 -50.127853 -59.014868
14.576912 -31.312096 -8.976834
52.558461 -49.557428 -0.844826
24.554974 -43.801400 -12.038207
34.630968 -49.032453 -12.900583
15.481004 -33.149104 -20.343622
13.770524 -29.360247 -12.545401
23.601702 -43.023776 -34.994533
41.662715 -50.413532 -18.004894
48.482285 -50.321519 -6.968762
32.320390 -48.212742 -15.776635
12.173818 -22.215377 -58.003895
26.148972 -44.923328 -28.867084
13.736300 -29.272408 -8.922001
20.282441 -39.899066 -47.359797
40.200473 -50.274047 -32.267145
21.379275 -41.019098 -12.462102
19.374688 -38.853305 -34.848276
12.366585 -23.218638 -54.477966
55.396614 -48.708102 -31.384013
46.645527 -50.484077 -53.190228
15.232997 -32.645183 -55.111688
23.315652 -42.790433 -46.441988
29.822247 -47.088875 -58.272367
12.544752 -24.145914 -43.901213
13.306569 -28.110818 -1.182930
21.641708 -41.273623 -25.476229
53.084059 -49.417646 -18.593416
18.697418 -38.064600 -19.547767
35.585073 -49.303562 -16.147299
35.483494 -49.277075 -44.790794
35.198524 -49.202769 3.739838
55.104083 -48.813491 -19.810744
25.057881 -44.179402 -20.144836
53.608103 -49.278278 -26.695315
12.320910 -22.980922 -60.881310
48.128504 -50.352829 -49.849343
12.564264 -24.247465 1.427184
16.770110 -35.331330 -52.895328
26.693766 -45.294779 -21.452277
35.873375 -49.378737 -39.022045
56.400817 -48.346320 -46.400505
30.447268 -47.373060 -23.080686
45.283334 -50.538612 -9.568921
38.591125 -49.999029 -56.417581
37.296129 -49.749721 -1.832241
28.256328 -46.229162 -37.799826
23.615640 -43.035146 -6.415179
39.816459 -50.208424 -28.499211
26.206405 -44.962487 -27.696809
52.031419 -49.697594 -55.210331
53.059663 -49.424134 -51.864502
28.689162 -46.472737 -2.444615
33.440611 -48.610157 -28.684643
16.457553 -34.813669 -31.889059
55.355234 -48.723010 -16.188629
34.246095 -48.895914 -58.122547
28.550512 -46.394712 -33.364891
28.641980 -46.446185 -28.815860
24.924175 -44.088238 -40.181570
12.909034 -26.041833 -3.720119
12.761164 -25.272238 -59.948265
13.657433 -29.069987 -46.777573
38.958331 -50.061780 0.870779
37.592446 -49.826985 -2.418382
12.729298 -25.106391 -8.919616
45.364380 -50.538415 3.840805
42.448483 -50.479203 -15.929605
21.420801 -41.059373 -2.227838
12.256115 -22.643692 -9.330995
40.085952 -50.254477 -25.907866
19.268748 -38.731258 -15.073431
15.417758 -33.020595 -60.606581
42.566271 -50.489047 -32.447967
16.363694 -34.658218 -26.884106
50.371596 -50.023121 -37.716508
17.194673 -35.999320 -48.134247
12.733233 -25.126871 -5.430044
35.735302 -49.342734 -20.985757
28.782242 -46.525117 -45.158260
12.973819 -26.379011 -52.998476
19.605733 -39.119476 -56.092240
26.535278 -45.186719 -45.963053
44.499576 -50.540521 -29.103775
45.502027 -50.538079 -44.527132
34.201952 -48.880254 -5.724249
14.659644 -31.480197 -60.774326
13.911195 -29.721297 -32.277488
31.178661 -47.705610 -49.642485
21.392308 -41.031739 -39.146409
31.628492 -47.910140 -3.935426
51.208785 -49.875866 -11.920166
38.558259 -49.993412 -17.872412
40.056354 -50.249419 -19.004868
13.965119 -29.859699 -45.312029
14.489786 -31.135066 -43.800155
13.747636 -29.301502 -16.177122
36.538707 -49.552222 -60.564362
42.820683 -50.510310 -59.828486
49.782272 -50.126778 -50.967945
42.884608 -50.515653 -23.758587
22.895574 -42.447757 -21.115917
40.032785 -50.245391 -59.938318
23.162951 -42.665868 -30.071224
20.704627 -40.364784 -60.521477
14.650710 -31.462043 -25.060994
20.293395 -39.911686 -16.523318
29.280783 -46.805669 -6.806782
39.349813 -50.128680 -6.154497
16.935246 -35.604829 -46.865088
33.887712 -48.768772 -20.200194
34.012280 -48.812964 -31.128487
34.572099 -49.011568 -6.665485
15.450649 -33.087427 -33.841863
40.252109 -50.282871 -41.879595
47.500049 -50.408449 -22.921888
42.345815 -50.470623 -0.567618
19.672292 -39.196154 -60.106423
55.025043 -48.841967 -0.346911
52.895639 -49.467756 -47.403940
12.107191 -21.868613 -6.425273
31.688669 -47.937501 -53.691331
22.541108 -42.145915 0.582417
18.985003 -38.404375 -48.365813
22.585564 -42.189031 -40.776752
13.061514 -26.835419 -49.812140
22.265728 -41.878835 -54.141868
53.679770 -49.259218 -39.970945
16.789807 -35.363952 -20.848490
30.208981 -47.264715 -27.834930
58.317259 -47.529545 -28.062018
33.296282 -48.558954 -12.488723
15.728776 -33.606660 -35.383503
40.494299 -50.315881 -26.865167
13.905294 -29.706151 -60.361169
51.302477 -49.859387 -30.336276
28.218220 -46.207717 -43.128508
29.666822 -47.018206 -59.387780
14.746398 -31.656470 -14.133794
17.053112 -35.800040 -29.954277
47.400348 -50.417273 -33.017136
42.165486 -50.455552 -16.419087
23.542299 -42.975318 -59.376178
27.660737 -45.893995 -43.116938
50.093185 -50.072091 -45.230948
59.189490 -47.127808 -22.339555
23.698970 -43.103121 -49.389864
15.397423 -32.979276 -17.967183
16.682719 -35.186591 -25.569531
14.402566 -30.957844 -49.140871
48.427001 -50.326412 -18.089600
59.616646 -46.931066 -56.580440
50.851164 -49.938769 -57.313793
48.320413 -50.335845 -22.988156
34.488599 -48.981946 -36.034636
17.054234 -35.801899 -59.703813
35.357860 -49.244316 -17.598653
17.041734 -35.781195 -28.988466
16.416434 -34.745566 -5.388177
25.019439 -44.153191 -0.006133
13.065418 -26.855737 -1.005944
46.501221 -50.496848 -24.433635
41.283500 -50.381839 -26.196464
22.659016 -42.254787 -3.633342
18.887699 -38.292277 -37.728023
13.695994 -29.168958 -13.103725
12.401368 -23.399669 -21.022914
16.925969 -35.589464 -40.439682
13.274638 -27.944630 -39.004199
19.444792 -38.934067 -22.084790
24.977592 -44.124659 -33.097923
43.226665 -50.543623 -30.643789
12.290989 -22.825196 -31.495105
45.197640 -50.538821 -12.752124
20.265889 -39.879998 -48.621218
44.823506 -50.539732 -8.605095
57.333440 -47.982677 -29.606862
53.453135 -49.319491 -23.242117
38.569199 -49.995282 -39.342620
48.450963 -50.324291 -20.630694
13.398154 -28.404515 -43.778395
15.089083 -32.352767 -24.192849
37.068550 -49.690379 -44.837146
46.609705 -50.487247 -31.481104
24.557285 -43.803286 -39.370548
12.491585 -23.869204 -31.832935
39.745133 -50.196235 -23.771235
28.480476 -46.355300 -37.256476
23.171788 -42.673077 -59.203076
13.733218 -29.264497 -59.338947
48.305799 -50.337138 -7.562221
25.033851 -44.163017 -47.363921
28.964683 -46.627785 -24.298088
25.636747 -44.574083 -38.062607
42.814879 -50.509825 -18.128511
55.452508 -48.687965 -35.749216
26.358329 -45.066071 1.901969
13.136746 -27.226971 -23.733998
12.293334 -22.837404 -11.167725
20.886084 -40.540772 -36.629261
35.518530 -49.286211 -61.065692
14.638160 -31.436544 -1.214702
12.579006 -24.324192 -30.204402
46.729485 -50.476646 -57.664556
29.205133 -46.763096 -23.624238
33.450182 -48.613552 -46.639182
13.076492 -26.913374 -31.232887
33.409266 -48.599036 3.566228
30.259730 -47.287790 -37.635559
27.004917 -45.506927 -47.060825
12.909074 -26.042042 -53.839751
12.941966 -26.213230 -23.960855
42.990307 -50.524487 -44.889566
22.161700 -41.777942 -22.911283
41.559430 -50.404900 -28.035897
16.507873 -34.897009 -16.369140
28.305717 -46.256955 -7.121793
33.910064 -48.776702 -27.067167
12.112143 -21.894389 -51.190538
17.358354 -36.224273 -11.007678
15.252834 -32.685489 2.253369
17.081410 -35.843659 -4.650821
42.268964 -50.464200 -26.652250
21.024205 -40.674730 -23.394736
46.318427 -50.513026 -30.402333
30.726112 -47.499845 -20.069791
16.485557 -34.860048 -22.462005
38.934877 -50.057772 -37.735826
46.006586 -50.536850 -22.282374
30.650646 -47.465532 -50.780028
24.575966 -43.818524 3.872828
38.131531 -49.920490 -8.042425
17.769474 -36.789292 -20.228849
33.134503 -48.501560 -5.254758
31.047135 -47.645808 -50.149861
53.657035 -49.265264 -20.961473
12.283818 -22.787877 3.736463
12.543929 -24.141631 -2.235580
44.638156 -50.540184 -38.449184
50.399976 -50.018129 -29.732656
13.018418 -26.611126 -6.574502
55.525317 -48.661734 -49.759173
18.045215 -37.168253 -53.527039
18.840195 -38.237551 -23.790946
12.881143 -25.896672 -18.051612
12.628674 -24.582689 -19.854893
39.634091 -50.177259 -38.008746
30.233345 -47.275793 -9.719863
40.510418 -50.317228 -31.752859
12.641480 -24.649341 -33.163243
58.234587 -47.567622 -30.520745
18.637670 -37.982486 -15.884469
17.924576 -37.002454 -17.180424
36.698562 -49.593905 -9.814282
13.568231 -28.841040 -14.686285
14.364027 -30.879537 -26.526269
22.140756 -41.757629 -11.503939
46.272630 -50.517079 -35.061509
21.740211 -41.369156 0.892854
21.784801 -41.412403 -1.628222
23.143401 -42.649921 -52.969791
57.303816 -47.996322 -23.442211
15.841804 -33.793858 -25.792734
18.885339 -38.289559 -5.193301
41.328348 -50.385587 -56.418211
46.256502 -50.518507 -22.916396
32.029562 -48.092499 -3.242972
57.988056 -47.681171 -21.400938
43.975508 -50.541798 -49.664608
33.370181 -48.585170 -51.317171
55.821416 -48.555059 -21.065610
22.433136 -42.041197 -50.774173
14.222593 -30.520537 -15.018249
43.927920 -50.541914 -44.607749
27.396387 -45.745234 -44.235382
15.451864 -33.089894 -56.847808
12.644192 -24.663454 -50.932563
20.936991 -40.590145 -54.149313
58.692233 -47.356838 -46.636688
57.278227 -48.008108 -2.139126
12.414681 -23.468954 -44.759836
12.953258 -26.272000 -9.093287
57.067909 -48.104977 -12.646673
47.741856 -50.387049 -16.346224
24.359585 -43.642013 -54.520608
34.944254 -49.136468 -27.679879
42.280574 -50.465170 -4.160236
14.666060 -31.493233 -28.309432
55.139952 -48.800569 -24.726948
41.966851 -50.438950 -47.994003
28.336470 -46.274261 -36.511556
15.243466 -32.666455 -2.798017
12.415611 -23.473799 -47.340652
16.136628 -34.282150 -16.018515
14.348659 -30.844100 -54.245409
39.742462 -50.195779 -31.114601
41.961813 -50.438529 -31.944961
25.400338 -44.412895 -44.498547
48.711483 -50.301234 -17.618183
34.406768 -48.952915 -18.373259
56.634718 -48.262053 -9.170723
33.086611 -48.484570 -60.465608
41.793609 -50.424472 -57.629141
46.574018 -50.490406 -48.738001
58.423758 -47.480493 -23.135272
15.975917 -34.015978 -8.390660
29.525102 -46.943158 -3.316135
12.830234 -25.631717 -4.096709
50.584549 -49.985664 -14.886408
28.400319 -46.310192 -15.554074
17.327992 -36.182546 -24.136456
39.328460 -50.125031 -52.118005
32.707025 -48.349906 -17.114049
14.769381 -31.703169 -52.634213
20.578022 -40.239585 -50.709929
57.600670 -47.859596 -8.588577
56.183612 -48.424572 -55.297603
17.509869 -36.432506 -42.714800
48.488235 -50.320992 -39.121987
17.686900 -36.675807 -59.120901
18.999649 -38.421247 -50.013425
13.334574 -28.241330 -32.143999
59.505846 -46.982099 1.770826
33.998639 -48.808125 -23.487123
21.783648 -41.411284 -18.139071
18.491565 -37.781689 -53.236066
12.394727 -23.365104 -41.466508
20.676731 -40.337729 -46.065528
58.202688 -47.582315 -49.708807
42.888436 -50.515973 -45.525344
22.383249 -41.992814 -12.388896
13.088157 -26.974086 -3.751684
15.848282 -33.804588 -2.367919
16.398042 -34.715105 -39.019636
32.196227 -48.168278 -34.603307
15.015890 -32.204048 -3.881457
12.882281 -25.902594 -47.690385
34.872890 -49.117860 -59.877661
32.579059 -48.304508 -19.973854
13.290856 -28.029039 -44.213861
48.803108 -50.293125 -36.704858
41.394129 -50.391085 -53.301454
19.506756 -39.005451 -58.278703
14.321848 -30.775285 -16.847731
23.687984 -43.094160 -37.441316
33.178314 -48.517103 -48.733312
49.358188 -50.201371 -37.566071
48.323592 -50.335564 -50.428999
14.869904 -31.907421 -46.992951
37.652285 -49.838592 -32.763606
30.726975 -47.500237 -32.837548
14.424590 -31.002594 -24.215095
13.942973 -29.802858 -54.984920
27.906364 -46.032221 -55.265168
51.851492 -49.745445 -30.730774
18.061379 -37.190468 -45.710186
51.011082 -49.910641 -15.246069
33.774243 -48.728517 -5.514551
14.633829 -31.427744 -20.328790
12.523556 -24.035599 -10.743150
56.756077 -48.218331 -35.486265
56.030249 -48.479824 -51.716595
29.200202 -46.760322 -38.179764
14.367567 -30.886731 -9.252778
40.797736 -50.341241 -58.865458
14.204833 -30.474954 -36.313880
19.234523 -38.691830 -11.096240
58.537035 -47.428319 -16.659047
12.258617 -22.656714 -48.176756
12.681450 -24.857363 -48.670224
58.472377 -47.458100 -6.401699
18.005933 -37.114266 -9.178428
16.600240 -35.049988 -23.426673
57.723879 -47.802847 -15.097624
23.343047 -42.812780 -15.197167
14.225244 -30.527340 -5.094305
33.183304 -48.518873 -30.604012
21.015703 -40.666484 -55.316423
55.910519 -48.522959 -57.305076
47.747028 -50.386591 -24.577067
15.597368 -33.385542 -43.705812
24.472099 -43.733795 -34.473373
38.729991 -50.022759 -52.819587
19.892136 -39.449422 -20.885040
13.724993 -29.243387 -20.604947
12.982781 -26.425652 -10.774246
59.448272 -47.008617 -42.008734
48.111654 -50.354321 0.624014
46.773648 -50.472738 -15.444045
27.539751 -45.825911 -58.249203
28.617600 -46.432466 -16.530535
23.683556 -43.090548 -33.168649
52.560068 -49.557001 -57.684466
43.532172 -50.542878 -54.681718
13.186095 -27.483810 -42.151890
54.484654 -49.036652 -0.774110
37.951976 -49.889806 -15.289900
49.839585 -50.116697 -37.972847
12.364975 -23.210261 -57.387890
28.325223 -46.267932 -38.309841
12.645982 -24.672770 -7.713775
38.885222 -50.049287 -16.296638
54.006936 -49.172209 -31.715284
45.961307 -50.536960 -46.495424
38.733511 -50.023361 -12.336664
41.520195 -50.401621 -25.333848
12.279307 -22.764397 -16.229651
55.091744 -48.817937 -52.602180
53.130827 -49.405208 -22.183484
12.866808 -25.822070 -59.949070
46.545080 -50.492967 -61.017178
13.930724 -29.771421 -16.043513
15.850792 -33.808744 1.334540
39.098062 -50.085658 -25.795231
38.212518 -49.934330 -26.775449
47.943104 -50.369238 -58.435829
36.551190 -49.555477 -42.614123
16.766085 -35.324663 -28.683203
33.444127 -48.611404 -23.908477
21.099100 -40.747368 -48.371468
42.089407 -50.449193 -43.857833
59.006853 -47.211928 -42.553715
46.089478 -50.533289 -2.176304
12.305876 -22.902675 -43.830235
46.264121 -50.517832 -34.120266
24.245177 -43.548685 -43.365449
13.351965 -28.285966 -39.530189
32.315620 -48.211050 -47.367356
18.328434 -37.557491 -38.804381
33.122760 -48.497394 -54.294649
47.593916 -50.400142 -47.126270
15.522668 -33.233760 -42.182996
27.894723 -46.025670 -57.639899
14.876121 -31.920053 -33.261325
53.888524 -49.203700 -27.414774
53.849327 -49.214125 -2.322478
12.659189 -24.741504 -6.954318
46.514727 -50.495653 2.526759
50.699073 -49.965520 -10.891562
17.892359 -36.958177 -7.511241
14.026802 -30.018016 -39.011621
19.203950 -38.656609 -23.442607
18.907410 -38.314984 -22.169984
12.534537 -24.092749 -18.439429
56.675781 -48.247259 -31.711990
54.628561 -48.984806 -30.395890
12.582368 -24.341691 -40.133948
48.130243 -50.352676 -56.026633
14.321290 -30.773854 -7.302401
13.096922 -27.019703 -32.944726
26.404853 -45.097792 -13.287191
12.257119 -22.648917 -4.803360
16.233887 -34.443230 -54.473531
46.436813 -50.502549 -58.079075
23.771695 -43.162446 -41.013926
31.022295 -47.634514 -52.563090
25.565709 -44.525648 -12.261829
38.410381 -49.968142 1.115484
47.984358 -50.365587 -22.015137
19.234108 -38.691351 -5.496990
13.759496 -29.331943 -43.006083
59.100242 -47.168914 -48.995870
43.778543 -50.542278 2.971611
57.301899 -47.997205 0.553512
18.787481 -38.176822 -43.523025
15.553883 -33.297185 -21.377111
16.165363 -34.329740 -52.606495
15.851951 -33.810663 -30.687852
17.150150 -35.938130 -57.204165
30.650262 -47.465357 -15.394619
17.401394 -36.283425 -36.892280
26.472277 -45.143763 -35.483419
13.641518 -29.029139 -58.796376
49.939849 -50.099062 3.632077
46.625476 -50.485851 -14.428754
28.221827 -46.209746 -50.940173
13.196472 -27.537815 -32.689117
12.852238 -25.746238 -8.860078
17.581486 -36.530932 -49.267565
55.570375 -48.645501 -34.804617
24.787936 -43.991437 -48.123582
24.775174 -43.981026 -56.074530
23.790809 -43.178039 -53.594342
38.130420 -49.920300 -12.006094
17.303128 -36.148375 -45.681975
39.766526 -50.199891 -24.371540
25.313313 -44.353560 -22.736585
44.906711 -50.539530 -39.748794
48.111570 -50.354328 -35.448808
16.973537 -35.668248 -12.621175
12.650786 -24.697773 -32.463089
39.974448 -50.235422 -47.964657
41.572735 -50.406012 0.908288
49.795180 -50.124508 -4.142312
14.191464 -30.440640 -55.804772
54.967053 -48.862859 -38.176727
18.690355 -38.054893 -46.601373
35.170041 -49.195342 -13.073439
12.962480 -26.319994 -57.997974
57.083958 -48.097585 -44.579394
39.368117 -50.131808 -6.695125
44.589230 -50.540303 -17.647281
12.108436 -21.875095 -27.471300
42.822338 -50.510448 -57.031862
26.610505 -45.238010 -34.055610
12.454159 -23.674421 -58.516482
16.899625 -35.545833 -55.138977
16.785904 -35.357487 -56.016558
56.633763 -48.262397 -54.533710
55.129962 -48.804168 -35.358991
12.442493 -23.613704 -57.057157
46.810372 -50.469488 0.272317
22.681522 -42.273146 -28.179102
34.750694 -49.074928 -26.898239
24.546327 -43.794346 -55.531777
38.139341 -49.921825 -50.800539
39.705811 -50.189515 -8.432391
52.598913 -49.546670 -33.023079
26.853722 -45.403840 -37.733407
36.175717 -49.457573 -37.333973
16.752753 -35.302582 -32.255898
48.498046 -50.320124 -55.125276
48.846294 -50.289303 -32.608454
28.414320 -46.318071 -51.926650
35.304368 -49.230368 0.370823
12.088694 -21.772348 -30.676482
12.715130 -25.032652 -39.056609
41.649698 -50.412444 -22.044580
57.101201 -48.089644 -16.115174
41.441478 -50.395042 -51.311313
47.173837 -50.437320 -13.438325
27.825210 -45.986552 -37.442151
50.717257 -49.962322 -9.701863
42.630595 -50.494423 -37.605998
56.182524 -48.424964 -57.839860
56.048279 -48.473328 -1.145282
13.308233 -28.119478 -51.050493
23.115318 -42.627012 -41.430393
31.456672 -47.832017 -13.749141
44.127855 -50.541427 3.640319
47.630186 -50.396932 -2.852762
31.087765 -47.664282 -2.840226
16.374393 -34.675937 -58.890597
12.908910 -26.041187 2.865674
19.663183 -39.185660 -1.541326
39.819466 -50.208938 -9.110080
21.200088 -40.845313 -54.737387
21.643912 -41.275760 -15.631742
49.680973 -50.144596 -21.579914
33.467490 -48.619692 -48.221914
36.588219 -49.565133 -24.265169
12.212612 -22.417281 -36.041336
16.111457 -34.240460 -3.904307
57.584350 -47.867112 -5.042004
37.272729 -49.743619 -16.060154
48.322135 -50.335693 -33.562678
53.018025 -49.435208 -10.539228
58.760070 -47.325593 -55.869376
55.060074 -48.829346 -18.025982
58.345124 -47.516711 -52.859001
35.820105 -49.364847 -5.231071
55.931453 -48.515417 -6.186108
34.845727 -49.108642 -46.216465
12.743720 -25.181453 -33.570642
29.240663 -46.783091 -40.752349
27.503664 -45.805603 -18.642109
36.267049 -49.481387 -3.108595
12.572312 -24.289354 -1.178984
16.599909 -35.049441 -15.157514
36.314642 -49.493797 -36.372062
17.131160 -35.912031 -6.468230
13.543706 -28.778093 -44.622899
30.148579 -47.237251 -29.322830
56.791770 -48.205472 -38.644753
53.013153 -49.436504 -45.131367
24.350225 -43.634377 -9.133620
23.905405 -43.271519 -51.460091
24.587254 -43.827732 -9.605793
21.973439 -41.595355 -15.824709
20.073754 -39.658652 -42.938580
18.316047 -37.540467 -53.846458
56.125776 -48.445409 -41.239809
18.556268 -37.870613 -12.823629
57.566688 -47.875247 -20.469008
15.262245 -32.704610 -54.145673
42.960507 -50.521996 -1.867600
47.311598 -50.425128 -53.691313
40.894883 -50.349360 -29.760475
27.279749 -45.679596 -40.552938
41.373572 -50.389367 1.987975
49.287078 -50.213879 -4.132823
30.145718 -47.235951 -27.311495
16.530431 -34.934370 -28.883635
26.630943 -45.251945 -47.530167
13.306853 -28.112295 -60.619221
12.956786 -26.290360 -8.131522
14.110568 -30.233012 -33.875735
33.990124 -48.805104 3.488070
16.000299 -34.056359 -54.792073
21.342870 -40.983791 3.256370
13.580928 -28.873627 -39.568329
32.850542 -48.400821 -20.503950
48.998893 -50.264568 -51.758101
50.593024 -49.984174 -55.546899
12.784587 -25.394145 2.705834
12.991845 -26.472827 -17.522882
53.149849 -49.400150 -5.060921
27.066715 -45.549062 -55.084366
56.618645 -48.267844 -34.843644
16.342033 -34.622343 -33.575493
30.718860 -47.496548 2.346454
35.461017 -49.271214 -34.904006
27.981622 -46.074572 -25.173540
20.588895 -40.252111 -46.892177
37.566913 -49.820327 -38.726677
53.751706 -49.240087 -50.417039
29.842941 -47.098284 -52.754383
20.659070 -40.320600 -52.605151
25.415911 -44.423513 -26.580782
39.971407 -50.234903 -6.841608
19.253470 -38.713657 -50.451247
48.204247 -50.346126 -38.637468
59.438656 -47.013046 1.167003
48.601241 -50.310991 2.266686
13.073253 -26.896520 -13.742166
50.495145 -50.001390 3.540008
12.177564 -22.234871 -19.944912
28.625619 -46.436978 -53.700303
56.636657 -48.261354 -22.698366
47.155176 -50.438972 -50.930424
31.910059 -48.038163 -47.768129
41.027874 -50.360475 -25.594197
12.675773 -24.827819 -38.030489
33.392113 -48.592951 -34.296756
14.783019 -31.730880 -46.484913
19.841900 -39.391548 -43.580042
17.975655 -37.072653 -48.497671
21.797141 -41.424370 -8.270161
25.520367 -44.494733 -30.440247
23.879806 -43.250637 1.905282
20.127588 -39.720671 -46.750499
35.173307 -49.196194 -11.548488
44.125467 -50.541433 -4.909602
31.150443 -47.692780 -8.304827
15.054985 -32.283483 -13.331104
40.781894 -50.339917 -21.319472
14.984059 -32.139371 -11.755343
14.120506 -30.258518 -16.520500
17.604289 -36.562271 0.309338
13.121976 -27.150096 -25.828015
31.152928 -47.693910 -35.137926
20.111433 -39.702059 -9.473019
41.764348 -50.422026 -20.775851
39.358074 -50.130091 -22.156537
16.261984 -34.489765 -57.294118
52.319936 -49.620863 -47.067117
18.267076 -37.473165 -40.532242
13.177854 -27.440917 -26.573313
31.966606 -48.063874 -11.688687
43.661487 -50.542563 -31.467476
20.700884 -40.361154 -45.475427
13.964842 -29.858987 -44.181256
35.576146 -49.301234 -50.498265
12.536227 -24.101547 -2.738824
21.615000 -41.247719 -49.158958
52.799191 -49.493407 -58.369975
56.618928 -48.267742 -15.909589
23.801535 -43.186788 -5.333218
18.437023 -37.706730 -7.536801
46.031859 -50.536788 -28.442066
17.859833 -36.913476 -40.289641
13.391103 -28.386420 -10.768910
13.961300 -29.849897 -3.893411
33.694728 -48.700308 -33.112300
55.209481 -48.775520 -56.908406
13.189293 -27.500453 -22.706477
12.386247 -23.320970 -19.776769
32.463252 -48.263424 -40.643239
20.200090 -39.804195 -1.909855
52.479950 -49.578308 -25.465466
15.083904 -32.342243 -43.382796
12.762904 -25.281297 -45.325066
13.526616 -28.734229 -26.856591
29.380810 -46.861958 -13.187116
54.245540 -49.108753 -39.456350
19.700798 -39.228994 -8.737428
15.238616 -32.656599 -28.256404
14.411056 -30.975096 -20.512534
32.412977 -48.245588 -51.129616
36.064869 -49.428669 -57.015663
20.956173 -40.608749 -12.823615
55.770399 -48.573439 -60.957251
13.363741 -28.316191 3.720796
15.172806 -32.522882 -33.778027
12.492285 -23.872851 -38.690707
54.545897 -49.014588 -5.903462
32.040281 -48.097373 -1.639892
42.586062 -50.490702 -59.026435
26.089796 -44.882980 -2.464029
44.108689 -50.541474 -52.949466
23.567715 -42.996051 -10.825513
20.730078 -40.389468 -36.127362
21.513453 -41.149233 -28.610697
47.836230 -50.378697 -16.976017
31.376083 -47.795375 -46.487678
27.055900 -45.541688 -31.724728
15.434335 -33.054277 -6.831812
39.935560 -50.228777 -12.554881
46.192147 -50.524202 -55.275146
24.870171 -44.051417 -20.651993
29.226265 -46.774989 -29.357004
52.713576 -49.516176 -33.559018
36.503485 -49.543038 -12.361368
17.287177 -36.126452 -51.295455
12.330950 -23.033176 -6.379883
53.355616 -49.345426 -20.208568
41.833924 -50.427841 -15.027972
34.308650 -48.918106 -7.749114
15.389501 -32.963180 -9.070580
20.080630 -39.666573 -59.686174
40.261836 -50.284533 -36.212632
12.495663 -23.890429 -39.238802
56.507206 -48.307991 3.658687
19.040121 -38.467873 -19.582676
14.342041 -30.827114 -45.675050
12.255641 -22.641225 0.875252
43.685253 -50.542505 -46.102360
19.790537 -39.332376 -47.203701
20.824209 -40.480762 -5.201313
22.313946 -41.925599 -43.342973
25.970303 -44.801508 -36.022756
48.559844 -50.314655 -58.279972
44.793631 -50.539805 -17.074265
54.928553 -48.876729 -29.312540
16.439859 -34.784364 -45.650973
39.379186 -50.133699 -55.355606
42.551667 -50.487827 -51.073914
19.152648 -38.597507 -44.862025
34.187156 -48.875004 -19.124156
13.214538 -27.631841 -25.532118
14.027461 -30.019706 -41.912130
31.849278 -48.010527 -32.653918
53.070398 -49.421279 -37.636027
26.072034 -44.870870 3.794110
12.530123 -24.069777 -47.009445
31.006204 -47.627198 -16.864521
14.230078 -30.539748 -27.231788
52.295223 -49.627436 -5.314809
34.447753 -48.967455 -38.165393
49.139320 -50.239868 -52.350045
14.737280 -31.637945 -3.174501
46.434630 -50.502742 -10.091998
25.267988 -44.322656 -33.924084
24.711042 -43.928711 -12.576718
58.038805 -47.657797 -37.018004
43.329942 -50.543371 -3.111688
13.397969 -28.404040 -16.180708
30.120368 -47.224424 -26.756814
12.474235 -23.778907 -15.036651
36.830400 -49.628282 -25.311351
21.579506 -41.213294 -34.621280
45.669053 -50.537672 -6.771228
17.185065 -35.986116 -0.521734
23.521883 -42.958664 -53.173718
12.993357 -26.480697 -9.641079
18.813518 -38.206818 -50.525888
52.756906 -49.504652 -38.594929
33.135074 -48.501763 -16.566794
25.000239 -44.140100 -50.464513
46.389367 -50.506748 1.342472
13.753870 -29.317502 -23.048146
41.745209 -50.420427 -27.077058
13.811563 -29.465578 -3.336808
14.438021 -31.029886 -3.335043
16.866778 -35.491432 -8.592513
19.320427 -38.790794 -22.666544
15.792541 -33.712269 -56.955414
24.724991 -43.940090 -49.505981
16.679969 -35.182036 3.487817
12.533686 -24.088324 -22.789928
22.572034 -42.175909 -25.601808
20.656874 -40.318470 -14.293373
14.440575 -31.035073 -11.498314
12.343385 -23.097893 -10.148374
21.393645 -41.033035 -47.167067
13.937773 -29.789512 -4.494337
47.011650 -50.451674 -10.430603
36.216772 -49.468278 -37.855099
31.902750 -48.034840 -16.743523
52.414826 -49.595628 -19.277145
41.586982 -50.407203 -39.880979
32.116369 -48.131968 -57.125639
32.516963 -48.282479 -6.865162
15.494278 -33.176074 -5.600933
19.904985 -39.464224 -34.600626
32.123585 -48.135249 -39.259010
30.175658 -47.249564 -32.572413
20.265296 -39.879315 -3.599876
13.415421 -28.448835 -7.268914
13.999310 -29.947454 -48.158092
30.522354 -47.407200 -39.619411
20.972773 -40.624849 -57.593643
19.470734 -38.963953 -25.369754
31.807456 -47.991512 -60.977798
12.369447 -23.233535 -33.456326
12.467233 -23.742466 -49.845837
59.017407 -47.207067 -0.425760
30.581770 -47.434215 -26.986360
25.613957 -44.558544 -32.754692
30.005382 -47.172143 2.748743
20.939213 -40.592300 -37.385066
14.322092 -30.775913 -2.894321
47.408225 -50.416576 -60.356127
12.854694 -25.759018 -27.531811
14.673342 -31.508029 -10.224557
22.179529 -41.795233 -45.674624
52.019966 -49.700640 -60.371613
42.211649 -50.459410 -22.268019
12.169521 -22.193013 -37.156427
14.353219 -30.855804 -19.121721
48.640739 -50.307495 -27.890816
21.669635 -41.300708 -4.017984
28.652249 -46.451964 -13.547833
15.944586 -33.964087 -20.278768
59.096182 -47.170784 -18.132587
16.352163 -34.639121 -47.822860
28.333011 -46.272314 -5.789347
35.000770 -49.151205 -59.266524
58.332739 -47.522415 -13.172045
57.136633 -48.073324 -45.510129
28.891061 -46.586354 -43.426150
30.446518 -47.372719 -61.098859
36.208692 -49.466171 -25.696833
13.716089 -29.220533 -50.174593
13.604291 -28.933591 -3.532338
21.272789 -40.915822 -47.723479
17.229849 -36.047664 -37.932502
51.658864 -49.796675 -38.762064
28.106825 -46.145029 -54.586156
48.619165 -50.309405 -35.107546
38.147657 -49.923246 -28.987696
39.243370 -50.110490 -24.443538
12.100087 -21.831642 2.817016
28.172617 -46.182053 -52.905950
17.789641 -36.817008 1.310375
47.957992 -50.367920 -11.664577
19.373651 -38.852110 -47.273909
53.429273 -49.325837 -14.068908
36.443240 -49.527329 -19.871468
51.067766 -49.900670 -38.780330
52.845722 -49.481032 -19.094361
15.298973 -32.779237 -36.494404
26.299927 -45.026252 -24.300402
37.356103 -49.765359 -47.109338
55.644822 -48.618680 -55.425412
12.845099 -25.709080 -1.873311
50.369172 -50.023547 0.058611
16.180142 -34.354217 -53.213002
13.893305 -29.675380 -25.755441
22.108457 -41.726304 -52.879691
36.738936 -49.604432 -47.152505
29.983848 -47.162351 -1.624717
21.728055 -41.357367 -27.692855
27.169979 -45.617824 -5.629899
29.324278 -46.830145 -3.826536
44.254885 -50.541118 -53.930362
13.967366 -29.865467 -37.563063
12.301145 -22.878055 -14.596667
28.933735 -46.610369 -37.173707
37.162155 -49.714787 -35.829831
12.115955 -21.914227 -4.986275
12.918260 -26.089852 -44.475583
54.627113 -48.985328 -21.683182
30.406324 -47.354443 -14.933659
12.399376 -23.389300 -10.727694
23.344467 -42.813939 -2.534538
20.080685 -39.666636 -4.101582
38.732345 -50.023162 -50.498012
55.953178 -48.507590 -21.605995
13.066949 -26.863707 1.375969
22.191783 -41.807119 -58.871641
28.883350 -46.582015 -25.801752
31.736705 -47.959343 -8.552830
36.714039 -49.597940 -17.759761
17.531371 -36.462057 -21.827380
15.918550 -33.920966 -12.704507
17.716943 -36.717096 -0.365431
20.389778 -40.022722 -50.294829
50.023905 -50.084277 -30.063197
41.514141 -50.401115 -43.183260
55.249865 -48.760971 -20.769462
31.868193 -48.019128 -0.280104
26.592765 -45.225914 3.779076
53.827357 -49.219968 -15.637558
51.108428 -49.893518 -24.069659
34.983201 -49.146623 -37.109505
23.309245 -42.785206 -27.148295
53.909707 -49.198067 -8.703799
16.726048 -35.258353 -54.068255
26.209876 -44.964853 -50.580477
23.651722 -43.064579 -18.821849
19.201067 -38.653287 1.900619
51.812457 -49.755827 -24.773735
12.943909 -26.223341 -55.623016
57.222867 -48.033606 -52.992549
12.682166 -24.861089 -30.608426
45.318508 -50.538526 -7.282335
14.950348 -32.070873 -40.011086
16.714692 -35.239546 -51.042740
19.148393 -38.592605 -54.853727
20.801045 -40.458296 -50.250213
34.208330 -48.882516 -54.092073
41.909321 -50.434142 -57.043917
13.942806 -29.802430 -21.879653
16.508070 -34.897336 -35.681746
24.618544 -43.853256 -47.484288
12.361557 -23.192473 -46.393720
12.148324 -22.082693 -38.641382
53.121030 -49.407814 -50.676464
34.074612 -48.835078 -56.285050
48.415562 -50.327424 3.762269
19.028496 -38.454479 -56.619606
47.445887 -50.413243 -49.620700
58.600702 -47.398995 -29.873822
31.750691 -47.965702 -39.822345
43.877645 -50.542037 -38.235993
43.877378 -50.542037 -14.556870
21.246218 -40.890051 -15.982877
28.747897 -46.505789 -36.308406
45.990197 -50.536890 -9.286543
20.403009 -40.037965 -21.373389
13.855451 -29.578224 -46.535953
36.338513 -49.500022 -55.036046
23.664761 -43.075215 -0.673273
44.327103 -50.540942 -9.166927
36.149617 -49.450767 -58.794625
15.762222 -33.662054 -40.215878
53.728572 -49.246239 -58.280190
54.731576 -48.947693 -55.176343
51.557074 -49.814605 -21.489520
51.135638 -49.888732 -17.060158
29.984356 -47.162582 -49.491078
41.738330 -50.419852 -59.002894
52.639528 -49.535869 -37.337257
14.043752 -30.061518 -20.219960
31.441838 -47.825272 -33.525850
41.214179 -50.376045 -39.445714
14.242380 -30.571322 -2.159897
28.095497 -46.138654 -59.399015
17.596146 -36.551080 -52.277114
12.473658 -23.775907 -53.944292
27.280585 -45.680067 -4.442224
32.289951 -48.201943 1.601744
43.424738 -50.543140 -43.757700
28.169325 -46.180201 -4.787709
59.317286 -47.068947 -54.372058
37.116787 -49.702957 -56.997845
14.037540 -30.045576 -31.272749
38.538298 -49.990001 -39.926745
29.268677 -46.798856 -16.244094
58.694239 -47.355914 -50.835896
54.961512 -48.864855 -14.462164
39.177304 -50.099200 -48.595056
48.414893 -50.327483 -19.377306
52.599717 -49.546456 -25.988965
32.342737 -48.220670 -12.696763
43.259812 -50.543542 -59.482746
52.117771 -49.674629 -55.712876
12.743313 -25.179333 -32.546160
46.334925 -50.511566 -45.484051
23.611492 -43.031762 -12.227808
49.945265 -50.098109 -3.115856
13.239810 -27.763370 -48.650333
16.177093 -34.349168 -59.453604
22.536285 -42.141237 -22.525618
56.127501 -48.444787 -54.755776
29.797041 -47.077414 -46.235461
53.475475 -49.313550 -10.178507
46.620528 -50.486289 -22.064837
35.166915 -49.194527 -17.081455
34.070304 -48.833549 -38.679759
29.090745 -46.698725 -44.744177
13.012748 -26.581615 -25.115664
25.503378 -44.483149 -49.172474
12.611317 -24.492357 -54.100369
38.922630 -50.055679 -36.664824
12.447384 -23.639159 -15.972403
30.365339 -47.335808 -30.074636
37.888941 -49.879034 -25.098706
31.300627 -47.761066 -4.486590
44.937110 -50.539456 -15.315023
52.286643 -49.629718 -30.259713
57.689665 -47.818606 -24.493048
16.567419 -34.995629 -1.687862
29.431516 -46.890493 -5.056466
53.914716 -49.196735 -6.452648
22.154661 -41.771116 -19.498998
12.965518 -26.335808 -14.089711
52.595307 -49.547629 2.519876
51.806374 -49.757445 -44.556916
29.698548 -47.032631 -32.346809
35.613407 -49.310950 -4.564261
16.911191 -35.564989 -3.559104
26.066302 -44.866962 -32.888818
14.731290 -31.625774 -59.472250
16.203158 -34.392337 -60.955420
18.821750 -38.216302 -40.937859
50.064734 -50.077096 -35.697198
49.406362 -50.192898 -29.608169
44.983399 -50.539343 -3.531088
14.778476 -31.721649 -35.760101
38.640945 -50.007543 -49.883721
28.075585 -46.127449 2.549385
18.354833 -37.593772 -22.859856
35.036879 -49.160620 -35.360838
22.436235 -42.044203 -0.310218
20.594135 -40.257622 -55.136718
30.864960 -47.562976 -22.651490
22.055283 -41.674732 -15.200108
56.502345 -48.309743 -36.655261
25.491892 -44.475318 -9.758317
32.638396 -48.325559 -53.771630
55.321252 -48.735252 -22.789825
27.106050 -45.575882 -44.907146
19.516080 -39.016193 -38.380087
53.134887 -49.404129 -2.136404
35.591325 -49.305192 -32.551196
47.151197 -50.439324 -16.857636
35.585663 -49.303716 -14.539770
21.369350 -41.009473 -36.543005
27.802181 -45.973592 -38.013033
43.954092 -50.541850 -46.896144
52.517802 -49.568241 -21.221739
58.894320 -47.263759 -18.814670
40.186327 -50.271630 -45.890532
21.538178 -41.173213 -33.495165
25.736179 -44.641878 -15.530339
22.377600 -41.987335 -49.605221
54.862730 -48.900443 -28.072947
48.114018 -50.354112 -54.371869
13.202679 -27.570119 -21.647695
34.701949 -49.057634 -11.385726
20.203820 -39.808492 -14.670548
46.929378 -50.458955 -38.695199
42.154377 -50.454623 -14.400673
22.531073 -42.136183 3.666235
21.897195 -41.521409 -27.185579
12.657857 -24.734576 -14.786889
40.240056 -50.280811 -46.468885
26.590549 -45.224403 3.160455
59.606723 -46.935637 -6.217232
50.339686 -50.028734 -41.482339
13.041600 -26.731777 -5.021569
47.500624 -50.408398 -13.911249
36.738446 -49.604305 -57.524431
27.436890 -45.768027 -53.678791
17.108035 -35.880250 -56.136310
52.400767 -49.599367 -52.879748
22.984087 -42.519961 -24.205735
13.128476 -27.183926 -43.800896
19.743878 -39.278624 -12.007585
14.927685 -32.024824 -59.793266
15.303647 -32.788735 -43.545196
28.665783 -46.459580 -20.178869
20.943927 -40.596872 -33.601833
40.920101 -50.351467 -30.743198
36.801282 -49.620689 -59.543856
50.418259 -50.014913 -40.957647
16.983589 -35.684896 -9.709036
13.702843 -29.186535 -24.438039
12.989669 -26.461503 3.701606
41.298936 -50.383129 -45.410348
53.650282 -49.267060 -17.633696
56.476849 -48.318928 -18.998044
50.221079 -50.049596 -10.385589
19.959996 -39.527599 -31.731906
40.288401 -50.289073 -49.447177
58.784920 -47.314147 -12.886634
17.473372 -36.382348 -44.486977
31.925020 -48.044966 -9.013796
42.791096 -50.507837 -0.942545
13.764238 -29.344114 -21.415631
42.189348 -50.457546 -52.395676
45.299084 -50.538574 -54.910171
34.201317 -48.880028 -7.091842
32.920528 -48.425649 -36.486451
20.762644 -40.421053 -28.187204
58.385586 -47.498075 -39.987920
19.121280 -38.561370 -24.471829
53.155469 -49.398655 -6.022437
15.356928 -32.896995 -51.767659
40.760012 -50.338088 -26.289173
50.691984 -49.966767 -8.602187
26.832045 -45.389060 -52.407547
12.846304 -25.715353 -38.834522
12.356580 -23.166566 -8.124341
12.654782 -24.718571 -57.061316
57.533020 -47.890754 -25.696642
39.255734 -50.112603 -11.354431
16.337510 -34.614852 -41.152300
52.149673 -49.666145 -9.754445
40.766531 -50.338633 -3.305900
47.327180 -50.423749 -20.168630
13.919535 -29.742702 -42.503524
49.280160 -50.215096 -49.018312
16.922336 -35.583448 -1.955827
13.820883 -29.489500 -31.532723
20.419478 -40.056938 -60.976886
18.930526 -38.341615 -36.111992
19.480631 -38.975355 -49.925306
20.790024 -40.447607 2.831151
41.720769 -50.418384 3.594703
13.426191 -28.476476 -29.308720
37.720137 -49.850188 -41.894020
13.302133 -28.087731 -51.768756
18.150643 -37.313147 -50.418997
59.461637 -47.002461 -13.819617
13.208783 -27.601890 -28.893248
14.871612 -31.910891 3.278872
26.971463 -45.484118 -42.539778
14.864658 -31.896762 -24.590966
40.829715 -50.343913 -46.944050
18.788500 -38.177996 -55.032558
20.823410 -40.479987 -15.238408
13.391200 -28.386667 -19.454794
40.837652 -50.344577 -24.841053
12.089744 -21.777813 -32.160506
37.509483 -49.805353 -9.380963
46.730050 -50.476596 -35.644073
45.008509 -50.539282 -25.621831
56.307003 -48.380118 -54.157244
13.168472 -27.392086 -5.799695
30.027112 -47.182023 -16.994245
12.870141 -25.839412 -51.468708
13.942798 -29.802410 -0.312408
48.902795 -50.281471 -18.569522
13.211827 -27.617729 -40.928376
35.069063 -49.169012 -14.781579
21.023281 -40.673834 -10.743058
50.232371 -50.047609 -12.183995
16.513609 -34.906510 -53.496249
13.435959 -28.501547 -21.893669
32.889251 -48.414554 -33.364986
36.171365 -49.456438 3.748764
15.357531 -32.898220 -33.359301
26.679056 -45.284749 -27.880482
52.181702 -49.657627 -28.672406
14.881671 -31.931329 -60.997451
28.541890 -46.389860 -47.594201
12.073403 -21.692764 3.345060
14.733002 -31.629253 -31.525035
12.858381 -25.778209 -33.822623
45.669532 -50.537671 -17.706776
33.151577 -48.507618 -52.642983
12.864269 -25.808853 -21.360383
36.392343 -49.514058 -38.751896
12.378425 -23.280261 -52.344038
40.769012 -50.338840 -38.815746
19.800530 -39.343889 -33.898729
22.273130 -41.886013 -1.580637
12.616388 -24.518749 -27.518453
17.051974 -35.798154 -26.170751
21.105048 -40.753136 -36.038718
37.274197 -49.744002 -37.236652
48.705934 -50.301725 -56.068404
18.748357 -38.131751 -37.230200
42.723450 -50.502184 -15.419670
38.266404 -49.943538 -53.953104
26.957916 -45.474881 -32.531935
47.602824 -50.399353 3.553654
12.381701 -23.297311 -9.010482
16.255770 -34.479474 -27.580475
28.073310 -46.126169 -29.959836
24.753097 -43.963017 -53.021807
27.490292 -45.798078 -25.044995
25.168819 -44.255041 -1.219662
15.128528 -32.432914 -51.879802
19.946742 -39.512330 -44.659118
48.165874 -50.349522 1.575831
41.568390 -50.405649 -30.162644
28.429346 -46.326527 -35.952063
37.038695 -49.682594 -39.668090
41.373670 -50.389375 -19.995550
54.593954 -48.997274 -11.066194
35.874625 -49.379063 -11.019055
12.865446 -25.814978 -43.336881
59.384277 -47.038092 -39.647755
32.632440 -48.323446 -4.376366
12.284259 -22.790170 -42.358562
56.375443 -48.355462 -11.490126
14.762749 -31.689693 -54.449644
36.579667 -49.562903 -18.230375
35.141805 -49.187980 -18.148260
35.098235 -49.176619 -6.380273
45.935705 -50.537023 -42.447545
38.310028 -49.950993 -41.076583
19.471881 -38.965274 -27.013394
58.147122 -47.607908 -4.940588
25.386319 -44.403337 -50.012664
43.184790 -50.540741 -26.947779
43.135584 -50.536628 -8.462125
14.566711 -31.291368 -35.362541
44.112724 -50.541464 -36.376521
55.160563 -48.793143 -30.433503
36.054252 -49.425901 3.228080
40.687333 -50.332014 -50.529999
13.270115 -27.921093 -19.675162
44.007372 -50.541721 -12.322711
42.630718 -50.494434 -42.034794
31.308997 -47.764872 0.370322
27.719901 -45.927289 -4.405529
15.172302 -32.521857 -35.175356
12.107550 -21.870482 -21.101122
21.700107 -41.330261 -20.377661
51.870614 -49.740360 -9.052399
12.240099 -22.560341 -20.480319
52.907186 -49.464685 -55.983899
46.304063 -50.514297 -4.092112
12.328472 -23.020280 0.454026
16.062016 -34.158576 -41.144416
21.163729 -40.810049 -27.367390
41.183355 -50.373469 -17.689966
47.733900 -50.387753 -31.025729
36.953550 -49.660393 -49.444126
16.197750 -34.383380 -34.611206
50.734467 -49.959295 -36.625891
13.979740 -29.897224 -40.825607
13.995420 -29.937469 -59.821378
16.957774 -35.642139 -42.822205
20.927532 -40.580971 -25.101739
43.428419 -50.543131 -17.535431
51.739441 -49.775245 -11.706820
55.649076 -48.617148 -7.314605
36.969075 -49.664441 -7.086156
18.810211 -38.203008 -45.123731
13.045658 -26.752897 -35.320849
59.173706 -47.135078 -3.368446
29.485003 -46.920592 -1.767942
12.068952 -21.669598 -11.746062
53.549077 -49.293976 -44.215596
15.268304 -32.716923 -47.651347
37.496832 -49.802054 -36.582353
19.024727 -38.450138 -58.704077
15.179258 -32.535992 -15.984632
39.509903 -50.156037 -45.632692
39.024515 -50.073090 -41.030016
23.376176 -42.839805 -11.719424
54.645643 -48.978652 -40.488863
12.562607 -24.238843 3.850434
19.047009 -38.475807 -9.954987
58.284357 -47.544699 -34.536031
36.590914 -49.565835 2.533012
26.246773 -44.990010 -22.873280
32.636759 -48.324978 -45.255964
33.223564 -48.533156 -55.020381
23.222838 -42.714720 -42.836198
56.962537 -48.143950 -31.242067
15.184525 -32.546694 -50.450718
16.705778 -35.224781 -31.505962
25.154968 -44.245597 -25.614545
39.112913 -50.088196 -50.115721
45.742203 -50.537494 -34.515113
34.716834 -49.062915 -3.278950
47.159223 -50.438613 -18.001311
55.161476 -48.792814 -9.346333
32.674376 -48.338324 -52.831296
47.686602 -50.391939 1.593674
51.316816 -49.856864 -26.374773
42.819955 -50.510249 -29.671790
35.238247 -49.213127 1.276249
27.808317 -45.977045 -18.998099
16.196345 -34.381053 -23.671348
40.703768 -50.333387 -36.440786
26.419306 -45.107647 -6.559587
15.953270 -33.978469 -34.989247
12.705304 -24.981513 -30.074513
21.270906 -40.913996 -60.015024
36.247478 -49.476284 -32.251682
55.657767 -48.614017 -3.237256
16.811028 -35.399098 -47.312941
38.962939 -50.062568 -27.100344
45.386816 -50.538360 -47.375292
18.862213 -38.262917 -35.437371
48.783350 -50.294874 -61.088945
15.352383 -32.887760 -24.452325
