-0.737224 55.148871 1.944526
-16.569017 66.603634 -35.853436
2.797677 50.166050 -18.590723
-8.469710 62.240695 -42.725019
-25.563225 68.997020 -4.767457
-27.892453 69.270412 -44.685610
-24.592780 68.860196 -33.382196
-30.506944 69.416291 -37.213186
-26.226361 69.090516 -24.591445
-20.608682 67.976514 -59.727704
2.453460 50.713986 -58.102100
-5.859631 60.248013 -55.639408
-14.082087 65.518910 -40.081058
-9.338036 62.853440 -57.218739
0.554978 53.493051 -16.920308
-31.624796 69.396089 -31.097767
-8.968904 62.592958 -11.051907
-14.781974 65.862512 -44.130811
-1.818797 56.384392 -45.112054
-16.423429 66.545942 -29.328137
3.631029 48.701283 -45.180998
-25.791758 69.029241 -42.855405
-22.256107 68.380011 -6.519620
-4.577609 59.171904 -20.314826
-28.846617 69.328673 -13.411443
-31.564627 69.397177 -28.719499
7.606405 38.079525 -40.340320
3.094053 49.694270 -15.967933
-28.244394 69.291901 -39.295070
6.260941 42.731765 -24.478562
-7.554678 61.594991 -42.530942
6.825274 41.049596 3.090643
6.368636 42.410746 -46.737227
-0.474104 54.848299 -26.072791
-23.992611 68.766771 -49.016069
5.585951 44.556903 -50.179214
-0.789535 55.208628 -57.950512
-10.963469 63.849460 -51.091862
7.929438 36.832109 -50.978107
-1.153794 55.624735 -4.448392
7.108333 40.002868 3.065276
5.660911 44.380957 -21.541454
-23.847395 68.734428 -52.532518
-14.461824 65.705338 -55.289116
-12.810351 64.894566 -20.065697
7.284802 39.321419 -32.270107
7.327719 39.155692 -23.205461
5.773583 44.116493 -31.457827
3.645651 48.673323 -35.255573
7.430109 38.760306 1.014625
-13.158767 65.065617 -9.399872
7.788722 37.375495 -45.671002
-28.884744 69.331001 -3.725353
-26.248063 69.093575 -61.113284
-15.345092 66.118631 -44.499270
-2.532289 57.178030 -54.715717
-7.235857 61.370011 -19.916792
2.499996 50.639908 -20.840180
-17.469588 66.960501 -56.682619
3.648960 48.666994 -22.109823
-6.743756 60.983069 -59.424554
7.783328 37.396326 -2.945368
-16.763856 66.680842 -40.640983
-11.199659 63.989574 -5.210303
5.328041 45.162268 -43.514221
-16.969122 66.762182 -36.915323
-0.234943 54.554047 -14.284733
-19.263256 67.562945 -28.936086
-13.256185 65.113443 -24.865746
-10.593987 63.630271 -12.091955
0.872477 53.066595 -27.526265
8.242222 35.624272 -35.369190
0.080218 54.130733 -15.322083
-5.552698 59.992831 -29.625675
-28.566508 69.311569 -15.361904
-18.402077 67.298229 -17.513039
-0.014168 54.257510 -61.105497
-19.629324 67.675470 -26.447707
-13.619768 65.291940 -30.405999
-19.853231 67.744297 -0.933714
-28.397591 69.301256 -10.210027
-7.578621 61.611887 -41.062626
-30.076111 69.403744 -16.945791
-2.835682 57.473791 -11.624547
6.956826 40.587922 -13.621533
-11.771202 64.328631 -48.925437
4.739509 46.543666 -55.185450
6.432182 42.221329 -1.087073
5.704474 44.278707 -57.451456
-13.295361 65.132676 -20.613146
-23.499218 68.656880 -49.193588
-21.709352 68.258236 -0.343840
4.917538 46.125796 -52.024748
-8.434248 62.215671 -48.353670
-17.566622 66.998952 -59.725825
-2.935987 57.571573 -1.558502
-32.470132 69.380812 2.465111
8.162814 35.930911 -38.090344
-20.492898 67.940923 -43.648108
-8.471339 62.241845 -59.872722
-13.746729 65.354270 -44.401893
-24.214009 68.806793 -53.478615
2.029424 51.388978 -38.580801
7.028506 40.311123 -52.456925
3.673052 48.620924 -60.168094
1.800342 51.753638 -17.937074
-13.634432 65.299139 -43.096829
-7.111807 61.282474 -4.404942
-18.625902 67.367030 -56.793434
-11.974446 64.449202 -13.601568
6.686451 41.463401 -58.132373
-30.397991 69.418260 -12.308893
-8.432066 62.214131 -31.774747
7.149977 39.842058 -15.140011
-12.268295 64.623522 -60.290057
-7.464293 61.531210 -12.003165
-17.914218 67.136693 -12.905755
-15.982715 66.371301 -36.737837
-1.236056 55.718705 -33.218742
6.082129 43.264769 -34.395940
6.008609 43.483919 -33.675526
-27.254798 69.231478 -46.970590
-13.520475 65.243193 0.012440
3.636224 48.691350 -28.249110
7.366503 39.005925 -57.829881
5.263490 45.313780 -33.695362
0.843170 53.105960 -5.567014
-24.076501 68.785455 -43.471919
3.271632 49.388530 -1.144742
-18.856587 67.437940 -6.782969
-14.917292 65.928944 -43.679332
5.568646 44.597521 -23.571899
-15.971111 66.366703 -52.434939
-31.026712 69.406898 -46.554711
-31.079001 69.405953 -35.064328
-31.935246 69.390479 -4.016944
7.966115 36.690480 -24.899621
7.124845 39.939105 -41.291449
2.454763 50.711911 -32.197939
-26.422210 69.118128 -51.754977
7.709692 37.680676 -58.720200
-4.781377 59.351559 -25.599132
-7.749193 61.732253 -2.108032
2.444463 50.728307 -54.701632
-3.879762 58.491610 -3.464480
-2.611515 57.255263 -2.376758
4.527359 46.987298 -43.962918
-33.294308 69.365917 -23.634596
-18.540120 67.340662 -30.102890
1.906573 51.584536 -0.166365
-15.725851 66.269514 -30.909075
6.666603 41.522565 -35.549993
-9.146463 62.718254 -49.506694
4.120678 47.764964 -30.984621
-5.133753 59.644522 -27.808606
-25.154191 68.939350 -5.254894
-10.346139 63.483240 -3.916079
-10.388534 63.508390 -56.468763
-2.924195 57.560078 -18.857635
3.775018 48.425944 -52.973903
-27.523678 69.247895 -41.726336
1.699146 51.914724 -3.279237
-4.629147 59.222146 -33.484981
-13.440770 65.204063 -26.269100
-8.522083 62.277653 -53.719842
-19.154916 67.529643 -4.648484
7.478783 38.572346 -40.358255
-32.211716 69.385482 -34.715675
-4.161808 58.766562 -40.566052
-23.345712 68.622691 -5.880999
7.301564 39.256692 -60.783620
-10.650547 63.663825 -1.238080
-18.007977 67.173847 -48.534771
-26.024120 69.062002 -5.682819
7.464273 38.628377 -55.636680
4.584322 46.878372 -58.684151
-12.524897 64.754426 -50.944106
1.821347 51.720202 -32.386078
1.724041 51.875096 0.299922
7.544459 38.318734 -54.329187
1.244127 52.567406 -5.108542
-28.713534 69.320547 2.468920
-6.505847 60.785273 -38.963758
-7.343680 61.446098 -51.261998
6.748083 41.279687 -52.843341
5.041567 45.834676 -16.519648
-13.669123 65.316170 -2.292827
-6.253467 60.575446 -8.877025
-22.330822 68.396652 -38.729827
-12.563921 64.773584 -26.357734
-3.259990 57.887427 1.821179
0.397820 53.704140 -19.162680
2.092303 51.288886 -55.536874
-28.099705 69.283067 -45.994087
-28.873177 69.330294 -32.031134
-7.977378 61.893275 -19.715096
5.564042 44.608328 -16.848531
-12.636544 64.809238 -46.571215
7.300055 39.262518 -27.498154
0.480472 53.593124 -46.862856
4.008750 47.978996 -43.082614
6.806860 41.104485 -45.088544
-2.459700 57.107266 -22.424070
5.248197 45.349676 -31.585301
0.740565 53.243776 -36.825970
-8.580083 62.318581 -57.304307
1.495632 52.229592 -59.277386
0.456907 53.624775 -12.241811
-14.557392 65.752256 -50.489974
-0.310126 54.655031 -21.331365
-11.420123 64.120361 -2.165038
-9.093911 62.681170 -31.167242
-17.164994 66.839800 -56.165173
-8.628665 62.352864 -34.607675
-20.400688 67.912579 -25.788799
-3.049202 57.681941 -60.392425
5.575179 44.582187 -44.416433
8.204227 35.770993 -11.740765
5.305247 45.215769 -28.248817
-4.446889 59.044472 -21.984035
-17.992586 67.167748 -17.009389
-22.681125 68.474672 -59.183963
-19.715074 67.701829 -2.943137
-0.099364 54.371943 -19.864081
-0.684927 55.089130 -22.250444
-12.204279 64.585546 -59.438854
1.106929 52.751686 -5.723341
-0.661535 55.062409 -53.284984
-7.888758 61.830739 -45.928839
-6.838861 61.062139 -41.107217
-0.176323 54.475311 -28.454169
-18.351034 67.282539 -33.801059
0.450927 53.632808 -1.197276
8.417099 34.948969 -49.562352
6.849831 40.976398 -42.101627
-12.488492 64.736553 -33.123470
-6.591936 60.856847 -30.839946
-30.683581 69.413099 -34.630305
-5.379658 59.848966 -51.478104
-7.461941 61.529551 -52.759225
-12.381333 64.683945 -14.286911
8.313654 35.348432 -58.480017
8.282716 35.467902 -54.324350
-19.845144 67.741811 -49.411394
-4.387244 58.986327 -32.449524
-6.043608 60.400970 -60.669005
-26.458879 69.123298 -12.210400
1.226376 52.591249 1.896867
1.246926 52.563647 -25.454498
-17.992312 67.167639 -45.901469
-30.177424 69.409930 -47.321662
-16.538259 66.591445 -30.999665
-7.276460 61.398663 -44.079445
-21.655445 68.246230 -13.841367
-23.352062 68.624106 -10.277403
2.418179 50.770147 -51.112206
-16.695205 66.653638 -47.033238
8.437554 34.869983 -35.854237
3.923975 48.141105 -7.595321
-14.393551 65.671820 -58.628685
-25.160421 68.940228 -31.765131
6.559731 41.841130 -13.713951
-8.200547 62.050757 -33.845346
-16.497031 66.575108 -19.736155
-31.647247 69.395683 -33.243129
7.707665 37.688502 -32.666470
-32.615823 69.378179 -55.975108
8.418473 34.943663 -16.066104
3.971093 48.051003 -45.916270
-21.972029 68.316740 -50.757194
-8.086556 61.970318 -35.685010
-20.511676 67.946695 -2.247884
8.541844 34.467257 -49.207969
8.515128 34.570423 -30.805122
-16.135309 66.431769 -52.982332
-3.969025 58.578628 -11.170805
-0.300375 54.641934 -34.687631
-29.730740 69.382656 -24.634516
1.504195 52.218092 -4.531142
-17.484794 66.966526 -54.566402
-5.886401 60.270270 -7.167159
-19.842028 67.740853 -20.029557
-32.620683 69.378091 -44.009082
4.757030 46.502540 -47.505161
6.726808 41.343104 2.513289
-4.422674 59.020866 -31.565426
-24.404207 68.833609 -7.404061
-29.553681 69.371845 -57.476070
-0.619627 55.014536 2.498357
-8.304784 62.124313 -25.492829
8.450468 34.820112 -17.514681
-10.910392 63.817973 -51.876006
-4.236075 58.838960 -33.373694
-5.711052 60.124486 -33.143318
-24.447478 68.839710 -52.745593
-16.367198 66.523659 -42.240643
-18.325380 67.274653 -9.244206
-7.250328 61.380223 -20.439489
7.360576 39.028810 -49.193892
-28.955730 69.335335 -5.482513
-32.274221 69.384353 -22.545173
8.275596 35.495394 -2.945851
8.142795 36.008216 -54.512513
7.393883 38.900196 -48.273090
-14.835693 65.888885 -13.021208
6.481608 42.073999 -45.724118
8.444128 34.844597 -36.514590
-24.343370 68.825032 -3.755515
5.666453 44.367949 -55.676509
4.688692 46.662943 -23.050233
-6.654273 60.908674 -54.652726
-5.076637 59.597037 -42.355664
-17.833793 67.104823 -21.584097
-15.012427 65.975650 -10.111840
-21.273685 68.161203 -52.837745
-15.617897 66.226736 -47.053368
-12.134925 64.544403 2.014614
2.003770 51.429815 -36.180299
-25.623913 69.005576 -55.713724
-16.774240 66.684957 -27.813542
-9.461843 62.940806 -3.135332
8.100620 36.171077 -7.537937
6.681660 41.477681 -46.737025
-8.632062 62.355261 -21.439776
-3.805589 58.419302 -8.147260
-26.382824 69.112575 -9.034175
4.043066 47.913374 -21.755425
-4.276996 58.878852 -30.635289
-26.589804 69.141758 -11.654683
-11.551592 64.198352 -16.234099
-6.452043 60.740541 -52.206130
-0.021318 54.267114 -3.071865
6.364343 42.423543 -61.020555
-1.664870 56.208557 -3.202213
-0.086148 54.354190 -1.407078
-24.262229 68.813592 -52.274056
-29.299751 69.356340 -29.014150
-12.154571 64.556058 -35.628008
-8.038004 61.936056 -55.349040
5.567645 44.599871 -37.201701
-7.146774 61.307149 -40.278122
0.695540 53.304251 0.289899
-20.620804 67.980239 -39.738077
-8.043970 61.940266 -13.367889
1.034149 52.849443 -15.313616
-27.719825 69.259872 -39.245064
-4.763872 59.337006 0.309475
2.814285 50.139614 -51.251826
-18.740330 67.402204 -25.215114
5.538143 44.669118 -18.463763
5.447308 44.882325 -48.350906
-23.989352 68.766045 -13.133139
-31.608986 69.396375 -34.832000
-26.548823 69.135980 -0.879880
5.975899 43.581419 -18.228800
-2.421534 57.070060 -53.090867
-30.025336 69.400644 -53.014186
-11.215070 63.998717 -1.035169
7.753764 37.510487 -20.819148
8.290381 35.438299 -44.002158
8.485540 34.684680 -30.267501
-25.215669 68.948018 -22.820507
-14.482776 65.715624 -6.304286
7.363948 39.015790 -22.126749
-25.549702 68.995113 -17.060673
-33.243939 69.366828 -45.086208
-7.765920 61.744057 -22.402862
-31.897399 69.391163 -6.240843
-8.666686 62.379694 -51.111735
-7.028707 61.219976 -35.936876
-4.967945 59.506671 -4.044552
-12.580784 64.781863 -49.228071
-2.562015 57.207008 -44.103739
-19.693543 67.695211 -13.155163
-15.828384 66.310145 -16.446523
-28.421095 69.302691 -44.868165
-9.372826 62.877990 -8.117632
5.858385 43.917447 -26.233999
-5.457692 59.913844 -51.001825
-28.922210 69.333288 1.500635
6.426070 42.239548 -15.733039
-12.383387 64.684953 -3.887370
-23.801455 68.724196 -4.735269
-13.242978 65.106959 -58.542763
-23.463907 68.649016 -21.387332
-27.273698 69.232632 -15.312600
7.279192 39.343082 -50.273132
-4.543815 59.138960 -35.383509
8.133149 36.045463 1.157470
-22.519823 68.438747 3.637700
-12.450854 64.718075 -50.160373
-9.241471 62.785298 -22.227765
-4.092684 58.699176 -38.361856
4.244507 47.528174 -36.129438
-3.371530 57.996162 -38.366105
-27.817813 69.265855 -21.886511
-10.605344 63.637009 -34.046311
-21.316134 68.170657 -3.532044
4.572598 46.900791 -39.067701
-8.182721 62.038178 -58.202744
-17.965197 67.156895 -7.901621
-10.029991 63.295691 -24.639095
7.480266 38.566620 -41.443933
-3.769417 58.384040 -56.893871
-12.286292 64.634198 -19.095097
-6.431443 60.723414 -51.570780
2.536180 50.582310 -59.406535
8.423305 34.925004 -8.316870
-1.455279 55.969133 -20.909598
5.922826 43.739621 -36.189505
7.371830 38.985352 -11.780527
6.789883 41.155091 -0.574998
-21.279234 68.162439 -5.233024
-22.139130 68.353957 -17.948132
-5.189443 59.690822 -25.759744
0.677392 53.328628 -5.110573
-4.204159 58.807847 -55.828937
-29.402830 69.362634 -51.402399
-10.854698 63.784933 -26.886673
-13.052714 65.013551 -33.854785
-22.541178 68.443503 -3.994696
-0.251603 54.576425 0.189721
6.528922 41.932966 -26.929037
-23.284898 68.609147 -27.926631
-7.325580 61.433325 -37.431401
-24.592909 68.860215 -49.654933
7.003516 40.407627 -6.399340
-21.800511 68.278539 -16.044000
3.497974 48.955713 -49.082697
-32.943181 69.372263 1.361097
4.988747 45.958656 -59.467329
-4.301654 58.902890 -28.881984
-27.247719 69.231046 -5.321106
-27.131782 69.218171 -32.227484
-9.010340 62.622197 -28.447329
-3.514026 58.135074 -21.629341
7.126852 39.931354 -1.453584
-33.259348 69.366549 -38.408415
3.410937 49.122147 -41.530193
-2.255456 56.883205 -9.967590
2.090227 51.292191 -13.776361
-32.362440 69.382758 -23.370033
-16.201642 66.458055 -23.482633
5.937021 43.697309 -46.567881
-28.338234 69.297631 -41.790709
-23.248738 68.601093 -58.587992
-29.190999 69.349700 -24.803016
-21.647882 68.244545 -53.988598
-16.575328 66.606134 -15.763475
-29.801716 69.386990 -12.747788
6.701109 41.419710 -34.933280
-13.997099 65.477186 -56.982169
-2.843864 57.481768 -3.473032
-11.364554 64.087395 -19.187552
-14.382160 65.666227 -18.497142
2.493163 50.650785 -23.593649
-15.797433 66.297879 -19.189306
-15.056159 65.997120 -11.528884
-6.444733 60.734464 -15.948700
-32.766227 69.375461 -52.545567
-20.414772 67.916908 -15.056112
-7.324482 61.432551 -48.685698
3.922380 48.144154 -52.290555
-29.611171 69.375355 -17.096327
-32.538888 69.379570 -25.905883
-2.548692 57.194020 -28.334243
-22.526545 68.440244 -8.281713
-15.038793 65.988594 -40.876471
-2.893028 57.529695 -30.698033
-28.544922 69.310251 -28.560973
8.262872 35.544527 0.799644
5.621281 44.473976 -33.033526
8.408146 34.983543 -56.065769
-20.639968 67.986130 -41.596569
7.560173 38.258052 -39.852162
-22.267860 68.382629 -32.762474
2.382061 50.827641 -55.289444
-0.898880 55.333537 -35.793354
-6.838252 61.061633 -58.543987
-8.455778 62.230864 -16.160909
-0.688307 55.092992 -28.845083
8.137311 36.029394 -52.242635
-10.679376 63.680927 -29.591966
-27.225943 69.229716 -20.423508
-2.279511 56.910684 -28.983055
7.141617 39.874337 -8.677195
-2.653611 57.296300 -56.559168
-13.707314 65.334920 -10.501417
-22.086408 68.342215 -2.891781
-24.937467 68.908794 -42.554867
-8.947033 62.577524 -51.599255
8.337844 35.255020 -12.055017
-9.660039 63.076225 -54.573279
6.928844 40.695979 -23.276800
-22.402696 68.412660 3.103452
1.732892 51.861007 -31.115980
-10.107680 63.341779 -19.818146
-23.670856 68.695108 2.714531
6.827723 41.042295 -27.733317
3.120993 49.651387 -53.733677
8.001086 36.555435 -39.707215
-6.040688 60.398543 -6.531466
-5.028482 59.557001 -34.691528
8.394778 35.035165 -55.502463
3.975252 48.043051 -44.006897
-17.679371 67.043631 -52.517466
4.315420 47.392573 -44.805801
-5.224010 59.719562 -29.929234
-1.186946 55.662605 -44.635238
-25.617574 69.004682 -33.695125
-8.203328 62.052719 -57.632076
-29.359264 69.359974 -24.148139
-27.939563 69.273289 -5.248631
-24.435937 68.838083 -2.329581
0.216328 53.947915 -20.052720
8.356178 35.184221 -14.081109
3.696514 48.576060 0.112857
-18.689503 67.386580 -51.779399
-1.612559 56.148799 -59.328675
-22.145986 68.355484 -1.836595
8.161610 35.935562 0.188786
-19.897089 67.757778 -1.596569
-6.681695 60.931472 -8.105937
-20.480106 67.936991 -51.215354
5.884900 43.852671 -0.558731
-12.215433 64.592163 -9.216038
-19.353560 67.590704 -2.593061
4.123170 47.760198 -30.511053
7.109452 39.998546 -43.682911
-15.186724 66.055875 -2.303172
-4.523570 59.119224 -41.773311
7.231506 39.527227 -43.036221
1.931311 51.545157 -8.372561
-20.178558 67.844299 -33.430086
7.095146 40.053791 -38.808342
-15.704332 66.260987 -58.848769
6.624777 41.647240 -50.077126
-25.953547 69.052051 -12.820928
1.357435 52.415214 0.345706
5.985390 43.553130 -32.348804
-3.585848 58.205089 -40.277680
-22.649314 68.467587 -58.068724
4.802146 46.396644 -49.182758
8.060925 36.324363 -50.936005
-15.920767 66.346753 -4.514529
-14.343055 65.647029 -28.652520
-0.900106 55.334938 -51.877123
0.819715 53.137463 -55.106881
4.310590 47.401810 -4.358695
-4.477984 59.074784 -56.852727
-9.409243 62.903688 -15.936157
5.223389 45.407906 -6.512086
-13.702217 65.332417 -26.679033
-14.439894 65.694571 -16.156415
-18.755405 67.406838 -30.908244
2.964541 49.900431 -48.591377
-15.556310 66.202331 -49.349897
-16.649682 66.635598 -57.007944
-29.424327 69.363947 -22.736977
1.137221 52.710999 -18.688351
-6.478385 60.762442 -9.501310
-3.937639 58.548031 -10.521423
-16.018779 66.385592 -51.361887
4.964168 46.016348 -56.777677
-9.406075 62.901453 -10.306197
-21.150409 68.133746 -31.679105
-27.488671 69.245758 -29.042188
5.998259 43.514770 -47.104188
0.152973 54.033010 -52.638939
-14.215712 65.584512 -2.022759
3.722604 48.526170 -7.203660
-31.668784 69.395294 -43.761003
-7.250786 61.380546 -2.164314
7.256503 39.430699 -48.210399
-7.409536 61.492570 -53.420314
-24.214493 68.806861 -8.219310
-33.429007 69.363483 3.644141
1.075669 52.793674 -53.263096
6.145428 43.076088 -15.141233
-1.005273 55.455074 -16.144224
2.817325 50.134774 -41.641505
6.722501 41.355943 -40.323996
-21.854812 68.290633 -23.991562
-2.161325 56.775676 -31.094265
4.368511 47.291052 -50.375874
8.277690 35.487309 -33.765672
-28.763971 69.323626 -10.548588
-27.623493 69.253990 -43.991487
-30.586690 69.414850 -8.872416
-2.305768 56.940678 -38.129724
-18.442545 67.310668 -12.809303
6.925050 40.710629 -9.655022
-12.245439 64.609964 -48.840970
7.702310 37.709181 -27.793358
-7.776292 61.751376 -3.126014
-26.842344 69.177363 -16.981867
-8.107415 61.985037 -4.302816
-14.809759 65.876152 -23.825355
8.526966 34.524711 -51.931215
8.168116 35.910437 -3.765544
-1.589131 56.122037 -13.417053
-12.755852 64.867810 -5.931956
-21.110700 68.124902 -59.239735
-20.505426 67.944774 -20.246125
8.448985 34.825839 3.694347
5.833443 43.975992 -54.481436
-0.027670 54.275644 -52.033228
7.873865 37.046708 -32.782324
-11.760343 64.322190 -58.909344
4.048885 47.902249 -16.843334
-25.053926 68.925213 -3.728272
-19.099613 67.512643 -50.695005
-6.230422 60.556287 -11.732155
-24.787198 68.887607 -14.020932
7.887312 36.994781 -54.937284
5.631780 44.449333 -47.993778
-8.783179 62.461898 -17.350296
-9.743226 63.125574 -2.112384
-13.593110 65.278853 -47.830397
-7.396543 61.483402 -30.458332
4.227596 47.560512 -31.509740
-9.474620 62.949822 -2.639940
-25.891854 69.043353 -9.887821
7.728336 37.608679 -58.120061
1.561167 52.134365 -33.895213
-19.098404 67.512272 -14.754989
-2.077860 56.680330 -33.619069
-33.272919 69.366304 -17.487688
8.575585 34.336967 -49.757766
-5.122751 59.635375 0.470909
3.607613 48.746059 -4.155990
-22.326001 68.395578 -27.748775
-31.772748 69.393415 -38.272395
2.251285 51.035814 -24.565055
-5.831980 60.225024 -6.015068
-0.973867 55.419198 -45.823925
8.547730 34.444530 -10.436871
-8.917370 62.556592 -37.549887
-7.917917 61.851316 -29.038756
-5.947384 60.320971 -28.059548
-2.617117 57.260724 -55.254263
-23.386589 68.631795 -31.032813
4.689453 46.661156 -18.412094
2.769951 50.210186 -14.232826
-28.476719 69.306087 -36.052726
-18.290057 67.263795 -2.070950
-1.286773 55.776641 -33.873064
5.715757 44.252224 -27.580344
-8.286774 62.111604 -22.673557
8.438613 34.865894 -59.324354
5.168520 45.536693 -5.614198
4.408913 47.213794 -58.104961
7.961569 36.708031 -36.034930
-21.916164 68.304298 -35.302158
1.764602 51.810529 -34.838562
-27.658812 69.256146 -20.759590
-29.502466 69.368718 -55.981668
7.292333 39.292337 -30.234387
5.173566 45.524849 -23.537760
-7.126790 61.293047 -58.161915
1.482860 52.246748 -25.943108
5.779218 44.103268 -11.240388
-20.048338 67.804270 0.242193
4.704447 46.625962 -31.495847
-28.394504 69.301067 0.120273
-15.619882 66.227522 0.897905
4.198050 47.617010 -46.923800
-8.422385 62.207299 -5.441095
-0.149425 54.439183 -17.088277
-0.236842 54.556599 -29.060556
4.417998 47.196421 -43.466712
-17.360362 66.917218 -8.954845
-1.187729 55.663501 -57.169280
-14.767733 65.855520 -3.482068
8.324349 35.307131 -6.142588
1.433948 52.312445 -1.071321
-18.791308 67.417874 -28.837443
2.359757 50.863144 -28.565079
-9.559687 63.009851 -5.886048
5.402756 44.986896 -30.335412
1.126476 52.725431 -50.065969
-2.043564 56.641152 -35.842140
-7.891729 61.832836 -30.855005
6.307134 42.594072 -31.214443
-31.852584 69.391973 -22.837397
-25.499342 68.988013 -26.264883
-6.438755 60.729494 -59.686091
-8.778223 62.458401 -19.158896
-6.613126 60.874465 -23.436834
-20.687511 68.000745 -46.728425
-8.142548 62.009829 -37.910792
-14.382525 65.666407 -38.220360
-25.208607 68.947022 -22.281249
7.155791 39.819606 -6.542385
-17.216907 66.860371 -53.404969
-4.166293 58.770933 -2.418877
-10.669395 63.675006 -4.356275
-18.732481 67.399791 -19.092476
-13.947321 65.452749 -39.573803
-4.285847 58.887481 -11.704875
-13.249376 65.110101 -12.801253
-22.893394 68.521950 -27.555716
-6.535161 60.809644 -11.331776
-33.383372 69.364308 -4.631850
-8.277198 62.104846 -14.150723
7.677687 37.804266 -34.726236
-11.920559 64.417235 -32.778613
-24.030048 68.775109 -26.255539
-8.851488 62.510101 -43.777876
3.479697 48.990664 0.459205
-0.055758 54.313372 -57.067876
0.299089 53.836752 -8.013299
-29.010961 69.338707 -34.314143
-4.367784 58.967356 -46.318155
3.702717 48.564200 -36.816378
2.401291 50.797029 -12.237634
-4.839375 59.399778 -19.285433
-30.684640 69.413080 -42.425591
6.866432 40.926914 -8.525527
-31.509891 69.398166 -47.554772
0.405941 53.693232 -59.665108
-13.309165 65.139453 -2.895554
-7.546686 61.589352 -16.463525
-0.477009 54.851618 -15.423843
-31.375224 69.400600 -49.673131
2.210903 51.100094 -35.339029
1.217758 52.602824 -14.484328
-5.402752 59.868167 -49.833527
-25.231482 68.950247 -58.448546
-27.189938 69.226371 -13.046209
-9.641292 63.065103 -36.585754
6.546808 41.879649 -2.811553
6.316460 42.566274 -34.359697
6.748782 41.277603 -10.216404
-0.943935 55.385005 -45.207312
-25.943153 69.050586 -13.912591
6.694293 41.440027 -11.236445
-7.921064 61.853536 2.801716
3.506369 48.939660 -18.777615
-27.976785 69.275562 -35.314554
-6.436259 60.727419 -4.846552
3.373390 49.193947 -11.753119
-5.615086 60.044700 -17.874481
-32.556039 69.379260 -31.312161
-20.321823 67.888336 -34.149493
8.556933 34.408991 -17.111714
-22.989321 68.543315 -22.905827
-11.521737 64.180641 -50.290545
-24.288649 68.817317 -51.454012
5.168771 45.536105 -22.226109
-19.678291 67.690522 -38.116123
-1.580244 56.111885 -47.059903
6.157356 43.040532 -53.821831
8.136146 36.033889 -56.385475
-29.677723 69.379419 -50.895147
-26.958414 69.193728 -18.795980
7.055323 40.207569 -13.031120
-22.699966 68.478869 -59.698129
-32.340108 69.383162 -38.999444
-25.759889 69.024748 -45.548842
4.149298 47.710235 -15.370463
-21.838115 68.286914 -39.639239
5.797518 44.060314 -44.235504
-33.451134 69.363083 -5.205355
4.466560 47.103560 -21.336260
-4.887772 59.440015 -41.925653
1.857876 51.662053 -19.476811
-17.189346 66.849450 -17.900073
-7.909904 61.845661 -55.946015
-17.298140 66.892561 -43.055943
7.515502 38.430552 -46.946363
6.926865 40.703620 -14.205763
-9.340782 62.855378 -14.862880
-0.426994 54.794484 -14.861411
7.642238 37.941154 -14.325117
7.992915 36.586986 -29.933731
-20.599881 67.973808 -48.204454
-32.309359 69.383718 -24.410007
-4.951538 59.493030 -2.315311
-30.509829 69.416239 -22.501220
-5.183232 59.685659 -7.783735
-0.813991 55.236565 -26.362370
4.185988 47.640076 -33.911715
0.821490 53.135080 -55.697828
7.575508 38.198837 -41.849702
-9.128163 62.705340 -40.982535
2.338648 50.896747 -39.891884
5.728576 44.222134 -36.215991
6.465383 42.122363 -29.532650
-13.882381 65.420867 1.368129
-23.084443 68.564500 -35.561165
1.387107 52.375359 -9.742023
-32.127653 69.387001 -8.809939
-1.739503 56.293812 -9.818582
-2.415915 57.064583 -44.556119
7.839299 37.180189 -56.220050
-21.733118 68.263529 -28.839637
8.324693 35.305803 -49.150954
-7.799149 61.767506 -15.177459
5.118514 45.654068 -4.281671
-29.341303 69.358878 -47.528619
6.182027 42.966993 3.622904
6.866896 40.925531 -38.925958
-26.734201 69.162116 -2.363649
5.154804 45.568888 -43.948277
-1.734114 56.287656 -8.472836
-27.139679 69.219285 -4.292556
7.784595 37.391430 -60.510142
-6.145013 60.485278 -14.522524
-14.806163 65.874387 -46.337874
-11.620280 64.239100 -29.330202
-13.424783 65.196214 -6.769497
-27.638325 69.254896 -5.644254
6.257641 42.741601 -39.775584
-23.055471 68.558048 -56.202745
7.478264 38.574350 -45.846531
-2.044206 56.641886 -51.902117
-16.326570 66.507559 -54.680222
-0.701794 55.108398 -9.327248
-20.108727 67.822833 -10.038373
-20.524911 67.950763 -35.539038
-15.313657 66.106175 -45.091259
-25.040450 68.923313 -43.937683
-29.116882 69.345175 -30.568312
-19.414285 67.609370 3.051315
-32.757014 69.375627 3.628962
7.186294 39.701817 -13.667457
-5.273683 59.760859 -31.533886
-9.358532 62.867903 -30.506610
-10.455359 63.548033 -21.260561
-23.771719 68.717573 -5.261071
-3.293363 57.919961 -46.772304
-6.957917 61.161121 3.001492
4.606293 46.836359 0.077743
0.992527 52.905348 -3.009433
-14.624701 65.785300 -9.504305
-19.554545 67.652484 -39.325134
-27.877963 69.269528 -34.833714
-16.197301 66.456334 -11.335415
7.721370 37.635578 -31.218817
-32.495029 69.380362 -11.707294
-11.539173 64.190985 1.848887
1.069209 52.802351 -50.960082
6.279808 42.675526 -29.243510
-17.498153 66.971820 -3.738231
-17.254164 66.875135 -17.328704
-22.779238 68.496524 -12.835095
-13.535309 65.250476 -60.672262
-33.260468 69.366529 -14.107030
-6.541407 60.814838 -10.511678
-5.145638 59.654404 -6.614164
8.470031 34.744571 -18.118808
7.171745 39.757996 -30.826573
1.515931 52.202328 -20.290547
7.578067 38.188955 3.801699
-17.649466 67.031780 -29.514718
-16.334507 66.510705 -50.439770
-32.780402 69.375205 1.851022
2.177691 51.152962 -28.192137
3.224971 49.477757 -60.960735
-3.596328 58.215305 1.408234
2.831501 50.112208 -55.446099
-8.696972 62.401065 -33.488768
4.708939 46.615420 -24.767413
-6.258014 60.579227 -13.528902
-10.335745 63.477074 -57.413093
-2.594349 57.238529 -36.041963
8.223684 35.695857 -2.307256
-21.335828 68.175044 -25.617303
0.638826 53.380428 -48.246936
-20.299252 67.881398 -36.179956
8.101259 36.168610 -25.045506
-2.831231 57.469452 -16.996360
5.336338 45.142794 -25.107624
4.886189 46.199378 -43.511861
-21.717462 68.260042 -26.284167
8.009964 36.521152 -50.393264
7.004945 40.402109 -57.204292
3.646575 48.671556 -6.109040
-32.247029 69.384844 -6.805044
-26.309326 69.102213 -25.478812
7.317137 39.196555 -4.585286
8.321282 35.318974 -47.431577
-0.369013 54.728249 -49.703722
-2.779036 57.418571 -19.919687
-14.309417 65.630515 -20.307876
-0.782254 55.200311 -36.242747
-13.360877 65.164841 -7.405034
-4.877064 59.431113 -24.462714
6.777724 41.191334 -23.533464
1.714328 51.890558 -6.376616
-22.391227 68.410105 -45.244742
7.316110 39.200521 -21.428294
7.092704 40.063220 -26.576508
-20.824161 68.042749 0.494510
-31.757410 69.393693 -49.246912
3.556716 48.843386 -55.002331
-10.315540 63.465088 -44.357715
-8.284114 62.109727 -54.884677
2.402253 50.795498 -4.660298
7.155022 39.822575 -37.080261
7.882980 37.011511 -48.010753
1.945532 51.522521 -57.004674
-14.661123 65.803181 -38.797477
4.920214 46.119517 -8.394085
6.823543 41.054755 -57.894744
-30.962548 69.408057 -9.209806
-26.640780 69.148945 -39.762117
-0.928979 55.367920 -20.741477
3.052570 49.760304 -40.947417
-8.363448 62.165710 -9.508994
-13.436856 65.202142 -12.159311
6.729321 41.335614 -51.784824
-5.091556 59.609440 -21.286502
4.590692 46.866191 1.334113
2.162394 51.177313 -10.675511
-31.195425 69.403849 -6.521088
1.525626 52.189305 -55.888651
-4.666920 59.256401 -33.977184
8.450887 34.818494 -28.409479
-19.265343 67.563587 -1.850445
1.136028 52.712601 -13.560546
-20.025408 67.797222 -52.685697
-2.984244 57.618616 -57.062424
6.977003 40.510009 -39.529712
0.259606 53.889785 -30.831131
-2.254437 56.882041 -36.879057
-1.218008 55.698089 -21.525638
-11.254897 64.022343 -42.090668
-26.657956 69.151366 -43.779605
7.508575 38.457305 -28.747329
-24.985129 68.915514 -50.172563
-0.763850 55.179287 -57.040431
-25.147243 68.938370 -19.371664
-2.109773 56.716786 -6.767892
-28.421716 69.302729 -55.051151
1.759437 51.818751 -12.313799
-24.949732 68.910523 -58.909303
-27.954069 69.274175 -42.763873
6.063380 43.320655 -27.851973
-28.499104 69.307454 -1.403040
-27.333262 69.236269 -43.020405
-9.470746 62.947088 -14.190260
-23.717843 68.705573 -30.551746
8.036068 36.420350 -33.421865
-26.154823 69.080429 -9.474713
6.827610 41.042632 -60.510233
-15.034956 65.986710 -6.850877
-7.786387 61.758500 -48.005420
-15.623674 66.229025 -41.228766
1.309358 52.479790 -43.291504
4.122358 47.761752 -50.069850
4.956960 46.033266 -34.184819
5.514996 44.723447 -1.081323
-32.418889 69.381738 -10.362521
-20.343881 67.895117 -21.963751
7.146407 39.855840 -24.541624
7.355486 39.048469 -44.462761
6.048555 43.364846 -24.278101
-30.218415 69.412433 -6.813915
-10.757119 63.727046 -53.331991
-5.884754 60.268901 -38.755298
-18.624664 67.366649 -24.542248
-1.415868 55.924112 -20.050011
3.032221 49.792696 -9.680806
-8.177382 62.034410 -54.158270
8.390391 35.052106 -27.818450
-2.656729 57.299340 -60.077026
-27.938777 69.273241 -7.714226
6.872464 40.908932 -15.563768
6.929601 40.693053 -58.381534
8.569512 34.360416 0.815207
7.760773 37.483421 -10.469219
4.039358 47.920466 -25.734612
-13.338666 65.153936 -27.018085
7.406475 38.851570 -1.984377
-5.840331 60.231967 -22.300827
-30.287417 69.416646 -10.925034
5.276365 45.283560 -24.588080
-31.505084 69.398253 -0.380220
-27.419927 69.241560 -46.017258
-31.698925 69.394750 -13.732651
-23.229033 68.596704 -6.649963
-4.764918 59.337875 -6.506918
1.960582 51.498564 1.823764
5.293281 45.243856 -50.273626
5.445572 44.886399 -15.647035
-19.551112 67.651429 -20.561817
-22.157023 68.357943 -22.417376
-25.616632 69.004550 -52.321558
-9.891877 63.213758 -49.928381
8.093337 36.199203 -29.505402
-26.057261 69.066674 -18.734458
5.068540 45.771365 -24.655008
0.770146 53.204043 -1.145927
3.952956 48.085687 -19.072851
-25.540901 68.993872 -0.058423
6.826679 41.045409 -10.788220
0.425826 53.666523 -40.482919
-1.338559 55.835799 -3.333270
-7.851323 61.804323 -18.810663
7.291745 39.294607 -56.962852
-1.213594 55.693047 -59.396990
7.448406 38.689650 -6.043707
-8.739119 62.430807 -60.876914
-5.804782 60.202412 -30.689285
-32.029976 69.388767 -48.386939
8.379122 35.095623 -43.577081
-12.289144 64.635891 -49.654569
-4.857603 59.414933 -46.830402
8.163619 35.927803 -1.137205
-23.793195 68.722356 -47.664479
-12.666042 64.823719 -42.488956
-26.840684 69.177129 -4.763023
-19.699155 67.696936 -57.126778
-15.328563 66.112082 -40.355385
6.225108 42.838575 -34.801480
-22.478878 68.429627 -51.831791
-31.320014 69.401597 0.793367
-25.381284 68.971368 -51.785439
4.768061 46.476649 -7.510892
3.998606 47.998393 -9.265982
-5.558552 59.997698 -7.577844
-7.601041 61.627708 -6.102980
-23.505636 68.658310 -32.029651
-31.251037 69.402844 -60.267335
6.077290 43.279192 -31.936202
-22.378002 68.407160 -52.336834
6.072515 43.293426 1.884402
0.621091 53.404249 -27.253912
-17.150570 66.834084 -29.928883
-20.716146 68.009547 -34.695066
6.586578 41.761105 -32.686661
-3.300469 57.926888 -52.266180
-24.890376 68.902154 1.215973
-24.005781 68.769704 -24.355371
8.135577 36.036087 -0.545475
-10.124954 63.352027 -11.983927
-26.000342 69.058649 1.475249
-27.147613 69.220403 -17.490320
-8.110811 61.987433 -50.058033
4.579155 46.888252 -34.885665
-12.594859 64.788773 -10.059807
5.114420 45.663678 -37.510618
-28.751814 69.322884 -45.317804
4.940292 46.072389 -33.411028
-29.832759 69.388885 -45.370296
4.709339 46.614479 -12.312877
-31.456678 69.399127 -2.608497
-28.717244 69.320773 -20.140602
4.677600 46.688979 -34.091654
4.425192 47.182665 -33.068185
5.210440 45.438299 -59.783058
0.046471 54.176061 -3.929476
-12.591419 64.787084 -13.335294
-1.816556 56.381833 -23.164517
-7.296317 61.412676 -28.395476
-25.215230 68.947956 -21.805406
4.839996 46.307803 -23.342594
-19.225557 67.551357 -51.353698
-18.976115 67.474681 -54.404922
-0.778951 55.196538 -39.443644
-20.715430 68.009327 -22.637364
8.529065 34.516604 -37.360012
1.858596 51.660908 -8.850466
4.492255 47.054425 -55.156479
-18.834359 67.431107 -4.218818
-4.278685 58.880498 -10.034458
-0.185281 54.487343 -20.316660
3.743409 48.486386 -19.515572
4.944487 46.062542 -60.750069
-30.594993 69.414700 -18.458964
-2.591148 57.235408 -8.154346
-24.297464 68.818560 2.231865
-1.683906 56.230301 -46.279204
-32.253820 69.384721 -14.417470
-3.879083 58.490948 -23.609001
-2.088333 56.692294 -16.905600
-1.387251 55.891422 -24.395794
-24.874829 68.899962 -54.379409
-30.423559 69.417798 3.618693
6.725837 41.345999 -41.343016
-2.144348 56.756282 -61.041185
7.446152 38.698353 -2.542001
-22.611741 68.459219 -4.461509
-12.318601 64.653147 -37.117179
-28.265631 69.293198 -40.211394
3.057768 49.752029 -36.909418
-5.020122 59.550051 -0.940832
-4.301243 58.902490 -55.103516
-31.194122 69.403872 -43.636048
-3.175099 57.804671 -13.779393
-25.197450 68.945449 -34.904134
2.496885 50.644859 -20.093809
6.699987 41.423053 -33.268568
-30.068492 69.403279 -58.753942
-18.250447 67.251620 -27.155205
0.187811 53.986218 -60.757712
-4.126057 58.731710 -57.552657
7.208912 39.614473 -14.228059
4.657539 46.736064 -7.952396
-29.820877 69.388160 -56.460161
-24.096268 68.789857 -32.008982
-12.420439 64.703143 -58.800075
-17.832508 67.104314 -38.516483
-13.954169 65.456110 -36.665986
1.391952 52.368853 -39.119036
-13.947647 65.452909 -55.082890
-3.574341 58.193871 2.766297
-6.051341 60.407400 -54.611453
2.798449 50.164821 -26.985067
6.190605 42.941423 -12.695366
6.380436 42.375573 -59.477260
1.333399 52.447499 -57.072838
-25.121030 68.934674 -36.123943
-24.749564 68.882301 -3.108894
5.190319 45.485527 -4.896804
6.561252 41.836597 -25.299519
-2.394416 57.041944 -51.459751
-25.480294 68.985327 -13.724508
-10.400756 63.515641 -35.788282
-32.161379 69.386392 -17.030267
-14.937174 65.938706 -58.356305
8.052060 36.358595 -0.082843
7.074560 40.133283 -16.579570
-19.089510 67.509538 -21.971576
-25.425215 68.977562 -6.557238
4.787921 46.430033 -15.856885
5.427927 44.927815 -34.212044
-14.746606 65.845148 -60.490904
-14.434313 65.691832 -59.267129
-23.055834 68.558129 -8.918550
5.530567 44.686900 -12.342658
-14.375760 65.663086 -26.091746
-6.148818 60.488441 -40.045330
5.491953 44.777535 -20.672957
6.197225 42.921690 -60.599943
6.040801 43.387961 -47.997851
7.236106 39.509464 -22.665086
-21.781561 68.274319 2.972187
6.664889 41.527675 -15.041545
-14.432242 65.690815 -8.959763
6.092836 43.232853 -60.992167
-8.031269 61.931303 -48.483310
-5.234284 59.728103 -32.038434
2.238506 51.056156 -13.335749
-0.197302 54.503490 -5.218271
7.314034 39.208536 -6.133936
-27.362357 69.238045 -54.231728
-26.033081 69.063265 -29.781194
-19.303772 67.575400 -53.904869
-16.038272 66.393316 -25.765360
-5.967269 60.337503 -15.719085
7.992979 36.586741 -57.806010
7.314827 39.205476 -23.750803
-32.461568 69.380967 -2.568588
5.848806 43.939931 0.442162
-30.214469 69.412192 -6.102190
-13.019904 64.997444 -8.159660
-16.556675 66.598743 -31.603177
-27.893860 69.270498 -57.163833
-11.191482 63.984724 -47.901748
-24.493827 68.846245 -37.127638
-3.131958 57.762615 -9.298416
-8.814677 62.484125 -58.135450
-29.364930 69.360320 -26.472975
-25.875320 69.041022 -15.257476
-10.025460 63.293004 -55.084413
-6.864658 61.083587 -0.462814
6.082028 43.265070 -39.463454
-7.971543 61.889158 -51.784692
8.562625 34.387011 -60.278388
6.281309 42.671053 -49.283233
-0.068115 54.329969 -21.803780
-8.431212 62.213528 -12.005404
-21.462152 68.203179 -30.505181
-11.827838 64.362230 -31.521048
-27.858004 69.268309 -12.726842
4.649255 46.754205 -51.306128
-8.611373 62.340662 3.624489
-21.915514 68.304153 -17.465418
-27.112447 69.215445 -11.607162
-22.459143 68.425232 -34.315198
-27.939952 69.273313 -21.360443
-15.263035 66.086115 -59.097391
-28.508360 69.308019 -54.327048
-4.305520 58.906659 -51.413203
1.491049 52.235749 -2.323440
7.191987 39.679832 -15.594933
1.621861 52.037749 -13.021935
-17.556448 66.994921 -46.379342
-17.516681 66.979162 -22.808070
-2.986937 57.621242 0.137554
-0.618890 55.013694 -45.667907
-24.941774 68.909401 -61.003280
-3.908359 58.519488 -15.013884
6.095689 43.224350 -32.743236
-24.645942 68.867692 -48.259685
-23.550772 68.668363 -1.295524
7.665157 37.852650 -48.161597
-32.347511 69.383028 -50.227451
-19.687047 67.693214 -44.392850
-31.258702 69.402705 -59.355045
-15.087057 66.012289 -47.275652
-5.823083 60.217627 -48.050409
-1.340250 55.837731 -36.867190
5.121175 45.647821 -61.050478
6.436452 42.208601 -18.398891
-25.494395 68.987315 0.982541
-26.123409 69.076000 -37.364691
-0.097754 54.369780 -26.184588
7.668352 37.840312 -39.260361
7.522072 38.405184 -47.971244
-11.979513 64.452208 -1.172770
3.102362 49.681043 -42.964188
-6.061347 60.415719 -53.313975
7.067384 40.160996 -51.843435
-19.387349 67.601090 -21.228412
-17.462970 66.957878 -47.168599
4.883265 46.206244 2.395076
0.154223 54.031331 -36.296062
-3.711354 58.327437 -24.841353
-30.250100 69.414368 -19.672749
0.871945 53.067310 -59.244987
5.314167 45.194832 -52.441039
5.348727 45.113713 -57.689371
-29.412163 69.363204 -22.152036
-18.317586 67.272257 -15.511950
-18.798557 67.420102 -8.733814
6.025801 43.432672 -38.803706
8.310627 35.360118 -25.797344
5.419974 44.946482 -44.041398
0.445222 53.640470 -44.501772
-19.535333 67.646578 -28.371747
-2.042830 56.640315 -49.360844
7.768311 37.454313 -41.066097
1.069099 52.802499 -2.480731
-15.162269 66.046185 -1.401492
-10.453434 63.546891 -46.878439
7.961225 36.709361 -59.225849
1.439655 52.304779 -61.081205
-26.089667 69.071243 -49.059007
-8.204235 62.053359 -20.652295
-12.744726 64.862348 -36.546270
1.575188 52.112045 -42.248884
7.246101 39.470867 -59.419668
-28.079623 69.281841 -32.020990
7.428617 38.766067 -32.648161
-29.934868 69.395120 -53.672760
-14.274169 65.613211 -3.684459
-12.263046 64.620409 -2.185063
-32.158853 69.386438 -44.297505
-7.370235 61.464837 -15.020634
4.536490 46.969838 -41.684743
-32.873165 69.373528 -24.329789
6.778435 41.189214 3.805110
6.564771 41.826106 -20.087389
0.523134 53.535821 -55.240013
-24.757916 68.883479 -26.415662
-19.399913 67.604952 -31.430753
7.638215 37.956687 -20.472967
8.167645 35.912255 -44.898115
-14.463133 65.705980 -32.746950
-23.439602 68.643603 -19.276484
1.863503 51.653097 -1.404812
-18.024208 67.180279 2.969728
-30.133216 69.407231 -13.275204
-19.322409 67.581128 -26.814751
-23.094211 68.566676 -20.432208
0.715005 53.278106 -21.231675
4.824557 46.344042 -6.956020
-33.467069 69.362795 -47.423223
2.878312 50.037693 -59.478805
-25.789486 69.028920 -5.217726
-9.302440 62.828321 -60.947099
8.239832 35.633499 -21.973106
-4.502880 59.099055 -46.857485
-14.625897 65.785887 -21.412203
-2.122745 56.731604 -57.363283
-25.446253 68.980528 -42.461776
-1.341527 55.839189 -0.349312
7.879837 37.023645 -13.659033
2.137160 51.217481 -19.901557
7.371752 38.985654 -39.894518
4.838137 46.312167 -6.201696
-32.108676 69.387344 -46.482867
-17.846346 67.109798 -60.417021
7.803768 37.317394 1.341631
-5.635051 60.061299 -25.534935
-18.045853 67.188730 -10.680846
-11.936117 64.426464 -39.372808
6.922069 40.722139 -22.398329
7.950995 36.748866 -10.218975
-28.447715 69.304316 -57.092723
-30.064036 69.403007 -3.352823
-19.799724 67.727849 -36.112966
-31.902919 69.391063 -19.535145
7.299096 39.266223 -38.654885
6.783709 41.173493 -1.066887
-33.369220 69.364564 -22.622056
-28.952186 69.335118 -33.048856
-6.038497 60.396722 -9.360127
-10.178728 63.383927 -29.522807
-14.285180 65.618616 -5.857174
-11.500315 64.167933 -0.042981
1.087266 52.778097 -4.385219
-16.798409 66.694534 -59.728363
5.779077 44.103599 -8.714845
3.825515 48.329381 -34.682525
-21.899100 68.300497 -12.237271
-0.941370 55.382074 -56.482915
-21.419708 68.193725 -14.386696
4.899023 46.169255 -52.616685
-18.930882 67.460777 -36.715208
0.715424 53.277544 3.798196
-7.897463 61.836882 -9.510783
-25.443555 68.980147 -39.019253
5.506872 44.742516 -28.365816
8.296135 35.416080 -7.849446
-15.818237 66.306124 -44.044744
-31.379802 69.400517 -17.491730
-28.327251 69.296961 -45.574810
-11.487791 64.160504 -40.779770
6.944327 40.636190 -49.465857
1.934718 51.539734 -39.994986
-31.566219 69.397148 -15.966661
-26.686929 69.155451 -4.122198
-19.410180 67.608108 -50.157308
-3.337092 57.962589 -0.276672
7.461158 38.640406 -42.256817
-1.019144 55.470919 -19.000771
5.695696 44.299311 -25.681711
-18.278621 67.260280 -42.922485
6.682036 41.476560 -37.893068
-14.580302 65.763503 -11.248591
-11.713543 64.294427 -22.622717
3.068985 49.734174 -47.967186
-23.488786 68.654557 -37.793008
8.007858 36.529283 -26.830799
5.097736 45.702838 2.551867
-20.819258 68.041242 -44.557499
4.689806 46.660328 -19.864739
-7.416929 61.497787 -32.478269
-18.906072 67.453151 -2.984516
7.416066 38.814532 -30.482166
5.252790 45.338895 -56.444420
-18.183924 67.231171 -52.083510
-3.920320 58.531148 -40.192878
5.911913 43.772151 -41.014508
-28.346958 69.298164 -38.418104
-16.442729 66.553590 -61.068860
-26.966341 69.194846 -14.358665
-8.466867 62.238688 -0.917775
-14.989593 65.964440 -43.058370
4.892368 46.184877 -27.577471
8.244204 35.616618 -20.477037
-8.937331 62.570677 -16.192896
0.809305 53.151446 -43.197118
-22.680012 68.474424 -30.949386
5.857272 43.920060 -22.001426
-12.293636 64.638556 -46.178569
-22.492236 68.432602 -41.615459
-9.180798 62.742483 -53.941425
-9.149863 62.720653 -26.061960
-3.517821 58.138773 -32.158893
8.530064 34.512749 -11.051011
-3.058434 57.690941 -41.585174
-6.019912 60.381270 -59.336524
-6.429348 60.721673 -24.768514
-28.553544 69.310778 -51.248182
-17.590184 67.008289 -55.826766
6.477792 42.085375 -54.508633
-29.478460 69.367252 0.657010
0.635723 53.384596 -7.870837
5.651347 44.403405 -0.429527
-33.453043 69.363049 -9.919352
5.446275 44.884750 -25.879794
-18.294451 67.265146 -60.094897
3.655730 48.654050 -2.035680
-11.801529 64.346623 -17.933014
-26.074258 69.069070 -0.138594
-1.822870 56.389045 -32.819131
-2.103050 56.709106 -52.984004
-21.645912 68.244106 -26.930817
-10.747584 63.721390 -39.162493
-33.351972 69.364875 -22.015668
3.125132 49.644797 -14.875102
-13.307628 65.138698 -25.739728
4.943136 46.065715 1.851216
-28.344144 69.297992 -21.857301
5.134814 45.615807 -21.061437
-11.609744 64.232850 -2.586257
-31.391536 69.400305 -56.485357
-4.142660 58.747895 -31.980810
-18.564231 67.348073 -0.411484
-2.465545 57.112965 -52.372156
-11.954312 64.437258 1.021096
-26.559105 69.137429 -17.890959
-31.259869 69.402684 -18.319705
-15.812048 66.303671 -48.390143
-4.534238 59.129624 1.852151
-1.075641 55.535458 -58.877043
-17.578109 67.003504 -16.365377
-6.383131 60.683248 -4.047259
-7.236848 61.370711 -26.835686
-31.849701 69.392025 -52.367055
-28.744378 69.322430 -20.987772
-4.531284 59.126744 -2.040400
-26.967628 69.195027 -35.283167
-27.374233 69.238770 -48.303754
5.384272 45.030282 -51.897278
8.538576 34.479878 -19.889260
-22.546219 68.444626 -21.173547
-17.797247 67.090341 -57.103367
-2.719788 57.360813 -43.181906
-1.555157 56.083227 -60.709750
7.867780 37.070208 -27.998129
-14.898575 65.919755 -7.810699
-10.253715 63.428412 -17.861746
-30.291122 69.416872 -24.619746
8.573666 34.344374 -19.120097
-12.307771 64.646941 -40.903592
-1.466100 55.981494 -49.539109
7.946701 36.765448 -8.454801
-25.690976 69.015031 -4.279702
-16.008785 66.381632 -12.717914
7.543736 38.321524 -30.820464
1.003562 52.890526 -0.198468
-0.710773 55.118655 -44.027908
-5.616938 60.046239 -14.391118
7.261715 39.410573 -39.415036
6.677236 41.490868 -43.256825
6.659584 41.543487 -56.829435
-23.389512 68.632446 -12.982972
-4.176793 58.781169 -30.150505
6.521492 41.955113 -11.554456
-16.425252 66.546664 -51.783603
8.270723 35.514211 -45.900542
7.990402 36.596691 -30.969961
8.187623 35.835108 -57.277293
3.989132 48.016509 -11.302897
-7.971507 61.889132 -50.544910
-6.315991 60.627428 -1.113208
-32.504285 69.380195 -29.291796
-27.967142 69.274973 -3.626902
-19.352580 67.590402 -46.518201
7.187440 39.697389 -19.851200
2.545780 50.567028 -13.972711
-28.372758 69.299739 -15.855872
-0.998022 55.446791 -9.640807
-18.335120 67.277647 -53.631665
0.846014 53.102140 -35.609189
-1.902452 56.479955 -0.181488
-18.789946 67.417455 -32.357472
8.578760 34.324705 -54.805302
7.725327 37.620299 -15.141047
-32.612673 69.378236 -21.358350
-13.879726 65.419563 -7.355634
-24.703602 68.875821 -32.863116
-14.830587 65.886378 -26.400807
5.419371 44.947899 -29.691669
3.643669 48.677112 -44.264974
5.627108 44.460298 -50.727648
-2.219946 56.842640 -6.154722
6.386142 42.358565 -41.903510
-22.257197 68.380254 -57.200731
-30.075535 69.403709 -40.750112
6.455348 42.152275 3.132125
7.858645 37.105483 -46.694965
-1.448167 55.961008 -18.824674
-9.781452 63.148251 -4.736459
-1.014500 55.465614 -29.249294
-33.237585 69.366943 -28.038686
-19.898512 67.758216 -14.963889
-11.699167 64.285898 -37.494644
2.495354 50.647296 -35.814716
-5.054333 59.578493 -51.150671
-15.074600 66.006173 -53.866563
-31.548804 69.397463 -25.231631
-11.032972 63.890691 -0.183582
-21.092261 68.120796 -39.914525
-19.209113 67.546302 -40.675110
-7.442253 61.515657 -34.824230
-12.311052 64.648887 -43.563031
4.728227 46.570147 1.792652
-12.573590 64.778331 -53.322173
3.382374 49.176767 -13.333563
3.547935 48.860178 -14.890426
-11.157433 63.964525 -1.777887
2.275118 50.997875 -1.701382
-26.256867 69.094817 -40.938508
-25.495684 68.987497 -20.452696
-6.007870 60.371258 -18.900225
-16.446154 66.554947 -1.169117
-25.381948 68.971461 -30.739951
-31.120489 69.405203 -58.866094
8.103477 36.160044 -39.110368
-28.265566 69.293194 -59.617996
-26.593533 69.142283 -18.400237
4.192508 47.627608 -29.062056
-9.842199 63.184288 -45.699618
4.729630 46.566854 -60.097432
4.241218 47.534464 -41.552602
1.102085 52.758193 -58.257431
-20.059906 67.807826 -12.106230
3.651554 48.662035 -47.571679
-26.158680 69.080973 -2.470044
-11.031125 63.889595 -14.593854
-3.276761 57.903776 -58.657479
-27.779875 69.263538 -59.834140
-16.981498 66.767086 -21.478034
-0.044251 54.297917 -45.492707
3.426065 49.093220 -17.324231
-26.190803 69.085502 -59.281727
-4.519451 59.115209 -17.782770
7.681982 37.787679 -21.622082
-21.287193 68.164211 -16.090329
-8.907744 62.549799 -0.853620
7.622948 38.015645 -38.778051
8.039713 36.406276 -2.145035
7.717562 37.650284 -25.368383
-18.335075 67.277633 0.609273
-10.293067 63.451756 -31.732471
8.560714 34.394389 -28.136807
-28.733301 69.321754 -4.349589
2.592419 50.492787 -22.946588
-28.370265 69.299587 -37.159412
-28.060320 69.280662 -37.920106
5.821804 44.003311 -58.521603
-32.975579 69.371678 -25.349909
4.652763 46.747276 -25.595081
-11.752705 64.317659 -3.627733
3.016518 49.817692 -50.804165
-2.926390 57.562218 -56.191434
-11.585248 64.218318 3.203579
-7.810209 61.775310 -0.316425
-22.419287 68.416355 -32.315969
-25.156832 68.939722 -12.579508
1.546604 52.157545 -15.251510
-9.959365 63.253794 -16.731419
-8.187283 62.041397 -28.146174
-25.741588 69.022167 -34.631371
-30.348969 69.419146 -34.080394
-30.429249 69.417695 -2.884608
1.708754 51.899431 -1.940883
-9.928309 63.235371 -25.611787
-17.818128 67.098616 -14.149247
-20.303469 67.882695 -35.045263
-28.300728 69.295341 -50.772189
5.669841 44.359996 -17.901697
0.738343 53.246760 -57.990877
6.519215 41.961898 -45.191409
4.673369 46.698910 3.773461
-3.571066 58.190678 -51.442299
4.143716 47.720910 -43.578362
-11.339425 64.072488 -49.742744
-2.851948 57.489649 -48.620860
