12.064061 -40.285694 -58.542881
28.504414 -53.837386 1.903854
30.949408 -54.806258 1.846384
24.752033 -51.899818 -3.205510
41.364782 -57.079215 -46.541655
6.847757 -29.752648 -50.649818
14.316491 -43.189462 -5.099135
25.800825 -52.510392 -19.650690
25.257206 -52.199503 -25.775269
38.761452 -56.775281 -57.305160
31.203969 -54.907132 -44.982510
7.891007 -32.608266 -52.939114
29.581446 -54.264179 -10.168582
29.494046 -54.229545 -25.870110
13.684074 -42.461682 -49.801896
15.472429 -44.509934 -43.105288
6.929920 -29.997554 -17.569318
35.013957 -56.046074 -37.843080
8.973662 -35.038555 -18.728675
19.619622 -48.374063 -20.797733
6.293949 -27.926560 2.244782
28.360777 -53.767172 -26.655666
13.875620 -42.685839 -48.380859
29.522338 -54.240756 -59.219252
15.830581 -44.909820 -19.997409
26.878736 -53.039580 -34.768322
11.810834 -39.938616 -33.332689
6.276886 -27.860672 -36.187001
34.042811 -55.798549 -55.979379
27.376262 -53.283835 -0.629752
28.152720 -53.665028 -17.992932
27.998150 -53.589144 -51.765813
31.023869 -54.835765 -30.532061
25.737575 -52.479340 -51.319329
44.594201 -57.205959 -25.541517
20.878556 -49.364375 -50.361810
28.290893 -53.732862 -54.501330
43.006649 -57.179464 -18.846255
32.100291 -55.201441 -54.213466
7.948658 -32.743580 -15.507553
18.881436 -47.760347 -52.950420
11.054981 -38.735448 -4.923549
36.059727 -56.278991 -4.178024
8.514431 -34.071532 -52.957650
31.214094 -54.911145 -43.737333
29.858134 -54.373821 -33.188467
21.108321 -49.526513 -48.291244
6.762168 -29.497532 -49.891814
6.578495 -28.950054 -20.676596
46.202518 -57.176892 -11.335212
38.956011 -56.802712 -1.790513
33.806703 -55.725972 -3.965076
44.953484 -57.199465 -34.065361
19.236095 -48.055204 -59.882248
40.023644 -56.953238 -57.803039
34.557544 -55.944420 -14.950554
6.853050 -29.768426 -21.991148
24.657509 -51.843744 -51.237352
46.115307 -57.178469 -41.958304
40.915790 -57.051800 -33.199912
6.434780 -28.470350 -42.728072
20.223378 -48.876016 -59.691680
5.888352 -26.360431 -23.741155
14.040997 -42.874755 -50.931645
15.170864 -44.165445 -52.365520
30.991366 -54.822885 -12.058238
37.237626 -56.541336 -60.969318
29.378019 -54.183567 0.464800
6.729963 -29.401539 -31.987348
10.055242 -37.106866 -28.518359
42.604268 -57.154896 -11.336258
32.931720 -55.457013 -58.705588
5.568325 -25.124710 -7.428244
11.341092 -39.190880 -7.918952
36.422939 -56.359886 -42.998168
11.158956 -38.900956 -55.805398
34.880635 -56.016380 -49.347691
23.555588 -51.190051 -44.601426
39.427251 -56.869152 -44.256708
41.669314 -57.097809 -41.331591
9.545507 -36.132098 -14.572830
17.376017 -46.416384 -59.496208
13.342325 -42.002647 -39.295986
7.057658 -30.378305 -31.655505
21.844000 -50.045661 -3.290708
45.236289 -57.194354 -14.901396
12.659356 -41.085290 -14.511785
39.788622 -56.920102 -3.113701
38.165561 -56.691266 -18.558643
46.809691 -57.165919 -54.400966
11.010230 -38.664213 -20.480352
9.338840 -35.736887 1.970207
6.044804 -26.964538 -37.624762
5.890923 -26.370357 -28.065433
31.675352 -55.070820 -49.443716
16.908278 -45.960410 -53.143268
19.012228 -47.869085 -61.098656
13.621491 -42.377620 -37.905933
32.466984 -55.314158 -0.094391
13.857134 -42.664722 -47.881200
26.155989 -52.684756 -8.840044
31.008074 -54.829506 -59.977123
41.095354 -57.062764 -3.464190
5.153888 -23.524445 -38.564187
40.694934 -57.038315 -25.373319
15.741855 -44.817709 -32.425615
20.916816 -49.391374 -58.036317
33.434004 -55.611409 -41.517426
41.465850 -57.085386 -36.651855
6.381897 -28.266153 -60.993912
11.202753 -38.970672 1.724563
44.086643 -57.215131 -39.136521
37.774198 -56.636088 -15.139099
8.260871 -33.476388 -48.799867
8.903324 -34.904046 -0.702961
15.203118 -44.202289 -46.471503
6.013130 -26.842236 -60.632176
4.842489 -22.322041 -12.952511
39.594445 -56.892725 -51.114856
5.767935 -25.895465 -14.736462
24.307702 -51.636228 -20.099594
34.382574 -55.902988 -41.943899
38.560247 -56.746913 -26.127756
17.148231 -46.194327 -55.761256
7.820224 -32.442127 -42.324391
5.780631 -25.944486 -22.626550
11.075039 -38.767376 -13.708580
33.321221 -55.576741 -37.979719
7.109705 -30.533441 0.983050
15.186130 -44.182883 -21.438859
7.799139 -32.392639 -18.067437
10.692333 -38.158185 -29.066383
30.618869 -54.675276 -49.997377
10.899784 -38.488405 2.291779
5.294424 -24.067095 -47.756107
36.472416 -56.370906 -39.767801
23.759307 -51.310903 -20.589674
9.160115 -35.395110 -36.161996
26.852846 -53.026870 -11.864603
7.582314 -31.883719 -54.501555
14.894916 -43.850219 2.056708
38.961861 -56.803537 -45.755157
22.663162 -50.623720 -17.551977
7.599696 -31.924517 -13.425891
37.708342 -56.626803 -59.518451
6.138614 -27.326763 -9.499756
29.925030 -54.400330 0.520763
31.142252 -54.882676 -17.557280
11.750358 -39.842350 -43.475776
16.760502 -45.816351 -35.469076
22.063748 -50.200731 -49.463522
5.760992 -25.868656 -18.334154
20.536329 -49.122876 -32.863361
14.172343 -43.024796 -27.837632
6.219370 -27.638588 -29.227569
19.275491 -48.087957 -19.917043
36.200826 -56.310417 -57.272866
38.956490 -56.802780 -16.610263
8.225010 -33.392218 -7.302277
32.881805 -55.441669 -2.233909
17.038542 -46.087397 -8.431336
19.915713 -48.620227 -6.322039
22.216221 -50.308326 -0.154815
4.928318 -22.653454 -6.246352
11.458955 -39.378494 -30.006058
5.771557 -25.909448 -40.320128
13.067338 -41.633288 -10.131250
8.342185 -33.667246 -56.565227
7.878976 -32.580028 -41.224216
17.143779 -46.189987 -1.554961
34.650812 -55.965193 -27.396067
17.809873 -46.839327 -40.515815
27.789251 -53.486587 -21.195998
25.346129 -52.252254 -25.005724
39.224869 -56.840618 -0.087855
39.711005 -56.909159 -31.542443
28.943520 -54.011390 -29.392210
17.967785 -46.993268 -23.251957
25.022321 -52.060162 -0.033450
31.077739 -54.857112 -25.243091
25.177932 -52.152475 -40.671680
26.829221 -53.015271 -5.792051
22.485889 -50.498623 -50.724141
28.367757 -53.770598 -8.830969
34.901488 -56.021024 -9.103491
8.816332 -34.737691 -38.706282
26.851370 -53.026146 -36.817887
7.011165 -30.239722 -23.868554
7.352810 -31.258067 -19.630353
10.096375 -37.185526 -48.042283
23.548988 -51.186135 -23.344836
12.971294 -41.504282 -19.918797
17.428121 -46.467178 -60.369192
5.584530 -25.187283 -55.734710
21.325699 -49.679911 -57.096657
6.130071 -27.293776 -21.031075
9.037428 -35.160494 -16.527561
28.292298 -53.733552 -25.360765
36.227494 -56.316356 -38.566274
31.392091 -54.981679 -5.527321
46.017586 -57.180235 -18.356273
41.063284 -57.060806 -12.909276
20.421324 -49.040584 -26.016262
37.245482 -56.543086 -15.431376
27.238308 -53.216108 -43.947635
7.495175 -31.679191 -48.124824
20.375498 -49.002485 -38.377663
9.624561 -36.283273 -35.507848
18.577593 -47.507737 -44.065104
7.327232 -31.181826 -46.857645
8.000097 -32.864315 -43.764931
16.591324 -45.651428 -25.693775
42.273634 -57.134708 -50.466344
37.592895 -56.610526 -15.841353
18.067559 -47.083703 -11.325963
27.178917 -53.186951 -50.800127
8.297487 -33.562333 -17.596666
33.396579 -55.599905 -46.216575
8.320661 -33.616726 -34.459014
7.308212 -31.125133 -59.044969
8.314941 -33.603300 -22.164962
17.534656 -46.571032 -21.261574
21.092100 -49.515067 3.734489
7.815776 -32.431687 -10.661805
15.181275 -44.177337 -51.138265
7.797111 -32.387877 -7.442888
6.694492 -29.295810 -19.495474
40.078529 -56.960976 -35.113889
9.647797 -36.327707 -7.050308
33.894892 -55.753080 -55.226288
33.782229 -55.718449 -9.155166
7.372075 -31.315491 -35.113022
31.989250 -55.167308 -55.605082
6.463531 -28.581364 -39.438423
8.023179 -32.918491 -46.562451
21.293154 -49.656945 -29.028137
11.064604 -38.750766 -39.444411
21.831391 -50.036763 3.851275
7.448505 -31.543307 -43.182255
8.323914 -33.624360 -30.214240
4.806717 -22.183914 -7.263927
43.967260 -57.217289 -47.354682
5.702007 -25.640895 -22.221959
29.928909 -54.401868 -33.692979
6.146566 -27.357471 -46.083611
14.989212 -43.957936 -17.965969
40.178603 -56.975086 -31.045207
15.666359 -44.731467 3.429830
13.572400 -42.311683 -47.010175
5.249800 -23.894790 -2.625478
36.110819 -56.290370 -57.858087
7.684122 -32.122677 -36.283790
6.827979 -29.693695 -17.130478
9.298042 -35.658867 -20.309926
6.838295 -29.724444 -42.861619
44.188198 -57.213296 -57.547608
43.218198 -57.192381 -4.667755
11.238299 -39.027254 -34.160967
21.307108 -49.666792 -56.560103
40.891814 -57.050336 -20.065246
33.009662 -55.480971 1.172311
10.374478 -37.652222 3.823378
38.158185 -56.690226 0.726191
41.054040 -57.060241 -58.578808
6.235245 -27.699887 -31.031579
31.789960 -55.106049 -38.830087
10.271219 -37.487856 -43.192481
39.162153 -56.831776 -1.098997
25.801861 -52.510901 -9.693702
13.980923 -42.806131 -8.982479
12.122366 -40.364009 -44.314333
28.813334 -53.959801 -3.713730
36.826513 -56.449772 -6.620490
18.788686 -47.683236 -23.397421
11.899149 -40.064186 1.301599
27.925463 -53.553459 -36.747560
16.477469 -45.540437 -23.208476
29.251042 -54.133251 -39.221015
18.907056 -47.781647 -55.828855
19.340620 -48.142105 -33.874909
10.053903 -37.104307 -20.006837
40.677570 -57.037255 -4.151251
30.876150 -54.777229 -40.126825
42.820300 -57.168086 -42.685614
35.199397 -56.087375 -33.123660
41.805987 -57.106154 -56.334829
30.332719 -54.561884 -54.867934
6.510243 -28.746615 -0.130398
32.589643 -55.351862 -17.491011
8.698142 -34.502728 -21.774657
17.023664 -46.072894 -0.139991
19.643192 -48.393658 -7.267527
26.811466 -53.006555 -18.383607
31.668252 -55.068637 -10.707737
22.609197 -50.585638 -38.176458
23.718919 -51.286943 -11.108347
12.472972 -40.834941 -20.364915
36.829452 -56.450426 -31.032360
44.409151 -57.209303 -53.197435
4.845052 -22.331939 -2.036079
5.066589 -23.187358 -48.973611
9.942568 -36.891401 -14.577084
29.260963 -54.137182 -24.437079
6.180708 -27.489304 -26.426871
21.758646 -49.985429 -17.894143
15.466072 -44.502672 -18.775975
16.308705 -45.375918 -0.804435
7.254854 -30.966089 -56.688050
33.179742 -55.533252 -17.162954
6.542372 -28.842382 -24.402786
4.817218 -22.224462 -42.214560
19.950487 -48.649138 -51.600743
19.827470 -48.546864 -19.361377
4.797709 -22.149131 -8.720842
11.274610 -39.085054 -31.433494
8.748012 -34.607042 -21.246488
42.568998 -57.152742 -45.795324
28.761565 -53.939287 -39.979811
21.506978 -49.807834 -49.809215
11.989504 -40.185551 -47.947406
12.064899 -40.286820 -24.810773
8.054471 -32.991939 -37.753503
39.938798 -56.941276 -45.803351
14.174908 -43.027726 -7.193438
8.655876 -34.403522 -42.811384
29.044802 -54.051524 -17.600812
34.627557 -55.960013 -12.621127
41.435637 -57.083541 -26.430652
42.377619 -57.141057 -29.943051
32.538609 -55.336175 -25.786162
39.062940 -56.817788 -7.539149
10.281812 -37.504717 -7.155876
43.039421 -57.181465 -26.794307
7.650661 -32.044138 -17.236775
5.770412 -25.905026 -57.244415
8.507508 -34.055283 -43.527192
10.797361 -38.325369 -5.152841
19.447415 -48.230893 -48.176850
5.387660 -24.427109 -0.698274
14.012785 -42.842527 -26.288268
8.702138 -34.512105 -59.304181
20.817217 -49.321090 -15.882407
26.140778 -52.677288 -20.574929
4.792683 -22.129727 -35.653035
4.959558 -22.774078 -31.455274
18.841922 -47.727495 -45.091046
24.422514 -51.704338 -36.769510
13.995367 -42.822630 -1.329470
37.798812 -56.639558 -23.943576
27.395100 -53.293084 -23.665513
9.701496 -36.430395 -45.472470
8.345964 -33.676115 -41.774270
46.813343 -57.165853 -17.271038
10.920473 -38.521339 -12.049288
43.473179 -57.207950 -45.265603
31.342970 -54.962214 -47.850845
7.943396 -32.731230 -32.996431
5.100614 -23.318740 -52.819223
14.062643 -42.899482 -10.408072
14.135256 -42.982430 -35.366872
42.298187 -57.136207 -31.306146
19.448377 -48.231692 -22.852251
33.454581 -55.617734 -30.276710
29.217395 -54.119917 3.600476
4.798742 -22.153123 -44.424056
26.322210 -52.766360 -60.939785
14.676526 -43.600743 -56.195971
31.248099 -54.924620 -0.264003
8.266172 -33.488831 -56.007709
22.818825 -50.733566 -23.228861
41.272830 -57.073600 -44.875246
15.581659 -44.634712 -27.804407
35.425390 -56.137709 -42.928492
46.305757 -57.175027 -38.668118
6.896457 -29.897810 -11.972554
37.736973 -56.630839 -51.948970
6.961705 -30.092294 -40.830939
35.087222 -56.062391 -9.725177
5.655933 -25.462989 -13.269301
12.334782 -40.649325 -45.181853
6.290413 -27.912907 -51.417282
11.533972 -39.497907 -6.249585
5.830801 -26.138208 -48.243733
7.586831 -31.894320 -22.413869
16.856358 -45.909796 -30.324983
8.164840 -33.250991 -45.402515
17.198069 -46.242912 -43.640317
7.374701 -31.323320 -3.502193
6.148981 -27.366796 -51.561704
11.167337 -38.914297 -6.001680
12.683843 -41.118180 -19.976186
23.349790 -51.067965 -45.263661
41.724259 -57.101164 -37.088792
18.533067 -47.470718 -5.280259
19.418512 -48.206863 -21.645634
40.179440 -56.975204 -26.984442
19.074226 -47.920629 -16.624490
33.805546 -55.725616 -45.230470
10.048119 -37.093245 -26.267316
14.354324 -43.232680 -2.067344
34.757518 -55.988959 -56.229670
32.037397 -55.182108 -12.536149
11.147111 -38.882102 -32.696107
17.818579 -46.847814 -55.114043
7.206456 -30.821828 -13.303280
24.295665 -51.629087 -25.120954
38.399114 -56.724195 -5.765670
5.644922 -25.420474 1.006870
5.150798 -23.512513 -23.417207
20.069204 -48.747837 -9.308928
8.728608 -34.569934 -36.577626
8.428413 -33.869635 -3.595273
24.775375 -51.913666 -43.545149
14.488412 -43.385854 -52.664814
14.644873 -43.564585 -23.423774
37.730878 -56.629980 -18.283353
30.037219 -54.444787 -44.714597
6.906971 -29.929149 -50.160767
6.179730 -27.485528 -0.104384
5.720657 -25.712908 -51.776682
7.286481 -31.060360 -6.386024
40.787871 -57.043990 -1.071054
5.349547 -24.279944 -34.696516
15.656943 -44.720711 -7.472089
13.754280 -42.547227 -29.289460
14.549996 -43.456204 -10.171448
25.567271 -52.383443 -10.300702
26.860769 -53.030760 -6.666220
6.932990 -30.006704 -49.198396
35.562350 -56.168213 -40.108902
9.710537 -36.447686 -4.314938
46.161379 -57.177636 -24.368001
5.724008 -25.725849 -41.402737
43.239422 -57.193677 -53.536085
18.503978 -47.446534 -36.968359
23.108300 -50.924706 -44.824988
11.774213 -39.880323 -18.648399
13.462854 -42.164541 -4.474620
31.975952 -55.163221 -22.162172
25.180419 -52.153950 -17.091120
6.425502 -28.434523 3.842597
34.832726 -56.005709 -11.972029
6.580079 -28.954777 -27.124279
32.563411 -55.343799 -34.651600
33.331826 -55.580001 -45.566487
46.751635 -57.166969 -3.448551
41.399061 -57.081308 -44.344327
7.368024 -31.303416 -42.516015
46.558087 -57.170466 -4.054010
6.728739 -29.397889 -41.420197
9.956736 -36.918494 -5.436137
5.973803 -26.690381 -53.490925
17.804443 -46.834033 -44.470411
46.662596 -57.168578 -15.166315
16.644220 -45.702994 -4.263940
25.389076 -52.277732 -12.849289
25.515463 -52.352708 2.796547
7.411319 -31.432467 -0.770837
15.748468 -44.825264 -16.729873
33.526105 -55.639720 0.081393
36.739517 -56.430396 -3.010133
39.653401 -56.901037 -26.919259
5.409545 -24.511614 -36.425547
35.401086 -56.132296 -38.439822
26.877429 -53.038939 -15.724615
5.396084 -24.459636 -5.009564
24.963596 -52.025324 -59.215140
9.315301 -35.691873 -8.692183
7.334886 -31.204642 -10.554857
5.239979 -23.856869 -32.851199
12.880311 -41.382075 -38.151870
23.344725 -51.064960 -38.340648
6.188136 -27.517982 -16.989789
16.184182 -45.254527 2.094931
10.242287 -37.441802 -10.706902
21.876857 -50.068847 1.712161
41.616868 -57.094607 -53.607150
13.835291 -42.639770 -10.787278
20.130294 -48.798627 2.879893
30.283375 -54.542331 -3.551540
5.711528 -25.677658 2.473376
8.370951 -33.734763 -5.884891
17.910828 -46.937743 -39.818329
40.000094 -56.949918 -40.596635
6.379963 -28.258686 -9.699458
39.268746 -56.846805 -4.180265
44.616750 -57.205551 -56.682616
42.045748 -57.120793 -39.333775
39.916470 -56.938128 -27.948541
7.107041 -30.525499 -38.834034
36.877125 -56.461044 -6.045210
37.321721 -56.560066 -32.296244
4.963059 -22.787599 -60.045398
14.353446 -43.231677 -33.059853
36.933398 -56.473578 3.043292
17.639365 -46.673108 -8.604708
12.901385 -41.410381 -25.351101
46.364035 -57.173973 -39.185790
17.678556 -46.711313 -17.868509
35.752693 -56.210607 -58.242443
9.685608 -36.400013 -49.667366
7.437767 -31.511300 -58.552658
5.710264 -25.672778 -43.151313
5.202359 -23.711607 -58.906015
44.908182 -57.200284 -53.206960
5.252150 -23.903865 -10.353041
44.403852 -57.209399 -18.707939
41.059255 -57.060560 -32.487972
31.389170 -54.980521 -40.169628
5.423464 -24.565358 -8.645761
12.733187 -41.184459 -23.720651
12.151855 -40.403618 -2.989013
15.352716 -44.373181 -25.718721
26.403433 -52.806236 -23.710851
31.613303 -55.051747 -30.741612
17.192237 -46.237227 -54.495420
12.365543 -40.690642 -57.686986
28.199657 -53.688071 -3.486051
40.571225 -57.030442 -20.677272
31.456956 -55.003687 -52.043926
30.192969 -54.506506 -0.478497
7.038057 -30.319879 -29.755909
23.044159 -50.886655 -33.446053
5.465481 -24.727600 -25.727286
8.114735 -33.133388 -23.730918
10.984895 -38.623886 -8.058067
27.120619 -53.158330 -9.146035
15.842084 -44.921033 -9.674845
16.175296 -45.245865 -0.265264
11.054246 -38.734279 -43.793825
7.360175 -31.280022 -36.730538
41.667794 -57.097716 -3.546792
15.022624 -43.996104 -38.268750
42.321497 -57.137630 -24.518384
17.994239 -47.019056 -22.498386
18.649084 -47.567173 -20.316267
5.684721 -25.574150 -6.984119
26.649004 -52.926796 -37.408778
8.765824 -34.641103 -38.171280
19.542460 -48.309911 -59.411542
45.044899 -57.197813 -60.201701
21.747141 -49.977310 -52.134480
19.990207 -48.682161 -36.107583
6.065628 -27.044945 -32.711291
16.513266 -45.575334 -37.653068
38.336943 -56.715429 -52.301524
6.844617 -29.743290 -4.025568
5.136317 -23.456600 -21.682693
25.215777 -52.174926 -37.971561
18.844465 -47.729609 -51.716042
5.784251 -25.958466 -37.534157
9.885989 -36.783202 -49.384475
24.860954 -51.964434 -24.706448
37.684214 -56.623401 -53.151359
32.458688 -55.311608 -40.873280
9.989477 -36.981104 -58.622683
7.716554 -32.198798 -11.922115
34.600351 -55.953954 -25.473924
17.532192 -46.568630 -60.841341
35.371184 -56.125636 -59.626541
43.849139 -57.219424 -53.185076
17.586257 -46.621336 -34.714454
13.282713 -41.922577 -36.647787
5.201287 -23.707467 -4.478021
8.249504 -33.449710 -20.974730
23.832492 -51.354319 -42.154872
30.859901 -54.770790 -57.221405
5.200324 -23.703750 -13.888530
32.809389 -55.419409 -55.894780
19.747219 -48.480145 0.251148
41.083994 -57.062070 -50.561121
5.507789 -24.890963 -10.161857
29.443604 -54.209557 -58.278627
17.545061 -46.581176 -20.483618
32.097743 -55.200658 0.849690
15.039072 -44.014894 -32.115905
9.944400 -36.894903 -33.015076
17.758258 -46.789010 1.198716
32.875766 -55.439813 -10.816065
5.940827 -26.563051 -58.020731
15.533753 -44.579987 -33.469940
12.725576 -41.174236 -45.985348
26.922412 -53.061023 -42.932557
5.035850 -23.068667 -18.565093
12.189971 -40.454816 -33.967425
4.978177 -22.845974 -38.525415
4.795291 -22.139798 -49.095905
43.370186 -57.201661 -18.051030
11.304434 -39.132528 -23.337210
40.411890 -57.007977 -18.131602
8.339758 -33.661548 -27.820751
26.239880 -52.725942 -52.512914
14.529665 -43.432978 -54.483864
12.670856 -41.100737 -26.330132
7.669588 -32.088563 -50.311196
42.747167 -57.163621 -61.118717
17.942405 -46.968526 -28.543389
37.998621 -56.667729 3.875752
7.060442 -30.386603 -2.259516
10.715424 -38.194941 -3.761079
34.431782 -55.916410 1.359931
37.798598 -56.639528 -46.890631
42.896784 -57.172756 -18.215898
4.972594 -22.824415 2.380479
5.901713 -26.412021 1.137909
13.344379 -42.005407 -20.582397
12.462211 -40.820487 -60.026098
5.450876 -24.671205 -7.189067
10.173372 -37.332102 -53.009471
10.936915 -38.547510 -43.286588
4.845360 -22.333127 2.464133
33.861197 -55.742723 -31.267717
5.144801 -23.489357 3.597766
23.522150 -51.170214 -58.671029
30.118583 -54.477029 -53.147941
11.204932 -38.974141 -26.784854
29.887375 -54.385409 -54.107621
19.262564 -48.077211 -60.727397
16.312901 -45.380008 -45.742167
8.374992 -33.744248 -50.252621
16.833207 -45.887228 -43.851221
26.097784 -52.656181 -32.019538
18.521440 -47.461052 -50.891508
35.461024 -56.145646 -60.486475
14.005121 -42.833772 -40.664000
8.201846 -33.337849 -14.905207
15.908004 -44.985295 -4.846777
17.886358 -46.913889 -41.936195
36.530052 -56.383743 -4.407022
11.127893 -38.851509 -18.453703
40.329054 -56.996298 -5.775216
31.020064 -54.834257 -21.157757
34.553558 -55.943532 -35.761506
7.907716 -32.647483 -23.891548
20.027905 -48.713502 -39.656661
39.216401 -56.839424 2.632878
31.877448 -55.132942 -11.563528
45.264945 -57.193837 -17.827090
21.580399 -49.859645 -46.955964
41.949973 -57.114946 -20.766404
25.266040 -52.204743 -19.477023
19.147626 -47.981653 0.076228
18.016333 -47.040595 -41.388074
5.089318 -23.275121 -43.811523
6.768291 -29.515783 -29.509613
16.907256 -45.959414 -6.166248
29.693681 -54.308654 -36.450718
22.182950 -50.284848 -6.753405
11.228243 -39.011247 -28.739982
11.987579 -40.182965 -36.476330
17.166011 -46.211661 -3.902342
5.039777 -23.083830 -1.567102
24.031536 -51.472397 -43.884372
38.918243 -56.797387 -5.588986
23.414873 -51.106574 -11.902335
20.576503 -49.151226 -46.845483
34.320335 -55.883857 -22.681096
28.186180 -53.681455 -35.982175
39.750370 -56.914709 -43.117965
25.207255 -52.169870 -60.566987
34.437736 -55.917736 -44.043085
13.259797 -41.891797 -47.999797
39.536962 -56.884620 -28.740423
20.606536 -49.172419 -28.087818
26.350924 -52.780457 -47.644093
5.483627 -24.797668 -40.270885
21.204918 -49.594679 -25.620950
38.631923 -56.757019 -44.237549
22.586944 -50.569934 -57.470835
4.796687 -22.145188 -47.141296
20.746370 -49.271096 0.449084
33.871972 -55.746035 -49.201533
5.000618 -22.932624 -2.252774
6.360151 -28.182187 -11.993782
42.503563 -57.148747 -32.256231
38.773236 -56.776942 -28.703818
30.298211 -54.548210 -34.530158
6.025896 -26.891527 -4.963538
38.873020 -56.791011 -37.875309
32.327269 -55.271212 -32.226912
32.508374 -55.326881 2.896731
46.165666 -57.177558 -5.537617
28.548647 -53.854914 -32.017647
20.675091 -49.220796 -1.652619
5.556697 -25.079811 -25.110681
29.244972 -54.130845 -12.026341
10.546749 -37.926445 -54.032207
9.209284 -35.489136 -12.357972
33.696923 -55.692227 -3.059344
5.422601 -24.562025 -20.168996
10.633239 -38.064119 -35.270064
5.298607 -24.083247 -45.874695
40.959414 -57.054464 -26.768360
28.497716 -53.834400 -57.411100
5.585645 -25.191587 -56.278767
10.616495 -38.037465 1.816987
7.033415 -30.306042 -30.981822
42.147752 -57.127022 -57.404937
33.512968 -55.635681 -18.972990
28.481409 -53.826394 -16.876506
13.521093 -42.242768 -23.075693
17.015691 -46.065121 -18.363663
7.145359 -30.639716 -2.702134
6.569593 -28.923521 -31.943748
17.274402 -46.317325 -26.575184
26.005190 -52.610723 -34.014092
29.446189 -54.210581 -37.707514
6.518445 -28.771062 -42.291799
36.674435 -56.415900 -29.516300
16.837563 -45.891474 -58.131258
27.063678 -53.130376 -10.456212
38.338001 -56.715578 -7.756111
6.127966 -27.285648 -58.809741
42.982228 -57.177973 -46.794570
5.217514 -23.770123 -61.105233
5.147513 -23.499830 -39.695727
43.693037 -57.221374 -23.721789
10.461958 -37.791473 -47.472952
31.931565 -55.149577 -32.569758
42.849487 -57.169868 -5.590009
44.921166 -57.200050 -32.904160
42.672326 -57.159051 -9.917559
26.118992 -52.666593 -28.211605
23.414336 -51.106256 -20.089641
32.085191 -55.196799 -27.943696
5.838936 -26.169619 -41.896445
15.117022 -44.103939 -18.673122
14.381707 -43.263961 -15.497477
6.353812 -28.157707 -19.825242
8.714877 -34.542007 -45.164189
28.273532 -53.724339 -26.032314
42.884169 -57.171986 -15.459910
23.793337 -51.331090 -4.726456
12.639030 -41.057988 -9.025433
13.357668 -42.023256 -14.562753
5.624299 -25.340840 -5.295886
16.868425 -45.921560 -26.087729
6.745127 -29.446737 -28.185949
12.934922 -41.455427 -51.165730
13.359669 -42.025944 -57.948749
5.718908 -25.706156 -31.986920
9.063688 -35.210711 -38.349743
12.390950 -40.724770 -30.957161
21.540851 -49.831737 -40.290001
42.516287 -57.149524 -20.808966
4.895720 -22.527583 -43.768151
5.762992 -25.876378 -56.686789
46.746820 -57.167056 -45.750476
7.012182 -30.242752 -39.392118
4.800760 -22.160913 -45.086835
21.456632 -49.772306 -0.018651
19.493350 -48.269082 -32.314049
32.804200 -55.417814 -40.468119
40.361101 -57.000816 -0.733400
16.755083 -45.811069 -43.397314
29.273711 -54.142234 -30.938516
38.269396 -56.705906 -46.878436
36.383838 -56.351178 1.145490
23.363691 -51.076211 -47.660892
8.954224 -35.001383 -42.086057
12.317064 -40.625526 -28.849638
24.650582 -51.839635 -11.383434
42.498178 -57.148418 -18.532700
43.882304 -57.218824 -17.055439
17.158493 -46.204331 -7.601822
36.647421 -56.409884 -40.344515
40.021566 -56.952945 -27.484718
7.536334 -31.775797 -55.725818
10.907345 -38.500441 -59.173024
42.704213 -57.160998 -33.961910
4.877914 -22.458828 1.723773
34.862489 -56.012338 -18.027973
32.293374 -55.260792 -29.862583
37.798060 -56.639452 -6.971262
28.131476 -53.654598 -53.146676
32.247467 -55.246681 -5.682632
5.536059 -25.000122 -4.732278
10.915551 -38.513503 -58.365250
20.615012 -49.178400 -27.329218
36.426940 -56.360778 -2.659573
13.942551 -42.762296 -30.896623
10.954728 -38.575865 -35.335773
15.967427 -45.043225 -32.841623
14.361640 -43.241037 -22.057973
13.083775 -41.655365 -54.014350
6.403604 -28.349970 0.358039
11.519814 -39.475370 -2.604187
5.500257 -24.861877 -48.680319
25.068472 -52.087540 -26.521332
45.155745 -57.195810 -2.240288
11.646685 -39.677324 -7.802531
8.905306 -34.907836 -15.596117
8.565151 -34.190577 -54.296948
35.778950 -56.216455 -26.883429
41.882933 -57.110852 -24.268131
34.927671 -56.026856 1.429765
42.419211 -57.143596 -2.763902
40.753957 -57.041919 -44.074467
44.642883 -57.205079 -48.708004
20.829348 -49.329651 -4.877226
20.886736 -49.370147 -43.474845
43.971500 -57.217212 -52.367152
8.047965 -32.976669 -12.054994
14.134669 -42.981760 -23.433689
4.832093 -22.281900 -27.917225
18.026282 -47.049386 -16.859984
16.654002 -45.712530 -19.856908
6.339481 -28.102372 -58.917457
24.963388 -52.025201 -45.044943
23.992256 -51.449096 -9.778925
26.006119 -52.611179 -59.159580
18.984314 -47.845878 -46.961609
19.284163 -48.095167 -52.494047
31.976252 -55.163313 -50.106230
11.415369 -39.309113 -1.695949
42.101083 -57.124172 -10.930059
6.253901 -27.771923 -59.495394
14.317356 -43.190450 -51.329485
21.567147 -49.850294 1.235780
9.984448 -36.971487 -59.265780
5.183864 -23.640191 -8.323683
17.364135 -46.404801 -52.290238
22.289005 -50.359688 1.543487
6.175714 -27.470020 -48.876316
13.074082 -41.642346 -49.720893
6.990242 -30.177356 -27.063617
5.704090 -25.648940 -25.586298
25.999160 -52.607763 -53.220181
24.911271 -51.994283 -36.349938
11.525831 -39.484948 -38.182270
5.895318 -26.387327 -15.099653
29.769054 -54.338522 -29.713743
37.316817 -56.558974 -52.847525
17.451970 -46.490426 -27.111648
28.766028 -53.941055 -52.333548
6.760106 -29.491385 -7.483993
12.002634 -40.203186 -39.484977
44.379523 -57.209838 -59.436092
14.776067 -43.714453 -35.870667
41.554093 -57.090774 -51.066567
18.042868 -47.063175 -2.972578
28.171841 -53.674415 -11.693205
9.022880 -35.132674 -2.330432
13.308950 -41.957818 -7.071509
37.735645 -56.630652 -55.813876
41.155571 -57.066441 -14.239454
38.059836 -56.676360 -12.361062
6.500795 -28.718452 -19.337903
46.762522 -57.166772 -2.482298
18.006576 -47.031082 -45.633642
28.698492 -53.914293 -58.927719
22.187050 -50.287741 -35.802626
9.344049 -35.746847 -48.046873
20.912832 -49.388563 -34.290821
24.976565 -52.033018 -0.655755
24.590487 -51.803984 -5.611692
7.282667 -31.048991 -4.934967
26.213692 -52.713085 -14.314233
9.293014 -35.649253 -41.802290
21.556341 -49.842668 -30.849400
17.599418 -46.634166 -12.199410
7.626724 -31.987956 -0.040510
19.570596 -48.333303 -40.330001
10.481790 -37.823043 -22.867612
30.763864 -54.732733 -25.953661
39.303517 -56.851707 -25.223892
38.555063 -56.746182 -42.591860
6.352075 -28.151002 -40.899843
28.245449 -53.710553 3.091457
8.609399 -34.294435 -51.174768
33.378270 -55.594277 -53.205169
13.240880 -41.866387 -7.557776
15.800974 -44.880958 -34.207119
8.892709 -34.883748 -47.247541
16.279358 -45.347309 -58.664520
19.915614 -48.620146 -18.736408
37.493478 -56.596509 -2.231178
34.164955 -55.836095 -33.310397
12.789526 -41.260133 -24.659080
36.064557 -56.280067 -56.679119
12.385165 -40.716998 -27.537190
28.339483 -53.756717 -30.686712
45.161073 -57.195714 -36.767653
38.229521 -56.700284 -11.774389
5.350680 -24.284317 -50.198147
16.243037 -45.311902 -46.365153
39.239201 -56.842639 -2.355440
5.375640 -24.380697 -58.886093
46.364139 -57.173972 -20.626359
35.470764 -56.147815 -23.993752
26.646892 -52.925760 -20.931789
43.628055 -57.217406 -32.638680
46.836776 -57.165430 3.712945
46.191313 -57.177095 -59.542059
36.473364 -56.371117 0.206249
15.517848 -44.561817 -19.851303
38.686815 -56.764758 -45.335270
5.734795 -25.767499 -23.600386
7.632506 -32.001526 -23.895740
18.043627 -47.063806 -6.049762
29.040922 -54.049987 -4.724733
7.438360 -31.513070 -50.607166
14.265756 -43.131505 -22.892937
20.073752 -48.751619 -14.738488
7.862076 -32.540361 -14.439783
37.273633 -56.549356 -29.441576
6.222694 -27.651423 -41.209769
35.437019 -56.140299 -20.615906
8.863898 -34.828652 -19.958663
11.661363 -39.700687 -53.936998
33.673517 -55.685032 -59.475742
9.538875 -36.119414 -57.149110
19.436722 -48.222003 -31.155006
46.665689 -57.168522 -15.849398
44.919762 -57.200075 -42.925830
26.203334 -52.707999 -2.398908
16.392436 -45.457543 -25.018560
5.504311 -24.877532 -42.056537
5.863728 -26.265349 -61.091126
28.170865 -53.673936 -18.757756
44.693985 -57.204155 -50.288696
18.047829 -47.067300 -18.814899
13.795068 -42.593820 -6.290610
25.388090 -52.277147 -17.588528
43.015462 -57.180002 -9.507443
44.888901 -57.200633 -7.681159
7.590548 -31.903045 -6.435311
23.973844 -51.438173 -31.718593
7.409531 -31.427138 -32.458240
46.641437 -57.168960 -52.575989
8.533244 -34.115688 -15.620662
12.138403 -40.385550 -7.813110
7.961247 -32.773129 1.249134
5.437598 -24.619932 -36.929830
11.164643 -38.910008 -34.936952
40.666110 -57.036555 -29.525381
9.607907 -36.251426 -10.713048
17.758788 -46.789527 -1.563023
42.765625 -57.164748 -58.912112
29.507184 -54.234751 -12.526440
4.820971 -22.238955 -0.163170
14.155807 -43.005907 -29.413900
7.716620 -32.198955 -48.430073
7.205441 -30.818804 -50.634995
38.859455 -56.789098 -14.408609
11.426182 -39.326326 -15.407530
29.636512 -54.286000 -13.581861
12.481331 -40.846168 -11.251273
7.825242 -32.453905 -36.642314
5.405398 -24.495602 -57.127896
40.527959 -57.024342 -53.497869
16.397497 -45.462477 -56.226296
6.371537 -28.226151 -27.179923
46.631167 -57.169146 -13.191721
5.567917 -25.123133 -11.854679
12.458303 -40.815237 -17.106896
11.294003 -39.115923 -23.838731
45.184536 -57.195290 -11.471269
6.384160 -28.274890 -59.531916
5.331886 -24.211748 -33.592173
27.356962 -53.274360 -6.163052
25.156410 -52.139707 -2.646375
9.831410 -36.678831 -48.033393
14.260056 -43.124994 -32.477695
45.300032 -57.193202 -19.955431
46.696458 -57.167966 -55.410366
37.484571 -56.595253 -14.691394
10.938788 -38.550492 -16.939216
13.865955 -42.674797 -24.295099
32.060059 -55.189074 -16.697526
46.754524 -57.166916 -37.422653
22.035759 -50.180980 -48.286564
6.719752 -29.371101 -55.588990
6.637752 -29.126684 -2.815744
8.503758 -34.046480 -60.621927
6.652639 -29.171056 -21.627963
22.351147 -50.403540 -59.702037
27.477215 -53.333397 -44.988814
6.840393 -29.730697 -57.239333
42.842903 -57.169466 -57.478434
26.850626 -53.025780 -32.336832
27.496349 -53.342791 -35.574232
12.528496 -40.909520 -21.475968
19.276423 -48.088732 -30.430823
5.053649 -23.137394 -6.152256
7.115552 -30.550870 -34.401160
32.811693 -55.420118 -23.014902
34.535660 -55.939546 -26.137053
6.265980 -27.818564 -51.946308
5.776566 -25.928789 -52.313622
46.090300 -57.178920 -15.585831
9.403445 -35.860432 -9.190714
21.560936 -49.845911 -8.443726
44.173421 -57.213563 -50.695803
24.214799 -51.581115 -41.696028
8.999480 -35.087926 -28.911688
22.159560 -50.268343 -17.841075
9.580869 -36.199721 -28.197059
5.761858 -25.871998 -32.606575
17.629027 -46.663030 -37.396755
7.157042 -30.674539 -8.686462
33.555842 -55.648860 -56.471176
6.404335 -28.352792 -44.488319
15.463691 -44.499952 -13.590162
9.019924 -35.127020 -40.282517
31.287998 -54.940431 -35.212516
16.816571 -45.871010 -21.691009
45.779656 -57.184535 -43.821015
12.637871 -41.056431 -30.461887
35.950372 -56.254635 -0.062181
9.748709 -36.520681 -19.223913
37.712480 -56.627386 -32.707149
28.587499 -53.870310 -43.934334
35.502860 -56.154964 -2.560857
29.609027 -54.275108 -32.360772
22.977208 -50.845333 -39.858202
41.507575 -57.087933 -58.846055
18.704560 -47.613295 -53.405669
18.329025 -47.301081 -9.757918
35.049718 -56.054038 -57.463332
5.273780 -23.987385 -48.273713
6.496732 -28.706344 -11.974808
17.670723 -46.703677 -48.384744
41.608854 -57.094117 -54.443286
8.042223 -32.963191 -48.719626
26.763330 -52.982923 -52.539122
6.788921 -29.577274 3.838762
11.079863 -38.775055 -7.067543
37.486151 -56.595476 -14.148580
34.446441 -55.919675 -44.673960
35.723541 -56.204114 1.469207
16.892083 -45.944623 -27.581291
41.932156 -57.113858 -45.590722
22.587481 -50.570313 -31.061974
36.434374 -56.362433 2.100088
20.728004 -49.258135 -5.818119
19.123540 -47.961628 -46.487945
13.566561 -42.303839 -13.968675
25.930534 -52.574072 -12.763064
6.933515 -30.008269 -40.312305
22.922237 -50.806541 -48.954878
11.844372 -39.990610 -6.059792
18.006530 -47.031038 -42.511320
6.740539 -29.433063 -20.006456
9.871351 -36.755210 -31.707068
18.775405 -47.672195 0.013852
46.732396 -57.167316 -53.799736
12.616534 -41.027771 -18.084698
33.847133 -55.738400 -16.256815
30.235878 -54.523509 -57.562582
32.441288 -55.306259 -49.804706
4.792070 -22.127358 -30.810745
14.959213 -43.923668 3.397801
19.915934 -48.620411 -59.405212
33.903980 -55.755874 -46.160178
40.897445 -57.050680 -40.213108
15.444139 -44.477616 -29.107616
11.646593 -39.677176 -5.704625
30.751194 -54.727712 -2.968403
4.995178 -22.911620 -47.336643
42.199162 -57.130161 -5.889687
6.239724 -27.717181 -33.893246
4.829771 -22.272933 -41.474256
18.392154 -47.353565 -18.483586
28.655396 -53.897215 -24.288386
29.739368 -54.326758 -44.225777
6.662243 -29.199684 -57.483209
17.279415 -46.322212 -37.101239
5.671603 -25.523499 -50.203382
5.355200 -24.301770 0.700645
14.226042 -43.086139 -41.379441
38.177548 -56.692956 -3.910083
5.608679 -25.280527 -26.046796
27.714750 -53.450012 -24.136039
32.637790 -55.366662 -61.082256
42.085351 -57.123211 -16.222651
37.130812 -56.517546 -34.074733
10.119841 -37.230401 -34.399263
34.205189 -55.848462 -34.459382
24.707830 -51.873596 -50.735707
35.187213 -56.084662 -42.374655
39.354517 -56.858898 -55.699166
6.420636 -28.415734 -50.499289
7.256991 -30.972459 -29.674963
45.967467 -57.181140 -43.339595
23.422851 -51.111307 -56.851744
17.571170 -46.606628 -13.641500
9.257042 -35.580464 -54.251831
39.549684 -56.886414 3.456356
19.340510 -48.142013 -36.790234
20.562634 -49.141438 -1.123372
20.055809 -48.736701 -7.046989
7.796781 -32.387104 -38.938919
16.479541 -45.542457 0.925157
11.910681 -40.079676 -10.310564
31.359145 -54.968624 -9.466509
10.260125 -37.470195 -13.385309
42.325890 -57.137898 -28.708270
44.289019 -57.211474 -21.485931
46.693137 -57.168026 -0.131831
19.989862 -48.681874 -33.747028
10.458368 -37.785759 -56.640079
42.936731 -57.175195 -47.746541
22.130120 -50.247568 -24.601336
44.517972 -57.207336 -55.986799
7.054829 -30.369872 -10.423344
39.676058 -56.904232 -38.504677
7.394527 -31.382414 -0.169165
28.199951 -53.688216 -7.980540
39.076919 -56.819759 -2.985156
34.173326 -55.838668 -11.935320
19.629501 -48.382276 -9.125439
45.000600 -57.198614 -25.039882
39.598369 -56.893278 -26.416145
10.721677 -38.204894 -14.776488
29.953743 -54.411708 -55.154149
24.154973 -51.545624 1.616609
27.565746 -53.376860 -32.309724
14.300545 -43.171246 -45.327730
26.068865 -52.641984 -19.010916
43.169558 -57.189411 -8.731073
37.851910 -56.647044 -17.517098
10.911026 -38.506301 -36.828440
20.463358 -49.071382 -5.120994
15.467600 -44.504418 -14.883440
42.783542 -57.165842 -12.197950
19.747303 -48.480214 -28.088512
7.289811 -31.070286 -50.098739
26.188354 -52.700645 0.130194
41.154421 -57.066370 -8.573280
45.242795 -57.194237 -4.966723
39.546945 -56.886028 -16.258866
35.248090 -56.098221 -27.726573
11.922520 -40.095578 -6.691636
41.605255 -57.093898 -57.494479
5.891919 -26.374202 -35.295019
7.041682 -30.330685 -50.573453
8.531111 -34.110681 -12.006854
11.518284 -39.472934 -32.584942
11.449842 -39.363989 -55.827038
6.903068 -29.917515 -51.164554
34.998977 -56.042737 2.218922
36.827191 -56.449923 -44.904869
34.616452 -55.957540 -54.451653
19.703447 -48.443753 -24.266104
7.545369 -31.797003 -48.847368
27.421129 -53.305862 -57.758399
9.405984 -35.865286 -46.344183
5.863184 -26.263247 -45.048721
32.185004 -55.227481 -29.259263
33.629004 -55.671349 3.765608
5.260895 -23.937631 -30.081729
6.725666 -29.388729 -5.865431
12.855547 -41.348812 -18.425882
39.976503 -56.946592 -53.190580
12.312884 -40.619911 -35.968057
25.133844 -52.126321 -13.328760
7.698267 -32.155877 -7.999231
29.679075 -54.302866 -19.480367
46.354059 -57.174154 -17.892996
21.887389 -50.076279 -32.617602
30.745927 -54.725625 -23.134465
17.875699 -46.903497 -46.118247
25.943606 -52.580489 -35.677651
46.505231 -57.171422 -41.576290
29.470282 -54.220128 -55.696855
31.758158 -55.096273 -2.488503
29.767843 -54.338042 -57.260771
13.988941 -42.815289 -26.844686
16.373006 -45.438601 -48.557024
45.648611 -57.186903 -34.541516
8.135030 -33.181022 -9.297232
25.498959 -52.342918 -27.681683
25.886562 -52.552484 -0.748313
22.988066 -50.852995 -29.012131
43.800027 -57.220311 -2.894052
43.137306 -57.187442 -41.081014
34.544027 -55.941409 -32.260012
20.898530 -49.378470 -38.489887
19.170150 -48.000379 -50.368078
26.925948 -53.062758 -22.134394
31.510552 -55.020162 -48.843429
5.766133 -25.888504 -29.495538
20.101373 -48.774582 -26.978583
34.046346 -55.799636 -53.365181
7.213017 -30.841385 -36.549684
9.328119 -35.716384 -28.881454
5.983187 -26.726615 -39.820123
6.306776 -27.976087 -26.578834
37.872567 -56.649957 -5.460563
46.123864 -57.178314 -21.757780
40.679827 -57.037393 -38.621100
19.080393 -47.925756 -20.473017
20.677998 -49.222847 -57.229638
4.845513 -22.333716 -29.709279
7.410757 -31.430792 -30.671900
28.668780 -53.902519 -40.543852
13.755455 -42.548569 -23.842936
21.186186 -49.581460 -3.653244
7.244979 -30.936655 -0.668798
7.072149 -30.421498 -33.212969
42.343191 -57.138955 -29.268329
5.823748 -26.110974 -6.243082
5.725043 -25.729843 -26.861053
28.503615 -53.837069 -29.043340
5.421033 -24.555970 -46.026166
37.261189 -56.546584 -10.404440
16.619359 -45.678758 -56.746073
21.345035 -49.693556 -54.270942
16.133396 -45.205018 -25.829328
8.422447 -33.855632 -2.024167
38.760025 -56.775080 -47.015986
36.123896 -56.293283 -26.339538
12.305029 -40.609361 2.412219
15.338527 -44.356972 -41.514060
14.753952 -43.689190 -42.609217
6.983788 -30.158119 -8.422052
23.211115 -50.985699 -16.514014
6.580250 -28.955285 2.133126
15.905824 -44.983171 -33.535271
5.155738 -23.531590 -7.782725
27.437061 -53.313683 -31.291467
10.253849 -37.460206 -45.375626
19.375139 -48.170803 -16.110991
6.877910 -29.842526 -34.151139
41.782378 -57.104713 -29.143477
11.031157 -38.697525 -60.592881
45.631618 -57.187210 -47.459440
16.985835 -46.036016 -54.052107
34.018496 -55.791075 -41.025397
43.836442 -57.219653 -41.350152
7.564958 -31.842982 -35.020346
15.289170 -44.300590 -60.864323
33.712132 -55.696902 -23.328195
41.749691 -57.102717 -14.263502
6.086220 -27.124456 -26.787671
10.540995 -37.917285 -51.543964
22.727809 -50.669339 -44.216139
44.568582 -57.206422 -5.004737
44.410922 -57.209271 -54.774619
28.249250 -53.712418 -14.706276
40.824050 -57.046199 -17.630422
13.327782 -41.983113 -48.524563
7.736154 -32.244802 -28.466676
5.219204 -23.776648 -49.694339
40.302640 -56.992574 -32.355460
12.614079 -41.024473 -0.579363
13.502602 -42.217930 -44.583548
22.939837 -50.818961 -9.032203
8.044134 -32.967677 -55.935246
13.919473 -42.735933 -27.511184
27.328777 -53.260523 -48.397928
10.882525 -38.460933 -19.823599
5.442154 -24.637526 -58.383984
13.738054 -42.528692 -25.904534
46.607358 -57.169576 -60.827906
34.021912 -55.792125 -34.937047
6.848509 -29.754890 -44.526203
10.073717 -37.142197 -51.413843
9.748879 -36.521007 -15.515767
8.946526 -34.986662 -6.490858
40.314318 -56.994220 -51.544667
6.318562 -28.021596 -5.284969
35.821380 -56.225905 -50.533137
7.078082 -30.439181 -16.339392
18.674063 -47.587940 -47.623642
4.836616 -22.299363 -33.060951
27.787530 -53.485742 -57.271738
12.822027 -41.303788 -10.541631
6.778639 -29.546628 -53.512476
23.305218 -51.041524 -51.903419
37.090461 -56.508559 -57.949458
18.299221 -47.276303 -19.397840
8.676959 -34.453007 -56.914488
7.917495 -32.670436 -44.359490
10.904773 -38.496347 -16.036353
42.092524 -57.123649 1.643919
5.195819 -23.686352 -56.405629
7.664159 -32.075821 -1.735893
6.592544 -28.991930 -56.345522
20.154599 -48.818834 -37.087300
31.732725 -55.088455 -23.834907
28.812709 -53.959553 -10.438337
7.474457 -31.620663 -54.894353
9.996547 -36.994625 -3.697003
44.200229 -57.213079 0.708482
18.811006 -47.701792 -45.716487
28.993647 -54.031253 -46.058490
10.220792 -37.407585 -59.470831
20.549930 -49.132473 -57.715793
18.879161 -47.758455 -27.903596
44.803478 -57.202176 -52.087979
25.104829 -52.109108 -11.704935
6.909955 -29.938042 -5.026615
6.589516 -28.982904 -20.186357
28.548201 -53.854738 -5.186950
5.879737 -26.327165 -10.223222
34.464517 -55.923701 -5.057408
7.320200 -31.160866 -40.805784
9.085286 -35.252014 -7.740187
38.252792 -56.703565 -19.133763
32.786351 -55.412328 -12.473190
16.720612 -45.777465 -57.674876
5.713573 -25.685557 -11.889242
4.854413 -22.368083 -50.226702
17.983849 -47.008927 -54.490738
24.673424 -51.853185 -21.435721
23.838400 -51.357823 -7.272904
40.798547 -57.044641 -59.534915
5.016578 -22.994249 -7.695463
9.734222 -36.492977 -56.850705
30.396945 -54.587335 -56.164489
18.932459 -47.802766 3.291210
46.681011 -57.168245 -44.109541
19.443512 -48.227648 -12.527183
9.651423 -36.334641 -1.236283
14.210883 -43.068822 -41.961002
11.416616 -39.311099 -37.635428
18.279817 -47.260171 -24.344527
10.625134 -38.051217 -11.976870
33.184533 -55.534724 -59.254290
27.782413 -53.483230 -16.853542
5.023694 -23.021726 -44.446290
10.164060 -37.314961 -55.353124
27.744120 -53.464431 -61.114147
14.278709 -43.146303 -25.088038
6.638050 -29.127571 -59.355921
40.181500 -56.975494 -25.404069
45.270388 -57.193738 -8.126292
6.493737 -28.697414 -59.825442
27.646155 -53.416336 -11.396233
46.584276 -57.169993 -11.785757
4.826281 -22.259458 -35.001430
18.588753 -47.517015 -2.300644
46.767476 -57.166682 0.739056
17.085160 -46.132843 -46.669801
4.853841 -22.365876 -26.471068
9.902710 -36.815180 -16.117028
17.360831 -46.401580 -17.673269
45.145980 -57.195987 -23.572530
42.606448 -57.155029 -24.019654
33.433182 -55.611156 -31.745691
35.785660 -56.217950 -37.220806
8.144874 -33.204127 -48.240948
8.221063 -33.382953 -27.430217
25.743514 -52.482256 -36.752972
6.863689 -29.800138 1.829519
6.825895 -29.687483 -26.363377
19.288012 -48.098367 -50.842793
8.975292 -35.041670 -52.816324
42.195141 -57.129915 -49.620552
41.625083 -57.095108 -15.624308
5.401437 -24.480307 -53.456203
17.131275 -46.177798 -25.395546
5.939464 -26.557789 0.004287
20.418291 -49.038062 -56.772027
42.191959 -57.129721 -15.023657
4.843389 -22.325516 -9.368635
42.666403 -57.158690 -3.214224
19.661070 -48.408521 -9.656885
8.003265 -32.871751 -34.621391
30.103685 -54.471125 -60.638357
5.732189 -25.757439 -9.950138
19.304887 -48.112397 -45.981191
18.348493 -47.317267 -10.592890
11.042395 -38.715413 -29.596327
4.946565 -22.723911 -9.013137
8.424073 -33.859447 -36.814898
35.894941 -56.242289 -38.111503
12.547457 -40.934988 -56.092658
5.223080 -23.791617 -9.730939
45.464858 -57.190224 -60.862243
6.912115 -29.944480 -55.828073
14.025598 -42.857164 -18.526360
24.409846 -51.696823 -9.542662
25.937304 -52.577395 -38.090676
16.978399 -46.028768 -5.600961
19.134049 -47.970365 -43.734786
6.358590 -28.176156 -4.731747
11.347572 -39.201194 -30.519848
44.814643 -57.201975 -38.904429
6.675222 -29.238370 -38.306993
6.391817 -28.304457 -29.250732
5.806423 -26.044076 -38.571573
12.177485 -40.438044 -26.339151
42.856990 -57.170326 -48.247995
36.865624 -56.458483 -32.392882
44.598229 -57.205886 -44.172942
12.037572 -40.250114 -13.910148
25.307934 -52.229596 -13.951243
41.235680 -57.071332 -53.959737
8.286863 -33.537396 -23.446366
17.793338 -46.823208 -33.811444
11.127584 -38.851018 -53.656542
18.125538 -47.131906 -55.548948
37.292706 -56.553604 -54.854556
7.221364 -30.866264 -25.040192
37.466346 -56.592278 -49.693694
18.279892 -47.260233 -49.334975
13.106054 -41.685290 3.608335
46.830096 -57.165551 -20.462618
9.135147 -35.347364 -8.287531
34.940071 -56.029618 -3.888069
30.778086 -54.738369 -34.031063
12.646663 -41.068241 -44.501273
36.897672 -56.465621 -7.132428
5.591159 -25.212877 -43.560078
37.375804 -56.572112 -30.041027
37.067737 -56.503498 -12.428355
6.175219 -27.468107 -25.862702
30.135813 -54.483857 -18.387080
15.263751 -44.271553 -28.028220
19.022242 -47.877411 -22.879572
17.905778 -46.932820 0.739272
26.465622 -52.836767 3.842402
23.389401 -51.091463 -15.187380
12.462374 -40.820705 -41.121955
46.449340 -57.172432 -35.478528
11.288359 -39.106939 -14.880333
18.335437 -47.306412 -50.308430
44.726976 -57.203559 -8.990360
6.306977 -27.976863 -42.947582
15.919970 -44.996961 1.568316
41.284108 -57.074289 -22.840242
6.486837 -28.671359 -41.161639
25.976998 -52.596883 -16.025688
29.701132 -54.311607 -54.565333
15.966372 -45.042196 -11.867277
9.217740 -35.505307 -48.457253
13.145353 -41.738076 -14.206218
26.014503 -52.615295 -42.069300
41.770678 -57.103998 -7.038921
17.403329 -46.443009 -50.275427
40.739643 -57.041045 -22.196788
46.106090 -57.178635 -9.713167
7.178005 -30.737023 -37.846838
32.642480 -55.368104 -21.732614
10.084283 -37.162403 -12.735108
15.987491 -45.062784 -27.947720
38.241366 -56.701954 -59.777222
5.902273 -26.414182 -11.760952
27.545504 -53.366923 -55.020178
44.456035 -57.208456 -30.606984
28.775704 -53.944889 -48.946694
35.022719 -56.048025 -6.996007
17.387702 -46.427775 -12.825201
37.798200 -56.639472 -52.489025
22.861447 -50.763643 -24.107604
12.573939 -40.970558 -25.815051
11.585112 -39.579310 -31.332213
11.516611 -39.470272 -52.673879
32.346628 -55.277162 -2.653372
39.187376 -56.835332 -57.634740
39.427283 -56.869157 -45.981576
27.641709 -53.414153 -1.260237
6.314411 -28.005570 -55.230006
5.829803 -26.134353 -30.931040
23.081253 -50.908660 -20.451860
5.163977 -23.563403 -48.589093
4.799879 -22.157512 -36.850491
44.905920 -57.200325 -27.877861
25.542267 -52.368609 -6.893259
22.098925 -50.225554 -57.227108
5.121957 -23.401149 -40.225039
6.006558 -26.816858 -59.028830
31.097838 -54.865076 -13.512094
42.904176 -57.173208 -22.374600
10.219026 -37.404774 -14.692999
10.653880 -38.096975 1.286586
8.150581 -33.217522 -10.166906
45.963170 -57.181218 -8.003597
16.512315 -45.574406 -57.258788
44.402658 -57.209420 -2.011462
36.165560 -56.302562 -47.105661
14.838583 -43.785867 -7.765028
32.921327 -55.453818 -14.657053
40.196398 -56.977595 -38.826627
8.182992 -33.293595 -25.489629
5.088270 -23.271074 -46.032340
18.986457 -47.847659 -30.809378
34.097592 -55.815388 -29.192346
12.540727 -40.925949 -9.854062
37.438824 -56.586148 -43.735492
4.965744 -22.797966 -25.956555
26.291531 -52.751299 -58.210258
20.222719 -48.875467 -5.665887
7.743747 -32.262625 -2.674807
9.602276 -36.240657 -52.009990
31.294149 -54.942868 -34.080066
5.427727 -24.581819 -12.139553
43.535073 -57.211729 -51.115386
8.395640 -33.792712 -26.384885
5.491762 -24.829079 -37.372240
4.985012 -22.872365 -32.076017
40.632067 -57.034476 -50.845704
27.735113 -53.460009 -52.193109
23.144399 -50.946120 -40.897150
34.679495 -55.971581 -17.451238
11.688513 -39.743905 -0.846508
8.989459 -35.068762 -1.590803
8.462635 -33.949958 -23.754624
32.883428 -55.442168 -9.228488
10.328262 -37.578656 -35.502525
43.938945 -57.217801 -12.440480
28.353598 -53.763647 -47.336040
19.988003 -48.680328 -57.929487
10.555142 -37.939803 -37.975618
4.871370 -22.433558 -10.589943
10.726176 -38.212056 -31.503862
14.338255 -43.214323 1.321270
5.245947 -23.879914 -1.546819
28.588363 -53.870652 -38.386334
22.030315 -50.177137 -4.905251
15.173506 -44.168462 -39.254589
6.777871 -29.544338 -28.956660
30.144078 -54.487132 -38.023227
27.284233 -53.238654 -38.428218
38.936693 -56.799988 -53.526198
6.412405 -28.383953 -20.829135
17.220987 -46.265254 -35.805615
9.121038 -35.320383 -47.929677
18.556370 -47.490092 -57.546773
7.321001 -31.163254 -45.301455
21.266500 -49.638136 -35.983990
8.371249 -33.735463 -48.180078
