-48.516099 -44.541241 -51.301206
-54.587287 -37.009319 -17.799756
-54.788127 -36.711238 -59.391229
-46.352253 -46.830497 -14.650106
-46.967889 -46.179196 2.551014
-54.811876 -36.675992 -55.053735
-53.957144 -37.895845 -49.553029
-48.925670 -44.107944 2.076132
-50.647540 -42.106567 -16.968309
-55.676349 -35.393006 -22.923460
-47.261244 -45.868810 -27.610378
-54.552115 -37.061512 -59.544998
-52.039074 -40.426435 -0.364321
-50.247692 -42.574882 -28.635201
-55.049755 -36.322951 -34.452464
-53.740745 -38.177256 -5.264888
-51.073509 -41.599333 -55.882040
-50.978007 -41.712144 -16.193237
-54.927531 -36.504355 -7.486243
-54.760546 -36.752182 -12.697763
-49.592220 -43.349186 -24.841571
-56.534083 -34.120003 -55.250979
-47.058294 -46.083509 -42.600674
-46.577503 -46.592190 -17.006270
-50.751591 -41.979619 -46.104496
-53.272505 -38.796150 -51.255409
-54.558252 -37.052407 -40.998063
-50.616486 -42.139205 -1.298001
-55.522834 -35.620836 -43.905821
-46.838481 -46.316060 -45.267730
-49.530441 -43.422172 -16.473240
-52.159899 -40.266735 -35.220400
-55.709754 -35.343438 -15.857264
-50.423813 -42.366833 -26.439532
-48.122519 -44.957630 -13.438860
-52.791028 -39.432542 -50.222887
-50.614537 -42.141525 -37.605517
-54.498143 -37.141619 -2.242031
-53.261328 -38.810924 -50.175403
-56.337609 -34.411610 0.977554
-52.860694 -39.340461 -25.215741
-55.229387 -36.056353 -31.507706
-52.321576 -40.053713 0.509013
-55.150443 -36.173514 -44.478920
-50.478296 -42.306869 -10.223086
-53.936543 -37.918460 -24.016544
-50.177529 -42.657755 -43.947062
-47.760436 -45.340686 -42.409025
-46.572554 -46.597410 -34.793815
-54.543671 -37.074044 -54.984845
-47.461501 -45.656952 -22.501370
-46.425822 -46.752670 -9.432161
-48.737550 -44.306960 -7.031317
-46.347915 -46.835086 -15.520499
-53.928566 -37.929003 -30.737773
-49.759421 -43.151652 -60.309375
-51.964688 -40.524754 -7.479394
-55.467709 -35.702671 -5.346780
-51.266580 -41.371256 -18.121129
-48.141168 -44.937915 2.212309
-48.360380 -44.705982 -60.255948
-50.110201 -42.743139 3.529763
-55.383942 -35.826973 -30.601276
-47.663248 -45.443504 -39.899797
-55.501378 -35.652707 -0.721278
-48.170732 -44.906617 -60.330486
-54.205723 -37.562671 -2.579036
-55.929729 -35.016989 -2.763629
-52.214849 -40.194104 -44.286150
-55.086628 -36.268233 -7.512882
-47.828645 -45.268524 -60.394123
-47.992728 -45.094935 -55.586255
-50.392120 -42.404259 -44.572482
-55.744751 -35.291505 -11.396870
-52.062137 -40.395952 -29.022854
-52.259750 -40.134757 -28.851508
-51.937328 -40.560917 -2.149111
-53.485646 -38.514434 -2.273187
-49.048133 -43.978383 -2.566000
-52.012089 -40.462102 -12.831745
-46.341279 -46.842104 -19.196887
-51.881002 -40.635366 -45.992788
-47.980080 -45.108316 -47.858290
-49.989194 -42.880252 -14.202241
-48.933060 -44.100123 -21.886858
-50.984316 -41.704692 -5.031925
-48.185678 -44.890814 -9.856151
-48.522431 -44.534543 -10.751635
-47.130444 -46.007221 3.791932
-53.506528 -38.486830 -39.777359
-48.171178 -44.906148 -16.936933
-53.677010 -38.261497 -49.844346
-46.492286 -46.682309 -59.374265
-53.261019 -38.811335 3.846716
-48.934117 -44.099005 -22.536201
-46.701262 -46.461254 -21.003557
-53.113016 -39.006954 -53.966610
-48.304978 -44.764594 -35.336039
-56.139567 -34.705545 3.608534
-51.158004 -41.500867 -35.025107
-49.430118 -43.540673 -29.058048
-49.771027 -43.137968 -18.188571
-51.372841 -41.245731 -38.199611
-50.282216 -42.534091 -39.615294
-52.423631 -39.918147 -18.229461
-53.369937 -38.679816 -17.944607
-54.486991 -37.158167 -47.670582
-55.217531 -36.073952 -20.249050
-47.274605 -45.854700 -0.442881
-54.286386 -37.455889 -10.338434
-50.927596 -41.779010 -35.951288
-54.175049 -37.603215 -3.279830
-48.798398 -44.242590 -0.653664
-46.915836 -46.234252 -11.578485
-52.787401 -39.437336 -42.398805
-53.360493 -38.679852 -42.873516
-49.333920 -43.654326 0.458249
-48.420885 -44.641972 -20.369442
-49.738940 -43.193259 2.593857
-46.836213 -46.318478 -24.974675
-54.946103 -36.476783 -41.344111
-47.578946 -45.532718 -3.166590
-49.616656 -43.320317 -29.914523
-54.148248 -37.638639 -23.060809
-55.341958 -35.889283 -31.958263
-55.231271 -36.053554 -45.461608
-56.156926 -34.679766 -36.800540
-49.763249 -43.147134 -51.769869
-47.662684 -45.444101 -39.003271
-50.759383 -41.970418 -40.693205
-48.490581 -44.568238 -55.202312
-51.587592 -40.992050 -59.059203
-54.799417 -36.694492 -9.014685
-49.736881 -43.195389 3.125455
-52.181591 -40.238064 -33.264363
-55.020315 -36.366641 -48.968159
-51.071924 -41.601210 -49.653954
-55.856831 -35.125140 -37.422030
-56.397680 -34.322451 -23.231951
-51.157741 -41.499833 -52.400075
-47.216938 -45.915679 -33.578703
-55.623164 -35.471945 -17.247760
-56.357294 -34.382394 -40.283103
-55.316035 -35.927749 -58.526008
-52.180188 -40.239918 -37.572089
-52.954640 -39.216287 -40.630277
-53.905589 -37.959374 0.308626
-47.437888 -45.681956 2.102821
-46.526837 -46.645788 -21.841906
-50.441914 -42.345446 -32.848090
-48.796653 -44.244433 -8.043717
-53.522918 -38.474777 -24.336039
-49.533256 -43.418839 -28.162533
-54.080196 -37.728586 -35.933090
-47.628350 -45.480424 -30.383245
-54.614280 -36.969258 -24.258180
-53.178464 -38.920448 -56.005731
-52.218322 -40.189515 -4.020227
-51.710540 -40.846812 -7.108723
-49.248009 -43.755780 -56.411664
-56.037899 -34.856418 -33.079206
-46.830754 -46.324254 -24.203490
-46.774749 -46.383513 -15.633015
-53.639225 -38.311438 -44.030605
-54.329764 -37.391511 -17.544334
-56.572992 -34.062253 -47.274319
-56.152385 -34.686503 -37.661018
-53.044388 -39.104709 -20.312080
-47.700109 -45.404508 -53.492924
-53.211770 -38.876426 -52.346125
-54.610672 -36.974606 -54.036741
-55.190436 -36.114166 -9.989137
-47.604815 -45.505323 -38.045503
-55.592044 -35.518121 -32.549181
-56.343236 -34.403259 -28.097208
-52.148093 -40.282339 -51.107725
-51.837098 -40.693396 -53.660207
-55.901185 -35.059307 -56.618362
-53.683976 -38.252288 -48.150487
-56.377051 -34.353070 -18.539168
-47.889058 -45.204633 -2.541309
-55.799418 -35.210346 -45.374727
-52.627294 -39.648956 -10.197243
-54.440105 -37.227753 -22.710518
-54.551484 -37.062455 -3.056454
-46.387778 -46.792903 -25.678204
-53.293148 -38.768865 -40.180571
-55.238610 -36.042665 -35.602863
-51.315922 -41.312969 -17.805945
-51.615926 -40.958578 -34.410092
-55.704399 -35.351367 -47.629540
-55.078820 -36.279829 2.047315
-46.903906 -46.246839 -48.271389
-48.326633 -44.741695 -3.779726
-47.795418 -45.303676 -49.989221
-51.326915 -41.303912 -46.087046
-48.420633 -44.642238 -14.702788
-48.084116 -44.998252 -57.057527
-47.221877 -45.910464 -22.766353
-52.386794 -39.966837 -12.030275
-49.589609 -43.359283 -0.394741
-53.386667 -38.645260 3.676482
-53.631796 -38.321260 -1.351103
-52.888460 -39.333194 -9.132668
-56.572360 -34.063191 -33.230316
-53.805531 -38.098634 -39.019215
-53.464901 -38.541851 -47.510997
-47.473582 -45.644159 -58.280962
-47.749725 -45.352017 -54.351464
-55.666964 -35.406924 -54.005255
-54.124777 -37.669662 -17.410632
-49.728694 -43.187978 -14.247233
-53.406657 -38.618838 0.727615
-55.567662 -35.554307 -31.656920
-52.784824 -39.440742 -46.311141
-51.959017 -40.532251 -27.125461
-46.421700 -46.756992 -49.936634
-53.136825 -38.975485 -57.596358
-48.662108 -44.386773 -36.738603
-47.034404 -46.108815 -10.062862
-52.420816 -39.921868 -38.204614
-49.832757 -43.065051 -12.397960
-55.334472 -35.900394 -28.068499
-54.436988 -37.232375 -57.342056
-51.995764 -40.483681 -34.531740
-50.108772 -42.738989 -25.372975
-46.609693 -46.558143 -8.438664
-55.267040 -36.000464 -58.908811
-47.917362 -45.174679 -12.215079
-53.532620 -38.452343 -56.087242
-49.787512 -43.118491 -24.013835
-53.234364 -38.851467 -1.321375
-47.714170 -45.389631 -30.686464
-46.626224 -46.540656 -5.083193
-55.292015 -35.963418 -5.676209
-48.445894 -44.615514 -47.917915
-56.538948 -34.112781 2.119680
-55.836750 -35.154972 -8.922906
-46.352200 -46.830516 -54.641612
-56.344224 -34.401792 -38.444741
-55.371349 -35.845673 -9.551024
-56.172304 -34.656957 0.146005
-54.788911 -36.710084 -11.179328
-54.727276 -36.801551 -47.889121
-51.015414 -41.667955 -6.958413
-51.912615 -40.593582 -37.058122
-49.490099 -43.469802 -55.093416
-50.030995 -42.830849 -50.894648
-54.517787 -37.112464 -14.715062
-55.625505 -35.468468 -19.315541
-48.730870 -44.314027 -42.930171
-52.982398 -39.179599 -31.323823
-52.309842 -40.068549 -31.187315
-55.458283 -35.716655 -8.447536
-47.609453 -45.500416 -38.316283
-51.853475 -40.671750 -39.025173
-54.468941 -37.184957 -3.438560
-50.377653 -42.431196 -13.858815
-54.658047 -36.904297 -43.804217
-49.711195 -43.208649 -15.399311
-56.226957 -34.575818 -50.319282
-52.140446 -40.292447 -54.262974
-47.653243 -45.454095 -24.569720
-56.574732 -34.059671 -6.244655
-54.696079 -36.847854 -41.758607
-54.199648 -37.570701 -0.389741
-52.193826 -40.221892 -50.312880
-47.213454 -45.919358 -58.960230
-48.300849 -44.768962 -56.259150
-47.073129 -46.067852 -3.011904
-51.932768 -40.566945 -4.177313
-49.352333 -43.632565 -21.368368
-52.092288 -40.356100 -17.998286
-54.944410 -36.479304 -3.217995
-54.816381 -36.669315 -10.512775
-54.161859 -37.621208 -57.098820
-54.571122 -37.033310 -29.250569
-48.822906 -44.216658 -46.920994
-47.098865 -46.040585 -47.033376
-46.619059 -46.548238 -3.777271
-51.031640 -41.648788 -17.011638
-55.781413 -35.237066 -50.850061
-46.876360 -46.275982 -59.279995
-48.755915 -44.287540 3.455999
-53.943763 -37.908917 -25.077228
-51.948832 -40.545712 -1.159915
-51.772914 -40.773130 -51.721049
-51.127213 -41.535888 -3.144891
-46.768978 -46.389585 -52.652992
-49.515221 -43.440130 -47.058247
-52.136175 -40.298092 -7.819541
-49.477341 -43.484871 -59.676894
-49.497585 -43.460956 -60.099051
-51.614618 -40.960123 -11.656112
-50.291727 -42.523215 3.753752
-51.349273 -41.273571 -33.906596
-54.611629 -36.973191 -34.033218
-54.273549 -37.473021 -49.916258
-51.788352 -40.754893 -1.392325
-54.941920 -36.482991 -42.346994
-55.792363 -35.220836 -17.950290
-53.563046 -38.412128 -56.794837
-52.460641 -39.869230 -25.424954
-54.642219 -36.927794 -10.590367
-48.822173 -44.217434 -37.135492
-48.046010 -45.038566 -49.450413
-52.602703 -39.714624 0.857537
-52.670738 -39.591535 -45.119090
-49.196441 -43.816696 -58.104199
-49.931354 -42.948575 -18.310536
-48.557008 -44.497962 -22.583749
-49.311633 -43.680644 -20.896795
-46.856212 -46.297297 -49.436807
-50.537230 -42.232837 -53.362571
-55.087722 -36.266604 -30.664940
-50.324782 -42.483820 -21.880389
-47.908863 -45.183675 -7.382625
-52.109932 -40.332779 -0.897678
-50.972199 -41.719008 -60.123905
-51.107893 -41.558715 -58.119439
-50.142382 -42.713366 -9.942557
-50.820384 -41.898343 -13.497673
-55.705186 -35.350201 -36.006595
-47.854886 -45.240763 -35.186444
-46.848176 -46.305799 -54.105290
-52.851972 -39.351988 -41.612518
-46.594727 -46.573982 -2.611750
-47.730724 -45.372137 -10.041791
-47.318629 -45.808123 -2.132087
-48.824256 -44.215231 -17.655512
-49.848841 -43.046052 -10.453692
-56.522017 -34.137911 -41.836611
-48.362713 -44.703514 -26.069044
-49.356758 -43.627351 -1.535213
-48.946524 -44.085882 2.341657
-52.462763 -39.866424 -36.502389
-52.423329 -39.934276 1.562470
-52.596991 -39.689009 -50.701872
-46.985970 -46.160058 -6.581588
-55.351314 -35.875399 -24.442973
-51.002724 -41.682946 -9.411075
-50.429835 -42.359717 -28.483445
-53.340750 -38.710450 -30.300015
-51.232491 -41.411525 -21.969347
-48.758293 -44.285016 -39.372860
-53.878936 -37.994603 -18.562440
-56.432283 -34.271092 -50.291615
-55.847396 -35.139163 -17.147448
-55.456952 -35.718610 -57.654715
-50.335714 -42.470894 -40.023648
-50.754811 -41.982650 -31.460400
-56.111993 -34.746452 -35.825429
-50.389987 -42.406775 -52.812953
-55.852747 -35.131196 -54.131443
-53.181661 -38.924810 -2.068682
-53.081227 -39.048971 -55.253996
-48.949248 -44.082996 -27.466381
-54.566334 -37.040413 -37.620574
-49.696667 -43.225807 -21.458408
-51.119832 -41.544619 -46.603557
-51.406058 -41.206492 -23.398600
-55.445766 -35.735211 -60.162632
-52.001685 -40.475854 -47.906428
-47.221589 -45.910752 -50.371988
-51.727364 -40.826937 -57.379899
-54.972990 -36.436876 -57.454844
-55.551292 -35.578599 -41.724272
-54.572909 -37.030656 -36.464104
-50.900861 -41.803276 -2.304960
-48.033982 -45.051310 -1.519443
-50.147366 -42.693399 -23.544589
-56.259049 -34.528208 -33.837306
-52.971409 -39.212170 0.653663
-54.495681 -37.145273 -13.772315
-48.839195 -44.199426 -22.098589
-47.130613 -46.007026 -13.843906
-48.953818 -44.078162 -41.311160
-53.503405 -38.490959 -43.700572
-54.766078 -36.743971 -16.960762
-52.449301 -39.884218 -24.890809
-51.382189 -41.234689 -6.282977
-52.269080 -40.122424 -56.790354
-53.365872 -38.672742 -34.672046
-52.679249 -39.580286 -32.506073
-49.682498 -43.242555 -4.866766
-52.337476 -40.032024 -1.319390
-51.207508 -41.444043 -39.586029
-48.921172 -44.112699 -12.473852
-52.611038 -39.670444 -9.162565
-46.813010 -46.343006 -45.666199
-46.479398 -46.695951 -49.324557
-52.042893 -40.421387 -58.582039
-53.696259 -38.236054 -45.000612
-46.442135 -46.735389 -33.047904
-47.311162 -45.815991 -36.816681
-49.406732 -43.568316 -4.259884
-47.839261 -45.257315 -3.736068
-47.426475 -45.693998 -32.496019
-51.126236 -41.537043 -0.791482
-53.819383 -38.073317 -25.330589
-52.185703 -40.232629 -52.611673
-48.920151 -44.113779 -37.671460
-54.266331 -37.482563 -15.034749
-56.163216 -34.670439 -29.706138
-55.612186 -35.488241 -14.678324
-52.441728 -39.894228 -27.141443
-49.056762 -43.969254 -36.126897
-48.717484 -44.328189 -60.360617
-54.064781 -37.748962 -30.322502
-53.381299 -38.652351 -60.634698
-55.596946 -35.510839 -57.119523
-54.438641 -37.229924 -53.718965
-46.778356 -46.379684 -29.364849
-56.013216 -34.893040 -48.114624
-52.493036 -39.826412 -9.790634
-51.170352 -41.484931 -60.543321
-50.418196 -42.373442 0.850103
-53.724747 -38.198400 -58.342479
-47.324056 -45.802352 -34.070054
-53.455431 -38.554368 -40.225588
-52.336126 -40.034145 -0.041101
-52.576439 -39.716173 -55.556074
-54.873386 -36.584709 -28.459232
-51.195052 -41.455752 -20.164179
-53.836259 -38.051011 -9.163363
-53.388224 -38.643199 -51.052385
-46.389924 -46.790602 -58.304460
-47.363082 -45.761060 -57.966915
-54.033526 -37.791635 -46.996445
-54.749794 -36.768141 3.823026
-52.328863 -40.043407 -36.668303
-55.005389 -36.388791 -57.982261
-53.814406 -38.085990 -38.574265
-55.454602 -35.722100 -42.455213
-54.472661 -37.179435 -43.757242
-47.832403 -45.264574 0.801976
-53.427988 -38.590644 2.383953
-55.762237 -35.265562 -4.545961
-53.903852 -37.961668 -57.782432
-46.975214 -46.171412 -34.198327
-49.724204 -43.193254 -58.291273
-48.974613 -44.056163 -48.921389
-51.049863 -41.627261 -19.952485
-49.506884 -43.449997 -19.128724
-48.120136 -44.960147 -18.020139
-50.151516 -42.688493 -28.054581
-54.171856 -37.607434 -45.402888
-52.504777 -39.810892 -54.021150
-55.628132 -35.464561 -30.421368
-54.425782 -37.249011 -37.255193
-56.354166 -34.387027 -49.393902
-49.816602 -43.084120 -34.809533
-55.843398 -35.145070 -59.511218
-54.411702 -37.269905 -50.654093
-49.343932 -43.642469 -52.660365
-52.616309 -39.663476 -15.271403
-54.779385 -36.724220 -23.437020
-52.065189 -40.391918 -36.779469
-51.165221 -41.490994 -56.603824
-55.196520 -36.105129 -43.742377
-52.103212 -40.341661 -49.476909
-56.173156 -34.655680 -34.736194
-52.565870 -39.730144 -12.278177
-52.836472 -39.372475 -48.256397
-46.797655 -46.359277 -18.601653
-54.608252 -36.978200 -44.398509
-52.280819 -40.106909 -57.054168
-50.732970 -42.001610 -55.756102
-52.758984 -39.474896 -38.597983
-55.434742 -35.751577 -39.886975
-55.874424 -35.099026 -46.901811
-49.699988 -43.221889 -13.134077
-49.775445 -43.132741 -30.209288
-46.529761 -46.642719 3.657873
-52.881422 -39.313063 -43.033724
-49.969437 -42.903583 -26.210734
-53.273240 -38.795178 -53.725230
-55.761044 -35.267337 -1.082318
-54.921690 -36.513020 -16.988818
-49.516639 -43.438473 -20.345472
-51.772799 -40.773266 -32.678089
-50.397355 -42.398062 2.151691
-56.545462 -34.103113 -57.232896
-52.481152 -39.842120 -42.845606
-50.234226 -42.595604 -18.066943
-54.446578 -37.218147 2.436902
-52.333508 -40.037268 -5.795686
-47.196785 -45.936993 -48.778943
-52.027771 -40.441374 -39.361401
-47.618274 -45.491085 -30.037601
-55.940726 -35.000633 -32.837684
-55.595057 -35.513663 -13.556170
-54.983527 -36.421244 -27.679984
-50.188591 -42.644694 -32.455830
-46.578455 -46.591182 -18.171081
-54.107976 -37.691867 -37.995052
-47.731069 -45.371754 -55.930872
-50.275483 -42.553949 -12.475872
-52.348416 -40.017563 -15.663390
-50.513530 -42.260848 -31.970582
-56.437786 -34.262917 -56.428671
-54.634455 -36.939315 -25.337452
-48.794184 -44.247044 -24.979137
-47.146682 -45.990030 -9.341323
-50.753302 -41.977596 -48.320056
-49.276132 -43.722569 -39.878224
-54.135302 -37.655750 -6.239446
-47.724563 -45.378637 -57.053620
-55.911971 -35.043304 -38.305594
-53.530124 -38.455646 -4.920348
-54.472015 -37.180396 -11.821776
-49.416704 -43.556523 -24.247163
-51.076940 -41.600386 -37.041292
-52.709062 -39.540880 -20.420896
-46.384000 -46.796885 -41.116288
-52.106354 -40.337508 -45.571710
-50.913500 -41.788357 -46.980917
-56.413755 -34.298594 -7.997952
-55.153989 -36.168250 -50.520869
-48.711462 -44.334560 -23.359674
-46.932658 -46.216450 -18.112352
-53.989063 -37.855014 -49.264949
-56.143884 -34.699108 -58.088337
-56.089350 -34.780061 -31.727253
-55.058292 -36.310279 -46.022615
-50.399614 -42.396195 -1.521554
-55.739475 -35.299332 -13.834610
-55.099696 -36.248828 -53.333017
-52.335570 -40.034542 -52.279521
-54.905670 -36.536787 -60.023101
-51.711374 -40.845826 -40.536129
-50.337210 -42.469119 -53.117227
-51.373243 -41.245256 -7.871202
-46.767975 -46.390648 -49.864590
-52.509367 -39.804827 -12.974271
-48.901352 -44.133668 -9.074054
-52.715899 -39.531843 -45.801282
-46.964619 -46.182613 -43.501260
-51.881858 -40.634235 -19.208439
-55.741826 -35.295851 -6.798186
-48.005553 -45.081376 -13.216289
-47.906909 -45.185725 -30.860302
-49.706030 -43.214743 -27.154760
-53.841235 -38.044433 -29.739428
-55.203833 -36.094280 -25.972449
-56.331900 -34.420084 -28.866658
-55.927221 -35.020679 -29.552886
-51.615398 -40.959201 -7.489102
-50.385532 -42.412028 1.350091
-47.501890 -45.614211 -55.344311
-54.447403 -37.216923 -31.833996
-49.406597 -43.568460 -27.067370
-53.851100 -38.031395 -21.094909
-53.602313 -38.360226 -53.889766
-54.193124 -37.579324 -32.077889
-54.309142 -37.422117 -42.227978
-50.908702 -41.800851 -32.322744
-56.545070 -34.103695 -27.477725
-51.160624 -41.496420 -16.851882
-46.902280 -46.248609 3.807388
-51.905197 -40.603387 -35.896197
-54.407928 -37.275507 -7.072522
-48.314864 -44.754135 -31.711230
-53.016249 -39.134856 -35.262819
-52.394304 -39.956910 -49.910880
-49.013629 -44.014886 -59.675164
-50.182231 -42.658387 -0.070365
-49.303095 -43.690723 -31.495809
-48.477602 -44.581974 -6.311948
-50.239135 -42.584995 -19.970803
-51.752978 -40.796679 -24.720971
-48.825245 -44.214184 -35.220283
-48.690612 -44.356618 -15.448902
-48.361980 -44.704289 -44.632635
-51.733074 -40.820192 -52.972561
-53.702845 -38.227351 -21.696177
-54.051730 -37.766212 -42.783743
-49.969894 -42.916341 -1.358545
-51.983708 -40.499615 -18.424524
-46.937072 -46.211793 -4.637556
-48.361337 -44.704969 -24.110455
-46.874349 -46.278126 -31.717604
-52.258596 -40.136282 -39.222862
-50.768166 -41.960039 -46.778687
-52.803618 -39.418832 -13.937406
-54.824649 -36.657042 -21.081916
-46.997138 -46.148235 -14.774088
-56.367146 -34.367771 -1.777142
-53.258071 -38.836267 -20.375072
-53.913800 -37.948520 -58.372950
-53.472793 -38.531420 -48.441483
-50.796937 -41.926039 0.815475
-49.422124 -43.550128 -10.395982
-54.864526 -36.597860 -20.534340
-54.766850 -36.742827 -5.559413
-56.496849 -34.175265 -33.508638
-51.419103 -41.191082 -5.043342
-47.430661 -45.689592 -8.744930
-53.543550 -38.441859 -19.458944
-49.296418 -43.698619 -5.566955
-49.919216 -42.962897 -44.961094
-53.259010 -38.814102 2.371469
-54.965279 -36.448329 -14.813534
-53.904798 -37.960419 -5.727088
-46.930129 -46.219144 1.722867
-54.389701 -37.302559 -49.134503
-50.567968 -42.196529 -48.982890
-50.254090 -42.567317 -39.066220
-49.973064 -42.899279 -55.512515
-53.999729 -37.834944 -33.514129
-56.228544 -34.573483 -31.468576
-54.528669 -37.096311 -51.515079
-47.394039 -45.728328 -17.704542
-48.746404 -44.297593 -59.987963
-50.467389 -42.323625 -15.429261
-48.466351 -44.593871 -60.831717
-52.324318 -40.049415 -2.055614
-46.938227 -46.210530 -51.201884
-46.954680 -46.193136 -34.515469
-50.814784 -41.904957 -17.022442
-50.588658 -42.183862 -25.777443
-54.926748 -36.505516 -7.147187
-51.715584 -40.840853 0.156777
-46.600723 -46.567601 -41.973221
-56.533980 -34.120154 -32.859510
-48.547022 -44.508526 -10.330942
-55.325667 -35.913454 -58.230411
-56.049197 -34.839674 -7.598762
-54.072558 -37.738682 -31.694282
-52.643924 -39.626976 -39.113606
-51.485519 -41.112626 -14.181068
-49.928897 -42.951458 -49.042804
-55.166695 -36.149401 -11.924878
-49.401735 -43.574206 -22.963952
-50.987482 -41.700961 -50.464386
-47.444713 -45.674700 -38.643910
-48.538326 -44.517726 -28.469083
-50.540143 -42.231264 -9.157779
-46.590987 -46.577942 1.085804
-52.498966 -39.818574 -8.886941
-50.868732 -41.844154 -24.861190
-52.576598 -39.715964 -41.918532
-51.408533 -41.203568 -31.761311
-55.183607 -36.124299 -21.655341
-56.193823 -34.625019 -21.905495
-47.961070 -45.128426 -48.175445
-53.949856 -37.900863 -18.025536
-54.130218 -37.662470 -41.391307
-55.506487 -35.645096 -47.932847
-48.837299 -44.201432 -6.740690
-54.098862 -37.703915 -8.000836
-56.036633 -34.858319 -15.178608
-46.537828 -46.634138 -45.667356
-46.373356 -46.808188 2.680639
-55.326057 -35.912906 2.851385
-48.879342 -44.156952 -7.762312
-47.467051 -45.651068 -36.346937
-48.194100 -44.881895 -53.437281
-47.047695 -46.094736 -27.776662
-51.773332 -40.772637 -60.562416
-55.603865 -35.500571 -55.028552
-46.897062 -46.254100 -27.031859
-56.330242 -34.422544 -32.162269
-50.414250 -42.382112 -6.854637
-51.359454 -41.261545 -10.746200
-49.931094 -42.948867 -42.441519
-49.360752 -43.622610 -37.034323
-49.318530 -43.672503 -4.519774
-55.129742 -36.204250 -2.773171
-56.011677 -34.895332 -34.710332
-51.439834 -41.166593 0.486551
-46.769909 -46.388647 -2.381633
-46.535659 -46.636425 -54.080012
-54.643339 -36.926131 -4.673357
-46.630068 -46.536559 -37.991760
-47.076193 -46.064571 -52.065065
-49.469001 -43.498768 2.122651
-54.428281 -37.245301 -15.726493
-48.773128 -44.269321 -51.284522
-50.873029 -41.836162 -49.963677
-56.402415 -34.315425 -33.292858
-52.342912 -40.024838 -7.947736
-49.725398 -43.191868 -19.045876
-46.457331 -46.719314 -31.639709
-49.761589 -43.149106 -35.061475
-55.536667 -35.600307 -32.262396
-55.581963 -35.533082 -33.558837
-46.757815 -46.401419 -25.490648
-53.717594 -38.207856 -6.912520
-48.485043 -44.574097 -23.219189
-49.731867 -43.184210 -44.541191
-47.220173 -45.912278 -9.751217
-52.237456 -40.164224 -1.753892
-46.770343 -46.388165 -25.808683
-54.911395 -36.528292 -52.067073
-50.406348 -42.387445 -56.053915
-46.610336 -46.557444 -27.127964
-56.538490 -34.113462 -50.952318
-55.317911 -35.924972 -28.614144
-54.332114 -37.388023 -57.959662
-47.022734 -46.121170 -0.587635
-48.560238 -44.494544 -25.350152
-51.469956 -41.131011 -2.075580
-47.123650 -46.014380 -26.874697
-50.106376 -42.755449 -7.730684
-53.962278 -37.884445 -25.808790
-53.590640 -38.375657 -8.870995
-52.843943 -39.387179 1.436426
-52.272574 -40.117807 -3.203617
-47.925451 -45.166110 -30.531139
-54.763635 -36.747592 -35.681033
-53.060633 -39.099095 -16.357316
-49.310632 -43.681821 -29.969937
-56.276460 -34.502367 -4.581536
-48.683153 -44.364509 -6.523863
-53.994492 -37.842405 -43.680969
-50.374414 -42.437205 -16.920261
-47.965446 -45.123814 -4.957143
-55.027734 -36.355632 -40.369146
-50.343933 -42.461191 -31.671018
-54.592446 -37.001661 -30.981118
-52.330236 -40.041593 -31.463891
-51.174405 -41.484784 -40.559109
-54.520362 -37.108643 -33.002391
-50.148629 -42.691887 -53.462520
-54.339973 -37.376361 -27.845634
-48.700326 -44.346341 -33.472784
-55.104714 -36.241388 -16.253722
-48.367813 -44.698118 -45.737081
-55.035703 -36.343811 -11.465900
-52.264133 -40.128964 -8.171329
-53.818822 -38.074058 -7.990584
-55.182435 -36.126045 -6.031380
-52.439794 -39.896784 -29.817903
-47.666661 -45.439907 -15.289472
-54.949151 -36.472257 -53.189001
-53.604767 -38.363258 -25.774009
-55.647965 -35.435154 -4.200537
-50.183543 -42.665640 -13.032772
-46.757625 -46.401622 -24.476629
-53.249096 -38.838497 -9.321421
-54.354209 -37.355233 -2.960191
-51.183216 -41.469732 -21.041407
-53.685498 -38.253877 -27.863021
-46.512396 -46.661058 -31.279168
-49.948032 -42.928855 -46.994799
-55.929676 -35.017031 -34.064131
-51.016691 -41.667650 -28.715153
-55.176786 -36.134426 -8.039855
-51.510524 -41.083088 -23.901372
-48.912491 -44.121883 -2.085387
-51.863699 -40.658237 -38.143378
-54.264328 -37.485210 -15.577744
-56.039020 -34.854770 -19.518761
-52.769992 -39.489591 0.933957
-48.708807 -44.337368 -8.939289
-55.706095 -35.348862 -21.254319
-50.104292 -42.744278 -29.044101
-49.577731 -43.366281 -59.424852
-53.824492 -38.066563 -28.320038
-53.739129 -38.181377 -29.427907
-51.347519 -41.275644 3.831182
-54.799569 -36.694269 -4.782718
-56.153272 -34.685176 -59.390752
-54.862458 -36.600933 1.017481
-55.188999 -36.116298 -17.210359
-46.797274 -46.359668 -31.478834
-52.353168 -40.011282 -52.663342
-52.416920 -39.927018 -44.293454
-54.402912 -37.282952 -6.668497
-50.316117 -42.494039 -49.380761
-52.969694 -39.196390 -43.243717
-47.494163 -45.622385 -43.383882
-47.956437 -45.133332 -20.564881
-50.591790 -42.168390 -45.919767
-49.566701 -43.379322 -42.342306
-54.836714 -36.639130 -48.702926
-53.427681 -38.591047 -35.664923
-48.556384 -44.498622 -26.515852
-47.047695 -46.094720 -52.338780
-55.157313 -36.163319 -39.432751
-52.684886 -39.572835 -28.075546
-52.288568 -40.096667 -36.246088
-56.280912 -34.495761 -16.363979
-48.400624 -44.663406 -30.816757
-50.541212 -42.228131 -55.749070
-53.022886 -39.126084 -61.104792
-55.253597 -36.020427 -13.053045
-56.041979 -34.850351 -50.998240
-54.609537 -36.976297 -22.113116
-48.109164 -44.971753 -43.666702
-53.465746 -38.540734 -38.941388
-53.250836 -38.833498 -6.486900
-50.875893 -41.832777 -53.754079
-54.515957 -37.115180 -17.523654
-46.407183 -46.772362 -37.526596
-50.278431 -42.538572 -24.620381
-49.550913 -43.397962 -56.431467
-53.277367 -38.789724 -54.969076
-52.529186 -39.778630 -57.802960
-48.043061 -45.041698 -8.665320
-47.668858 -45.437600 3.422786
-47.269721 -45.859861 -7.626387
-53.145961 -38.969409 2.964961
-49.473943 -43.488906 -26.379194
-50.191656 -42.641065 -45.534126
-55.417884 -35.776599 -26.599436
-52.306114 -40.073476 -2.913617
-55.681857 -35.384822 -48.366954
-52.322009 -40.052466 -7.007380
-52.167814 -40.256274 -31.410822
-47.932525 -45.158628 -21.589532
-51.002843 -41.682806 -10.818998
-51.038579 -41.640591 -22.492096
-50.636386 -42.115697 -3.936645
-54.778616 -36.725360 -24.088094
-52.660023 -39.605697 -12.692376
-47.329729 -45.796346 -39.022547
-49.348781 -43.636767 -11.721651
-51.345134 -41.278461 -19.509049
-49.749385 -43.163524 -33.859802
-53.752628 -38.167162 -34.218639
-52.574596 -39.718610 -28.987166
-53.900298 -37.966367 -36.126325
-47.922739 -45.168985 -17.769118
-50.206597 -42.623421 -37.831453
-50.616737 -42.138908 -2.149749
-53.630218 -38.323346 -4.681283
-56.441875 -34.256857 3.592731
-47.809671 -45.288610 -14.072475
-51.657252 -40.909760 -22.844982
-50.374436 -42.425163 -23.516658
-55.274915 -35.988785 -26.840883
-49.170282 -43.847598 -34.587251
-50.066984 -42.788343 -41.040195
-52.043524 -40.420554 -37.329838
-47.860300 -45.235035 -53.168813
-54.210331 -37.556580 -52.486193
-52.161876 -40.264122 -5.962453
-46.551186 -46.620029 -20.747025
-52.925617 -39.254648 -43.495273
-54.417370 -37.261495 -6.308785
-50.026817 -42.835783 -53.151845
-52.114057 -40.327327 -27.764899
-55.466334 -35.704719 1.676169
-56.132162 -34.716536 -5.859914
-46.865473 -46.287499 -61.000183
-51.170332 -41.484953 -28.946517
-48.448401 -44.612862 -45.277982
-49.661848 -43.266938 -20.956854
-52.986171 -39.194983 -2.795189
-52.112916 -40.328834 -59.973481
-50.312773 -42.497996 -38.037351
-50.457750 -42.332923 -11.951933
-55.391072 -35.816394 -18.257570
-50.959350 -41.734183 -1.765267
-50.188595 -42.644699 -18.820239
-51.482754 -41.115892 -38.774963
-53.313991 -38.752336 -12.921902
-47.941541 -45.149087 -26.679738
-55.080383 -36.277498 -20.775945
-47.702258 -45.402233 -60.149459
-54.707789 -36.830471 -51.499598
-54.921453 -36.513372 -20.269942
-56.191705 -34.628137 -48.661718
-55.350641 -35.876391 -49.526818
-48.101498 -44.979864 -57.976635
-50.707384 -42.038946 -24.053084
-55.082636 -36.274159 -3.313437
-50.488514 -42.290391 -43.679232
-49.316650 -43.674703 -43.704464
-54.441413 -37.225812 -39.182771
-53.058650 -39.100299 -8.501764
-53.144193 -38.965746 -39.927427
-49.169042 -43.849062 -46.970177
-47.976018 -45.112614 -22.095803
-48.866659 -44.170371 -31.361509
-53.144158 -38.978290 -4.004948
-48.912212 -44.122180 0.340976
-52.357376 -40.005720 -51.590780
-55.988913 -34.929107 -53.709229
-47.335070 -45.790696 -48.052719
-52.087047 -40.363027 -29.331451
-52.730571 -39.512450 -20.715275
-47.065953 -46.075404 -50.189402
-50.136756 -42.705927 -32.953522
-56.571477 -34.064502 -16.540269
-52.315552 -40.061002 -6.072778
-49.389692 -43.588421 -41.819764
-48.150729 -44.927779 -46.899608
-47.584129 -45.527207 -60.415242
-55.272607 -35.992217 -9.055596
-54.264204 -37.485373 -36.761299
-51.673384 -40.890703 -55.041485
-54.597536 -36.994108 3.818117
-49.763508 -43.146837 -38.839867
-49.881333 -43.020381 3.304386
-53.525414 -38.464273 -16.638403
-48.607535 -44.444508 -38.155913
-51.145524 -41.514258 -3.390765
-51.160461 -41.496623 -48.347234
-46.477901 -46.697548 -35.039471
-50.114660 -42.732011 -61.108589
-53.689014 -38.245632 0.906681
-52.069851 -40.385756 -44.689447
-51.904941 -40.603725 -9.431049
-53.292582 -38.782277 -13.387031
-49.000013 -44.029290 -53.481015
-54.615827 -36.966962 -0.216068
-54.476692 -37.173454 -40.465451
-46.899936 -46.251040 -57.721129
-54.867068 -36.594080 -52.597377
-55.944611 -34.994862 -38.003006
-51.488893 -41.108640 -36.217432
-52.268216 -40.123566 -55.815199
-54.362634 -37.342728 -24.051349
-47.410358 -45.711045 -43.019206
-54.322020 -37.403004 -33.833754
-55.410068 -35.788209 -9.857039
-47.530330 -45.584135 -20.823253
-51.628618 -40.943585 -16.497574
-49.796760 -43.123696 1.950740
-51.416715 -41.194147 -50.614730
-46.646185 -46.519520 -25.196195
-54.580585 -37.019263 -37.325899
-52.990900 -39.191611 -14.077865
-55.737293 -35.302576 -9.148102
-49.500393 -43.457661 -25.862484
-48.478308 -44.581221 -52.724012
-56.401925 -34.316142 -53.133468
-48.700314 -44.346353 -57.906031
-52.684601 -39.573211 -59.128170
-49.329396 -43.659649 -40.170042
-47.876344 -45.218090 3.546191
-55.597225 -35.510427 -52.056277
-52.772469 -39.457072 -33.522355
-53.793968 -38.106909 1.391615
-55.500525 -35.653960 -12.572245
-55.177262 -36.133709 -51.018608
-55.861068 -35.118882 -8.353931
-48.920973 -44.112910 -19.256349
-55.940797 -35.000535 -26.301565
-53.929000 -37.928430 -19.880180
-51.506392 -41.087969 -45.912013
-49.911069 -42.972527 -33.743975
-49.434047 -43.536050 -1.107214
-56.268154 -34.514675 -57.415706
-47.271396 -45.858094 -2.719987
-51.893698 -40.618586 -10.509272
-54.752202 -36.764557 -52.899542
-51.603154 -40.973665 -29.723849
-51.017294 -41.669950 -33.158880
-55.765213 -35.261148 -2.740071
-51.657340 -40.909656 -60.869873
-54.274559 -37.471687 -22.853161
-47.644325 -45.463541 -12.720930
-49.091400 -43.932609 -56.151925
-53.906336 -37.958384 -53.295788
-54.816385 -36.669311 -8.096249
-51.047933 -41.629541 -19.051443
-51.265769 -41.376620 -44.150052
-49.140747 -43.880403 -27.951870
-50.009848 -42.855849 -20.811868
-55.440577 -35.742913 -54.230222
-51.597333 -40.980541 -41.248462
-47.196164 -45.937649 -42.392538
-56.544148 -34.105064 -9.513077
-51.086648 -41.583807 2.149663
-51.992775 -40.487630 -48.625131
-53.723575 -38.199949 -56.912336
-55.769659 -35.254515 -32.240515
-56.277469 -34.500865 -38.684992
-48.190406 -44.885804 -44.531025
-46.975820 -46.170760 -58.332388
-47.603453 -45.506763 -52.602770
-56.233720 -34.565802 -30.385842
-48.129846 -44.949872 -47.559303
-55.574100 -35.544748 -50.969060
-46.889626 -46.261953 -42.176093
-50.702614 -42.037473 -49.866865
-54.587817 -37.008530 -33.299562
-47.158874 -45.977100 -59.869416
-47.036291 -46.106817 -11.388963
-55.978095 -34.945195 -13.980905
-53.136657 -38.990469 -6.007891
-49.962950 -42.911245 -28.172159
-55.459000 -35.715601 -0.370640
-55.008004 -36.384920 -8.098944
-51.571055 -41.011584 -17.402846
-55.796154 -35.215208 -19.294626
-52.167989 -40.256042 -45.028699
-48.693623 -44.353432 -43.834242
-52.868522 -39.330114 -55.667149
-55.159299 -36.160391 2.903909
-53.278525 -38.809998 -22.478265
-50.539971 -42.229590 -4.928922
-48.505746 -44.552205 0.585160
-48.807442 -44.233018 -41.511642
-53.878031 -37.995798 -2.612910
-46.925178 -46.224336 -59.968429
-52.328847 -40.043429 -26.417293
-46.446073 -46.731208 -48.321137
-52.002605 -40.474637 -52.670662
-54.050552 -37.767768 -2.621300
-54.011578 -37.819282 -27.648742
-53.379012 -38.655375 -44.809760
-56.343125 -34.403423 -16.690558
-52.110421 -40.332132 -43.580655
-56.021267 -34.881127 -5.572804
-47.196819 -45.936957 -43.923740
-51.877922 -40.639437 -30.170864
-55.016429 -36.372414 -24.042544
-56.344688 -34.401103 -11.746859
-53.017883 -39.151804 -3.382736
-48.768268 -44.274462 -14.984013
-46.931434 -46.217750 -12.364680
-53.654157 -38.291704 -2.308343
-52.773041 -39.456316 -32.088262
-48.686178 -44.361308 -20.850974
-49.960688 -42.913909 -39.876239
-55.764344 -35.262404 -30.551783
-51.951008 -40.542836 3.632315
-55.791927 -35.221472 -27.553049
-50.554362 -42.220556 -18.697054
-47.910298 -45.182141 -49.705822
-51.480576 -41.118465 -16.159663
-55.983198 -34.937588 -61.071348
-56.059112 -34.824922 -59.801260
-55.680423 -35.386950 -45.923400
-55.563156 -35.560989 -55.513962
-54.623782 -36.955150 -52.142039
-54.887259 -36.564121 -21.967483
-46.584278 -46.585014 -25.638708
-56.547352 -34.100308 -54.626311
-46.684636 -46.478863 -1.000031
-48.198320 -44.877452 3.794400
-55.577395 -35.539861 -35.867658
-47.400523 -45.721464 -22.097216
-55.764832 -35.261685 -25.704328
-46.539392 -46.632503 -23.931236
-48.067520 -45.015826 -3.716844
-47.025497 -46.118205 -57.004462
-49.895904 -42.990455 -13.587797
-54.353625 -37.356097 -59.871328
-55.523641 -35.619643 -20.402350
-52.452803 -39.879589 -50.810372
-54.108579 -37.691071 -49.913153
-55.376425 -35.838124 -51.062020
-48.397199 -44.667041 -1.673432
-52.224601 -40.181215 -15.024077
-50.259159 -42.561338 -24.089212
-50.754192 -41.976540 -57.143856
-50.300713 -42.514782 0.166054
-47.129904 -46.007764 -26.289241
-47.999376 -45.087902 -42.963315
-51.785677 -40.758053 -57.806732
-55.763042 -35.264334 -42.896651
-54.366815 -37.336523 -55.331274
-50.345631 -42.459185 -31.958399
-52.700744 -39.551874 -56.897774
-47.508986 -45.606734 -0.849235
-55.984433 -34.935791 -13.244621
-55.203561 -36.094695 -3.445223
-49.673349 -43.253335 -48.220875
-48.545068 -44.510593 -12.730857
-52.481828 -39.841226 -53.026165
-46.825834 -46.329435 -56.997550
-47.205988 -45.927257 -57.355914
-48.715830 -44.329939 -52.602544
-55.646827 -35.436851 2.575119
-48.422958 -44.639785 -6.949276
-53.467371 -38.538586 -52.672340
-48.984344 -44.045868 -9.834561
-50.528073 -42.246278 -9.744298
-49.335836 -43.652047 -32.137745
-49.084849 -43.939540 -45.074848
-51.623602 -40.949511 -2.789083
-46.965683 -46.181493 -37.221489
-47.698727 -45.405969 -54.089548
-48.375239 -44.690262 -31.992186
-48.740856 -44.303462 -41.206362
-46.603003 -46.565179 -52.743421
-54.155496 -37.629058 -14.207633
-56.401188 -34.317245 2.508306
-54.886765 -36.564851 -36.885918
-50.823532 -41.894623 -2.018327
-52.407524 -39.939437 -51.352215
-55.852766 -35.131193 -17.485910
-48.133898 -44.945597 -7.977907
-50.591200 -42.169216 -28.660998
-48.444019 -44.617497 -20.987390
-47.620493 -45.488761 -4.610286
-52.574808 -39.718331 -22.663239
-52.972027 -39.193307 -28.835823
-49.187417 -43.827359 -46.616202
-49.420900 -43.551544 -59.025008
-55.117541 -36.222345 -46.893816
-55.891062 -35.074346 -26.568282
-51.129271 -41.533465 -51.212079
-56.417516 -34.293012 -39.166706
-48.842544 -44.195883 -43.955615
-49.697156 -43.225225 -28.093109
-48.063422 -45.020157 -9.070242
-46.541779 -46.629963 -40.326850
-52.732043 -39.510504 -22.632586
-56.425670 -34.280899 -60.458620
-49.534186 -43.417756 -2.351870
-49.831193 -43.066871 -54.998480
-54.103812 -37.698778 -51.400912
-51.361715 -41.258881 -52.751542
-53.498570 -38.514088 -31.793562
-47.514970 -45.600399 -5.840707
-54.177577 -37.599872 -50.236686
-53.639241 -38.317172 -27.344751
-54.315968 -37.411987 -28.522717
-52.417170 -39.928125 -2.266994
-52.969288 -39.200308 -18.993946
-49.875687 -43.027594 2.751364
-53.527817 -38.464641 -20.649761
-46.364882 -46.817121 -30.381015
-52.495174 -39.823586 -8.628837
-53.964861 -37.881030 -22.420347
-52.234764 -40.167783 -21.304328
-48.753907 -44.289655 -29.775665
-49.482709 -43.478547 -31.977145
-50.481556 -42.298608 -47.987040
-48.266313 -44.805499 -36.352294
-55.346807 -35.882082 -45.665653
-50.298861 -42.514433 -34.380915
-50.665095 -42.081797 -44.759787
-55.229598 -36.056035 -57.557063
-54.833035 -36.644591 -43.791265
-56.155836 -34.681398 -7.865345
-52.710257 -39.539300 -54.581910
-50.296440 -42.520440 -0.545131
-51.470017 -41.130939 1.925212
-48.789873 -44.251606 -11.454815
-55.828212 -35.167611 -47.146870
-49.306070 -43.687204 -39.297737
-53.126100 -38.999003 0.552122
-52.602837 -39.681282 -55.883883
-54.800527 -36.692841 -27.263850
-47.392230 -45.730249 -9.755946
-53.363116 -38.676385 -40.499576
-56.491752 -34.182830 -15.477223
-53.936510 -37.918504 -34.387432
-48.594204 -44.458614 -6.115161
-46.340440 -46.842980 -31.299480
-56.088335 -34.781580 -20.386945
-54.572686 -37.030982 -58.219882
-54.882624 -36.570999 -20.805452
-52.420873 -39.921793 -19.005025
-50.014313 -42.865164 -5.172695
-54.830012 -36.649085 -11.933952
-51.757956 -40.790799 -48.242964
-52.974976 -39.189408 -47.513728
-46.718233 -46.443301 -19.251416
-55.417631 -35.776970 -48.194082
-49.942614 -42.935269 -25.954225
-50.248005 -42.581803 -4.538416
-50.300981 -42.511920 -46.152514
-50.296701 -42.516990 -25.164017
-53.454825 -38.571832 -27.801965
-53.709362 -38.218737 -19.585079
-47.748005 -45.353837 -27.834584
-54.831190 -36.647335 -17.929328
-47.906300 -45.186370 -28.778685
-46.978889 -46.167535 -22.513384
-52.270915 -40.119999 -42.653393
-54.018750 -37.809802 -43.147916
-52.142904 -40.289198 -52.949619
-51.035321 -41.644440 -6.639758
-50.662440 -42.085127 -11.982427
-49.226248 -43.781491 -47.241405
-54.276049 -37.469717 -17.178409
-53.874931 -37.999896 2.312013
-47.151914 -45.984463 -52.612153
-52.778301 -39.477166 1.991424
-55.136200 -36.194672 2.284057
-49.642505 -43.289783 -29.208240
-47.079588 -46.061017 -4.111994
-51.848000 -40.678987 -58.535686
-55.329800 -35.907327 -27.747856
-54.310846 -37.419589 -39.566229
-47.135404 -46.001955 -15.673268
-48.398624 -44.665535 -0.844943
-49.258584 -43.743289 -54.914743
-52.690573 -39.565318 -33.089796
-56.436971 -34.264127 -57.581169
-51.964157 -40.525457 -6.576961
-48.230247 -44.843655 -58.151855
-53.101155 -39.022632 -50.533798
-54.520495 -37.108445 -21.606269
-48.683723 -44.363905 -32.518653
-49.110197 -43.912723 -8.542476
-53.811287 -38.086371 -45.625884
-53.954416 -37.894836 1.934779
-53.916081 -37.945506 -27.975866
-51.695330 -40.864779 -13.276870
-49.903658 -42.981292 -18.010868
-51.235724 -41.407706 0.486050
-49.301636 -43.692456 -8.388502
-46.375858 -46.805482 -59.625655
-53.108242 -39.036472 -13.451520
-52.428775 -39.911348 -47.714413
-56.192060 -34.627635 -16.150040
-52.982404 -39.204186 -7.166028
-46.803347 -46.353271 -1.500227
-50.195060 -42.637048 -40.272259
-53.809411 -38.086497 1.103859
-54.638404 -36.933455 -11.300434
-55.754003 -35.277746 -53.030458
-49.966638 -42.906867 -60.442305
-54.708300 -36.829717 -38.297286
-47.572846 -45.539143 -45.886933
-47.715487 -45.388264 -2.281114
-55.385894 -35.824075 -33.561070
-50.956004 -41.738146 -48.302528
-53.494795 -38.502338 -37.382176
-52.973559 -39.215251 -5.934467
-49.073134 -43.951933 1.839421
-51.970636 -40.516893 -42.433811
-52.215854 -40.192777 -1.488319
-47.481675 -45.635597 -58.589667
-56.466261 -34.220664 -17.713522
-50.934979 -41.762973 -21.463407
-51.415714 -41.195086 -27.460610
-50.417864 -42.373839 -58.814730
-51.260195 -41.383218 -45.478465
-55.140503 -36.188274 -10.643538
-54.703933 -36.836203 1.687121
-55.909930 -35.046333 -39.525614
-50.760514 -41.969083 -38.787779
-54.118761 -37.677613 -11.576743
-51.917268 -40.587432 3.309976
-46.532945 -46.639300 -48.947879
-50.353617 -42.460475 -14.120581
-51.715310 -40.841177 2.876228
-50.443730 -42.343302 -31.435191
-50.511718 -42.262974 -53.002430
-47.357483 -45.766995 -26.256155
-55.005258 -36.388994 -18.029663
-50.946426 -41.749450 -8.282813
-47.100388 -46.038994 -23.293768
-49.861604 -43.048440 -2.815217
-54.881973 -36.571967 -16.304488
-50.562384 -42.207279 -26.960229
-53.639899 -38.310550 -10.291325
-51.985594 -40.497122 -50.591724
-46.515476 -46.657794 -36.688249
-46.804420 -46.352133 -5.501354
-55.849234 -35.136436 -15.733989
-53.922334 -37.937241 -3.413404
-47.005416 -46.139468 -25.295123
-54.819853 -36.664157 -35.942278
-53.686415 -38.256253 -31.830891
-55.908742 -35.048125 -12.087760
-48.011121 -45.075479 -19.786380
-49.985362 -42.884765 -35.040472
-54.585499 -37.011972 -15.503092
-48.598072 -44.454519 -35.885012
-48.438283 -44.623566 -51.026878
-46.604798 -46.563327 -2.245713
-48.643097 -44.406885 -32.842106
-50.734681 -41.999599 -38.340100
-56.551722 -34.093822 -14.961088
-49.514105 -43.441447 -51.564081
-56.334963 -34.415538 1.567412
-49.934231 -42.959311 -1.055102
-52.686312 -39.603046 3.012271
-53.598623 -38.365104 -39.998998
-51.511569 -41.081853 -3.819707
-47.021739 -46.122196 -28.337009
-49.496588 -43.462168 -6.994756
-53.823072 -38.068441 -13.131430
-48.780645 -44.261376 3.871259
-53.070987 -39.084589 -9.918087
-47.552234 -45.560950 -44.850216
-54.785103 -36.715726 -57.180338
-48.491729 -44.567024 -58.617141
-56.428402 -34.276854 -13.140371
-48.460013 -44.600577 -42.500695
-51.947490 -40.547487 -10.262726
-46.359764 -46.822562 -3.921993
-55.540998 -35.593877 -46.720382
-46.674913 -46.489147 -2.942847
-46.783020 -46.374777 0.127627
-54.266399 -37.482881 -60.391580
-55.080952 -36.276650 -35.669994
-47.539521 -45.574399 -51.175157
-56.417021 -34.293746 -5.717590
-46.353530 -46.829120 -42.241089
-54.317675 -37.409453 -38.956505
-50.271790 -42.546409 -38.327005
-55.047039 -36.326980 -41.831281
-55.765567 -35.260583 -57.152966
-47.242491 -45.888666 -11.256752
-54.140174 -37.651886 -55.853188
-51.739017 -40.813171 -28.337903
-51.448497 -41.156359 -12.810278
-54.499629 -37.139413 -24.924349
-49.665778 -43.262291 -27.422361
-46.996884 -46.148475 -60.236843
-54.186043 -37.588682 -59.797408
-48.029983 -45.055522 -54.399009
-47.024511 -46.119248 -48.811339
-48.934751 -44.098334 -27.148684
-47.253513 -45.876986 -31.240156
-55.303592 -35.946218 -54.415614
-49.415969 -43.557369 -59.389932
-52.791058 -39.432502 -47.509836
-53.239834 -38.841856 0.935759
-52.143383 -40.288565 -10.398826
-56.082482 -34.790266 -21.132013
-55.037706 -36.340835 -26.841423
-56.371088 -34.361921 -25.223402
-47.427289 -45.693155 -14.021306
-50.261406 -42.558664 -54.986214
-46.853820 -46.299862 -12.087890
-48.701276 -44.345336 -26.324566
-48.850752 -44.187200 -43.294473
-51.240094 -41.403811 -38.440865
-46.875542 -46.276873 -20.714675
-52.532789 -39.773868 -53.650215
-52.418432 -39.925020 -14.358918
-47.927086 -45.164380 -27.916392
-48.557222 -44.497735 -54.778857
-54.313359 -37.415858 -40.217740
-50.380435 -42.418054 -58.167514
-56.421128 -34.287651 3.049675
-46.652831 -46.512470 -45.422891
-53.678194 -38.259933 -7.221176
-51.957327 -40.534484 -53.422017
-49.797746 -43.119463 -4.531402
-50.830962 -41.885862 -41.189256
-53.911261 -37.956471 -42.941594
-47.003617 -46.141352 -56.426675
-51.531537 -41.058269 -56.091818
-52.064848 -40.392369 -38.991119
-52.713863 -39.534535 -33.794103
-48.421446 -44.641378 -55.755784
-54.822182 -36.660698 -47.308004
-50.142783 -42.698792 -54.567425
-52.630042 -39.645325 -27.771169
-50.780254 -41.945755 -53.503746
-53.965938 -37.879606 -7.601022
-46.380988 -46.800077 -36.456668
-52.008197 -40.467247 -35.603891
-55.877285 -35.094800 -20.747118
-55.178084 -36.132508 -0.810985
-54.969277 -36.442402 1.784860
-47.149792 -45.986709 -55.097770
-51.849449 -40.677071 -29.613037
-51.911959 -40.594449 -41.483933
-49.633737 -43.300148 -16.819915
-51.258874 -41.380364 -55.801767
-46.385932 -46.794859 -22.037081
-54.260626 -37.490103 -16.427363
-53.997126 -37.838384 -23.774265
-56.183247 -34.640716 -12.374039
-46.932162 -46.216976 -16.750543
-48.337744 -44.729929 -50.199558
-50.867308 -41.842912 -1.138158
-49.530756 -43.421808 -3.683963
-52.887525 -39.309141 -16.220890
-48.399756 -44.664325 -25.776973
-52.373204 -39.984800 -21.160550
-51.740024 -40.811982 -3.788323
-49.489567 -43.470435 -48.220128
-53.728364 -38.193621 -11.246578
-53.657963 -38.293649 -29.837427
-48.301712 -44.768049 -60.753082
-46.656694 -46.508403 -23.282397
-49.981229 -42.889649 -32.168826
-48.279047 -44.792041 -2.013200
-49.083978 -43.940461 -23.872670
-48.384144 -44.680842 -49.252290
-51.204692 -41.444364 -9.625236
-55.658749 -35.419135 -15.465317
-54.667972 -36.889573 -5.216950
-52.668063 -39.612453 -5.628967
-56.548859 -34.098071 -1.780364
-56.380040 -34.348634 -6.957594
-47.845214 -45.251021 1.343818
-49.643595 -43.288483 -47.820590
-47.665500 -45.441125 -26.143831
-55.235177 -36.047763 -17.754108
-53.327079 -38.724017 -32.777883
-51.014629 -41.668883 -25.828923
-55.044091 -36.331355 -47.346157
-56.560117 -34.081362 -20.692294
-48.777088 -44.265131 -11.854110
-47.081280 -46.059191 -42.112320
-48.521184 -44.535862 -31.606936
-55.768732 -35.255887 -49.791444
-47.443488 -45.675996 -58.896160
-50.438302 -42.349706 -42.915594
-51.101396 -41.571502 -38.105949
-49.640776 -43.291808 -55.244707
-55.497297 -35.658748 -14.883704
-51.640010 -40.930127 -35.703888
-54.707403 -36.831053 -14.598185
-49.241534 -43.763431 -53.890001
-48.420567 -44.642308 -32.980092
-50.754064 -41.976685 -6.296004
-47.867386 -45.227539 -54.549603
-56.419536 -34.290013 -14.036735
-56.406840 -34.308857 -42.723579
-51.108708 -41.557755 -54.577850
-50.077209 -42.776257 -50.567209
-50.208643 -42.630502 -6.068237
-53.630755 -38.335034 -34.060992
-46.765377 -46.393407 -38.438405
-47.192339 -45.941696 -49.396070
-50.177130 -42.666082 -2.295868
-47.595214 -45.515511 0.594005
-48.415687 -44.647471 -18.122589
-54.718939 -36.813926 -35.198314
-54.498781 -37.140671 -8.865647
-50.950828 -41.744976 -25.176650
-55.768594 -35.256092 -52.544779
-56.221213 -34.584346 -45.374038
-48.166412 -44.911188 -48.811449
-56.413428 -34.299079 -19.604947
-47.529450 -45.585054 -41.104761
-50.977906 -41.712264 -3.656053
-50.525304 -42.257010 -20.565782
-54.984802 -36.419353 -17.335620
-56.227118 -34.575601 -2.323213
-48.759445 -44.283802 0.454786
-54.550876 -37.063355 -34.802357
-52.902915 -39.284656 -26.359699
-55.037532 -36.341093 -30.419803
-46.604193 -46.563921 -50.839780
-49.483457 -43.477682 -1.915176
-55.901876 -35.058328 -0.560580
-48.795298 -44.245866 -55.546374
-55.648563 -35.434233 -56.887413
-53.669406 -38.271954 -23.385037
-53.698824 -38.232666 -2.730337
-51.074703 -41.601475 -34.668254
-46.765020 -46.393782 -41.747850
-48.133706 -44.945789 -36.918397
-50.179040 -42.668701 -9.527875
-56.227438 -34.575113 -41.708280
-51.584569 -40.995620 -33.925504
-55.975799 -34.948611 -1.217082
-50.209831 -42.619606 -29.308212
-48.438708 -44.623116 -16.138067
-50.594576 -42.165106 -37.116583
-50.993125 -41.694285 -9.735691
-50.993707 -41.693612 -41.281902
-51.001493 -41.684401 -2.950441
-46.355761 -46.826767 -34.366022
-51.870163 -40.649693 -17.831767
-56.177777 -34.648806 -60.016144
-52.198605 -40.215576 -33.913748
-52.973579 -39.217318 -12.744402
-54.201940 -37.569199 -58.080737
-47.307318 -45.820093 1.211163
-47.559539 -45.553243 -10.199608
-56.166932 -34.664924 -28.696557
-50.721641 -42.014986 0.106432
-56.100825 -34.763017 -44.763756
-49.703890 -43.217272 -25.392289
-50.720282 -42.023752 -30.468259
-47.697540 -45.407243 -11.555186
