-16.540976 22.272857 -0.674114
15.196164 -20.896193 -37.100687
33.819762 14.115904 -52.667329
-4.572080 -19.868316 -34.100003
-17.590708 -8.442966 -55.397571
-21.071205 1.865793 -19.006541
26.945218 25.861583 -10.640210
-20.984431 0.731283 -32.170124
16.450516 32.668094 -32.623823
34.548041 9.978141 -4.297532
34.245577 -0.275521 -52.303375
-21.098737 2.225755 -47.474638
-21.125185 11.308946 3.427065
25.949951 26.822856 -57.525855
10.900115 -21.742808 -1.876634
26.275208 26.513311 -2.263893
11.734283 -21.690397 -48.768629
-7.665420 -18.293017 -31.589916
24.972901 27.687801 -57.955406
-18.082313 19.776212 -2.106356
-14.852702 -12.258089 -40.164728
21.715625 30.071874 -25.436264
7.518478 34.250304 -50.188183
14.741044 -21.025479 -16.783101
-16.041677 22.950531 -34.411142
27.000742 -13.595422 -38.792656
34.307503 12.242219 -61.092874
22.126425 29.807316 -43.806697
-4.099461 32.262184 -2.286117
-11.327704 27.917290 -51.702313
13.369228 33.580645 -24.288265
34.432941 0.538812 -34.581624
-7.974380 -18.112946 -27.462840
14.871916 33.192677 -18.327127
34.806798 2.933252 -3.149304
19.532509 -19.119296 -12.365645
7.323015 34.236726 -14.526551
17.387827 32.289821 -17.380279
34.297668 12.293405 -12.594854
3.855819 33.995862 -13.038580
-10.869417 -16.104700 -44.761967
8.652207 34.319217 -56.607959
6.435806 34.175092 -20.489776
14.749390 33.232207 -3.184439
-10.958996 28.218195 -10.261408
-20.247414 14.769893 -20.142535
32.807444 -4.774952 -3.877648
28.766836 -11.601746 -6.102756
-9.053915 29.625918 -14.760426
0.687340 33.748678 -6.817980
31.279749 -7.889521 -7.982143
-14.606942 24.739939 -42.201388
29.407625 22.963773 -17.055915
33.759582 14.343756 -50.640929
11.921235 33.904289 -31.797237
-20.461053 -1.872194 -26.647586
23.726157 28.686693 -61.091410
-17.770732 20.334123 -27.734176
-16.097828 22.874320 -11.966078
31.127444 -8.162225 -52.769094
-16.982925 21.602067 -31.343396
5.923624 -22.055479 -34.302265
-14.708942 -12.434247 -12.255736
-12.891441 26.530733 -38.687084
-8.235940 30.137395 -52.092467
-21.491058 7.355049 -29.346033
-9.477947 29.323510 -31.231438
-10.153268 28.839737 -9.773765
-21.149067 2.883770 -4.476268
-18.671360 18.655443 -40.059537
-12.223283 -14.964011 -12.754148
20.348125 30.874815 -49.409597
34.646694 8.407889 -54.542530
31.181618 -8.065226 -19.140927
-9.982360 -16.764023 1.186421
25.068777 27.607403 -20.279686
25.746685 27.016303 -35.636604
-15.315922 23.894496 -18.170931
-21.306346 10.236849 -35.821139
-18.102676 19.739751 -37.373414
22.269877 -17.525439 -7.267919
-20.374810 -2.198733 -49.087616
-21.265389 10.544495 -40.985069
26.439405 26.357045 0.308878
-21.111706 11.377130 -49.460240
19.813605 -18.967192 -18.756553
34.814153 5.742453 -16.319812
-17.188191 -9.086676 -40.103199
0.995562 33.797162 -3.412770
32.063018 18.628684 -4.062152
34.589134 1.358811 -45.926544
9.611687 34.251849 -40.227311
-16.853214 21.803475 -6.560323
11.940010 33.900577 -41.894238
20.915787 -18.370788 -27.721496
15.189684 33.087080 -29.884393
-21.376833 5.861644 -10.996672
0.656206 -21.548485 -24.465826
23.780452 -16.458786 -21.021777
6.733802 34.195794 -17.822409
34.264561 -0.200324 -47.475046
-18.294509 19.396258 -36.571642
30.920745 20.705768 -6.777535
26.404973 -14.201227 -27.569243
34.179885 12.752424 -42.645121
21.464783 30.233419 -6.160807
34.555788 9.854833 -33.380014
-6.643307 31.056009 -7.305101
-21.080175 1.983068 -23.763760
-18.939264 -5.896759 -27.170343
-10.264527 28.760035 -31.018021
-20.267848 -2.537523 -33.181702
34.042605 -1.079512 -1.040061
26.865885 -13.737118 -28.286270
-3.593115 32.458753 -36.716453
-21.488575 8.780833 -52.818982
-0.965121 33.329829 -24.609546
34.748203 2.493030 -59.301197
20.888707 -18.385441 -44.209734
6.869116 -21.996074 -36.289977
-14.565862 24.788927 -47.830016
18.679078 31.725170 0.079128
-5.507844 31.631939 -16.393246
-3.067538 32.662788 -52.416647
33.470238 -3.018263 -16.841341
34.767227 2.635961 -15.788188
-21.485450 7.281732 -27.756713
29.932068 -10.048159 -35.482900
-0.174767 -21.338699 -52.420269
-18.711632 18.571322 -42.315118
-14.198191 25.195573 -10.700337
27.646606 25.104584 2.095002
19.197069 31.477188 -44.044976
-21.327850 5.221227 -39.883331
-21.419228 9.388833 -12.198412
4.029717 -22.077082 -51.123873
-21.396976 6.124999 -9.212958
26.652574 -13.961244 -41.545690
-2.841561 -20.549792 -8.079604
3.207470 -21.981012 -32.358963
-21.156496 2.980900 -23.587263
-8.547369 29.942659 -17.536323
-18.981961 18.006663 -1.861584
13.545168 -21.341312 -32.710283
30.501800 21.375749 -40.936440
18.400211 -19.655867 -12.300460
-19.122931 17.712208 -34.548576
-19.193184 17.565464 -59.736640
34.721377 2.291484 -54.084901
-15.554020 -11.398720 -40.942339
34.711668 7.373703 -34.553447
25.729345 -14.827237 -9.613117
30.360846 21.601164 -43.791906
32.309688 18.095265 -7.284853
19.732405 31.218698 -47.473974
21.550149 30.178442 -19.536825
29.092844 23.390390 -23.744265
25.383241 27.343704 -19.154942
20.149318 -18.785533 -56.097325
29.803636 22.410979 -55.938358
-18.752787 18.485359 -24.313527
31.763295 19.204767 -20.656062
-19.486531 -4.664284 -60.148754
-18.742795 -6.321619 -10.058179
-10.530514 28.567882 -22.600972
-18.257198 19.463066 -52.781077
7.273567 -21.970663 -19.525264
24.191998 28.342641 -49.361496
20.967342 -18.339908 -32.421474
-20.983394 0.717721 0.048798
-2.818103 -20.557588 -18.191859
-17.272990 -8.951064 -22.181132
-8.148057 -18.001096 -49.526631
12.134091 33.864443 -41.072598
-2.033992 -20.818159 -36.172835
5.880036 -22.058218 -9.133490
-16.091885 22.882386 -38.798479
33.720221 -2.266043 -44.460464
11.445417 33.998350 -61.117273
30.886533 -8.577590 -46.193161
16.404545 32.683371 -12.747643
-12.859912 26.559947 -27.298863
-12.053697 -15.111602 -39.358983
-19.972567 15.596979 -27.645962
7.995767 -21.925287 -46.847877
25.814834 26.951446 -38.449973
7.205616 -21.974932 -54.716479
-21.203246 3.592126 -17.985377
9.070964 34.292021 -19.358192
-10.160957 -16.632430 -48.131372
34.158327 -0.621130 -10.253956
-14.042165 25.359514 2.757042
-5.415482 31.674650 -41.750615
6.210781 34.159460 -45.646214
24.109420 28.404294 -27.450677
15.778457 -20.703456 -4.779354
-20.552350 -1.526521 -7.287275
27.585036 -12.981501 -0.995822
25.077095 27.600428 -38.635356
31.204503 -8.024249 -2.767198
16.601322 32.607311 -45.083940
30.816516 -8.686312 -36.547181
0.777583 -21.579128 -33.309289
-14.408684 -12.763624 -41.658595
-19.637021 16.475575 -7.645717
33.618183 14.797193 -28.320290
15.607513 32.948232 -34.543015
-19.694557 16.333051 -43.801387
-1.908097 33.066141 -56.733560
-0.970229 -21.137878 -34.736524
6.806538 -22.000006 -50.896929
-3.401332 -20.340905 -39.507380
17.601204 -20.014029 -61.074729
29.386902 22.992701 -1.764484
-15.136125 -11.910793 2.012894
9.862199 -21.808020 -9.915243
16.095352 -20.598565 -46.051368
-0.169352 -21.340066 -56.809368
32.270319 -5.981838 2.629522
-7.363176 -18.461811 -50.295930
-21.472825 8.986160 -22.962801
-20.688510 13.210050 -51.481286
-5.560471 31.607602 0.587189
19.852183 31.151801 -50.902437
-15.536519 -11.420166 -54.644951
-12.079727 27.282836 -20.820527
-4.629784 -19.845023 -60.313142
31.453961 19.776451 -14.603450
-15.647831 23.485079 -40.830659
-21.452493 9.138918 -47.191523
33.430591 15.363993 -25.907018
-4.675637 32.016778 1.180143
-21.379209 9.689499 -52.695392
-20.642492 13.392333 -30.065399
29.703920 22.550174 -20.636745
13.485074 -21.357183 -23.748959
33.941682 -1.479278 -2.309342
-7.975208 30.300429 -34.352023
-15.831060 -11.053417 -39.040986
24.055717 28.443865 -9.536688
11.639152 33.960052 -36.188616
14.741633 33.234165 1.679513
22.857678 29.326611 2.121950
-1.182924 -21.084181 -58.837233
34.638319 8.541188 -45.858575
21.687043 -17.889882 -26.905541
34.909961 4.193202 -34.094730
22.064616 29.847121 -10.479869
-15.081532 -11.977689 -37.410126
-9.921364 29.005863 -24.812267
11.537278 -21.702775 -3.063952
34.838967 5.347486 -18.790791
29.948554 -10.025784 -44.266855
24.410861 28.159110 -3.972933
34.289771 -0.100464 -19.580763
-3.830946 32.366425 -15.507498
3.128874 -21.970550 -8.388174
-21.231875 3.966433 -11.622694
33.465175 -3.033497 -54.255656
16.978147 32.455197 -47.211951
23.033550 -16.993838 -13.555906
-3.685243 32.422988 -23.141963
-0.194409 33.533390 -33.219304
-21.198632 3.531796 -32.471350
34.062705 -0.999896 -56.161634
-9.528896 -17.098139 -59.777762
34.259610 12.450569 -35.801910
-3.427345 -20.330405 -44.022814
-21.440187 6.689951 -30.119484
34.798519 5.991288 -28.786263
20.552823 30.760489 -38.017186
-12.458786 26.931615 1.538641
1.427674 33.827181 -9.014300
-13.802483 25.611356 -19.156898
0.636601 -21.543536 -60.646883
22.805477 -17.157220 -17.766542
15.410548 -20.825232 -32.295847
7.763477 34.267324 -47.549757
3.269239 33.955113 -53.987428
-4.148934 32.242978 -22.223331
-11.588804 -15.501446 -55.421501
-15.431136 -11.549298 -55.935750
6.343286 -22.029112 -25.769328
-3.475107 32.504565 -48.559209
34.728433 7.106854 -47.453564
-14.564350 -12.595620 -4.814839
-21.050143 11.730513 -48.527664
-21.320494 5.125048 -44.529506
34.684877 7.800127 -39.091390
-16.173919 22.771044 -18.681103
-19.124250 17.709453 -43.346328
-21.497916 7.444719 -15.512084
27.492016 -13.079238 -3.188523
27.222774 25.562020 -2.048810
29.191429 23.265562 -13.018481
1.113327 33.805343 -5.020918
-3.246033 -20.403594 -55.443047
-3.281656 -20.389214 -2.563308
-20.637559 -1.203896 -49.128049
17.620640 32.195841 -15.065793
-5.848319 31.474493 -28.004179
0.296696 33.663101 -8.127723
-21.326588 10.084806 -26.851559
-16.120924 -10.648794 -55.420272
11.383759 -21.712420 -4.065701
26.429851 -14.178175 -47.305417
31.271445 20.113762 -40.436562
-0.884282 -21.159576 -7.183041
32.707377 17.235268 -6.801709
-21.306014 4.935742 -59.050188
34.479385 11.070937 -15.747401
30.885349 20.762373 -50.742272
-21.502993 7.511089 -35.841631
13.604821 33.521167 -6.298314
33.343335 15.610180 -27.836052
-12.198265 -14.987821 -50.333261
31.474849 19.737848 -20.074206
-0.888643 -21.158475 -25.075501
26.919746 -13.680526 -45.779193
22.710276 29.431310 -5.746214
15.267187 -20.872684 -19.261038
-20.564891 -1.479038 -47.257901
28.545330 -11.865895 -31.155836
34.569591 9.635126 -41.952432
6.857125 34.204361 -51.316129
-12.690276 26.717125 -56.652315
-3.125660 32.640225 -20.988383
28.099579 24.607500 -56.534162
8.768847 -21.876715 -46.344749
2.379036 -21.870713 3.103641
17.268499 32.337990 -36.769942
12.181521 33.856643 -7.183775
-0.944767 33.335205 -7.308281
15.800509 -20.696157 -50.423089
30.600853 -9.021190 -9.418178
-13.879276 25.530667 -37.013573
-21.015862 1.142227 -26.195249
34.644928 8.435999 -34.629969
-6.274634 31.255503 -41.530238
-13.480910 25.949244 -15.234012
-21.511823 7.626531 -25.585501
29.432938 22.928438 -60.986223
17.950253 32.062786 -4.871732
34.285563 -0.117133 -27.366770
31.585461 -7.342137 -33.659444
-3.158798 32.627360 -12.778677
7.318802 -21.967820 -12.802687
34.718772 2.271919 1.054676
28.291434 24.372408 -58.458208
-21.173540 3.203744 -31.234966
-12.225274 -14.962117 -2.693413
-7.966612 30.305804 -15.127369
-21.525423 8.213521 -24.200265
33.583278 14.902657 0.963123
5.983906 34.143699 -4.200157
33.862166 13.955359 -13.784908
-18.298950 -7.180000 -40.539664
24.081677 28.424736 -19.823358
10.010714 34.198740 -15.087434
31.876616 18.995338 -14.016429
2.339009 33.890491 -52.692225
-11.150275 -15.869181 -26.092243
29.725619 -10.328354 -38.299848
18.127379 -19.782036 -43.565925
-16.441180 -10.201748 -46.746610
28.956355 23.557640 -53.270860
4.559452 -22.111491 -57.517564
33.368758 -3.323627 -12.695717
27.343978 25.431207 -51.614632
10.408997 34.145729 -48.074537
2.624850 33.910348 -28.235017
32.782906 -4.835739 -2.328674
34.527551 10.304288 -31.388311
-8.234503 -17.945424 -47.145751
28.620008 -11.776841 -60.711446
26.537193 26.263981 -16.659953
33.568025 -2.724015 -15.907919
30.045182 -9.884029 -60.979843
-18.148014 -7.458947 -45.498599
-16.794289 -9.708841 -22.318830
-17.557296 20.710219 -24.147890
25.163919 -15.340189 -58.015661
13.387195 33.576109 -26.537713
34.866701 3.526844 -52.147994
15.285446 -20.866640 -51.194084
20.758004 -18.456166 0.221801
32.819423 16.959696 -38.362440
23.430142 -16.709735 -2.270714
34.112581 13.007246 -14.060470
4.843353 -22.123352 -16.703628
-18.290914 19.402695 -21.323759
20.208292 -18.753622 -42.040168
34.321107 0.023658 -9.552733
12.379849 -21.609625 -19.403312
3.117369 33.944563 -1.372815
30.651995 -8.941778 -17.490914
28.143018 24.554271 -14.695883
-20.762942 -0.729165 -53.760153
28.060741 24.655090 -33.989863
34.167967 -0.582942 -60.414121
5.508142 -22.081584 -59.418454
-10.141382 28.848251 -19.297265
34.871182 3.595869 -43.649041
-21.094198 11.465702 -30.820465
-20.358563 -2.260248 -41.132115
34.899341 4.029615 -17.733987
-8.642561 29.883136 -11.118682
34.851241 3.288703 -19.434659
33.191637 -3.823205 -19.406688
34.601988 9.119470 -6.917725
32.710512 -5.015077 -40.510901
-21.167177 11.096516 -56.546963
-18.449228 -6.902271 3.725361
4.713328 -22.121485 -48.144728
-5.041737 31.847481 -54.707561
-14.667069 -12.484761 1.097339
34.057784 13.214714 -7.654705
-20.068972 15.306872 -1.950630
34.471126 11.202404 -9.445328
12.911126 33.696299 -20.032437
-15.308899 -11.699082 0.965332
-16.208544 -10.526485 -6.083015
21.708045 30.076756 -20.496824
-6.033613 -19.180408 -6.274047
-11.521094 -15.558225 -28.826610
-21.392347 6.064479 -33.985016
7.420911 34.243527 -42.742708
4.935075 -22.117589 -2.531945
-18.652306 -6.517300 -19.177337
22.499974 29.566746 0.261109
19.511496 31.326660 -43.003848
8.764804 34.311904 -3.735791
32.175427 -6.180046 -10.095515
-7.303224 -18.495292 -51.744208
30.365220 -9.387078 -36.952149
23.657805 -16.546646 -8.302311
-14.292331 -12.889199 -58.173690
-4.914820 -19.716069 -17.391199
29.748677 22.487697 -35.920068
30.850257 20.818493 3.179338
18.071171 -19.808029 -2.620831
-18.089347 19.763617 -19.029861
-15.702761 -11.216460 -56.634180
26.541881 -14.074373 -60.622968
20.400062 30.845808 -54.155062
-14.316778 25.070970 -8.565545
-0.984747 33.324645 -44.527306
7.717815 -21.942751 3.741365
33.547489 -2.785808 -18.654539
19.447424 -19.165337 -29.968258
32.111758 -6.313038 3.467740
-13.666380 25.754364 -59.444954
-8.905924 -17.513023 -36.001649
-21.104222 2.297460 2.138639
-16.222434 -10.507096 -47.547373
28.495208 24.122711 -1.976226
-5.566074 31.605011 -49.143484
-7.643486 -18.305267 -22.799579
21.400107 -18.069302 -42.097794
14.706011 -21.034731 -31.573985
29.575987 22.728756 -14.392991
-21.105951 2.320061 -46.523439
-20.134237 15.110472 -54.988241
24.937707 -15.524802 -25.397755
17.577716 -20.023147 -37.677471
33.585845 -2.670391 -23.901201
33.163320 -3.893354 -49.515358
11.554186 -21.701712 -6.059894
34.224360 -0.359566 1.290253
-16.140323 -10.621715 -20.696488
13.634270 -21.317780 -40.512141
-17.646562 20.556459 -51.434299
-10.616699 28.497547 -35.349991
-1.936315 33.056802 -29.539495
11.139401 -21.727773 -12.316885
31.908657 -6.737271 -55.370458
32.205628 18.320292 -53.296982
31.987715 -6.572137 -14.804005
-8.996752 29.661662 1.239880
29.386157 22.993740 -8.771720
-21.373867 5.822872 -16.783641
34.532550 10.224707 -18.680447
26.687385 -13.924668 -50.038057
-18.417317 -6.961245 -50.109347
16.740842 32.550991 -13.802959
-4.828592 -19.757354 1.124959
-15.245203 -11.777133 -26.055854
-20.954035 12.158282 -15.154434
33.781215 -2.082506 -30.628332
34.516183 10.485223 -17.669859
2.848832 -21.933272 -49.060727
25.920207 26.851164 -53.354137
-3.079307 -20.470786 -46.332862
-17.795689 -8.110083 3.783629
-13.081999 26.354170 -43.458229
28.726621 23.839147 -20.761134
4.833009 -22.124002 -19.441981
-10.720433 -16.220202 -53.720451
3.825047 33.993725 -30.265380
31.995007 -6.556904 -59.936407
34.856476 3.369344 -9.262462
-17.150045 21.342572 -27.274523
25.132357 -15.365946 -28.075081
21.730364 -17.862794 -30.620311
19.016977 -19.370650 -39.349858
-20.712854 13.113623 -38.405359
-20.862108 12.522412 -1.896735
34.057835 -1.019185 -43.870192
34.539884 10.107982 -60.610341
28.898668 23.628327 -28.323120
-1.567165 -20.973292 -10.795050
-13.461356 25.969789 -42.769269
-3.423259 32.524693 -46.822108
23.047494 29.186750 -10.264574
28.179846 -12.301739 -32.773527
-18.935580 18.103543 -3.729086
0.693959 -21.558016 -43.686907
18.490410 -19.614156 -33.871918
34.891749 3.912664 -26.817275
34.630271 8.669285 -52.717647
33.959963 -1.406866 -11.661366
-21.344922 9.947086 -22.886707
-11.837765 27.501025 -14.981515
32.137770 -6.258705 -20.430585
32.487234 17.711325 -3.909511
-20.687222 -1.015861 -51.374458
27.523855 -13.045785 -46.286206
-21.047037 1.549808 -55.431238
19.719365 -19.018186 -49.219929
-16.289225 -10.413861 -39.668488
-9.676758 -16.989193 -25.133503
-11.350252 27.898888 -4.330646
-21.053769 11.708476 -31.870620
17.893164 -19.890346 -48.393769
34.879243 4.706407 -55.965468
29.714669 -10.343215 -21.513396
1.436344 33.827783 -57.817042
31.130823 20.369809 -9.405387
-21.411057 6.309094 -49.898199
-1.544080 33.176914 -50.375499
-15.843924 23.218931 -25.952586
-20.976937 12.067566 -54.434583
14.532853 -21.080462 -29.273466
-12.058416 -15.107645 -18.676847
19.756086 -18.998316 -36.140102
-16.537732 22.277260 -4.060780
6.659238 34.190614 -47.070467
-13.603199 25.820750 -34.571497
27.283556 -13.298268 -57.427889
34.387063 11.828156 -52.769227
6.352425 34.169300 -22.893452
-13.484860 -13.760669 -0.101090
-2.693306 -20.599059 -9.856023
34.094153 -0.875328 -29.986862
0.256214 -21.447504 -15.520834
33.820427 -1.959584 -19.035540
5.930981 34.140022 -48.947494
8.297593 34.304429 -6.835045
32.617306 17.430046 -29.805447
3.190939 -21.978812 -13.279078
21.125789 -18.240832 -9.975721
-19.304788 17.298567 -46.248641
21.751704 -17.849450 -19.429580
32.574664 17.522259 -37.150625
28.055756 24.661199 -50.016615
-21.491474 7.360491 -44.280110
26.892428 -13.709228 -33.398122
5.632497 -22.073771 -35.167847
12.849957 -21.519294 -47.193085
19.511543 -19.130642 -4.857586
-10.023833 28.932459 -32.410529
34.264127 -0.202044 -20.433577
11.290022 -21.718310 -9.290323
33.781311 -2.082217 -36.079703
-16.050747 22.938220 -14.527843
-21.495128 8.679937 -24.903719
-5.585632 31.595967 -10.949823
33.649198 -2.479756 -53.174932
-18.395526 -7.001516 -5.712563
-18.460208 19.096494 -11.176157
29.432567 22.928956 -39.801370
32.187250 -6.155350 -38.220050
-20.443562 14.179635 -15.786360
-19.826513 -3.788501 -56.888425
-18.778182 18.432313 -7.697413
10.270329 -21.782377 -25.471652
24.743166 27.880449 -31.773892
-6.507228 31.129643 -4.566735
-11.831987 -15.297521 -43.383650
32.887753 -4.576007 -38.194172
-20.928363 -0.001759 -48.999683
25.361339 27.362070 -8.029864
26.038174 -14.541088 1.640445
32.821253 -4.740743 -57.577118
-19.567552 -4.455576 -48.171750
4.792195 34.060912 -14.913096
-21.031558 1.347428 -23.066447
28.742728 -11.630496 -46.387385
-21.309062 4.975585 -6.598953
-19.469853 16.889676 -52.825528
-11.842520 -15.288688 -27.017453
33.301540 -3.525891 -10.332337
-16.585775 -9.999906 -6.812782
12.719173 -21.544424 -21.527773
31.439517 19.803145 -16.797065
16.567421 32.620996 -42.256267
34.785330 6.201224 -5.208744
-5.661167 -19.358730 -14.519961
-20.942480 0.182802 0.805883
-13.852306 25.559005 -26.070454
15.958351 32.831645 -57.890851
12.495483 33.801233 -38.937583
15.172028 33.092947 -17.406054
20.418546 30.835484 -22.050449
2.675738 33.913883 -33.070070
-17.503408 20.793893 -55.642448
-16.177315 -10.570078 -36.774777
-1.730024 33.125081 -17.106077
-2.735327 32.791756 -16.879350
-12.059616 27.301470 -32.701010
6.523736 -22.017774 -53.855953
-20.117501 -2.991749 -11.161614
-20.637495 13.412128 -44.524048
9.066907 -21.857988 -9.564661
29.248795 -10.975504 3.818673
-1.261551 33.251536 -25.512673
-8.396454 -17.841127 -58.830993
29.885522 -10.111332 -6.642877
34.780287 6.281485 -6.043274
30.090441 -9.813752 -5.773883
-2.728994 32.794215 -49.379941
-19.123372 -5.498628 -44.996562
22.156055 29.788234 -4.990473
-14.391120 24.992856 -31.957944
21.474673 30.227049 -43.259478
13.040440 -21.474612 -39.251574
17.270622 -20.142362 -49.266048
-21.252184 4.231955 -33.420436
-17.541067 20.735419 -5.048108
-20.061373 -3.161322 0.789278
-20.018167 -3.291856 -24.010165
-5.948150 31.428327 -54.812088
7.667113 34.260630 -59.551460
28.097652 24.609861 -49.048944
29.093087 -11.186833 -44.156124
-9.759832 -16.927983 -58.443720
32.684250 17.285281 -55.374405
3.957186 -22.072371 -7.808760
9.769362 -21.813852 -51.897116
28.719534 23.847831 -34.726428
-17.200364 -9.067208 -8.352839
17.768489 32.136158 -47.420517
11.475060 33.992490 -7.619358
11.064051 34.058500 -15.001263
15.888266 32.854935 -13.709465
33.972549 -1.357012 1.918439
22.269779 -17.525500 -50.766446
10.510343 -21.767297 -46.056523
13.777468 33.477580 -55.984612
-7.784346 -18.226601 -59.780571
34.030304 13.318760 0.745878
32.365664 -5.782682 -23.090212
16.880767 32.494507 -19.917460
26.037351 26.739678 -47.992063
34.650352 8.349670 -9.171356
-14.934477 24.349361 -46.197100
-20.541163 -1.568877 -14.088043
-12.768836 -14.444799 -37.175267
-12.922027 -14.299004 -14.402857
-1.055465 33.305967 -27.237991
22.626047 29.485554 -30.559910
4.671554 -22.118772 -8.252724
34.382000 0.264863 -16.458103
-13.799847 -13.420716 -52.650941
26.327411 -14.273093 -32.711218
34.135706 12.919689 -8.588102
15.828342 -20.686944 1.049971
-6.506499 31.130037 -28.805625
29.524606 -10.601170 -9.735086
24.944187 -15.519513 -16.470726
-14.166462 25.228912 -22.906448
-21.065999 1.797719 -60.886778
-14.741565 -12.394272 -28.641327
29.393628 22.983312 3.023032
-13.141349 -14.090272 -9.332279
-11.119188 -15.895250 -24.920602
13.813479 -21.270451 -11.926483
1.873287 -21.790633 -15.931460
10.704853 -21.755076 -44.881754
-20.894306 12.394872 -31.362271
-13.428049 26.004786 -57.725725
33.553410 14.992904 -22.548675
33.832400 -1.912157 3.052710
-16.921997 -9.512375 -26.065529
-6.420969 -18.988002 -47.470191
2.569929 33.906532 -3.613475
-5.961678 31.422072 -34.378266
1.041465 -21.634922 -8.083844
16.408421 32.682083 -58.862711
30.324340 21.659545 -31.900737
5.457785 -22.084748 -57.508577
8.229126 34.299673 -43.389153
-16.620640 22.164601 -48.033791
3.607738 -22.034292 -33.106596
-9.981287 28.962937 -28.386059
-0.492853 33.454564 -57.634222
23.719802 -16.502234 -57.557276
30.841556 20.832408 -18.431551
31.395591 -7.682103 -60.899431
24.427902 -15.940857 -39.452908
20.912925 30.559371 -6.688007
-19.939623 -3.497135 -34.588225
23.032533 29.197773 -26.412576
-10.069013 -16.700176 -14.186915
-21.232289 3.971845 -23.666452
-13.620843 -13.613908 -54.795767
-16.850906 21.807058 -18.524553
23.465462 -16.684433 -43.125830
25.762277 27.001465 -52.235242
22.937481 29.267810 -21.276794
-18.055452 19.824309 -25.646040
24.512840 -15.871539 -35.610918
11.873529 33.913719 -28.175962
-19.364052 -4.978162 -31.405900
28.914790 -11.425310 -42.310542
23.145224 -16.913839 -50.134716
30.351698 21.615794 -18.691321
-15.099893 24.152106 -40.479050
5.676444 34.122340 -53.655841
-18.104068 -7.540165 0.397681
34.687765 2.039009 -26.411047
-5.550608 31.612164 -43.831563
-20.116236 -2.995570 -38.291653
3.308682 33.957853 -14.793807
30.903402 -8.551396 -23.531596
0.172008 33.630168 -2.724237
-0.271195 33.513109 -39.079898
2.444436 33.897815 -53.637422
11.008228 34.065934 -56.089992
34.577539 9.508632 -45.770463
-15.200966 24.031578 -17.154352
14.315416 -21.137888 -10.121293
-12.769674 26.643558 -0.761780
-19.720692 16.268310 -20.470776
-16.529370 22.288609 -11.225237
-19.502473 -4.623218 -9.002991
-7.476898 -18.398301 -34.986059
33.541521 15.028824 -10.690785
21.821262 -17.805956 -45.345179
25.035577 -15.444930 -44.963227
17.350986 32.304693 -4.269861
14.878288 -20.989232 -49.087110
-19.446840 16.946683 -36.333039
9.161960 34.286111 -36.548041
15.134650 -20.916553 -7.367107
0.563492 33.724876 -28.733885
1.121739 33.805928 -2.596881
32.980069 16.545896 -58.470978
-18.003850 19.916707 -9.556146
0.203272 -21.434138 -42.068075
-19.167194 -5.403864 -5.161022
-21.241713 4.095046 1.730918
25.135242 27.551667 -16.405195
18.271656 31.920218 -39.065701
24.889499 27.757739 -21.886004
18.860332 31.638397 -7.082004
27.470831 25.294297 -3.009375
-4.546492 32.076498 -41.768722
-19.349889 17.186844 -25.842924
-21.400890 6.176175 -48.661756
28.816720 -11.542260 -49.268305
-17.548582 20.723749 -44.790155
34.726317 7.140528 -8.251815
-20.538264 -1.579852 -19.052886
17.092684 32.408962 -54.677433
-21.166432 11.100282 -13.520527
32.256653 18.209952 -46.513023
-21.217233 10.843292 -48.770458
23.148102 29.112619 -50.874704
1.225031 33.813103 -34.026298
-18.301714 19.383357 -53.805930
-20.537981 13.806310 -35.812993
30.655592 21.129803 -37.888439
-18.844497 18.293796 -2.777327
-5.517705 -19.427417 -27.664406
-21.502177 7.500420 -53.629989
-11.333035 27.912939 -33.505732
3.571785 33.976131 -16.763966
-4.107054 32.259237 -5.254269
34.623106 8.783336 -1.992928
12.816222 -21.525776 -27.766031
-4.773988 -19.783498 -37.068391
-20.232284 14.815423 -54.183924
3.231159 -21.984165 -54.044843
34.602896 1.428425 -19.398319
26.987488 -13.609349 -0.580251
34.209572 12.640024 -55.852094
-12.248668 27.126302 -11.952350
4.795611 34.061149 -60.995681
5.291029 34.095565 -56.828445
-17.195141 -9.075560 -30.412078
-3.435897 32.519787 -53.366378
-18.210100 19.547400 2.199245
7.209235 -21.974705 -27.253257
31.572517 -7.365314 -12.241947
-17.617060 -8.400824 -32.243077
26.733383 26.077268 -55.247503
-19.712086 -4.083263 -7.148336
-20.816808 -0.525214 -59.795785
-12.704268 -14.506250 -18.598982
-18.568167 -6.682458 -1.497399
5.051662 -22.110264 -50.635854
20.087670 31.020281 -25.478563
1.613967 33.840123 -17.957521
32.176301 -6.178221 -0.740582
1.899788 -21.795871 -59.129516
34.415674 0.433849 -54.120346
-0.698539 33.400239 -47.784573
-12.884392 -14.334822 -19.460366
-13.317472 -13.922652 -3.877854
7.949125 -21.928217 -14.749776
29.395194 22.981125 2.171998
-12.314216 -14.877468 -27.712715
33.690039 14.580084 -60.175849
32.480767 17.725310 -44.928055
19.472902 31.345136 2.790631
-7.505313 30.589567 -20.722048
34.883900 3.791763 -3.741970
-19.235028 17.471371 -21.135882
-16.195404 -10.544826 3.823267
12.292585 -21.626393 3.351853
24.046309 28.450797 -25.571584
33.912694 -1.594103 -28.112419
-12.064937 -15.102176 -49.358493
15.805557 -20.694486 -0.098819
-4.792481 31.962745 -10.901700
-16.488129 22.344583 -31.632690
-21.226470 3.895756 -27.961350
33.811784 -1.990520 -21.137636
-21.017727 1.166602 -38.852264
-21.273215 10.485712 -14.724512
30.794592 20.907514 -23.662637
18.223768 -19.737462 -53.010199
28.379972 -12.063087 3.651986
16.126031 -20.586696 -52.100943
26.627068 26.178448 -57.130615
12.058793 -21.670008 -35.835732
10.741118 -21.752797 -26.123791
-21.070718 11.605476 -18.830260
12.202134 33.853253 -28.957689
-19.361139 -4.984460 -38.414351
-12.593625 -14.611550 -53.205038
27.138633 -13.450540 3.723722
33.999172 13.436632 -1.323407
-13.015059 -14.210464 -43.664278
25.715769 27.045726 -54.310318
12.112786 33.867946 -53.078454
31.685265 -7.163436 -11.040222
27.652178 25.098571 -7.971828
33.324477 -3.456872 -47.292567
-5.308149 31.724284 -56.872347
34.511384 0.965541 -9.097234
34.899526 4.032466 2.701806
34.763352 6.551041 -30.819582
34.866662 4.906668 -16.265131
19.309104 -19.235559 -55.822377
15.578806 -20.769540 -29.141563
33.255034 15.837628 -45.014482
20.574261 -18.555591 -39.570293
-20.579746 13.640875 -25.037344
15.102150 -20.927311 -21.312368
-5.373001 -19.496699 -41.919378
-5.945111 -19.222781 -25.121073
-20.671625 -1.074913 -41.891664
-19.726462 -4.046230 -4.277901
30.000081 22.136761 -56.733039
-14.045320 -13.155788 -14.621081
6.410200 -22.024908 -12.400983
32.051035 18.654598 -57.778943
20.560725 30.756076 -55.605593
23.514723 -16.649144 -37.848179
-7.385170 -18.449527 -41.850729
-1.726264 -20.920422 -2.452315
31.521923 -7.455904 -49.631030
11.020823 34.064256 -41.300593
-4.192549 32.226047 -3.311737
26.143405 26.638747 -0.604496
-3.908748 -20.136080 -45.025462
-7.085382 30.816797 -0.511849
10.594185 -21.762029 1.603294
15.646657 -20.747081 -56.049104
30.126259 21.960629 -40.113244
-20.540165 -1.572656 -27.651087
-15.226528 -11.800016 -12.674803
-4.094048 32.264286 -58.986266
13.317671 33.593661 -3.648519
12.417776 -21.602338 -32.116334
30.826923 -8.670151 -44.273679
-21.258660 4.316618 -39.629254
34.504460 0.930516 -33.621965
-20.294912 14.626960 -22.379470
28.313732 24.345085 -20.075310
33.793212 14.216428 -20.223648
-18.157363 19.641829 -34.313191
-18.240588 19.492807 -35.573548
-20.787732 12.817023 -61.065496
-17.705963 -8.258649 -13.729023
-20.500149 -1.724168 -1.405347
28.772745 23.782628 -9.522441
-17.739850 -8.204457 -43.807685
-17.154677 -9.140271 -34.463470
34.063284 13.193894 -57.492730
18.778504 -19.480929 -25.109123
32.322989 -5.871822 -50.802486
32.200811 18.330708 -58.860194
31.538269 19.620640 -61.097049
0.457258 33.704460 -60.917527
33.206836 15.961779 -22.933872
32.600543 -5.287500 -4.782018
27.889883 24.842020 -41.306829
-13.487078 -13.758275 -13.799380
-21.484896 8.837478 -46.215047
-21.361214 5.657437 -57.351186
1.461401 -21.709217 -54.105735
5.162908 34.086665 -46.187146
-10.063857 -16.703975 -26.204095
-3.486661 32.500080 -25.089492
17.403021 -20.090964 -22.978120
26.395380 26.398943 -33.907275
-21.183837 3.338362 -56.230398
7.485957 -21.957318 -33.111476
13.831430 -21.265710 1.074149
-11.578967 27.712232 -11.266416
29.926393 -10.055860 -17.567871
-5.806965 -19.288924 -29.806446
34.543017 10.058113 -43.978027
28.782064 23.771208 -8.421851
-1.784644 33.107003 -4.468453
12.005356 33.887660 -9.713755
-20.427049 -2.000942 -30.011010
26.209544 26.575803 2.367759
28.602301 23.991483 -3.198164
29.137490 23.335684 -31.752909
-19.135286 17.686399 -22.380593
15.251780 -20.877784 -33.210927
-11.595631 27.698633 -37.324015
10.603121 34.119883 -18.282638
-10.745622 -16.201643 -47.389723
-17.188013 -9.086960 -13.037348
-13.078811 -14.149790 -42.197473
34.857018 5.060167 -5.729395
-8.846723 29.755475 -5.835510
33.560737 14.970765 -54.102811
-21.105194 2.310171 -37.303848
31.995498 -6.555879 -57.149659
-20.579166 -1.424989 -10.700266
9.356013 34.273508 -23.577695
-8.183230 -17.978445 -44.508766
30.689173 21.076101 -35.425624
-21.333577 5.296102 -46.458677
14.897820 33.184069 -49.754867
21.650367 30.113901 -2.283289
26.193617 26.590961 -5.137089
13.881243 33.451381 -38.641200
-20.512067 13.908958 -45.629051
-20.567959 13.687564 -24.164572
10.032469 34.195844 -7.853934
-14.174554 -13.016312 -28.215405
-21.261837 4.358163 -43.312207
5.350572 -22.091484 -41.114087
30.789601 20.915495 -51.734485
29.233821 23.206387 -7.797953
32.280417 18.158564 -60.968556
16.295825 -20.520782 -26.327395
-19.395476 -4.898840 -47.224563
33.263236 15.816503 -49.358461
1.041219 -21.634882 -16.482126
3.505422 33.971521 -22.752404
34.467210 11.264727 -13.550023
-10.684893 -16.246388 -18.437659
-0.555607 33.437990 -34.252480
-19.049592 17.865397 2.534410
12.890096 33.701608 0.093745
-1.888468 33.072638 -23.680283
-21.184446 3.346326 -13.548247
10.269792 34.164257 -23.964138
22.660361 -17.261176 -19.429910
-18.500393 19.012554 -57.681172
4.395027 -22.100810 -15.342309
30.516938 21.351540 -23.021063
29.005262 -11.306029 -47.969330
-15.849948 23.210754 -1.602210
-5.418492 31.673258 1.533211
21.965732 29.910803 -52.201449
4.965224 -22.115695 -29.185954
23.375493 -16.748883 -11.402969
-3.602952 -20.259518 -60.856254
-5.909041 -19.240051 -53.520869
34.668663 8.058206 -13.092499
30.567564 -9.072881 -49.359242
32.017419 18.727290 -36.593110
-18.421500 -6.953514 -44.726224
34.249516 -0.259918 -57.966969
8.824343 34.308037 -13.253576
33.940638 13.658250 -29.475302
33.460972 15.272199 -7.445900
16.203276 -20.556709 -45.188151
18.795561 -19.473042 -5.492087
30.506904 21.367586 -53.782900
3.884464 -22.067648 -56.724288
33.306638 15.704706 -40.368145
34.646153 8.416492 -15.312214
0.289295 -21.455855 -10.173491
-20.640192 -1.193927 -23.483953
25.542570 27.210096 -9.995506
-17.332719 -8.855544 -44.257268
27.102304 -13.488711 -39.737219
34.895302 4.450802 -50.622431
34.242753 -0.286709 -34.766909
21.651107 30.113424 -28.264596
-13.577743 25.847497 -20.783352
-21.181746 3.311027 -44.523458
-19.269446 -5.182747 -18.400953
15.491416 -20.798465 -2.404668
34.567319 9.671294 -1.702036
10.743931 34.101131 0.195027
30.599189 21.220003 -32.676203
-15.011495 -12.063510 -58.083515
-19.955964 -3.455042 -25.253425
30.079586 -9.830608 -25.485557
34.346619 0.124715 -31.635124
34.473236 11.168815 -20.713811
5.830347 34.133031 -7.460604
4.333810 34.029068 -31.027343
-8.091646 -18.037425 -24.989498
8.927959 34.301308 -61.004940
-20.158438 15.037646 -44.955520
4.929957 -22.117911 -49.108058
-1.466723 -21.006671 -43.096602
-20.231162 -2.648359 2.980144
10.333378 34.155794 -26.176902
-4.235738 -20.004085 -39.502849
-18.880371 -6.024114 -53.738752
-21.358414 9.845730 -49.412752
23.712357 28.696861 -22.023754
-20.831363 12.644199 0.525919
-19.983540 -3.384004 2.490770
-9.640191 29.207285 -26.750663
26.846920 25.967674 -26.691459
-21.338031 5.354336 -37.367561
-18.402909 -6.987873 -60.961705
-21.172037 3.184097 -40.961503
-11.249487 27.981123 -34.398183
11.178673 -21.725306 0.228987
29.818907 22.389662 -50.766766
9.685015 34.242090 -7.009075
33.386240 15.497999 -31.958682
-18.272727 -7.228464 -6.655173
31.212825 -8.009350 -31.294754
31.630189 -7.262052 -18.878787
34.648254 8.383049 -18.620962
-20.673394 13.269926 -39.804518
-1.637620 -20.949879 -30.277329
32.464024 17.761516 -0.574377
-3.967123 -20.112515 -15.255668
18.104805 32.000097 -24.283096
32.306011 18.103215 -22.381822
-1.695112 -20.930774 -56.198771
4.301306 -22.094723 -61.119621
-10.923395 28.247250 -55.560924
33.762949 -2.137470 -40.731487
32.482737 17.721049 -11.892850
27.311930 25.465796 -55.089149
-21.016901 1.155801 -48.222211
18.776997 31.678293 -13.815142
-19.524808 -4.565684 -58.415958
27.748223 24.994912 -55.781538
-17.737886 -8.207597 -54.619278
34.687883 7.752288 -56.874788
3.987780 34.005030 -21.058951
-19.596567 -4.380836 -15.789203
32.649112 -5.167183 -8.336783
4.219305 34.021113 3.873119
20.649838 -18.514696 -12.024717
6.729617 -22.004839 -32.434550
-8.181122 30.171672 -45.481833
4.871999 -22.121552 -39.458008
-18.036045 -7.665878 -57.440517
33.445944 15.317606 -15.607786
-8.325577 -17.886772 -57.829325
-9.256410 29.482210 -28.766084
-12.032218 27.326856 -56.151860
22.727755 -17.212897 -16.803620
8.496536 34.318249 -59.557860
-8.540474 -17.748376 -29.151940
23.403445 -16.728860 -17.273307
29.828378 -10.188888 -41.313060
20.357760 30.869434 -44.378269
-20.628177 13.449035 -46.910993
30.192086 21.868741 -60.518671
26.711601 26.097998 -11.465159
-2.301620 32.935891 -37.646077
8.358358 34.308650 -5.629934
-15.680222 -11.244077 -3.590385
-18.548434 18.912207 -39.026139
15.474862 -20.803945 -55.155066
34.382624 11.851260 -51.237503
32.952110 16.617914 -21.938008
34.324963 12.151351 -16.841132
1.991294 -21.813959 -49.369402
-21.395226 9.569164 -15.134719
-20.768331 -0.708760 -52.171118
-5.412555 31.676004 3.682531
32.963388 16.588865 2.684539
-21.430667 9.302895 -38.115839
28.716437 23.851626 -1.169485
31.109169 20.404438 -48.794324
-19.884911 15.860757 -37.765273
-9.071956 29.614346 -18.747599
16.643123 32.590437 -8.676666
23.935562 28.532398 -53.237480
-18.748176 18.494989 -58.358085
31.076567 20.456576 -2.695340
-15.324262 -11.680257 -16.375403
28.902810 23.623251 -49.314877
-13.688625 25.730990 -39.491168
16.818152 -20.318012 -10.881973
3.690895 33.984405 -36.795258
-19.414134 17.027701 2.733426
14.821404 -21.004256 -61.048192
-3.916867 32.333069 -13.426879
-19.781816 16.116897 -35.994282
-1.887558 33.072939 -9.653451
32.418516 -5.672286 -2.433082
-21.150505 11.180854 -26.537590
18.629644 -19.549768 -16.606223
-21.315820 5.063951 -42.844574
-1.005818 33.319080 -4.629777
5.937676 34.140487 -28.809378
-16.706534 22.031229 -52.370425
21.257793 30.366722 -50.404325
15.247751 33.067784 -36.441841
-9.748968 -16.935988 -15.395247
11.156247 34.046222 -54.950416
18.364462 -19.672399 -1.663382
25.195107 -15.314735 -24.614581
21.354556 -18.097785 -40.216895
14.759137 -21.020701 -14.144790
-9.848033 -16.862996 -36.376805
3.817007 -22.062148 -59.228009
9.652310 -21.821207 -46.048422
-17.467588 -8.639860 -48.959248
-11.564868 27.723738 -52.672537
11.756680 -21.688990 -52.060764
31.369627 19.932310 -35.063081
-19.437371 16.970138 -0.178269
8.107650 -21.918257 -18.906637
14.249691 -21.155246 2.526859
33.280732 15.771435 -8.069734
31.811007 19.116590 -47.628531
4.743398 34.057522 -37.920042
-20.194145 -2.760193 -21.435476
-20.415737 14.263368 -8.559201
-16.724737 22.002966 1.735910
-13.177111 26.266042 -40.304366
30.282552 -9.515445 2.762061
0.500554 -21.509190 -23.461286
29.152287 23.317552 -33.195066
18.018800 -19.832247 -4.886385
-21.091918 11.477233 -38.290115
-21.264547 10.550824 -28.749861
-21.377159 9.704903 -43.058150
-19.917149 -3.555026 -47.972086
34.468792 11.239546 -47.128103
-12.705627 -14.504956 -20.915692
33.010517 -4.271888 -14.824989
-19.915826 -3.558434 -32.540829
-21.224616 3.871521 -59.917411
-9.727818 29.144512 -43.048925
-11.242498 -15.791847 -15.579757
-18.555837 -6.705244 -9.158917
21.340844 -18.106359 -35.819440
8.433311 -21.897796 -44.520538
-16.657396 -9.899931 -18.556790
-8.404751 -17.835783 -35.289921
31.616321 19.476391 -38.299168
21.576201 -17.959191 -38.223207
-21.025480 1.267975 -33.020531
-20.900476 -0.208426 -4.524347
-14.668021 -12.483733 -25.439870
-18.136645 -7.479958 -39.062217
-17.189175 -9.085101 -31.476415
-18.451661 -6.897774 2.116860
27.304621 25.473684 -41.687356
29.473769 -10.670167 -60.983997
-7.228295 -18.537137 -14.807947
3.303170 -21.993751 -12.033835
-17.424298 20.916730 -8.196115
34.609255 9.003800 -26.061608
22.412043 29.623375 -41.279056
30.940382 20.674364 0.986913
22.179446 29.773169 -29.064198
10.234687 -21.784616 -16.467098
23.193051 -16.879577 -32.417322
9.889577 -21.806299 1.167396
-14.615264 24.730016 -19.276134
26.139161 -14.447517 -1.234564
-18.040858 -7.656984 -28.120090
29.607254 -10.488999 -51.236539
-9.698645 -16.973067 -44.056173
8.499239 34.318437 -25.562751
23.933666 28.533795 -16.315525
19.700654 31.236103 -53.594479
30.184530 -9.667651 1.000573
3.372734 33.962303 -17.569586
13.834982 33.463060 -10.000443
-21.359396 9.838355 -56.460884
26.707323 -13.903719 -7.174178
7.754711 -21.940432 -4.075931
-15.728090 23.376147 -16.302228
-20.054842 15.349392 1.342260
14.362506 33.329880 -0.845227
-8.451275 -17.805821 -10.597490
-15.039750 24.223825 -44.207755
21.393950 -18.073152 2.710085
32.741915 -4.937283 -50.013001
-21.176465 11.049527 -39.912820
34.477772 0.795524 -24.303249
28.856670 23.679790 -5.751148
4.700681 34.054554 -24.538566
-18.851795 18.278552 -55.841278
34.165773 -0.591634 -45.024894
-10.703596 28.426629 -32.851939
-4.645642 32.030648 -4.468117
32.049295 18.658359 -1.638310
-8.866259 29.743259 -20.884664
15.110973 33.113236 -51.750218
-19.617408 16.524161 -60.077165
-10.575250 28.531373 -15.546738
0.638627 -21.544047 -4.875597
25.432990 -15.101828 -23.799837
16.881727 -20.293332 -58.694363
-0.281531 -21.311745 -19.092436
-18.097946 -7.551478 -3.434207
19.733767 -19.010393 -10.583973
30.230591 -9.596128 -8.448342
11.767884 33.934604 -42.891176
-20.923920 12.277571 -49.964757
30.415936 21.513064 3.662978
12.697315 33.750278 -1.944689
32.031022 -6.481678 -19.000303
-21.053421 1.633273 -56.306113
6.750272 -22.003541 -40.792579
9.448485 -21.834013 -29.503444
33.861439 -1.797128 -3.535174
-17.099439 -9.228609 -27.788677
-8.903047 29.720256 -45.369247
-2.066592 -20.807326 -31.664871
34.871737 4.825888 -22.987157
19.367879 -19.208379 -42.118074
18.853908 31.641472 -35.487128
-9.916231 -16.812747 -19.239906
-7.573651 30.551522 -32.425763
-19.997622 -3.347730 -17.868979
34.754693 2.541792 -29.122525
-18.751457 18.488137 -8.837399
33.845655 -1.859652 -53.859012
9.149980 -21.852768 1.811968
9.918190 -21.804502 -58.463612
-1.166612 33.276611 -58.645644
-0.648059 -21.219212 -39.937237
23.394555 28.931026 -43.615121
-5.144616 31.799907 -34.761908
19.927231 -18.905708 -54.568774
24.142426 -16.173837 -37.035860
18.047329 32.023599 -59.758451
0.592631 33.730476 -32.532892
11.316472 34.023840 -13.979551
-21.234398 10.756455 -10.328082
-1.523880 33.182249 3.797409
34.809017 2.949929 -39.434159
25.659314 27.099454 -3.601674
31.366078 19.938870 -32.834495
34.723663 7.182780 0.435391
18.109846 31.997683 -36.458035
-15.514222 23.658027 -13.522644
33.381977 15.510645 -14.621616
8.276502 34.302964 -16.146253
18.602390 -19.562372 -57.756576
-19.436442 -4.793312 -12.642511
-4.862198 -19.741264 0.025938
-4.239261 32.207912 -26.941335
-13.416225 -13.828667 -11.260222
-15.040764 24.222616 -50.428495
32.834177 16.921692 -49.818814
-21.230404 3.947197 -1.436030
-5.622891 31.578737 -11.768624
1.183304 -21.658251 -59.649324
-19.766529 -3.943018 -37.997109
-9.189625 -17.330317 -34.566767
29.796033 22.421593 -31.678283
-16.771680 21.930076 -26.438773
32.862853 -4.637689 -32.268636
14.868674 33.193754 -28.260343
-14.675058 -12.475766 -21.566540
-17.391419 20.967782 -32.704991
-19.616210 -4.330235 -3.180389
0.120645 -21.413278 -29.370482
34.895650 4.445257 -55.151699
30.664803 21.115074 -2.048737
23.729547 28.684195 -11.292641
-9.726435 29.145503 -35.401287
6.190780 34.158070 -33.975073
5.935266 -22.054748 -39.987710
-20.533405 -1.598250 -60.805214
19.781381 31.191345 -23.966007
26.280659 26.508123 -41.209857
-1.297267 -21.055314 -41.451628
-17.633533 20.579789 -13.677398
23.888851 28.566816 -41.243966
-7.703793 -18.271587 -33.311776
-13.715405 -13.511851 -33.052869
21.262683 -18.155233 -57.194343
-13.047340 -14.179741 -40.374417
-11.160033 -15.860999 -56.086073
-17.744498 20.381097 -41.853174
32.703653 17.243322 -59.780847
-12.176498 -15.008537 3.225280
-3.601616 32.455453 -39.688748
28.769805 23.786231 -48.255872
9.470974 34.266042 -50.109023
-20.901034 12.368225 -26.470886
-5.311715 31.722635 -52.473336
-20.917349 12.303597 -28.293639
-18.727719 -6.354221 -55.515789
32.893004 -4.562999 -24.322003
-19.256231 17.418848 1.876440
-11.147512 -15.871498 1.461368
-21.523817 8.238240 -43.898094
-21.256619 4.289936 2.634220
20.100820 -18.811776 -33.072576
19.144918 -19.311485 -37.832574
-8.803233 -17.579157 -42.501026
-17.138506 -9.166132 -60.140918
27.368332 -13.209193 -37.817416
30.298500 -9.490681 -20.187853
33.974764 13.529041 -45.375122
4.486929 -22.106780 -11.676896
25.718981 -14.836840 -45.294033
-16.843429 -9.638022 -58.281065
14.890804 33.186400 -34.928262
34.861194 3.442011 -46.317104
34.199815 12.676963 -4.606849
34.622374 8.794985 -38.828097
-21.334616 5.309693 -28.445153
-20.217272 -2.690323 -24.652003
30.443840 -9.264998 -41.714016
27.269913 -13.312603 -9.854050
22.846653 29.334735 -46.834467
-19.178695 -5.378993 -48.393974
-9.650086 -17.008846 0.140872
34.681248 1.990059 -30.771862
33.950705 13.620134 -31.203735
-7.066249 -18.627634 -18.197630
31.525384 19.644453 -45.193778
24.392242 28.174723 -8.687448
22.925377 29.276729 3.033753
-13.575108 25.850266 -23.268683
-18.038188 19.855221 -44.318152
29.853795 22.340963 -4.639743
-14.433798 -12.736520 -10.101073
34.892053 3.917348 -2.556693
1.347304 -21.686663 -34.166050
-14.873510 -12.232591 -3.909858
5.986923 -22.051502 -30.741967
-16.673812 22.082039 -3.200670
-21.047409 1.554668 -41.813510
20.697767 30.679537 0.901499
29.018016 23.482083 -40.416472
-9.269030 29.473170 -48.415031
-21.477056 7.171989 -56.413997
24.528186 28.060724 -55.194436
34.877453 3.692456 -20.839173
11.071296 -21.732052 -30.877781
-8.889188 -17.523801 1.526114
34.888055 4.566160 -52.135493
34.856237 5.072592 -45.080215
19.233760 31.459623 -23.320038
33.760879 14.338847 -24.175979
32.614390 17.436351 1.630194
27.006824 25.795092 -45.318150
-21.252636 4.237863 -53.291741
-19.269888 17.385019 -35.390016
1.192777 33.810863 3.682793
25.609868 27.146512 -50.617020
-20.967137 0.505179 -57.555690
13.092977 -21.460736 2.609562
-15.159632 24.080868 -25.325086
28.102206 24.604281 -26.116695
-18.021248 19.885553 -18.059556
12.450027 33.812487 -0.984217
23.643492 -16.556900 -54.184105
-2.245738 32.954387 -30.542465
-3.507157 -20.298188 -13.173867
-20.870959 -0.320186 -29.953414
12.560206 -21.574970 -5.573127
24.395300 -15.967464 -48.104722
6.083429 34.150613 -29.791340
-21.216437 3.764582 -52.412752
25.755665 27.007757 0.371206
33.788391 14.234680 -18.416024
17.373456 32.295622 -59.043204
7.112211 -21.980801 -0.982245
24.566732 -15.827557 -0.072659
33.332057 15.639229 -9.959255
-18.779924 18.428674 -52.731305
18.802264 -19.469942 -30.712546
27.873894 -12.666590 -50.238922
34.666808 1.881595 -11.309721
5.355732 -22.091160 -33.359821
34.897051 4.422972 -19.875560
31.777140 -6.998932 -22.607035
-8.052539 30.252075 -6.675946
-15.625757 23.515038 -3.700715
27.583800 -12.982800 -38.864182
-20.389802 -2.141969 -53.307417
-1.698252 33.135597 -13.538505
17.244226 32.347789 -1.230785
26.253822 -14.341277 -55.719736
-1.939917 -20.849422 -51.988704
17.572671 -20.025106 -35.686850
-17.004123 21.569152 -48.845776
12.605595 33.773434 -23.755536
-18.829607 18.324898 -45.526920
0.031320 -21.390727 -51.490742
-17.397020 -8.752714 -60.865430
-20.846674 -0.412134 -9.481695
-7.706186 30.468648 -46.315782
10.528044 -21.766185 -41.884568
0.917349 -21.614413 -13.762578
28.309759 -12.146817 -54.145088
-18.700630 -6.412801 -11.755853
34.369147 0.213950 0.556995
9.335024 34.274871 -42.899959
-18.644787 18.710947 -0.524060
9.908284 34.212373 -21.659300
-20.557432 13.729265 -26.039965
-13.814111 -13.405322 -20.987976
-0.152545 -21.344309 -45.761902
14.157945 33.381524 -4.302076
20.747165 30.651948 -29.787682
32.502309 17.678724 -18.676374
17.904422 32.081286 -51.824342
34.513799 10.523166 -11.097899
-2.834673 -20.552081 -35.155568
34.787206 6.171369 -0.251382
34.663544 1.857078 -57.553766
-15.929058 -10.916621 -5.150820
-9.450414 29.343233 -47.514396
-19.111031 17.737064 -17.949355
24.953485 27.704083 -35.320092
-16.038026 22.955486 -9.947285
29.082690 -11.200944 -9.167605
9.320064 34.275843 -41.873782
16.338651 32.705268 -18.540976
5.632184 34.119265 -12.209947
-15.482190 -11.486738 -28.793050
-14.642396 -12.511389 0.222262
-16.741115 -9.783067 -36.797818
3.048701 -21.959878 -26.284401
29.204934 23.246710 -57.348208
32.434750 -5.638377 -42.504774
34.829153 5.503692 -34.185090
-8.963485 -17.475954 -33.548024
26.293889 -14.304152 -28.853617
32.315473 18.082754 -55.158523
32.399552 -5.711897 -49.841260
2.292879 -21.859240 -32.769359
33.421531 15.391370 -17.309785
22.109789 -17.625541 -17.942165
4.290283 34.026044 -17.599296
5.224372 34.090935 -34.714103
-5.606358 -19.384971 -39.315190
21.418274 30.263371 -29.145703
29.547796 -10.569697 -13.267333
34.840916 3.189583 -24.677975
-17.903641 -7.910575 -60.957882
33.624564 -2.553883 -39.706972
30.288722 21.716506 -9.434745
-21.157497 2.993990 -34.262061
-19.292676 17.328570 0.631542
34.264809 12.430888 -34.779558
22.099810 -17.631780 -38.856338
10.312785 34.158535 -3.916390
29.132703 23.341549 -18.953698
-6.745837 31.000529 -31.790142
-12.859595 26.560240 -15.454588
-15.034814 24.229711 -57.326299
-0.167542 33.540486 -16.088187
-19.069095 -5.616002 -16.649289
-14.412211 24.970695 -22.162186
13.623553 -21.320610 -49.028033
-17.653101 -8.343187 2.959666
-19.085458 17.790480 -30.661602
34.839924 3.182133 -33.794376
-14.218400 25.174339 -33.293866
33.224761 15.915607 -18.037952
-13.372401 26.063257 -48.525834
-17.536756 -8.529247 -25.099980
16.420967 -20.472201 -61.072844
22.006188 29.884749 -34.422942
12.331088 -21.618995 -41.067704
-11.031264 -15.968980 -23.834492
-16.850385 21.807866 -16.024391
-19.897453 15.823016 -56.515369
28.978575 -11.342249 -29.813963
30.366531 21.592073 -59.321431
-3.832431 -20.166886 -33.842182
22.953538 29.255979 -57.434688
-13.981010 -13.225195 -17.499530
21.901729 -17.755640 -55.962956
33.307391 15.702764 -34.759242
-21.531332 7.881596 -39.484330
-2.581658 -20.636162 -48.607113
-4.899263 31.913366 -21.457737
9.485312 -21.831699 -5.602162
23.356476 28.959083 -27.237986
34.860394 5.006434 -24.021867
-4.200494 -20.018312 -23.545841
34.462127 11.345627 -6.090493
5.629960 34.119111 -13.047511
13.823778 33.465889 -36.856631
-1.306578 33.239643 -42.959955
-0.572955 33.433408 -43.732967
30.682753 21.086367 -34.548416
-10.181345 28.819623 -39.366457
-20.992412 0.835631 -13.836323
25.885542 26.884154 -23.099656
-20.779219 12.850746 -58.077105
-16.071976 22.909407 -33.310206
-16.715898 -9.818268 -31.735460
34.792545 2.826171 -37.642464
