69.992427 43.880357 -40.947801
66.991843 28.852018 -6.130670
39.662548 5.435743 -15.156580
69.677585 39.012716 -9.112993
67.935310 31.349775 -40.443971
68.648715 33.670713 -10.163161
46.441649 7.751208 -12.483791
68.558006 33.375608 -19.364597
65.695052 26.029798 -52.088992
39.136353 5.299471 -51.781644
64.051364 23.098888 -5.306695
68.048721 31.718738 -34.331737
38.623134 5.166560 -49.079716
65.932335 26.513117 -35.935316
53.867399 12.071050 -27.178328
44.029030 6.761616 -19.252167
68.895608 34.720662 -2.433307
69.629213 38.669624 -4.926402
42.297104 6.180578 -38.093751
60.817296 18.622773 -50.128113
66.384212 27.433541 -44.626504
47.568408 8.253836 -32.032595
69.976507 44.760789 -37.847589
41.370342 5.878020 -46.955150
55.969253 13.725884 -54.891785
58.710493 16.286541 -3.083719
46.116455 7.612667 -60.963079
66.092268 26.838884 -24.324061
56.878771 14.522074 -5.968344
61.823192 19.832678 -50.841272
68.724940 33.954357 -52.315922
58.867253 16.447345 -59.179766
40.143109 5.560196 -54.653176
69.498520 37.742655 -32.978771
39.998126 5.522650 -15.615872
67.115606 29.164335 -24.628418
64.537653 23.918602 -12.493642
48.017862 8.488881 3.230360
63.090467 21.626604 -17.239335
66.718671 28.162669 -49.959037
43.871187 6.708661 0.986820
62.618599 20.957917 -36.238609
41.459066 5.900997 -9.880131
69.744962 39.490605 -61.120461
69.991426 43.935707 -23.707094
57.853600 15.407539 -38.387365
66.350429 27.364729 -15.065932
40.938830 5.766269 -50.705716
57.850127 15.403976 -12.335741
36.033124 4.495810 -51.349145
69.143239 35.832532 -39.512463
57.461426 15.032129 -38.128479
46.878836 7.937460 -54.897641
51.717937 10.592801 -55.123818
59.728551 17.330867 -45.599429
49.877934 9.461617 -20.365809
54.093064 12.239056 -19.648771
54.097355 12.242250 -3.127957
37.235513 4.807200 -51.716168
42.295757 6.180126 -16.268091
69.350311 36.762294 -18.890199
53.158590 11.543347 -51.110635
63.859679 22.775774 -48.251418
68.892233 34.705509 -47.457274
36.804241 4.695511 -60.934760
51.761546 10.620197 -51.364048
69.125648 35.753550 -11.844256
44.405353 6.887867 -13.617830
66.274747 27.210574 -1.325048
66.586694 27.845977 -56.848832
58.659437 16.234167 -20.061694
38.566333 5.151850 -41.420471
66.023788 26.699397 -52.923401
56.750452 14.409744 -52.843782
69.403384 37.067875 -29.879087
50.695457 9.950459 -1.001560
58.397895 15.965877 -34.137233
62.519518 20.817507 -51.412292
66.662895 28.021917 -8.983587
67.862533 31.113010 -56.165726
59.088911 16.674723 -37.344470
67.513635 30.168763 -59.428116
69.829931 40.230429 -53.945392
40.242313 5.585888 -16.929631
69.957800 45.795330 -58.311207
36.413255 4.594255 -56.636008
69.684601 39.062478 -51.442443
50.945881 10.107781 -41.258396
69.974173 42.592387 -52.538154
56.626978 14.301655 -54.464303
45.496267 7.348452 -16.748303
69.211440 36.138758 -30.947339
41.927389 6.056543 -49.417665
65.475810 25.583225 -25.096867
54.795972 12.762366 -28.969088
53.094585 11.495696 -18.639320
57.945478 15.501787 -38.937880
69.710462 39.245904 -57.529106
65.607918 25.852314 0.114737
42.476986 6.240926 -60.069533
46.151888 7.627762 -55.764522
34.937803 4.212149 -17.675782
46.455157 7.756962 -22.459372
60.712328 18.496515 -23.068020
69.998549 43.541766 -55.925890
58.409955 15.978248 -7.370970
67.170998 29.304117 -36.729983
69.976329 44.770622 -25.195187
69.465931 37.511506 -39.016099
37.966253 4.996444 -9.223968
58.470633 16.040492 -44.416488
59.321688 16.913506 -28.014097
53.507843 11.803363 -38.870914
39.882814 5.492786 -60.883507
56.848870 14.495899 -2.076845
69.926428 41.810561 1.064881
67.650032 30.512962 -39.784601
46.862797 7.930627 -4.770038
46.678096 7.851940 -39.842448
65.728181 26.097277 -25.991013
47.596825 8.268697 -20.100164
69.948239 42.167720 -49.420662
44.654802 6.989968 -31.739022
69.938589 42.009692 -47.272351
67.526271 30.200653 -28.852699
43.240589 6.497104 -39.147022
54.566740 12.591704 -3.198255
69.984433 44.322440 -35.672337
56.063918 13.808753 -37.918360
39.031863 5.272411 -31.156670
42.709646 6.318980 -56.549117
66.133902 26.923688 -8.705114
48.299704 8.636272 -29.149950
43.097028 6.448941 -21.500804
37.782157 4.948767 -12.280173
44.265642 6.840996 -16.546770
48.277500 8.624660 -34.959047
57.363482 14.946389 -5.118237
68.670952 33.743055 -59.012518
44.049923 6.768625 -36.289094
45.100650 7.179909 -17.039620
61.731290 19.722137 -33.312271
57.670460 15.219673 -5.793101
68.258406 32.400912 -8.736532
56.282683 14.000260 -46.956883
46.032642 7.576961 -33.078058
68.941796 34.928047 -60.861969
66.922971 28.678220 -22.267654
62.446377 20.713859 -6.993537
60.940586 18.771067 -27.827672
54.585401 12.605597 -5.431745
67.216508 29.418962 -40.507939
53.736292 11.973441 -25.813836
62.325516 20.542585 -37.829385
69.990567 43.983186 -8.194150
54.625048 12.635114 -58.588183
42.620578 6.289099 -19.554358
43.212200 6.487580 1.271392
70.004892 43.191023 -7.654971
59.089629 16.675459 -6.625698
35.228413 4.287410 -1.203557
45.377881 7.298017 -22.406068
36.488855 4.613834 -58.273422
61.414441 19.341027 -16.441884
64.086570 23.158233 -60.287047
66.109979 26.874958 -21.348808
46.232058 7.661917 -52.697050
53.172751 11.553890 -55.131151
50.322707 9.716291 -12.002166
69.524598 37.927615 -54.381799
55.820751 13.595886 -26.012064
68.334914 32.649816 -49.368491
62.016700 20.104959 -15.244130
41.106221 5.809619 -54.659650
65.829221 26.303085 -32.969256
62.944782 21.420153 -28.532961
66.782753 28.324379 -38.756897
48.497040 8.739470 -1.526264
40.413687 5.630270 -36.396892
49.166326 9.089477 -15.972804
41.598186 5.946100 -32.416333
69.545192 38.073684 -23.928604
46.155932 7.629485 -39.989887
46.445485 7.752842 -39.291312
67.336950 29.722899 -23.490274
69.704955 39.206843 -27.009886
66.030856 26.713794 -33.559291
69.935001 41.950942 -7.189091
61.741022 19.733843 -1.230418
68.436375 32.979901 -37.075132
63.282362 21.898540 -26.655991
50.773850 9.999707 -38.366188
69.254644 36.332744 -6.964077
68.030102 31.658165 -21.945346
53.133969 11.525016 -49.606995
69.488494 37.671537 -23.213591
57.927722 15.483573 -8.461113
69.173863 35.970037 -53.477399
65.414746 25.458843 -32.174819
49.708615 9.373071 -28.127326
69.625337 38.642130 -15.898619
51.772407 10.627020 -7.817868
64.993940 24.687743 -40.890657
69.640874 38.752331 -30.692718
62.665904 21.024952 -3.633891
60.581519 18.339176 -55.731840
59.200533 16.789225 -23.554146
39.003260 5.265003 -49.641606
45.402562 7.308532 -44.094248
36.551087 4.629950 -10.217505
67.026351 28.939101 -59.385071
64.447282 23.766268 -17.510263
51.580130 10.506228 -49.651068
69.568820 38.241271 -31.840268
61.998506 20.079177 -6.394099
45.459914 7.332965 -10.429616
48.940408 8.971332 -29.846365
52.516062 11.094199 -48.845008
54.877030 12.822713 -36.483879
63.149386 21.710099 -41.321623
66.368119 27.400763 -31.727750
49.205709 9.110073 -40.583935
66.188622 27.035147 -40.394697
65.030936 24.750107 -45.702923
45.986829 7.557443 -28.670426
39.648911 5.432211 -45.912304
47.625417 8.283649 -28.210835
64.307792 23.531137 -39.747165
50.460712 9.802988 -2.098405
63.296351 21.918365 -34.311095
68.145218 32.032674 -54.072715
62.321434 20.536801 -5.206702
53.583426 11.859634 -52.299973
64.366855 23.630697 -53.902035
51.355720 10.365249 -26.841522
63.482674 22.182404 -55.529076
61.619657 19.587863 3.529612
64.600460 24.024473 -15.762812
64.417544 23.716140 -32.640660
62.312463 20.524088 1.853834
69.979757 42.683825 2.713329
58.958428 16.540873 -18.421425
61.443359 19.375810 -31.695676
69.247492 36.300633 -46.389318
69.683615 39.055484 -5.779241
42.244217 6.162835 -19.244277
52.824087 11.294312 -29.287781
66.561421 27.794498 -43.108502
68.046177 31.710462 -50.991238
50.934862 10.100858 -53.738225
65.956167 26.561661 -41.911144
69.990721 43.974711 -31.635374
46.375165 7.722884 -7.179192
63.229864 21.824145 -10.814138
58.000693 15.558427 -40.356647
62.143019 20.283967 -9.779967
69.485610 37.651083 -9.478735
44.780380 7.043467 -48.012532
55.790477 13.569384 -57.335939
69.734233 39.414502 -11.789312
37.097432 4.771440 -53.937304
40.427748 5.633911 -40.218849
44.387409 6.881847 -9.854914
52.769915 11.253981 -57.928084
64.198146 23.346311 -47.523256
63.598183 22.346093 -48.434045
69.963512 45.479339 -3.097318
57.865953 15.420210 -21.610040
58.560266 16.132437 -41.426234
62.821178 21.244992 -29.033941
55.416181 13.241726 -34.511633
36.141595 4.523902 -5.435194
65.929310 26.506954 -3.224746
51.366558 10.372058 -27.440816
41.747296 5.996125 -1.279512
62.345943 20.571533 -29.983002
47.393407 8.162318 -43.659236
69.951458 46.145986 -28.920588
35.964354 4.478001 -16.788944
65.226889 25.080415 -53.067283
51.918924 10.719065 -9.794907
55.154737 13.029463 3.855939
64.653001 24.113038 -60.047764
66.213664 27.086155 -33.878050
64.978727 24.662100 -32.033973
66.185380 27.028543 -43.753634
60.488257 18.226999 -6.035400
68.075294 31.805190 -59.868263
63.526563 22.244600 -13.113312
45.339700 7.281751 -54.261493
59.456146 17.051433 -31.956023
38.523166 5.140671 -13.641342
65.594021 25.824007 -19.852285
68.486041 33.141480 -34.993043
58.663226 16.238054 -55.520915
67.526263 30.200631 3.848304
67.476953 30.076198 -24.834963
69.952670 46.078883 -3.242843
69.604561 38.494777 -35.452386
58.085680 15.645607 -11.303979
40.609384 5.680950 -54.366544
69.845610 40.487158 -31.049523
64.402658 23.691048 -38.913742
38.703171 5.187288 -54.993210
69.928285 41.840963 -6.169167
66.397797 27.461214 -29.136030
61.359248 19.274639 -48.414019
63.479674 22.178153 -52.453799
59.844381 17.452536 -3.132001
64.386032 23.663022 -42.845782
69.971986 42.556579 -37.826983
69.177187 35.984962 -6.365722
35.594695 4.382268 -28.519398
35.591924 4.381550 -48.518399
59.923597 17.547818 -44.001152
59.848567 17.457571 -30.728888
60.586328 18.344960 -33.147234
61.744351 19.737847 -10.080530
67.337153 29.723412 -2.085606
37.701249 4.927814 -21.001173
50.228582 9.657159 -1.082033
69.450742 37.403773 -50.210886
43.254986 6.501934 -40.742917
60.980167 18.818675 -37.660045
54.755916 12.732544 -55.424505
39.224371 5.322266 -36.014378
47.805614 8.377884 -57.563784
35.503799 4.358728 -42.698885
69.340656 36.718941 1.329141
49.838840 9.441172 -29.484608
43.231866 6.494178 -52.752036
68.757217 34.099282 -7.528678
37.859262 4.968736 -30.187688
55.959572 13.717409 -23.823185
45.273587 7.253585 -4.348575
69.995791 43.694302 -45.194252
54.337519 12.421050 -14.774404
60.521369 18.266827 -33.721939
62.076457 20.189641 -34.087132
69.973728 44.914443 -39.718411
62.549560 20.860081 -45.955203
61.041661 18.892641 -43.248212
69.972143 45.002091 -27.202850
56.624829 14.299774 -43.378695
49.743631 9.391383 -42.531173
62.609968 20.945685 -4.166484
70.000823 43.416015 -51.664769
68.045711 31.708947 -42.821610
66.055820 26.764642 -13.984801
63.145841 21.705075 3.777907
60.739812 18.529573 -38.300348
56.457624 14.153403 -58.536747
64.203150 23.354747 -34.386688
56.995783 14.624506 -30.633382
61.665105 19.642529 -20.660905
55.331879 13.167928 -6.966040
68.618262 33.571637 -4.505593
40.947184 5.768432 -45.851381
57.448672 15.020964 -1.744308
68.416311 32.914627 -24.000715
42.150680 6.131455 2.290710
65.742204 26.125841 0.502636
56.453799 14.150054 -46.100838
50.550863 9.859623 -8.568474
69.757052 39.576356 -42.221694
57.405721 14.983365 -3.641282
47.917155 8.436215 -36.082771
69.088100 35.584958 -19.125968
58.108238 15.668746 -36.577557
55.644478 13.441576 -49.337578
67.283015 29.586794 -15.599050
38.380605 5.103751 -40.416843
69.783987 39.767401 0.836374
64.406842 23.698100 -60.036129
69.685059 39.065725 -44.773513
61.884340 19.917391 -47.192974
50.559118 9.864809 -7.900436
69.950690 46.188426 -8.431691
68.644276 33.656269 -16.742984
62.972064 21.458814 -26.617501
35.032880 4.236771 -44.998487
41.557384 5.932412 -45.626261
65.873568 26.393415 -24.349397
69.832479 40.272149 1.066908
62.007332 20.091685 -12.582954
69.988601 44.091913 0.818205
69.914753 41.619388 -44.512014
67.056775 29.015875 3.781647
66.911345 28.648883 3.282100
50.366949 9.744084 -32.306163
36.214273 4.542723 -40.757130
53.655964 11.913638 -53.668207
66.934167 28.706473 -61.110568
66.959657 28.770799 -29.060290
36.606909 4.644407 -24.800467
40.622324 5.684302 -33.650067
69.987219 44.168374 -27.727114
50.487049 9.819533 -43.794169
60.251405 17.942110 -29.552773
45.386011 7.301480 -16.181947
69.957805 42.324365 -2.940600
69.515762 37.864943 -50.081079
69.478483 37.600533 -51.886843
51.605011 10.521859 -5.304712
58.195768 15.758535 -32.156588
65.419097 25.467706 -27.408269
38.562184 5.150776 -46.117222
49.259822 9.138371 -56.077864
34.931051 4.210400 3.203251
38.960675 5.253975 -25.300014
34.960358 4.217990 -54.070100
61.180272 19.059365 -26.503298
61.732584 19.723694 -49.768674
49.377534 9.199930 -23.256408
62.365879 20.599784 3.552852
67.834362 31.021359 -54.596706
44.892819 7.091369 2.600508
69.656548 38.863506 -61.068656
47.289040 8.112217 -53.110361
59.105349 16.691585 -26.023087
67.858135 31.098700 -19.557602
51.109823 10.210772 -58.927093
37.064539 4.762922 -46.423993
69.978618 44.644017 -52.721004
68.023515 31.636736 -45.043520
39.590436 5.417068 -44.408788
67.700520 30.640370 1.298767
69.568293 38.237533 -16.949139
45.663700 7.419783 -17.638073
57.417774 14.993916 -16.521441
63.710506 22.524319 -37.575552
46.270246 7.678186 -10.553772
54.688261 12.682176 -12.907361
61.017142 18.863150 -3.952473
69.889135 41.199893 -21.836627
53.013442 11.435285 -8.830557
68.897820 34.730593 -5.919512
45.362105 7.291296 -15.099321
67.444976 29.995503 -51.336288
69.840146 40.397684 -60.079868
61.811429 19.818530 -8.483479
40.147711 5.561388 -59.536110
69.966918 45.291068 -60.453934
51.414283 10.402040 -41.312995
69.850394 40.565496 -37.128486
46.116634 7.612743 -33.725418
69.030518 35.326412 -11.078262
64.533354 23.911356 -21.379627
57.473315 15.042537 -18.485285
68.503503 33.198291 -54.152960
51.013735 10.150408 -11.030181
69.740785 39.460976 -56.347275
66.045825 26.744285 -15.790401
59.436006 17.030774 -11.015252
68.809303 34.333147 -24.836631
69.974258 44.885144 -24.217888
34.990734 4.225857 -33.127783
49.492638 9.260124 -49.477522
69.894263 41.283857 -19.873085
58.739162 16.315950 -56.694785
35.560440 4.373397 -44.007054
43.344294 6.531896 -57.525045
60.054580 17.705366 -45.606854
50.592963 9.886071 -21.716425
60.885418 18.704710 -48.078026
69.997416 43.604432 -40.407094
69.062727 35.471032 -4.507580
65.869868 26.385879 -51.701309
69.461084 37.477126 -1.907314
69.401109 37.051737 -30.522160
57.567573 15.125050 -13.341295
43.606846 6.619979 -53.464728
47.300033 8.116900 -40.840780
69.069385 35.500928 -44.529622
69.645585 38.785748 2.214420
46.530426 7.789029 -4.372723
69.858289 40.694779 -43.105275
62.450620 20.719872 -18.526385
40.302901 5.601579 -2.211262
69.976604 44.755363 -10.116714
66.514308 27.698535 3.388054
54.939724 12.869388 -51.373059
43.109749 6.453209 -17.433912
69.961071 45.614460 -49.285708
63.459304 22.149286 1.521084
54.033048 12.194374 -47.911701
50.066867 9.560420 -46.366663
62.334374 20.555138 -15.251366
50.153746 9.610146 -10.951523
52.350792 10.990373 1.750974
50.606155 9.894358 -12.702741
56.942097 14.577510 -45.264048
58.574327 16.146862 -40.258693
64.816797 24.389141 -49.911662
69.767423 39.649910 -48.966502
43.611127 6.621415 -27.546866
66.072604 26.798830 -33.043588
69.958181 45.774142 -3.724828
57.657365 15.206240 2.284614
62.708988 21.086007 -57.071915
66.699732 28.114875 -48.682490
54.238834 12.347581 -26.449048
36.555849 4.631183 -36.618425
67.946481 31.386120 -21.182866
63.893122 22.832147 -54.897859
65.014522 24.722438 -43.850986
41.280542 5.854764 -55.919678
61.381814 19.301782 -12.287109
64.854376 24.452488 -6.906597
67.199045 29.374896 -50.570990
68.806518 34.320645 -8.302071
36.325203 4.571452 -25.818946
67.393134 29.864680 -16.901742
55.156033 13.030428 1.511554
69.972221 44.997790 -41.185840
69.951649 46.135471 -44.398451
62.713862 21.092914 0.056076
69.680750 39.035162 -39.877316
69.824802 40.146435 -8.146740
60.672176 18.448219 -21.345018
57.911390 15.466820 -55.765185
35.112941 4.257505 -18.326965
63.072362 21.600947 -22.455189
43.768233 6.674122 -44.666730
52.744077 11.237442 -44.631486
48.838275 8.917921 -13.738217
52.052532 10.803000 -59.972088
63.609530 22.362173 -31.192431
67.579705 30.335492 -14.139782
54.050513 12.207377 -8.036188
65.786629 26.216329 -44.704764
66.613729 27.901044 -15.762519
63.479742 22.178249 -51.626409
60.833608 18.642393 -29.772485
37.094152 4.770591 -49.307659
51.466261 10.434693 -13.665440
55.169250 13.040268 -11.170898
51.423478 10.407817 -20.346055
36.167550 4.530623 -4.009037
57.472210 15.041569 -32.099681
47.360881 8.145308 -28.580621
69.936079 41.968597 -26.268440
69.421312 37.195035 -37.935560
64.353395 23.608007 -22.575554
69.958038 42.328179 -46.638167
39.162366 5.306208 -52.254138
38.711662 5.189487 -52.776051
61.862399 19.886299 -57.330047
69.846723 40.505389 -34.267765
63.835058 22.734272 -18.670055
39.878273 5.491610 -49.739617
69.389164 36.967014 -4.386740
66.126447 26.908502 -47.045729
69.175359 35.976752 -20.434887
48.025648 8.492952 -58.330335
40.045868 5.535014 -58.129810
34.937484 4.212066 -35.440696
65.239370 25.101622 -28.648910
64.270768 23.468726 -11.975571
69.980271 44.552611 -31.144098
67.957450 31.421805 -35.341314
57.654291 15.203087 -47.635804
57.411738 14.988632 -48.167361
48.475184 8.728040 -6.078510
69.987718 42.814184 -14.776473
65.277411 25.179106 -55.697758
61.796933 19.801094 -52.521787
69.967508 45.258357 -4.587802
63.527437 22.245838 -39.877934
64.779786 24.326754 -27.766387
68.956725 34.995080 -40.483599
55.198302 13.061897 -55.435607
37.950307 4.992314 -20.608861
70.004377 43.219481 -23.461944
49.203391 9.108861 -50.017999
63.634253 22.397209 -7.528838
42.830008 6.359360 -49.295574
68.766714 34.141921 -4.184104
66.839526 28.467646 -17.892536
69.917891 41.670769 -50.706234
69.952335 46.097499 -26.737807
42.519650 6.255239 -25.179275
51.113286 10.212947 -6.957132
69.445913 37.369522 -7.882723
42.624147 6.290296 -8.562840
69.865032 40.805198 -28.230525
69.966127 45.334761 -17.274448
69.366488 36.834927 -15.248137
69.988263 42.823112 -15.781853
69.850770 40.571653 -45.040907
69.826179 40.168976 -18.324439
61.903395 19.944394 -28.979271
62.522330 20.821493 -44.600372
36.489435 4.613984 -19.840782
69.858897 40.704736 -54.187292
37.404427 4.850944 -28.106045
46.160535 7.631446 -0.014950
47.222844 8.084015 -55.825701
69.191654 36.049918 -44.483493
62.727917 21.112832 -16.833111
57.017906 14.643873 -23.903259
67.026867 28.940403 -42.123757
69.147392 35.851181 -33.078070
40.797780 5.729741 -13.255229
55.301103 13.140986 -59.382645
58.082712 15.642562 -47.213839
67.728641 30.711333 -11.882729
36.065986 4.504321 -9.151321
63.258272 21.864402 -31.718207
64.805224 24.369634 -8.940995
60.744130 18.534766 -14.358766
36.200369 4.539123 -55.316474
55.703549 13.493287 -0.017459
67.904639 31.249994 -10.454831
68.253058 32.383513 -1.293256
51.518546 10.467540 -52.200784
60.542170 18.291847 -30.882478
48.579145 8.782407 -12.720804
67.469554 30.057526 -29.936388
69.964841 45.405849 -9.148606
69.950757 46.184686 -4.492483
68.611042 33.548150 -28.924196
51.672093 10.564001 -24.491950
69.950592 46.193976 -59.900476
65.186271 25.011947 -43.511051
47.055404 8.012682 3.222024
58.398970 15.966980 0.341064
62.833233 21.262076 0.704147
63.067896 21.594618 -35.732880
52.089788 10.826405 -53.638504
65.688304 26.016052 -51.401121
59.026384 16.610582 -41.300149
41.402295 5.886295 -50.830576
69.490239 37.683917 -53.085894
37.626298 4.908404 -29.657989
66.871574 28.548519 -8.036960
69.831359 40.253799 -45.471324
65.384221 25.396668 -19.878161
56.850299 14.497149 -44.028214
69.899270 41.365856 -5.194683
37.968709 4.997080 -34.357536
69.457968 37.455027 -14.137464
65.201275 25.037239 -32.327436
67.737596 30.733932 -22.341491
58.011164 15.569167 -33.488591
69.658327 38.876120 -58.806730
54.730954 12.713960 -49.597021
64.889725 24.512074 -0.397413
62.232497 20.410768 -39.064079
37.310542 4.826630 -13.211347
41.222552 5.839746 -50.299119
67.174732 29.313541 -10.584959
53.516977 11.810163 -20.387583
69.217783 36.167237 -35.103780
69.989455 42.842636 -13.803024
40.499278 5.652436 3.252882
54.627535 12.636966 -6.476039
69.193268 36.057167 -50.188411
67.901150 31.238643 -46.172827
69.991114 43.952975 -27.265414
38.100427 5.031191 3.106022
69.939290 42.021170 -47.887349
57.392945 14.972181 -28.230705
56.730475 14.392256 -11.886027
65.266128 25.156124 -8.623848
69.950894 46.177214 -32.126909
35.050735 4.241396 -11.096645
43.407334 6.553045 -60.299107
46.073518 7.594375 -14.816954
69.590632 38.395976 -54.393566
69.148239 35.854985 -0.451194
45.821435 7.486982 -35.345712
57.777603 15.329580 1.805616
36.654348 4.656692 -50.375215
68.409881 32.893707 -11.092837
69.209498 36.130037 -16.354180
69.593342 38.415202 -57.169083
68.146904 32.038160 -23.496093
65.452004 25.534735 -43.724810
47.624136 8.282979 0.952365
52.556049 11.119319 -32.757776
42.014102 6.085635 1.220040
34.959784 4.217841 -19.782839
53.270178 11.626423 -39.961296
68.321723 32.606901 -54.015746
67.856932 31.094787 -24.989809
69.950218 46.214576 -25.609694
69.566667 38.225999 -51.669096
42.971597 6.406861 -11.185824
54.223760 12.336358 -54.948090
62.684702 21.051591 -56.038837
53.026354 11.444898 -40.539159
69.309386 36.578539 -52.613241
69.039642 35.367379 -26.232041
67.456303 30.024088 -18.187904
69.918070 41.673697 1.722812
41.482924 5.907432 0.917026
37.275762 4.817623 -45.664218
62.538121 20.843870 -54.666441
56.841819 14.489726 -46.715673
49.704800 9.371076 -51.193154
68.845384 34.495152 -12.787449
68.430718 32.961497 0.056400
57.508162 15.073041 -37.552830
65.524838 25.683089 -36.963773
52.978066 11.408948 -60.636232
68.398277 32.855956 -16.299163
68.989927 35.144156 -13.421317
62.294525 20.498668 -57.915142
64.924708 24.571042 0.150380
61.957059 20.020442 2.042599
64.238873 23.414962 -2.164769
56.698035 14.363858 -53.932750
51.176934 10.252933 -47.033002
35.681529 4.404756 -40.761097
58.028669 15.587125 -54.290102
65.710868 26.062013 -14.880372
40.235308 5.584074 -38.322516
44.689016 7.004544 -32.594347
49.666031 9.350801 -27.353411
43.574129 6.609002 -39.648378
60.023312 17.667757 -59.273308
65.685916 26.011188 -26.647945
59.529308 17.126483 -54.067055
67.024659 28.934831 -17.978525
64.315182 23.543594 -31.019763
42.972209 6.407067 -30.466076
48.788007 8.891633 -53.448393
69.997132 43.620174 -20.999402
69.841202 40.414985 -32.719476
66.627055 27.931474 -57.362425
69.985670 44.254036 -11.401162
45.063563 7.164110 -17.597308
69.059045 35.454499 -50.288817
69.992288 43.888048 -15.775682
66.961862 28.776362 -52.879233
35.332404 4.314341 -45.683685
68.668161 33.733978 -31.898446
39.176962 5.309988 -44.754613
68.172070 32.120031 -47.286948
66.443927 27.555176 -53.298895
59.106349 16.692611 -44.482589
69.863277 40.776456 1.251854
69.577513 38.302931 -32.855528
59.205497 16.794317 -33.939214
36.313047 4.568304 -15.478393
54.372112 12.446805 -24.430335
68.054248 31.736719 -57.086850
65.966542 26.582794 -48.733342
69.189389 36.039749 -14.013270
52.174159 10.879408 -32.456306
53.597002 11.869741 -8.881950
44.790484 7.047771 -2.944579
69.365026 36.828366 -6.454414
67.885825 31.188786 -36.315717
52.256494 10.931133 -22.293047
68.964253 35.028879 -56.620900
64.533111 23.910946 -34.410987
69.718461 39.302641 -30.573149
56.569113 14.251000 -9.056674
45.411273 7.312243 -34.691369
37.466429 4.867001 -18.416546
60.674979 18.451591 -0.524937
55.212741 13.072647 -52.725603
43.288551 6.513195 -23.407607
57.491060 15.058071 -7.749049
52.458242 11.057875 -16.388380
63.626552 22.386294 -2.805312
64.661211 24.126878 0.013519
58.155898 15.717636 -42.054045
51.977677 10.755975 3.382798
65.395005 25.418633 -41.986062
35.398366 4.331424 -16.281940
65.243365 25.109759 -14.645301
63.422562 22.097219 0.720772
63.022354 21.530081 -33.961710
46.568461 7.805232 -60.559667
48.767019 8.880657 -40.505437
48.032488 8.496530 -11.336389
67.455168 30.021222 -10.596915
55.391785 13.220369 2.962567
69.529738 37.964077 -18.064014
69.839535 40.387691 -38.638551
53.760329 11.991337 -40.430891
36.534435 4.625638 -9.285681
69.951617 46.137222 -38.511144
61.829878 19.840720 -2.867918
69.989230 44.057169 -18.298194
69.971444 45.040778 -53.157510
46.726159 7.872416 -45.114815
63.119133 21.667227 -24.192599
58.813672 16.392382 -31.182349
58.248138 15.812256 -24.633901
43.803769 6.686044 -59.280109
53.605244 11.875877 -51.077370
56.967500 14.599747 3.843008
54.819415 12.779818 -53.665352
56.065567 13.810197 -41.342814
36.114724 4.516943 -43.657212
37.501389 4.876055 -32.106744
55.431144 13.254824 -47.475053
69.001184 35.194701 -48.683113
68.026348 31.645952 -39.784096
69.920271 41.709745 -57.882946
64.912337 24.550190 -46.614556
67.997769 31.552977 -30.666001
69.991565 43.928028 -28.636672
42.718142 6.321830 -40.282759
65.476092 25.583800 -18.211089
68.689906 33.804719 -43.456292
59.870677 17.484166 -11.681363
69.886659 41.159337 -55.189170
69.538292 38.024747 -3.736232
64.363224 23.624575 -33.824827
69.966263 42.462853 -5.499529
34.920604 4.207695 -0.285386
46.278452 7.681682 -54.954270
69.997758 43.585549 -56.682655
69.113241 35.697841 -15.102909
53.610876 11.880070 -16.625956
58.346219 15.912868 -9.659103
69.470239 37.542064 -35.433954
69.970094 45.115417 -39.236373
51.227943 10.284978 -19.541122
46.506558 7.778860 -21.474279
50.547193 9.857317 -35.072634
68.308573 32.564120 -53.523788
68.320891 32.604196 -45.810859
40.776093 5.724124 -52.913792
46.065743 7.591062 -27.044844
69.992439 43.879672 -44.312100
63.958382 22.942152 -46.210967
39.831999 5.479627 -3.211235
66.537047 27.744851 -5.151151
66.767412 28.285665 -35.895190
60.723024 18.509380 -4.184421
54.663726 12.663909 -50.398586
34.950452 4.215425 -27.042434
69.924278 41.775356 -48.446161
38.353088 5.096625 -51.690700
54.571474 12.595229 -60.425134
69.875273 40.972903 3.437523
69.871376 40.909086 -47.128151
64.959646 24.629935 -30.695631
62.644055 20.993990 -48.423482
43.261929 6.504264 0.763113
49.647436 9.341077 0.826745
39.994519 5.521715 -10.042172
35.710131 4.412163 -19.080477
69.971395 45.043424 -13.391732
55.386724 13.215940 -25.814106
43.594732 6.615914 -4.629074
52.975780 11.407246 -10.781110
41.141760 5.818823 -6.658858
54.126420 12.263889 -32.332693
69.958112 42.329396 -7.826857
49.297532 9.158092 -13.158974
58.290593 15.855807 -51.018728
56.037432 13.785568 1.013433
69.977926 44.682325 -52.164234
69.932712 41.913470 -19.687996
69.981598 44.479215 -8.345492
67.865679 31.123243 1.122410
45.228867 7.234533 -30.550848
53.647950 11.907672 -9.447310
57.897569 15.452642 -13.967259
35.624958 4.390105 -56.444691
57.979526 15.536714 -16.939682
65.109846 24.883122 -29.206572
55.349064 13.182972 -39.451402
37.230997 4.806030 2.483382
57.993514 15.551062 -47.755713
67.808195 30.936231 -39.070907
65.635821 25.909150 -22.237005
68.191946 32.184695 -50.421775
43.810378 6.688261 -33.309261
60.330131 18.036803 -41.808188
35.226415 4.286892 -50.919793
58.238986 15.802868 -56.019399
68.994753 35.165825 -24.346675
69.554290 38.138211 -20.295030
48.925722 8.963652 -57.360234
58.118784 15.679565 -52.895473
68.026536 31.646563 -24.662994
46.038491 7.579453 -26.547275
60.487497 18.226085 -18.144898
48.104664 8.534274 -34.192161
37.442720 4.860861 -12.685211
58.155102 15.716819 -25.202911
51.903000 10.709061 0.987044
69.900197 41.381036 -23.991915
36.687867 4.665373 -40.586781
69.583775 38.347343 1.807200
69.522060 37.909615 -7.834724
58.453114 16.022522 2.771896
69.886194 41.151731 -31.772656
69.262220 36.366764 -38.586886
63.984482 22.986147 -2.743841
50.847350 10.045882 -17.908224
69.746616 39.502335 -20.951542
62.853714 21.291099 -59.806104
35.550705 4.370875 -9.540595
67.951020 31.400887 -52.456556
66.411211 27.488536 -55.339781
69.308482 36.574481 -9.208269
65.707169 26.054478 -53.180552
67.679912 30.588366 -19.005276
57.849960 15.403805 -34.874315
61.827985 19.838443 -30.192005
69.368278 36.842966 -54.650656
46.268605 7.677487 -16.317509
56.352467 14.061349 -9.713114
37.936666 4.988781 -52.036478
51.277962 10.316400 -6.505679
36.844299 4.705885 2.802479
45.107127 7.182669 -11.470967
67.182343 29.332746 -52.414390
66.649956 27.989264 -28.214850
58.556777 16.128858 -52.101061
41.141236 5.818687 -18.310636
65.399730 25.428258 -33.835105
52.748070 11.239951 -14.140772
67.237798 29.472688 -33.443124
35.889982 4.458740 -59.437450
69.993798 42.913754 -46.967680
57.283269 14.876171 -11.134587
54.777714 12.748773 -30.062028
63.863366 22.781988 -49.104644
36.322202 4.570675 -45.223549
69.131802 35.781181 -57.833201
39.149455 5.302864 -33.193369
66.470634 27.609574 -42.630007
63.322484 21.955397 -21.924421
58.190877 15.753518 -3.914032
45.092886 7.176602 -50.615043
69.954608 45.971759 -16.253123
69.920013 41.705515 -13.774242
66.857388 28.512721 -11.386373
68.924595 34.850816 -53.990284
69.978885 44.629260 -50.190934
62.021389 20.111604 -30.795697
53.173948 11.554781 -35.785311
63.267730 21.877805 -49.076664
43.453842 6.568648 -43.133988
43.436907 6.562966 -21.878117
43.767152 6.673759 -26.991087
45.830014 7.490636 -31.787543
53.807828 12.026700 -44.600015
55.972420 13.728656 -56.685012
68.176570 32.134673 -57.978545
64.081364 23.149458 -6.755615
55.218582 13.076995 -18.062586
69.434381 37.287732 -21.919133
60.331920 18.038955 1.507829
61.029507 18.878022 2.954154
68.799387 34.288626 -30.407767
38.546638 5.146749 -2.632133
65.463137 25.557411 -33.109791
66.430036 27.526881 -0.890391
41.626908 5.955736 -10.355767
62.488137 20.773038 -16.474060
51.240380 10.292790 -40.817841
70.002508 43.056367 -37.750060
35.282852 4.301508 -10.463891
69.860883 40.737258 -18.877501
69.778949 39.731661 -0.464476
35.809539 4.437907 -32.304498
40.269758 5.592995 -7.880054
41.119284 5.813002 -0.152799
54.834780 12.791258 -43.742052
56.025959 13.775525 -8.904679
37.270821 4.816344 -40.704480
64.034831 23.071018 -31.254764
63.925965 22.887508 -19.135743
53.554864 11.838370 -18.862092
66.306961 27.276191 -33.074327
69.983761 42.749384 0.018036
39.988322 5.520110 -56.138002
37.622610 4.907449 -41.073011
38.534315 5.143558 -31.507357
35.420577 4.337176 -52.003937
67.123402 29.184009 -7.419446
70.004369 43.219916 -39.252774
38.876887 5.232276 -15.573074
59.913169 17.535275 -7.039946
58.735809 16.312510 -4.989987
64.011234 23.031243 -16.700124
69.834990 40.313265 -13.901149
65.893385 26.433781 -19.093890
62.743507 21.134925 -48.987820
44.087928 6.781375 -40.868746
63.016555 21.521863 -44.302813
52.106182 10.836704 -28.611187
68.873358 34.620757 2.842836
62.567096 20.884931 -52.051663
56.145493 13.880164 -42.007171
44.553794 6.946936 -4.110321
69.985622 44.256688 -37.458148
67.455961 30.023224 -33.638201
46.535346 7.791125 -15.716802
66.693766 28.099820 -1.643409
57.774965 15.326875 -49.803794
48.941945 8.972136 -8.710723
39.343123 5.353020 -14.694823
39.562940 5.409947 0.644312
57.257012 14.853186 -11.900503
62.196409 20.359628 -54.223712
43.325351 6.525541 -54.742863
69.366383 36.834457 -54.104324
67.870320 31.138344 -48.200414
65.992491 26.635649 -47.461394
53.851809 12.059444 -9.882234
43.664636 6.639366 -15.668660
44.055521 6.770503 -53.253377
59.275646 16.866276 -32.640061
56.265253 13.985002 -54.356200
66.797624 28.361906 -54.147173
51.828693 10.662380 -1.838892
60.702824 18.485083 -43.302320
53.032904 11.449775 -53.952983
62.501644 20.792178 -7.502594
64.943006 24.601887 -49.369768
69.871883 40.917379 -3.688135
67.641088 30.490392 -34.680632
69.949566 46.250728 -29.455684
47.830124 8.390702 -41.187190
55.874692 13.643106 -40.099865
64.818672 24.392302 -21.283132
49.704906 9.371131 -26.483110
38.306457 5.084548 1.743477
69.511487 37.834622 -58.556924
67.831689 31.012662 -51.177331
66.290078 27.241801 -45.920155
46.253768 7.671166 -32.097716
43.191230 6.480545 -56.375395
65.272320 25.168737 -2.881283
40.970286 5.774415 -21.791231
56.934541 14.570895 -27.479376
66.931549 28.699867 -31.671330
69.802697 39.900103 -44.134393
57.001772 14.629748 -47.654092
69.740129 39.456326 -59.579743
62.349820 20.577027 -21.163544
69.060826 35.462494 -13.897347
51.742823 10.608435 3.857163
69.923202 41.757737 -7.881879
61.634364 19.605553 -58.123158
40.358881 5.616076 -3.530813
36.972799 4.739163 -25.121799
53.528221 11.818534 -31.837583
56.327873 14.039819 -18.793951
64.228824 23.398023 -25.792452
44.444346 6.900949 -58.129097
59.835717 17.442114 -1.569717
53.293398 11.643710 2.067333
37.756305 4.942072 -49.909707
44.983874 7.130160 -25.548103
64.096902 23.175649 -58.655062
62.522100 20.821167 -58.463408
52.268821 10.938877 -53.112021
60.045786 17.694788 -21.736073
65.705117 26.050298 -20.595452
36.075882 4.506884 -36.497474
45.841811 7.495662 -36.728565
60.031938 17.678132 1.135837
68.444811 33.007346 -49.017896
69.397977 37.029528 -61.113012
40.518504 5.657415 -32.622694
47.568495 8.253881 -5.806528
69.453691 37.424692 -32.008194
51.082881 10.193846 -1.911320
37.386981 4.846426 -4.328306
55.733365 13.519388 -46.837872
37.648763 4.914222 -16.415044
60.008898 17.650419 -31.210933
69.771545 39.679149 2.633715
47.206961 8.077249 0.630541
44.893130 7.091501 -9.577168
69.561430 38.188858 -42.817393
59.988892 17.626355 -25.021677
39.401979 5.368262 -41.720484
63.596300 22.343425 -44.382635
60.960182 18.794637 -32.486911
66.962913 28.779013 -2.924466
69.416460 37.160625 3.547904
38.758370 5.201583 -2.049380
50.321261 9.715382 -33.791345
69.968150 42.493761 -26.278249
37.983725 5.000969 2.348876
38.088341 5.028062 -13.283571
68.691234 33.809039 -20.693276
67.719410 30.688038 -47.955356
54.070841 12.222511 -54.005354
60.480784 18.218010 -53.663983
66.151310 26.959146 -20.129659
44.583112 6.959426 -50.043636
39.602020 5.420068 -35.542175
55.713884 13.502334 -29.970700
69.329000 36.666608 -33.338552
52.148700 10.863415 -7.442656
55.899536 13.664854 -36.615869
69.973736 44.914043 -32.286199
40.253352 5.588747 -53.517925
54.250935 12.356589 -41.146174
62.078244 20.192175 -51.340893
53.673058 11.926365 -3.080938
59.259910 16.850134 -53.613959
69.961983 45.563988 -30.468543
50.617131 9.901253 -54.958083
63.821727 22.711799 -38.535891
63.615159 22.370150 -10.364519
42.459521 6.235067 -7.359137
45.116883 7.186825 -57.624617
61.573145 19.531918 -1.686120
69.964196 45.441606 -35.356754
60.470460 18.205592 -42.517276
35.102735 4.254862 -43.097551
69.971184 45.055105 -16.404687
54.529482 12.563966 -15.879757
40.445962 5.638628 -22.558085
66.969537 28.795730 -4.075137
64.957527 24.626364 -38.886485
69.997891 43.578161 -59.764931
69.952397 46.094091 -38.036204
68.800418 34.293257 -15.788447
70.000500 43.433913 -4.487230
69.641991 38.760256 -52.925669
69.952772 46.073303 -17.963845
54.159378 12.288426 -16.832713
63.021651 21.529084 -8.042528
51.361223 10.368706 -35.754548
64.648114 24.104800 -49.318679
69.643787 38.772992 -23.909149
57.176763 14.782936 -51.607741
63.619800 22.376727 -38.210763
52.316772 10.969001 -52.093466
68.256822 32.395759 -3.440641
65.020609 24.732699 -26.671131
64.073781 23.136676 -13.197661
65.696523 26.032793 -60.174715
52.973412 11.405483 -4.196071
47.753612 8.350689 -3.223950
42.424325 6.223259 -47.674721
53.503041 11.799788 -60.990717
67.997898 31.553395 -3.584349
48.739604 8.866320 -38.939117
62.192377 20.353913 0.310409
48.915011 8.958050 -5.665788
68.624135 33.590745 -10.800407
69.902230 41.414311 -36.309734
60.819453 18.625366 -31.945964
52.423579 11.036099 -38.845565
69.975855 44.796815 -45.255711
60.082862 17.739384 -34.265380
63.701635 22.509367 -28.499433
36.279766 4.559685 -18.414505
61.791808 19.794929 -2.204989
57.145314 14.755405 -21.689545
69.901334 41.399645 -54.741736
62.614994 20.952808 -20.992434
40.653263 5.692314 -31.360234
59.528113 17.125257 -0.031058
52.086079 10.824075 -24.326240
37.667091 4.918968 -9.704180
66.014109 26.679681 -1.593471
69.749294 39.521326 -17.445135
58.828901 16.408004 -49.773891
40.942141 5.767126 -22.333154
60.022632 17.666939 -24.441423
56.020531 13.770772 -34.719443
61.256794 19.151407 -23.911232
69.454410 37.429790 -32.500559
69.218360 36.169830 -8.078818
57.052049 14.673761 -52.544859
67.559237 30.283842 -5.819862
54.115388 12.255676 -58.991084
55.072405 12.968168 -13.304988
58.413656 15.982045 -3.346042
49.618843 9.326123 -39.753053
68.906425 34.769232 -22.432924
44.206432 6.821131 -6.381117
69.866591 40.830726 -37.611048
49.645778 9.340210 -21.195477
61.671332 19.650019 -11.274531
67.624607 30.448802 -26.382469
46.115300 7.612175 -18.503215
62.028462 20.121628 -7.325523
69.754868 39.560861 -14.626461
57.871160 15.425552 -12.941915
61.620221 19.588542 -31.243728
58.958273 16.540714 -2.063026
37.259755 4.813478 -2.351997
42.164020 6.135930 -57.205992
47.416341 8.174311 -45.980979
57.469261 15.038988 2.952671
68.524935 33.268017 -13.385851
40.164329 5.565692 3.801330
60.600533 18.362046 -2.949464
63.665606 22.448634 -22.697681
56.670929 14.340129 -48.918263
58.510180 16.081060 -49.915306
69.924867 41.785001 2.294374
55.553778 13.362178 -9.545280
43.891378 6.715435 -7.942997
57.542522 15.103120 -29.694990
67.130130 29.200987 -34.231922
67.775294 30.829192 -13.704519
68.775346 34.180679 -2.581345
55.556633 13.364677 -32.271224
49.021487 9.013732 -36.119962
69.615999 38.575902 -60.143494
55.734616 13.520484 -6.845318
68.234711 32.323824 -17.371434
55.231577 13.086671 -15.880098
66.864009 28.529430 -33.291582
69.987278 44.165132 -17.730114
36.924776 4.726727 -12.401657
64.758603 24.291047 -57.671364
66.944195 28.731780 -49.877658
62.499221 20.788744 -33.326072
69.357052 36.792563 -12.082620
68.456853 33.046522 -0.738590
60.891175 18.711635 -22.321863
41.068277 5.799793 -2.192524
55.200308 13.063390 -10.011927
59.496344 17.092669 -57.276133
69.519118 37.888751 -47.125106
70.000174 43.018146 -52.833308
44.845120 7.071048 -54.597923
65.238647 25.100234 -27.007436
69.555994 38.150298 -36.538842
55.095876 12.985642 -12.226745
34.948702 4.214972 -18.972546
55.298746 13.138924 -4.287463
62.935153 21.406508 -21.936614
64.309930 23.534740 -45.779686
45.050386 7.158496 -33.131996
64.401840 23.689669 -59.053810
63.480451 22.179255 -53.958288
67.765338 30.803938 3.753107
42.412297 6.219224 -12.408904
57.304374 14.894646 -27.711363
37.713639 4.931023 -6.406801
62.533005 20.836620 -25.161715
38.799284 5.212179 -55.624290
38.530366 5.142535 -42.513211
66.490960 27.650977 2.822575
54.131796 12.267892 -55.847952
69.576200 38.293613 -37.164703
69.947867 42.161628 -54.117032
59.685747 17.286959 -44.939766
69.973780 42.585950 -29.120269
53.174143 11.554926 -19.513841
69.879345 41.039582 -39.858274
61.361944 19.277882 -37.086736
56.903373 14.543610 -25.561326
62.393389 20.638769 -27.464665
47.833331 8.392379 -35.013399
65.353091 25.333259 0.122469
69.142336 35.828477 -46.118368
58.231745 15.795440 -41.574271
47.142143 8.049635 -24.167740
69.145383 35.842159 -12.617091
54.501039 12.542790 -48.295767
69.246686 36.297012 -15.266582
69.071151 35.508854 -29.159420
52.990576 11.418261 -13.108010
66.179530 27.016628 0.301959
60.614302 18.378607 -39.924065
69.979987 44.568259 -5.026842
63.326828 21.961553 -47.538979
68.395714 32.847620 -15.725783
35.722382 4.415336 -58.793127
66.231056 27.121579 3.714250
69.916637 41.650231 -55.602067
37.011505 4.749187 -2.835529
35.580764 4.378660 -59.866471
67.754953 30.777731 -29.523316
63.187900 21.764677 -58.647708
53.768398 11.997345 -23.625666
50.767493 9.995714 -19.420319
52.877756 11.334268 -42.815305
69.914232 41.610849 -0.942258
63.842822 22.747358 -32.776879
53.933419 12.120201 -33.201717
46.755067 7.884731 -19.128069
38.338693 5.092897 -14.684808
68.436972 32.981845 -53.154971
69.949579 46.249970 -5.195393
43.953594 6.736308 -29.794359
40.029833 5.530861 -56.736283
69.024143 35.297787 -18.662980
65.684363 26.008024 -54.885893
70.002878 43.302407 -55.343530
54.448010 12.503310 -9.276730
68.574988 33.430855 -5.515164
69.317267 36.613924 -40.704101
62.621610 20.962183 1.544401
39.202829 5.316687 -10.130061
50.777810 10.002195 2.533783
66.167670 26.992470 -40.946518
57.364983 14.947703 -26.657120
54.045694 12.203789 -34.875727
43.362322 6.537944 -30.106988
54.966691 12.889465 -26.513924
43.962292 6.739226 -54.038211
69.282915 36.459684 -10.899057
65.310520 25.246547 -21.555748
41.232646 5.842360 -40.772662
69.831020 40.248256 2.874703
40.275760 5.594550 -29.162448
64.547622 23.935406 -18.155238
44.435743 6.898062 -39.293784
52.216840 10.906222 -10.688823
45.724158 7.445539 -18.107914
57.571297 15.128310 -28.703540
69.991505 43.931348 -6.347582
69.957593 45.806748 -32.536843
64.608945 24.038776 -19.383169
35.601764 4.384099 -4.226391
64.727647 24.238867 -52.153455
69.978874 44.629816 2.547159
53.496803 11.795144 -47.267871
65.166117 24.977974 -58.490378
39.388155 5.364682 -30.579894
60.884570 18.703690 -2.047506
67.137999 29.220844 -43.524400
63.762441 22.611864 -23.809951
67.706009 30.654221 -10.361203
69.954017 42.262331 -8.441469
65.241508 25.105977 -23.808007
67.118502 29.171643 -19.150226
61.715406 19.703031 -3.829651
66.919075 28.668389 -46.694030
69.387931 36.958271 -43.694368
67.402643 29.888674 -48.841255
55.765243 13.547294 -52.687543
61.580081 19.540260 -41.407141
69.976962 44.735613 -41.635641
65.692933 26.025480 -6.675116
37.444421 4.861302 -24.679102
69.983694 44.363267 -0.847607
69.155158 35.886052 -22.811201
40.600442 5.678635 -39.512495
48.825380 8.911177 -19.219827
69.960954 45.620911 -44.257421
51.225120 10.283204 2.322249
53.563741 11.844978 -21.064579
46.901371 7.947060 -9.145305
57.374987 14.956460 -59.961092
59.875459 17.489917 -23.358091
36.232456 4.547433 -14.448388
69.995032 43.736297 -24.333875
56.114669 13.853180 -33.110808
69.961551 42.385700 -19.703653
45.007235 7.140113 -59.008249
63.284184 21.901122 -9.493548
63.651005 22.424022 -11.946562
66.971336 28.800269 -3.472926
38.746124 5.198411 -18.691824
37.981564 5.000409 -17.934425
58.209189 15.772302 -46.055011
66.214924 27.088720 -49.563544
54.057086 12.212270 -59.688989
68.703865 33.859729 -25.509649
53.164992 11.548113 -53.142951
45.467506 7.336199 -8.776656
61.015644 18.861348 -8.129104
59.687518 17.288775 -4.838419
51.042298 10.168352 -27.771773
51.403475 10.395250 -17.850689
39.228424 5.323315 -2.341641
69.841859 40.425748 -56.501888
69.463725 37.495860 -21.380114
64.673323 24.147295 -18.651816
69.466097 37.512683 -6.815563
51.083919 10.194499 -54.810769
43.190257 6.480219 -41.385136
36.557874 4.631708 -17.968025
68.929895 34.874611 -43.456936
49.175410 9.094228 -26.142344
68.729283 33.973855 -19.889374
50.617485 9.901476 -59.052489
38.293630 5.081227 -33.387491
69.112301 35.693621 -40.988736
56.906489 14.546338 -60.916659
40.385376 5.622938 -9.549322
69.394158 37.002437 -13.674940
52.894083 11.346423 -0.310102
69.955900 42.293162 -12.506376
35.469115 4.349746 -37.967679
38.608198 5.162692 -10.748103
56.020795 13.771004 -9.412013
61.966891 20.034375 -53.629863
62.308852 20.518971 -19.128946
67.103300 29.133282 -16.458920
57.500340 15.066194 -4.212811
67.275388 29.567547 -56.086616
61.340716 19.252350 -27.086469
38.286470 5.079372 -39.746074
69.153439 35.878332 -61.039222
55.204085 13.066203 -29.169586
54.472508 12.521549 -47.694170
69.125853 35.754470 -37.908136
52.744705 11.237837 -35.196814
61.852389 19.872114 -54.203535
69.783444 39.763548 -7.262925
55.355925 13.188978 -53.919239
62.991802 21.486786 -14.359634
69.988075 44.121052 -13.531581
57.818858 15.371900 -57.187679
69.964716 42.437521 -24.428952
47.484559 8.209987 -35.984839
69.980405 44.545217 -51.121203
67.340998 29.733114 -17.365910
42.070802 6.104657 -55.198416
44.296576 6.851374 -30.956898
41.319633 5.864888 -14.324849
66.828212 28.439095 -34.957796
70.001990 43.047886 -20.572975
69.871276 40.907452 -36.631865
43.309874 6.520348 -22.779642
68.886663 34.680499 -19.652090
69.921534 41.730415 -22.291363
48.626171 8.807000 -8.093407
39.070995 5.282545 -20.662476
61.756846 19.752877 -19.204259
65.050401 24.782917 -11.766150
68.598052 33.505890 -48.855462
61.348210 19.261363 -42.256548
39.091622 5.287887 -57.336068
58.624215 16.198037 -46.344424
52.152017 10.865499 2.761290
69.863821 40.785365 -20.064418
67.674414 30.574490 -44.674499
61.657586 19.633485 -49.183729
56.657963 14.328779 -47.130836
59.350498 16.943059 -4.654822
68.302247 32.543541 -10.056770
57.615561 15.167058 -51.966539
36.236578 4.548500 -22.537511
61.487237 19.428586 -52.701001
43.397308 6.549681 -44.198790
51.827249 10.661473 -22.074165
42.831216 6.359765 -12.969223
60.499455 18.240468 -45.681332
66.062537 26.778324 -42.402988
53.335179 11.674816 -15.732065
69.999431 43.493029 -14.405124
63.959386 22.943845 -14.581693
68.761699 34.119406 -47.397735
36.791002 4.692082 -22.791021
59.167145 16.754975 -21.500994
63.646329 22.416139 -24.244139
66.621814 27.918247 -59.480705
54.227104 12.338847 -24.896336
35.803215 4.436270 -25.537795
46.604916 7.820763 -15.043389
52.347588 10.988360 -54.140312
36.134308 4.522014 -20.326029
68.392821 32.838206 -1.559832
48.824828 8.910889 -10.360392
68.794215 34.265402 -35.313428
44.028619 6.761478 -26.267349
50.586129 9.881778 -38.946004
59.189547 16.777956 -48.965561
57.700144 15.250123 -14.435293
48.230728 8.600200 -33.710835
69.215131 36.155329 -47.521054
56.449392 14.146197 -0.659736
47.548510 8.243430 -16.525464
69.284004 36.464572 -13.758973
67.499273 30.132522 -40.327429
35.089535 4.251444 -32.292561
67.687374 30.607197 -38.279955
68.198108 32.204743 -44.123305
65.760113 26.162318 -52.607204
41.370512 5.878064 -52.619724
50.549242 9.858604 -57.939389
70.001421 43.382954 -60.549905
69.988771 44.082503 -7.203647
68.127348 31.974536 -55.798982
41.219921 5.839065 -43.118884
70.004686 43.202406 -33.141571
52.151107 10.864927 -35.566158
57.840216 15.393809 -24.621645
67.146972 29.243487 -32.586051
64.644084 24.098008 -9.881651
65.410841 25.450889 -6.522186
54.929498 12.861775 -6.810841
38.225999 5.063712 -44.240714
52.559891 11.121733 -29.974648
67.122486 29.181698 -24.049244
68.004841 31.575983 -59.388493
62.801036 21.216450 -58.199749
39.841999 5.482216 2.435643
69.622248 38.620223 -51.246033
64.928597 24.577599 2.692568
64.957436 24.626211 -2.004978
69.895505 41.304205 -60.796681
68.841109 34.475957 -28.320658
44.312102 6.856582 -61.092068
37.222757 4.803896 -50.353154
43.853341 6.702674 -9.687730
70.004860 43.192785 -25.282827
66.635748 27.953412 -53.704276
47.249484 8.095365 -44.841046
44.092009 6.782744 -34.815540
68.523718 33.264056 -59.213010
64.976724 24.658723 -52.304691
42.898355 6.382289 -54.441918
55.302539 13.142244 -56.551007
67.325107 29.693014 -1.114389
69.877236 41.005042 0.351950
55.442466 13.264736 -22.198357
37.999567 5.005071 -2.264282
42.131268 6.124942 -6.754006
66.300373 27.262770 -10.346962
58.722459 16.298815 -17.203266
52.510999 11.091018 -54.584441
62.528376 20.830061 -42.162176
42.436752 6.227428 -5.843162
64.399870 23.686348 -4.520591
66.545448 27.761963 -10.619792
36.137952 4.522958 -7.964428
69.574056 38.278410 -19.742762
64.012438 23.033272 -39.609612
41.038102 5.791978 -32.429175
64.698843 24.190312 -27.087766
56.090904 13.832377 -34.119285
58.144954 15.706410 -37.643385
59.969219 17.602692 -60.136293
57.057916 14.678897 -4.561212
57.084963 14.702574 -59.371191
67.709501 30.663034 -57.375612
49.650051 9.342444 -21.792490
51.763208 10.621241 -27.149217
53.336114 11.675512 -14.912119
62.665042 21.023731 -28.217481
48.224180 8.596776 -6.896321
69.021788 35.287213 -40.067443
45.340558 7.282116 -35.215999
67.764778 30.802525 -20.581121
39.512704 5.396937 -11.667569
50.681997 9.942004 -5.712141
59.597663 17.196601 -21.778712
36.553698 4.630626 -7.426611
56.917183 14.555700 -23.349959
55.772570 13.553708 -15.570141
45.772629 7.466189 -0.464877
59.450367 17.045505 -52.988802
35.124223 4.260427 -34.973385
44.538720 6.940514 -48.938751
69.553650 38.133679 -29.855058
52.379362 11.008321 -51.628097
68.256311 32.394095 -59.920888
60.547470 18.298222 -1.726741
69.983401 44.379506 -54.534110
51.331561 10.350072 -58.415556
60.415702 18.139729 -15.355859
40.206080 5.576504 -2.738052
57.508263 15.073130 -22.607707
59.053664 16.638566 -19.656810
35.700187 4.409588 -57.506602
35.459505 4.347257 -47.521849
69.926841 41.817317 -58.959830
59.773287 17.376757 -37.247806
40.367684 5.618356 -57.098476
69.245832 36.293180 -24.817650
61.868210 19.894534 -50.263678
68.277446 32.462855 -27.866403
58.336264 15.902656 -51.585770
42.930280 6.393000 -35.224211
64.770889 24.311758 -13.841589
53.908737 12.101826 -28.372440
