-46.165386 -4.936295 -45.507939
-37.141095 2.362140 -16.882284
-49.473872 -9.081098 1.041765
-31.397227 5.159176 -41.555493
-51.038881 -11.505736 -31.291379
-56.559949 -29.686240 -7.235270
-56.598446 -32.956827 -26.017319
-40.459050 0.154187 -22.457035
-53.772987 -17.038453 -7.275946
-44.392985 -3.118163 -10.965678
-39.995084 0.499607 -33.779836
-30.883724 5.360131 -56.450650
-34.769641 3.644314 -19.352475
-48.266360 -7.411699 -26.439693
-26.904035 6.603034 -14.584651
-28.505009 6.158100 -21.665804
-41.381026 -0.532216 0.376280
-29.510892 5.820665 -20.269121
-56.242271 -26.358750 -52.812830
-42.406703 -1.360762 -57.505171
-50.436904 -10.491012 -50.174852
-45.494697 -4.248302 -4.974956
-47.322761 -6.276723 -32.701830
-47.559692 -6.561708 -56.613125
-40.423061 0.180982 -59.828159
-55.346826 -21.724761 -57.861287
-55.607090 -22.893355 -46.172103
-56.603974 -32.650962 -41.603534
-56.626023 -31.432042 -27.244001
-51.007950 -11.453597 -12.080619
-55.260187 -21.416117 -34.843703
-36.857919 2.540035 -37.418326
-41.139484 -0.352390 2.153420
-41.846489 -0.878751 -60.637021
-56.494879 -28.620722 -2.366970
-47.952711 -7.034436 -42.145399
-43.713847 -2.505034 -45.333424
-44.644087 -3.375744 -25.121381
-55.803363 -23.774630 -33.053333
-54.431894 -18.721501 -37.742364
-28.971394 6.001646 -31.132162
-33.684783 4.184563 -35.495779
-50.852983 -11.192377 -1.493024
-38.370870 1.589581 -31.003828
-49.219690 -8.720895 -47.447470
-37.931542 1.865572 -53.945695
-40.860142 -0.144422 -6.015465
-23.072975 7.595190 -21.412161
-39.064942 1.153556 -6.563583
-49.055897 -8.488783 -0.561217
-46.948987 -5.827143 -35.954159
-38.842471 1.293315 -60.608093
-41.930251 -0.943677 -16.122881
-22.195791 7.822361 -13.332154
-23.816410 7.402658 -4.805588
-26.578622 6.687309 -53.813644
-52.623244 -14.441711 -31.874559
-27.052889 6.564484 2.752161
-48.603943 -7.848315 -0.015492
-52.369694 -13.925258 -11.243506
-56.619955 -30.668840 -54.661861
-52.219618 -13.619568 1.599174
-55.007238 -20.593217 -26.112324
-38.577796 1.459588 -3.649210
-39.396068 0.945539 -51.055175
-48.577100 -7.810275 -27.878707
-41.950262 -0.961195 -21.083551
-38.858336 1.283349 -59.972139
-56.088799 -25.270208 -24.756190
-27.572076 6.430027 -21.980399
-56.529593 -29.189168 -11.380154
-21.571991 7.983911 -55.374547
-30.898024 5.355334 -33.692642
-47.517640 -6.511127 -33.165189
-56.611622 -32.227799 -59.666106
-36.335031 2.825684 -29.382980
-25.527058 6.959640 -36.747339
-40.366780 0.222882 -3.238693
-47.734280 -6.771704 -0.609971
-52.616854 -14.428696 -45.867701
-54.017204 -17.654754 -7.406014
-56.289167 -26.691368 -4.330805
-56.279061 -26.619690 -53.724759
-55.039288 -20.697485 2.371990
-43.359849 -2.195144 -45.634258
-45.070327 -3.812982 -21.228452
-47.165044 -6.087020 -57.819021
-50.316784 -10.288531 -25.533809
-56.011153 -24.719485 -20.890030
-55.811175 -23.809705 -38.443318
-40.137368 0.393678 -21.571252
-41.573568 -0.675563 -4.898704
-43.698097 -2.491245 -12.341913
-45.753162 -4.513435 3.796964
-55.858877 -24.023891 -14.114570
-37.946405 1.856235 -24.712752
-52.870404 -14.945150 -19.532125
-24.397279 7.252226 -55.762302
-39.003152 1.192374 -15.335931
-50.506206 -10.607832 -52.253155
-41.592561 -0.689703 -42.005986
-50.556097 -10.691930 -35.413302
-55.559632 -22.680269 -25.309457
-56.268276 -26.543196 -11.997497
-50.783217 -11.074776 -9.700409
-56.497301 -28.660372 -9.564422
-36.511606 2.733342 -23.987708
-38.396693 1.573359 -33.898244
-28.035248 6.310076 -50.386963
-21.979715 7.878319 -4.965762
-30.433896 5.511031 -42.830269
-56.579480 -34.005237 -22.069091
-25.141502 7.059490 -8.276463
-53.119815 -15.453174 -60.987355
-47.041524 -5.938448 -44.136802
-47.901841 -6.973249 -38.773930
-56.183679 -25.943171 -29.419457
-38.896769 1.259205 0.001238
-35.014608 3.516207 -6.604443
-56.583182 -33.800590 -24.744520
-55.341033 -21.698750 -16.410531
-56.102778 -25.369359 -59.478053
-46.349979 -5.125651 -43.917528
-39.140651 1.105995 -24.494361
-56.213341 -26.153555 -57.274836
-22.219838 7.816133 -45.002290
-55.846285 -23.967350 -13.430956
-27.664379 6.406123 -29.803821
-46.574890 -5.377174 -37.623320
-47.895931 -6.966140 -50.313926
-56.470755 -28.225685 -26.454587
-27.676357 6.403021 -57.410375
-39.235309 1.046530 -57.363997
-26.887105 6.607419 -39.498740
-56.063703 -25.092208 -19.929105
-45.650840 -4.408473 -24.935419
-55.144852 -21.040907 -28.361335
-43.697561 -2.490777 -20.999866
-22.759757 7.676307 -6.754725
-36.407015 2.788039 -10.733443
-42.815028 -1.718209 -31.442720
-52.648245 -14.492635 -8.697685
-43.938216 -2.701446 -23.823640
-28.271233 6.236524 -3.152319
-30.465294 5.500498 -52.503587
-42.617870 -1.545618 -24.359014
-55.888989 -24.159091 -48.436805
-50.505081 -10.605934 -33.776022
-32.746883 4.584156 -28.825909
-23.231434 7.554153 -54.280280
-56.406493 -27.523535 -57.955635
-54.417607 -18.675023 -53.963144
-54.298039 -18.363462 -19.948144
-50.511259 -10.616349 -7.031159
-50.678129 -10.897634 1.756615
-49.463560 -9.066485 -0.964687
-46.080050 -4.848758 -1.159296
-32.714821 4.597816 -17.969364
-54.588702 -19.231631 -5.389492
-38.492964 1.512880 -7.210262
-30.122966 5.615337 -11.107133
-34.009197 4.041992 -12.488775
-49.058169 -8.492002 -6.540918
-37.904831 1.882352 -56.094850
-54.602542 -19.276655 -50.961598
-56.572428 -29.890590 -27.071320
-43.392864 -2.224045 -55.980756
-31.909893 4.940755 -43.569500
-28.624764 6.117927 2.856046
-56.615763 -31.999014 -54.241388
-56.540858 -31.158624 -61.120979
-48.813683 -8.145539 -20.700680
-44.455772 -3.182570 -45.415611
-44.972419 -3.712547 -40.306081
-31.698398 5.030863 -11.809375
-37.118607 2.376268 -40.914047
-56.270090 -26.556063 -15.988739
-24.674723 7.180375 -38.558208
-35.315426 3.358892 -20.502728
-49.556281 -9.197880 -1.556751
-27.606096 6.421217 0.248802
-51.367176 -12.059127 -16.260678
-54.485813 -18.896911 -33.093597
-36.595858 2.689282 -49.326556
-56.576884 -29.963547 -51.729693
-48.349563 -7.511776 -19.603566
-53.808816 -17.128871 -58.352171
-32.578596 4.655854 -59.836578
-30.845797 5.372854 -32.667944
-51.493209 -12.271575 3.814786
-27.717490 6.392368 2.206244
-27.961639 6.329139 -6.171336
-42.648191 -1.572160 -11.649412
-46.429748 -5.207479 -11.426705
-56.585964 -30.112232 -42.493529
-40.077826 0.438006 -55.210217
-26.477105 6.713599 -45.560362
-54.761306 -19.793148 -58.902046
-22.750845 7.678615 -54.542133
-55.728829 -23.439971 -60.144146
-22.770552 7.673511 -32.141254
-54.912919 -20.286379 -2.220316
-46.337727 -5.113083 -48.453334
-47.695062 -6.724533 -60.858793
-40.104419 0.418208 -18.634732
-50.398592 -10.426431 2.078284
-29.742557 5.742950 -43.157368
-54.836437 -20.037565 -43.137303
-53.494252 -16.335047 -22.246232
-48.395022 -7.566455 -54.757437
-50.173626 -10.072725 -0.456243
-54.690490 -19.562768 -12.066490
-56.172985 -25.867319 -45.005580
-52.163029 -13.504302 -41.008004
-32.660551 4.620937 -45.264302
-40.999388 -0.248090 -17.834334
-47.565939 -6.569222 -3.924945
-28.202238 6.259669 -15.565458
-45.569920 -4.325465 -33.530718
-24.544353 7.214137 -5.134109
-49.637324 -9.312728 -43.550487
-44.202082 -2.932433 -12.149712
-56.609328 -32.355231 -18.145677
-48.837589 -8.179416 -4.499649
-41.057483 -0.291341 -41.533198
-53.454330 -16.234300 -18.939808
-36.635523 2.668539 -60.334852
-34.559319 3.754303 -1.851331
-38.569304 1.464922 -39.860892
-43.544176 -2.356504 -3.089603
-53.850128 -17.233124 -37.558573
-49.623191 -9.292699 -30.167212
-47.276378 -6.220933 -27.290259
-52.570884 -14.335060 -57.161432
-34.011994 4.040530 -10.604445
-55.893370 -24.178764 -12.752934
-45.611584 -4.368204 -9.587328
-30.768275 5.398860 -48.919631
-56.603652 -32.669158 -8.949113
-54.684740 -19.544064 -33.773699
-55.375537 -21.853676 -5.166756
-42.238977 -1.213936 -12.081082
-54.864479 -20.128792 -9.647542
-40.214895 0.335959 -36.296697
-41.226773 -0.417376 -38.664775
-43.089589 -1.958559 -58.188801
-38.097022 1.761615 -32.054676
-56.485088 -28.460384 -5.657833
-48.134036 -7.252536 3.011941
-48.332693 -7.491485 -9.525078
-34.528942 3.770189 -2.440773
-38.374916 1.587039 2.145863
-49.518466 -9.144293 -35.600787
-28.471930 6.169197 -58.743464
-25.661244 6.924888 -49.028590
-24.589397 7.202472 -19.659783
-44.017883 -2.771186 0.776676
-31.192706 5.246312 -11.956834
-54.633558 -19.377557 -49.491776
-42.172014 -1.155316 -35.646897
-53.238152 -15.694214 -60.382505
-29.773355 5.732618 -1.002981
-48.858633 -8.209238 -39.620666
-36.429626 2.776214 -23.449015
-30.193145 5.591794 -5.867650
-53.571977 -16.531190 1.768807
-30.448678 5.506072 -0.914336
-24.115650 7.325162 -34.018282
-26.386211 6.737139 -19.940154
-55.712378 -23.366102 -15.608919
-23.563053 7.468271 -58.852016
-31.744278 5.011315 -15.008900
-51.385502 -12.090018 -40.981816
-51.513824 -12.306326 -0.222340
-44.787863 -3.523230 3.112242
-56.468487 -28.188555 -53.698146
-33.104525 4.431782 -39.160163
-25.152726 7.056583 -14.688501
-48.048876 -7.150105 -44.889268
-47.996709 -7.087358 -3.032667
-55.850451 -23.986058 -56.238450
-53.263851 -15.753613 -23.266538
-49.501652 -9.120466 -44.033673
-55.738151 -23.481825 -17.393576
-22.725105 7.685281 -42.594643
-56.592298 -33.297020 -4.641818
-50.650951 -10.851820 -30.058673
-45.487033 -4.240439 -37.987255
-45.565740 -4.321177 -8.906202
-51.489680 -12.265627 0.592412
-48.130499 -7.248282 -41.240304
-25.674259 6.921518 -56.205555
-25.012805 7.092819 -44.744192
-23.489851 7.487229 -53.777319
-50.540949 -10.666396 -51.016118
-24.119342 7.324205 -23.431576
-26.903346 6.603213 -53.407123
-52.004158 -13.180699 -35.689085
-34.812794 3.621747 -60.780146
-30.067643 5.633896 -45.617932
-56.622480 -31.627946 3.319500
-27.237375 6.516707 -16.668429
-32.374434 4.742838 -54.187999
-48.762258 -8.072665 -8.045603
-23.561696 7.468623 -33.909753
-40.509622 0.116538 -17.984212
-30.858787 5.368496 -19.809611
-50.458288 -10.527058 -48.050963
-55.923727 -24.315066 -61.084632
-23.301324 7.536053 -39.987868
-39.958286 0.527003 -27.284705
-50.758466 -11.033054 -24.009277
-51.987379 -13.146522 -17.532436
-52.032745 -13.238928 -28.365837
-55.329216 -21.645694 -59.068124
-26.335332 6.750315 -4.188203
-39.296780 1.007913 -30.114829
-49.841803 -9.602497 -60.461616
-30.451032 5.505283 -59.930411
-56.297758 -26.752301 -58.700761
-41.358113 -0.515158 -49.454784
-41.146126 -0.357335 -11.404816
-33.301629 4.347806 -55.026603
-56.488112 -28.509911 -46.346468
-56.631194 -31.146038 -10.810639
-43.161933 -2.021889 -38.553462
-36.813088 2.568198 -39.117897
-30.865529 5.366235 -13.099086
-55.760650 -23.582846 -4.516021
-40.677021 -0.008090 -50.563111
-39.073421 1.148230 -43.925888
-48.187631 -7.317002 -11.130611
-24.860828 7.132178 -45.226523
-30.500538 5.488675 -45.108356
-21.562983 7.986243 -3.348035
-56.287331 -26.678344 -48.477438
-23.972664 7.362192 -56.293290
-43.348290 -2.185025 -34.719332
-56.612684 -32.169319 -48.975736
-44.888951 -3.626926 -34.058987
-49.935277 -9.734960 -30.049449
-50.742103 -11.005471 -30.675432
-46.537582 -5.332299 -50.745167
-23.780371 7.411991 -3.313784
-35.666410 3.175343 -15.672116
-56.579737 -30.010275 -60.809434
-51.069049 -11.556590 -21.647231
-56.600701 -32.832129 -28.820509
-42.767705 -1.676782 1.431848
-41.233198 -0.422160 -34.347703
-27.184324 6.530446 -51.669699
-51.217902 -11.807504 -33.532818
-56.632434 -31.077506 -34.651181
-40.428052 0.177265 -30.707206
-26.794102 6.631504 -56.159500
-50.839304 -11.169319 -12.777686
-51.204796 -11.785411 -27.985090
-29.202334 5.924174 -22.857377
-33.122109 4.424291 -40.798117
-52.556676 -14.306119 -61.086125
-46.253129 -5.026303 -47.264927
-56.326822 -26.958446 0.040207
-37.690220 2.017173 -58.513722
-35.466687 3.279789 -51.592704
-24.032391 7.346724 -14.566856
-34.755669 3.651620 -47.617996
-55.255819 -21.401906 -36.917529
-52.468545 -14.126607 -4.806364
-28.318177 6.220776 -1.243943
-36.463001 2.758761 -9.748805
-53.794966 -17.093921 -38.393111
-47.212687 -6.144326 -52.025191
-55.005224 -20.586666 -49.420141
-40.169079 0.370069 -43.020527
-56.194028 -26.016570 -38.619405
-56.200799 -26.064594 -48.087370
-56.628898 -31.273044 -39.864699
-53.707040 -16.872031 -51.549332
-55.405812 -21.989609 2.939566
-24.650931 7.186536 -18.503870
-36.652580 2.659619 -45.906313
-56.188904 -25.980225 -2.128971
-55.522928 -22.515466 -56.061975
-56.150002 -25.704305 -17.276405
-40.558288 0.080306 0.710160
-36.989210 2.457557 -8.453169
-46.403739 -5.180799 -55.083377
-41.516418 -0.633015 -7.166160
-31.664328 5.045378 -34.357636
-43.675837 -2.471759 -59.582254
-41.670565 -0.747777 3.177966
-23.324556 7.530037 -54.815406
-56.104079 -25.378586 -7.495062
-36.838766 2.552067 -48.803788
-53.612149 -16.632567 -23.664340
-42.098298 -1.090785 -41.268450
-56.534331 -29.266751 -22.355739
-56.596973 -33.037759 -47.939379
-51.128651 -11.657057 -52.482514
-48.045869 -7.146489 -46.463434
-56.330421 -26.983974 -54.497601
-48.872430 -8.228790 -27.059292
-49.660241 -9.345203 -4.192598
-39.998452 0.497100 -60.785971
-23.514268 7.480906 -21.152751
-56.631685 -30.860918 -60.170539
-48.847005 -8.192759 -31.282984
-50.937961 -11.335619 1.988395
-37.870528 1.903902 -50.187541
-43.006371 -1.885710 -25.229350
-56.154413 -25.735591 -41.175941
-56.509877 -28.866311 -51.548287
-47.344441 -6.302800 -0.825050
-56.246704 -26.390187 -7.087920
-56.060126 -25.066838 -39.302377
-24.041192 7.344445 -29.330249
-53.983636 -17.570042 -3.216816
-53.462724 -16.255483 -6.582558
-53.038087 -15.286703 -1.668884
-52.750610 -14.701143 -38.770528
-43.283172 -2.128021 -18.398909
-56.602158 -32.751734 -11.666117
-37.999739 1.822730 -46.100412
-56.633702 -31.007386 -24.084152
-45.715200 -4.474493 -40.274046
-48.811897 -8.143008 -0.848905
-23.431888 7.502240 -17.945282
-26.778779 6.635473 -51.993940
-47.755532 -6.797267 -8.779728
-33.762201 4.151580 -24.640099
-28.630652 6.115952 -39.967786
-32.300075 4.774518 -14.399031
-54.593219 -19.246327 -20.232182
-32.508170 4.685859 -27.020334
-22.452027 7.756002 -19.354789
-31.264753 5.215617 -6.331401
-44.893275 -3.631362 3.557082
-45.337369 -4.086914 -36.253367
-56.627121 -31.371277 -53.483948
-42.629693 -1.555967 -38.359492
-56.078913 -25.200089 -41.459225
-55.935724 -24.368937 -30.249824
-46.656011 -5.474747 -15.039150
-52.265230 -13.712475 -16.018724
-30.023352 5.648753 -48.857796
-30.303648 5.554725 -34.495940
-44.721076 -3.454719 -42.318445
-48.189235 -7.318931 -6.174235
-51.582207 -12.421595 -5.354425
-54.631861 -19.372038 3.276613
-53.995815 -17.600776 -23.054372
-55.972975 -24.536194 -41.619327
-53.715335 -16.892966 -28.803482
-39.649873 0.756614 -9.960299
-47.850968 -6.912059 -0.167816
-45.234998 -3.981902 -40.685665
-55.536166 -22.574904 -2.158697
-54.862170 -20.121280 -46.200316
-56.324010 -26.938498 -41.263400
-40.105816 0.417168 -55.893174
-52.346868 -13.878763 -15.504737
-56.168862 -25.838077 -10.177939
-54.442706 -18.756675 -25.882934
-32.313813 4.768665 -44.724421
-45.368431 -4.118777 -25.786021
-33.161838 4.407364 -46.740767
-56.579904 -33.981648 -28.581365
-56.483533 -28.434928 -32.550376
-56.592380 -33.291959 -33.375835
-42.917497 -1.807910 -47.672455
-37.294864 2.265541 -14.922538
-55.437887 -22.133630 -31.814118
-48.568028 -7.797419 -3.251573
-56.526789 -29.143239 0.383231
-49.540515 -9.175538 -34.212639
-30.321612 5.548698 -15.936095
-36.323628 2.831647 -5.592576
-54.378346 -18.566122 -52.082582
-53.328730 -15.917340 -14.279202
-47.906187 -6.978476 -9.769002
-23.492906 7.486438 -33.260104
-38.157247 1.723781 -1.324814
-52.933243 -15.073145 -16.478045
-46.891776 -5.758329 3.332210
-43.039619 -1.914816 -51.543426
-54.821303 -19.988333 -59.415103
-56.603806 -32.660638 -23.680419
-50.102715 -9.972236 -26.213706
-36.066063 2.966342 -32.498667
-55.274445 -21.462501 -52.471763
-56.170857 -25.852224 -18.661930
-40.581220 0.063233 -57.229775
-45.795788 -4.557161 -59.635694
-45.080051 -3.822957 -44.000354
-23.122195 7.582443 -50.831826
-53.929711 -17.433959 -31.332424
-30.639987 5.441896 -31.327488
-54.960019 -20.439604 -5.504491
-40.666846 -0.000515 -31.966394
-53.158164 -15.531287 -39.960145
-36.320521 2.833272 2.462793
-27.605808 6.421291 -52.171760
-30.300196 5.555883 -47.981280
-33.605414 4.218379 -22.435829
-30.100211 5.622970 -55.688929
-43.095042 -1.963333 -10.256638
-41.791969 -0.838161 -27.266788
-55.821260 -23.854986 -50.179599
-56.327513 -26.963348 -34.919919
-32.775225 4.572081 -17.165914
-28.083308 6.297630 -5.038494
-56.609253 -32.358821 -56.365684
-54.672528 -19.504335 -23.873218
-31.144864 5.266695 -61.047004
-37.844504 1.920250 -0.022004
-56.042400 -24.941112 -28.062689
-51.016353 -11.467761 -58.014125
-26.505154 6.706335 -20.988148
-39.306143 1.002031 -1.549010
-47.588490 -6.596346 -1.218942
-56.544364 -29.431032 -25.457121
-26.917957 6.599429 -23.250936
-52.906484 -15.018640 -13.015349
-45.838499 -4.600974 -56.634448
-24.548880 7.212965 -54.113794
-24.170842 7.310868 -53.645921
-28.554999 6.141331 -11.260711
-51.589284 -12.433524 -33.880396
-47.082263 -5.987450 -37.775034
-47.867798 -6.932302 -29.320227
-49.486347 -9.098776 -26.112684
-22.602996 7.716904 -26.983303
-56.596743 -33.050158 -61.048304
-29.189969 5.928322 -21.253351
-49.636065 -9.310943 -27.254725
-40.185944 0.357513 0.987319
-53.428743 -16.169728 -42.288635
-56.618526 -31.846599 -17.917355
-36.164178 2.915032 -26.247810
-54.265844 -18.282214 -38.062981
-56.630446 -30.840630 -25.721772
-53.081545 -15.375221 -31.354765
-55.168244 -21.117006 -51.579516
-53.593579 -16.585704 -60.645112
-52.874659 -14.953817 -18.943267
-22.716735 7.687448 -38.216446
-38.299617 1.634343 -51.078000
-50.563681 -10.704713 -56.591322
-41.766919 -0.819511 -59.532963
-45.747004 -4.507118 -12.478266
-54.421563 -18.687892 -36.530523
-27.035671 6.568944 -50.883317
-50.746898 -11.013554 -37.166143
-52.403887 -13.994905 -31.660546
-48.793691 -8.117208 -17.760605
-35.953529 3.025192 -51.572560
-50.051819 -9.900112 -46.730370
-56.373200 -27.287390 -27.463028
-54.603140 -19.278600 -53.027121
-48.149300 -7.270896 -58.063074
-29.834494 5.712108 -35.518277
-55.935900 -24.369726 -36.845940
-29.600308 5.790669 -51.887031
-37.198303 2.326202 -21.304970
-33.519765 4.254869 -29.255154
-56.255801 -26.454713 -46.779879
-27.829913 6.363253 -10.987223
-55.875491 -24.098486 -14.882610
-56.633939 -30.897827 -46.941178
-40.775442 -0.081364 -7.007395
-56.468585 -28.190150 -43.041827
-44.408605 -3.134187 -44.549165
-49.125349 -8.587204 -36.918283
-56.608085 -32.423975 -1.201921
-48.117117 -7.232186 -16.936207
-56.062714 -25.085193 -50.080615
-54.757042 -19.779278 -16.344490
-38.049018 1.791772 -49.577412
-46.341747 -5.117207 -39.337116
-50.416622 -10.456823 -27.683017
-42.645196 -1.569539 -41.653435
-49.775683 -9.508798 -17.969562
-26.095879 6.812328 -35.695999
-25.800048 6.888941 -44.550054
-54.851536 -20.086686 -12.268257
-34.185086 3.950010 -16.929464
-55.525148 -22.525432 -32.161140
-44.804880 -3.540685 -19.197335
-36.536690 2.720225 -47.237065
-55.497273 -22.400274 -61.091204
-51.079843 -11.574784 -54.738590
-56.571681 -29.878355 -45.433081
-56.537437 -29.317610 -28.614277
-56.585741 -33.659491 -9.171766
-48.950478 -8.339392 -32.372645
-51.848898 -12.871143 -27.507153
-25.347555 7.006127 -16.755444
-49.334740 -8.883933 -46.088035
-55.930477 -24.345377 -33.046548
-56.459570 -28.042530 -36.951910
-45.143707 -3.888255 -27.330307
-55.087314 -20.853722 -15.217617
-28.108976 6.290955 -20.664493
-26.853677 6.616076 -20.154573
-45.809301 -4.571023 -34.789293
-28.760878 6.072266 -48.829154
-46.961422 -5.842100 1.501685
-48.584403 -7.820625 -30.654810
-54.166800 -18.032271 -55.478532
-42.442132 -1.391776 -14.150701
-55.504896 -22.434500 -8.887048
-28.796514 6.060311 -13.443732
-22.302066 7.794838 -49.580344
-41.795236 -0.840593 -22.514555
-55.197606 -21.212526 -45.243194
-53.516203 -16.390440 -33.414617
-51.791900 -12.775064 1.098806
-44.660909 -3.393000 -27.488515
-38.355579 1.599187 -20.401920
-56.387952 -27.392025 -46.074820
-46.753269 -5.591730 -33.209355
-56.497713 -28.667119 3.608729
-56.146529 -25.679675 -52.306933
-43.980653 -2.738595 -5.381272
-47.355692 -6.316333 -29.736782
-36.883245 2.524125 -41.902146
-37.000074 2.450731 -17.489342
-39.858500 0.601293 -5.114265
-42.469692 -1.415903 -26.584413
-32.127471 4.848056 -58.944029
-53.743801 -16.964800 -22.013418
-40.120105 0.406530 -1.834930
-53.881840 -17.313153 -14.804961
-29.248314 5.908750 -7.718995
-31.330469 5.187618 -21.678627
-34.661819 3.700700 -8.808540
-42.207462 -1.186347 -5.405090
-48.185082 -7.313936 -27.050091
-51.757620 -12.717280 -48.001631
-53.190476 -15.597102 -19.667090
-55.482610 -22.334436 -29.876263
-30.977211 5.328770 -23.425731
-37.289347 2.269007 -49.798738
-49.427317 -9.015125 -45.135338
-34.351451 3.863009 -34.033959
-45.196269 -3.942173 1.226736
-47.434836 -6.411529 -47.069125
-51.043727 -11.513904 -40.773978
-40.311166 0.264286 -30.221360
-25.142824 7.059147 -11.911419
-52.158226 -13.494519 -55.063891
-47.184214 -6.110077 -29.286305
-49.279927 -8.806257 -3.101157
-56.460956 -28.065225 -2.845071
-55.531735 -22.555009 -45.526883
-48.726175 -8.021531 3.068297
-38.688113 1.390285 -6.185834
-45.595308 -4.351508 -52.855403
-50.394891 -10.420193 2.995052
-48.862773 -8.215104 -30.220004
-51.489078 -12.264612 -19.990765
-56.582472 -30.055057 -30.663680
-56.592129 -33.306382 0.561098
-55.010303 -20.603191 -17.747857
-56.339830 -27.050705 -51.892170
-52.194568 -13.568545 -4.967012
-47.808616 -6.861118 -17.268842
-41.384304 -0.534657 -15.522563
-42.600195 -1.530145 -35.554442
-56.579571 -33.999736 -44.591064
-36.363084 2.811013 -46.525522
-54.453089 -18.790454 3.323646
-23.613491 7.455209 -51.513819
-55.815591 -23.829533 -31.820786
-51.173305 -11.732328 -44.640037
-53.660778 -16.755286 -13.650393
-37.337717 2.238620 -42.260814
-48.760815 -8.070620 -29.369341
-42.688728 -1.607646 -30.289669
-22.600297 7.717603 -4.911524
-30.078800 5.630153 -60.913020
-55.315622 -21.596458 -43.192792
-56.583722 -33.770422 -37.776547
-47.716821 -6.750705 -18.372985
-25.330802 7.010465 -45.428631
-23.969854 7.362920 -12.859768
-32.652817 4.624232 -55.282615
-44.788109 -3.523482 -33.498111
-45.428008 -4.179891 -19.306610
-39.408222 0.936521 -13.843333
-45.120309 -3.864253 -9.830544
-55.021704 -20.640280 3.659446
-30.609024 5.452282 -23.966234
-28.791754 6.061908 -42.326847
-44.760738 -3.495405 -3.365599
-54.274192 -18.303283 2.087406
-56.167349 -25.827341 -9.064487
-56.620734 -31.724528 -8.475140
-56.580234 -33.962850 -54.359875
-56.633750 -31.004741 -3.272270
-51.534969 -12.341968 -2.237013
-50.997898 -11.436653 -36.547570
-47.799267 -6.849872 -23.944541
-56.046872 -24.972833 -29.993149
-35.504132 3.260207 -2.240516
-45.796186 -4.557570 -3.883350
-56.603332 -30.396647 -35.404941
-55.482963 -22.336023 -58.942875
-43.461851 -2.284437 -50.562686
-28.214666 6.255500 -32.721170
-43.641724 -2.441897 -5.238865
-33.185276 4.397378 -45.928977
-43.548645 -2.360416 -11.575026
-33.837131 4.119655 -59.831836
-56.595322 -33.129052 -46.211898
-40.671663 -0.004101 -58.087460
-53.508342 -16.370604 -36.565926
-49.977925 -9.795396 -41.424654
-24.630655 7.191787 -1.484473
-56.586585 -33.612944 1.182131
-51.203961 -11.784004 -9.604473
-26.812149 6.626831 -15.986130
-56.424901 -27.654098 -34.796283
-44.742764 -3.476967 -14.585616
-37.197050 2.326989 -4.892906
-48.665275 -7.935229 -50.026005
-55.654510 -23.106274 -32.073450
-46.841300 -5.697616 -37.277975
-53.255858 -15.733442 2.438321
-27.451455 6.461265 -25.195504
-32.185640 4.823273 -32.656405
-28.479724 6.166583 -57.731121
-55.311919 -21.584411 -38.918873
-39.345662 0.977205 -45.682457
-56.530594 -29.205550 -43.385438
-40.183951 0.358997 -50.457705
-23.918990 7.376092 -40.419936
-31.772482 4.999299 -32.300869
-53.643623 -16.711994 -25.502190
-32.697108 4.605362 -8.620139
-53.134866 -15.483831 -33.368806
-56.615343 -32.022630 -27.292233
-22.143201 7.835980 -26.450999
-56.226267 -26.245232 -17.663503
-40.989579 -0.240788 -27.049976
-50.874808 -11.229166 -0.307545
-54.959292 -20.437241 -9.142330
-36.537482 2.719810 -40.209332
-32.009853 4.898167 -45.232485
-53.489843 -16.323919 -21.097177
-23.562318 7.468462 -55.311594
-55.458188 -22.224780 -26.558736
-56.316254 -26.883487 -28.499340
-24.332738 7.268941 -45.352913
-54.647252 -19.422107 -47.233324
-53.944751 -17.471912 -54.091962
-38.147070 1.730175 -59.710260
-34.726845 3.666694 -50.081634
-56.534345 -29.266976 -51.934559
-56.610244 -32.304390 -40.965994
-44.505340 -3.233417 -1.891912
-52.647677 -14.491478 -1.163991
-36.047712 2.975939 -18.513290
-23.902279 7.380420 -21.697046
-32.260408 4.791418 -5.834715
-29.326432 5.882544 -12.385511
-42.386375 -1.342967 -43.732533
-32.050971 4.880649 -27.421945
-56.628390 -31.301144 -32.968683
-56.624058 -30.736030 -3.984150
-52.132645 -13.442414 -54.384800
-40.609997 0.041809 -28.379318
-34.400078 3.837579 -17.600292
-23.192626 7.564203 -45.838770
-45.451640 -4.204134 -0.897625
-38.456381 1.535862 -53.024173
-41.086225 -0.312740 -23.253000
-56.578089 -29.983283 -58.935622
-44.329697 -3.053242 -29.753498
-56.407590 -27.531315 -9.185477
-28.126715 6.285004 -11.411657
-56.298795 -26.759659 -6.633130
-49.464793 -9.068233 -17.123974
-53.167961 -15.551242 -17.188052
-56.601444 -32.790748 -42.160408
-43.456146 -2.279442 -7.837817
-52.208526 -13.596975 -19.148433
-49.921908 -9.716013 -22.543995
-54.004618 -17.622993 -44.397174
-52.555287 -14.303291 -17.496849
-40.217320 0.334154 -49.313504
-56.075344 -25.174779 -17.084641
-56.269361 -26.550892 -39.679598
-56.623954 -31.546418 -7.365640
-56.594282 -30.248448 -20.720141
-49.365276 -8.927207 -6.787230
-41.642765 -0.727079 -56.063913
-54.618394 -19.328225 -7.448084
-50.712442 -10.955474 -33.398954
-45.675082 -4.433341 -13.971812
-42.505932 -1.447627 -28.013913
-52.710282 -14.618998 -53.672153
-55.662513 -23.142207 -37.205790
-50.737282 -10.997345 -12.181218
-29.462596 5.836866 -60.396274
-48.635688 -7.893300 -55.960250
-56.013434 -24.735661 -26.928445
-23.304122 7.535329 -23.770555
-55.408878 -22.003378 3.725259
-54.772274 -19.828830 -53.786918
-54.679297 -19.526356 -55.811760
-39.649368 0.756990 -38.673620
-56.332353 -26.997673 -42.069529
-41.671744 -0.748654 -2.558406
-55.661431 -23.137349 -2.101053
-56.454983 -27.967428 -6.429778
-46.407396 -5.184550 -42.674721
-50.342982 -10.332693 -19.945581
-50.285545 -10.235874 -7.423790
-37.371361 2.217485 -5.901280
-32.102919 4.858516 -46.416196
-35.088492 3.477569 -22.085637
-24.012190 7.351955 -35.844010
-50.054346 -9.903693 -37.398529
-52.192143 -13.563605 -57.299734
-36.447077 2.767088 -10.238846
-28.462819 6.172253 -8.054677
-44.822620 -3.558883 -22.998705
-56.474638 -28.289276 -60.292072
-47.082959 -5.988286 -59.029256
-45.521910 -4.276217 -54.404146
-54.923534 -20.320912 -39.571237
-37.434465 2.177842 -7.570780
-38.802511 1.318419 -41.076739
-44.775572 -3.510621 -44.233259
-32.728427 4.592019 -57.877751
-35.157337 3.441566 -30.881331
-56.534553 -29.270377 -32.521095
-41.902760 -0.920644 -7.713122
-25.416221 6.988344 -1.314726
-51.273564 -11.901330 -41.990751
-51.994934 -13.161912 -5.690096
-42.867529 -1.764168 -35.021589
-26.540439 6.697197 -37.651021
-45.153044 -3.897833 -12.304380
-54.340712 -18.471149 -49.655277
-56.592791 -33.269376 -27.044028
-54.786339 -19.874585 -12.691081
-49.012847 -8.427776 -5.443873
-29.743117 5.742762 -59.373869
-55.675644 -23.201167 -55.009820
-42.149853 -1.135916 -24.410768
-34.811211 3.622574 -44.711687
-56.448308 -27.858116 -59.620166
-54.449998 -18.780398 -42.253111
-46.370169 -5.146362 -55.716386
-34.532604 3.768274 -4.013833
-37.572849 2.090907 -8.593169
-48.445752 -7.627473 -46.855552
-55.512456 -22.468446 -20.838888
-25.726468 6.907997 -32.011391
-56.229301 -26.266754 3.707915
-29.475712 5.832466 -21.915510
-54.620483 -19.335021 -46.070811
-55.956899 -24.464012 -26.445125
-47.964442 -7.048547 -54.045750
-36.213590 2.889192 -8.353599
-55.995461 -24.637154 -23.242335
-26.517257 6.703201 -34.746754
-56.607921 -30.471778 -31.003556
-31.605892 5.070275 -1.859491
-38.154954 1.725222 -12.285333
-56.066652 -25.113127 -3.684910
-46.445581 -5.223720 -10.016498
-24.341762 7.266604 -52.256879
-22.703868 7.690780 -10.054591
-49.272323 -8.795481 -31.805182
-26.527465 6.700557 -23.655421
-54.892218 -20.219034 -31.313074
-35.389593 3.320106 -16.675228
-47.615382 -6.628693 -19.971739
-52.654953 -14.506300 -6.916414
-48.335824 -7.495251 -2.819127
-54.530178 -19.041239 -55.943653
-56.602327 -32.742426 -17.834936
-52.656524 -14.509499 -48.153407
-55.411421 -22.014796 -52.306856
-26.639180 6.671626 -5.984035
-54.429553 -18.713885 -7.160123
-29.725356 5.748720 -1.721790
-56.590306 -33.407183 -1.519175
-56.582151 -33.856835 -56.741544
-52.614000 -14.422883 -54.821205
-54.925927 -20.328698 -44.954404
-22.107751 7.845161 -35.856650
-53.373131 -16.029389 -20.038142
-50.558330 -10.695695 -22.198602
-47.396841 -6.365828 -17.165963
-42.016642 -1.019304 -60.100459
-54.583005 -19.213098 -35.467530
-56.613943 -30.570396 -31.605073
-56.611656 -32.226537 -17.568886
-44.993379 -3.734048 -35.876423
-30.088051 5.627049 -11.953350
-45.863586 -4.626709 -28.745621
-52.980204 -15.168800 -13.737756
-47.125349 -6.039273 -58.504180
-46.559598 -5.358781 -25.097691
-44.309271 -3.032289 -7.965997
-40.582986 0.061918 -36.464317
-46.437490 -5.215421 -3.456248
-56.350937 -27.129487 -10.523713
-56.129902 -25.561744 -3.448620
-56.480102 -28.378742 2.588349
-31.047235 5.305279 -55.974110
-39.991415 0.502338 -2.923473
-30.281728 5.562078 3.317143
-44.375860 -3.100597 -31.081458
-39.745733 0.685247 -11.821502
-35.838159 3.085525 -14.859076
-44.510723 -3.238939 -11.481476
-32.591647 4.650294 -53.631321
-33.273909 4.359616 -14.976845
-56.581770 -33.879168 0.267155
-25.388556 6.995508 -37.593643
-53.498956 -16.346917 -9.740284
-51.450010 -12.198757 -50.528849
-33.361133 4.322454 -6.576308
-55.357182 -21.771263 -32.346764
-56.580556 -33.945596 -30.000507
-32.469995 4.702124 -11.249082
-54.537271 -19.064317 -23.707617
-43.164591 -2.024216 -59.101485
-21.756180 7.936210 -12.012813
-53.683684 -16.813090 -14.787132
-46.644818 -5.461284 1.348538
-50.991870 -11.426492 -56.234551
-56.605553 -32.563610 -43.496243
-54.811868 -19.957637 -17.815531
-56.162839 -25.795357 -44.526796
-31.322663 5.190944 -20.058852
-53.467097 -16.266517 -39.821897
-53.067194 -15.345991 -22.279770
-29.186321 5.929546 -58.701226
-26.285094 6.763326 -16.147026
-31.047997 5.305023 -27.325079
-34.575367 3.745911 -13.724493
-35.342152 3.344916 -42.222333
-43.098208 -1.966104 -7.530489
-24.517592 7.221068 -58.444453
-55.855877 -24.010420 -54.920003
-55.625003 -22.973786 -17.446733
-24.838578 7.137940 -36.877653
-45.263435 -4.011072 -47.618226
-56.592878 -33.264387 -36.354596
-25.280702 7.023440 -39.661204
-31.142528 5.267691 -9.696366
-51.830040 -12.839355 -46.742002
-29.858379 5.704096 -5.478429
-24.695882 7.174895 -26.687495
-31.926698 4.933595 -44.349785
-56.007063 -24.690475 -40.776059
-44.426961 -3.153015 -50.457531
-25.003562 7.095213 -48.074472
-56.313215 -26.861931 -56.307141
-43.200093 -2.055294 -3.690781
-56.099441 -25.345692 -28.426264
-55.297023 -21.535952 -7.757091
-50.401234 -10.430884 -10.675607
-33.651282 4.198837 -46.698342
-42.150154 -1.136180 -41.972396
-50.922246 -11.309130 -0.948521
-47.223262 -6.157045 -19.826819
-56.077657 -25.191178 -21.060566
-42.527056 -1.466119 -31.045688
-48.238358 -7.378017 -31.614876
-46.644810 -5.461274 -49.609054
-22.745412 7.680022 -30.166041
-37.713082 2.002812 -20.503005
-51.267863 -11.891720 -10.369389
-51.909146 -12.987171 -3.073909
-37.690161 2.017210 -16.013008
-43.264175 -2.111391 -43.778638
-54.877427 -20.170914 -28.285286
-51.748503 -12.701913 -35.509636
-55.771042 -23.629508 -49.697059
-51.761144 -12.723221 -51.769445
-55.856077 -24.011318 -50.984733
-53.860157 -17.258435 -35.817069
-54.317269 -18.411990 -27.956235
-37.086852 2.396217 -27.556012
-52.895515 -14.996299 -39.162638
-30.794737 5.389983 -34.837908
-56.096788 -25.326871 -42.071764
-27.966857 6.327788 -56.539717
-56.617933 -30.635737 -61.047023
-55.948936 -24.428259 -47.187277
-49.815307 -9.564949 -31.282218
-56.073290 -25.160205 -5.650357
-46.691485 -5.517416 -58.700619
-33.764128 4.150759 -8.561542
-51.797596 -12.784667 -42.004251
-41.213298 -0.407344 -1.968105
-33.470277 4.275954 -50.436130
-55.360521 -21.786253 -9.662453
-41.588375 -0.686587 -54.782191
-26.455868 6.719099 -11.615126
-27.406340 6.472949 -55.172375
-42.319055 -1.284036 -0.828778
-44.176987 -2.910465 -34.230011
-21.651924 7.963210 -7.632743
-44.956871 -3.696599 -57.123677
-40.074167 0.440730 -39.329968
-45.528464 -4.282940 -6.806660
-37.311014 2.255395 -12.930151
-43.184981 -2.042065 1.684118
-53.658465 -16.749450 -42.354583
-48.767768 -8.080472 -25.607615
-52.782724 -14.766554 -17.733702
-46.959544 -5.839841 -47.243619
-33.210404 4.386673 -29.740708
-24.437910 7.241704 -42.144372
-35.777092 3.117461 -8.823840
-24.688438 7.176823 -14.314141
-46.190477 -4.962034 -5.301691
-55.348328 -21.731505 -41.498425
-56.595149 -33.139376 -3.521388
-45.759289 -4.519720 -47.554819
-56.190180 -25.989279 -34.269107
-34.961767 3.543840 -28.855670
-51.112813 -11.630360 -35.249714
-39.140550 1.106059 3.859085
-28.227809 6.251091 -42.173155
-37.478310 2.150298 -43.798748
-36.279836 2.854548 -45.575585
-56.569589 -29.844093 -10.634239
-32.513277 4.683683 -23.064085
-52.724421 -14.647797 0.660945
-29.104708 5.956924 -33.715068
-38.192216 1.701813 -4.130555
-45.724190 -4.483716 -61.109927
-29.523763 5.816347 -15.314908
-44.948607 -3.688121 -49.610138
-56.412818 -27.568397 -13.960618
-43.215890 -2.069123 -19.464936
-54.639784 -19.397812 -39.576618
-56.628256 -31.308560 -18.233993
-56.074259 -25.167082 -34.909092
-41.800899 -0.844809 -30.728559
-56.593424 -30.234396 -41.185662
-21.911281 7.896042 -28.225146
-56.177928 -25.902377 -41.842550
-35.964892 3.019250 -29.633657
-43.484000 -2.303826 -2.231469
-30.333157 5.544825 -7.531489
-32.100856 4.859395 -20.594186
-26.875068 6.610536 -34.358851
-41.058631 -0.292196 -12.861361
-56.588967 -33.480959 -18.048760
-43.757373 -2.543136 -31.713923
-53.509239 -16.372868 -29.180795
-51.364019 -12.053805 -5.602270
-30.843605 5.373589 -21.288325
-35.167159 3.436429 -58.416762
-30.689710 5.425215 -37.991793
-46.015487 -4.782529 -58.194997
-56.251464 -26.423947 -1.812045
-51.517266 -12.312127 -28.882043
-41.445974 -0.580570 -24.570496
-37.588630 2.080994 -57.408580
-56.611619 -32.227951 -59.081412
-56.535796 -29.290729 3.843306
-52.584386 -14.362561 -30.588839
-40.478629 0.139612 -23.101409
-56.070958 -25.143667 -40.966401
-48.981373 -8.383173 -2.031820
-39.024109 1.179208 1.401378
-54.441907 -18.754076 -35.093867
-41.982540 -0.989451 -45.601130
-55.697691 -23.300158 -41.703187
-33.590644 4.224671 -27.396949
-46.405081 -5.182175 -47.701461
-24.753257 7.160036 -31.078323
-56.522328 -29.070195 -13.459730
-55.616795 -22.936932 -4.383367
-54.173272 -18.048601 -46.678660
-56.627825 -30.797718 3.818457
-38.498030 1.509697 -45.236289
-51.690776 -12.604605 -14.910173
-54.919635 -20.308227 -30.469488
-31.948915 4.924130 -15.685182
-36.619452 2.676944 -7.282641
-54.570834 -19.173502 -37.809489
-43.409723 -2.238804 -15.329089
-44.350825 -3.074916 -15.072198
-22.189852 7.823899 0.824580
-54.960181 -20.440132 -0.787288
-49.011711 -8.426166 -13.233818
-26.495669 6.708792 -1.620161
-56.530437 -29.202989 -48.115240
-47.655188 -6.676571 -41.970451
-25.683128 6.919221 -39.294466
-23.937080 7.371407 -46.370041
-39.699673 0.719538 -37.245617
-56.243890 -26.370233 -13.398613
-52.013352 -13.199427 -19.410972
-35.452257 3.287335 -27.646322
-53.747729 -16.974713 -52.158692
-46.289317 -5.063424 -30.558529
-22.107041 7.845345 -3.373010
-54.635437 -19.383669 -51.532130
-53.306520 -15.861292 -45.685030
-45.312799 -4.061711 -57.501057
-55.529031 -22.542869 -13.199457
-53.344733 -15.957723 2.939347
-45.122291 -3.866287 -36.860752
-33.904570 4.090923 -28.879529
-44.725934 -3.459703 -38.393337
-49.805830 -9.551518 -16.814803
-38.349262 1.603155 -44.660631
-34.205058 3.939566 -37.328363
-26.550170 6.694677 3.848265
-36.686999 2.641619 -14.300260
-44.568554 -3.298262 -5.976283
-41.073000 -0.302894 -21.317802
-44.215402 -2.944094 -5.935541
-47.582450 -6.589081 -24.331649
-48.262981 -7.407634 -11.657668
-49.202008 -8.695838 -9.112301
-37.448932 2.168753 -13.379747
-34.820395 3.617772 -26.409778
-43.773935 -2.557634 -22.855369
-56.377345 -27.316793 -60.590471
-55.277082 -21.471079 -19.515110
-28.677638 6.100190 -29.266479
-56.567821 -29.815138 -28.344211
-56.591372 -30.200788 -52.162083
-50.923206 -11.310748 -10.584394
-41.397865 -0.544753 -40.649331
-56.303776 -26.794987 -24.416175
-38.831190 1.300402 0.526777
-23.708902 7.430500 -35.466536
-48.078455 -7.185684 -40.295606
-46.994484 -5.881868 -8.857717
-56.631233 -31.143844 -59.591586
-54.704879 -19.609580 -13.632206
-56.051144 -25.003133 -22.596725
-54.178391 -18.061520 -38.648906
-37.100366 2.387727 -32.116535
-56.583338 -33.791398 -49.669521
-56.247297 -26.394392 -43.401459
-46.687577 -5.512716 3.773112
-52.773469 -14.747704 -44.945005
-54.045356 -17.725796 -2.328167
-55.378387 -21.866474 -10.137332
-56.541434 -29.383066 -60.207991
-40.325591 0.253547 -38.090446
-52.560556 -14.314022 -12.301792
-22.025173 7.866547 -22.003718
-36.363250 2.810926 -11.253633
-30.403064 5.521374 -8.860026
-33.050048 4.454992 -11.206268
-35.423771 3.302232 -5.535955
-36.665074 2.653085 -57.121905
-55.730326 -23.446692 -58.415299
-56.563646 -29.746781 -14.758437
-55.374134 -21.847375 -17.736905
-29.405932 5.855875 -55.383605
-54.143485 -17.973432 -11.124963
-53.523594 -16.409093 -32.419454
-43.354997 -2.190897 -31.863346
-55.466727 -22.263123 -53.740360
-50.789194 -11.084850 -58.281537
-21.553349 7.988738 -33.862485
-56.581773 -33.878566 -19.078304
-46.108272 -4.877708 -16.361611
-33.446452 4.286104 -34.292239
-33.413188 4.300276 -20.076751
-56.567873 -29.816004 3.455095
-47.303664 -6.253753 -47.991437
-23.827352 7.399824 -18.948583
-54.677105 -19.519226 -6.227145
-56.231993 -26.285846 -39.027222
-29.496163 5.825605 -58.346714
-30.718445 5.415576 -53.659234
-40.325835 0.253365 -42.557330
-48.333439 -7.492381 -29.216606
-56.578692 -29.993158 -32.466634
-30.226682 5.580544 -47.239208
-56.606028 -32.537191 -50.558932
-21.576334 7.982786 -42.973750
-35.512999 3.255570 -36.123217
-52.232291 -13.645381 -9.848415
-39.579925 0.808690 -34.491133
-44.415016 -3.140762 -37.286249
-51.550347 -12.367891 -25.253577
-40.915624 -0.185728 -47.567204
-56.532623 -29.238775 -39.544107
-46.928113 -5.802036 -39.115159
-33.930724 4.079781 -57.436657
-51.834131 -12.846252 -0.104896
-56.630570 -31.180587 -0.884343
-47.579308 -6.585302 -54.196930
-34.763646 3.647449 -28.271998
-56.618341 -31.856859 -29.981535
-37.324595 2.246863 -20.107862
-39.434703 0.916807 -35.111923
-55.744052 -23.508321 -27.578175
-22.981841 7.618792 -33.554176
-50.487076 -10.575585 -53.712577
-31.223436 5.233220 -32.094379
-23.488742 7.487516 -24.328715
-56.616553 -31.955331 -57.009289
-49.555289 -9.196475 -36.185116
-43.183304 -2.040597 -37.410404
-45.283329 -4.031480 -30.532985
-45.429537 -4.181460 -32.834180
-48.855191 -8.204360 -14.468869
-51.263372 -11.884150 -22.392232
-55.141383 -21.029621 -6.229961
-41.799019 -0.843409 -40.531884
-46.635892 -5.450548 -12.224785
-50.384578 -10.402808 -55.097239
-44.478772 -3.206164 -16.952033
-27.629968 6.415035 -24.708204
-27.477011 6.454647 -35.996559
-40.511578 0.115081 -39.746845
-42.475897 -1.421334 -37.371917
-31.020587 5.314218 -12.646819
-54.763927 -19.801677 -60.780073
-51.214419 -11.801632 -15.417550
-29.344388 5.876520 2.331125
-55.500074 -22.412849 -50.658624
-26.807962 6.627915 -6.593155
-28.701853 6.092067 -54.242116
-22.514897 7.739720 -31.288293
-23.656124 7.444168 -13.506843
-49.364569 -8.926205 -10.122041
-38.882025 1.268467 -13.878236
-56.599576 -32.894539 -1.314404
-47.952384 -7.034044 -11.499590
-34.443572 3.814834 -10.935683
-48.973182 -8.371567 -21.113143
-54.753523 -19.767831 -57.314644
-47.410101 -6.381777 -55.266593
-34.347757 3.864941 -41.503709
-38.470876 1.526756 1.634259
-37.053773 2.416997 -38.066370
-56.598260 -32.966611 -49.560255
-47.810788 -6.863730 -37.701236
-56.356552 -27.169314 -53.509810
-27.900918 6.344865 -43.030203
-56.589841 -33.432050 -44.741045
-52.019684 -13.212325 -13.870360
-45.440189 -4.192387 -20.855965
-42.127051 -1.115955 -33.852565
-50.159659 -10.052933 -15.412842
-26.457150 6.718767 -14.724153
-56.470720 -28.225114 -51.910211
-50.996786 -11.434779 -25.152216
-56.446503 -27.828560 -55.678073
-55.586925 -22.802816 -3.229495
-31.329597 5.187990 -51.119390
-53.052471 -15.316001 -35.427754
-56.432865 -27.710582 -13.114088
-29.798649 5.724133 -22.793157
-56.161961 -25.789125 -58.236221
-43.601195 -2.406418 -13.414904
-36.246766 2.871842 -45.075847
-38.514632 1.499268 -61.063485
-49.924863 -9.720201 -19.580344
-26.302671 6.758774 -58.686031
-56.615564 -30.596932 -30.260471
-55.646864 -23.071945 -10.179866
-56.337582 -27.034764 -37.836296
-50.935658 -11.331738 -30.228122
-38.564867 1.467709 -15.806984
-56.595487 -33.120604 -16.188228
-53.372643 -16.028157 -60.921475
-39.655959 0.752083 -53.013192
-45.483129 -4.236435 -14.708947
-42.500652 -1.443005 -36.723595
-55.534634 -22.568028 -40.343925
-56.503673 -28.764717 -18.304191
-32.303456 4.773077 -31.643380
-52.644163 -14.484322 -53.070207
-56.633348 -31.026930 3.237608
-49.631998 -9.305180 -18.424106
-56.630304 -31.195281 -26.128404
-55.493875 -22.385018 -14.859193
-51.812948 -12.810544 -19.753159
-47.764667 -6.808255 -51.109112
-51.957415 -13.085489 1.616951
-54.715156 -19.643012 -48.547655
-49.450443 -9.047897 -2.657914
-39.803664 0.642118 -32.506543
-56.471972 -28.245610 -55.339797
-22.726384 7.684949 -52.899608
-56.621168 -31.700410 -49.235955
-56.323054 -26.931723 -18.769443
-48.891463 -8.255762 -58.058227
-50.550366 -10.682270 -12.733853
-56.599188 -32.915204 -52.879004
-43.000872 -1.880897 -11.762294
-47.043494 -5.940817 -28.172934
-53.570017 -16.526244 -1.977111
-38.563790 1.468386 -22.279171
-30.182612 5.595328 -31.541563
-51.621351 -12.487578 -57.581167
-49.806809 -9.552905 -45.881859
-54.845084 -20.065698 1.355309
-51.136502 -11.670291 -23.015043
-49.401795 -8.978958 -20.831933
-43.744706 -2.532047 -16.383996
-37.298962 2.262966 -54.023109
-55.504072 -22.430801 -0.969270
-48.258065 -7.401721 -45.808641
-56.595499 -33.119576 -33.861382
-51.069352 -11.557100 -2.190320
-53.823901 -17.166939 -60.892645
-53.106303 -15.425650 -35.889912
-54.629312 -19.363743 -61.052838
-54.382022 -18.575399 -23.795835
-38.650822 1.413712 -28.134496
-54.075774 -17.802558 -57.225583
-28.252148 6.242926 -47.554559
-46.924122 -5.797235 -7.229874
-42.472534 -1.418390 -3.085100
-23.619011 7.453780 -31.965642
-28.738628 6.079730 -29.934715
-25.380033 6.997716 -28.678801
-39.937086 0.542786 1.678336
-45.499054 -4.252771 -7.872833
-41.930190 -0.943623 -3.135383
-56.290851 -26.703313 -31.717877
-28.888401 6.029487 -17.535865
-45.276690 -4.024670 -43.235986
-40.632104 0.025351 -53.011862
-31.554097 5.092342 -16.436544
-43.574554 -2.383097 -10.325524
-49.590516 -9.246396 -47.867167
-51.615285 -12.477353 -52.865650
-53.963401 -17.518978 -1.451770
-21.591825 7.978774 -57.590276
-40.891089 -0.167462 -16.773066
-55.878318 -24.111182 -21.089436
-54.485018 -18.894325 -17.915074
-51.936917 -13.043737 -37.829320
-32.341636 4.756811 0.760479
-21.554332 7.988484 -23.366936
-54.380323 -18.571111 -56.276630
-49.999410 -9.825843 -43.441416
-54.027061 -17.679629 -55.131641
-53.180750 -15.577293 -27.410079
-40.323764 0.254907 -54.210612
-29.883745 5.695586 -7.980190
-56.472851 -28.260008 -12.028357
-54.085210 -17.826372 -5.008192
-53.095994 -15.404653 -0.972193
-32.072325 4.871551 -51.146891
-45.385247 -4.136028 -38.667559
-56.583803 -33.765428 -60.632326
-44.983296 -3.723705 1.948094
-22.150975 7.833967 -58.938918
-30.661842 5.434564 -58.062457
-56.591754 -30.207047 -23.946691
-51.262794 -11.883176 -49.572557
-48.988846 -8.393763 0.065536
-54.744728 -19.739217 -19.795748
-50.458962 -10.528194 -15.571280
-52.529599 -14.250967 -44.407104
-56.507430 -28.826239 -52.697424
-52.324202 -13.832596 -2.448601
-42.249908 -1.223504 -16.643787
-56.241345 -26.352176 -58.131242
-54.372937 -18.552471 -13.277258
-54.780522 -19.855662 2.448563
-42.016241 -1.018953 -59.022629
-47.658957 -6.681105 -58.454021
-38.825269 1.304122 -32.883561
-34.692229 3.684797 -7.869307
-26.417648 6.728997 -47.407760
-52.170524 -13.519568 -26.889903
-53.700590 -16.855754 -59.470852
-55.047053 -20.722746 1.086013
-27.956014 6.330596 -25.263569
-27.635143 6.413694 -34.728112
-54.921193 -20.313296 -19.486935
-37.729157 1.992713 -39.001525
-26.750147 6.642888 -44.151573
-54.223471 -18.175285 -32.210979
-36.531088 2.723154 3.320373
-48.105848 -7.218631 -0.630605
-28.490555 6.162949 0.161586
-32.392312 4.735221 -42.103073
-56.120957 -25.498295 -38.294886
-49.173025 -8.654765 -30.164629
-56.599872 -30.339979 -40.300599
-38.943516 1.229838 -16.287085
-55.728701 -23.439395 -46.003982
-53.450523 -16.224694 0.595659
-23.162147 7.572097 -51.698580
-27.769580 6.378878 -47.424931
-25.492858 6.968497 -10.720390
-43.126357 -1.990746 3.670767
-24.321170 7.271937 -51.250530
-55.247985 -21.376421 -23.315680
-22.964345 7.623323 -59.566563
-48.004041 -7.096178 -9.256863
-52.407389 -14.002038 -6.705016
-45.977168 -4.743222 -26.176103
-42.704476 -1.621432 -17.134843
-37.782103 1.959451 -44.742106
-31.044370 5.306240 -58.680932
-39.569954 0.816113 -8.405882
-35.978978 3.011884 2.089767
-34.699568 3.680959 -45.678438
-56.618758 -31.833784 -22.772007
-29.756105 5.738405 -13.852900
-26.953412 6.590247 -36.033472
-56.181535 -25.927962 -46.732445
-46.203779 -4.975679 -50.594852
-35.063824 3.490469 -35.068823
-25.514228 6.962962 -41.714820
-37.564725 2.096011 -60.219280
-55.827090 -23.881166 -36.440265
-30.839598 5.374934 -7.801903
-52.975048 -15.158299 -16.984776
-22.414072 7.765831 -21.184074
-56.594657 -33.166417 -19.060341
-28.347734 6.210860 -23.726765
-56.395998 -27.449097 -47.462106
-38.146587 1.730478 -2.474120
-38.570764 1.464005 -2.205804
-53.746164 -16.970765 -16.909462
-41.489379 -0.612885 -58.351702
-30.374531 5.530946 -53.156807
-37.904568 1.882518 -6.064076
-52.538029 -14.268137 -18.683320
-27.516857 6.444328 -13.835603
-31.572689 5.084421 -27.612806
-56.591842 -33.322155 -13.624231
-52.077875 -13.330854 -40.185544
-56.103354 -25.373444 -49.462489
-22.656338 7.703090 -2.272009
-29.057226 5.972852 -40.289585
-49.354580 -8.912048 -34.609592
-56.602224 -32.747912 -31.109303
-50.353899 -10.351094 -29.661888
-55.076503 -20.818552 -13.487186
-51.465749 -12.225287 -60.332679
-48.552548 -7.775482 -21.057707
-26.716869 6.651506 -9.791097
-51.558830 -12.382190 -36.997060
-37.035573 2.428430 -56.279483
-39.474169 0.887424 -46.647036
-42.060433 -1.057638 -50.106966
-29.293947 5.893441 -33.125794
-52.311849 -13.807433 -14.468155
-34.248081 3.917067 -60.208196
-50.103671 -9.973592 -2.691750
-55.927816 -24.333427 -38.591710
-27.554348 6.434618 -21.034956
-54.302688 -18.375194 -0.871360
-55.617291 -22.939158 -33.724822
-56.595538 -33.117350 -37.483544
-56.617781 -31.887370 -58.478984
-56.094337 -25.309491 -19.444780
-43.029902 -1.906309 2.838149
-52.128683 -13.434344 -30.971696
-41.054124 -0.288841 -57.750947
-54.101470 -17.867404 -21.242439
-28.643207 6.111740 -34.713694
-40.279135 0.288133 -8.407823
-49.650816 -9.331847 -7.561103
-54.220280 -18.167232 -15.865748
-55.670180 -23.176631 -52.421393
-39.316829 0.995318 -44.666416
-55.451694 -22.195623 -35.236340
-39.478651 0.884088 -2.477283
-56.527259 -29.150949 -38.465434
-51.420511 -12.149032 -4.324303
-56.360529 -27.197524 -6.094714
-28.858418 6.039545 2.190759
-39.865315 0.596219 -29.906236
-22.426785 7.762539 -7.682181
-52.866345 -14.936883 -21.375546
-22.950619 7.626878 -11.766150
-28.634244 6.114747 -26.457330
-30.008656 5.653683 -28.469943
-25.893442 6.864755 -19.863633
-56.289755 -26.695537 -38.222157
-25.941751 6.852244 -37.000644
-48.564411 -7.792294 -33.010951
-24.743864 7.162469 -2.281955
-44.412296 -3.137972 -59.104574
-55.851693 -23.991632 -46.119097
-41.096013 -0.320026 -29.757084
-52.606694 -14.408001 -42.590088
-33.069570 4.446675 -5.452595
-35.312508 3.360418 -12.939753
-56.612842 -32.160942 -14.619535
-39.718952 0.705185 -20.711224
-56.007993 -24.697075 -57.248538
-29.642679 5.776455 -17.949789
-53.054003 -15.319122 -12.022460
-28.101324 6.292964 -31.469978
-45.654405 -4.412130 -39.017518
-41.259080 -0.441428 -6.038973
