-3.367831 -5.027800 -30.358993
-1.075754 -6.733019 -10.615624
-5.170469 15.286720 -43.644992
-8.022130 3.187071 -45.594562
21.059114 10.377349 -28.862581
16.363570 -5.352974 -42.029727
11.260407 20.376431 -50.518807
11.073205 -8.239617 -50.769136
13.207533 -7.401949 6.829700
6.117682 21.084961 -48.889342
20.472219 12.005172 5.153317
-7.610533 1.580481 -55.593698
-3.579561 17.026039 -57.997609
6.380015 -8.893681 -49.664852
21.151840 10.042927 -25.928236
5.051308 21.003832 -11.077333
-8.091229 8.648669 -25.485010
19.281887 -2.032704 -18.041368
-6.696184 12.872642 -4.587347
-8.207605 4.368525 -19.723607
-5.877809 14.282175 -39.416303
19.599779 -1.530425 -26.186976
15.763672 -5.837810 -6.172090
-7.202017 0.447220 -28.480919
11.134752 -8.219670 -45.823708
7.043880 -8.894154 -56.085743
20.630145 0.591925 1.353732
21.623342 4.762375 -9.610704
16.749575 17.215027 -44.777141
21.463182 8.641259 -51.933249
-6.993375 -0.043947 -43.916188
14.393015 18.964528 -50.884861
-7.201917 11.749833 5.533451
-6.579774 13.090622 -36.311277
12.457287 -7.741249 -41.399406
18.906436 -2.587753 -43.419681
18.706156 -2.862957 6.126745
-2.982865 17.558427 -17.699314
12.378625 19.969414 -41.422168
-8.305314 6.603984 -23.324865
9.886804 -8.553886 -32.008052
20.699419 11.430052 -39.764633
10.648796 20.559815 -9.067039
4.770314 20.968539 -31.954837
20.674894 11.492134 -41.184685
-5.531542 -2.592778 -11.856693
3.474350 20.749410 -34.234367
-3.289239 17.298252 -53.966243
18.481826 -3.163021 -33.372386
13.857380 -7.067320 -2.628925
6.366580 21.091565 -39.257196
-7.638511 1.666809 -9.869471
19.024970 14.621358 -44.709602
19.952777 13.086037 -60.535527
5.611416 21.053487 -8.845488
16.514861 17.424708 -38.631907
3.561705 20.766002 -22.669830
13.109351 19.645377 -20.264501
20.937135 1.443782 -41.869534
-8.306690 6.582382 -49.154673
20.994883 10.575532 -30.779148
5.785315 -8.866964 -49.204636
21.129513 10.130167 -30.137384
-8.273138 7.109323 0.301810
0.045759 -7.346226 -47.357512
8.164834 -8.825887 -55.691749
18.493712 -3.148675 -30.191930
9.561475 -8.615679 -14.762012
5.480518 21.045349 -59.358035
14.840680 18.679976 -3.680027
-0.543623 19.233330 4.342476
8.218555 21.017067 -49.507792
-8.307302 5.857861 -53.103743
15.519618 -6.014841 -51.626761
20.914910 1.375559 -11.410734
21.662250 6.818835 -17.598014
-8.001043 9.119515 -39.601438
12.476355 -7.733716 -40.449229
15.500110 18.226367 1.761328
18.086421 -3.640277 -7.715301
-5.389469 14.985776 1.716519
-3.008125 -5.339830 -49.610947
11.762193 -8.015869 -7.480992
-0.244368 -7.200733 -14.462318
13.921510 -7.032130 -7.943867
-0.195260 19.424485 -35.816047
-3.177975 -5.199104 -41.101204
16.197231 -5.490379 -59.772237
18.126406 -3.592014 -59.769870
-1.369584 -6.546251 -51.870676
21.677739 5.661973 -35.899787
-2.136741 18.220876 5.063406
-1.624413 -6.384273 -54.228618
-7.797756 9.976112 -53.975118
-2.175322 18.192892 -3.244189
-8.307338 5.808707 -8.906094
11.169330 -8.208463 -30.316875
14.322132 -6.811381 -41.636056
11.199444 20.396290 3.919405
10.186533 20.678882 -48.258793
18.925566 14.758388 -37.367738
21.306363 2.755702 -22.411280
17.971162 15.977757 -29.673735
7.185557 -8.891724 -52.052475
20.981627 1.580355 -58.118963
20.896465 1.318939 -51.305031
-4.822908 15.707978 -52.473085
4.517445 -8.738961 -55.422711
14.358379 -6.788416 -48.408056
21.232100 9.729334 -21.192814
-3.961066 16.662303 -13.204858
14.877134 18.656805 -23.491154
11.661771 20.245687 -43.372087
17.372605 -4.421754 -48.993051
-7.597812 10.656551 -51.740226
7.332040 21.080498 0.349120
-7.852797 9.762393 -3.797140
6.492485 -8.893761 -37.747625
6.823519 -8.893997 -5.568506
5.822074 21.066583 -30.138656
-8.306776 6.562961 -5.108243
21.350827 9.232687 -57.877876
10.751256 20.533424 -13.253749
-6.105390 13.924146 -6.834043
4.830770 -8.778791 -1.134865
10.122975 -8.497384 -29.110001
-4.031070 -4.391192 -37.575069
10.211365 20.672486 -51.982190
-3.298010 -5.093464 -6.831188
9.646044 20.796782 -36.101968
21.395028 3.198022 -21.272858
21.606301 7.607838 -31.022536
9.339264 20.855534 -31.030756
21.366596 9.149685 -60.383772
-5.731576 -2.316134 -30.827100
-7.941186 9.419192 -44.012945
17.621542 16.354452 -53.296234
19.147412 14.442706 6.868505
7.933209 -8.845291 -26.245623
19.139409 14.455339 -25.374748
21.658951 6.871897 -4.915032
18.672526 15.107210 -16.143602
15.354114 -6.134894 -30.811693
21.385511 3.148333 -0.042430
19.778061 -1.206728 -57.969193
-7.906447 2.645007 -51.854993
21.469998 8.605380 -18.591065
-5.445440 14.908863 -4.972932
3.648896 -8.584839 -4.963672
-0.255373 -7.194672 -42.930296
17.061765 -4.724329 -52.843799
-6.419606 13.381414 -8.404609
18.667315 15.114393 -34.000951
11.244238 -8.184186 -39.293152
-5.954583 14.161394 -44.199123
21.649889 5.179313 -37.079267
12.490891 -7.727973 -31.384323
-8.307162 6.045142 5.362570
21.389014 9.031677 -30.083370
-7.546833 10.813038 -6.310904
4.687740 20.958168 -18.759269
16.685571 -5.077058 -12.544942
-3.299299 17.288820 -30.673022
4.424601 20.925118 -32.814791
9.431352 20.837898 -52.554741
14.724671 -6.556345 -16.033750
17.291920 -4.507538 -38.036988
-7.731826 1.962719 -5.837000
-6.862217 -0.323231 -19.232168
21.053219 10.395538 1.007002
-4.219699 16.387311 -53.255205
13.958481 -7.011843 -22.021396
21.677957 5.942338 -38.206450
-0.026947 -7.311948 -11.138538
4.992296 -8.799325 -36.233640
18.560534 -3.063055 -10.599780
-4.179772 16.429764 -32.044155
5.749382 -8.864676 -34.089893
18.440556 -3.212834 -41.538137
-0.781706 -6.904797 -6.975687
21.178224 9.939841 -0.900505
11.781610 20.206339 -45.592446
14.679737 -6.584813 0.073195
4.512336 20.936137 -53.313359
19.256388 -2.072820 -40.368518
14.071063 19.147116 -3.575671
0.574855 -7.595676 -49.777800
1.628851 -8.022126 -49.710398
-7.976515 9.247573 -15.990071
-8.246358 7.525769 -49.107374
19.893339 -0.997423 -17.207391
17.806337 16.157363 -58.261431
13.643423 19.382637 -51.774363
-8.262919 7.269819 -54.970866
-6.101407 -1.732408 -47.406486
4.680386 -8.759674 -27.654125
-8.094664 8.630734 -60.097459
8.555308 20.974257 5.700054
18.435899 15.415128 -24.225562
8.335201 -8.804489 -33.897425
21.378255 3.110449 -5.917618
-6.016474 14.064027 -22.350888
12.888446 19.749530 -60.355742
-3.559104 -4.847913 -36.762405
12.702132 19.837373 -10.651564
5.347065 -8.839061 -41.617033
16.490459 -5.248156 -26.641520
-4.821557 -3.512373 -28.008122
-3.361236 17.230746 -42.025472
-4.252130 -4.155416 -55.265290
21.557148 7.999270 -20.278813
16.983983 -4.797259 -33.268570
-3.832699 -4.590605 -13.033098
-6.386961 -1.243766 -21.399730
21.279389 9.544562 -13.287501
-5.379695 14.999208 -41.163799
21.659665 5.332845 -57.746365
0.852990 19.914668 2.267934
-3.416598 17.178838 -32.882044
20.307609 12.362085 -31.151041
16.796527 17.170870 -49.087535
7.235763 -8.888606 0.428226
18.087633 15.836752 -48.956727
2.160154 -8.195203 5.442250
18.586058 15.226407 -54.823182
16.493035 -5.246028 0.369381
17.912413 -3.847830 -61.059514
7.301022 -8.884553 -22.629530
8.879758 20.933011 -45.966635
4.332470 20.912406 -51.812270
6.799042 -8.893979 -49.137804
-5.628157 -2.459592 -7.924763
19.816583 -1.136784 -9.017284
20.339999 12.293115 -5.461432
13.593762 19.409988 -3.968468
21.643357 5.076720 -3.085177
11.540477 20.285198 -41.968388
21.279071 2.649745 -34.164690
20.226966 12.533804 -29.237014
11.786754 -8.006166 5.762135
21.026477 1.718030 -52.875669
2.960358 20.621155 -6.363185
-7.429057 1.021935 -54.055186
5.233022 21.026655 -26.935613
11.685386 -8.041212 -33.992975
21.636937 4.975884 -11.683046
2.942218 20.616513 -25.496001
-8.306812 6.514584 -26.930538
-7.881654 2.548134 -45.101175
13.863820 19.261254 -45.255676
-7.237256 0.536423 6.725802
-8.091182 8.648913 -1.826298
14.564810 18.855329 -14.815434
2.539601 -8.315408 -13.377939
18.469539 -3.177852 -21.103456
14.175734 19.089470 3.004868
8.295378 21.007301 6.518065
21.093751 10.269898 -37.147685
3.069339 -8.451856 -14.669259
20.560081 11.782763 -36.759485
20.174992 12.644476 -43.502807
20.564571 0.426669 -55.254683
16.094162 17.773270 -12.445819
9.508862 -8.625672 -9.429178
-2.304831 18.098953 -31.463466
-5.316148 -2.889704 -60.489231
-7.665809 1.751037 -38.760300
21.501985 8.437002 -7.081091
-7.215673 0.481787 -41.132884
3.373063 20.726780 -1.311388
4.016734 -8.655284 -4.208317
12.636724 -7.670024 -21.135397
-6.715030 -0.636645 -1.002583
-3.333065 -5.060496 -17.063692
-6.281415 -1.436101 -58.846759
21.305703 2.753141 -44.320584
11.244672 -8.184045 -42.474495
18.369641 15.495342 -59.038018
15.746761 18.046864 -22.945464
10.060191 20.711425 -13.780095
10.348596 -8.439640 -12.446292
20.974218 1.557612 -35.234808
0.442004 19.730177 -35.550964
18.210175 -3.490905 -38.190202
11.274167 -8.174486 -17.072830
15.996027 -5.656586 -1.572752
-7.495090 10.971868 3.256050
18.898574 14.795597 -5.363021
19.850201 -1.075746 2.254493
-7.820606 2.309606 -48.297873
21.644737 7.100543 6.849523
15.500614 18.226000 -2.030729
19.866568 13.243135 -38.506236
-8.218108 4.452168 -0.138263
3.748888 20.801557 2.541823
20.421747 12.119044 -58.454895
-7.929303 2.734314 -31.402388
-0.368375 -7.132437 -11.917516
6.116625 21.084895 -11.267357
18.455018 15.391982 -29.971377
19.885881 13.207942 -49.906820
19.962374 13.068550 -31.241032
-4.444942 -3.949769 -20.071402
2.141032 20.386208 -8.256241
4.095626 20.867418 -23.265695
-7.522065 1.307514 -14.087096
-0.261735 -7.191168 5.558066
4.080098 -8.667419 -45.677859
14.497648 18.898019 -47.478884
7.310014 -8.883994 -29.580660
8.836528 -8.741522 -46.526143
16.005022 17.847126 -56.747351
-7.049109 0.074731 -15.170715
3.943187 20.838463 -48.670624
-2.865953 -5.457624 -33.023803
-2.283827 -5.916425 -10.034949
20.715895 0.808028 -61.120594
20.806165 11.157823 4.584595
20.431725 12.097797 -19.029836
10.754139 -8.335848 -55.384826
21.561195 4.230160 3.991196
19.383443 14.070142 -47.158128
1.155994 -7.836970 -18.629390
-3.030032 17.519464 2.902376
1.867180 20.297453 -16.075122
7.292909 21.082990 -25.363476
-6.408034 13.402423 -5.491823
-6.124734 -1.695590 1.483540
-0.519189 -7.049377 -38.944380
21.533489 8.187684 1.577691
-1.635586 18.575140 -41.190862
9.228380 -8.678947 -35.135677
-5.715788 -2.338792 -56.407814
10.778555 20.526392 -7.168561
13.458718 19.480657 -16.400162
5.382444 21.039251 -37.295714
19.109417 14.502679 -19.948910
21.586341 7.766789 -48.523141
-7.359101 11.353705 -6.896738
16.681751 17.278814 -59.991768
-5.058376 15.423781 -47.573818
19.777487 -1.207770 -1.682404
-8.047639 8.876246 -41.358468
-5.777246 14.440380 -17.520590
-3.391331 17.202528 -33.565999
18.280565 15.603181 -35.537283
17.382585 16.609304 -43.181313
18.565190 -3.056658 -19.335723
9.467683 20.830940 -46.710956
-5.344331 15.047804 -47.166217
-1.091401 18.919932 -52.491334
17.360353 16.633015 -25.212738
18.330341 15.542920 -39.820844
20.268648 12.445047 -2.319191
-6.239189 -1.513049 -52.465915
20.664502 11.518439 -38.984504
12.015107 20.113676 -49.525042
-3.815830 -4.606469 4.178221
-7.023558 12.178265 -45.950452
-8.270068 5.037052 -16.621002
-5.378800 15.000437 -15.032446
21.258572 9.625899 -35.118057
6.755684 -8.893949 -59.700810
18.971804 14.694648 -12.097704
17.005357 16.974472 -32.289271
21.662980 6.807090 -12.386877
-8.293736 5.417966 5.259021
13.065982 19.665825 -46.385210
-6.925539 12.386169 5.278444
21.295612 2.713967 6.829751
18.697639 15.072591 -12.540785
-8.003288 3.087883 -2.723001
0.079680 19.560014 -55.941909
4.703436 20.960139 -52.415599
-3.580351 17.025298 -36.571976
20.403820 12.157217 -32.706953
-8.238868 7.584693 -57.858291
21.102623 1.964712 -46.702103
-2.985695 17.556089 -28.140643
-8.275755 5.128574 -22.466914
12.656200 -7.660877 -30.433139
-4.223692 -4.185747 -29.070226
16.395207 17.523844 -51.667774
-1.602467 -6.398222 -25.537247
18.530354 15.300777 -18.248669
-5.818395 14.375646 -36.432062
-5.317215 15.085066 -32.499089
19.199281 14.360833 -42.612209
19.664211 -1.413440 -44.501675
2.584563 -8.326990 -9.525805
7.446610 -8.875511 -23.419822
19.801464 -1.164236 -19.833666
16.939859 17.036071 5.683171
-6.638245 12.984467 -46.937315
16.791426 17.175668 -9.713200
-6.711956 12.839190 -33.100323
16.743224 -5.023000 -34.891142
-7.152720 11.873816 -51.341028
0.993309 -7.772408 -22.761164
21.575315 4.341269 -1.506908
-8.159107 3.982304 -35.311188
21.188117 2.296630 -54.156086
-8.307197 5.998012 -36.635431
1.758525 -8.064368 -43.627599
14.368795 -6.781817 -42.862665
20.623711 0.575712 -38.630298
-8.163916 4.020606 -22.088304
-0.794541 19.095644 -15.348127
2.455588 20.488154 2.888585
21.181942 9.925312 -23.423801
-2.612213 -5.667856 -45.647721
-7.256883 0.586104 -0.006825
14.828047 -6.490849 -23.238206
-7.244911 11.641482 -44.255407
0.586777 19.798168 -43.848810
-6.822776 -0.407215 -8.273558
11.253268 20.378756 -4.346074
12.379102 19.969225 -3.363994
7.091015 -8.894187 6.191514
-6.816522 -0.420532 -36.034953
17.005015 16.974794 -22.903082
-8.285315 6.918081 -1.064679
-8.043928 3.301812 -8.939596
7.524582 21.068239 -36.778648
17.547002 16.433950 3.597948
-7.048685 12.124970 -44.790447
9.028765 20.914068 -48.637953
18.169066 -3.540525 -20.623299
19.378432 14.078051 -9.195001
13.755935 19.320672 5.654472
5.930574 -8.876213 -12.950403
21.464779 8.632854 -23.754822
16.117497 -5.556245 -41.348224
14.367040 18.981039 -12.285549
21.677826 5.773272 -11.133432
-1.177993 -6.668032 -40.923004
20.643626 11.571282 -14.129543
5.408393 21.040865 -49.038654
3.745415 -8.603324 0.987307
-6.657756 -0.750302 -10.344906
-2.409608 -5.824886 -10.925011
8.517083 20.979116 -7.146103
-8.166466 4.040912 -51.388302
-4.442837 -3.952013 -12.365423
21.678264 6.336263 -23.715064
-7.452045 11.104002 -55.617255
-2.320187 -5.889964 -16.180802
21.614171 4.647001 -53.162682
11.208060 -8.195911 -56.907852
-0.591516 -7.009543 -36.913075
-1.531624 18.641010 0.757498
20.569733 11.758331 -27.304722
5.556584 21.050078 -50.005156
-6.983466 -0.065048 -1.015510
21.635943 7.242007 -60.524254
20.562111 11.777624 -20.408113
5.885572 -8.873348 -24.428193
21.180104 9.932493 -49.675764
3.857960 -8.624877 -44.696053
4.779484 20.969691 -9.981285
-4.699775 15.856593 -41.334989
-7.500057 1.239607 -39.339434
7.561177 21.065909 6.699518
20.707102 11.410605 -10.014459
-7.078820 12.060056 -34.181157
-4.285456 16.317395 -22.827127
19.025045 14.621254 6.165358
21.272959 9.569683 -20.450693
18.647271 15.142024 -13.348404
16.606773 -5.150941 -8.426064
-8.275340 7.074741 -37.447169
7.219717 -8.889602 -35.838182
21.656748 5.287028 4.901337
-0.557230 19.225863 -59.201688
-1.979606 18.334853 -57.116663
20.871898 1.243529 -16.744202
2.458598 -8.292424 -57.157710
17.817493 -3.948749 -21.193873
-2.219733 -5.963070 -45.213425
17.108044 -4.680936 -34.180552
-0.319206 -7.159516 -53.212277
-3.302589 -5.089158 -56.622305
9.097037 20.901923 -37.097130
13.511763 -7.256969 -22.741284
21.678254 6.323439 -36.258426
-6.545872 13.152172 -29.999981
-7.768886 10.088210 -16.129220
-6.662978 -0.740786 -9.688571
21.663224 5.388740 1.166762
-3.474843 -4.927157 -35.283665
9.728589 -8.583938 -38.175467
19.616659 13.698540 -55.715578
21.405162 8.946675 -3.268064
6.627050 21.091363 -44.310509
21.630154 7.335125 -1.419030
-4.436026 16.157301 -31.461692
17.351727 -4.443952 -20.144127
18.771768 14.970402 5.571135
-8.251025 7.456626 5.082630
4.137198 20.875315 -31.707539
-5.893426 -2.060678 -50.209352
14.594250 -6.638976 -11.936577
4.285804 20.903542 -8.680890
17.113345 -4.675966 1.397422
-4.432449 -3.963093 -27.314933
10.057741 -8.514080 -10.205914
9.914903 20.745292 -2.928617
15.932320 -5.709212 -58.983628
20.407035 12.150373 2.228591
20.779093 0.967297 -25.906230
20.648546 0.638300 -2.932934
0.686359 19.844936 -21.828788
13.731294 -7.136507 -46.238497
-7.798122 2.221754 6.421839
-1.478091 -6.477280 -1.156316
-2.953185 17.582944 4.126898
6.147232 -8.890008 -54.922778
-1.640599 -6.373984 -28.275017
11.920601 -7.953285 -12.691044
-8.307122 6.098279 -21.012478
3.192060 20.680456 -13.495722
-8.120860 3.706777 -29.979232
21.654119 5.245744 -27.535003
16.563154 -5.188105 5.205357
-6.613480 -0.830985 -36.628311
-1.249986 18.819454 0.126642
20.137478 -0.526033 -46.285833
16.069731 -5.595702 -45.313274
20.530136 11.858565 -28.784849
12.270929 20.012153 -0.328803
-6.337699 -1.333536 -14.596791
-6.316817 13.568030 -28.338721
-7.670347 1.765038 -52.113279
16.625340 17.331867 -43.900513
-2.952339 17.583643 -19.537844
18.260640 -3.429994 -60.439704
12.289183 -7.807664 -19.889537
21.507763 3.809732 -37.070943
19.074731 14.552761 -43.834980
21.677726 5.645023 -40.627337
-7.607088 10.628077 -45.291735
17.363171 16.630009 -6.366341
5.627707 -8.856929 -14.423115
7.955287 -8.843920 -20.882421
2.717412 20.558977 5.523953
12.712353 -7.634506 -2.305423
-8.303608 6.630786 -25.035380
4.551825 20.941097 4.788057
16.053339 -5.609243 -50.480603
17.513737 -4.271703 -54.082625
8.167749 -8.825521 -52.059750
-6.870846 12.502176 5.924141
2.626930 -8.337902 -51.959041
-8.021470 3.183597 -30.585689
6.130060 21.085730 -19.959235
13.345242 -7.337275 -37.491711
-7.824243 2.323817 -57.872793
21.648306 7.043134 -15.571341
-8.171222 4.078784 -52.802513
-6.380302 -1.255902 -28.300036
-8.277868 7.035045 -9.234431
19.746464 -1.264097 -2.566315
21.418088 8.878633 -25.519902
-4.053706 -4.367050 -0.837448
20.877538 1.260840 -3.021087
1.162653 -7.839612 -50.166674
2.036218 -8.154830 -5.628643
21.316454 2.794882 3.182165
-0.953401 -6.810237 -20.600171
2.275097 20.429658 -9.742592
11.361526 20.343491 -48.129763
15.931995 -5.709480 -57.547455
21.169753 9.972937 -58.002220
-0.585882 19.210141 -44.574355
18.746702 15.004956 -9.575043
9.204219 -8.683536 -44.885467
20.070941 -0.667161 -56.785947
-4.951755 -3.354750 -29.294162
13.207441 -7.401992 0.200249
5.802936 21.065393 -42.095151
-4.929643 -3.381520 -42.338347
12.836778 19.773891 3.957943
4.666985 20.955561 -59.338100
17.932205 16.023123 -26.542250
20.662738 11.522904 -0.230441
-5.396734 -2.778615 -29.517115
20.287467 -0.207898 -30.759624
16.874230 17.097793 -31.279220
4.889043 -8.786199 -0.034271
17.882324 16.076322 -31.415339
-8.307163 6.044396 -49.527658
8.230628 21.015532 -13.242658
8.967892 20.921807 2.304679
18.061727 -3.670083 -0.493104
20.976733 1.565334 -45.146143
13.668538 -7.170943 -16.139295
-8.252893 7.427277 -22.551524
-3.122182 -5.245330 -22.475060
21.678055 6.068209 3.405868
-8.264898 4.953852 -34.144517
-3.614230 16.993533 -59.119291
16.137990 -5.539316 -46.386430
-6.254909 13.680426 -14.438963
-5.475849 -2.669553 -38.894199
17.357371 16.636195 -58.164372
14.612913 -6.627151 -52.565014
-3.153599 -5.219300 -13.800211
-3.974981 16.647508 -41.425143
-3.996188 -4.428397 -1.655680
10.980982 20.467453 -32.867999
-8.135185 8.400310 -49.042324
-0.891954 19.042191 -56.772671
18.648926 15.139742 -44.944519
17.067723 -4.718742 -46.756881
11.806271 -7.998455 -43.040557
20.479759 11.986087 -59.716666
13.957561 19.209627 -53.188292
2.856860 20.594667 -30.768486
0.945831 19.951346 3.954898
15.808651 18.001822 -50.675081
10.342948 20.638594 -15.622200
-5.177834 -3.080374 4.429214
11.844401 20.181421 -31.377890
10.044633 -8.517434 -19.500914
-3.243586 17.341058 -27.348135
8.805424 -8.745429 -27.297952
-6.231783 13.722413 -50.032643
-8.106099 8.571035 -36.078648
-1.186304 -6.662750 -50.612493
-1.917377 -6.183112 -22.463647
19.426020 -1.805955 -19.890541
12.498957 19.921660 -4.059901
-2.968845 17.570008 -21.605886
0.895717 -7.733679 -3.067156
-8.177596 4.129544 -40.039936
21.495043 3.720184 -55.911590
2.282357 -8.235012 -34.978717
3.184325 20.678476 -38.115812
1.936290 -8.122277 -6.976832
7.013481 21.091062 -9.219737
10.970597 20.470836 -57.329100
11.655784 -8.050805 -50.211061
-6.148281 13.856669 -30.766524
-7.951264 2.820120 -18.498641
-2.839954 -5.479165 -40.543118
-6.750794 -0.560491 -13.674910
12.995943 19.698847 -13.944937
4.307307 20.907626 3.546156
14.432454 18.939459 -23.946065
6.965650 -8.894098 -1.898675
20.311584 -0.156745 4.931448
2.822486 -8.388272 -12.546316
-4.286676 16.316098 -59.994348
3.688257 20.790040 -38.712356
-0.817897 19.082828 -26.188751
11.887852 20.164177 -4.801070
18.895301 -2.603052 3.852700
4.170269 20.881596 5.488450
17.734388 -4.037107 -27.453629
-7.233094 0.525887 -32.804723
-7.771450 2.117541 -41.196789
21.621196 7.479220 -14.923643
-6.910585 -0.220237 -51.535574
3.256097 -8.499960 6.578412
-7.793011 2.201782 -50.411682
15.821875 17.992198 -27.539189
21.101183 1.959119 -21.148766
17.016666 -4.766615 -23.103567
-8.307377 5.757156 -18.737362
-5.762377 14.463773 -20.570595
-2.386367 18.039811 -29.523183
-8.091194 3.550614 -17.104901
12.036992 20.104991 -46.143036
16.479364 -5.257321 1.321414
17.529813 16.452282 -45.237440
-6.648652 -0.766892 -40.459654
20.921334 1.395277 -27.926641
20.734091 11.342286 -57.328208
21.669451 5.486535 -22.248370
-3.430050 -4.969285 2.860994
11.092693 -8.233301 -56.004437
7.536017 21.067511 -29.641695
-5.377489 -2.805144 -48.866294
-6.869085 -0.308605 -50.319046
-5.650008 -2.429471 -54.759045
20.284037 -0.215175 -37.249807
-7.763000 10.111066 6.013039
19.947649 13.095383 -42.077335
20.880248 1.269158 -24.697699
21.436270 3.413341 -51.834334
20.923349 1.401464 -12.066798
9.016315 20.915651 -21.820622
-8.304451 5.590419 5.948069
19.318344 14.172897 -45.245652
-6.175985 13.813085 -24.300718
17.816642 -3.949653 -6.664257
21.262051 9.612304 -24.555336
15.324946 -6.156051 -15.408909
7.206372 21.088499 -39.316546
2.653870 -8.344841 -22.839296
7.912665 21.043531 -16.628078
-1.729507 -6.317471 -1.749694
-4.467796 16.123522 -33.441818
-8.286868 5.307430 -48.999516
10.637554 20.562710 -46.945361
21.678007 6.006361 -13.710435
6.956009 21.091107 -52.314853
-1.529140 18.642584 -31.104183
1.490680 20.166600 -8.768274
7.055360 -8.894162 -45.705651
15.570036 18.175478 -5.206752
3.923478 -8.637425 -29.619494
21.121598 10.161094 -34.684793
8.239172 -8.816550 5.846713
3.421101 -8.541213 -12.824905
11.017854 20.455442 -43.345880
-6.559898 13.126709 3.273411
13.167259 -7.420863 -15.118902
-8.306823 6.500270 2.624771
-8.305677 5.610141 -0.222304
-6.262109 13.667354 -45.800349
4.502090 20.934850 -60.958302
1.680010 20.236792 -31.098645
21.030848 10.464564 -58.977712
-3.832003 -4.591260 -42.590844
20.096246 -0.613487 -1.987860
15.550644 -5.992336 -4.066766
-4.417994 -3.978510 -7.218346
-7.854984 9.753905 -15.602769
9.723019 20.782040 -34.362836
-5.303622 -2.906972 1.100134
-8.194894 4.267298 -0.852413
5.524376 -8.850350 -60.840102
16.647599 17.310933 -50.074512
20.184990 -0.425258 -41.781564
13.719333 -7.143070 -47.424502
10.670221 -8.357325 -38.031100
8.618349 -8.768926 -34.448530
13.495040 -7.266146 -19.270638
17.881203 -3.881013 -34.750468
-7.665161 10.449812 -55.022187
-7.808722 2.263172 -23.982761
12.124348 20.070324 -43.892024
3.850003 20.820763 -3.795362
0.988562 -7.770524 -57.865975
13.120213 -7.442958 -56.768505
2.382586 20.464495 -21.757311
0.059391 -7.352653 -60.473086
-8.096564 3.578885 -60.951530
20.158720 12.679125 -22.053830
12.306052 19.998215 -39.859254
-3.242327 -5.145786 -7.544878
12.561646 19.896782 -26.929393
1.553869 -7.994866 -30.343171
21.302085 9.455880 -50.451901
-2.730802 -5.569601 -46.728257
21.134696 10.109914 -47.416081
11.930577 -7.949343 6.521503
7.568519 -8.867940 -50.868657
18.233032 -3.463316 -22.644405
15.515401 -6.017900 -48.640178
-5.885748 14.269685 -58.608808
16.125209 17.747547 -47.552658
0.152274 19.594107 5.119898
0.652334 -7.632205 -45.393996
-1.442119 18.697719 -17.489781
16.704217 -5.059574 -38.170078
20.605861 11.666879 -53.669366
19.018010 14.630952 -7.073267
21.144848 10.070250 -4.917760
21.531730 8.201691 -38.938943
13.675208 19.365132 -54.923311
8.228950 -8.817834 -37.101031
19.043538 -2.399361 -0.392162
18.565037 15.255386 -24.812686
13.513038 -7.256269 -49.633660
-8.258897 7.332985 -26.210693
2.791122 20.577842 -51.579061
19.189840 -2.177513 -6.152621
-8.124785 3.727436 -19.842777
-8.241600 7.563199 -50.287571
13.351861 19.531039 -23.164343
7.493451 -8.872602 1.070166
9.929219 -8.545830 -7.391160
18.737097 15.018197 -60.556471
-7.729822 10.239891 -24.264164
13.142934 19.629544 -24.421241
16.642388 17.315834 -12.364776
18.992245 -2.469842 -54.982524
-0.995786 -6.783850 -1.420607
-6.170193 13.822198 -6.045152
3.741896 20.800229 -53.162822
-2.750750 17.750168 -9.256326
5.237921 21.027270 -59.955150
20.324998 -0.128293 -57.146170
21.422959 3.343846 -3.996721
17.496077 -4.290479 0.875208
19.545508 13.814329 -12.646074
18.269308 -3.419532 -11.070030
4.339708 20.913781 -11.319750
-3.278932 17.307917 -24.774480
6.572842 -8.893818 6.828913
6.733398 21.091280 -23.014381
16.465731 17.465414 -35.471797
13.454303 19.482739 4.917153
21.454445 3.508228 -18.565308
21.300965 9.460260 -18.343292
21.678137 6.173732 -21.834255
-7.417040 0.991515 -45.375991
7.311069 21.081833 -59.608274
21.207966 9.823629 6.871763
-3.339261 17.251351 -51.948981
-7.621656 10.583359 -20.659446
-8.253485 7.417983 -38.715987
3.329855 -8.518958 -42.032013
21.050086 1.790500 -18.957558
8.346028 21.000862 -45.617793
14.331721 19.003488 -44.397648
-8.247282 4.684498 4.279850
0.872232 -7.724359 -20.731970
2.772418 20.573055 -12.715876
19.964531 -0.868162 -45.341139
21.665783 6.761999 -0.125298
6.346358 -8.893657 -36.349438
12.738225 -7.622355 2.768463
5.117293 -8.815215 -45.407954
7.906189 21.043943 -27.776247
19.449196 13.966353 -59.891716
2.832396 -8.390825 -17.466190
19.923813 -0.942093 -58.555818
20.530517 11.857599 -7.263513
19.864749 13.246449 -20.338385
-3.333182 -5.060386 5.061049
17.771354 16.194674 -47.336071
1.639055 20.223519 -7.455781
21.139135 2.106465 -11.896260
-5.879487 -2.082678 -21.500212
4.104768 -8.672144 -57.825352
18.449251 15.398963 3.765602
-5.028766 15.459519 -2.746368
18.345244 -3.327877 -31.090094
-4.295602 -4.109050 -60.968230
-4.889123 -3.430575 2.654316
13.857736 -7.067125 -14.119849
21.234544 9.719782 -9.889458
-5.937498 -1.991115 -48.556416
-1.237588 -6.630152 -44.466750
7.789229 -8.854233 -7.087005
8.378197 20.996772 -25.678149
-7.975941 9.250569 -0.315961
8.833563 -8.741895 -2.140405
19.213606 14.338221 2.059696
3.078223 -8.454144 -21.334851
20.477199 0.206478 -11.810164
-0.941864 19.014677 -30.645959
-5.967773 -1.943331 -49.498155
0.744268 19.871715 -39.608608
-8.307006 6.254314 -11.824131
-5.946477 14.174146 -4.769781
6.407616 -8.893701 -50.984462
1.538516 -7.988774 -39.237442
8.714815 -8.756809 -43.462437
-3.520451 -4.884264 -59.814193
21.214537 9.797955 -55.263654
-8.256408 4.817210 -46.765605
21.511120 8.365819 -31.221713
15.378301 18.315014 1.146480
12.325197 -7.793436 0.737120
-3.906443 16.719546 -30.948968
2.132540 20.383456 -13.070327
15.705367 -5.880103 -17.372054
16.429089 -5.298851 4.493963
21.652837 5.225611 -0.224474
-6.126733 13.890569 5.691577
-6.900197 -0.242358 -0.236929
-3.785664 16.832792 -12.508460
11.745042 20.218561 1.934264
19.163982 -2.218192 -26.091210
17.188620 -4.605387 -58.731902
-8.063084 8.795609 -56.407454
7.494239 21.070171 -42.279201
13.218945 19.593706 -22.335070
10.517654 20.593594 -17.578676
18.817011 14.908034 -47.239272
-0.282210 19.376774 -41.524614
-2.089950 -6.057521 -56.269719
19.636975 -1.462892 -48.501815
18.278575 -3.408346 -25.261428
-2.435644 18.004068 4.262780
-5.807030 14.393525 -12.608120
16.766283 17.199314 -19.831125
17.839390 16.122112 -8.390005
4.119167 -8.674902 -56.982251
4.605222 -8.750119 -12.578001
16.553966 17.392308 6.311597
21.477745 3.629873 -31.999326
16.360628 -5.355404 -7.392301
19.812499 -1.144199 -32.265566
-7.178266 0.387100 -55.007188
-8.193797 7.939241 -2.135839
12.551466 -7.704041 -19.186025
19.488666 13.904051 -1.300583
13.576529 19.419479 -26.497669
6.564511 21.091411 -59.633358
-5.654871 14.621068 -26.842428
-8.105107 8.576213 -42.276728
19.530188 -1.642079 -53.511538
21.133342 2.083973 0.088311
13.840444 19.274129 -10.979172
9.132155 -8.697224 -17.500325
12.891979 19.747864 -29.052709
-4.200847 16.407356 -10.338539
-8.202838 4.330561 -2.918799
-8.243081 4.651038 -49.002415
1.796574 20.274570 -34.417015
7.441197 -8.875847 -5.283583
10.117230 20.696733 -35.692306
-7.900688 9.576441 -12.995120
10.188434 20.678392 1.971628
0.903862 19.934766 1.367173
18.331376 -3.344615 -58.055991
7.661757 21.059506 -10.951958
16.129041 17.744371 -22.473837
5.186555 -8.824019 -3.192297
0.780708 19.886112 -33.422580
14.286602 -6.831795 -1.105741
-8.175447 8.083585 1.379047
2.090060 -8.172369 -19.756340
21.070829 1.854173 -56.712171
-5.565710 -2.545677 -51.655368
1.924282 20.315960 -44.683271
-8.035772 8.938200 -45.219102
18.040522 15.893787 -22.674030
10.247748 20.663115 -57.243865
-0.714863 -6.941610 1.789240
17.777534 -3.991233 -37.168912
-1.673071 18.551390 -6.193570
11.141163 -8.217592 -40.062509
21.678170 6.216288 -19.170900
-1.846813 18.431174 -29.746696
-5.736250 -2.308758 -45.780945
-0.005049 -7.322272 -59.728644
-7.397664 0.942468 -18.959217
-7.087614 12.037893 -36.349422
-7.900520 9.577093 -60.151450
11.489763 -8.104612 -44.700826
20.228808 12.529882 5.625516
6.736570 21.091278 -20.622881
-7.108568 0.210670 -13.489943
-4.516692 -3.873242 -8.115542
20.630760 11.603851 -28.069030
-8.282406 6.963765 -25.613110
3.587621 -8.573104 -28.098762
-7.759164 2.069537 -40.542097
-7.776644 2.137835 -57.084908
-7.814412 2.285405 -53.421303
17.591573 -4.188947 -43.914910
-5.296542 15.113474 -13.759156
4.108294 20.869825 -36.575637
9.412138 20.841578 -27.439548
17.069543 -4.717036 -31.150765
5.708410 -8.862068 -39.645421
-1.576825 18.612371 -32.632670
-2.122537 -6.033805 -46.241147
20.374399 12.219866 -42.932588
18.680837 -2.897748 -42.261412
-3.839410 16.782398 -28.635076
8.527638 20.977774 -52.999061
21.371387 3.074593 -50.179333
13.905806 19.238131 2.186121
-6.933402 -0.171652 -47.681167
12.652876 19.860577 -17.382713
-6.289307 -1.421721 2.158173
6.652140 -8.893875 2.034418
-1.673625 18.551039 -16.890817
-7.213915 0.477337 -54.319554
15.069239 18.534696 -44.901224
-5.409565 14.958162 -7.503615
-2.862990 -5.460079 -38.924920
-7.928015 2.729282 0.871229
-1.082932 -6.728456 -38.851501
2.608198 -8.333077 -31.543055
17.819828 -3.946267 -55.752228
-7.728136 10.246438 2.116812
-3.840964 -4.582832 -34.166438
20.721966 0.823329 -3.593877
5.271669 -8.834260 -37.161662
-2.825996 -5.490730 -2.035343
5.350131 21.037243 1.797789
11.441356 -8.120301 0.132102
21.402262 3.235786 -36.507453
1.117579 -7.821725 -59.040343
3.460010 -8.548665 -42.777796
14.132615 -6.916292 -52.171468
8.719115 20.953433 -0.470913
1.376728 20.121581 -25.174714
18.610227 -2.994772 -1.628292
-8.305031 6.608431 -2.310620
0.379705 -7.503670 -8.387011
1.131971 -7.827436 -46.179759
17.670495 -4.105037 -42.158881
-6.634440 12.991375 -57.681305
12.275219 -7.813181 -59.154627
-8.278698 5.175949 -58.885938
-4.848851 -3.479330 -10.938829
10.444264 -8.415155 6.025266
15.917328 -5.721596 -11.001652
-1.623900 18.582545 -23.689827
5.157456 21.017164 -55.549414
2.462383 20.490357 -32.028874
-5.125792 15.342413 -34.353330
-8.258796 7.334576 0.964357
-6.685992 -0.698477 -14.352751
-8.257733 7.351262 -0.636246
13.314016 -7.351940 -47.944920
-5.653827 -2.424205 -27.813169
10.881314 -8.301808 -44.546377
14.248073 19.049629 -9.094337
21.624241 4.776497 -57.139757
1.117746 20.019265 -31.283478
-3.023401 -5.327173 -15.465465
-8.130827 3.759239 -22.695692
-1.960952 -6.151400 1.977449
21.415319 8.893209 -32.362347
-7.657305 10.473928 -59.455565
-8.303711 5.578511 -6.944683
18.442788 15.406788 -38.437379
4.509266 -8.737921 -45.098331
12.619823 19.873694 0.298004
18.371197 -3.296551 -28.577076
-1.208922 18.845471 -53.170120
-8.063337 3.403978 -13.772812
-0.209194 -7.220105 -55.013055
1.940798 -8.123746 -14.156752
11.745305 20.218476 -24.633312
21.513495 3.854839 -12.177791
-8.307099 6.129763 -47.111307
0.668804 19.836691 -28.791299
14.430505 -6.742719 -6.772839
11.351671 -8.149368 -61.083902
20.245253 -0.297436 -5.878007
-7.696988 10.352115 -1.777833
-3.625239 16.983211 6.877057
-7.384643 11.289335 -22.365103
-0.252750 19.392939 -2.046115
-7.649973 1.702175 -35.440778
5.122605 -8.815890 -28.486386
20.820015 1.084265 5.788950
4.126157 20.873218 -34.046049
20.375529 -0.021114 -39.502686
0.414604 19.717308 -10.979481
16.183185 -5.501982 -54.411574
19.488281 13.904659 -7.077197
-4.139196 16.472907 -17.406277
14.662708 18.793102 -13.026352
-7.048900 12.124514 -48.042040
6.969504 -8.894101 -16.304106
-5.895812 -2.056911 -15.529263
-8.250987 7.457219 -51.556813
3.633546 20.779648 -24.798237
-6.529376 -0.984247 -38.846400
19.084617 -2.342914 -60.721840
16.721566 17.241369 -39.911585
21.653846 6.954018 -25.983367
-4.567411 16.016348 3.468313
-4.438689 -3.956438 -1.780330
-8.250580 4.723419 -57.879349
-2.864612 17.656111 -47.677097
11.228240 -8.189371 -13.500133
4.008722 -8.653750 -42.529931
-8.186701 7.995056 -20.816779
-1.940646 18.363112 3.339190
-1.381402 18.736189 -6.936542
-8.289354 5.347448 -12.668181
0.074315 19.557495 -29.913387
-7.969060 2.907710 -29.115090
-5.101938 15.371205 5.354065
-1.338659 -6.565908 3.633922
-3.001783 17.542799 -35.235282
11.616877 -8.063415 -59.797496
20.968583 1.540315 -40.220630
17.686017 -4.088535 -28.201146
21.618696 4.689414 -8.783332
-6.678149 12.910895 -10.328738
-7.274941 0.631815 -59.351734
5.160117 21.017498 -56.617160
20.667610 0.686343 2.740202
20.835130 11.068451 -9.335046
13.044867 -7.478343 -11.266533
0.101235 19.570137 -2.730625
13.917155 19.231881 -21.242605
-3.215691 17.366099 -55.600268
1.598312 20.209122 -15.268889
15.822573 -5.795086 -9.850783
-3.575608 17.029746 -21.551009
-8.278223 5.168295 -31.090026
20.863290 10.981564 -49.985400
-2.461288 17.985468 3.464084
14.712163 -6.564269 -57.931926
-6.229435 13.726674 -36.511392
17.060848 -4.725188 -10.759399
20.359340 12.251932 -3.471725
5.631008 21.054705 -0.792177
13.457582 -7.284515 -18.502917
-8.307015 6.243038 -35.051853
21.285719 2.675557 -27.557203
5.715862 -8.862542 -5.653124
-3.531518 17.071085 -56.757317
11.859648 20.175370 -53.027236
13.463977 19.478178 -37.356402
5.206762 21.023357 -2.660500
21.583648 7.788234 -57.946447
20.845209 11.037351 -54.359098
-3.877256 -4.548700 -55.718951
9.663901 20.793362 -21.750494
-3.963631 -4.463121 -25.796509
19.211320 14.341830 -21.903855
3.758084 20.803304 -25.467341
-6.393385 -1.232060 -26.097068
16.465237 17.465822 -43.232272
14.191510 19.080781 -17.871715
21.638028 7.208457 -35.697974
19.784502 -1.195033 -26.724652
21.638909 5.006855 -1.640947
-6.073815 -1.775959 -46.091473
6.575313 21.091403 -46.426037
-7.353769 0.831356 -38.426661
13.851909 -7.070322 -20.163461
21.427973 3.370022 -59.408502
10.337525 20.639990 -22.134578
8.004672 21.037673 -54.386803
1.435980 -7.948082 -33.684217
-5.076652 -3.203545 -45.120988
14.302205 19.019816 0.795399
9.188971 -8.686432 -24.677164
-7.468053 11.054861 -4.037199
-8.307021 6.234953 -17.941294
-6.654957 12.954125 -21.550106
16.219396 17.669510 -52.669518
1.272716 -7.883291 -40.258018
1.152261 20.032901 -10.856082
17.008569 16.971451 -45.460215
-8.270726 7.147203 -29.367739
-0.236164 19.402040 -17.463417
-6.213060 -1.556180 -16.730210
-3.999955 16.620955 -25.904932
21.676634 5.599350 -24.240413
1.553263 20.191324 -9.738420
6.002802 21.077819 -35.056313
21.621743 7.470413 -4.474184
-6.953321 12.327243 -26.929876
21.152004 2.156425 3.095157
20.796311 1.011504 -43.618827
-3.503557 17.097302 -13.522395
20.836401 11.064530 -16.695705
15.722062 -5.867994 -29.060423
9.522473 20.820447 0.428835
-7.992662 9.163275 -55.077222
-2.266458 18.126787 -28.899181
10.424878 20.617490 -24.038381
21.568248 4.285658 -3.639633
-8.034403 3.251670 -19.257978
17.251748 16.742749 -36.655333
21.437214 3.418267 -2.541313
-6.717636 -0.631096 -7.420762
-0.377909 19.324261 -47.491765
-4.660839 15.903586 -54.774048
19.942075 -0.908935 -49.588602
18.437771 15.412862 -31.647979
21.378854 9.085159 0.306531
-1.903709 18.389905 4.045468
15.265742 18.396931 -30.934381
3.579728 -8.571592 -43.549570
10.808543 20.518668 6.265237
-3.506392 -4.897487 2.001515
-7.955017 9.359809 -38.242494
10.437079 20.614348 -9.930281
-2.489296 17.965152 -30.207900
13.678376 19.363387 -30.373950
-0.634906 19.183240 -30.005057
21.652485 5.220084 -52.577149
20.543920 0.374626 -43.482085
4.571298 20.943543 -2.599982
17.613212 -4.165940 -60.447698
-7.221648 0.496913 -19.639945
-4.809172 -3.527367 -53.432263
21.678092 6.114905 -45.630806
16.751336 -5.015395 -15.950180
2.503480 20.503676 -57.428060
21.205940 9.831546 -40.585880
17.323838 -4.473604 -57.907369
7.070990 -8.894173 -17.392849
-7.972918 2.928019 -11.128997
15.486213 18.236481 -58.571237
-6.761784 12.733502 -7.129246
20.855460 1.193068 -10.750108
20.787903 11.206070 -45.646280
12.144528 -7.864815 -54.403146
-4.459132 -3.934634 -37.173405
-3.514940 17.086629 -4.289525
7.551236 21.066542 -56.786302
-8.307103 6.124315 -44.520246
10.694116 20.548142 0.665842
-8.050999 8.858701 -33.902660
10.698466 20.547021 -5.286224
-8.044549 3.305082 -58.884352
-7.272417 0.625426 -50.531211
19.928848 -0.932950 -15.588682
10.465442 20.607042 -26.965294
21.550847 8.049449 -51.418759
10.055753 -8.514588 -34.391178
8.568128 -8.775233 -18.103397
14.828011 18.688030 -45.573795
18.207645 15.691461 -0.726219
-2.170037 -5.999237 -38.326374
21.282821 2.664305 -4.339524
5.415073 21.041280 -23.760196
19.757348 -1.244334 0.629793
-3.632322 -4.779053 -46.000763
10.366827 20.632443 -56.068994
10.891630 -8.298465 -29.167994
17.660856 -4.115285 -59.751286
11.570032 -8.078598 -55.553246
3.573203 -8.570343 -58.361280
21.530931 3.992027 1.466690
3.844178 20.819657 -11.809315
-8.162931 8.182043 -54.437200
13.056666 19.670217 -26.093482
12.106304 -7.879917 -27.776345
-1.821277 -6.253051 -13.518095
20.112330 12.777905 -32.908195
20.705225 0.781140 -49.095002
-7.718024 10.285701 4.767143
20.208108 -0.376224 -54.994098
-3.574773 -4.833177 0.213333
2.918969 -8.413124 -50.640675
-7.464199 1.128969 -18.096541
-1.576436 -6.414769 -59.403136
-0.262853 19.387395 -55.375059
19.856651 13.261206 -54.539382
21.520932 8.287679 -41.937319
21.349794 2.961859 -14.881628
-1.023264 18.963103 -13.186199
-7.847653 9.782367 1.321938
-1.608675 18.592191 -41.976887
18.615546 15.185758 -1.973497
20.975985 1.563036 -54.667085
21.293207 2.704627 -26.490826
-6.356613 -1.299070 -40.257282
-7.322172 0.751374 -7.487533
3.480999 -8.552684 -57.410721
1.981005 -8.136843 -54.634590
20.417476 0.067857 -53.556396
10.208272 -8.475554 -5.449243
0.615473 19.811645 -36.568695
13.600420 -7.208321 -3.987505
1.506959 -7.976250 -59.627893
21.308278 9.431684 -41.291287
19.853711 13.266564 -35.368143
4.386288 20.920305 -56.661632
4.540728 -8.741921 1.229568
21.640709 5.035130 -59.206445
21.440707 3.436505 -4.843991
21.677955 5.939330 -18.309373
-3.743295 -4.674686 -28.178319
-3.186506 -5.192036 -19.371214
13.281988 -7.366982 -41.549248
2.826841 -8.389394 -1.438636
21.678326 6.417113 4.760564
-6.549303 -0.947934 -25.497490
19.952271 13.086960 0.179733
19.115303 14.493388 -52.564522
21.556826 8.001837 -47.812862
9.743535 -8.581099 -0.206388
15.181309 18.458378 -41.128518
20.545374 0.378291 -46.415139
8.164664 -8.825908 -44.193501
15.062776 -6.342132 -20.913563
19.819283 -1.131882 -31.597493
2.892090 -8.406201 -4.323034
16.903508 -4.872714 -10.074267
17.487293 16.497631 -38.715768
-8.095975 3.575781 -36.788427
-7.515422 10.909456 -52.327634
15.225919 -6.227883 -25.561867
2.468820 -8.295754 -18.374875
-0.452287 19.283448 -39.919840
-0.532470 19.239450 -56.162779
8.673881 20.959183 -47.837189
16.210648 17.676758 -4.762158
20.790958 11.198337 -44.985230
-0.237175 -7.204695 -45.390423
12.269887 20.012567 6.264026
-3.445429 17.151805 -25.849577
-0.034309 19.506480 -61.038794
-4.846368 15.679662 -40.558867
20.204920 12.580748 -8.427066
17.528751 16.453415 -14.385075
-6.920340 12.397196 -60.361397
13.611826 -7.202062 -5.186228
6.863727 21.091179 -58.892299
13.512102 19.454962 3.110082
-1.880251 -6.210131 -30.849992
14.690959 18.775145 -25.060691
-3.083886 17.474977 -20.858467
8.388399 -8.797807 4.409860
21.213205 9.803158 -8.486844
2.535627 -8.314385 -33.600734
-8.288190 6.872922 -58.534397
21.567534 7.916557 -26.741351
-8.299297 6.698492 -48.338010
11.477841 20.305602 -14.926315
-6.957307 -0.120750 2.341426
15.053686 -6.347891 -8.445099
6.344946 -8.893656 -43.354279
-2.170976 18.196044 -24.634557
21.677784 5.719087 -32.502126
15.038699 -6.357386 -4.241937
-0.199314 19.422261 -16.733258
1.401672 -7.934467 -23.205655
-3.607701 -4.802209 -44.294806
5.951901 -8.877571 -0.883226
21.248058 9.666979 -35.952583
-6.450789 -1.127455 -3.677355
16.742529 17.221654 -20.677455
-7.716417 1.907189 -37.019615
0.767128 -7.682648 -32.648072
10.764453 20.530024 -18.462876
-5.592219 -2.509134 -49.497829
20.094742 -0.616677 3.142982
20.801747 11.171025 -23.749811
-5.903939 -2.044083 -31.852953
16.902458 17.071245 -35.269178
6.479234 21.091478 -51.607512
-6.887319 -0.269780 -5.847485
18.633516 15.160985 -41.843839
14.090431 -6.939439 -50.033011
17.197183 -4.597358 -26.524677
-6.280998 -1.436862 -48.171592
21.677921 5.895320 -5.103187
-0.222362 -7.212853 -34.038261
18.337910 -3.336729 -52.986876
-3.862143 -4.562914 -32.558060
21.503685 3.777645 -32.719278
9.507410 20.823332 -39.918406
-7.567795 10.748691 -40.324699
8.871203 20.934098 -51.472213
-5.242272 15.188050 -27.417742
-7.250876 11.626449 -21.275087
19.372323 14.087693 -17.369363
21.678396 6.507284 5.754456
19.930666 -0.929649 -28.793172
-8.057409 8.825239 -9.548307
16.538503 -5.208469 -40.463384
21.321643 2.815027 -5.296974
14.611335 18.825756 -5.025210
-8.307043 6.205332 -14.972304
10.893337 20.496004 -21.801881
-8.183393 8.021080 4.351901
8.060510 -8.837385 -45.949103
-2.899446 -5.429874 5.966402
-7.842983 2.397039 -3.327032
14.430801 18.940510 -48.825747
21.561782 4.234779 6.723585
18.347969 15.521579 -28.434972
-8.307142 6.072634 -12.599953
4.699129 20.959598 -54.138979
-7.436009 1.041986 -51.230930
8.929955 20.926629 -55.854342
-3.361016 17.230953 -57.393268
13.584646 -7.216976 -60.139778
-0.234909 19.402729 -25.122076
16.733299 17.230334 -7.508285
18.085059 15.839868 -7.824049
14.931877 18.622009 1.742022
10.333580 20.641006 1.323623
21.678048 6.058548 -42.274107
9.217165 20.878917 4.470652
17.324432 -4.472971 -12.399706
16.181977 17.700513 -44.294253
4.428894 -8.727704 -43.483455
-3.941777 16.682812 -58.544342
-4.570031 -3.816352 -39.614080
21.395568 8.997174 -17.051527
-6.200458 -1.576070 -35.538134
6.216632 -8.893564 -9.485049
-1.810658 -6.260778 -5.705830
15.255188 18.404611 -24.959998
-8.306764 6.578841 1.127432
9.056605 20.909667 1.523157
-8.291328 6.823639 -55.635401
14.730660 -6.552550 -18.059657
-6.367266 13.476438 -4.711065
4.190380 20.885416 -19.284635
-7.709071 10.315025 -27.613226
20.456340 0.153912 -47.352849
16.837805 17.132050 -12.960273
6.559869 21.091415 -13.436490
20.650995 0.644471 -23.361498
21.592873 4.479417 -40.316717
-6.705459 12.852970 -22.628868
21.199947 9.854963 -10.859570
9.380905 -8.649977 -34.242377
21.622674 7.455448 -32.578926
0.994341 19.970511 -4.176608
-7.963040 2.876022 -0.493393
0.733382 -7.669256 -25.512727
-6.916700 12.404917 -32.182926
-5.269891 15.150097 -5.509169
12.422857 19.951861 -14.306731
11.514573 20.293636 -15.625677
21.593065 4.480933 -27.479380
-5.494662 14.841224 -39.230150
0.527123 19.770152 -6.477021
15.887889 17.944156 -20.740228
21.541190 8.126352 -60.542907
21.508913 3.818786 -40.607035
18.522754 -3.113621 -15.579804
4.116449 20.871374 -21.426711
21.079391 1.880457 -38.744488
-7.991907 3.027979 -36.419788
4.156614 20.879003 -46.654500
-8.064139 3.408200 -48.080473
18.170982 15.735847 -32.410061
21.576096 7.848374 -25.937977
11.675890 20.241088 -29.703583
11.470497 20.307994 -41.089725
20.962632 1.522047 -25.314874
18.593236 -3.018120 -32.218662
-1.404552 18.721522 -49.162848
10.426900 20.616970 -25.983206
-7.734814 10.220509 -56.906946
-5.301955 15.106036 -4.356845
20.529150 11.861060 -43.582886
14.360650 18.985100 -11.571809
2.744778 -8.368257 -2.914499
14.300738 -6.824038 -16.991112
19.729836 13.492299 0.711256
7.321135 21.081192 -13.647020
18.061141 15.868824 -15.702088
20.558744 0.411984 -28.378620
3.487189 -8.553870 5.044282
3.192627 20.680601 -48.179325
-0.362946 19.332472 -25.778133
15.156237 18.476624 -0.162033
-5.913512 14.226008 -37.471807
16.220389 -5.471250 -16.605515
-5.701159 14.557459 -51.350593
15.454062 -6.062394 -36.820629
-7.998452 3.062431 -47.525427
-4.680666 -3.682942 -6.276589
4.669790 -8.758327 -29.035470
0.407837 -7.516933 -9.475489
-8.277239 5.152471 -51.139689
17.609904 -4.169457 -5.397737
19.870164 13.236583 -56.353097
19.455844 13.955859 -43.086112
-0.290082 -7.175556 6.871179
-0.122639 19.464334 -21.780724
19.706839 13.534207 -18.379088
-7.295684 11.513526 -54.087957
19.091700 14.529368 -4.518864
12.344928 -7.785641 -3.969356
9.475154 -8.632075 -36.897021
-3.715191 -4.701118 5.484715
11.488071 20.302270 -21.461158
-3.804867 16.814787 -37.184196
-5.942850 14.179853 -40.115818
-4.376891 16.220177 -42.995098
-8.256612 7.368875 4.434473
21.414798 8.895953 -27.896231
8.226029 21.016117 -29.015546
21.651156 5.199204 -37.849409
20.459011 12.038605 -25.471219
5.959686 21.075138 -48.160336
-6.911751 -0.217754 -41.623625
4.711329 20.961131 -21.111537
21.677979 5.970109 -34.177276
20.041629 12.924125 -47.973975
-3.620142 16.987990 -55.010319
-8.106222 3.629723 -34.734606
11.048587 -8.247596 2.228021
2.463798 20.490815 -40.926900
18.467300 -3.180554 -39.184176
1.618685 20.216917 -33.368083
-1.176043 -6.669272 5.256383
21.175479 2.247563 -9.710256
19.993060 13.012631 -26.207514
-7.025582 12.173973 -41.284772
17.352965 16.640895 -55.204603
8.167773 -8.825518 -24.613516
18.957287 14.714660 4.339547
-7.160778 11.853510 6.182717
21.312922 2.781169 -24.794174
-1.149821 18.882918 -13.809359
-6.384528 -1.248201 -43.374325
-5.341621 15.051528 -26.355000
-1.924975 -6.177583 3.485002
-8.307115 6.108465 -56.842447
11.603026 -8.067904 -14.231583
-5.386907 14.989297 0.397881
-7.209187 0.465370 -51.338706
21.535937 8.168188 -31.914051
16.227663 17.662660 -61.102128
18.861000 14.847394 -10.801523
-3.060192 17.494550 -8.546179
-5.084359 -3.194216 0.539603
21.678100 6.125784 -12.052087
-4.760459 -3.586341 -11.997303
5.307158 -8.836520 -0.550087
12.842162 19.771352 -5.359539
-1.445062 -6.498274 -24.209068
20.960511 1.515539 -9.879539
13.486342 19.467633 -60.774534
21.417791 3.316862 -25.595055
-1.502763 -6.461597 -52.606674
17.217760 16.774713 -31.712867
4.132925 -8.677536 -41.289179
13.222615 19.591976 -10.972395
16.407365 17.513771 -42.378475
16.926333 17.048792 -6.134989
9.118596 20.897795 6.807691
21.011601 1.672365 -43.926364
21.557498 7.996482 -17.371493
-6.192509 -1.588617 0.006751
-3.414965 -4.983471 -49.159493
-6.268750 13.655298 -38.789509
-3.453737 -4.947007 -47.961842
4.429710 -8.727808 -26.232491
-7.786099 10.021373 -39.176879
10.031470 -8.520803 -51.130940
10.364633 -8.435536 -25.718816
-7.063717 12.093087 -50.732717
-7.409123 11.227642 6.235024
10.734337 -8.340916 -24.058983
2.098002 -8.174956 -4.181481
-1.982370 18.332848 -42.854985
21.654748 5.255622 -51.824687
11.044090 20.446896 -58.171802
13.174423 19.614697 -25.368133
-8.168338 4.055820 -13.976019
13.233558 19.586816 -23.757826
7.522585 -8.870793 -47.581349
7.710303 21.056415 5.849546
6.172207 21.088351 -35.853323
-8.306933 6.352137 -37.981241
4.970136 -8.796508 -15.739653
-6.077184 -1.770640 5.812953
6.970838 -8.894102 3.945486
0.644906 -7.628703 4.317876
7.361959 -8.880768 -11.743216
-4.641277 15.927197 -10.282988
11.301026 -8.165781 6.585965
15.322787 -6.157617 5.814722
21.247934 2.528861 4.564781
-4.453019 16.139234 -42.253195
-7.515341 1.286765 -41.018309
21.678270 6.344644 -21.110498
2.957937 -8.423161 -48.260857
0.811178 19.898149 -48.159574
-3.863772 -4.561382 -50.142061
-8.064186 3.408447 -24.111939
-7.594411 10.666988 1.584195
11.193840 -8.200520 1.547097
-2.159756 -6.006718 -0.167694
21.663268 5.389426 -7.869219
21.060956 10.371664 -50.101033
21.234794 2.477845 -55.052916
21.677813 5.755982 -3.632780
14.986637 -6.390371 -47.510779
16.884237 17.088381 -22.181042
3.529563 -8.561985 -49.395372
-6.535824 -0.972497 -22.499497
2.237756 -8.220483 -3.336882
-8.270004 7.158544 -16.764118
-4.675355 15.886066 -11.898111
15.102159 -6.317180 -23.768011
-1.518373 -6.451676 -47.441335
19.384692 -1.870972 -41.548971
-4.554218 16.031634 -13.235498
21.414288 3.298576 1.208036
6.408104 -8.893701 -6.445676
-6.771959 12.711920 -9.539852
-1.617762 18.586433 -26.300414
15.081701 -6.330142 6.452821
11.152186 20.411684 -27.897960
5.315531 21.035092 -43.357327
-0.284655 -7.178545 -44.638962
-0.332475 19.349192 -24.004902
