68.994972 47.668081 -36.273264
62.778358 55.764894 -51.971475
65.213028 52.884227 -37.968169
64.393259 53.857225 -1.361142
61.585709 57.057461 -22.860324
62.503863 56.086101 -10.160570
60.765648 57.925042 -52.890571
65.304488 52.767978 -51.746725
69.402322 47.063514 -36.750810
68.046602 49.075620 -4.625083
62.568142 56.013224 -17.020659
62.239682 56.365591 -15.724780
66.102364 51.708760 -54.738093
69.556411 46.834830 -0.406035
68.615665 48.231027 -51.555973
64.881793 53.280126 -42.918771
69.945392 46.257521 -6.913731
60.255063 58.465214 -24.304055
67.024175 50.490366 -56.399311
69.935365 46.272402 -53.282885
63.009387 55.495493 -26.999024
67.111213 50.375324 -50.703250
66.878904 50.682377 -56.122783
61.470685 57.179150 -31.833494
68.241095 48.786942 -51.273113
68.231214 48.801614 -37.422948
65.675456 52.273021 -46.987373
61.642507 56.997371 -0.793520
68.724280 48.069826 -32.255494
61.967526 56.653518 -54.715935
62.650931 55.915432 1.326916
67.710217 49.574846 -22.183107
65.260090 52.822019 -3.382156
65.844145 52.050058 -59.300263
60.693512 58.001358 -14.278507
59.979934 58.756285 -17.909189
69.211467 47.346771 -34.054830
62.162908 56.446814 -32.793084
62.497312 56.093032 -40.076168
60.591449 58.109335 -48.617685
69.915703 46.301583 -61.002978
67.722078 49.557242 -0.939978
62.792514 55.759379 -24.423334
64.398094 53.851514 -8.443828
64.082417 54.224421 -25.886263
68.343557 48.634874 -47.728470
63.313696 55.132503 -39.600133
69.628285 46.728153 -47.850778
59.780138 58.967659 -58.759649
63.180818 55.289471 -29.010371
66.832506 50.743703 -31.195596
68.579023 48.285429 -6.527492
66.514959 51.163417 -53.142019
67.858071 49.355417 -30.284526
63.700780 54.675244 1.354529
68.920434 47.778705 -55.814883
63.105906 55.388269 -8.360698
64.559311 53.661071 -26.354240
67.499597 49.861981 -15.734263
67.524869 49.828578 -8.538807
60.705868 57.988286 -60.405614
60.230494 58.491206 -28.359139
64.540027 53.683851 -35.082685
65.686617 52.258269 -59.213597
68.848484 47.885510 -1.059047
61.371639 57.283935 -43.143910
63.900503 54.439314 -46.774017
61.113953 57.556553 -32.212479
67.901828 49.290464 -55.064534
60.259437 58.460586 -25.003978
60.943911 57.736449 -42.785076
60.885726 57.798005 -44.481698
69.122384 47.478985 -17.254138
65.626270 52.338031 -47.771392
64.355971 53.901273 -4.558597
60.992638 57.684898 -13.658691
62.485216 56.105829 -16.770807
60.728139 57.964724 -9.792207
60.172202 58.552876 -20.490129
69.242009 47.301443 -59.957125
61.622976 57.018033 -20.941908
66.120154 51.703013 -4.071657
67.333465 50.081565 -16.257785
65.157208 52.954780 -53.988932
69.278405 47.247425 -31.395860
68.319338 48.670820 -40.467075
61.968568 56.652416 -26.140936
66.190952 51.591670 -39.528636
69.392513 47.078073 -60.122952
61.150772 57.517600 -7.114807
62.945406 55.569502 -33.676879
64.579039 53.637766 -59.585662
69.544332 46.852751 -37.108916
64.754896 53.430027 -18.451878
65.287893 52.785267 2.228663
64.235845 54.043178 -23.209138
66.712304 50.902574 -8.096482
64.016286 54.302540 -44.458301
66.809361 50.774294 -46.865147
66.762110 50.836744 -8.458485
69.781977 46.500053 0.300734
67.364255 50.040868 -49.555425
59.728381 59.022416 -46.736386
61.690314 56.946794 -24.794380
60.355952 58.358478 -17.711176
67.178915 50.285836 3.599335
66.197458 51.583070 -45.678796
63.817075 54.537866 -15.841770
65.095647 53.027501 -16.907925
65.052754 53.078170 -55.904972
59.764558 58.984142 -2.049615
62.587766 55.990043 -27.030521
60.467563 58.240400 -33.608647
63.006263 55.495672 -49.093511
68.320090 48.669732 2.413289
62.675233 55.886725 -7.061156
69.378402 47.099016 -25.499111
69.165367 47.415189 -26.016757
68.566917 48.303380 -30.682624
64.781379 53.398743 3.020547
60.587002 58.114040 3.083768
59.879970 58.862042 -44.766283
68.245984 48.779687 -52.651045
65.690581 52.253030 -50.900632
60.442276 58.267152 -54.157646
61.246566 57.416256 -48.485308
67.108351 50.379107 -24.766147
67.844069 49.376195 -42.323924
66.725493 50.885141 -4.043970
63.264143 55.195581 -10.530753
67.441302 49.939032 -51.325419
63.499727 54.912747 -16.729615
62.863123 55.681401 -2.593590
60.894226 57.789013 -14.546655
61.805503 56.824929 -3.919738
66.376245 51.346760 -52.369963
60.864390 57.820577 -58.022749
63.127808 55.352091 -44.605428
66.268633 51.488994 -24.598555
61.121050 57.549045 -8.097391
66.850232 50.720273 -30.461403
62.047315 56.569105 0.894261
62.820832 55.716269 -41.514273
64.836546 53.333575 -12.621305
61.231699 57.431984 -24.642239
66.095582 51.717724 -52.130052
63.452954 54.968000 -53.545777
64.096447 54.207848 -34.197724
62.826477 55.719723 -21.595546
68.586111 48.274889 -48.651167
66.729591 50.879728 -54.789979
63.364786 55.072151 -54.608327
67.266585 50.169963 -57.132933
62.884020 55.659308 -3.122736
67.116597 50.368208 -14.980670
67.491603 49.872547 -12.055642
69.268447 47.262204 -43.264884
60.744058 57.947882 -47.321015
64.136184 54.160906 -6.387348
67.947173 49.223168 -50.152952
63.704099 54.671324 -55.581815
60.434259 58.275634 -14.959677
68.389183 48.567158 -60.793665
69.596956 46.774649 -50.507153
63.172590 55.305220 -12.850518
66.759066 50.840771 -53.126170
62.570206 56.010785 -8.882233
68.988540 47.677630 -18.628565
66.189530 51.593548 -27.431912
68.479542 48.433075 -6.292708
64.289889 53.979336 -44.169738
60.804509 57.883929 -49.237781
65.592888 52.393317 -33.378804
60.899799 57.783117 -19.347909
66.009037 51.836105 -20.173707
66.524316 51.151049 -25.488507
66.379348 51.342659 -35.820738
65.705256 52.233631 -42.842319
67.561683 49.779919 -26.254449
66.928423 50.616924 -24.954232
65.805457 52.101194 -46.351489
60.739101 57.953127 -3.924271
61.651066 56.988316 -42.226593
62.376246 56.221114 2.063692
69.624991 46.733042 -55.377554
66.775257 50.819370 -50.249441
68.450523 48.476126 -32.040751
64.415158 53.831357 -45.907324
62.445187 56.148178 -25.351431
66.888811 50.669282 -49.985100
64.158177 54.134926 -9.274212
63.642710 54.743842 -16.912271
67.685878 49.610967 -15.845163
68.258890 48.760554 -10.984594
67.328592 50.088005 -36.203493
66.958172 50.577601 -0.787426
63.979270 54.346267 -11.170614
65.426076 52.602636 -50.160900
68.436903 48.496348 -21.539023
61.297930 57.361915 -17.387846
63.226565 55.235735 -20.867547
61.542223 57.103466 2.087233
63.890094 54.451610 -42.820879
69.153407 47.432940 -50.325914
63.560673 54.840752 -18.028736
64.812557 53.361913 -20.753390
66.076757 51.742602 -23.418931
62.025743 56.591927 1.221262
66.639838 50.998356 -10.439856
68.789221 47.973447 -26.459516
62.010065 56.608513 -13.941528
68.263385 48.753861 -57.538752
69.601551 46.767831 -3.633130
69.031773 47.613463 -23.211865
69.330132 47.170655 -38.301181
65.318084 52.746462 -40.250548
68.302369 48.696016 -25.026843
66.706628 50.910079 -43.814260
66.699386 50.919652 -28.624835
61.358195 57.298158 -51.154123
63.702488 54.673227 -18.721843
66.040651 51.790328 -56.475379
69.886948 46.344260 -48.434819
60.823751 57.863572 -52.512283
62.625902 55.947819 -50.111413
65.415489 52.616630 -58.596051
66.779096 50.814296 -16.752464
61.882894 56.743054 -61.057410
64.887632 53.273227 -61.116060
65.394088 52.645312 -26.850919
68.938827 47.751408 -51.322832
68.840821 47.896876 -10.688288
66.903254 50.650190 -9.241548
62.717319 55.839503 -9.554902
63.990696 54.332770 -0.718537
67.458373 49.916469 -40.207709
64.537113 53.687293 -20.128380
67.776570 49.476372 -3.341464
62.716288 55.847709 -32.076107
63.620120 54.770528 -47.352452
65.927156 51.955551 -14.909919
66.565327 51.096844 -54.295414
68.417663 48.524910 -10.834428
63.931958 54.402155 -4.513199
63.243090 55.215910 -45.242990
60.748355 57.943337 -5.061941
61.273138 57.388144 -0.002102
69.206299 47.354441 -42.143464
61.751115 56.882469 -35.247838
61.711222 56.924674 -9.108634
67.180981 50.283108 -32.433206
68.363428 48.605383 -40.845558
63.732913 54.637286 -34.190750
67.761803 49.498286 -11.740974
68.392426 48.562369 -5.037652
61.738897 56.895395 -22.113958
62.805144 55.733487 -44.950789
66.236946 51.530877 -46.738263
68.354913 48.618051 3.825327
69.429572 47.023072 -30.074441
67.958786 49.205930 -53.149893
61.634916 57.005402 -35.026040
67.768030 49.489045 -46.202992
68.625403 48.216575 -53.097946
67.147570 50.327270 -51.780010
67.047796 50.459145 -46.497240
62.373973 56.223519 -52.510883
67.480741 49.886904 1.691301
62.088563 56.525467 -36.083984
63.915613 54.421464 -10.858165
66.985942 50.540899 -59.931954
66.926882 50.618961 -19.871021
65.040257 53.092934 -16.155618
63.586896 54.809775 -21.094533
63.685201 54.693648 -16.270585
61.564852 57.079525 -27.712583
65.143126 52.971415 -6.557691
61.049656 57.624576 -45.106108
68.500456 48.402014 -39.709958
68.469764 48.447564 -46.440599
64.076786 54.231073 -42.811665
62.094246 56.519455 -12.071302
66.394537 51.322582 -24.805302
69.935817 46.271732 -0.630170
66.623650 51.019755 -22.320767
68.889683 47.824363 -0.243889
61.019403 57.656582 0.577374
68.292943 48.709993 -59.870201
66.140508 51.658343 -53.070863
69.934225 46.274093 -44.752328
67.465713 49.906767 2.307618
67.198671 50.259728 -50.447204
60.434894 58.274962 -49.027210
61.381631 57.273364 -27.109801
66.962768 50.571530 -39.953287
63.648493 54.737012 -49.983308
66.398286 51.317628 -49.004670
66.148351 51.658160 -8.866578
64.577450 53.639643 -16.752714
64.208811 54.075113 -4.739976
68.655697 48.171616 -29.388186
66.025171 51.835070 -3.177346
60.689591 58.005506 -42.285527
61.409539 57.243838 -12.925273
60.880999 57.803006 -59.670835
66.412686 51.298595 -38.125599
60.327223 58.388872 -12.334076
68.675395 48.142393 -12.130315
65.400944 52.643169 -35.876151
60.643431 58.054341 -61.118062
66.283700 51.469076 -11.121067
65.289538 52.783093 1.573363
65.937981 51.926926 -25.892016
66.778062 50.815659 -4.600308
67.780663 49.470293 -52.945701
67.774450 49.479518 -31.768684
64.322129 53.941251 -37.201924
63.948405 54.382727 -12.184627
68.546030 48.334385 -23.706675
68.332297 48.651608 -8.833160
67.731356 49.543473 -14.482884
69.499841 46.918782 -10.065977
68.743159 48.041827 -3.989548
65.976162 51.875566 -42.348963
68.993384 47.670444 -16.164637
63.599591 54.794777 -7.399993
63.200315 55.276850 -2.792529
65.246169 52.840420 -17.840623
69.082514 47.538163 -11.980459
69.091825 47.524337 -24.595246
69.458730 46.979797 -10.421620
65.858155 52.031540 -52.555435
62.963602 55.546706 -35.161992
66.021558 51.835298 -6.986349
66.178989 51.607482 -58.801240
63.707294 54.667550 -17.206528
63.544198 54.860394 -3.056719
60.216751 58.505746 -21.411452
65.166638 52.943640 -57.806712
69.423831 47.031591 -30.348181
63.527426 54.880027 -53.845352
67.148346 50.326244 -10.921856
65.161394 52.949835 -51.265714
63.749022 54.618257 -20.966568
68.512339 48.384377 -41.101661
65.223494 52.870392 -42.445507
69.151024 47.436493 1.369720
68.683794 48.129919 -23.973608
63.792744 54.566608 -46.344447
61.261446 57.400514 -30.338922
69.276411 47.250388 -9.641757
64.471256 53.765088 -19.760949
63.566075 54.834371 -31.737727
60.207810 58.515205 1.600412
60.788698 57.900656 -23.550506
65.494941 52.522243 -38.267625
61.597071 57.045439 -45.226773
63.302831 55.145338 -19.479729
60.723299 57.969845 -20.604913
66.962588 50.571768 -22.957237
60.224845 58.497182 -17.261719
62.540878 56.045428 -44.591475
68.877183 47.842915 -0.720209
60.994758 57.682655 -32.787978
68.531234 48.356350 -14.910099
64.433535 53.809648 -51.557224
61.027062 57.648479 -33.896758
68.200243 48.847577 -39.498080
64.545015 53.677958 -32.875755
68.057177 49.059905 -48.427687
61.112661 57.557920 -26.093655
63.695628 54.681331 -17.796553
65.404238 52.631477 -3.927440
67.627956 49.692324 -59.773701
60.167665 58.557676 -12.506046
65.030442 53.104527 -40.419035
61.269718 57.391762 -30.859502
66.389530 51.335546 -0.957848
65.749577 52.194188 3.602568
66.938594 50.603481 -42.490100
62.823707 55.711324 -59.615672
61.356911 57.299516 -50.207222
62.400608 56.195340 -46.472401
68.415303 48.528416 -5.503905
62.875208 55.650486 -54.447852
65.497207 52.508586 -7.473531
68.204284 48.841596 -14.495322
63.795729 54.563083 -35.616111
63.981502 54.343631 -30.058895
63.557589 54.844396 -38.167490
64.924848 53.229265 -21.528345
61.232105 57.431555 -47.556827
67.456050 49.919540 -45.825561
63.193993 55.273908 -59.080332
59.733179 59.017339 -28.326970
68.799882 47.957636 -11.226845
60.691558 58.003425 -7.336516
65.349840 52.703383 -11.952408
63.990167 54.333395 -47.336893
68.431348 48.504580 -38.946861
60.371296 58.342245 -48.285619
68.834639 47.906039 -58.588559
63.269723 55.184449 -47.409711
69.660252 46.680709 -6.437390
65.664224 52.287867 -48.066874
68.860862 47.867122 -24.354703
63.589911 54.806213 -50.436103
65.601640 52.370586 -52.460130
63.896857 54.443621 -14.385312
64.630100 53.577448 -43.383883
63.896936 54.443527 -7.644176
61.847365 56.780642 -9.287604
63.948308 54.382842 -21.000927
66.381303 51.340076 -49.564448
69.364436 47.119743 -44.232493
69.595535 46.776758 -37.525753
63.621925 54.768395 -10.207656
68.287161 48.718594 -14.959570
63.085251 55.402364 -52.698035
64.791971 53.386231 -43.883938
67.107069 50.380802 -58.889632
62.721107 55.838483 -17.694829
64.990375 53.151858 -20.900466
61.843634 56.784590 -0.680948
69.401700 47.064438 -33.457024
67.094884 50.396906 -49.108040
65.228741 52.863457 -5.425501
64.197549 54.088417 -22.495651
64.038255 54.276588 -4.259872
69.942114 46.262385 -43.597119
68.824784 47.920664 -33.602743
67.781359 49.469264 -18.038083
64.284029 53.986258 -37.599026
66.628058 51.013924 -5.314434
61.942518 56.679976 -11.708640
64.631737 53.575514 -38.341929
66.736271 50.870900 -19.055745
65.078870 53.047320 -59.252387
69.358439 47.128644 -56.607354
61.362250 57.293868 -11.047314
61.830380 56.798611 -29.512087
59.827099 58.917977 -52.152207
69.622105 46.737325 -13.340119
64.191324 54.095769 -28.056724
61.335266 57.322416 -22.032845
66.272687 51.497389 -0.343200
68.029873 49.100448 -0.590111
62.568478 56.012826 -11.809723
61.942261 56.680247 -0.446875
68.173751 48.886893 -43.378200
67.551862 49.792901 -14.479288
66.248650 51.515408 -50.647613
69.231635 47.316854 3.224660
69.733820 46.571524 -49.981068
64.484236 53.749756 -48.673085
68.923124 47.774713 -46.398027
69.825802 46.435009 -12.266070
59.718335 59.033043 -9.657405
61.671038 56.967186 -59.215871
62.257013 56.347256 1.136646
69.566196 46.820303 -45.790730
64.524136 53.702622 -2.575807
69.795773 46.479579 1.705220
65.305177 52.768342 -50.694199
62.077028 56.537671 -43.205834
63.388877 55.043693 -50.366812
65.088088 53.036431 -14.814463
64.210889 54.072658 -54.544333
64.481215 53.753324 -5.968977
60.447349 58.261786 0.955398
67.707307 49.579164 -17.193459
69.650585 46.695062 2.340371
65.435415 52.601683 -36.233105
66.036165 51.796255 -29.965225
68.478923 48.433986 -19.558637
65.193070 52.910609 -6.930896
64.194057 54.092541 -40.173395
68.633277 48.204912 1.970710
66.903300 50.650131 -31.463132
65.861840 52.026670 -56.394781
65.531097 52.475001 -20.327185
67.568169 49.771346 -3.314169
60.107688 58.621129 -13.969951
67.952561 49.215185 -19.493448
63.247443 55.216983 -8.235607
69.945497 46.257365 -39.572931
60.617253 58.082036 -34.326428
65.662756 52.306433 -6.866770
67.534190 49.816258 -29.387884
68.874630 47.846686 -31.673942
67.039519 50.470084 -10.039729
61.238140 57.425170 -21.792025
63.888940 54.452973 -52.240041
65.585118 52.392424 -57.214323
62.953387 55.575047 -4.235502
63.729453 54.641373 -14.547534
60.531537 58.172719 -27.206320
63.919074 54.417377 -17.634988
66.500027 51.183148 -6.690475
65.923549 51.973566 -4.456043
69.787005 46.492589 -57.606162
64.724582 53.465837 0.076890
61.541618 57.104106 -39.022505
63.559969 54.843408 1.023554
60.102712 58.626393 -8.322449
67.967393 49.193160 -46.959044
65.750795 52.199417 -6.224187
67.914662 49.271416 -60.150747
63.070367 55.431468 -8.024439
63.611726 54.780444 -49.708993
62.277939 56.325117 -29.425006
69.947523 46.254357 -57.447884
62.938670 55.575518 -40.555531
60.755705 57.935561 -21.902361
69.303347 47.210408 -40.868893
67.080312 50.416168 -50.216814
65.580174 52.416768 -22.055751
60.942546 57.737893 -36.666399
60.894384 57.788845 -50.571535
68.318558 48.671981 -36.244152
62.199660 56.407932 3.238222
62.272944 56.330402 -25.188068
62.712653 55.844921 -10.744564
67.950312 49.218511 -46.290507
67.783620 49.465909 -9.921047
69.237799 47.307691 -17.514500
66.987071 50.539407 -22.323008
65.287309 52.786039 -10.039454
65.211344 52.886454 -48.949335
68.217986 48.821254 -23.617405
68.190577 48.861919 -49.197418
69.197020 47.368213 -56.661270
64.319866 53.943924 -6.021496
64.573770 53.643990 1.683660
67.631651 49.687440 -29.067065
61.876537 56.749779 -53.829456
67.266563 50.169991 -17.248078
60.020593 58.713271 -29.426631
60.260999 58.458934 -52.426333
61.594740 57.047906 -14.198153
69.713503 46.601677 -24.099198
69.946720 46.255550 -50.178809
63.796709 54.561924 -37.939500
67.143120 50.333151 -38.774377
63.446879 54.975176 -30.892391
65.449043 52.583703 -34.061415
68.532390 48.354619 -48.091030
62.430747 56.163454 -27.513758
63.568341 54.831694 -14.467997
65.251953 52.832775 -32.387891
67.259720 50.179036 -46.560919
61.891444 56.734008 -21.493774
60.205488 58.517661 -17.561983
66.979067 50.549986 -51.695809
67.761149 49.499257 -19.988764
60.681700 58.013854 -44.913536
67.333042 50.082124 -13.740517
66.180066 51.606055 -25.065221
63.340686 55.100620 -41.868569
62.167543 56.441911 -3.228174
64.371297 53.883169 -6.289404
66.091881 51.722616 -60.244843
64.302692 53.964212 -53.090038
64.962815 53.184415 -30.500553
61.079545 57.592955 -58.088203
66.118259 51.687751 -50.439743
63.807466 54.549218 -32.242529
62.568583 56.012702 -0.482382
61.012245 57.664155 -52.011319
68.742346 48.043014 -52.222667
68.211801 48.830434 -23.372367
66.468957 51.224214 -5.258065
59.927213 58.812062 -58.606041
62.185472 56.422943 3.838399
67.077407 50.420007 -25.246058
60.050635 58.681487 -36.821736
69.684884 46.644152 -40.163336
68.405736 48.542592 -48.793909
69.898943 46.326458 -46.142812
68.778999 47.988615 -50.369411
68.996746 47.665456 -12.871953
64.242757 54.035012 -3.466373
65.070995 53.056623 -57.436457
62.876776 55.656860 -25.406670
63.521394 54.887152 -36.678396
60.663967 58.032614 -52.338053
68.234379 48.796911 -43.860044
61.137494 57.531648 -31.936288
65.343335 52.711982 -21.657626
62.745552 55.805986 -0.386295
62.778340 55.777786 -18.634897
65.979353 51.901325 -0.698042
69.946709 46.255566 -41.473298
61.567054 57.077196 -1.785208
64.410818 53.836483 -42.566009
64.329600 53.932425 -2.166041
65.841424 52.053653 -36.382698
66.062560 51.783141 -3.486246
68.342701 48.636144 -54.727103
63.432564 54.992086 -29.366964
65.405371 52.637244 -35.046154
68.928991 47.766016 -12.029472
69.118660 47.484510 -55.778140
64.482664 53.751612 -47.659548
62.949164 55.579638 -5.244317
61.769794 56.862708 -11.841798
69.413612 47.046758 -32.199436
63.939532 54.393209 -1.371512
59.788851 58.958441 -22.463628
60.340036 58.375317 -31.928482
68.329975 48.655053 -11.330560
61.240629 57.422536 -3.183282
69.455589 46.984467 0.102043
67.560369 49.781657 -12.439200
67.176150 50.289495 -25.777004
65.418390 52.612769 -0.909497
61.506075 57.141708 -15.219882
64.769544 53.412724 -15.746360
65.954136 51.904676 -30.323076
65.168635 52.941282 -60.282668
66.885565 50.673571 -35.860363
63.887506 54.454668 -45.932507
65.325053 52.738997 -41.673428
61.344240 57.312922 -32.379600
68.690401 48.120107 -61.119837
68.062691 49.051728 -38.154142
68.859724 47.868808 -42.080925
63.595801 54.799255 -6.391542
64.673069 53.526689 -55.998232
64.244806 54.032592 -24.538930
61.803813 56.826717 -47.008710
60.158858 58.566993 -5.187505
68.500661 48.401725 -14.633990
60.664978 58.031545 -33.076900
66.745737 50.858387 -17.515118
65.218521 52.876966 -19.981461
66.468687 51.224573 -13.332195
69.557788 46.832780 -30.457994
64.534068 53.690890 -23.015867
63.579322 54.818722 -40.247514
66.950410 50.587863 -49.378004
64.054225 54.257723 -2.089047
65.835347 52.061687 -51.661321
62.947203 55.586036 2.545088
60.290149 58.428095 -60.482320
67.587469 49.745837 -32.405317
68.268546 48.746202 -48.217453
66.244122 51.521393 -50.100524
65.471451 52.553659 -29.784829
65.249621 52.835857 0.285790
66.211508 51.576133 -4.826872
65.998610 51.870914 -3.795415
69.283951 47.239195 -30.485489
68.843823 47.892408 -47.967462
66.198321 51.581929 -47.604402
68.775950 47.993141 -53.660210
67.630842 49.688510 -15.581132
62.085871 56.528316 -25.536367
66.042655 51.787679 -44.895130
61.304403 57.355067 -5.876855
68.547307 48.332492 -18.478673
66.599787 51.051295 -18.557900
60.189952 58.534098 -59.595693
64.841461 53.327769 -49.437125
68.314959 48.677337 -14.327564
65.495496 52.511040 -9.980758
66.309382 51.443468 -3.015678
64.307702 53.958293 -7.459027
67.246163 50.196956 -27.898051
67.145344 50.330212 -30.863430
60.499245 58.206882 -37.737588
60.038382 58.694450 -43.777612
61.499912 57.148229 -23.139610
62.434008 56.160005 -39.025913
67.100714 50.389201 -49.676492
65.245605 52.841165 -15.312413
67.180488 50.283760 -38.495895
69.470535 46.962276 -41.648691
59.825760 58.919394 -9.980329
59.724658 59.026354 -34.482454
62.886150 55.656217 -0.914096
63.030879 55.474094 -18.054779
60.555983 58.146856 -36.854119
68.022441 49.111466 -36.656660
60.350138 58.364629 -36.420573
67.616628 49.707297 -7.629187
68.550232 48.328154 -15.356946
67.239155 50.206218 -50.009029
68.415170 48.528590 -50.546857
66.648475 50.986943 -28.897251
63.114723 55.367548 -33.818720
62.116395 56.496022 -16.024247
69.604598 46.763308 -29.238791
63.818461 54.536229 -0.392252
64.941206 53.209941 -7.173244
65.236236 52.853549 -36.748728
61.997785 56.621506 -26.821577
68.328628 48.657037 -34.344177
69.030620 47.615173 -42.945651
65.067715 53.060498 -11.760280
66.350319 51.390763 -0.026746
69.382813 47.092468 -15.781717
63.541390 54.863531 -32.671952
69.422263 47.033920 -47.886014
62.596181 55.980103 -3.153944
67.301777 50.123448 -27.078395
68.110113 48.981339 -53.199160
64.581825 53.634474 -25.378109
67.066860 50.433947 -37.170077
67.580222 49.755416 -42.324269
63.432299 54.997647 0.395803
67.197692 50.261021 -48.190113
65.305933 52.766527 -48.099661
66.052461 51.774719 -37.470969
64.982115 53.161615 0.246663
65.842425 52.070756 -16.193840
60.762246 57.928641 -40.839807
68.861735 47.865824 -48.272297
69.812018 46.455467 -6.255212
66.975545 50.554637 2.349808
59.929216 58.809943 -44.026655
68.006305 49.135420 -26.644065
64.671914 53.528053 -5.875580
60.244279 58.476623 -37.910543
64.575945 53.641421 -50.957817
68.760832 48.015590 -14.003477
60.550989 58.152140 -58.955630
63.747880 54.619607 -45.164971
68.541267 48.341456 -20.295883
59.726038 59.024894 -57.486635
62.748203 55.803586 -42.697556
69.076812 47.546619 -35.593195
62.169822 56.439499 -61.092594
62.901582 55.619330 -47.193539
59.767621 58.980901 -24.279345
65.817449 52.085343 -60.498832
61.166274 57.501201 -55.645667
63.598830 54.795677 -42.256970
68.845070 47.890575 -1.610119
66.715965 50.897732 3.290802
67.921610 49.261119 -31.583903
69.244062 47.298409 1.144270
67.285577 50.144861 -12.637178
65.175086 52.933661 -18.457372
66.491260 51.194740 -33.165892
65.801324 52.106913 -32.626295
67.782808 49.467114 0.400757
61.526361 57.120247 -25.703147
65.652087 52.313666 1.465405
63.567080 54.833184 -54.584508
60.418413 58.292398 -1.131820
69.282491 47.241362 -42.674772
69.667143 46.670482 -11.051709
60.965494 57.713615 -47.766987
68.254850 48.766556 -2.549079
61.061334 57.612221 -28.513066
61.519704 57.127290 -9.856673
69.430804 47.021243 -53.386398
63.796364 54.562333 -50.599381
61.962969 56.658339 -38.211339
61.927676 56.695677 -8.213962
63.196232 55.284737 2.906138
69.276271 47.250593 -42.963634
60.007927 58.726670 -53.253599
61.861668 56.765510 -33.531894
60.342140 58.373091 -41.444604
60.265916 58.453731 -54.004047
61.399107 57.254875 -47.183056
65.190395 52.914144 -29.552902
68.273027 48.739550 -45.756389
68.560345 48.313129 -47.112633
63.586072 54.810748 -13.168749
68.494057 48.411511 -43.478636
63.529351 54.877753 -43.804053
68.258697 48.760818 -55.928757
69.760954 46.531253 -11.256391
64.661268 53.540630 -36.193959
62.569507 56.011611 -20.549735
63.578572 54.821446 2.106364
62.412842 56.182397 -25.971373
68.120874 48.965367 -53.570771
60.200624 58.522807 -22.903808
69.546473 46.849574 -28.516182
65.710340 52.226912 -41.940265
59.998142 58.737022 -31.732118
63.313737 55.132456 -40.164042
65.446650 52.575414 -13.958459
64.851954 53.315373 -8.546804
69.681182 46.649646 -43.779297
68.621505 48.222359 -50.504850
60.828586 57.858456 -43.418010
63.898214 54.442018 -54.453775
63.168482 55.304044 -53.989874
66.444221 51.256914 -47.914597
61.079107 57.593418 -16.368254
62.622367 55.954239 -45.967186
63.370386 55.069124 -6.337261
64.646386 53.558209 2.831444
67.203513 50.253327 -3.687772
61.299955 57.359773 -10.488603
67.328210 50.088509 2.570201
69.523587 46.883546 -0.829794
60.964254 57.714927 -60.445704
64.610460 53.600649 -20.703346
60.061991 58.669474 -24.134638
68.713868 48.085300 -1.184903
61.306642 57.352698 -34.031572
69.127174 47.471885 -5.363862
66.297302 51.451100 -22.342427
62.460249 56.132243 -20.359335
65.193471 52.910079 -56.377177
64.339836 53.920334 -55.031974
63.916520 54.420394 -40.687616
65.432574 52.603128 -33.310763
66.105548 51.718323 -7.939825
69.465126 46.970305 -27.102547
65.556632 52.430075 -50.363884
60.209016 58.513929 -25.585232
62.056158 56.559750 -22.849277
65.891124 52.000727 -18.513336
68.859236 47.869542 -16.084377
67.436261 49.945695 -14.684401
61.311523 57.347534 -19.605453
66.388003 51.334792 -3.249102
64.001833 54.319614 -27.729153
68.823012 47.923293 -51.922768
69.480857 46.946957 -35.903574
68.825068 47.920242 -38.926434
64.421794 53.823518 -46.489370
59.759175 58.989837 2.874734
61.684828 56.952598 -39.283976
63.418280 55.008959 -60.707479
68.655910 48.171305 -24.298468
68.639030 48.196363 -16.133158
60.314383 58.402456 -15.715915
67.249217 50.192919 -49.375135
69.574481 46.808006 -49.293881
62.634554 55.936890 -34.098443
69.710177 46.606614 -14.446764
63.038709 55.462661 -21.837706
67.893285 49.303156 -23.187347
62.296153 56.305847 -5.938687
64.652264 53.551265 -10.034565
68.844326 47.891672 -12.965746
67.182897 50.280576 -56.530837
63.272992 55.180587 -29.531857
66.901798 50.652116 -36.530302
65.228057 52.864362 -46.236145
64.691634 53.504758 -14.439754
61.645218 56.994503 -8.523550
67.432617 49.950511 -11.354236
66.838063 50.736353 0.944730
60.024793 58.708827 -45.543045
67.688729 49.606735 -37.340731
68.633149 48.205096 -7.972555
60.167586 58.557760 -4.174027
66.661755 50.969385 2.227268
69.653797 46.690290 -19.818694
63.985869 54.338472 -18.235689
69.877499 46.358283 -19.239658
65.493561 52.520928 -40.846895
69.819826 46.443878 -35.638412
62.451917 56.141058 -55.181187
65.201565 52.899379 -38.493059
67.967440 49.193102 -28.318319
63.332459 55.111575 -13.047428
68.157063 48.911660 -44.806786
68.415774 48.527701 -30.107608
62.110514 56.502245 -49.417068
62.517007 56.072196 -51.505556
64.280385 53.990563 -32.673843
67.453752 49.922577 -29.981538
63.350686 55.097169 1.785593
66.597968 51.053700 -35.573382
64.284580 53.985608 -21.767911
60.412686 58.298457 -55.601427
66.348695 51.383174 -56.918626
62.353566 56.245108 -33.023541
63.024586 55.474027 -35.419288
64.105506 54.197146 -17.547307
62.145717 56.465001 -58.725962
61.801453 56.829215 -22.755941
67.611625 49.713910 -7.372609
65.255276 52.829282 -56.986272
61.031126 57.644179 -14.094455
68.451479 48.474712 -24.737173
60.452575 58.256256 -29.868792
64.512034 53.716919 -25.711467
62.001255 56.617834 -10.689402
61.451579 57.199363 -13.518967
67.621500 49.700858 -61.096970
69.688185 46.639252 -42.593723
62.308587 56.292693 -13.594929
66.621405 51.022722 -20.588952
69.763094 46.528076 -37.495645
61.356363 57.300096 -36.699632
68.385017 48.573342 -52.230270
66.471120 51.221360 -40.276112
59.742346 59.007641 -2.589625
63.154142 55.320984 -31.018226
64.976059 53.168769 -24.218660
64.385489 53.866404 -12.909581
65.529265 52.466210 -2.796163
69.749588 46.548122 -49.217909
67.208389 50.246882 -41.687326
66.044634 51.785063 -59.501309
60.003592 58.731257 -50.703519
64.974220 53.170943 -35.404306
67.643027 49.672405 -13.279963
62.038208 56.578740 -14.202834
64.195082 54.091331 -56.336375
69.420003 47.037278 -4.619776
64.444979 53.796129 -24.046983
63.710675 54.663555 -8.685980
67.987487 49.163334 -51.316185
67.693684 49.599382 -34.802021
68.379480 48.581563 -35.334283
69.274909 47.252617 -11.006798
60.892301 57.791049 -6.209373
65.038773 53.094686 -32.562276
62.736579 55.814246 -57.458797
62.880147 55.661946 0.901704
65.556653 52.438373 -11.985854
67.523882 49.829883 -17.129540
61.944890 56.677465 -35.811840
62.428234 56.166113 -18.373906
65.085423 53.039579 -3.237813
62.751619 55.797194 -47.064372
65.735417 52.193769 -58.586427
61.426649 57.225737 -55.777777
67.279522 50.152862 2.266147
63.351942 55.087325 -45.473560
59.949252 58.788745 -51.330465
64.953029 53.195975 -5.164513
68.216079 48.824098 -4.327951
68.359797 48.610798 -1.529188
60.345853 58.369162 -22.730159
69.692236 46.633241 -54.090837
61.108362 57.562468 -0.857009
65.704694 52.256684 -8.361229
65.801445 52.134002 -0.216518
64.703782 53.490408 -0.232777
65.806253 52.103916 -29.583347
60.642201 58.055642 -30.795482
69.148157 47.440737 -12.239285
63.716741 54.656389 3.166172
59.740475 59.009620 -20.563047
60.640273 58.057682 -39.679849
62.398501 56.197569 2.867092
59.894698 58.846461 -27.531345
68.837472 47.901838 -23.019382
64.302812 53.964070 -34.629907
65.931881 51.960496 -5.726047
60.166590 58.558814 -23.686306
68.789567 47.972939 -18.977227
63.154051 55.336258 3.788709
63.964291 54.363962 -49.688175
64.731661 53.457475 -51.886024
69.379229 47.097788 -52.769431
62.293213 56.308958 -47.457533
62.948991 55.580823 -3.355359
59.747977 59.001684 -15.640997
61.117926 57.552350 -4.196900
61.489541 57.159201 -19.371719
60.545199 58.158265 -57.976750
68.771401 47.999893 -28.174846
63.725389 54.646175 -21.243113
69.343930 47.150187 -0.473364
64.133345 54.164261 -20.887140
65.996687 51.848437 -59.164597
65.346511 52.709454 -36.446901
64.005033 54.315834 -34.889561
64.284093 53.986183 -45.536963
65.964901 51.890450 -41.596965
63.353478 55.085510 -59.531808
66.123557 51.680748 -51.866022
69.113627 47.491990 -6.896819
68.038281 49.087968 -19.775230
68.253999 48.767803 -28.278792
62.583417 55.995180 -30.498296
65.639372 52.320715 -51.838984
62.121117 56.491027 -20.635451
66.515993 51.162047 -14.092692
62.482141 56.109082 -47.704895
61.977543 56.642921 1.517177
63.319511 55.125635 -40.674532
59.791410 58.955734 -59.957996
59.914309 58.825714 -11.041087
69.873377 46.364401 -13.156986
68.650112 48.179902 -58.704110
67.758576 49.503075 -51.457629
66.297367 51.451016 -55.494792
68.798899 47.959089 -20.016199
65.794923 52.127084 -23.532832
67.018796 50.497476 -47.377678
64.706358 53.487365 -49.951190
61.137926 57.531191 -1.734161
68.319102 48.671199 2.696426
63.256085 55.200559 -20.160942
59.988123 58.747622 -23.859062
69.773426 46.512743 -8.372171
64.371968 53.882377 2.396002
67.569221 49.769956 -53.371928
65.291654 52.780308 -59.184358
64.472601 53.763501 -18.168316
64.419833 53.825834 -61.107436
63.569140 54.830751 -36.084577
64.037667 54.277283 -19.915384
67.278168 50.154653 -24.704698
63.311029 55.135654 -24.907884
60.347074 58.367870 -39.726070
63.210181 55.263731 -5.066545
65.752050 52.180429 -28.147271
59.889359 58.852109 -5.409766
65.593497 52.385132 -39.266564
63.538104 54.867412 -9.275198
65.458984 52.559141 -60.983951
65.741614 52.207329 -18.118737
69.183408 47.388414 -42.480374
65.030277 53.104722 -1.051474
68.345035 48.632680 -44.070303
64.575931 53.641437 -47.368556
63.312869 55.133481 -55.172433
64.679085 53.519582 -0.629747
62.220721 56.385651 -30.327160
63.890583 54.451032 -13.435397
64.353296 53.904434 0.744092
63.220977 55.242031 -44.921003
68.491409 48.415468 3.679361
67.335302 50.079137 -40.417147
61.071735 57.601218 -39.710542
67.147535 50.327316 -13.158127
64.312657 53.952440 -32.088377
66.639863 50.998321 -7.219494
62.933336 55.595695 -11.255148
60.462967 58.245262 -8.519621
63.297750 55.153187 -13.836822
67.042426 50.466243 -51.384790
68.061063 49.054159 -11.034705
64.043511 54.270379 0.782063
64.541569 53.682028 -54.064625
68.459639 48.462592 -53.241522
62.655662 55.916090 -41.786264
62.054899 56.561082 -39.084641
65.274900 52.803091 -46.628677
66.938034 50.604221 -27.113099
68.693612 48.115361 -5.910720
65.066886 53.061477 -27.177992
65.332751 52.729402 -41.270034
59.746988 59.002730 3.470014
67.140303 50.336874 -11.766459
64.395028 53.855136 -35.609462
61.278958 57.381986 -39.981372
61.560172 57.084477 -38.231006
62.031243 56.586109 -30.644900
68.457706 48.465461 -41.398843
62.472035 56.119774 -1.756071
63.891355 54.450121 -58.421789
66.195034 51.586274 -40.176578
69.157669 47.426615 -51.593698
69.943910 46.259720 -0.126949
64.530201 53.695458 -18.606192
63.084473 55.403282 -35.667317
64.092353 54.212683 -21.772913
62.368664 56.229135 -41.953583
68.419427 48.522275 -34.847151
67.593918 49.737313 -45.702327
63.023886 55.476199 -30.369118
65.952806 51.916980 -17.482851
63.829732 54.522915 -50.312678
62.660507 55.904120 -6.771688
65.588125 52.388449 -46.761146
69.116927 47.487082 -43.174003
59.754265 58.995032 -54.425157
62.891752 55.647750 -7.942120
66.469878 51.223002 -34.836641
65.219799 52.875276 -33.790824
63.207181 55.258329 -26.000562
61.634516 57.005824 -30.300507
65.129454 52.987566 -55.659414
60.467681 58.240274 -19.261591
61.871080 56.755553 -5.398075
64.104403 54.198449 -36.640152
62.958196 55.573389 3.825502
59.798511 58.948222 -4.023132
62.579884 55.999349 -59.123418
62.919172 55.598552 -52.994960
66.063870 51.759639 -38.258716
64.907874 53.249316 -1.429910
69.564827 46.822334 -43.578321
60.228181 58.493654 -49.106473
61.758827 56.874311 -46.177708
67.372768 50.029616 -30.234011
63.187177 55.288411 -11.204117
68.613658 48.234019 -15.601696
69.741243 46.560507 -55.835566
63.649901 54.735348 -32.965128
64.151058 54.143335 -41.378768
69.730898 46.575861 -31.709759
68.124063 48.960662 -3.335056
64.319967 53.943805 -46.871397
59.938408 58.800218 -7.415938
61.845739 56.782363 -55.277879
63.738621 54.630543 -2.257677
64.595863 53.617892 -10.693237
68.942441 47.746044 -44.658628
62.803201 55.735546 -55.820858
67.848279 49.369949 -14.225886
63.671695 54.709603 -6.837001
67.580094 49.755585 -38.089962
69.172141 47.405137 -37.528259
68.664546 48.158505 2.678840
59.798640 58.948085 -59.090075
68.703212 48.101111 -8.927942
69.260984 47.273288 -5.706104
59.741970 59.008039 -47.372889
67.345989 50.065011 -54.774447
65.053980 53.076722 -10.418608
67.778566 49.473410 -23.354856
64.142709 54.153199 -52.115961
65.996784 51.848309 -59.889459
67.044223 50.463868 -29.283986
69.724099 46.585951 -12.664563
67.127612 50.353648 -19.780442
63.780061 54.581591 -36.531921
69.722257 46.588685 -2.351585
67.856285 49.358055 -56.266242
62.317946 56.282793 1.773272
67.811643 49.424321 -19.158428
66.140545 51.658295 -44.445203
66.054914 51.771477 -38.808401
69.320343 47.185183 -42.337503
69.327957 47.173896 2.210939
68.228101 48.806232 -39.791309
62.474318 56.117359 -19.156808
68.757727 48.020186 -44.257601
65.422837 52.606892 -6.643856
62.081418 56.533026 -57.924397
62.957241 55.553581 -50.226283
68.294030 48.708395 -21.294156
69.904530 46.318166 -58.041774
64.340330 53.919750 -41.622896
67.000151 50.522116 -0.092490
62.469325 56.122641 -31.089529
66.016653 51.822047 -36.283457
62.592807 55.985370 -54.981489
65.732314 52.199653 -34.547155
60.143374 58.583375 -44.322139
67.583116 49.751591 0.730532
61.284690 57.375923 -0.968485
68.951270 47.732940 -47.130427
60.084172 58.646007 -55.497719
60.761128 57.929823 -13.201006
61.410004 57.243347 -56.847880
61.201593 57.463835 -46.504289
65.659410 52.294229 -50.611350
64.734370 53.454275 -28.954603
68.805971 47.948607 2.559250
66.032744 51.803085 -20.444990
60.610432 58.089252 -2.021053
63.990392 54.333128 -14.107684
60.249821 58.470760 2.560563
61.761318 56.871675 -7.373065
63.934256 54.399442 -48.207734
64.586259 53.629237 -45.524752
68.602501 48.250564 -45.503616
60.974195 57.704410 -45.612927
62.568806 56.012439 -13.977514
67.049528 50.456855 -36.308436
65.416527 52.616868 -49.067108
62.974632 55.533037 -46.241249
64.932987 53.219650 -0.395274
63.083967 55.403881 -48.786417
69.670149 46.666021 -41.303307
68.761513 48.014570 -26.064652
65.504195 52.509192 -22.706440
63.540187 54.864951 -19.238612
69.037658 47.604729 -38.608657
65.670773 52.279211 -49.140148
60.461761 58.246538 -35.613859
65.163926 52.946845 -35.318479
67.190326 50.270757 -42.169563
69.683779 46.645791 -27.099434
63.552137 54.850836 -33.242588
68.454759 48.469846 -22.370777
65.689740 52.254140 -40.282317
65.745948 52.179849 -54.598097
60.497565 58.208659 -5.604442
59.981534 58.754592 -8.130035
65.504201 52.499374 -46.524355
67.209760 50.245070 -33.860637
69.087176 47.531253 0.327714
69.666725 46.671102 -7.335174
68.037150 49.089648 -14.252011
61.511927 57.135518 0.515507
67.884678 49.315930 -28.050914
69.008635 47.647802 -48.081484
63.875211 54.469192 -24.786785
61.087250 57.584803 -9.510090
63.330701 55.117013 -6.637630
69.743900 46.556564 -52.573611
65.451634 52.573847 -24.212253
59.797005 58.949815 -35.033454
65.463203 52.564867 -31.577576
61.035179 57.639892 -22.902538
69.398161 47.069689 -20.192141
69.241635 47.301998 -49.943608
68.309951 48.684761 -26.532021
63.297438 55.151708 -23.102062
67.676321 49.625149 -50.439503
63.675095 54.705587 -43.395263
63.626489 54.763004 -23.795478
68.094687 49.004242 -35.204031
59.911592 58.828588 -30.407764
62.757671 55.791803 3.001697
61.311311 57.347759 -29.187463
65.127921 52.989376 -15.128432
63.450915 54.970408 -35.238427
66.060449 51.784641 -4.616988
60.653703 58.043473 -28.771360
65.288528 52.784439 -57.606675
62.452782 56.140143 -9.594848
64.585579 53.630041 -54.648542
62.052682 56.563427 -60.441215
65.528405 52.467347 0.507128
64.372901 53.881275 -18.772180
63.040327 55.473618 3.169496
69.214632 47.342088 0.476570
67.418026 49.969797 -5.911758
63.591032 54.804889 -39.945800
66.141048 51.657629 -33.580665
62.400561 56.195390 -48.122618
68.285530 48.721013 -17.501610
63.182342 55.287672 -43.359069
65.665446 52.310552 -19.545784
68.327898 48.658127 -26.021275
59.968215 58.768683 2.848979
64.034890 54.280564 -40.322345
62.055167 56.560799 -45.701842
64.009011 54.311134 -56.783190
60.981822 57.696341 -55.752902
64.947160 53.202908 -60.130989
65.369410 52.677514 3.831892
69.234636 47.312385 -58.549842
60.652275 58.044984 -24.505347
68.061243 49.053887 -23.422629
60.413293 58.297815 -21.433888
60.976025 57.702474 -46.500759
62.605257 55.971754 -52.160686
61.505341 57.142485 -46.066191
67.684523 49.612977 -29.521305
64.452785 53.786908 -36.626942
60.584962 58.116198 -56.429493
67.786712 49.461320 0.050228
63.713993 54.659637 -33.416109
62.584126 55.994338 -58.797403
64.133440 54.164147 -6.807784
60.938028 57.742672 -58.669169
69.249916 47.289706 -50.562378
63.474961 54.942003 -42.682041
62.635096 55.936959 -49.586287
64.823625 53.348839 -10.243651
66.743496 50.861346 -5.540592
66.784499 50.807155 -54.318245
60.615713 58.083665 -28.133284
65.804632 52.102284 -43.073693
69.900270 46.324488 -30.317090
61.908424 56.716044 0.183994
68.504326 48.396270 -44.106552
69.056327 47.577020 -38.128156
61.419837 57.232944 -6.157357
61.543384 57.102238 -41.985787
67.792150 49.453249 1.779787
63.685419 54.693391 -35.876644
66.841489 50.731829 -28.861452
65.555427 52.434391 -3.973631
67.903587 49.287868 -4.016172
60.624327 58.074551 -38.483677
61.131916 57.537549 3.139920
69.805046 46.465814 -28.507555
65.674338 52.299365 -17.057466
64.930194 53.222950 -47.512808
65.865607 52.050549 -6.776050
68.937677 47.753130 -4.615300
68.708348 48.093494 -0.773483
65.854928 52.070498 -2.586567
64.636773 53.569566 -27.704633
59.898570 58.842365 -22.736565
68.288558 48.716501 -54.218821
60.079461 58.650992 -44.597112
59.821130 58.924292 -38.425600
65.609820 52.359775 -51.540753
61.424063 57.228474 -4.225188
64.727266 53.462666 -45.002817
67.827798 49.400345 1.219675
65.358261 52.692251 -24.488767
61.400614 57.253280 3.838890
65.767553 52.161156 -26.466414
67.822890 49.407619 -60.753506
61.411416 57.241853 -40.921086
61.302380 57.357207 -2.762101
67.581752 49.753394 1.099746
68.264056 48.752875 -29.292389
67.354807 50.053356 -39.071050
59.809497 58.936599 -29.037301
66.829327 50.747904 -40.159676
62.498966 56.091283 -8.202735
69.948676 46.252646 -4.985611
67.537921 49.811327 -25.691339
62.917385 55.614849 -11.560249
63.233393 55.227365 -22.667579
68.768607 48.004051 -14.789717
60.879491 57.804602 -30.445097
66.326721 51.412214 -12.531531
64.757368 53.427107 -50.333440
69.410279 47.051705 -15.028174
60.309540 58.407580 -56.884545
61.006358 57.670383 -13.154550
61.520896 57.126029 -57.975941
68.261818 48.756187 -53.013626
69.544351 46.852723 -15.296331
68.650672 48.179072 -47.674369
69.320836 47.184451 -51.641923
60.375376 58.337929 -59.104677
66.286548 51.471770 -5.560383
66.193607 51.588160 -55.262964
68.278555 48.731365 -17.145767
64.632766 53.574298 -38.014250
69.089029 47.528486 -48.358798
65.864985 52.022513 -43.430180
66.178527 51.620226 -5.928407
69.142191 47.449586 -40.618521
66.791904 50.797362 1.277469
69.897124 46.329156 0.530960
64.620622 53.588644 -9.691911
62.971923 55.536237 -39.165118
67.256167 50.183732 -5.206723
66.725931 50.884566 -27.559262
67.686236 49.610435 -2.929509
69.800639 46.472355 -43.488326
66.147644 51.648908 -24.224075
64.344850 53.914411 -2.478021
67.212704 50.241179 -44.822645
67.627233 49.693279 -59.155355
64.461292 53.776859 2.744205
65.052792 53.078126 3.627715
62.614367 55.958959 -35.545303
61.531872 57.114417 -46.719158
68.411814 48.533570 -43.778967
68.345940 48.631354 -18.293862
66.328467 51.413363 -6.057448
68.198846 48.849658 -29.685368
65.278274 52.797981 -42.716617
66.225559 51.546641 -12.939995
69.914692 46.303083 -56.195074
60.218092 58.504327 -16.579859
67.613511 49.711417 -36.301807
66.665940 50.963859 -57.043887
63.163789 55.310129 -23.976599
68.206220 48.838720 -18.611555
69.462793 46.973766 -32.779613
62.794947 55.754053 -29.033432
66.624075 51.019187 3.739933
64.551641 53.670131 -57.797328
62.005322 56.613532 -3.782158
68.566901 48.303422 -2.526490
64.315015 53.949655 -54.033557
61.212340 57.452465 -12.630024
64.387290 53.864277 -56.894262
65.621760 52.359309 -11.625719
60.156859 58.569108 -16.855874
64.988700 53.153837 -8.365554
63.993186 54.329828 -40.934101
64.495551 53.736389 -34.452835
62.092459 56.521345 -8.764036
66.735056 50.872501 -1.876465
65.789316 52.122527 -53.146948
68.943566 47.744383 -14.875744
61.871975 56.754606 -50.360353
67.862499 49.348846 -10.473238
62.585506 55.994532 -48.450630
63.401843 55.028376 -44.885930
64.401411 53.847596 -57.664627
62.659070 55.909349 -46.849306
69.659044 46.682502 -26.171336
69.433403 47.017392 -3.109794
69.019293 47.631984 -54.258428
68.153744 48.916613 2.601224
69.053384 47.581400 -8.783068
63.644733 54.741452 -1.122276
67.410101 49.980272 -59.070019
59.960955 58.776365 -10.294703
66.946227 50.593393 -48.955554
63.065601 55.425576 -54.357603
69.688765 46.638392 -45.997447
61.986717 56.633215 -15.072268
68.513060 48.383327 -9.709180
59.709797 59.042076 -17.067263
61.732905 56.901735 -50.542520
60.615316 58.084085 -5.799558
61.533146 57.113069 -5.893342
61.310202 57.348932 -37.407313
66.611070 51.036383 -26.263447
65.611380 52.361448 -38.489807
62.062755 56.552771 -25.159573
64.735561 53.452867 -10.990061
68.730265 48.060943 -53.415926
61.816591 56.813199 -48.201365
61.482255 57.166909 -49.828792
60.965623 57.713479 -48.936956
68.456694 48.466973 -25.018846
64.847740 53.320351 -55.187460
63.866138 54.479909 -41.158738
59.734463 59.015981 -10.247983
68.366586 48.600724 1.135346
66.305796 51.439871 -16.089569
66.485325 51.202579 -3.441792
67.271117 50.163972 -35.695876
61.916960 56.707014 -18.614006
68.048821 49.072324 -21.362051
67.883951 49.317009 -26.968296
62.621399 55.950315 0.703586
64.643106 53.562084 -41.268357
66.315310 51.439341 0.226103
64.307632 53.958376 -0.105815
66.576750 51.081745 -34.360408
67.592145 49.739657 -0.747871
63.641840 54.744870 -54.855417
69.580464 46.799126 -25.847763
67.623018 49.698851 -9.933450
67.222081 50.228783 1.556357
63.196286 55.283632 0.895930
68.918689 47.781302 -17.595979
61.403387 57.250348 -10.119826
64.755091 53.429797 -50.763243
67.728964 49.547023 -28.618987
69.181897 47.390657 -54.215390
60.068479 58.662610 -54.216398
66.408050 51.304722 -55.266215
64.910082 53.246708 -19.319987
64.996612 53.144490 -32.100316
68.606589 48.244503 -26.524712
63.154860 55.320135 -50.122429
65.157066 52.954948 -24.491446
68.508086 48.390692 -34.252159
62.525278 56.063446 -22.837691
62.760710 55.794153 -12.066291
63.010498 55.490669 -41.114424
65.478880 52.532843 -50.613364
64.097301 54.206839 -52.402876
64.688727 53.508192 -46.833995
69.539349 46.860147 -7.522595
62.938175 55.591263 -8.495201
61.732177 56.902505 -1.345635
63.349306 55.090438 -44.618557
61.730129 56.904671 -57.982687
68.233100 48.798818 -31.169704
65.350542 52.702454 -3.612635
61.812694 56.817322 -15.437044
69.803695 46.467820 -1.731407
69.015521 47.637583 -21.273760
68.880220 47.838406 -3.538367
61.827706 56.801440 2.461947
66.367177 51.358745 -41.726553
69.272699 47.255893 -28.718788
65.124880 52.992969 -7.453881
63.265537 55.198557 -1.500491
65.704157 52.255936 -20.547913
65.634346 52.349263 -22.881442
68.603589 48.248970 -3.204951
65.453031 52.567766 -17.776768
65.507600 52.494884 -60.546529
66.465493 51.228794 -13.733561
65.610645 52.374420 -14.051548
60.497297 58.208943 -34.586837
63.762437 54.602410 -22.536903
67.353785 50.054707 -56.404751
69.792887 46.483859 -19.025910
63.170947 55.301131 -30.145890
65.249720 52.835726 -14.961505
66.828994 50.748341 -5.259175
60.507876 58.197750 -18.499476
68.891858 47.821117 -54.071083
66.434501 51.269761 -44.711628
68.642542 48.191150 -17.263739
61.574122 57.069719 -48.789597
61.011007 57.665464 -43.977922
69.925032 46.287738 -9.701839
65.001189 53.139084 -48.438741
69.399134 47.068246 -31.850597
60.236412 58.484945 -28.633112
65.768941 52.149457 -41.611629
61.733491 56.901115 -56.320296
68.417607 48.524974 -38.594133
64.890919 53.269344 -33.837566
66.786238 50.804855 -14.854000
68.238399 48.790946 -41.873595
64.750926 53.434717 3.285985
62.298692 56.303161 -53.662404
61.860431 56.766819 -59.430405
68.827730 47.916292 -55.016568
67.933815 49.243001 -37.556595
67.514301 49.842546 -49.716659
60.853058 57.832567 0.637101
64.658934 53.543387 -48.842047
67.649363 49.664030 -39.598066
68.794645 47.965394 -32.844926
69.300652 47.214411 -9.258834
65.791378 52.133769 -22.092471
69.694360 46.630088 -35.487928
67.371306 50.031549 -44.953717
69.905877 46.316166 -34.749209
64.974656 53.170427 -4.840977
69.211748 47.346354 -31.997803
66.381334 51.342715 -4.267413
63.999832 54.321977 -38.138141
63.725596 54.645930 -25.258850
61.360709 57.295499 -31.575321
62.135534 56.475774 -16.831220
64.896225 53.263077 -23.722458
62.837038 55.710274 -15.135009
66.096230 51.738332 -2.197576
61.825182 56.804110 -28.821825
68.001876 49.141983 -45.727181
64.541891 53.681648 -39.183525
65.759085 52.184947 -16.753117
68.971924 47.702287 -54.640360
60.208914 58.514037 -12.112468
63.848107 54.501209 -38.602798
59.726958 59.023921 -8.623323
68.399834 48.551378 0.488130
59.931476 58.807552 -14.811128
68.958781 47.721798 -18.010103
61.771773 56.860615 -58.838307
69.074273 47.550391 -15.857342
65.772164 52.146767 -32.903018
69.473117 46.958444 -32.499620
62.204833 56.402459 -21.393512
61.459726 57.190743 -3.301124
66.318803 51.422683 -25.934342
64.713557 53.478861 -18.763102
62.450998 56.142031 2.539675
65.626716 52.350815 -30.068091
62.626992 55.943709 -29.884419
60.934672 57.746223 -19.867090
67.298412 50.127895 -17.574562
65.233977 52.856927 -58.362756
62.026715 56.590899 -15.339653
61.576732 57.066958 -47.418607
63.251454 55.206030 -25.497154
60.782781 57.906915 -23.266821
60.845817 57.840227 3.867447
63.074655 55.425229 -10.053615
68.219707 48.818700 -24.778111
64.687226 53.509965 -43.661124
67.503561 49.856742 1.328889
66.184223 51.600564 -39.159012
63.325826 55.126393 0.095875
68.607494 48.243168 -14.142268
65.271720 52.806645 -43.133344
69.093367 47.522049 -32.259199
64.581402 53.634974 -20.998002
