51.256188 -54.092934 4.516950
71.841647 -30.841363 6.309546
-14.967399 -65.614815 4.611840
-66.366454 22.738802 5.917868
81.177430 -1.801137 5.033823
59.376884 59.355215 6.837353
9.960682 -68.735765 4.288629
75.633933 -23.199805 5.696131
3.915163 -68.770111 5.050406
23.037969 -67.023661 6.316136
-68.108111 10.050105 6.454985
76.607718 32.939874 6.347975
48.773849 68.088504 5.746980
8.543565 80.990833 4.154626
58.797474 -47.711461 4.135962
76.955847 32.058645 6.124977
63.647884 -42.538284 4.128389
81.465178 10.255281 5.130763
-67.702872 14.813681 6.592598
65.637720 -40.136674 4.082690
57.116869 61.480728 4.279047
-8.472917 79.452003 5.073472
-67.772399 14.266645 6.467684
-10.588322 -66.790021 6.487624
45.219600 70.347876 4.248727
-67.894779 13.303767 4.908783
-41.304172 63.598081 4.289034
-56.241593 46.712597 5.418494
68.330699 48.665529 6.003466
60.778037 -45.703749 6.606441
74.444548 38.000928 6.124516
-64.706543 28.738547 6.046270
32.140468 -64.371184 5.559897
-62.656503 -22.211297 6.042606
70.147064 45.870560 6.818299
77.672887 29.984426 4.316491
13.537532 80.707588 5.644187
-17.932785 76.848722 4.172490
-37.194336 -54.594448 5.103946
-55.236465 48.289846 5.476887
17.602403 -68.012157 6.587247
-67.452420 16.784221 5.800345
-45.090887 60.217207 6.690846
-61.788900 -24.280436 4.548928
42.690842 -59.572110 4.851931
-1.678549 80.530079 4.644014
81.161675 -1.925095 4.185068
53.905859 -52.036117 4.776219
81.069778 14.837812 4.840442
-50.977084 53.890645 5.602673
-54.662395 -36.878033 5.498107
-68.186695 8.815996 6.225368
46.154012 69.753887 4.753728
-67.328467 -5.582186 4.588707
-44.936750 -48.163388 5.224472
74.427376 38.037491 5.444748
-28.946368 -59.777992 4.037122
64.022064 -42.086672 6.440315
-24.329496 74.274464 6.634894
81.405092 0.985539 4.582541
69.204989 -35.156354 4.605094
54.542451 -51.510280 5.774358
11.654888 80.827468 4.071049
78.717169 26.712394 4.140080
1.253876 -68.600651 6.412939
-65.140111 -15.200772 5.231434
63.165690 -43.120263 5.885342
-36.963855 66.958673 6.236339
50.335324 66.959175 5.105304
75.380879 36.007231 6.723931
79.541456 23.491842 6.039996
58.454914 -48.026321 6.826462
78.305179 -15.842280 3.924096
-66.943957 -7.606190 5.552262
-52.215491 52.395964 4.499803
70.339945 -33.370940 5.757660
4.925604 -68.793519 5.042004
-30.694775 71.015000 5.150223
-68.056026 10.868074 3.915693
-68.034612 11.204368 4.195174
28.459141 77.772909 3.900460
-66.757967 20.777243 3.918082
77.474062 -18.393628 4.554172
81.355566 12.018845 6.786377
-14.556921 -65.748531 5.703613
38.628854 73.838357 5.757275
49.015383 67.919709 4.552378
-67.978903 12.079240 6.397536
61.374997 57.266111 6.113655
-19.381785 76.326685 6.758077
-58.803786 42.433943 6.230013
-56.095975 46.941669 4.041986
22.336299 79.355915 5.617200
81.226682 13.588150 5.786762
-4.853057 80.131495 4.195534
-43.596856 -49.423541 5.389283
54.258826 -51.744562 4.683796
75.234643 36.318605 6.724954
44.355279 -58.658728 5.726433
-10.000733 79.135630 4.965536
-49.683557 55.451852 6.863061
-44.071828 61.172715 6.074231
-16.961071 -64.965365 6.089523
53.641262 -52.254675 4.724322
68.685371 48.176574 4.932740
61.517507 -44.917493 3.953574
1.904945 -68.642108 5.953295
7.339145 -68.795334 4.828520
42.668741 -59.584238 6.240506
-67.727662 -2.410772 5.930071
-25.174222 73.877743 5.317158
80.012915 -9.185544 5.349550
59.367652 59.363897 6.212570
-61.994887 36.046879 4.899055
-60.791899 -26.403350 5.368614
-32.711194 -57.602176 4.940466
-56.525722 46.265636 6.515142
80.828976 -4.542688 5.870914
-60.543148 -26.933014 5.887427
14.000738 -68.464371 6.850870
41.790078 -60.066416 5.779721
-33.770343 69.126945 6.042010
55.201745 -50.965696 3.898218
78.612198 27.086059 6.800034
52.703277 65.231200 6.732007
-20.201490 76.002858 6.803526
52.126007 -53.461996 5.490099
-36.687517 -54.963265 4.165004
-48.312779 56.938139 4.252947
-68.009048 0.571561 6.473595
-21.182380 -63.417425 5.979087
77.917494 29.229658 5.637631
81.296627 12.967129 5.288759
46.494559 -57.339323 4.719105
49.093104 -55.661979 6.878864
-24.112404 -62.181058 4.805963
-56.481895 -34.137531 6.309862
-34.096048 68.920591 6.802766
70.972324 44.567976 6.747346
21.054615 -67.404557 6.698915
73.647821 39.697371 5.408919
-65.373279 -14.409314 6.591703
-64.913237 -15.900820 4.358702
81.339087 -0.051018 4.885709
81.578865 5.891354 4.248836
-6.231677 -67.682150 6.109953
-5.303076 80.054189 5.431542
66.531308 -38.945451 5.434424
-63.663452 -19.662423 5.500101
-53.152373 51.153814 3.947039
-53.722207 50.370745 4.005467
78.403605 27.729701 5.383949
49.487408 -55.375963 4.475030
-60.698185 38.797075 6.612304
77.595516 -18.020792 4.890220
37.210720 -62.307073 3.894089
23.630588 -66.871982 5.274736
79.466557 -11.593068 6.241556
-4.181914 80.215762 6.279330
-66.721151 20.969449 5.631056
-23.886347 -62.287640 5.345125
73.207611 -28.361144 4.860404
-61.015049 -25.928196 6.042357
79.507889 -11.432595 4.950428
-62.241148 35.452166 5.037457
-45.821289 59.535678 4.797464
43.776176 71.171926 4.270612
-35.244547 -55.991782 4.761496
78.660611 -14.722165 5.649769
30.251550 -64.992337 4.295413
-58.239094 43.459284 6.858458
66.634802 51.003459 4.488553
61.046504 57.627911 5.173436
9.404776 -68.770315 5.226102
3.002381 -68.711989 3.981458
27.276663 -65.938784 5.797914
81.188322 13.893665 5.316890
65.753941 -39.996404 5.774755
-47.153283 -45.982291 3.962524
34.566496 -63.412767 5.534881
-59.496083 41.176903 5.294253
63.852060 54.491260 3.950378
-1.270235 80.581346 6.325633
-33.855019 -56.875073 6.830748
-51.202917 -41.420001 5.049576
81.151020 -2.008929 5.380186
-26.203468 73.394362 5.582621
-61.794254 -24.269036 4.872152
66.410538 -39.111412 6.051940
-68.152094 2.873192 5.750968
56.232020 -50.110573 5.544048
-48.719679 -44.305783 6.066086
7.180282 80.991858 6.580000
31.243692 -64.670800 4.437853
-65.806813 24.911616 5.681980
58.223024 60.440404 6.466362
17.026093 -68.084516 5.163151
1.729041 80.828665 6.721248
-4.269959 -68.004910 5.600530
-66.773058 20.698461 6.501588
22.569911 -67.116691 4.019914
-55.499783 -35.687691 5.370381
-24.267677 -62.107849 5.790188
-67.857896 13.593954 5.033897
74.365113 -25.971989 4.678690
-68.206727 7.864218 4.009767
-13.321854 -66.085941 6.038764
21.230300 -67.371181 6.422286
34.461040 75.651430 4.277196
-7.798839 79.580060 3.887564
80.404037 19.334472 6.297130
4.863097 80.993601 5.886069
-63.786213 31.558420 5.045820
57.723648 -48.726491 3.893355
75.811374 34.955682 5.960187
81.116207 14.468027 6.816763
79.727449 -10.580149 4.681585
20.848292 -67.443753 5.323421
58.230194 -48.237025 6.714548
-28.280456 72.339890 4.079648
2.615505 80.883759 6.563041
12.658486 -68.568097 3.885603
-15.571315 -65.418086 6.846552
71.079924 44.398141 6.378565
22.376053 -67.153519 6.008923
-68.135219 9.624404 4.773834
52.119532 65.660789 6.617224
-39.020408 -53.265597 6.031000
18.857303 80.022306 5.669456
-29.182824 71.844704 4.653510
-65.962222 24.308237 5.036781
-57.508733 -32.516778 6.482140
47.075411 69.168171 5.766759
-52.240659 -40.163657 5.630396
73.807479 39.357418 5.432567
-27.950343 -60.326550 4.760378
14.129874 80.648542 4.281764
-55.210481 -36.122450 5.227042
33.885516 -63.681792 6.348839
-54.925894 48.716635 3.890115
-47.226924 58.092685 4.320669
66.492035 -38.999420 5.103690
-66.982342 -7.404139 6.281751
16.942574 -68.095003 4.753759
57.035160 61.557574 4.748070
-31.157433 70.761111 6.194039
-55.943918 -34.986672 6.757723
-66.461640 22.324277 3.895207
11.688941 -68.628354 6.256361
-47.138458 -45.991895 4.781997
28.274717 77.832990 5.501351
73.212501 -28.352265 5.520698
81.261454 13.311206 5.675161
-0.230162 -68.506153 6.256907
10.527131 -68.700560 5.524423
55.611385 -50.627327 4.344841
59.818292 -46.724217 3.894417
26.605973 78.305746 6.116393
-58.276316 43.391699 4.826705
-7.524373 -67.434538 5.352673
50.432025 66.888804 6.824192
-50.616164 -42.130372 6.405812
-33.549853 69.266639 6.675521
28.034243 -65.710928 6.864372
11.329640 -68.650684 5.993496
-65.737054 25.182458 6.219160
-28.058366 72.461765 6.803794
0.391499 -68.545738 6.164495
27.461219 78.085471 6.093680
-24.263086 -62.110014 6.538941
-19.774562 -63.976047 6.851935
-39.579638 -52.828913 6.829602
-47.556125 57.742658 4.053631
-33.644624 -57.008817 4.907451
-45.148374 -47.964359 6.771416
-67.390906 17.268213 6.319577
56.734544 61.840300 4.963413
-52.026775 -40.422590 4.866482
41.336454 72.515585 4.559127
3.560882 80.942514 4.649817
1.492367 -68.615837 5.363034
-54.207548 49.703789 4.551076
-55.102660 48.473723 3.974365
57.151471 -49.248468 6.843971
-49.617161 -43.339822 4.700155
79.815252 -10.217515 6.190560
22.207721 79.380544 5.902485
45.206071 -58.155654 6.387473
-67.881982 13.404448 4.539419
73.683519 -27.417592 5.717200
-51.811144 52.883985 6.599726
59.160872 -47.367960 5.069370
-17.709286 -64.721630 4.012807
61.806170 -44.610566 3.890343
21.740444 79.470049 5.315875
-59.561430 -28.856837 6.464147
32.308201 -64.304920 4.832422
-55.597968 -35.532742 3.922198
30.423353 -64.936658 4.581628
33.747131 75.934709 5.101459
81.577248 3.759353 3.894855
81.554258 3.328100 5.909978
-66.065978 23.905403 6.197692
66.942844 50.578805 5.391358
-34.740983 68.511984 6.487878
-67.393692 17.246295 4.355071
-27.448484 72.796446 4.759733
-13.663356 -65.997979 5.974967
-66.683466 21.166192 6.418433
-65.294771 -14.716053 6.870605
71.993769 42.764633 6.821363
17.762679 -67.992033 6.868670
-63.781217 31.571011 4.709861
23.020085 -67.028238 6.825436
49.497126 67.569140 4.730282
28.347736 -65.609331 5.914323
-67.906510 -0.986409 4.645586
71.410739 -31.623775 5.175352
54.349831 -51.669387 6.783938
49.652142 -55.256471 6.559068
-5.549721 -67.812776 6.203376
77.800828 -17.390527 6.171078
33.793023 -63.718332 5.935445
-27.852818 -60.380262 5.729609
79.090674 25.253081 6.263803
28.060484 -65.702424 6.540411
68.012797 49.103781 6.136370
73.832822 -27.100932 5.483240
-43.374050 -49.633086 5.545971
36.143104 74.983987 6.436229
76.636025 -20.674416 4.461587
73.014197 -28.712330 4.951832
-53.236156 51.038679 4.420263
73.967496 39.016698 3.904116
7.975912 -68.795813 4.210495
-59.010599 -29.860592 5.271930
-57.869287 -31.940352 4.806638
66.639482 -38.796800 6.079110
-68.206561 8.083002 4.244351
18.217643 80.128999 4.007221
-4.659026 80.155857 5.616716
81.577930 4.658694 4.297824
-16.674222 77.256601 3.977769
-67.886055 -1.149309 6.838093
44.337122 70.862988 5.705072
23.442176 -66.920206 5.975180
78.429462 -15.460757 6.768536
38.965960 73.679417 6.862915
39.250476 73.545272 5.149285
-36.408351 67.361622 6.506337
76.199710 33.972675 4.907640
76.695687 32.717196 5.263367
54.174675 -51.814068 5.901466
28.834525 77.650620 6.748540
73.711734 39.561283 5.138271
77.102740 -19.498241 4.578622
81.383842 0.651831 3.930781
-43.613194 61.603199 4.419026
36.559580 -62.612875 5.931500
-35.747338 67.841103 5.452537
25.990754 78.464201 4.368374
71.637881 -31.211346 5.796800
35.573233 75.210112 4.377870
79.533577 23.522626 6.432412
66.616758 51.028334 5.478675
-45.955681 59.408645 5.742805
-62.128816 35.735255 4.218321
21.645177 -67.292366 5.858605
5.884829 80.992832 6.233764
66.016072 51.856417 4.677571
-11.012922 -66.680656 4.591157
-58.317102 43.317642 5.400245
9.585191 -68.759102 6.184164
-28.621603 72.152681 4.013530
-68.124879 2.435304 6.233653
66.431622 51.283547 6.850825
78.499824 -15.244763 4.799013
80.742504 -5.223026 5.149631
25.585630 78.568544 5.828027
-24.017766 -62.225678 6.356665
50.282575 66.997560 4.815096
-65.959270 24.319699 4.724662
46.298146 69.662264 6.746885
-44.017879 61.240345 4.372081
-56.774173 -33.676220 5.402457
-31.952740 70.278511 5.609305
80.340521 19.668798 6.310029
43.816346 71.149802 6.807874
-24.633971 74.131469 4.840800
-45.183474 -47.931348 3.982632
-68.207063 7.421491 6.640267
15.294608 80.500508 5.509577
-67.248813 18.214689 3.948221
9.554640 -68.761001 6.835820
-0.101450 80.714900 4.737038
41.083513 -60.454154 5.399723
-8.350536 -67.276289 6.836252
-64.572143 29.151127 6.820236
1.882920 -68.640706 4.773547
-68.085770 10.400970 4.432463
-39.830186 -52.621323 6.824887
79.760237 -10.452848 4.356635
81.364800 0.352789 6.171366
-57.643522 -32.304036 6.303514
-51.651700 53.076425 5.906715
-34.448247 68.697463 4.679834
60.754819 57.936498 3.942807
67.933510 49.213099 5.055348
-65.116603 27.479751 4.086127
-64.945716 28.004339 4.835120
67.976201 49.154257 4.325516
-4.432892 -67.984202 4.708407
-67.940637 -0.529167 6.878497
36.271952 74.932860 6.102833
20.178300 79.769273 6.707296
73.315928 -28.164468 6.203185
40.232938 73.082057 5.991924
81.105509 -2.366994 5.191289
31.551755 76.765423 6.179225
-49.007023 56.199977 6.616070
37.547447 74.348223 6.398849
73.986225 -26.775578 5.415652
-53.819822 50.236603 5.333825
80.782199 -4.910718 6.427858
76.433791 33.380139 5.174949
73.582598 -27.631637 4.813489
31.865574 -64.469259 5.797686
-18.522503 76.657605 3.981260
-66.843668 20.329825 5.265323
80.117487 20.842775 4.249245
-38.600013 65.771848 4.507153
51.366284 -54.013081 5.223063
74.844176 37.150014 6.394614
-49.281956 55.907652 4.985757
81.146680 14.225326 5.338733
31.371245 76.824229 6.854705
-0.533567 80.673841 5.850708
-36.794145 67.081777 5.182993
-21.349715 75.549247 4.215864
64.357654 -41.681636 5.093370
-18.879875 -64.331059 4.438140
-46.924807 -46.219758 5.700744
24.648760 78.809843 4.080254
-30.617179 -58.857798 5.501532
81.552334 3.297877 5.425677
81.579515 6.748075 5.642246
-5.778615 -67.768932 5.068860
16.021759 80.408089 5.431379
58.118779 60.538446 5.454944
30.434223 77.129484 5.162981
38.539515 -61.683015 6.294167
81.564372 8.659318 4.209828
-4.940420 -67.919696 3.889604
-49.153834 56.043878 6.858327
50.718536 66.680307 4.319729
38.398496 -61.749243 6.566550
60.807720 -45.672188 5.634994
-68.130029 9.705911 4.047420
-63.155862 -20.947277 4.661275
-64.799732 -16.251053 5.034789
28.970877 77.606200 4.886397
28.506074 -65.558016 4.300129
-63.594436 32.041721 5.584372
45.915262 -57.706337 4.628440
-57.829465 44.203070 6.310899
27.449192 78.088568 5.355223
-58.419852 43.131072 4.726750
57.861250 -48.582958 5.477183
-38.122537 66.118203 4.559883
81.518313 9.400373 4.253162
81.497467 9.735760 5.234414
80.313023 -7.618719 6.063763
-62.583215 -22.396809 5.508816
35.413346 -63.078213 6.265117
67.988110 49.137810 6.441777
81.136768 14.304273 4.932230
-61.815486 -24.223827 5.433416
2.698479 80.888916 6.838321
80.858167 16.523190 5.571730
54.439120 -51.595637 4.944771
30.757110 77.024296 6.744241
-64.806311 28.432280 6.554461
81.483673 2.219611 3.969510
71.553538 43.566857 6.388934
-68.174881 3.239832 5.002644
74.709466 -25.241645 4.683099
30.979846 76.951735 5.490017
21.474674 -67.324757 5.291647
-32.400611 69.994757 5.839725
-56.618551 -33.921835 6.517510
-17.058582 77.132036 6.816721
-44.562887 60.712280 5.449289
53.902568 64.237538 6.652174
66.907222 -38.428874 6.571125
-23.911340 74.470849 4.010247
-59.525312 41.123829 4.117812
-65.386419 26.543801 4.434757
-66.569815 21.759529 6.805419
-60.652734 38.893472 5.548287
-3.131079 -68.149660 6.521006
81.388851 11.483320 5.578705
5.820744 -68.794192 6.843578
-62.704027 -22.091001 5.530781
71.674543 -31.144779 4.614394
57.218596 61.385055 4.556022
64.222026 54.043343 4.903270
71.240339 -31.933176 5.356584
26.828535 -66.053481 5.064977
60.789050 -45.692039 4.376561
66.424754 51.293024 6.191237
-54.384475 -37.261174 5.821798
-63.103979 33.277731 5.841205
60.827140 57.859986 4.309927
-42.961138 -50.021425 6.584911
-66.494435 22.153067 6.342694
12.172466 80.794511 6.207529
-2.001889 80.489481 5.265437
-42.680046 -50.260097 5.109945
65.920071 -39.785406 4.241833
-67.022990 19.393645 5.525497
-44.449212 -48.621911 5.667758
-18.333614 -64.518251 4.995369
5.795294 80.992900 3.933519
-67.653364 15.203209 6.858025
56.472855 62.086414 5.626196
25.361164 78.626357 6.648559
10.281464 -68.715829 5.803936
-41.690025 -51.080370 6.849065
3.398393 -68.737205 4.834795
78.925735 25.897509 3.912072
-61.550658 -24.787724 6.427316
-57.292193 -32.858589 4.854700
-57.968953 43.949794 6.268252
-24.078956 -62.196828 5.588472
57.571429 -48.854702 5.629548
67.820041 -37.174490 5.973573
-3.435642 80.309462 6.504397
81.470563 2.013714 4.565779
44.439334 70.806696 6.389221
81.361060 0.294050 5.655589
59.252240 59.472441 6.564003
6.346853 80.992485 6.202353
78.203030 -16.155855 4.947374
-20.810011 75.762460 6.875937
-40.189100 -52.323949 5.423299
-61.658792 36.759707 6.178880
55.097714 -51.051627 4.929179
-58.698782 -30.428801 6.316228
19.450408 -67.709313 4.082922
-9.150260 79.323326 5.672163
-23.452983 74.686114 5.417599
-52.052707 52.592434 6.797420
19.251530 79.946793 6.157618
-51.573545 -40.971288 3.943072
64.873824 -41.058650 4.627381
25.529689 78.582952 6.136049
-34.813210 -56.265973 6.764042
80.171176 20.560176 6.413689
-26.728276 -60.947717 5.154925
-3.775640 -68.067737 4.750793
-12.558023 -66.282682 6.223047
54.364426 -51.657331 5.586584
79.227842 -12.519882 5.206398
-63.519631 32.230239 6.837842
68.142827 -36.730920 5.642553
-29.101361 71.889408 4.312313
77.719497 29.840606 4.808232
62.068861 56.526097 5.545412
13.287657 -68.528994 5.437082
-10.949490 78.892800 5.336686
81.260038 -1.151202 6.119508
-29.822536 71.493653 4.848809
32.088241 -64.391817 3.942762
54.325249 63.887330 5.076041
49.704036 67.418569 6.072909
69.508127 46.879056 6.432055
57.463978 -48.955452 6.747397
-25.498931 73.725245 5.232657
-22.271545 -62.985245 4.850383
81.347326 0.078363 6.393173
-19.826444 76.151021 4.254760
77.896694 -17.096240 4.669296
-63.961363 31.026090 5.323869
30.734258 77.031741 4.899982
-62.683313 34.337859 4.781741
0.016114 -68.521835 4.876468
34.100773 75.794384 5.810260
78.625053 -14.860217 5.314112
79.136753 -12.873534 5.377857
-20.141738 76.026463 5.491929
-62.459786 34.901171 6.778888
-44.730479 -48.357383 4.319129
-54.597152 49.168393 4.753262
67.615434 -37.455658 5.890469
29.225014 -65.325020 3.983220
17.965375 -67.966583 4.771171
-62.333852 35.218542 3.919320
71.464461 43.729179 3.921698
71.142674 -32.108156 3.942711
81.576292 3.674120 4.542238
-67.252218 18.196913 6.798147
-63.682606 31.819524 4.935584
12.789199 80.755239 6.149534
74.893852 37.044241 4.626429
-13.038804 78.358048 3.919306
24.271739 78.906948 4.306533
-65.572924 -13.629287 5.153294
11.830417 -68.619561 5.480019
80.617651 -6.028292 4.727672
19.978820 79.807483 6.190608
-41.754802 63.225862 4.469181
47.311806 69.017898 5.160873
58.864507 59.837098 5.546551
-55.944822 -34.985245 5.188256
-54.237601 -37.463655 5.978289
-20.106677 -63.844264 5.246978
-31.230025 70.721274 4.135721
76.064726 34.314366 5.093481
31.861445 -64.470597 5.007850
-46.518644 58.845771 3.957030
67.301459 -37.887119 4.691338
22.555102 -67.119504 6.681874
17.870222 80.173155 3.972151
73.749549 39.480767 6.400665
-68.209145 4.675906 6.388497
78.954475 25.785221 4.773032
45.416537 -58.022310 6.182997
30.652517 -64.862390 6.088880
-51.407478 53.371186 5.395289
-50.934060 -41.745509 6.488823
46.959178 69.242058 4.590818
33.186153 -63.958080 6.526841
-38.109188 -53.928701 4.933832
-64.688833 -16.593248 5.063855
74.056844 -26.625801 4.924451
-2.391368 80.440579 3.981718
68.493963 48.440462 5.566549
20.574512 -67.495764 4.537791
-18.044379 76.812556 3.897059
63.037008 -43.275574 6.723265
51.006889 -54.273780 5.187400
-49.157766 -43.861723 3.952547
77.082930 -19.548164 6.315663
74.813474 -25.021052 5.274443
12.929932 -68.551226 4.868574
-68.050372 1.236475 6.239502
5.123160 80.993405 3.941245
1.823278 80.834522 6.321339
55.634226 62.802788 6.109912
-62.344680 35.191253 5.691068
38.835268 -61.544117 6.858810
-61.161692 -25.615950 4.192478
-47.875149 57.403454 5.229258
-51.826583 52.865352 4.924935
64.458170 53.757456 4.177212
-51.404885 53.374316 4.423015
-36.897408 -54.810525 5.246647
60.109753 58.618944 6.131933
-62.593146 34.565089 4.457696
81.007462 -3.138406 4.922652
-50.425320 -42.361418 6.071786
-61.915074 36.216154 5.469332
43.107471 -59.343479 6.578870
56.384342 -49.967751 5.256056
81.198467 13.812865 4.558954
79.361190 24.196155 5.820042
-13.635532 -66.005146 6.795763
79.919835 21.883150 4.209215
35.900093 -62.885920 6.216907
-62.064959 35.896184 6.332958
0.573939 -68.557355 4.985595
47.663907 -56.598462 3.882340
38.762905 -61.578102 6.572975
-64.192367 30.316958 4.285327
24.647995 78.810040 5.827723
76.551845 -20.886560 5.637486
67.753035 -37.266567 5.678168
81.450876 10.485388 4.304582
46.883618 -57.092821 5.246665
-65.706376 25.301565 4.230539
-53.416228 -38.595996 5.855475
-67.504820 16.371946 5.424346
80.505388 -6.614405 6.404586
-31.969575 70.267845 4.576400
-68.146623 9.445306 6.830656
53.149341 -52.661007 6.871638
19.159467 79.964427 5.760437
-24.594026 -61.953981 6.556426
-10.881481 78.910206 5.998533
38.966793 73.679024 5.023114
67.464047 49.860294 4.150057
-63.038248 -21.244992 4.005015
-8.570058 -67.234240 6.347294
79.281764 24.506478 4.167071
58.405773 60.268532 6.815718
29.519295 77.427541 6.867295
81.580680 8.283795 5.019934
-15.660973 77.584978 3.994242
57.189122 -49.213165 4.947675
48.051614 68.547616 5.270790
0.601371 -68.559102 5.401085
-63.220813 32.983295 5.703467
-68.060954 1.406741 5.965007
22.827713 -67.067715 5.158978
-54.022383 -37.760353 5.949109
54.364507 -51.657265 6.476706
-23.762884 74.540571 5.276953
0.323597 -68.541414 4.733877
80.963696 -3.482747 5.192032
60.067398 -46.459350 6.354244
-27.786007 -60.417058 3.890483
37.570874 74.337177 6.796755
75.598328 35.494972 6.598378
65.957832 51.936705 5.282572
-39.877378 -52.582223 3.935552
-68.208561 5.445976 5.571071
19.015038 -67.792022 4.881479
26.011272 -66.262656 6.194152
-30.307874 71.227318 5.906527
43.211239 71.483060 4.238077
27.780683 77.993932 6.115057
-37.756327 -54.185481 5.358752
50.881576 -54.364679 6.870009
52.680802 -53.048027 4.692546
80.230216 20.249408 6.482741
-34.556997 68.628556 6.019656
81.464544 10.265473 5.518288
47.542515 -56.675365 5.744128
80.575700 18.430890 6.854950
-62.069357 -23.683259 4.313982
49.019042 -55.715701 4.796855
60.508612 -45.990220 4.127444
56.046688 -50.267760 6.206550
81.456594 1.794351 4.255231
-30.286086 71.239274 6.474503
-45.561542 59.781203 5.258152
-47.485518 57.817733 6.326276
62.621200 -43.743969 5.283118
-47.873358 57.405357 5.581842
-62.728872 34.223044 5.073012
67.109591 50.348928 5.805879
-64.629030 -16.777777 6.373289
0.108112 80.727924 5.327860
52.191992 65.608059 4.862299
-5.133870 80.086334 6.681071
54.696045 63.580109 5.553145
-9.463381 -67.063127 3.984181
73.494364 -27.818774 4.419820
-65.862447 -12.498097 6.645851
64.395971 -41.635389 4.209947
58.174209 60.486314 4.673224
51.499263 -53.916617 4.960593
-68.206270 8.466802 5.399017
6.728299 -68.794875 6.086291
-50.400740 54.586257 4.602382
-54.558976 49.220854 5.219533
-50.235770 -42.590876 3.906032
63.105145 -43.193337 3.897478
13.760179 -68.494575 4.857604
20.141333 79.776354 3.910540
-53.958751 50.045686 3.918207
-36.993674 -54.740471 5.714765
-57.558281 -32.438584 3.894806
66.156360 -39.460700 4.854034
-66.916654 -7.749907 3.883871
79.937408 21.790654 5.912414
44.048891 71.021730 6.117449
-67.095347 -6.809297 4.267606
-7.452968 79.645767 4.950315
-39.582581 65.020122 6.749025
-48.298328 56.953504 3.899213
-45.022348 60.290874 4.537671
32.298098 76.509686 3.920168
-46.725486 58.625844 4.764324
-67.160070 18.677989 5.412147
61.019964 57.655989 4.062250
54.712067 63.566835 4.637312
32.674043 -64.160392 4.730797
26.149778 -66.227206 4.187482
54.121709 64.055971 4.373559
68.465960 -36.286875 6.762516
-54.403624 -37.234773 4.895297
-9.055966 -67.141166 4.359565
-25.178703 73.875638 4.415710
-66.238685 23.234865 5.463532
-21.484843 75.495865 5.584963
61.203011 57.462334 4.192518
76.890025 32.225262 6.506596
38.063604 74.104863 3.952244
16.897001 -68.100725 5.672939
-51.355229 53.434247 6.417905
-11.185649 78.832356 5.658777
-29.561546 -59.439184 4.619240
81.178169 -1.795324 3.895249
-52.543282 -39.797293 4.784201
-11.230279 -66.624671 6.870194
53.931142 -52.015230 6.026428
-51.984144 -40.474218 6.717017
18.885736 80.016860 5.276118
37.243009 74.491760 4.165385
79.870596 -9.928574 5.280606
64.358114 -41.681080 5.442478
77.799420 29.593991 6.804336
-27.290752 -60.682519 4.251734
-62.017344 35.999248 3.963181
66.553970 51.114890 5.025397
69.500039 -34.692207 6.266520
-7.575021 79.622580 4.242561
2.197644 80.857789 3.984911
74.076177 -26.584798 5.682594
80.909760 16.112277 5.147902
63.632550 54.757002 5.492552
-26.587708 -61.013992 6.503762
76.760258 -20.361334 5.171187
65.265185 52.780424 4.078901
81.285466 -0.893102 6.285597
14.366279 80.618496 3.964385
-67.628186 15.401302 5.610843
72.475253 -29.690907 6.530007
63.060511 55.449548 4.653775
-68.208985 4.887063 5.791472
-63.456206 -20.187021 6.284890
-24.935352 73.989927 5.452570
79.017966 25.537155 4.977097
68.238815 -36.599015 5.940981
4.384695 80.993714 5.979743
11.806516 -68.621047 6.760977
-46.805238 58.541047 6.593798
42.322443 71.972559 5.634683
38.339971 73.974561 4.881048
-45.271115 -47.848922 6.183288
-51.862927 -40.620969 6.143958
59.120721 -47.405913 5.467815
-6.250654 -67.678515 6.424323
-47.713308 -45.378807 6.612743
-47.850444 -45.236852 4.819413
81.346015 12.172519 6.536561
14.053448 -68.457753 6.498953
19.502090 -67.699495 4.412010
-46.141871 -47.029988 5.092186
-0.271639 80.704323 5.122348
-65.858054 24.712674 6.541763
-7.764249 79.586632 6.056567
-9.807175 79.185171 4.001421
41.071913 72.661279 5.444650
-43.654313 61.564193 4.781041
22.388762 -67.151104 5.596141
72.315523 42.178309 4.131564
5.624958 -68.794045 6.180000
14.277509 80.629778 5.319527
-17.119060 77.112437 5.941311
48.173391 68.470204 4.236590
26.488966 78.335883 5.730849
-10.296359 79.059966 6.736981
6.933892 -68.795029 3.907089
3.892327 80.963113 4.824640
18.951411 80.004280 4.801776
-9.500058 79.256874 3.994897
30.049460 -65.057831 3.916546
35.281584 75.325838 4.168224
17.840489 -67.982263 6.411832
-31.572959 -58.325726 5.281107
-66.494433 -9.972422 6.855551
-37.060876 66.888297 6.507252
3.331821 80.928278 5.296190
-33.697451 69.173127 5.635135
-28.059361 -60.266509 4.010601
67.662364 -37.391167 6.849587
32.779320 76.318736 6.829940
61.205803 -45.248918 4.821662
-64.027007 30.824577 4.703560
-2.996769 -68.166730 6.107685
22.001055 79.420130 6.123237
69.541986 -34.626219 4.676797
-58.961160 42.148190 5.454142
-67.857622 -1.375757 5.457902
73.766739 -27.241088 4.266436
26.701226 -66.086065 6.466940
-60.029867 40.207682 4.599343
-68.151617 9.366885 5.814490
-0.906152 -68.432443 6.671642
37.347275 74.442601 6.185314
40.889128 72.761947 6.865139
81.388864 11.483114 3.915344
70.508052 45.300781 6.393303
-68.209364 4.387782 4.660713
-68.122024 9.831617 4.476736
70.705567 -32.795774 4.388742
-43.211627 61.979273 4.505991
71.697322 43.304842 6.455796
81.316615 -0.403928 5.182399
77.538751 30.398319 5.156431
38.351991 73.968893 5.208448
-67.609991 15.544466 4.651121
-63.939617 -18.905049 6.186495
-67.764817 -2.114859 4.443601
22.100552 -67.205857 5.038475
-54.096286 49.856685 4.276089
75.046297 -24.527254 6.130405
27.781108 -65.792965 6.675279
71.178571 -32.045329 6.821926
-13.641576 -66.003589 6.359875
-57.831386 44.199581 5.758781
70.182692 -33.618316 5.894121
61.554007 -44.878683 6.189472
-45.355882 -47.769200 4.668060
-56.577252 -33.987021 6.018420
-39.655623 -52.765956 4.449932
81.578998 6.066416 6.036916
-67.960167 -0.214939 6.405845
17.803507 -67.986907 5.533349
-63.528102 -20.005032 5.737258
-66.033415 -11.830114 5.318891
-59.042660 -29.802169 4.368756
-63.436390 32.440015 4.108416
-48.686806 -44.353620 4.644733
79.219358 -12.552819 6.712026
-15.986129 77.479600 4.224506
-28.370318 72.290577 4.602094
7.738333 80.991438 5.696245
72.374468 -29.873904 5.258533
58.248344 -48.230524 4.482046
-67.030601 19.353907 6.748544
37.196903 74.513499 6.819954
17.475940 80.223267 4.899256
-22.400443 -62.934098 4.059996
56.274848 -50.070416 4.424402
32.806937 -64.107891 4.090785
-32.974880 69.630921 6.610609
-24.161822 -62.157758 6.100388
-64.266249 30.090155 5.515626
76.095483 34.236509 4.731459
-14.341524 78.012589 5.946455
-9.859469 79.171786 5.925315
59.025467 59.685718 5.956681
69.376151 47.087369 5.788319
75.039704 -24.541237 6.862483
-50.320849 -42.487897 5.084304
59.915911 -46.620422 5.053325
44.533651 -58.560844 4.852167
38.318156 73.984846 4.484059
-3.494330 -68.103491 5.621129
-58.688014 42.644157 4.259250
-62.283264 -23.156070 4.288466
4.800029 -68.793425 5.430583
-59.761695 -28.491904 6.364233
18.553297 80.080537 6.538344
-4.357545 -67.993778 3.895408
20.951436 -67.424158 4.411418
11.050967 -68.668004 5.881171
-13.556744 78.225484 5.951615
62.849316 55.693726 4.614798
-58.149743 43.621523 4.648280
-63.150483 33.160535 6.119417
-58.115879 43.683012 6.118891
34.060454 -63.612681 6.646650
77.123556 31.634118 5.530714
71.973619 42.801353 4.705891
42.123551 -59.883419 3.958653
1.808695 80.833616 4.514009
-65.031224 27.741846 4.253567
-66.924698 -7.707567 5.923120
61.080064 -45.382612 5.699625
-67.776678 -2.020402 6.342103
-3.893738 80.251945 6.050931
-53.228542 -38.854723 3.904095
-56.265261 -34.479516 4.236600
-60.542834 -26.933682 5.336382
-54.077745 -37.684032 6.759555
-23.043662 74.878350 5.477919
-20.960469 -63.505480 5.341530
-3.703992 80.275769 6.868336
-20.844944 75.748659 4.557998
-18.750822 -64.382268 4.158834
-27.050601 -60.795746 6.530390
6.326841 -68.794573 6.225916
-45.491884 -47.641292 3.907002
55.477946 62.932272 5.290292
44.902607 70.549383 5.546041
76.832304 -20.179771 5.411184
-54.638485 -36.911005 3.957452
60.475636 -46.025283 6.068803
-0.877991 -68.436022 6.288084
57.988271 -48.476358 4.538736
23.571789 -66.887032 4.914620
-67.179698 18.575518 5.803610
-57.698725 -32.216902 5.964611
-65.629736 25.599119 5.000850
-36.398498 -55.173587 5.508135
51.574104 -53.862341 6.280833
-48.263804 -44.793696 5.454831
81.579701 6.992836 6.468268
50.080826 67.144375 6.864512
35.185360 -63.168280 3.920547
35.941086 75.064148 5.728037
-54.199009 -37.516848 5.263039
79.565173 -11.210188 5.866865
-40.255569 64.464230 5.121843
3.654782 80.948350 5.142685
-53.721571 50.371619 5.958369
-68.207041 7.450831 6.212422
76.996691 -19.765496 4.366709
65.766717 52.173249 4.782002
-60.671911 -26.658839 5.227430
-3.594258 -68.090791 3.965970
81.580374 7.880793 6.001609
-8.937729 79.363702 6.504793
-8.528083 79.441523 5.467670
-65.236857 27.110599 5.409653
-48.158613 -44.903881 6.079725
27.228422 78.145429 5.729929
24.057967 -66.762596 4.640655
-5.912278 -67.743329 4.165115
57.568750 -48.872908 4.181849
79.968714 -9.416309 6.000376
-38.927043 65.534629 6.876675
-31.946061 -58.088554 6.492366
45.107895 -58.217859 4.009865
-27.767253 72.621517 6.363732
-58.886490 -30.086750 6.858453
59.747880 59.001786 4.000465
75.570693 -23.359178 4.979930
-2.991890 -68.167350 4.284739
65.644303 52.321461 6.731537
-54.244244 49.653361 4.837440
11.597566 80.831118 5.955391
-6.304424 -67.668215 5.682995
38.587319 -61.660564 5.111420
56.458929 62.099512 6.296078
2.605617 -68.686724 5.625051
-67.938474 12.714143 4.466379
-4.784735 80.140073 5.962041
-67.595564 15.657972 5.139852
-37.783538 -54.165680 6.347318
58.956234 -47.561394 5.904146
71.537097 43.596816 5.265013
-50.967239 -41.705319 4.333914
49.322225 -55.495782 6.580322
-49.059781 -43.952396 5.366584
46.173956 -57.542434 6.094290
76.707603 -20.494032 4.811271
-56.500463 46.305371 4.590855
68.708355 -35.937615 6.622200
57.975160 60.673517 6.130973
28.977802 77.603944 6.433323
80.138863 -8.527984 5.592509
-57.370675 -32.734710 5.206932
70.345201 45.557825 6.229714
-45.720617 59.630838 4.245543
48.355579 -56.160235 6.094776
74.071155 -26.595448 3.881090
63.756898 -42.406711 6.610484
59.814441 -46.728311 6.825447
-46.048500 -47.117803 5.811799
19.210026 -67.754980 6.421951
16.565923 -68.142294 4.131837
-54.081726 -37.678533 5.001655
63.643388 54.743882 6.771949
63.165809 55.322067 6.830278
-58.768372 -30.301990 5.699682
6.193190 80.992600 6.690653
79.114283 25.160837 5.941450
77.918164 29.227592 6.868305
24.069020 -66.759768 6.609778
-68.208806 5.122921 4.044569
-36.308933 67.433737 5.366196
80.845817 -4.410188 6.586932
30.571705 77.084696 6.492109
67.308331 -37.877675 4.367857
53.101219 -52.700763 3.941279
54.780961 -51.313270 4.282136
63.014892 55.504777 4.297873
-65.539979 25.947604 5.056944
-59.648418 40.900300 5.584181
-15.585626 77.609396 5.441036
-41.354280 -51.358548 5.908944
6.581566 -68.794764 5.837643
68.778989 48.029925 5.925209
10.815492 -68.682639 5.314470
46.455065 -57.364332 6.853778
-65.842013 -12.577937 6.091997
28.693251 77.696643 4.487199
-50.124421 54.919757 4.231063
66.039832 -39.620832 6.204824
20.942109 79.622968 4.396065
69.419095 47.019584 6.707807
45.503406 70.167465 5.566702
28.422658 77.784795 4.965497
-47.987088 -45.086815 6.252445
65.848158 -39.882689 6.844686
-47.303597 58.011162 4.797837
11.044917 80.866309 4.726741
-55.312775 -35.981425 5.589080
-14.337050 -65.820155 6.876203
-68.208852 5.062907 6.355759
81.580386 7.895913 4.629367
64.848460 53.284940 5.012158
19.401609 79.918046 4.311534
-33.157777 -57.318294 4.417789
-33.207827 -57.286478 6.618275
-7.555740 -67.428530 6.237670
26.667422 -66.094717 4.624674
-14.404173 -65.798289 4.531248
47.959984 68.605863 6.765202
-40.591770 64.186525 6.652269
43.354362 71.404237 5.720967
-61.364073 37.384782 4.996725
18.698725 80.052681 4.596025
2.276001 -68.665736 6.420770
48.498293 68.263670 4.387613
76.637522 -20.670645 5.869306
63.140398 55.352834 5.123613
-41.001628 63.847978 4.662194
35.540016 75.223293 6.863185
63.600142 -42.595906 5.745393
-43.101208 62.082806 5.027401
-3.715005 -68.075444 6.864960
-46.194457 59.182942 5.175807
71.320392 43.991714 6.765989
39.750172 -61.114440 3.894329
44.151801 70.965052 5.383837
68.382752 48.593780 5.313962
-61.944210 36.154359 6.277923
-63.507507 -20.057164 4.076245
-17.485873 -64.794408 5.871870
81.314726 12.675932 5.145426
79.924441 -9.647457 6.545827
81.203129 -1.598942 4.143714
28.042184 77.908742 5.894163
-58.444222 -30.892673 6.552180
81.495470 2.404865 4.477729
-53.686429 -38.223498 6.229979
81.548004 8.922671 5.617959
26.934696 78.221081 4.612555
-58.032968 43.833558 6.748877
-10.853393 78.917395 5.624622
81.153205 14.173359 3.973119
-67.950257 12.529103 6.783191
-55.642006 47.655805 5.631507
36.666299 74.763670 6.662960
-16.656040 77.262493 6.370338
32.666693 -64.163296 5.362907
-50.808232 54.094439 4.330605
-5.451579 80.025977 5.023211
59.411251 59.322893 5.219544
-28.245396 -60.164050 4.588765
-32.469719 69.950973 4.737103
33.280749 -63.920709 5.400183
60.284250 -46.228778 6.381929
4.716807 80.993711 3.880773
-37.993556 66.211770 5.628239
-23.508908 -62.465596 5.717321
-56.461083 46.367319 5.412955
81.579567 6.815930 4.016149
79.127906 25.107613 6.514929
-23.632987 74.601576 5.852908
75.111909 -24.388096 4.196861
-8.419905 -67.263002 5.646235
-60.941434 38.281164 4.746524
-30.040451 71.374070 5.482295
4.133924 -68.784041 4.653076
-66.305928 22.973797 4.021089
34.780614 75.524623 4.075371
-49.570229 -43.396640 6.254231
-66.126880 -11.464940 5.222135
-65.383477 26.555223 5.569989
3.184386 80.919115 5.669577
67.842825 -37.143180 5.414861
-43.542522 61.669013 5.075944
56.122680 -50.204990 5.090661
-65.389766 -14.344900 4.836810
81.442570 1.574104 4.665818
80.534598 18.647240 4.381630
-7.594817 79.618819 4.672067
81.547051 8.937994 6.541973
55.747961 62.708554 6.388635
-6.672419 -67.597727 6.357761
74.384276 38.129262 6.799724
48.702200 68.134050 6.159820
28.836648 -65.450883 3.983770
81.169767 -1.861432 6.653215
74.955313 -24.720223 4.894049
24.829911 -66.565020 5.501422
-62.216137 35.515198 6.474885
19.395332 79.919248 4.004711
-67.112876 -6.717026 6.007854
79.570911 -11.187910 6.603129
-32.342522 -57.836533 6.170211
-31.753821 -58.210757 6.173342
-66.601873 21.592166 5.842227
-41.274852 -51.424358 6.862607
22.260898 79.370358 4.519345
-55.342508 48.126944 6.826561
67.954028 -36.990365 4.826555
6.945294 -68.795038 5.526518
-59.945038 40.361712 5.352749
-50.871886 54.017612 5.003331
79.961595 21.663341 3.883786
76.884714 32.238704 4.453667
-19.525110 -64.075030 6.212768
18.052001 -67.955706 6.637307
58.187212 60.474085 5.041270
-68.207587 6.730919 5.054709
-14.497178 77.962144 6.538419
-64.337845 -17.676266 5.333841
18.404024 -67.908099 5.899160
76.469720 33.289192 4.666215
45.275683 -58.111551 4.653399
80.460105 19.039346 3.934253
38.041318 74.115371 4.842554
-63.895072 31.229588 4.374076
-6.959161 79.739577 4.664862
-50.552744 -42.207128 3.955076
24.889013 -66.549894 3.967725
38.931882 -61.498743 4.419686
70.079093 -33.781289 6.399630
26.970241 -66.017212 4.712490
38.674150 -61.619784 4.343438
-66.658773 -9.107360 4.171057
63.942770 -42.182376 6.711479
-66.533411 21.949583 4.809169
58.098146 -48.360837 5.614908
-67.700545 -2.626730 6.279136
-1.778544 -68.321564 6.390525
-4.507770 80.174848 4.955686
-57.638129 44.515715 6.629823
-50.388542 54.600978 4.264020
-50.027787 -42.842679 3.881044
-62.311291 35.275398 4.301733
-66.419499 -10.321655 3.908877
45.061893 70.448128 5.320837
71.089255 -32.192189 5.606827
48.150458 -56.290191 4.979909
76.083038 -22.068009 5.541441
-56.524738 -34.069908 6.802377
66.551668 -38.917473 6.695043
-2.822583 80.386437 5.965306
43.762144 -58.984218 4.726707
73.688465 39.610830 4.504814
42.587841 -59.628633 4.545965
-34.293588 -56.596285 4.628790
34.329117 75.703777 5.185102
-59.185195 41.741399 4.303859
1.583125 -68.621616 4.742746
38.565608 73.868177 4.641449
-57.096861 -33.166874 6.291099
-33.876011 -56.861729 4.013303
-62.656741 -22.210694 4.713916
71.972829 -30.603172 6.433957
-41.790195 -50.997374 5.498831
80.815587 -4.648029 6.865600
79.009108 25.571767 6.723959
-66.047362 -11.775621 5.697955
-18.879759 -64.331105 4.913260
75.922348 34.674770 5.860727
12.145447 -68.599982 5.375654
10.776862 80.883377 4.160082
66.367740 -39.170225 6.714084
-66.632678 -9.244718 6.242400
53.198651 64.820763 4.881117
71.698473 -31.101329 6.500194
25.736261 -66.333044 4.727801
25.817963 -66.312133 4.269257
53.677380 64.424116 6.249669
-2.751884 80.395314 6.253621
-12.346595 -66.337140 5.528520
80.563046 18.497498 6.328632
81.070026 -2.646170 6.391400
-26.056586 73.463345 4.915530
75.529276 -23.463554 6.796651
-32.070236 70.204070 6.589948
-63.682585 31.819576 4.283127
18.495246 -67.890769 5.191074
-20.496952 -63.689403 4.315249
-61.972626 36.094092 6.602618
-52.574754 51.947581 6.855206
35.497070 75.240334 6.504254
-27.668450 72.675737 5.404330
-67.041613 -7.092144 5.484965
10.966556 -68.673250 6.207521
20.412740 -67.526496 5.360615
81.465768 1.938423 5.804048
74.851651 37.134097 5.905697
80.681332 -5.695827 5.034557
71.436878 -31.576313 6.389092
-67.548221 -3.839855 6.141656
80.874482 -4.184659 5.746029
-53.742866 -38.145695 5.785290
-38.986938 -53.289953 5.385525
70.285358 -33.456810 5.391405
80.982736 15.531061 6.129542
80.442867 -6.940820 5.738956
-26.882890 -60.874819 4.690605
-67.237116 -6.063043 5.651056
-66.105380 23.752426 3.899348
23.415987 79.127354 6.351828
29.618820 -65.197394 4.863772
64.374527 53.858720 6.280164
81.580435 7.960656 6.727010
14.727887 -68.373072 5.899900
5.784093 -68.794165 4.085738
-7.175128 79.698549 4.366698
-63.634869 -19.734774 5.144732
9.401583 80.970950 5.937377
23.530933 79.097748 5.675176
-67.993047 11.857115 6.621585
-67.191603 18.513366 6.362971
26.303698 -66.187811 6.805721
37.487875 -62.176909 3.938892
77.043187 31.837557 5.801748
53.372163 -52.476953 5.735052
19.678201 79.865066 6.712300
-64.459208 29.497813 5.432902
62.693921 -43.666647 4.812323
55.812488 62.655090 4.770007
78.390535 -15.580254 6.448779
68.252799 -36.579797 5.355690
-49.512548 -43.461320 6.680049
-6.424340 79.841179 6.839399
-67.859496 -1.360832 6.599239
79.228155 -12.518665 6.026561
-43.502092 -49.512665 5.117108
81.122071 -2.236689 4.368899
-13.851617 -65.949489 4.943495
-52.938214 -39.254984 5.893154
43.746805 -58.992636 5.443113
-36.755103 67.110097 6.580427
-43.536873 -49.479954 3.902075
-10.518721 -66.807948 5.542584
68.380449 48.596961 4.654978
79.347732 24.248736 6.434217
-67.422820 -4.838559 4.410011
-16.339402 77.365110 6.325333
24.064498 78.960324 6.852314
-5.013848 80.109135 4.942354
31.504403 76.780849 5.479389
-16.775458 77.223792 5.248071
8.968393 80.990513 6.832746
-54.424223 -37.206382 3.882840
-41.810436 63.179899 6.816655
-24.888529 74.011917 4.419544
80.028868 21.309237 5.650657
7.671008 80.991489 4.484088
80.833357 -4.508219 4.775738
-67.815888 -1.708124 4.395430
-68.209316 4.450838 5.108621
62.179482 -44.213634 6.659761
80.837578 -4.475014 5.398794
79.343898 -12.069291 5.683053
19.664572 -67.668628 4.835994
69.792546 -34.232060 5.308714
-66.738587 20.878424 4.693790
75.239585 36.308083 4.569166
-25.958808 -61.310509 6.347811
56.222662 62.315244 6.869415
-67.576191 15.810402 5.473553
-67.255218 18.181250 6.332575
-12.599667 -66.271956 3.882732
55.824175 62.645408 5.488464
64.185252 54.087861 5.573818
-49.442457 55.736997 6.230465
-60.728475 -26.538398 6.124699
76.320090 -21.470610 4.134546
-64.073254 30.682607 6.857905
65.441547 52.566927 6.380972
16.255613 -68.181256 4.403705
39.322474 73.511326 6.447407
60.296087 -46.216192 6.755335
51.042935 66.444239 6.124749
71.059129 44.430964 5.007333
4.243458 80.984936 6.706208
70.598949 45.157314 4.538614
38.665517 73.821071 5.007453
-61.419389 -25.067236 5.338436
80.193898 -8.240656 5.145806
80.330345 -7.528282 4.863262
43.164267 -59.312312 3.909191
-56.042095 -34.831710 4.826203
-60.708733 -26.580434 4.631221
-32.865060 -57.504367 6.507823
78.428764 27.652070 6.197977
-59.663125 40.873595 6.199617
68.043516 49.061423 6.797597
80.986312 15.502580 5.575130
-52.026882 52.623603 5.582009
77.406938 -18.599684 4.805286
-21.461907 -63.306509 6.688137
-62.805295 34.030450 5.913608
81.580156 7.593302 4.341409
-26.546258 -61.033536 3.991768
-48.479520 -44.565820 5.417441
-66.304830 -10.769675 6.800507
54.324932 63.887592 4.721577
-52.230276 -40.176219 4.706536
66.726207 -38.677624 6.831170
81.571553 8.543775 5.427450
64.927384 53.189405 6.863269
76.093629 -22.041318 6.853572
-50.262858 54.752671 4.833929
-11.742817 -66.492656 5.758698
77.927278 29.199470 5.274019
67.345250 -37.826941 6.863130
-68.206339 8.375678 4.272513
81.579905 7.262638 4.938934
62.657782 -43.705072 4.271885
73.769552 -27.235124 4.630364
51.377374 66.200864 4.131273
51.609417 66.032005 4.184443
-52.262639 52.339059 5.625405
80.545771 18.588426 5.932283
-58.920092 42.222760 5.123528
53.535995 -52.341627 6.013421
-43.441049 61.764158 4.627524
11.633285 -68.631813 4.773805
-60.783633 38.615846 5.742909
-65.788205 -12.788167 4.646362
-12.700079 78.444744 6.707698
-62.855115 -21.708553 6.824482
9.686241 -68.752822 4.126363
30.890871 76.980721 6.139155
67.180642 50.250985 4.606886
-30.733804 -58.793567 5.204221
-15.244077 -65.524686 4.726992
-64.858952 -16.068322 6.872630
19.206226 -67.755702 3.918428
-65.409896 -14.266249 5.455072
52.106239 65.670462 5.404079
50.090606 -54.938423 5.929343
-29.115613 -59.684781 4.311903
-60.192130 -27.680436 4.332227
54.603817 -51.459591 6.817069
-3.083678 -68.155684 5.742685
78.557691 -15.067123 4.499957
80.641338 18.085395 5.208544
-45.713843 59.637241 3.893753
80.694533 17.805392 4.232228
15.432343 -68.284623 6.863125
-41.029905 63.824623 5.712619
67.763837 -37.251724 4.786798
63.862519 54.478590 6.761628
-56.611162 46.131231 6.231187
55.967909 62.526317 4.539145
13.828199 80.686884 4.519223
5.408198 -68.793882 3.923877
-55.389090 -35.862410 3.948207
-60.431621 39.362434 3.879214
-42.637163 62.497020 5.086314
72.889057 41.133169 5.605487
-57.411842 44.871685 4.216875
-65.459800 -14.071269 5.871622
-34.864497 68.433736 6.180695
-27.088992 -60.777645 6.862862
28.638032 -65.515250 6.119608
49.600360 -55.294032 4.819878
-60.660015 38.878029 4.479420
5.130861 80.993399 6.525243
64.067729 54.230149 4.607837
37.286229 -62.271611 6.858787
-65.816462 -12.677767 4.332974
39.334184 73.505805 5.679728
46.770042 -57.164772 5.641939
-54.500800 49.300801 3.888615
-35.865107 -55.561741 5.368471
61.917115 -44.492601 5.846771
74.473037 -25.743090 5.502568
22.413502 -67.146404 4.808559
-29.733701 71.542402 5.170438
77.639004 -17.887292 3.995382
81.579478 6.698871 4.367247
29.267861 77.509451 5.187024
46.998623 69.216983 3.908812
48.801550 -55.873463 4.995569
56.627176 -49.740091 4.146656
41.268445 -60.352670 4.262968
32.866251 76.284243 4.694682
-37.696989 -54.228662 4.918703
-36.885669 67.015388 5.482453
-47.625334 -45.480841 4.184530
-36.480207 67.309510 4.614570
53.125198 -52.680950 6.328450
-58.309886 43.330743 6.570681
25.857403 -66.302038 6.484989
57.178006 -49.242258 4.262238
-29.575819 71.629042 5.708703
62.061938 56.533472 6.851467
62.310538 -44.074286 5.667980
81.577695 4.348408 5.147705
69.358288 -34.915198 6.463354
-0.321031 -68.500366 4.540148
-68.207765 6.495723 3.991846
48.467380 68.283320 6.359459
-46.122865 -47.047863 6.706532
79.554505 23.440860 4.948425
-35.538248 67.992772 5.067799
44.804889 -58.409830 5.896912
-67.427597 16.979531 6.684953
38.504380 -61.699516 6.878820
-19.362387 76.334349 3.935175
44.753708 -58.440084 6.384438
-40.679683 64.113909 6.227224
-40.465670 -52.094799 4.293264
-66.778955 -8.474740 3.879568
-68.179322 8.931790 5.946139
65.970741 51.918909 6.118939
-67.609797 -3.349456 4.814148
59.690283 -46.860324 4.494436
9.219621 -68.781822 4.527188
60.645965 -45.844176 5.075610
-43.284270 61.911160 5.338481
22.934555 79.241321 5.734527
-48.004613 -45.068124 5.766288
-67.133833 18.814965 4.228433
-51.833169 52.857403 4.208388
-66.222868 -11.089906 6.075919
-45.314546 60.014675 4.597845
81.191867 13.865435 4.938593
42.673980 -59.581363 4.201927
81.444586 10.586582 6.425455
45.488440 70.176979 6.188255
81.169355 14.044728 6.021754
-18.263958 76.741395 4.128101
-60.666851 38.863531 5.144452
13.300390 -68.528202 5.837272
24.384098 78.878009 5.694956
80.243825 20.177772 4.551824
34.366709 -63.491694 6.705054
50.700700 66.693287 6.837303
74.561002 -25.556525 5.985935
-66.609842 21.550562 6.137456
-16.476908 77.320547 5.303162
-64.317577 29.932589 3.894481
-47.133922 -45.996733 6.778880
-36.730259 67.128119 5.767400
-31.027435 70.832449 5.119924
-64.516900 -17.123771 6.660413
43.016885 71.590100 5.612438
-19.691148 76.204471 6.858447
-57.360943 44.951754 6.835479
1.291336 -68.603036 5.104870
54.399432 63.825866 5.820540
7.893923 -68.795751 5.751146
77.289195 31.168358 3.886398
-62.494971 34.812503 5.340448
18.311176 80.117111 5.578777
-38.975928 -53.297965 6.867586
13.724249 -68.499086 6.429404
-32.613385 69.859951 5.191862
-38.860583 65.582837 5.693151
-68.140602 2.688286 6.473922
59.548387 59.193919 6.491804
-34.643832 -56.373643 3.923113
-65.571089 -13.636457 6.752752
69.569354 46.782421 5.429382
-0.687746 80.654482 5.000179
-66.611652 -9.355398 3.912839
-16.562990 -65.095042 4.988432
35.837470 75.105263 6.827216
73.362967 -28.079060 5.220962
16.400867 80.359906 4.141660
-66.704218 -8.868141 6.328156
27.848997 77.971677 4.380024
-54.919653 48.725210 5.924291
3.415142 -68.738272 3.931414
27.366848 -65.915702 6.857772
81.556813 8.780942 3.884087
-67.826433 13.841506 6.382041
79.742009 22.708265 6.000854
65.979361 -39.703931 5.735166
-15.238258 -65.526581 5.056000
73.273096 40.433344 5.100740
-23.014135 74.891712 6.877628
80.677701 17.893992 5.443110
-68.177218 3.277438 6.035053
19.824634 -67.638221 4.519974
-34.447137 -56.498677 5.931194
75.031456 -24.558729 4.522186
-56.063415 46.992887 6.273494
-68.209402 4.337871 5.480051
-65.521093 -13.831794 6.296290
70.172697 45.830113 3.937852
-49.421321 55.759471 4.703686
34.716817 -63.353381 3.920072
71.219495 44.175576 5.440504
77.188785 -19.269368 6.170038
-6.965088 -67.541667 5.496877
79.262196 -12.386500 3.916446
-13.458448 78.250642 6.358256
27.959233 -65.735238 4.854455
81.578104 4.888292 3.982143
56.168604 62.360034 5.481877
25.472127 -66.400648 4.339386
-2.377019 -68.245499 6.105023
-44.901972 60.404659 3.948665
-67.669372 15.077256 6.018251
27.976475 -65.729650 3.908628
16.341546 80.367445 6.433423
32.852790 -64.089777 5.717620
-66.009088 -11.925161 6.856639
-67.924502 -0.788785 6.662769
27.380482 -65.912212 4.200753
-59.891478 -28.255406 6.178738
-7.399871 79.655854 6.046834
0.325119 80.741411 6.624537
80.985151 15.511829 4.268718
-52.323274 -40.063632 3.996069
81.176440 13.988306 6.341752
-66.296388 -10.802659 4.396972
35.671364 -62.976281 5.004052
3.285059 80.925372 4.484809
-12.135755 78.589180 4.775539
39.086337 -61.426204 5.756063
37.277205 74.475637 6.479725
68.111265 48.968038 5.832251
