8.425673 34.313327 -31.914811 26.00000000
5.913151 34.138784 -54.493995 26.00000000
2.791959 33.921957 -52.308862 26.00000000
5.395770 34.102842 -24.658425 26.00000000
6.245544 34.161875 -12.388534 26.00000000
7.175574 34.226483 -58.030286 26.00000000
5.492779 34.109581 -34.857813 26.00000000
2.580680 33.907279 -6.513820 26.00000000
2.920344 33.930876 -34.542014 26.00000000
1.981911 33.865683 -43.927763 26.00000000
1.635626 33.841627 -8.058801 26.00000000
5.264465 34.093720 3.835808 26.00000000
4.709214 34.055147 -18.016022 26.00000000
0.975205 33.795748 -30.740447 26.00000000
2.115165 33.874940 -50.982011 26.00000000
4.815254 34.062514 -9.413644 26.00000000
2.838625 33.925199 -60.734055 26.00000000
7.512704 34.249903 -45.682952 26.00000000
7.301205 34.235211 -22.278376 26.00000000
1.006422 33.797917 -25.796182 26.00000000
5.854239 34.134691 1.051489 26.00000000
7.915775 34.277904 -17.880473 26.00000000
1.324488 33.820013 -47.690279 26.00000000
5.976208 34.143164 -56.862955 26.00000000
8.468645 34.316312 -34.593783 26.00000000
0.933416 33.792845 -4.933311 26.00000000
3.005566 33.936796 -50.204465 26.00000000
2.707238 33.916071 -20.609864 26.00000000
1.848428 33.856410 -15.270370 26.00000000
7.761370 34.267178 -46.487831 26.00000000
6.458463 34.176666 -46.361970 26.00000000
3.314672 33.958269 -26.675658 26.00000000
5.976998 34.143219 -58.285912 26.00000000
6.497074 34.179348 -1.125108 26.00000000
6.578872 34.185031 -50.354622 26.00000000
3.588866 33.977317 -5.282514 26.00000000
1.186875 33.810453 -21.025695 26.00000000
1.326761 33.820170 -20.624132 26.00000000
7.713772 34.263871 -22.979026 26.00000000
5.046620 34.078586 -14.183872 26.00000000
5.353554 34.099909 -0.008186 26.00000000
8.511552 34.319293 -33.887788 26.00000000
6.236574 34.161252 -54.666470 26.00000000
1.134354 33.806804 -30.274276 26.00000000
5.828155 34.132879 -36.790883 26.00000000
5.508042 34.110641 -5.563629 26.00000000
4.013997 34.006851 -13.442213 26.00000000
3.195380 33.949982 3.112677 26.00000000
7.502371 34.249186 -24.904858 26.00000000
2.834491 33.924911 -19.484917 26.00000000
7.885545 34.275804 -41.035956 26.00000000
8.545590 34.321657 -18.225667 26.00000000
4.547446 34.043909 -33.878317 26.00000000
6.119011 34.153085 -43.929267 26.00000000
2.131070 33.876045 -6.851546 26.00000000
2.354926 33.891596 -11.156695 26.00000000
2.165143 33.878412 -40.819218 26.00000000
1.050823 33.801001 2.855009 26.00000000
3.384444 33.963116 -22.660691 26.00000000
1.954406 33.863773 -21.936670 26.00000000
6.299921 34.165652 -13.685705 26.00000000
8.425532 34.313317 -38.760771 26.00000000
1.960290 33.864181 -26.102059 26.00000000
0.910863 33.791278 -58.328554 26.00000000
6.725377 34.195208 -1.694747 26.00000000
6.602728 34.186688 -14.850887 26.00000000
8.129998 34.292786 -37.925535 26.00000000
3.652765 33.981756 -6.999899 26.00000000
1.230518 33.813485 -58.466823 26.00000000
1.373523 33.823419 -38.939626 26.00000000
4.864805 34.065956 -12.224143 26.00000000
0.915311 33.791587 -45.011651 26.00000000
3.355444 33.961102 -44.496260 26.00000000
7.810805 34.270612 -55.970582 26.00000000
4.907184 34.068900 -6.168313 26.00000000
5.307544 34.096713 -55.944703 26.00000000
7.796239 34.269600 -12.314886 26.00000000
6.126957 34.153637 -43.637079 26.00000000
3.040419 33.939217 -25.993230 26.00000000
8.421042 34.313005 -23.114768 26.00000000
2.812361 33.923374 -16.793961 26.00000000
3.082945 33.942171 -27.082743 26.00000000
8.071736 34.288739 -18.851809 26.00000000
3.707043 33.985527 -14.253677 26.00000000
4.457648 34.037671 -24.913448 26.00000000
6.324779 34.167379 -12.933405 26.00000000
8.566741 34.323127 -3.445008 26.00000000
5.437193 34.105719 2.387470 26.00000000
3.292800 33.956750 -9.565250 26.00000000
5.647486 34.120328 -20.557244 26.00000000
1.912041 33.860829 -56.197392 26.00000000
5.878058 34.136346 -19.900004 26.00000000
4.730863 34.056651 -23.407174 26.00000000
5.008899 34.075966 -55.881109 26.00000000
4.801603 34.061565 -43.414406 26.00000000
5.241250 34.092107 -14.752875 26.00000000
1.383323 33.824100 -22.382608 26.00000000
3.579098 33.976639 -30.412931 26.00000000
1.423103 33.826863 -12.581050 26.00000000
6.200684 34.158758 -57.478728 26.00000000
1.037009 33.800042 -57.986938 26.00000000
2.709781 33.916248 -51.955536 26.00000000
5.399501 34.103101 0.461220 26.00000000
1.656157 33.843053 3.193322 26.00000000
2.192754 33.880330 -7.658991 26.00000000
2.093256 33.873418 -48.448481 26.00000000
7.576016 34.254302 -33.575586 26.00000000
3.060254 33.940595 -28.917191 26.00000000
4.733996 34.056869 -60.716751 26.00000000
8.420170 34.312944 -37.780564 26.00000000
2.251475 33.884410 -31.106878 26.00000000
7.694862 34.262558 -43.973965 26.00000000
2.457925 33.898752 -12.048623 26.00000000
8.246754 34.300897 -31.640989 26.00000000
6.549285 34.182975 -27.208582 26.00000000
2.517028 33.902857 -47.167996 26.00000000
1.281472 33.817024 -42.345866 26.00000000
6.390991 34.171979 -17.419070 26.00000000
5.795297 34.130596 -20.228087 26.00000000
8.195871 34.297362 -25.474991 26.00000000
5.199742 34.089224 -42.285124 26.00000000
4.458082 34.037701 -50.018858 26.00000000
8.140782 34.293535 -39.361643 26.00000000
5.020059 34.076741 -30.243215 26.00000000
2.209714 33.881509 -14.473673 26.00000000
5.440724 34.105964 -44.914572 26.00000000
2.931002 33.931616 3.511167 26.00000000
1.121404 33.805905 -31.427182 26.00000000
0.928455 33.792501 -42.846006 26.00000000
6.997248 34.214095 -30.427952 26.00000000
2.334219 33.890158 -15.598232 26.00000000
5.745935 34.127167 -13.937165 26.00000000
5.957568 34.141869 -0.841457 26.00000000
7.009608 34.214954 -6.269948 26.00000000
7.089908 34.220532 -2.396177 26.00000000
7.564011 34.253468 -5.511518 26.00000000
2.312859 33.888674 -19.853445 26.00000000
4.462329 34.037996 -6.503872 26.00000000
6.544777 34.182662 -15.706264 26.00000000
1.870100 33.857916 -34.956085 26.00000000
1.635907 33.841647 -17.232128 26.00000000
3.072430 33.941441 -38.251903 26.00000000
7.499683 34.248999 -29.142148 26.00000000
6.618293 34.187769 -60.445081 26.00000000
8.263600 34.302068 -55.372435 26.00000000
2.615570 33.909703 -56.645191 26.00000000
1.544433 33.835292 -60.216816 26.00000000
7.636552 34.258507 -3.886303 26.00000000
6.033417 34.147138 -21.939286 26.00000000
7.875629 34.275115 -53.757813 26.00000000
5.359814 34.100344 -30.618055 26.00000000
3.948250 34.002283 -21.920603 26.00000000
4.050371 34.009378 -42.148458 26.00000000
2.002816 33.867136 -22.553793 26.00000000
4.226861 34.021638 -27.054064 26.00000000
6.502185 34.179703 -35.762016 26.00000000
7.927979 34.278752 -0.480349 26.00000000
1.720976 33.847556 -1.315006 26.00000000
2.925699 33.931248 -25.548575 26.00000000
7.606745 34.256436 -59.283412 26.00000000
6.143629 34.154795 -23.365326 26.00000000
1.896820 33.859772 -33.283132 26.00000000
8.020403 34.285173 -1.863119 26.00000000
1.441095 33.828113 -24.366096 26.00000000
3.684347 33.983950 -17.287222 26.00000000
2.183597 33.879694 -33.313638 26.00000000
6.697490 34.193271 -24.670097 26.00000000
1.430670 33.827389 -30.047606 26.00000000
2.025355 33.868701 0.510298 26.00000000
8.089246 34.289955 -51.736466 26.00000000
5.921101 34.139336 2.131452 26.00000000
2.474762 33.899921 -52.721307 26.00000000
2.334558 33.890181 -47.997349 26.00000000
1.321799 33.819826 -42.943989 26.00000000
5.838841 34.133621 -2.625057 26.00000000
5.182627 34.088035 -3.122639 26.00000000
1.879888 33.858596 -28.971488 26.00000000
3.393953 33.963777 -3.895472 26.00000000
6.172325 34.156788 -30.089805 26.00000000
8.316623 34.305751 -53.568673 26.00000000
5.934436 34.140262 -10.270898 26.00000000
6.833673 34.202732 2.083703 26.00000000
6.957365 34.211324 -50.598613 26.00000000
7.431621 34.244271 -12.635183 26.00000000
3.896170 33.998665 -34.793372 26.00000000
4.516435 34.041755 -36.361140 26.00000000
5.185089 34.088206 -27.061535 26.00000000
4.928073 34.070351 -47.774916 26.00000000
3.800363 33.992010 -41.499347 26.00000000
6.576840 34.184890 -10.275009 26.00000000
5.383691 34.102002 -37.868555 26.00000000
6.405210 34.172967 -44.361434 26.00000000
1.121770 33.805930 -24.419509 26.00000000
3.710493 33.985767 -53.157367 26.00000000
6.369790 34.170506 -46.071170 26.00000000
7.072233 34.219304 -1.999996 26.00000000
3.952367 34.002569 -54.028579 26.00000000
8.164118 34.295157 -46.523587 26.00000000
3.711258 33.985820 -31.155589 26.00000000
3.693955 33.984618 -7.420288 26.00000000
3.518176 33.972406 -34.899306 26.00000000
6.724465 34.195145 -54.161614 26.00000000
3.801353 33.992079 -58.939983 26.00000000
3.523849 33.972801 -2.713242 26.00000000
7.432609 34.244339 -58.966079 26.00000000
3.531969 33.973365 -7.931242 26.00000000
7.132350 34.223480 -24.058756 26.00000000
5.705989 34.124392 -30.033310 26.00000000
4.257015 34.023733 -52.853243 26.00000000
4.650167 34.051045 -40.261778 26.00000000
0.926832 33.792388 -21.203437 26.00000000
1.207631 33.811895 -14.547382 26.00000000
2.824730 33.924233 -49.394366 26.00000000
6.581502 34.185213 -47.700251 26.00000000
1.964713 33.864489 -32.080245 26.00000000
4.476101 34.038953 -56.415237 26.00000000
7.764685 34.267408 -5.146385 26.00000000
5.954234 34.141638 -1.849988 26.00000000
5.711952 34.124806 -29.711921 26.00000000
5.223618 34.090882 -22.610381 26.00000000
1.376129 33.823600 -32.160658 26.00000000
1.040430 33.800279 -46.703999 26.00000000
3.187273 33.949419 -50.672070 26.00000000
6.242432 34.161659 -19.368795 26.00000000
7.098332 34.221117 -56.861146 26.00000000
1.831412 33.855228 -55.676846 26.00000000
4.361717 34.031007 -58.075271 26.00000000
3.147662 33.946667 -32.560406 26.00000000
0.984416 33.796388 -15.016699 26.00000000
3.368507 33.962009 -16.778692 26.00000000
2.191153 33.880219 -50.469823 26.00000000
3.023612 33.938050 -15.483792 26.00000000
0.979025 33.796014 -6.530558 26.00000000
6.358203 34.169701 -53.652350 26.00000000
0.983808 33.796346 -54.465501 26.00000000
6.142967 34.154749 -34.590956 26.00000000
8.040672 34.286581 -7.458202 26.00000000
7.545401 34.252175 -5.788245 26.00000000
3.536036 33.973647 -15.650251 26.00000000
5.637995 34.119669 -48.585735 26.00000000
6.463369 34.177007 -25.066191 26.00000000
6.839138 34.203111 -0.607340 26.00000000
3.299093 33.957187 -1.072696 26.00000000
6.583979 34.185386 -41.861467 26.00000000
1.561006 33.836443 -47.844034 26.00000000
5.433915 34.105491 -36.287469 26.00000000
2.758090 33.919604 -4.882025 26.00000000
5.419927 34.104520 -46.117072 26.00000000
0.965632 33.795083 -59.266089 26.00000000
7.861220 34.274115 -18.661856 26.00000000
1.116728 33.805580 -52.014658 26.00000000
5.544107 34.113146 -19.117030 26.00000000
8.570029 34.323355 -14.261767 26.00000000
1.882776 33.858796 -44.265175 26.00000000
2.456856 33.898677 -57.649845 26.00000000
4.816568 34.062605 -37.124089 26.00000000
7.720134 34.264313 -43.686506 26.00000000
5.732141 34.126209 -17.808000 26.00000000
2.239028 33.883545 -47.702348 26.00000000
7.596234 34.255706 3.423746 26.00000000
1.195661 33.811063 -40.745946 26.00000000
4.128286 34.014790 -55.483572 26.00000000
4.784325 34.060365 -39.269523 26.00000000
4.050987 34.009420 -13.771339 26.00000000
1.832490 33.855303 -5.111385 26.00000000
5.808455 34.131510 -26.997780 26.00000000
8.422524 34.313108 -27.080433 26.00000000
0.994882 33.797115 -15.858443 26.00000000
5.432784 34.105413 -34.004190 26.00000000
7.106760 34.221703 -59.637424 26.00000000
8.227481 34.299558 -56.397694 26.00000000
3.503224 33.971368 -51.645341 26.00000000
5.739793 34.126741 -6.013530 26.00000000
6.697786 34.193292 -35.266373 26.00000000
6.806848 34.200868 -59.694143 26.00000000
4.976339 34.073704 2.393597 26.00000000
6.403102 34.172820 -26.018559 26.00000000
2.264821 33.885337 -8.560591 26.00000000
2.125543 33.875661 -36.161616 26.00000000
5.837117 34.133502 -58.603877 26.00000000
7.626571 34.257814 -27.432699 26.00000000
3.431513 33.966386 -32.454111 26.00000000
2.403858 33.894996 -14.842519 26.00000000
1.766743 33.850736 -30.599341 26.00000000
8.512064 34.319328 -16.576275 26.00000000
2.149696 33.877339 -34.322707 26.00000000
6.593722 34.186062 -31.981442 26.00000000
7.609130 34.256602 -23.340167 26.00000000
6.723690 34.195091 -36.738074 26.00000000
2.586057 33.907653 -9.635354 26.00000000
4.478619 34.039128 -45.315530 26.00000000
3.650201 33.981578 -51.361595 26.00000000
6.160132 34.155941 -59.608354 26.00000000
4.042886 34.008858 -46.112307 26.00000000
4.577543 34.046000 -22.343303 26.00000000
8.006133 34.284182 -19.792155 26.00000000
3.750723 33.988561 -9.774960 26.00000000
1.646215 33.842363 -20.276980 26.00000000
8.453494 34.315259 -12.967813 26.00000000
3.712043 33.985874 -1.516666 26.00000000
3.044154 33.939477 -44.362893 26.00000000
6.796498 34.200149 -31.433200 26.00000000
5.430172 34.105231 -32.669253 26.00000000
5.771728 34.128959 -5.123938 26.00000000
2.079554 33.872467 -11.439299 26.00000000
7.656948 34.259924 -9.716270 26.00000000
7.685524 34.261909 -17.498182 26.00000000
2.612746 33.909507 -54.163006 26.00000000
5.282114 34.094946 -29.221785 26.00000000
3.639320 33.980822 -23.923722 26.00000000
6.088289 34.150950 -41.019196 26.00000000
4.299598 34.026691 -55.860584 26.00000000
0.971217 33.795471 -11.291510 26.00000000
4.087403 34.011950 -19.105799 26.00000000
3.011687 33.937221 -1.834987 26.00000000
4.406353 34.034107 -48.209296 26.00000000
5.616686 34.118188 -52.193608 26.00000000
6.895140 34.207002 -3.502007 26.00000000
3.705766 33.985438 -13.955583 26.00000000
3.186827 33.949388 -20.162010 26.00000000
4.806594 34.061912 -21.174115 26.00000000
6.623545 34.188134 -32.581634 26.00000000
2.472157 33.899740 -9.948373 26.00000000
8.291587 34.304012 -20.376910 26.00000000
0.926858 33.792390 -54.140006 26.00000000
7.682049 34.261668 -33.206212 26.00000000
6.225215 34.160462 -4.224448 26.00000000
3.815294 33.993047 -40.259606 26.00000000
6.081322 34.150466 -29.812179 26.00000000
4.132740 34.015100 -44.125976 26.00000000
2.964745 33.933960 -37.220680 26.00000000
4.697351 34.054323 2.343587 26.00000000
8.157195 34.294676 -4.435092 26.00000000
1.741957 33.849014 -16.107317 26.00000000
3.186522 33.949367 -51.558858 26.00000000
8.194655 34.297278 -10.349642 26.00000000
5.194908 34.088888 -25.920917 26.00000000
5.975615 34.143123 3.019693 26.00000000
8.037655 34.286371 -11.315351 26.00000000
2.912235 33.930312 -12.780235 26.00000000
6.810047 34.201090 -52.725847 26.00000000
1.622596 33.840722 -46.953288 26.00000000
4.153513 34.016543 -50.778328 26.00000000
1.224563 33.813071 1.107215 26.00000000
5.246156 34.092448 -28.723821 26.00000000
5.845173 34.134061 -10.561147 26.00000000
6.746266 34.196659 -53.594946 26.00000000
5.149945 34.085764 -36.937973 26.00000000
7.137676 34.223850 -27.878033 26.00000000
7.060693 34.218503 -20.715510 26.00000000
1.164327 33.808886 -34.590720 26.00000000
1.002696 33.797658 -41.960283 26.00000000
7.688335 34.262104 -42.852184 26.00000000
3.740218 33.987832 -60.336348 26.00000000
7.845674 34.273035 -10.923839 26.00000000
7.414017 34.243048 -31.467011 26.00000000
5.543953 34.113136 -42.748293 26.00000000
1.371864 33.823304 -16.657426 26.00000000
4.902045 34.068543 -16.635641 26.00000000
2.851485 33.926092 -57.172753 26.00000000
8.111276 34.291486 -16.387644 26.00000000
6.362953 34.170031 -9.061412 26.00000000
1.461300 33.829517 -41.528336 26.00000000
4.155259 34.016664 -5.162116 26.00000000
2.123193 33.875498 -35.585719 26.00000000
6.933312 34.209653 -22.071731 26.00000000
5.002994 34.075556 -17.603340 26.00000000
5.862765 34.135283 -27.355960 26.00000000
3.600469 33.978123 -33.958138 26.00000000
7.166435 34.225848 -54.058674 26.00000000
5.101355 34.082389 -50.071441 26.00000000
1.743712 33.849136 -23.069241 26.00000000
2.707446 33.916086 -29.141179 26.00000000
5.187686 34.088386 -22.097961 26.00000000
2.166988 33.878540 -7.944734 26.00000000
2.802561 33.922693 -44.868852 26.00000000
5.327661 34.098110 -20.527679 26.00000000
7.342277 34.238064 -13.270528 26.00000000
7.377035 34.240479 3.722732 26.00000000
6.304307 34.165957 1.403272 26.00000000
7.535287 34.251472 -10.425140 26.00000000
5.240144 34.092030 -20.072646 26.00000000
1.076915 33.802814 2.303602 26.00000000
2.287732 33.886928 -30.165415 26.00000000
3.428942 33.966207 -38.601169 26.00000000
5.971628 34.142846 -20.674664 26.00000000
4.217442 34.020984 -33.889377 26.00000000
3.555262 33.974983 1.078931 26.00000000
2.084705 33.872824 -35.218285 26.00000000
5.048357 34.078707 -54.232866 26.00000000
7.054188 34.218051 -14.245712 26.00000000
1.005983 33.797886 -21.680094 26.00000000
2.568921 33.906462 -19.318359 26.00000000
3.796249 33.991724 -39.893261 26.00000000
4.809845 34.062138 -33.483423 26.00000000
8.509066 34.319120 -34.192037 26.00000000
6.422168 34.174145 -59.289250 26.00000000
6.585856 34.185516 -30.139816 26.00000000
3.344231 33.960323 -9.162336 26.00000000
8.166712 34.295337 -23.013280 26.00000000
2.675606 33.913874 -5.562481 26.00000000
2.469216 33.899536 -4.558337 26.00000000
6.296985 34.165448 -52.556793 26.00000000
3.889724 33.998218 -47.992521 26.00000000
5.939849 34.140638 -46.248852 26.00000000
5.136579 34.084836 -31.932009 26.00000000
3.250035 33.953779 -54.308661 26.00000000
3.240787 33.953137 -20.718974 26.00000000
2.877096 33.927871 -14.679665 26.00000000
1.788582 33.852253 -14.712196 26.00000000
4.656522 34.051487 -59.346198 26.00000000
7.481592 34.247742 -1.380918 26.00000000
2.332393 33.890031 -25.009925 26.00000000
3.703359 33.985271 -23.308922 26.00000000
4.873397 34.066553 -34.359814 26.00000000
5.901999 34.138009 -3.811333 26.00000000
4.148647 34.016205 -19.491833 26.00000000
1.144348 33.807498 -37.736936 26.00000000
2.148930 33.877286 -32.886975 26.00000000
4.436468 34.036200 -15.859681 26.00000000
5.371226 34.101136 -53.976299 26.00000000
4.845492 34.064614 2.090084 26.00000000
8.440881 34.314383 -30.330958 26.00000000
2.550294 33.905168 -42.566920 26.00000000
3.058398 33.940466 -39.069757 26.00000000
4.221958 34.021298 -2.450003 26.00000000
3.560368 33.975338 -33.010198 26.00000000
4.361620 34.031000 2.268811 26.00000000
2.627905 33.910560 2.928477 26.00000000
1.427932 33.827199 -13.869366 26.00000000
0.922574 33.792092 -29.491054 26.00000000
3.133708 33.945698 -8.802216 26.00000000
5.438263 34.105793 -43.746010 26.00000000
8.193693 34.297211 -40.840493 26.00000000
7.036382 34.216814 -31.744716 26.00000000
2.125985 33.875692 -37.019470 26.00000000
2.576782 33.907009 -53.047543 26.00000000
7.853325 34.273566 2.127990 26.00000000
1.479936 33.830811 2.142104 26.00000000
0.943048 33.793514 -16.888423 26.00000000
4.168596 34.017591 0.448959 26.00000000
6.209694 34.159384 -47.546885 26.00000000
2.917749 33.930695 -11.511649 26.00000000
4.701840 34.054635 -16.005234 26.00000000
4.597662 34.047398 -52.735152 26.00000000
8.551027 34.322035 -4.858731 26.00000000
7.808596 34.270459 -11.612235 26.00000000
4.826939 34.063325 0.985582 26.00000000
5.922091 34.139405 -26.518246 26.00000000
7.623801 34.257621 -24.397728 26.00000000
5.748923 34.127375 -38.880829 26.00000000
2.796286 33.922257 -28.824127 26.00000000
8.161270 34.294959 -35.168913 26.00000000
3.472416 33.969228 -48.489062 26.00000000
1.487256 33.831320 -11.100474 26.00000000
4.205023 34.020121 -47.263494 26.00000000
4.488018 34.039781 -30.707393 26.00000000
8.536066 34.320996 -17.429514 26.00000000
5.317100 34.097376 -52.513984 26.00000000
6.473838 34.177734 -47.399205 26.00000000
4.422366 34.035220 -3.108027 26.00000000
7.239192 34.230903 -25.518135 26.00000000
2.711311 33.916354 -17.786576 26.00000000
6.379030 34.171148 -39.732478 26.00000000
8.572566 34.323531 -32.957812 26.00000000
6.046677 34.148060 -25.561836 26.00000000
7.067795 34.218996 -54.958951 26.00000000
1.515734 33.833298 -22.742470 26.00000000
5.325303 34.097946 -17.379949 26.00000000
7.313735 34.236081 -27.468330 26.00000000
7.073144 34.219367 -16.934200 26.00000000
0.922860 33.792112 -25.441956 26.00000000
7.400095 34.242080 -13.825569 26.00000000
8.235383 34.300107 -2.480163 26.00000000
5.395766 34.102841 -10.027633 26.00000000
4.311139 34.027493 -2.743507 26.00000000
8.474754 34.316736 -60.849557 26.00000000
3.267847 33.955016 -52.739731 26.00000000
4.545612 34.043782 -33.572904 26.00000000
5.088377 34.081487 -38.829509 26.00000000
5.863896 34.135362 -32.256188 26.00000000
6.882853 34.206148 -48.415812 26.00000000
2.047025 33.870207 -16.035896 26.00000000
4.653580 34.051282 -60.060393 26.00000000
8.568870 34.323274 -53.435924 26.00000000
8.125412 34.292468 -11.047858 26.00000000
7.935813 34.279296 -52.434257 26.00000000
1.874796 33.858242 -38.042713 26.00000000
5.480188 34.108706 -39.924022 26.00000000
1.800450 33.853077 -60.049965 26.00000000
2.531872 33.903889 0.536243 26.00000000
0.958451 33.794584 -34.261566 26.00000000
6.290807 34.165019 -18.130277 26.00000000
6.684642 34.192379 -3.155188 26.00000000
8.506325 34.318929 -21.296745 26.00000000
6.766333 34.198054 -34.985712 26.00000000
6.789780 34.199682 -49.428472 26.00000000
3.465829 33.968770 -41.847256 26.00000000
1.299537 33.818279 -24.137511 26.00000000
4.087821 34.011979 -28.347119 26.00000000
2.420467 33.896149 -34.443561 26.00000000
8.560975 34.322726 -59.637956 26.00000000
8.424292 34.313231 -9.181730 26.00000000
2.091459 33.873294 -4.830193 26.00000000
3.218353 33.951578 -59.819318 26.00000000
7.019001 34.215606 -37.434081 26.00000000
7.949960 34.280279 -59.558468 26.00000000
8.208058 34.298209 -20.655598 26.00000000
1.320667 33.819747 3.046597 26.00000000
8.487337 34.317610 -25.479982 26.00000000
6.034300 34.147200 -3.503904 26.00000000
8.338627 34.307280 -35.566443 26.00000000
6.190668 34.158063 -40.159220 26.00000000
8.565421 34.323035 -8.539498 26.00000000
2.623740 33.910271 -13.456126 26.00000000
3.061928 33.940711 -14.194938 26.00000000
4.791293 34.060849 -14.329317 26.00000000
8.098291 34.290584 0.294029 26.00000000
3.685840 33.984054 -29.492341 26.00000000
1.290441 33.817647 -13.138713 26.00000000
3.235729 33.952785 -23.660807 26.00000000
0.920256 33.791931 -23.075627 26.00000000
2.088988 33.873122 -24.161498 26.00000000
3.375040 33.962463 2.416787 26.00000000
2.038176 33.869592 -18.119217 26.00000000
4.270135 34.024644 -26.032278 26.00000000
2.033028 33.869234 -41.348419 26.00000000
2.169817 33.878737 -58.929490 26.00000000
7.132106 34.223464 -45.771495 26.00000000
3.495551 33.970835 -29.762116 26.00000000
6.610540 34.187231 -43.735915 26.00000000
6.492600 34.179038 -28.209901 26.00000000
7.215580 34.229262 -21.958409 26.00000000
7.347359 34.238417 -6.663536 26.00000000
2.143232 33.876890 -4.525731 26.00000000
1.594598 33.838777 -31.533133 26.00000000
4.345318 34.029867 -30.238247 26.00000000
5.038455 34.078019 -30.527401 26.00000000
5.038827 34.078045 -2.872784 26.00000000
7.337549 34.237735 -4.592602 26.00000000
0.972132 33.795535 3.801791 26.00000000
3.538749 33.973836 -17.572229 26.00000000
4.379387 34.032234 -25.731439 26.00000000
8.073048 34.288830 -28.007611 26.00000000
5.731374 34.126156 -50.439073 26.00000000
2.400150 33.894738 1.159031 26.00000000
7.377249 34.240493 -51.927265 26.00000000
7.961245 34.281063 -56.243721 26.00000000
3.206524 33.950756 -41.421727 26.00000000
1.735652 33.848576 -27.593598 26.00000000
2.147093 33.877158 -45.412949 26.00000000
8.558800 34.322575 -3.779013 26.00000000
2.649579 33.912066 -48.940992 26.00000000
1.275443 33.816605 -47.173640 26.00000000
8.184445 34.296569 -4.729412 26.00000000
8.096182 34.290437 -23.659434 26.00000000
4.920990 34.069859 -35.798757 26.00000000
1.791238 33.852437 -35.385277 26.00000000
4.222353 34.021325 -21.133869 26.00000000
4.084619 34.011757 -11.843130 26.00000000
2.372154 33.892793 -59.189280 26.00000000
3.210647 33.951043 -60.983813 26.00000000
8.522066 34.320023 -26.473255 26.00000000
1.150204 33.807905 -28.728980 26.00000000
1.535185 33.834650 -0.695353 26.00000000
1.896498 33.859750 -52.785836 26.00000000
8.023176 34.285365 -47.775104 26.00000000
6.595583 34.186192 -5.501176 26.00000000
7.049823 34.217747 -15.614987 26.00000000
6.032040 34.147043 -55.350254 26.00000000
3.636019 33.980593 -21.810618 26.00000000
8.243362 34.300662 -7.698138 26.00000000
1.955168 33.863825 3.046691 26.00000000
2.155509 33.877743 -2.265533 26.00000000
7.487004 34.248118 -17.127978 26.00000000
1.652507 33.842800 -21.172750 26.00000000
3.763154 33.989425 -11.760906 26.00000000
6.018796 34.146123 -13.134307 26.00000000
2.766311 33.920175 -38.999809 26.00000000
6.238222 34.161366 -37.101157 26.00000000
4.952297 34.072034 -23.162668 26.00000000
5.929775 34.139938 -12.481595 26.00000000
3.190080 33.949614 -55.132076 26.00000000
7.466204 34.246673 -10.743178 26.00000000
7.042063 34.217208 -41.635157 26.00000000
1.347740 33.821628 -0.380941 26.00000000
6.398340 34.172489 -35.408619 26.00000000
4.689812 34.053799 -37.531441 26.00000000
6.891963 34.206781 -39.940401 26.00000000
4.412128 34.034509 -47.921852 26.00000000
2.454253 33.898497 -30.439583 26.00000000
2.798460 33.922408 -6.701518 26.00000000
6.924468 34.209039 -53.873315 26.00000000
5.819669 34.132289 -31.720563 26.00000000
3.047029 33.939676 -31.914731 26.00000000
2.766890 33.920215 -31.134562 26.00000000
4.456030 34.037559 -55.544962 26.00000000
4.727498 34.056417 -35.390125 26.00000000
1.599658 33.839128 -61.045342 26.00000000
6.216945 34.159888 -39.356253 26.00000000
2.968576 33.934226 -54.926988 26.00000000
6.246901 34.161969 -29.558168 26.00000000
7.455178 34.245907 -28.821832 26.00000000
7.653335 34.259673 -41.203395 26.00000000
7.200219 34.228195 -36.732843 26.00000000
5.319423 34.097538 -59.832975 26.00000000
2.597841 33.908471 -6.907497 26.00000000
6.717801 34.194682 -2.247556 26.00000000
4.563968 34.045057 -39.870430 26.00000000
2.677266 33.913989 -14.293713 26.00000000
6.735506 34.195912 -21.274912 26.00000000
6.820491 34.201816 -2.839950 26.00000000
3.941535 34.001817 -9.371890 26.00000000
3.072656 33.941457 -31.227603 26.00000000
6.235574 34.161182 -12.663281 26.00000000
4.630334 34.049667 -21.944105 26.00000000
3.064080 33.940861 -57.992506 26.00000000
4.616296 34.048692 -23.752693 26.00000000
6.725307 34.195203 -37.568302 26.00000000
3.832960 33.994274 1.721253 26.00000000
6.605332 34.186869 -12.593296 26.00000000
4.337385 34.029316 -12.886249 26.00000000
5.654687 34.120828 -52.502354 26.00000000
1.782308 33.851817 -14.388635 26.00000000
8.483202 34.317323 -13.908694 26.00000000
6.536005 34.182053 -4.195316 26.00000000
3.620691 33.979528 -3.284318 26.00000000
7.261967 34.232485 -3.562541 26.00000000
3.308685 33.957853 -26.380885 26.00000000
3.331445 33.959434 -1.898692 26.00000000
2.376970 33.893128 -25.298645 26.00000000
8.265749 34.302217 -10.048968 26.00000000
3.695866 33.984750 -35.433520 26.00000000
8.464996 34.316058 -23.773109 26.00000000
2.112814 33.874777 -4.117599 26.00000000
4.232430 34.022025 -0.748852 26.00000000
3.817485 33.993199 -11.284185 26.00000000
7.286392 34.234182 -49.699626 26.00000000
5.992043 34.144264 -11.419358 26.00000000
8.449851 34.315006 -42.775441 26.00000000
7.919898 34.278191 -44.886918 26.00000000
6.557941 34.183577 1.826014 26.00000000
3.566904 33.975792 -24.689235 26.00000000
0.939407 33.793261 -42.563599 26.00000000
5.488225 34.109264 -38.719252 26.00000000
4.378294 34.032158 -8.179814 26.00000000
5.553043 34.113767 -20.030775 26.00000000
8.151386 34.294272 -54.293173 26.00000000
3.976320 34.004233 -8.460972 26.00000000
7.022351 34.215839 -23.798546 26.00000000
1.963623 33.864413 -18.768017 26.00000000
1.353559 33.822032 -51.565148 26.00000000
1.449962 33.828729 -60.548819 26.00000000
4.726559 34.056352 -25.681866 26.00000000
2.370022 33.892645 -29.724940 26.00000000
7.857251 34.273839 -52.057470 26.00000000
1.641202 33.842014 0.599748 26.00000000
2.794060 33.922103 -15.047226 26.00000000
1.734430 33.848491 -59.449973 26.00000000
2.501299 33.901765 -43.574564 26.00000000
5.022176 34.076888 -1.597866 26.00000000
5.392540 34.102617 -6.461867 26.00000000
6.581594 34.185220 -45.076097 26.00000000
3.629292 33.980126 -56.345456 26.00000000
5.295068 34.095846 -56.608661 26.00000000
7.106297 34.221671 -53.291505 26.00000000
5.341538 34.099074 -16.570915 26.00000000
5.387946 34.102298 -15.880865 26.00000000
2.754007 33.919320 -15.744863 26.00000000
6.841366 34.203266 -5.273531 26.00000000
4.660933 34.051793 -0.547121 26.00000000
2.781834 33.921253 -48.438050 26.00000000
5.662980 34.121404 -0.076123 26.00000000
0.962318 33.794853 -19.855134 26.00000000
4.716043 34.055621 -48.295180 26.00000000
3.724699 33.986753 -35.138976 26.00000000
3.704776 33.985369 -23.009477 26.00000000
1.473112 33.830337 -28.908187 26.00000000
2.794486 33.922132 -2.573961 26.00000000
3.742833 33.988013 -29.121011 26.00000000
2.337046 33.890354 -7.346969 26.00000000
2.935092 33.931900 -24.015767 26.00000000
7.744454 34.266003 -32.461875 26.00000000
4.026096 34.007691 -55.813885 26.00000000
4.214182 34.020758 -39.112215 26.00000000
2.659215 33.912735 3.485832 26.00000000
4.567573 34.045307 -42.321511 26.00000000
5.340645 34.099012 -3.634249 26.00000000
6.170827 34.156684 -61.071787 26.00000000
1.773084 33.851176 -23.372316 26.00000000
4.485257 34.039589 -51.873086 26.00000000
4.902786 34.068594 -26.580444 26.00000000
1.081642 33.803142 -7.540816 26.00000000
4.625634 34.049341 -45.687131 26.00000000
7.437509 34.244680 -18.048832 26.00000000
2.843171 33.925514 -24.846865 26.00000000
2.920821 33.930909 -11.238843 26.00000000
7.138348 34.223897 -30.802721 26.00000000
4.207647 34.020304 -6.609684 26.00000000
3.904282 33.999229 -26.014662 26.00000000
1.682685 33.844896 -44.509584 26.00000000
2.001497 33.867044 -6.263094 26.00000000
7.713742 34.263869 -51.759736 26.00000000
2.708569 33.916164 -35.516188 26.00000000
7.360793 34.239350 -9.142418 26.00000000
6.343995 34.168714 -8.109342 26.00000000
3.370809 33.962169 -37.680563 26.00000000
6.876019 34.205673 -47.797883 26.00000000
7.239302 34.230910 -37.598049 26.00000000
3.051110 33.939960 2.553011 26.00000000
7.344727 34.238234 -40.368933 26.00000000
5.447137 34.106410 -4.897393 26.00000000
1.190578 33.810710 -16.059061 26.00000000
5.516522 34.111230 -53.327932 26.00000000
6.726193 34.195265 -12.033556 26.00000000
2.767064 33.920227 -18.232435 26.00000000
7.197628 34.228015 -55.380852 26.00000000
1.923231 33.861607 -5.634544 26.00000000
1.254586 33.815157 -48.972343 26.00000000
6.547183 34.182829 -30.969073 26.00000000
7.653019 34.259651 -40.335996 26.00000000
5.917736 34.139102 1.856547 26.00000000
6.341870 34.168566 -60.029163 26.00000000
4.934242 34.070780 1.816624 26.00000000
5.453700 34.106866 3.611828 26.00000000
1.834842 33.855467 -57.735791 26.00000000
4.638630 34.050244 -10.356568 26.00000000
2.045913 33.870129 -0.374014 26.00000000
4.021848 34.007396 -58.226489 26.00000000
8.531506 34.320679 2.387345 26.00000000
8.007819 34.284299 -43.066287 26.00000000
5.396851 34.102917 -50.366822 26.00000000
4.415650 34.034753 -57.432590 26.00000000
5.999337 34.144771 -52.532172 26.00000000
4.774805 34.059704 -5.097388 26.00000000
3.032916 33.938696 -16.129608 26.00000000
4.633652 34.049898 -24.704943 26.00000000
5.153155 34.085987 -57.205757 26.00000000
3.026483 33.938249 -10.655813 26.00000000
2.503380 33.901909 -16.742167 26.00000000
4.508754 34.041221 -5.861711 26.00000000
5.316567 34.097339 -8.419207 26.00000000
8.172660 34.295750 -13.408391 26.00000000
5.349420 34.099622 -17.986039 26.00000000
8.411117 34.312315 -30.989636 26.00000000
2.121810 33.875402 -30.566596 26.00000000
4.738208 34.057161 -6.382865 26.00000000
1.611161 33.839928 -42.816901 26.00000000
4.129884 34.014901 -25.522717 26.00000000
3.120442 33.944776 -19.462014 26.00000000
5.694381 34.123586 -11.323129 26.00000000
6.566801 34.184192 -3.479080 26.00000000
1.714459 33.847104 -24.601759 26.00000000
8.455460 34.315396 -11.078123 26.00000000
4.208506 34.020363 -41.315982 26.00000000
2.829486 33.924564 -38.534158 26.00000000
8.075506 34.289001 3.732800 26.00000000
1.813887 33.854011 -11.183398 26.00000000
7.500178 34.249033 -57.441722 26.00000000
3.681621 33.983761 -48.865971 26.00000000
2.889817 33.928755 -32.236048 26.00000000
1.978870 33.865472 -20.787021 26.00000000
3.470446 33.969091 -16.417730 26.00000000
2.666821 33.913264 -31.686373 26.00000000
3.920275 34.000340 -30.941514 26.00000000
5.490503 34.109423 -11.598652 26.00000000
7.122379 34.222788 2.667809 26.00000000
3.018414 33.937688 -30.589777 26.00000000
6.741174 34.196306 -0.971700 26.00000000
1.041123 33.800327 -0.498435 26.00000000
1.590225 33.838473 -7.728776 26.00000000
5.921088 34.139335 -42.022323 26.00000000
7.245102 34.231313 -20.007873 26.00000000
2.942109 33.932388 -36.859866 26.00000000
1.054610 33.801264 -51.388755 26.00000000
3.748176 33.988384 -53.830789 26.00000000
3.962440 34.003269 -17.811056 26.00000000
1.116269 33.805548 -3.218467 26.00000000
7.146870 34.224489 -22.568037 26.00000000
2.668479 33.913379 -35.191789 26.00000000
8.474365 34.316709 -11.735525 26.00000000
1.899586 33.859964 -18.452914 26.00000000
8.049387 34.287186 -37.278826 26.00000000
6.471006 34.177537 -31.704484 26.00000000
3.910604 33.999668 -33.064693 26.00000000
1.091836 33.803850 -35.411109 26.00000000
1.230812 33.813505 -0.738683 26.00000000
6.752936 34.197123 -18.725819 26.00000000
5.553009 34.113765 -57.670177 26.00000000
1.258718 33.815444 -59.682670 26.00000000
1.426483 33.827098 -9.937703 26.00000000
5.584518 34.115954 -24.097178 26.00000000
1.532857 33.834488 -4.795197 26.00000000
6.794585 34.200016 -17.125915 26.00000000
8.283839 34.303474 -49.057722 26.00000000
3.751537 33.988618 -3.982188 26.00000000
6.537020 34.182123 -57.853236 26.00000000
4.372740 34.031772 -5.553756 26.00000000
4.813046 34.062360 -59.754504 26.00000000
3.325346 33.959011 -28.680076 26.00000000
5.786126 34.129959 -7.122576 26.00000000
4.037040 34.008452 -15.285640 26.00000000
2.945342 33.932612 -48.141784 26.00000000
6.978534 34.212795 -39.225246 26.00000000
6.638670 34.189185 -50.666408 26.00000000
4.450359 34.037165 -41.435806 26.00000000
1.063980 33.801915 -50.757585 26.00000000
6.303454 34.165898 -3.704438 26.00000000
3.955104 34.002760 -49.310632 26.00000000
6.364399 34.170131 -8.416550 26.00000000
3.188436 33.949500 -43.359698 26.00000000
3.632105 33.980321 -40.612031 26.00000000
8.327981 34.306540 -50.808674 26.00000000
4.358010 34.030749 -30.961589 26.00000000
6.622982 34.188095 -51.085937 26.00000000
8.057126 34.287724 -38.383617 26.00000000
8.543313 34.321499 -27.586968 26.00000000
7.440196 34.244866 -53.674947 26.00000000
7.059303 34.218406 2.323901 26.00000000
5.340971 34.099035 -39.158497 26.00000000
2.987127 33.935515 -45.701404 26.00000000
5.901275 34.137959 -57.688122 26.00000000
3.781730 33.990715 -55.547870 26.00000000
7.186737 34.227259 -10.779494 26.00000000
4.160355 34.017018 -3.496444 26.00000000
2.602443 33.908791 -13.133365 26.00000000
3.377094 33.962606 -28.342438 26.00000000
7.150283 34.224726 -45.435457 26.00000000
1.933545 33.862323 -11.726331 26.00000000
2.817319 33.923718 -34.819841 26.00000000
2.020078 33.868335 3.536267 26.00000000
5.755176 34.127809 -8.094951 26.00000000
7.451513 34.245652 -43.727501 26.00000000
4.890289 34.067726 -36.719048 26.00000000
3.233748 33.952647 -32.198306 26.00000000
4.194166 34.019367 -20.456454 26.00000000
2.723979 33.917234 -54.625408 26.00000000
4.273195 34.024857 -16.607570 26.00000000
7.250747 34.231705 -48.233556 26.00000000
6.767476 34.198133 -51.733090 26.00000000
0.918009 33.791775 -55.494572 26.00000000
6.222497 34.160274 -23.045960 26.00000000
2.591333 33.908019 -32.728573 26.00000000
4.592513 34.047040 -24.376613 26.00000000
7.585255 34.254943 -43.432350 26.00000000
2.543764 33.904715 -57.078360 26.00000000
6.728336 34.195414 -14.440215 26.00000000
7.867846 34.274575 -49.991348 26.00000000
5.137825 34.084922 -24.448521 26.00000000
1.698624 33.846004 -29.510868 26.00000000
6.103386 34.151999 -40.715361 26.00000000
6.164495 34.156244 -56.545323 26.00000000
1.545424 33.835361 -24.972038 26.00000000
1.575706 33.837465 -50.549173 26.00000000
1.011180 33.798247 -4.026690 26.00000000
7.983109 34.282582 -19.147217 26.00000000
2.731323 33.917744 -46.913201 26.00000000
3.862020 33.996293 -0.073367 26.00000000
2.073557 33.872050 -34.711546 26.00000000
3.714012 33.986011 -2.982013 26.00000000
5.588766 34.116249 -37.654997 26.00000000
7.822876 34.271451 -21.950092 26.00000000
8.136138 34.293213 -53.811542 26.00000000
1.843025 33.856035 -12.876131 26.00000000
7.515073 34.250068 -26.914994 26.00000000
2.476544 33.900045 2.062063 26.00000000
2.699791 33.915554 -44.383392 26.00000000
1.733408 33.848420 -2.758413 26.00000000
5.561577 34.114360 -51.434852 26.00000000
6.574434 34.184722 -5.817806 26.00000000
8.103893 34.290973 -28.396041 26.00000000
4.670063 34.052427 -18.824618 26.00000000
3.960022 34.003101 -20.269596 26.00000000
2.901810 33.929588 -39.801954 26.00000000
6.809232 34.201034 -29.063929 26.00000000
5.555324 34.113926 -9.799031 26.00000000
7.205119 34.228536 -5.517388 26.00000000
8.533734 34.320834 -12.681549 26.00000000
4.603478 34.047802 -13.235928 26.00000000
8.417957 34.312791 -40.274295 26.00000000
2.098582 33.873788 -23.415921 26.00000000
4.193485 34.019320 -40.673898 26.00000000
8.228937 34.299660 -45.809943 26.00000000
6.396660 34.172373 0.795308 26.00000000
6.756937 34.197401 -7.095254 26.00000000
1.516131 33.833326 -14.236482 26.00000000
8.091204 34.290091 -35.956659 26.00000000
1.776640 33.851423 -10.637201 26.00000000
7.832268 34.272103 -14.630841 26.00000000
1.541286 33.835073 -12.863215 26.00000000
2.433159 33.897031 -21.749303 26.00000000
8.172509 34.295740 -44.311641 26.00000000
6.599680 34.186476 -18.333873 26.00000000
6.179590 34.157293 0.192962 26.00000000
3.488522 33.970346 -60.830325 26.00000000
1.955138 33.863823 -0.036628 26.00000000
8.099792 34.290688 2.314000 26.00000000
6.659557 34.190636 -30.524363 26.00000000
6.707866 34.193992 0.553456 26.00000000
8.549304 34.321915 -45.727068 26.00000000
4.279282 34.025280 -38.153137 26.00000000
2.184902 33.879785 -52.087656 26.00000000
1.715432 33.847171 -41.357903 26.00000000
8.186610 34.296719 -3.573101 26.00000000
1.839835 33.855813 -44.743069 26.00000000
2.674559 33.913801 -59.467830 26.00000000
7.470746 34.246989 -19.801939 26.00000000
7.438094 34.244720 -4.225097 26.00000000
2.216434 33.881975 -60.817682 26.00000000
3.158739 33.947437 -18.086686 26.00000000
3.443645 33.967229 -52.376833 26.00000000
6.129963 34.153845 -39.057720 26.00000000
6.382595 34.171396 -2.147493 26.00000000
7.862925 34.274233 -27.712481 26.00000000
1.828633 33.855035 -0.939662 26.00000000
3.490065 33.970454 -54.155639 26.00000000
1.716516 33.847246 -15.005075 26.00000000
1.349873 33.821776 -56.548579 26.00000000
1.862363 33.857378 -19.071832 26.00000000
8.288031 34.303765 -58.731561 26.00000000
8.191474 34.297057 0.019135 26.00000000
4.493148 34.040137 -29.563940 26.00000000
2.828822 33.924518 -17.422373 26.00000000
3.744617 33.988137 -51.830964 26.00000000
4.975003 34.073611 -18.265869 26.00000000
2.991091 33.935790 -40.687237 26.00000000
1.776271 33.851398 -9.388015 26.00000000
3.171604 33.948330 -14.851039 26.00000000
0.918999 33.791844 -4.299611 26.00000000
4.253811 34.023511 -17.686968 26.00000000
3.949789 34.002390 -38.689073 26.00000000
6.490595 34.178898 -29.101622 26.00000000
8.479634 34.317075 -56.890806 26.00000000
5.936924 34.140435 -0.550707 26.00000000
6.457615 34.176607 -9.717400 26.00000000
6.315398 34.166727 3.849657 26.00000000
3.841785 33.994887 -7.815362 26.00000000
2.945882 33.932650 -8.228812 26.00000000
6.620788 34.187943 3.475824 26.00000000
3.572079 33.976151 -0.431398 26.00000000
1.451752 33.828854 -54.615708 26.00000000
4.830534 34.063575 -3.293941 26.00000000
7.261752 34.232470 -27.064336 26.00000000
2.534800 33.904092 -17.572316 26.00000000
2.724712 33.917285 -30.491282 26.00000000
7.472648 34.247121 -38.817711 26.00000000
1.672876 33.844215 -47.539767 26.00000000
6.420944 34.174060 -33.705411 26.00000000
4.757513 34.058502 -33.171532 26.00000000
3.575691 33.976402 -43.031666 26.00000000
4.846046 34.064653 -31.310869 26.00000000
4.864864 34.065960 -57.156352 26.00000000
2.490218 33.900995 -50.009305 26.00000000
4.941898 34.071311 -21.968070 26.00000000
5.661632 34.121311 -13.621991 26.00000000
7.760857 34.267142 -38.483546 26.00000000
4.313099 34.027629 -13.217021 26.00000000
5.727909 34.125915 -18.518453 26.00000000
1.477014 33.830608 -36.417184 26.00000000
3.763772 33.989468 -2.477131 26.00000000
1.333015 33.820605 -23.475797 26.00000000
3.882949 33.997747 -37.393839 26.00000000
3.394960 33.963847 -27.630756 26.00000000
8.193615 34.297206 -0.292745 26.00000000
8.004906 34.284096 -45.589309 26.00000000
8.549945 34.321960 -2.404766 26.00000000
5.128151 34.084250 -36.497444 26.00000000
4.629349 34.049599 -26.785771 26.00000000
7.920333 34.278221 -33.707184 26.00000000
6.721102 34.194911 -48.023300 26.00000000
4.114933 34.013863 -46.658335 26.00000000
7.480995 34.247701 -16.821043 26.00000000
2.377497 33.893164 -16.502438 26.00000000
1.320168 33.819713 -46.862567 26.00000000
5.479346 34.108647 -35.864207 26.00000000
1.714601 33.847114 -51.010312 26.00000000
7.918352 34.278083 -39.085991 26.00000000
1.484068 33.831099 -12.284023 26.00000000
3.010713 33.937153 -27.849122 26.00000000
2.196851 33.880615 -52.939067 26.00000000
2.653150 33.912314 -40.055595 26.00000000
7.849807 34.273322 -40.735099 26.00000000
1.496641 33.831972 -52.490832 26.00000000
8.381781 34.310277 -2.018725 26.00000000
4.404075 34.033949 -52.352887 26.00000000
6.028684 34.146810 -60.210684 26.00000000
8.263795 34.302081 -30.657045 26.00000000
1.296434 33.818064 -10.198841 26.00000000
1.250331 33.814861 -11.427869 26.00000000
7.525842 34.250816 -53.156966 26.00000000
7.623569 34.257605 -32.737178 26.00000000
2.981551 33.935128 -3.420531 26.00000000
3.317694 33.958479 -35.401510 26.00000000
2.206092 33.881257 -9.858084 26.00000000
2.110738 33.874633 -45.024712 26.00000000
6.226211 34.160532 -6.537794 26.00000000
4.615271 34.048621 -16.546008 26.00000000
7.916142 34.277930 -48.652621 26.00000000
7.770045 34.267781 -16.311119 26.00000000
2.911447 33.930257 -22.419462 26.00000000
1.337242 33.820899 -46.423673 26.00000000
5.353323 34.099893 -40.475893 26.00000000
2.263511 33.885246 -20.860709 26.00000000
3.458243 33.968243 -43.531619 26.00000000
6.338137 34.168307 -21.729951 26.00000000
8.431220 34.313712 -46.154606 26.00000000
7.043326 34.217296 -38.330290 26.00000000
1.728112 33.848052 -39.433215 26.00000000
6.111214 34.152543 -24.877775 26.00000000
5.177625 34.087687 -40.852698 26.00000000
3.114255 33.944346 -53.291845 26.00000000
1.958483 33.864056 -48.820266 26.00000000
6.100959 34.151830 -42.477029 26.00000000
2.288334 33.886970 -42.198975 26.00000000
2.073785 33.872066 -23.143065 26.00000000
1.245495 33.814525 -52.951495 26.00000000
6.916937 34.208516 -30.102000 26.00000000
2.885357 33.928445 -8.624464 26.00000000
2.595483 33.908308 -57.404948 26.00000000
5.517742 34.111315 -48.029807 26.00000000
1.676389 33.844459 -0.375963 26.00000000
1.233740 33.813708 -49.453599 26.00000000
6.713403 34.194377 -39.006290 26.00000000
2.704790 33.915901 -37.664521 26.00000000
6.446111 34.175808 -60.809707 26.00000000
1.042309 33.800410 -9.916152 26.00000000
2.572719 33.906726 -12.360856 26.00000000
6.642897 34.189479 -49.999103 26.00000000
4.449085 34.037076 -29.990170 26.00000000
5.536690 34.112631 -19.427974 26.00000000
8.533543 34.320820 -2.849956 26.00000000
8.479341 34.317055 -43.614184 26.00000000
6.229276 34.160745 -55.686974 26.00000000
6.679815 34.192043 -17.508944 26.00000000
5.258428 34.093300 -43.072330 26.00000000
7.632454 34.258222 -14.311308 26.00000000
1.671052 33.844088 -11.441422 26.00000000
3.872225 33.997002 -43.064258 26.00000000
1.693632 33.845657 -6.365605 26.00000000
0.911694 33.791336 0.389315 26.00000000
2.756619 33.919502 -0.980737 26.00000000
6.680069 34.192061 -34.045075 26.00000000
5.004538 34.075663 -22.852066 26.00000000
4.726454 34.056345 -58.109058 26.00000000
1.543975 33.835260 -52.829642 26.00000000
1.010704 33.798214 -32.738928 26.00000000
2.201614 33.880946 -38.988857 26.00000000
1.759438 33.850228 -51.335814 26.00000000
6.813544 34.201333 -56.309566 26.00000000
1.515525 33.833284 -40.132333 26.00000000
5.462424 34.107472 -56.276928 26.00000000
6.763046 34.197825 -60.919569 26.00000000
0.909200 33.791163 -38.088764 26.00000000
5.003801 34.075612 -3.954255 26.00000000
7.355131 34.238957 -33.902493 26.00000000
8.285163 34.303566 -6.324198 26.00000000
5.293215 34.095717 -23.243991 26.00000000
8.529770 34.320558 -22.462263 26.00000000
3.672292 33.983113 -13.352971 26.00000000
8.555155 34.322322 -41.173278 26.00000000
2.273284 33.885925 -37.333098 26.00000000
5.228567 34.091226 -42.704866 26.00000000
4.505593 34.041002 -47.417636 26.00000000
2.803080 33.922729 -10.010435 26.00000000
3.303952 33.957524 -33.410355 26.00000000
5.390484 34.102474 1.029620 26.00000000
1.252446 33.815008 0.631693 26.00000000
4.138907 34.015528 1.692194 26.00000000
3.199307 33.950255 -57.197721 26.00000000
1.406093 33.825682 -44.434722 26.00000000
5.767933 34.128695 -58.023618 26.00000000
5.178218 34.087728 2.681306 26.00000000
3.828027 33.993932 -59.307959 26.00000000
4.972841 34.073461 -28.902312 26.00000000
7.623067 34.257570 -2.632343 26.00000000
7.137269 34.223822 -24.965246 26.00000000
4.744866 34.057624 -2.566726 26.00000000
4.418621 34.034960 3.750202 26.00000000
6.972292 34.212361 -24.384995 26.00000000
6.602960 34.186704 -12.900694 26.00000000
4.723037 34.056107 -22.886559 26.00000000
5.160359 34.086488 -7.673738 26.00000000
5.794024 34.130508 -14.244725 26.00000000
1.357498 33.822306 -41.998825 26.00000000
2.278280 33.886272 -35.867491 26.00000000
6.647230 34.189780 -43.177402 26.00000000
3.431028 33.966352 -55.381792 26.00000000
5.011840 34.076170 -1.884973 26.00000000
2.074663 33.872127 -55.940127 26.00000000
6.281375 34.164364 -26.304292 26.00000000
7.187422 34.227306 -15.000882 26.00000000
7.480314 34.247653 -39.439818 26.00000000
1.642182 33.842083 -42.493270 26.00000000
5.106752 34.082764 -49.162342 26.00000000
8.288763 34.303816 -33.693873 26.00000000
7.823607 34.271502 -26.586477 26.00000000
7.596719 34.255740 1.310853 26.00000000
5.113673 34.083244 -16.857636 26.00000000
2.003648 33.867193 -29.304186 26.00000000
6.709188 34.194084 -55.000671 26.00000000
4.503434 34.040852 -5.296117 26.00000000
3.785288 33.990963 -27.191264 26.00000000
2.820557 33.923943 -30.190695 26.00000000
3.229618 33.952361 -27.314787 26.00000000
8.441723 34.314442 -7.307403 26.00000000
3.602522 33.978266 -12.090353 26.00000000
3.536355 33.973669 -45.416529 26.00000000
2.293567 33.887334 -20.557075 26.00000000
2.342027 33.890700 -26.309606 26.00000000
7.575925 34.254295 -60.769935 26.00000000
7.160955 34.225468 -52.802646 26.00000000
5.621775 34.118542 -12.111428 26.00000000
3.967450 34.003617 -18.141594 26.00000000
5.423484 34.104767 -7.061430 26.00000000
6.107370 34.152276 -6.914032 26.00000000
1.236761 33.813918 -14.133919 26.00000000
2.629301 33.910657 -41.710780 26.00000000
5.281657 34.094914 -24.917197 26.00000000
3.241986 33.953220 -32.999583 26.00000000
7.121122 34.222700 3.822939 26.00000000
0.908936 33.791145 -51.152774 26.00000000
1.751160 33.849653 -56.914905 26.00000000
2.505797 33.902077 -60.641350 26.00000000
8.445399 34.314697 -28.856195 26.00000000
4.067026 34.010535 -20.783066 26.00000000
0.908187 33.791093 -10.625338 26.00000000
3.521001 33.972603 -0.019192 26.00000000
3.652555 33.981742 -10.778266 26.00000000
8.573573 34.323601 -13.457222 26.00000000
7.835277 34.272312 -41.893780 26.00000000
6.978175 34.212770 -58.645231 26.00000000
1.283892 33.817192 -48.639573 26.00000000
4.714088 34.055486 -53.383673 26.00000000
6.776855 34.198784 -39.667098 26.00000000
7.780375 34.268498 -20.568243 26.00000000
5.843184 34.133923 1.383133 26.00000000
4.133523 34.015154 -5.903209 26.00000000
4.779490 34.060029 -28.606809 26.00000000
2.368427 33.892534 -51.760298 26.00000000
2.627160 33.910508 -25.074795 26.00000000
4.777131 34.059865 -35.093968 26.00000000
5.678439 34.122478 -20.882351 26.00000000
6.411621 34.173412 -48.465999 26.00000000
7.064930 34.218797 -44.600425 26.00000000
7.231931 34.230398 -20.936470 26.00000000
0.998975 33.797399 -48.704457 26.00000000
3.108263 33.943930 -55.849525 26.00000000
3.711112 33.985810 -45.967084 26.00000000
4.286687 34.025794 -11.647005 26.00000000
5.322196 34.097730 -48.359197 26.00000000
