-30.647039 5.439530 -28.348599 19.00000000
-37.658384 2.037174 -48.354140 19.00000000
-32.781556 4.569383 -46.104968 19.00000000
-42.872241 -1.768293 -57.904540 19.00000000
-36.219391 2.886158 -9.352259 19.00000000
-50.772004 -11.055874 -23.676442 19.00000000
-55.817227 -23.836881 -0.581314 19.00000000
-44.556004 -3.285388 -18.810702 19.00000000
-43.061591 -1.934050 -59.615515 19.00000000
-56.631343 -31.137826 0.698237 19.00000000
-49.820921 -9.572905 -38.885293 19.00000000
-46.467462 -5.247958 -35.285917 19.00000000
-52.340515 -13.865824 -25.871126 19.00000000
-52.161699 -13.501594 -5.089812 19.00000000
-53.445800 -16.212774 -37.208086 19.00000000
-44.449714 -3.176356 -33.973503 19.00000000
-23.745366 7.421057 2.366482 19.00000000
-54.834771 -20.032146 -25.488840 19.00000000
-55.442256 -22.153248 -39.962103 19.00000000
-56.584289 -33.739217 -31.646323 19.00000000
-47.182393 -6.107887 -33.980487 19.00000000
-56.582862 -33.818611 -8.967399 19.00000000
-32.427611 4.720181 -15.548577 19.00000000
-53.816215 -17.147542 -28.225946 19.00000000
-37.861161 1.909786 -51.622564 19.00000000
-40.807093 -0.104928 -17.949551 19.00000000
-49.798313 -9.540866 -47.173598 19.00000000
-52.254122 -13.689849 -53.457204 19.00000000
-53.149549 -15.513739 -4.121860 19.00000000
-45.370552 -4.120953 -27.186254 19.00000000
-56.613452 -32.127194 -2.303628 19.00000000
-56.503656 -28.764446 -7.266365 19.00000000
-40.473540 0.143400 -4.125973 19.00000000
-43.641726 -2.441898 -52.158206 19.00000000
-39.676214 0.737003 -26.049212 19.00000000
-34.291166 3.894535 -4.290555 19.00000000
-54.001612 -17.615405 -37.956104 19.00000000
-25.855188 6.874661 -31.737321 19.00000000
-52.732269 -14.663783 -14.917380 19.00000000
-41.761273 -0.815308 -44.958341 19.00000000
-56.592810 -30.224343 -39.370524 19.00000000
-28.088832 6.296199 -26.810669 19.00000000
-22.582530 7.722204 -34.654824 19.00000000
-51.063490 -11.547218 -21.778461 19.00000000
-53.122907 -15.459472 -57.150981 19.00000000
-22.783799 7.670080 -53.947783 19.00000000
-45.457164 -4.209800 -19.699457 19.00000000
-51.906252 -12.981276 -36.157169 19.00000000
-56.278755 -26.617515 -57.922985 19.00000000
-54.220866 -18.168710 -22.391092 19.00000000
-26.462422 6.717402 -0.878484 19.00000000
-25.149683 7.057371 3.552957 19.00000000
-56.534533 -29.270053 -27.357153 19.00000000
-26.750755 6.642730 -43.211344 19.00000000
-53.643670 -16.712112 -59.169043 19.00000000
-53.207957 -15.632710 0.007711 19.00000000
-40.175546 0.365254 -44.308261 19.00000000
-38.981853 1.205754 -41.980899 19.00000000
-26.026349 6.830335 -35.562727 19.00000000
-39.132195 1.111307 -40.245989 19.00000000
-56.551924 -29.554839 -36.859274 19.00000000
-36.235854 2.877548 -1.707482 19.00000000
-31.140704 5.268468 -53.543450 19.00000000
-51.203864 -11.783841 -29.377446 19.00000000
-56.402847 -27.497671 -8.388348 19.00000000
-36.348101 2.818848 -18.257633 19.00000000
-52.658345 -14.513209 -48.211063 19.00000000
-56.427300 -27.671109 -0.731047 19.00000000
-55.487212 -22.355098 -11.398183 19.00000000
-54.946503 -20.395636 -18.799748 19.00000000
-27.005127 6.576854 -58.669675 19.00000000
-56.601176 -32.805383 -50.206738 19.00000000
-36.704919 2.632248 -47.021643 19.00000000
-55.359166 -21.780170 -61.064353 19.00000000
-56.622312 -30.707437 -15.490739 19.00000000
-54.791405 -19.891066 -57.327877 19.00000000
-40.856044 -0.141371 -46.026583 19.00000000
-51.927705 -13.024973 -41.242132 19.00000000
-54.757012 -19.779179 -21.801214 19.00000000
-56.068011 -25.122762 -53.989844 19.00000000
-50.351759 -10.347488 -8.655577 19.00000000
-40.315667 0.260935 -40.969256 19.00000000
-38.384019 1.581321 -25.933847 19.00000000
-32.346093 4.754912 -5.209573 19.00000000
-55.966705 -24.508041 -7.133791 19.00000000
-56.600076 -30.343328 -34.132228 19.00000000
-33.564279 4.235904 -14.447594 19.00000000
-56.144164 -25.662900 -37.873341 19.00000000
-53.932380 -17.440694 -34.434341 19.00000000
-45.538893 -4.293638 -60.644335 19.00000000
-35.888641 3.059126 0.938051 19.00000000
-42.792145 -1.698177 -22.291009 19.00000000
-51.711476 -12.639497 -27.025131 19.00000000
-56.515342 -28.955797 -29.353125 19.00000000
-41.636306 -0.722270 -13.898918 19.00000000
-44.288187 -3.010661 -55.253448 19.00000000
-56.458253 -28.020969 -17.359080 19.00000000
-47.720334 -6.754930 -35.424822 19.00000000
-49.558686 -9.201288 -7.285045 19.00000000
-54.754159 -19.769897 -38.017484 19.00000000
-21.761708 7.934778 -45.485767 19.00000000
-51.292021 -11.932442 -5.966274 19.00000000
-39.127193 1.114450 -45.600006 19.00000000
-26.679378 6.661215 -51.813255 19.00000000
-23.067337 7.596650 -13.002268 19.00000000
-49.390162 -8.962473 -24.413977 19.00000000
-21.887558 7.902186 -36.855253 19.00000000
-36.327544 2.829599 -40.920472 19.00000000
-23.816206 7.402711 -16.992165 19.00000000
-50.736092 -10.995339 -51.418171 19.00000000
-35.540898 3.240980 3.146911 19.00000000
-32.578039 4.656091 -53.969990 19.00000000
-43.212697 -2.066328 -3.371041 19.00000000
-56.585248 -33.686905 1.626164 19.00000000
-29.357682 5.872061 -47.762469 19.00000000
-47.802580 -6.853857 -45.613257 19.00000000
-41.447887 -0.581994 -23.415941 19.00000000
-28.212696 6.256160 1.885258 19.00000000
-46.324571 -5.099588 0.243718 19.00000000
-56.503907 -28.768555 -50.116304 19.00000000
-42.504349 -1.446242 -47.669203 19.00000000
-56.611905 -32.212761 -14.225555 19.00000000
-52.319555 -13.823129 -12.126155 19.00000000
-56.612442 -32.183049 -34.656085 19.00000000
-24.460245 7.235919 -30.855866 19.00000000
-52.998446 -15.205959 -20.019911 19.00000000
-55.833665 -23.910687 -11.085250 19.00000000
-56.090236 -25.280400 -32.508854 19.00000000
-39.785344 0.655757 -55.081860 19.00000000
-54.799439 -19.917205 -23.655048 19.00000000
-38.408783 1.565764 -27.874687 19.00000000
-36.499790 2.739522 -35.587321 19.00000000
-34.676150 3.693205 -13.300965 19.00000000
-52.197425 -13.574363 -31.767784 19.00000000
-32.238308 4.800834 -17.523400 19.00000000
-32.288851 4.779300 -8.605589 19.00000000
-41.041402 -0.279369 1.055681 19.00000000
-41.729956 -0.791992 -24.944975 19.00000000
-31.691290 5.033891 -47.986757 19.00000000
-56.579021 -34.030199 -39.598871 19.00000000
-36.791817 2.581561 -21.872756 19.00000000
-44.147133 -2.884331 -6.964752 19.00000000
-33.178759 4.400155 -48.378964 19.00000000
-52.652344 -14.500985 -24.150208 19.00000000
-26.712408 6.652661 -15.160413 19.00000000
-52.468762 -14.127048 -0.982954 19.00000000
-36.248484 2.870943 -43.695653 19.00000000
-43.139484 -2.002237 -50.767323 19.00000000
-48.084862 -7.193390 -0.517417 19.00000000
-44.018516 -2.771740 -47.479803 19.00000000
-30.587191 5.459607 -46.685665 19.00000000
-22.033312 7.864439 -59.330197 19.00000000
-48.908842 -8.280389 -20.316146 19.00000000
-31.656549 5.048692 -34.798879 19.00000000
-56.625287 -31.472746 3.757584 19.00000000
-50.640386 -10.834012 -36.413131 19.00000000
-50.808050 -11.116635 -1.819571 19.00000000
-51.390413 -12.098297 -3.871762 19.00000000
-56.627605 -31.344525 -48.588566 19.00000000
-22.484541 7.747581 3.305194 19.00000000
-46.271113 -5.044751 -9.462252 19.00000000
-56.286153 -26.669989 -52.786628 19.00000000
-46.377285 -5.153662 -22.557149 19.00000000
-56.582776 -33.823091 -20.156545 19.00000000
-48.470119 -7.658672 -31.108998 19.00000000
-55.110086 -20.927805 -56.067239 19.00000000
-56.616520 -31.957383 -46.513891 19.00000000
-53.475935 -16.288822 -35.329103 19.00000000
-43.569664 -2.378815 -30.799891 19.00000000
-50.684914 -10.909071 -10.538801 19.00000000
-29.354347 5.873179 -54.196711 19.00000000
-55.218770 -21.281376 -42.878523 19.00000000
-40.819263 -0.113988 -0.755003 19.00000000
-53.052196 -15.315441 -13.491327 19.00000000
-36.713157 2.627940 -14.070469 19.00000000
-52.455318 -14.099664 -46.170772 19.00000000
-53.133273 -15.480586 -49.899932 19.00000000
-54.497714 -18.935629 -45.383641 19.00000000
-55.629183 -22.992557 -6.865213 19.00000000
-56.495731 -28.634664 -38.201498 19.00000000
-56.627749 -31.336569 -32.710249 19.00000000
-36.345781 2.820062 -48.622857 19.00000000
-45.757621 -4.518010 -10.974983 19.00000000
-35.562470 3.229699 -25.806413 19.00000000
-55.545717 -22.617791 3.323766 19.00000000
-56.237906 -26.327785 -59.798307 19.00000000
-55.877622 -24.108054 -48.046132 19.00000000
-51.771542 -12.740749 -60.961630 19.00000000
-49.936059 -9.736067 -48.809353 19.00000000
-48.828297 -8.166249 -42.859313 19.00000000
-50.489925 -10.580387 -14.523852 19.00000000
-48.138301 -7.257667 -37.329875 19.00000000
-35.929457 3.037781 -51.796527 19.00000000
-51.593273 -12.440249 -52.047443 19.00000000
-52.553476 -14.299602 -35.815664 19.00000000
-38.560865 1.470224 -30.944037 19.00000000
-51.942116 -13.054327 -55.174128 19.00000000
-56.108885 -25.412672 -49.106023 19.00000000
-26.357832 6.744488 -41.322849 19.00000000
-33.208568 4.387455 -12.884272 19.00000000
-32.200144 4.817094 3.435240 19.00000000
-55.800282 -23.760797 -2.564862 19.00000000
-45.841015 -4.603555 -41.039934 19.00000000
-56.546282 -29.462442 -5.307109 19.00000000
-52.389150 -13.964887 -57.658747 19.00000000
-44.601727 -3.332291 -26.018427 19.00000000
-53.519053 -16.397634 -15.699997 19.00000000
-46.343370 -5.118872 -43.820627 19.00000000
-37.848265 1.917888 -24.064929 19.00000000
-56.014509 -24.743290 -34.065783 19.00000000
-29.552456 5.806721 -60.122181 19.00000000
-26.323883 6.753280 -25.613299 19.00000000
-26.166473 6.794046 -5.187350 19.00000000
-41.297713 -0.470191 -19.757031 19.00000000
-51.591439 -12.437157 -11.410590 19.00000000
-36.072496 2.962978 -55.890160 19.00000000
-52.544340 -14.280992 2.780134 19.00000000
-42.987545 -1.869230 -27.674678 19.00000000
-31.895949 4.946696 -27.058960 19.00000000
-53.462936 -16.256019 -48.394139 19.00000000
-56.560490 -29.695107 -59.135079 19.00000000
-51.892435 -12.953132 -14.541901 19.00000000
-53.360689 -15.997990 -11.752389 19.00000000
-34.856720 3.598775 -9.172538 19.00000000
-45.362017 -4.112198 -35.033058 19.00000000
-55.018142 -20.628691 -20.350373 19.00000000
-39.209212 1.062924 -11.822084 19.00000000
-52.989075 -15.186871 -34.087582 19.00000000
-31.036251 5.308964 -24.739428 19.00000000
-55.370199 -21.829708 -29.152657 19.00000000
-55.494541 -22.388009 -50.756193 19.00000000
-23.424574 7.504134 -10.841116 19.00000000
-53.100212 -15.413244 -17.808922 19.00000000
-47.944792 -7.024912 1.126217 19.00000000
-26.848461 6.617427 -55.455998 19.00000000
-53.661949 -16.758242 -19.255173 19.00000000
-44.059330 -2.807468 -13.484715 19.00000000
-56.482001 -28.409838 -12.271722 19.00000000
-50.197000 -10.105849 -32.917397 19.00000000
-56.082823 -25.227821 -35.595628 19.00000000
-38.805815 1.316343 -44.043266 19.00000000
-33.164172 4.406370 -22.741320 19.00000000
-23.138995 7.578093 -27.287346 19.00000000
-55.002003 -20.576189 -45.271512 19.00000000
-51.907924 -12.984680 0.151945 19.00000000
-55.727051 -23.431984 -52.963092 19.00000000
-56.292089 -26.712093 -36.801422 19.00000000
-56.199641 -26.056384 -26.258903 19.00000000
-49.174040 -8.656204 -57.463372 19.00000000
-27.436411 6.465161 -32.105376 19.00000000
-44.921239 -3.660047 -49.120863 19.00000000
-42.130938 -1.119358 -7.559583 19.00000000
-43.745593 -2.532824 -45.075074 19.00000000
-53.299560 -15.843726 -30.378776 19.00000000
-45.454682 -4.207253 -14.276661 19.00000000
-23.961838 7.364995 -52.884820 19.00000000
-55.473932 -22.295471 -48.283578 19.00000000
-56.489353 -28.530225 -48.446450 19.00000000
-56.623197 -31.588287 -4.332513 19.00000000
-46.853738 -5.712576 -27.909013 19.00000000
-51.253908 -11.868196 -7.613957 19.00000000
-42.834988 -1.735682 -42.360927 19.00000000
-56.607412 -30.463456 -31.446422 19.00000000
-42.738760 -1.651444 -29.438619 19.00000000
-56.470046 -28.214071 -24.099479 19.00000000
-37.655143 2.039210 -5.350748 19.00000000
-43.957856 -2.718638 -40.075281 19.00000000
-56.392740 -27.425985 -61.015825 19.00000000
-34.346442 3.865628 -26.929984 19.00000000
-52.488438 -14.167127 -10.070738 19.00000000
-32.732025 4.590486 -0.311990 19.00000000
-52.645532 -14.487109 -7.816065 19.00000000
-56.583597 -33.777823 -16.656434 19.00000000
-55.439344 -22.140173 -32.768993 19.00000000
-33.408647 4.302211 1.756764 19.00000000
-48.926349 -8.305199 -60.895500 19.00000000
-39.072096 1.149062 -13.940508 19.00000000
-56.485860 -28.473026 0.907460 19.00000000
-38.362063 1.595114 0.816843 19.00000000
-42.647678 -1.571711 -35.658195 19.00000000
-51.754889 -12.712677 -2.145675 19.00000000
-56.615754 -31.999895 -0.719908 19.00000000
-42.095134 -1.088015 -30.926663 19.00000000
-50.790595 -11.087212 -41.458476 19.00000000
-31.402059 5.157117 2.039936 19.00000000
-23.849861 7.393995 -44.724473 19.00000000
-49.534324 -9.166766 -26.291101 19.00000000
-40.560574 0.078604 -35.984030 19.00000000
-54.155577 -18.003948 -14.936398 19.00000000
-44.682441 -3.415088 -20.880869 19.00000000
-51.986088 -13.143893 -7.114011 19.00000000
-56.493283 -28.594583 -20.693561 19.00000000
-45.573925 -4.329574 -54.259005 19.00000000
-56.174426 -25.877542 -10.479356 19.00000000
-56.234466 -26.303390 -31.098248 19.00000000
-56.582277 -30.051861 -3.663863 19.00000000
-34.620762 3.722171 -40.141981 19.00000000
-22.602696 7.716982 -17.922655 19.00000000
-23.677792 7.438557 -8.084831 19.00000000
-31.554131 5.092327 -50.042860 19.00000000
-40.598696 0.050222 -27.389141 19.00000000
-32.487423 4.694699 -31.775170 19.00000000
-40.243927 0.314345 -50.145664 19.00000000
-55.144491 -21.039733 -22.574831 19.00000000
-33.674074 4.189126 -30.585758 19.00000000
-56.095688 -25.319068 -51.966465 19.00000000
-33.812389 4.130197 -7.838438 19.00000000
-44.574250 -3.304105 -10.093890 19.00000000
-24.915325 7.118064 -47.007498 19.00000000
-48.676229 -7.950751 -10.846229 19.00000000
-24.260625 7.287616 -32.862691 19.00000000
-54.711029 -19.629587 -14.123716 19.00000000
-56.618471 -31.849673 -39.721318 19.00000000
-38.008671 1.817119 -39.153794 19.00000000
-40.411920 0.189276 -48.521616 19.00000000
-55.595612 -22.841820 -59.903612 19.00000000
-56.131610 -25.573853 -0.737065 19.00000000
-55.434997 -22.120651 -45.671950 19.00000000
-27.997876 6.319755 -40.495686 19.00000000
-23.235592 7.553076 -15.274351 19.00000000
-56.451935 -27.917507 -13.983806 19.00000000
-56.399574 -27.474457 -25.604080 19.00000000
-47.760791 -6.803593 -12.539435 19.00000000
-22.130162 7.839357 -28.437444 19.00000000
-21.569334 7.984599 -2.257292 19.00000000
-48.117701 -7.232889 -39.076847 19.00000000
-24.553129 7.211865 -9.548453 19.00000000
-40.637439 0.021379 -42.722305 19.00000000
-56.094602 -25.311367 -4.852965 19.00000000
-41.912540 -0.928173 -36.940225 19.00000000
-49.037053 -8.462079 -59.276231 19.00000000
-35.408839 3.310041 -46.420737 19.00000000
-41.615799 -0.707003 -34.637809 19.00000000
-28.392540 6.195829 -46.280346 19.00000000
-25.612830 6.937427 -44.692020 19.00000000
-39.118949 1.119629 -33.989423 19.00000000
-55.531737 -22.555020 -21.113839 19.00000000
-55.817766 -23.839300 -31.920775 19.00000000
-48.936823 -8.320041 -36.386586 19.00000000
-48.506236 -7.709853 -23.397677 19.00000000
-30.563453 5.467570 -14.623228 19.00000000
-56.598897 -32.931634 -37.923466 19.00000000
-54.658912 -19.460041 -33.418865 19.00000000
-47.051685 -5.950670 -56.596524 19.00000000
-21.652105 7.963163 -39.827454 19.00000000
-53.747785 -16.974855 -13.107166 19.00000000
-37.315326 2.252686 -30.511797 19.00000000
-48.771680 -8.086016 -16.717646 19.00000000
-47.319923 -6.273310 -9.725655 19.00000000
-37.765382 1.969956 -56.390201 19.00000000
-52.870776 -14.945907 -58.839117 19.00000000
-34.787369 3.635043 -43.914044 19.00000000
-54.285942 -18.332933 2.977297 19.00000000
-34.966514 3.541358 -22.664015 19.00000000
-54.054791 -17.749607 -52.752783 19.00000000
-27.311936 6.497397 -8.810172 19.00000000
-53.833942 -17.192279 -17.284443 19.00000000
-50.682920 -10.905710 -20.157084 19.00000000
-40.498870 0.124542 -38.252794 19.00000000
-43.818774 -2.596886 -15.270813 19.00000000
-33.519057 4.255171 -16.509395 19.00000000
-35.313569 3.359863 -3.250934 19.00000000
-48.925212 -8.303587 -9.083856 19.00000000
-31.104217 5.284013 -42.649429 19.00000000
-45.173245 -3.918556 -37.886760 19.00000000
-56.506488 -28.810817 -33.324928 19.00000000
-29.087042 5.962850 -10.126179 19.00000000
-52.043499 -13.260833 -50.587036 19.00000000
-54.992505 -20.545289 -2.168903 19.00000000
-39.666509 0.744228 -31.891230 19.00000000
-29.491375 5.827212 -34.732890 19.00000000
-56.600849 -32.824131 -12.419370 19.00000000
-56.615100 -32.036054 -16.297689 19.00000000
-51.930136 -13.029924 -59.183505 19.00000000
-56.616455 -31.960819 -53.221939 19.00000000
-39.135676 1.109121 -23.603049 19.00000000
-30.115032 5.617998 -22.837214 19.00000000
-38.440145 1.546061 -21.016600 19.00000000
-52.057075 -13.288487 -30.123446 19.00000000
-27.271327 6.507914 -36.973308 19.00000000
-48.240678 -7.380807 -34.029764 19.00000000
-28.934193 6.014125 -50.205360 19.00000000
-23.445847 7.498625 -29.275595 19.00000000
-31.505103 5.113216 -18.973055 19.00000000
-22.355407 7.781024 -52.256613 19.00000000
-56.627200 -30.787479 -60.665019 19.00000000
-56.178839 -25.908838 -8.119414 19.00000000
-35.724414 3.145009 -30.944136 19.00000000
-54.276336 -18.308691 -29.282185 19.00000000
-56.581710 -33.881122 -60.884384 19.00000000
-31.669315 5.043253 -21.537121 19.00000000
-40.880406 -0.159508 -30.081752 19.00000000
-54.682719 -19.537489 -39.752566 19.00000000
-56.581593 -33.887679 -57.425586 19.00000000
-22.012616 7.869799 -50.631918 19.00000000
-48.720785 -8.013893 -29.524484 19.00000000
-56.517415 -28.989740 -53.006413 19.00000000
-56.466097 -28.149409 -43.044424 19.00000000
-50.591853 -10.752203 -39.956327 19.00000000
-54.762506 -19.797054 -6.587839 19.00000000
-27.879812 6.350331 -13.849250 19.00000000
-33.939000 4.076254 -37.268946 19.00000000
-30.829390 5.378358 -31.623331 19.00000000
-56.378718 -27.326528 -10.974614 19.00000000
-26.595225 6.683009 -2.449509 19.00000000
-56.609433 -32.349460 -28.736259 19.00000000
-38.263533 1.657011 -18.686191 19.00000000
-30.595500 5.456819 -44.472312 19.00000000
-56.632137 -31.093935 -8.021262 19.00000000
-42.995162 -1.875898 -33.760520 19.00000000
-56.581896 -33.871101 -48.784259 19.00000000
-43.773229 -2.557016 2.516028 19.00000000
-56.612018 -32.206507 2.346728 19.00000000
-56.619553 -31.789740 -44.629758 19.00000000
-37.200347 2.324917 2.365697 19.00000000
-51.214693 -11.802094 -38.381587 19.00000000
-49.074751 -8.515501 -14.891744 19.00000000
-24.453905 7.237561 -56.337476 19.00000000
-33.915003 4.086479 -61.004513 19.00000000
-46.714666 -5.545298 -42.155190 19.00000000
-39.108062 1.126468 -53.672919 19.00000000
-21.592606 7.978572 -55.235697 19.00000000
-21.733859 7.941990 -5.678854 19.00000000
-24.836630 7.138444 -23.553240 19.00000000
-56.607564 -32.452783 -19.137766 19.00000000
-48.263749 -7.408557 -56.620352 19.00000000
-51.392975 -12.102615 -9.390845 19.00000000
-33.216982 4.383870 -58.761919 19.00000000
-36.593906 2.690303 -16.048274 19.00000000
-53.909687 -17.383428 -60.968472 19.00000000
-50.443608 -10.502313 -54.063422 19.00000000
-37.825471 1.932207 -34.721814 19.00000000
-50.143657 -10.030256 0.556300 19.00000000
-52.814192 -14.830652 -5.659764 19.00000000
-51.094846 -11.600073 -56.383138 19.00000000
-55.566372 -22.710530 -18.061560 19.00000000
-56.450766 -27.898367 -2.537375 19.00000000
-27.120938 6.546861 0.676380 19.00000000
-25.467799 6.974986 -11.274022 19.00000000
-28.189936 6.263795 -28.831955 19.00000000
-43.657141 -2.455393 -49.036057 19.00000000
-56.600992 -32.816255 -10.870691 19.00000000
-45.981452 -4.747616 -15.923834 19.00000000
-36.195383 2.898713 -4.625043 19.00000000
-54.455991 -18.799895 -31.209167 19.00000000
-45.845985 -4.608653 -36.584008 19.00000000
-38.960333 1.219273 -48.752973 19.00000000
-51.435962 -12.175077 -53.839837 19.00000000
-54.025618 -17.675986 -6.778048 19.00000000
-32.686913 4.609706 -3.280015 19.00000000
-44.973728 -3.713890 -39.460548 19.00000000
-41.015162 -0.259834 -11.833036 19.00000000
-23.306484 7.534717 -41.897015 19.00000000
-21.727948 7.943521 -13.742489 19.00000000
-56.597738 -32.995966 -26.789382 19.00000000
-45.273866 -4.021773 1.177505 19.00000000
-56.614264 -32.082272 -30.872053 19.00000000
-29.049383 5.975483 -21.398513 19.00000000
-56.585449 -33.674834 -44.695946 19.00000000
-55.764051 -23.598117 -15.969863 19.00000000
-55.985922 -24.594324 -14.016301 19.00000000
-24.677217 7.179729 -58.803076 19.00000000
-37.501782 2.135552 -45.360584 19.00000000
-52.464682 -14.118737 -39.745650 19.00000000
-53.862864 -17.265266 -42.969267 19.00000000
-36.615105 2.679217 -50.412972 19.00000000
-48.481260 -7.674459 -7.315066 19.00000000
-31.113159 5.280203 0.064776 19.00000000
-56.632228 -31.088883 -26.557254 19.00000000
-40.973534 -0.228842 -2.448474 19.00000000
-52.802068 -14.805957 -55.268188 19.00000000
-26.201758 6.784908 -13.233908 19.00000000
-56.238953 -26.335214 -21.343414 19.00000000
-44.107702 -2.849813 -22.344571 19.00000000
-54.632168 -19.373036 -47.035171 19.00000000
-55.663900 -23.148437 1.650376 19.00000000
-49.625069 -9.295360 -18.757882 19.00000000
-46.785979 -5.631075 -51.490168 19.00000000
-27.647574 6.410475 -60.726355 19.00000000
-25.563824 6.950118 -39.719768 19.00000000
-54.035766 -17.701596 -40.117541 19.00000000
-25.524577 6.960282 -60.525519 19.00000000
-32.894475 4.521274 -44.356192 19.00000000
-47.311290 -6.262927 -40.571627 19.00000000
-46.891287 -5.757741 -11.651276 19.00000000
-31.599902 5.072827 -29.890244 19.00000000
-56.515281 -28.954808 -34.968183 19.00000000
-36.511964 2.733155 -24.637285 19.00000000
-56.566812 -29.798626 -19.160826 19.00000000
-53.536794 -16.442403 3.712390 19.00000000
-29.599718 5.790867 -36.591282 19.00000000
-56.039592 -24.921199 -30.319664 19.00000000
-39.526062 0.848790 2.175324 19.00000000
-27.261609 6.510431 -34.112768 19.00000000
-47.385128 -6.351740 -23.553497 19.00000000
-50.558666 -10.696261 -43.203499 19.00000000
-35.697024 3.159333 -6.019882 19.00000000
-30.742838 5.407393 -57.080875 19.00000000
-56.039047 -24.917333 3.178286 19.00000000
-33.160128 4.408093 -19.924407 19.00000000
-55.270673 -21.450229 -0.819634 19.00000000
-54.491307 -18.914784 -19.955335 19.00000000
-55.356381 -21.767666 -52.753251 19.00000000
-54.765909 -19.808124 -0.125059 19.00000000
-23.515579 7.480566 -20.740292 19.00000000
-54.241660 -18.221184 -10.266592 19.00000000
-54.570849 -19.173553 -35.164533 19.00000000
-32.364248 4.747177 -57.227096 19.00000000
-45.031227 -3.772873 -42.147328 19.00000000
-46.304941 -5.079452 2.430471 19.00000000
-26.514878 6.703817 -23.663641 19.00000000
-29.334597 5.879805 -3.979518 19.00000000
-55.746807 -23.520692 -29.380769 19.00000000
-56.616950 -30.619641 -13.877779 19.00000000
-55.394755 -21.939965 -26.105805 19.00000000
-47.305781 -6.256300 -49.612209 19.00000000
-54.782436 -19.861890 -52.390349 19.00000000
-53.272639 -15.775788 -23.124974 19.00000000
-27.065807 6.561139 3.723804 19.00000000
-46.424030 -5.201613 -39.211382 19.00000000
-45.109624 -3.853293 -12.450291 19.00000000
-40.407178 0.192806 -24.295291 19.00000000
-48.581017 -7.815826 -25.423801 19.00000000
-50.599823 -10.765636 -18.413088 19.00000000
-51.737047 -12.682601 3.192458 19.00000000
-54.538850 -19.069452 -54.102373 19.00000000
-33.264977 4.363422 -41.083750 19.00000000
-34.149836 3.968445 -32.350748 19.00000000
-42.657691 -1.580476 -61.096792 19.00000000
-47.912338 -6.985875 -54.759214 19.00000000
-46.813836 -5.664581 -53.481796 19.00000000
-50.824868 -11.144984 -27.545980 19.00000000
-27.866722 6.353721 -16.288164 19.00000000
-55.074678 -20.812616 -47.063305 19.00000000
-43.094420 -1.962788 -18.686191 19.00000000
-35.687359 3.164388 -27.377407 19.00000000
-30.333505 5.544709 -5.441834 19.00000000
-47.579003 -6.584935 -43.744533 19.00000000
-54.082849 -17.820413 -36.350120 19.00000000
-34.337449 3.870331 0.541894 19.00000000
-51.766795 -12.732746 -24.850072 19.00000000
-46.637279 -5.452217 -60.159513 19.00000000
-36.532946 2.722183 -39.180091 19.00000000
-56.186848 -25.965644 -28.087158 19.00000000
-56.357526 -27.176224 -19.020836 19.00000000
-35.138655 3.451336 -53.251897 19.00000000
-24.745643 7.162008 -0.049941 19.00000000
-50.172190 -10.070691 -30.295287 19.00000000
-55.976998 -24.554257 -9.299191 19.00000000
-47.758541 -6.800886 -14.463513 19.00000000
-56.543822 -29.422154 -1.811686 19.00000000
-46.365479 -5.141552 -3.276810 19.00000000
-33.376505 4.315905 -9.991692 19.00000000
-28.775187 6.067466 -6.043324 19.00000000
-44.568043 -3.297738 -3.066774 19.00000000
-54.138110 -17.959868 -8.470750 19.00000000
-49.732963 -9.448258 -4.358529 19.00000000
-56.563594 -29.745924 1.847288 19.00000000
-48.693615 -7.975390 -44.503930 19.00000000
-25.453359 6.978726 -54.649777 19.00000000
-40.263086 0.300081 -51.759224 19.00000000
-41.113171 -0.332801 -9.707778 19.00000000
-38.070366 1.778361 -58.544074 19.00000000
-21.557656 7.987623 -21.837909 19.00000000
-56.613063 -30.555988 -28.953043 19.00000000
-28.618688 6.119965 -52.834897 19.00000000
-23.649825 7.445800 -25.632829 19.00000000
-42.376557 -1.334373 -16.598709 19.00000000
-54.152195 -17.995414 -4.198099 19.00000000
-49.053756 -8.485749 -53.613799 19.00000000
-33.697067 4.179330 -1.694588 19.00000000
-37.304701 2.259361 -10.414687 19.00000000
-45.256992 -4.004463 -43.957995 19.00000000
-54.557633 -19.130557 -48.734360 19.00000000
-54.936926 -20.364478 -3.744215 19.00000000
-56.512349 -28.906784 -9.977308 19.00000000
-35.010875 3.518159 -42.219731 19.00000000
-55.169727 -21.121829 -33.900905 19.00000000
-50.050497 -9.898238 -22.559638 19.00000000
-34.541630 3.763553 -49.207657 19.00000000
-39.459198 0.898570 -60.745464 19.00000000
-48.671995 -7.944751 -4.243755 19.00000000
-46.709858 -5.539515 -58.593969 19.00000000
-47.036743 -5.932697 -19.363209 19.00000000
-22.903082 7.639189 -31.578577 19.00000000
-56.615993 -30.603957 -9.537030 19.00000000
-52.881435 -14.967619 -41.353276 19.00000000
-50.120708 -9.997735 -56.704342 19.00000000
-55.183018 -21.165070 -12.847995 19.00000000
-51.550338 -12.367876 -34.278619 19.00000000
-55.004721 -20.585031 3.610003 19.00000000
-39.501261 0.867254 -47.235390 19.00000000
-41.927844 -0.941570 -43.255873 19.00000000
-23.167405 7.570735 -3.155804 19.00000000
-37.837108 1.924897 3.671063 19.00000000
-27.359311 6.485128 -11.812967 19.00000000
-53.259248 -15.741996 -46.701074 19.00000000
-51.834803 -12.847385 -48.711229 19.00000000
-54.247824 -18.236741 -58.501193 19.00000000
-56.197431 -26.040707 -14.785370 19.00000000
-51.968785 -13.108647 -44.845856 19.00000000
-28.151586 6.276661 -30.718276 19.00000000
-44.670277 -3.402610 -0.921896 19.00000000
-21.698450 7.951160 -9.388392 19.00000000
-29.298024 5.892074 -32.868919 19.00000000
-55.126563 -20.981407 -48.923237 19.00000000
-37.375675 2.214774 -42.891056 19.00000000
-39.524819 0.849715 -21.950889 19.00000000
-32.752009 4.581972 -42.542897 19.00000000
-49.151637 -8.624456 0.963861 19.00000000
-55.334355 -21.668769 -31.044399 19.00000000
-56.613259 -32.137833 -36.429772 19.00000000
-46.121655 -4.891436 -57.190194 19.00000000
-23.386070 7.514106 -36.124274 19.00000000
-51.992619 -13.157195 -23.238438 19.00000000
-38.968499 1.214143 -5.941786 19.00000000
-55.100342 -20.896105 -35.717336 19.00000000
-48.958831 -8.351229 -1.365073 19.00000000
-56.294861 -26.731758 -44.527524 19.00000000
-44.904710 -3.643091 -31.681681 19.00000000
-37.515817 2.126736 -36.939728 19.00000000
-32.865498 4.533620 -28.331082 19.00000000
-24.480916 7.230566 -12.531631 19.00000000
-54.061050 -17.765402 -44.419948 19.00000000
-56.360371 -27.196402 -49.387636 19.00000000
-24.447480 7.239225 -4.305634 19.00000000
-45.038781 -3.780622 -5.562192 19.00000000
-43.137180 -2.000220 -54.036553 19.00000000
-55.250595 -21.384912 -58.944343 19.00000000
-24.902800 7.121308 -27.050960 19.00000000
-43.655769 -2.454192 -36.604191 19.00000000
-34.390125 3.842784 -18.686328 19.00000000
-24.870001 7.129802 -15.032459 19.00000000
-56.579482 -34.005093 -24.793548 19.00000000
-56.135963 -25.604729 -42.986039 19.00000000
-34.211230 3.936338 -21.300852 19.00000000
-56.587608 -33.555807 -30.097790 19.00000000
-55.593710 -22.833280 -27.650840 19.00000000
-42.691261 -1.609863 1.482928 19.00000000
-56.573394 -29.906405 -17.498286 19.00000000
-55.988801 -24.607252 -44.478845 19.00000000
-56.441345 -27.770727 -41.015159 19.00000000
-52.473214 -14.136116 -3.271549 19.00000000
-45.578084 -4.333840 -2.102508 19.00000000
-41.632463 -0.719410 -50.420895 19.00000000
-44.057878 -2.806197 -4.485371 19.00000000
-56.347609 -27.105884 -56.237457 19.00000000
-53.571914 -16.531033 -54.015919 19.00000000
-56.255352 -26.451524 -50.750621 19.00000000
-56.580807 -33.931596 -35.226643 19.00000000
-27.375344 6.480976 -50.150180 19.00000000
-40.612230 0.040147 -53.571488 19.00000000
-49.570126 -9.217501 2.573153 19.00000000
-37.440104 2.174299 -2.657094 19.00000000
-49.830724 -9.586797 -15.884908 19.00000000
-49.674842 -9.365894 -13.331495 19.00000000
-51.442602 -12.186270 -18.427672 19.00000000
-54.990188 -20.537752 2.083027 19.00000000
-33.251189 4.369296 -39.226036 19.00000000
-53.440656 -16.199793 -7.841099 19.00000000
-42.796630 -1.702104 -55.772019 19.00000000
-56.014616 -24.744047 -60.628521 19.00000000
-56.277972 -26.611965 2.375489 19.00000000
-50.840732 -11.171726 1.918130 19.00000000
-55.649366 -23.083175 -43.590411 19.00000000
-49.237803 -8.746563 -49.809382 19.00000000
-56.384862 -27.370106 -47.015436 19.00000000
-56.473155 -28.264989 -55.150847 19.00000000
-36.777146 2.590778 -28.573477 19.00000000
-23.171398 7.569701 -58.077513 19.00000000
-56.198969 -26.051618 -6.366373 19.00000000
-22.814891 7.662028 -48.693011 19.00000000
-56.582106 -33.859340 -55.132083 19.00000000
-40.694448 -0.021064 -21.323905 19.00000000
-47.737914 -6.776076 -26.808793 19.00000000
-55.289158 -21.510365 -6.390964 19.00000000
-56.580513 -33.948667 -0.052740 19.00000000
-46.092215 -4.861237 -7.046554 19.00000000
-40.132591 0.397234 -57.406374 19.00000000
-27.260634 6.510683 -4.016736 19.00000000
-31.475751 5.125721 -41.108968 19.00000000
-30.111410 5.619213 -13.120913 19.00000000
-52.837147 -14.877408 -44.400589 19.00000000
-53.250466 -15.719834 -52.618902 19.00000000
-56.624894 -31.494276 -56.797964 19.00000000
-38.037632 1.798925 -32.910704 19.00000000
-56.605626 -32.559968 -23.571926 19.00000000
-41.074567 -0.304060 -16.189486 19.00000000
-23.503683 7.483647 -50.497372 19.00000000
-26.240581 6.774853 -21.813118 19.00000000
-52.412642 -14.012738 -42.877054 19.00000000
-30.521006 5.481809 -38.169410 19.00000000
-56.547004 -29.474270 3.638830 19.00000000
-45.559433 -4.314708 -50.622827 19.00000000
-45.330337 -4.079701 -46.998519 19.00000000
-52.596511 -14.387260 -51.615915 19.00000000
-49.360320 -8.920183 -51.679292 19.00000000
-27.802252 6.370417 -48.575708 19.00000000
-30.280093 5.562627 -50.862218 19.00000000
-56.445777 -27.816674 -30.804412 19.00000000
-56.357705 -27.177491 -33.707186 19.00000000
-55.501433 -22.418953 -14.580593 19.00000000
-31.387799 5.163193 -39.488647 19.00000000
-40.628695 0.027888 -8.280101 19.00000000
-30.126522 5.614144 -2.118224 19.00000000
-24.768705 7.156035 -36.959496 19.00000000
-48.638732 -7.897615 3.504593 19.00000000
-50.474758 -10.554820 3.849720 19.00000000
-54.548410 -19.100554 -55.729939 19.00000000
-38.675003 1.398521 -4.209923 19.00000000
-56.580753 -33.934871 -21.925491 19.00000000
-47.359928 -6.321428 -4.376831 19.00000000
-53.443005 -16.205721 -21.390236 19.00000000
-31.324602 5.190118 -6.919624 19.00000000
-29.734276 5.745727 -40.212583 19.00000000
-43.204800 -2.059414 -1.493249 19.00000000
-46.877986 -5.741742 -13.416460 19.00000000
-55.330260 -21.650379 -37.361643 19.00000000
-29.456427 5.838935 0.947766 19.00000000
-55.873543 -24.089739 -50.936701 19.00000000
-47.122733 -6.036127 -25.106474 19.00000000
-56.583370 -33.790670 -3.727586 19.00000000
-24.991626 7.098304 -2.172612 19.00000000
-56.025968 -24.824568 -23.369697 19.00000000
-54.394909 -18.607920 -41.547030 19.00000000
-37.909892 1.879173 -15.139028 19.00000000
-39.045836 1.165559 -2.426324 19.00000000
-55.644158 -23.059791 -38.268252 19.00000000
-36.445103 2.768120 -60.633521 19.00000000
-55.807804 -23.794571 -46.405541 19.00000000
-47.826989 -6.883216 -32.307861 19.00000000
-32.684488 4.610739 -25.398174 19.00000000
-55.643240 -23.055670 -36.604595 19.00000000
-47.245578 -6.183887 -15.769430 19.00000000
-41.903087 -0.920887 -4.125751 19.00000000
-56.041590 -24.935364 1.046217 19.00000000
-40.162443 0.375009 3.814871 19.00000000
-56.621441 -30.693174 -41.110005 19.00000000
-50.812654 -11.124396 -46.915225 19.00000000
-22.981898 7.618777 -0.896342 19.00000000
-28.584678 6.131375 -58.643928 19.00000000
-26.215897 6.781246 -7.420259 19.00000000
-37.601097 2.073161 -0.812683 19.00000000
-56.622676 -31.616819 -58.907684 19.00000000
-46.345033 -5.120577 -26.455794 19.00000000
-44.278684 -3.000913 0.654075 19.00000000
-54.515392 -18.993137 -2.791917 19.00000000
-52.762038 -14.724420 -22.089186 19.00000000
-31.383211 5.165148 -33.090297 19.00000000
-56.615707 -32.002416 -42.689977 19.00000000
-42.832204 -1.733245 -25.854195 19.00000000
-29.121689 5.951227 3.404273 19.00000000
-25.641858 6.929909 -16.961613 19.00000000
-53.767716 -17.025153 -50.400565 19.00000000
-46.475167 -5.257225 -5.346545 19.00000000
-56.590159 -33.414302 -52.116569 19.00000000
-45.873791 -4.637177 -17.519264 19.00000000
-37.643195 2.046715 -17.062993 19.00000000
-55.603782 -22.878503 -58.327915 19.00000000
-42.767996 -1.677037 -24.068832 19.00000000
-56.169657 -25.843712 -16.859544 19.00000000
-56.382619 -27.354199 -4.337898 19.00000000
-53.617620 -16.646375 -2.911851 19.00000000
-46.886522 -5.752009 -1.780025 19.00000000
-30.674207 5.430416 -9.778978 19.00000000
-54.671514 -19.501038 -43.210366 19.00000000
-47.377367 -6.342405 -6.187483 19.00000000
-56.578881 -34.037782 -41.980943 19.00000000
-34.711085 3.674936 -29.295900 19.00000000
-47.504483 -6.495301 -47.958812 19.00000000
-48.253156 -7.395816 -28.209157 19.00000000
-43.301116 -2.143729 -20.662556 19.00000000
-47.252608 -6.192342 -21.090831 19.00000000
-34.903767 3.574172 -15.641556 19.00000000
-48.434075 -7.613429 -18.191472 19.00000000
-53.089460 -15.391343 -1.996711 19.00000000
-41.696569 -0.767136 -56.679090 19.00000000
-55.797653 -23.748991 -5.118183 19.00000000
-33.883572 4.099870 3.667969 19.00000000
-56.597676 -30.304024 -43.565703 19.00000000
-53.785163 -17.069181 -32.191348 19.00000000
-55.720622 -23.403121 -25.471925 19.00000000
-47.043546 -5.940880 -37.438582 19.00000000
-49.476330 -9.084581 -28.480226 19.00000000
-31.247164 5.223110 -58.697479 19.00000000
-32.115191 4.853288 -51.790144 19.00000000
-52.609287 -14.413282 -37.537108 19.00000000
-56.460300 -28.054480 -51.487125 19.00000000
-50.903718 -11.277898 -16.718933 19.00000000
-45.732017 -4.491745 -45.503373 19.00000000
-56.470374 -28.219442 -45.695581 19.00000000
-55.537822 -22.582340 -41.616495 19.00000000
-45.229453 -3.976213 3.722992 19.00000000
-48.059000 -7.162283 -51.122431 19.00000000
-56.046083 -24.967234 -39.335111 19.00000000
-31.891636 4.948533 -37.803139 19.00000000
-39.765839 0.670278 -19.889531 19.00000000
-39.379300 0.956073 -15.683014 19.00000000
-55.800283 -23.760800 -40.702368 19.00000000
-35.269011 3.383165 -7.619483 19.00000000
-49.678353 -9.370870 -10.333369 19.00000000
-40.435110 0.172011 -33.306860 19.00000000
-55.289880 -21.512714 0.825851 19.00000000
-41.829414 -0.866038 -26.629133 19.00000000
-53.350897 -15.973278 -9.973848 19.00000000
-26.424088 6.727329 -46.323913 19.00000000
-36.898698 2.514417 -7.206511 19.00000000
-34.782200 3.637746 -24.350042 19.00000000
-46.545877 -5.342277 -32.802432 19.00000000
-35.754485 3.129283 -58.557244 19.00000000
-24.623853 7.193549 -48.993776 19.00000000
-45.182187 -3.927728 -22.704203 19.00000000
-46.613700 -5.423855 -46.330828 19.00000000
-34.765403 3.646530 -34.115159 19.00000000
-54.298789 -18.365354 -0.822557 19.00000000
-32.978808 4.485344 -33.517040 19.00000000
-44.385434 -3.110417 -50.782026 19.00000000
-56.617376 -30.626615 -20.633915 19.00000000
-29.020471 5.985182 -8.122092 19.00000000
-37.991286 1.828040 -12.725426 19.00000000
-33.941747 4.075084 -6.066942 19.00000000
-22.334215 7.786512 -24.578423 19.00000000
-47.347104 -6.306004 -29.299861 19.00000000
-34.179312 3.953030 -57.640402 19.00000000
-56.155407 -25.742642 -45.739005 19.00000000
-37.610994 2.066944 -40.904412 19.00000000
-42.660105 -1.582589 3.860192 19.00000000
-28.966266 6.003366 -19.166102 19.00000000
-46.263480 -5.036920 -49.098622 19.00000000
-35.557369 3.232366 -36.944389 19.00000000
-48.235409 -7.374470 -2.289368 19.00000000
-55.697348 -23.298619 -13.111058 19.00000000
-40.449198 0.161522 -13.243855 19.00000000
-43.339048 -2.176935 -5.755092 19.00000000
-21.799015 7.925116 -20.265563 19.00000000
-47.988012 -7.076897 -60.007871 19.00000000
-55.329065 -21.645016 -24.236338 19.00000000
-55.952373 -24.443689 -26.766064 19.00000000
-21.779361 7.930206 -15.948899 19.00000000
-23.217074 7.557872 -38.219284 19.00000000
-32.296822 4.775904 -55.709582 19.00000000
-34.003169 4.045145 -47.086568 19.00000000
-25.455115 6.978271 -53.091253 19.00000000
-35.159213 3.440585 -38.438416 19.00000000
-36.538910 2.719063 -33.351251 19.00000000
-22.901179 7.639682 -47.009771 19.00000000
-56.170625 -25.850579 -12.315991 19.00000000
-56.271450 -26.565709 0.772305 19.00000000
-21.697268 7.951467 -32.875033 19.00000000
-56.628108 -31.316742 -11.595105 19.00000000
-25.405271 6.991180 -50.335014 19.00000000
-55.925986 -24.325212 -21.543416 19.00000000
-26.263721 6.768861 -19.782398 19.00000000
-21.790962 7.927202 -43.538715 19.00000000
-26.886871 6.607479 -38.529317 19.00000000
-29.743407 5.742664 -30.211476 19.00000000
-56.199316 -26.054081 -24.372855 19.00000000
-24.854261 7.133878 -42.405902 19.00000000
-53.814627 -17.143537 0.238871 19.00000000
-45.111887 -3.855614 -7.800691 19.00000000
-30.208159 5.586757 -49.100169 19.00000000
-44.906284 -3.644707 -30.091261 19.00000000
-23.818743 7.402054 -61.031882 19.00000000
-56.578728 -34.046091 3.739524 19.00000000
-56.634001 -30.990855 -50.232476 19.00000000
-33.796302 4.137051 -50.860891 19.00000000
-54.871049 -20.150166 -50.629511 19.00000000
-44.324518 -3.047929 -24.162358 19.00000000
-46.995075 -5.882578 -31.098563 19.00000000
-54.845961 -20.068550 -29.025955 19.00000000
-28.382370 6.199241 -1.111495 19.00000000
-38.277591 1.648180 -8.642502 19.00000000
-44.229359 -2.956312 -60.177624 19.00000000
-50.630412 -10.817199 -12.771658 19.00000000
-54.420940 -18.685867 -27.637266 19.00000000
-42.922211 -1.812037 -14.081806 19.00000000
-56.632260 -31.087126 -22.257240 19.00000000
-45.786847 -4.547989 -24.592266 19.00000000
-56.527387 -29.153046 -25.503660 19.00000000
-23.936062 7.371671 -5.933211 19.00000000
-49.547419 -9.185322 -41.325610 19.00000000
-51.544235 -12.357587 -43.334130 19.00000000
-23.152082 7.574704 -22.765699 19.00000000
-55.955431 -24.457418 -17.535232 19.00000000
-55.647890 -23.076551 -22.935555 19.00000000
-52.372632 -13.931241 -18.611311 19.00000000
-56.015197 -24.748167 -58.061372 19.00000000
-43.547706 -2.359594 -16.979668 19.00000000
-56.153371 -25.728200 -19.794755 19.00000000
-54.851727 -20.087308 -9.580801 19.00000000
-43.666815 -2.463862 -11.657708 19.00000000
-56.614788 -30.584225 -51.953744 19.00000000
-51.125934 -11.652478 -44.936756 19.00000000
-54.311193 -18.396655 -25.399863 19.00000000
-54.005734 -17.625808 -56.629816 19.00000000
-48.745881 -8.049456 -46.367842 19.00000000
-55.425716 -22.078982 -2.991448 19.00000000
-29.342412 5.877183 -42.695910 19.00000000
-56.446814 -27.833662 -58.775440 19.00000000
-30.539203 5.475705 -26.203416 19.00000000
-28.463410 6.172055 -23.384098 19.00000000
-39.959478 0.526116 -6.964159 19.00000000
-56.147168 -25.684206 -2.783387 19.00000000
-41.417013 -0.559009 -54.966646 19.00000000
-55.820116 -23.849851 -19.684932 19.00000000
-56.579320 -34.014046 -6.897348 19.00000000
-39.771348 0.666176 -10.147842 19.00000000
-54.693099 -19.571256 -11.554389 19.00000000
-50.970739 -11.390872 -59.463381 19.00000000
-56.494374 -28.612446 -22.576319 19.00000000
-41.079359 -0.307628 -5.783522 19.00000000
-47.061939 -5.963003 3.786793 19.00000000
-54.480776 -18.880524 -18.402651 19.00000000
-50.082045 -9.942945 -45.333733 19.00000000
-37.203567 2.322895 -26.968535 19.00000000
-21.564368 7.985885 1.057414 19.00000000
-46.109190 -4.878650 -30.125989 19.00000000
-31.837238 4.971710 -10.703968 19.00000000
-26.062094 6.821078 -57.212254 19.00000000
-37.728409 1.993183 -60.472811 19.00000000
-29.139876 5.945126 -44.749667 19.00000000
-50.073045 -9.930192 -35.082484 19.00000000
-52.663871 -14.524465 1.078231 19.00000000
-52.841436 -14.886146 -60.832592 19.00000000
-48.000561 -7.091991 -52.611682 19.00000000
-42.349129 -1.310362 -12.008832 19.00000000
-43.800092 -2.580532 -32.369774 19.00000000
-41.466699 -0.596000 2.827953 19.00000000
-55.783770 -23.686658 -55.698765 19.00000000
-37.327021 2.245340 -19.887451 19.00000000
-41.025648 -0.267641 -31.750416 19.00000000
-55.163599 -21.101895 -27.648205 19.00000000
-56.590304 -30.183304 -55.621757 19.00000000
-54.047549 -17.731331 -46.802297 19.00000000
-31.606031 5.070215 -23.273001 19.00000000
-39.039270 1.169684 -50.883944 19.00000000
-44.623236 -3.354355 -53.190770 19.00000000
-53.326039 -15.910549 -39.515332 19.00000000
-53.194627 -15.605557 -28.161693 19.00000000
-31.724779 5.019623 -12.749109 19.00000000
-50.107196 -9.978586 -58.686574 19.00000000
-56.495957 -28.638374 -57.214152 19.00000000
-49.287523 -8.817022 -31.841254 19.00000000
-44.061438 -2.809314 -43.522657 19.00000000
-56.581572 -33.889825 -13.694209 19.00000000
-31.195336 5.245192 -60.794963 19.00000000
-26.627641 6.674614 -29.462264 19.00000000
-42.677132 -1.597495 -10.450388 19.00000000
-40.842931 -0.131609 -60.835673 19.00000000
-30.343066 5.541501 -55.450169 19.00000000
-56.190954 -25.994769 -41.263074 19.00000000
-48.821311 -8.156348 -40.236828 19.00000000
-54.887944 -20.205129 -60.859913 19.00000000
-56.417358 -27.600596 -27.680884 19.00000000
-54.947608 -20.399230 -41.262725 19.00000000
-49.825081 -9.578800 -20.945624 19.00000000
-50.380758 -10.396370 -61.037638 19.00000000
-42.740440 -1.652915 -38.618595 19.00000000
-37.483353 2.147130 -53.493311 19.00000000
-28.981007 5.998421 -25.113717 19.00000000
-51.843263 -12.861644 -46.951713 19.00000000
-52.399917 -13.986818 -28.104629 19.00000000
-54.325991 -18.433999 -16.553992 19.00000000
-48.659231 -7.926664 -48.096782 19.00000000
-27.233042 6.517829 -18.513808 19.00000000
-34.767178 3.645602 -11.237520 19.00000000
-51.254190 -11.868672 -31.477077 19.00000000
-23.718497 7.428015 -19.186183 19.00000000
-26.350664 6.746345 -48.266726 19.00000000
-38.320741 1.621073 -55.012646 19.00000000
-53.227905 -15.673341 -24.996139 19.00000000
-56.303530 -26.793239 -22.866965 19.00000000
-54.952742 -20.415930 -15.741639 19.00000000
-29.446955 5.842113 -16.905461 19.00000000
-41.844756 -0.877460 -52.497939 19.00000000
-54.361640 -18.523962 -51.362588 19.00000000
-41.905979 -0.923041 -40.883467 19.00000000
-28.675908 6.100770 -56.608522 19.00000000
-52.098698 -13.373267 -21.092326 19.00000000
-25.047959 7.083715 -29.326101 19.00000000
-56.586091 -30.114310 -47.420471 19.00000000
-54.160341 -18.015969 -11.822594 19.00000000
-55.417853 -22.043676 -4.918157 19.00000000
-53.799573 -17.105545 -24.358653 19.00000000
-56.444432 -27.794647 -15.548339 19.00000000
-50.365477 -10.370611 -25.208981 19.00000000
-56.572371 -29.889656 -45.795713 19.00000000
-45.460298 -4.213015 -58.856164 19.00000000
-49.656793 -9.340317 -2.668482 19.00000000
-55.276355 -21.468713 -16.839287 19.00000000
-56.389626 -27.403896 -39.079120 19.00000000
-56.610409 -32.295476 -6.292982 19.00000000
-21.703818 7.949770 -41.727167 19.00000000
-51.180831 -11.745014 -49.727975 19.00000000
-55.355186 -21.762297 -54.557496 19.00000000
-21.718480 7.945973 -11.064523 19.00000000
-55.364521 -21.804214 -9.403750 19.00000000
-56.585019 -30.096769 -24.295665 19.00000000
-39.400534 0.942245 -36.688845 19.00000000
-41.560830 -0.666079 -59.548186 19.00000000
