-16.695046 59.397086 -49.265274 20.00000000
-41.819297 60.979832 -35.389604 20.00000000
-26.189200 62.362015 -49.236537 20.00000000
-23.458588 61.825448 -51.052946 20.00000000
-2.183140 45.494976 -22.841392 20.00000000
-25.412534 62.229292 -45.290881 20.00000000
-6.554094 51.684710 -8.051118 20.00000000
-29.712756 62.729740 -40.536895 20.00000000
-28.230234 62.605805 -41.682599 20.00000000
-5.498387 50.468501 -23.340202 20.00000000
-14.976677 58.477922 -13.763028 20.00000000
-5.058253 49.893365 0.103008 20.00000000
-19.964133 60.770103 -10.649543 20.00000000
-32.403044 62.734810 -49.498817 20.00000000
-9.348969 54.501849 -38.144217 20.00000000
-23.498619 61.835886 -60.988929 20.00000000
-40.912609 61.296026 -1.049802 20.00000000
-16.424259 59.273965 -36.512727 20.00000000
-10.936588 55.796936 -23.881692 20.00000000
-13.003702 57.274582 -45.950985 20.00000000
-7.320536 52.549418 -58.600190 20.00000000
-24.649226 62.098852 -44.075308 20.00000000
0.076073 40.163973 -40.675544 20.00000000
-17.611286 59.813683 -47.150991 20.00000000
-15.879663 58.986073 -19.029496 20.00000000
-17.409530 59.721949 -20.813644 20.00000000
-38.057480 62.034673 -17.065897 20.00000000
-39.022513 61.798736 -54.139175 20.00000000
-33.264647 62.682342 -55.741704 20.00000000
-5.714987 50.718031 -55.038073 20.00000000
-34.091514 62.609163 3.804743 20.00000000
-44.909796 59.743747 -53.900647 20.00000000
-4.971824 49.774585 -41.018723 20.00000000
-14.619248 58.276781 -33.306973 20.00000000
-16.212804 59.173546 -2.926351 20.00000000
-8.995879 54.174268 -15.729744 20.00000000
-3.491095 47.681009 -56.014595 20.00000000
-40.623037 61.373043 -31.221047 20.00000000
-6.893973 52.076263 0.174682 20.00000000
-3.511025 47.714018 -60.932531 20.00000000
-42.788077 60.630816 -60.119877 20.00000000
-32.554767 62.734437 -51.062605 20.00000000
-1.108340 43.311109 -20.277048 20.00000000
-3.579891 47.828077 -39.059770 20.00000000
-39.231619 61.743120 -18.100828 20.00000000
-21.568288 61.332546 -46.646246 20.00000000
-5.733560 50.739428 -47.756818 20.00000000
0.126882 39.774739 -33.746870 20.00000000
-28.970536 62.667692 -58.828136 20.00000000
-27.564559 62.550156 -18.152418 20.00000000
-4.085569 48.556593 -51.129685 20.00000000
-1.649773 44.411237 -19.230981 20.00000000
-42.112236 60.874297 0.604556 20.00000000
-9.381093 54.528054 2.198036 20.00000000
-8.696863 53.884264 -10.765729 20.00000000
-4.330503 48.893209 -7.791857 20.00000000
-14.983211 58.481599 -18.896635 20.00000000
-31.886814 62.736079 -46.676024 20.00000000
-1.259331 43.617904 -18.282097 20.00000000
-13.982746 57.918592 -44.064323 20.00000000
0.756565 34.950870 -34.427096 20.00000000
-35.842577 62.424212 -17.940205 20.00000000
-42.544137 60.718699 -27.473902 20.00000000
0.694036 35.429896 -9.786427 20.00000000
-6.246703 51.330586 -0.662556 20.00000000
-40.054245 61.524325 -55.793167 20.00000000
-40.533496 61.396859 -53.110748 20.00000000
-18.942525 60.407673 -21.279839 20.00000000
-44.539200 59.914441 -26.951818 20.00000000
-7.183227 52.409493 -29.083275 20.00000000
-6.956964 52.148830 -49.275714 20.00000000
-0.278722 41.247433 -35.416399 20.00000000
-25.022073 62.162567 -1.317166 20.00000000
-3.625105 47.902962 -38.175451 20.00000000
-15.538285 58.793964 -8.669096 20.00000000
-43.509751 60.370823 -55.709624 20.00000000
-27.453388 62.540863 -58.862087 20.00000000
-10.429323 55.383139 -6.098076 20.00000000
-40.566044 61.388202 -41.696839 20.00000000
0.757806 34.941363 -60.913641 20.00000000
-41.175118 61.211907 -49.615423 20.00000000
0.423870 37.499573 -29.546542 20.00000000
-2.210602 45.550776 -24.203478 20.00000000
-22.215746 61.501373 0.713334 20.00000000
-34.716558 62.553845 -58.440734 20.00000000
-43.662700 60.315722 -13.233549 20.00000000
-35.710809 62.447386 -9.187892 20.00000000
-41.221067 61.195353 -14.906422 20.00000000
-5.446535 50.408766 3.228665 20.00000000
-26.595561 62.431457 -30.834991 20.00000000
-41.479694 61.102179 -40.830257 20.00000000
-33.145982 62.692844 0.847779 20.00000000
-44.090326 60.121188 -52.039175 20.00000000
-2.432461 45.927651 -54.877001 20.00000000
-1.139502 43.374427 -14.761889 20.00000000
-28.658167 62.641579 -22.448522 20.00000000
-12.683028 57.055940 -41.552719 20.00000000
-8.048386 53.255332 1.786535 20.00000000
-21.045550 61.153752 -26.871702 20.00000000
-33.347957 62.674969 -40.853577 20.00000000
-34.193327 62.600152 -37.236674 20.00000000
-3.973134 48.402072 -28.537838 20.00000000
-22.280825 61.518342 -22.671965 20.00000000
-29.487620 62.710919 -8.471971 20.00000000
-43.237086 60.469055 -13.996292 20.00000000
0.213525 39.110986 -9.957105 20.00000000
-21.208363 61.211512 -24.813824 20.00000000
-20.479521 60.952945 -34.651130 20.00000000
-39.161679 61.761722 -60.949046 20.00000000
-0.752370 42.463105 -37.747198 20.00000000
-39.217837 61.746785 -22.371655 20.00000000
-6.892759 52.074864 -51.762249 20.00000000
-3.053653 46.956497 -31.321601 20.00000000
-39.025992 61.797811 -47.477865 20.00000000
-3.523702 47.735014 -45.702697 20.00000000
-9.279189 54.444926 -1.824807 20.00000000
-0.081159 40.740363 -16.007574 20.00000000
-34.196068 62.599910 -40.518879 20.00000000
-0.380964 41.509848 -26.721424 20.00000000
-20.500901 60.960530 -46.278503 20.00000000
-44.331073 60.010302 -41.738935 20.00000000
-0.511078 41.843800 -12.203061 20.00000000
-0.463759 41.722352 1.599658 20.00000000
-24.601315 62.090665 -59.128950 20.00000000
-37.218340 62.182254 -49.372005 20.00000000
-36.932386 62.232545 -13.356894 20.00000000
-38.657400 61.895845 -48.581279 20.00000000
-20.929943 61.112739 -56.313502 20.00000000
-0.767752 42.502585 -33.359850 20.00000000
-1.569329 44.247784 -54.797148 20.00000000
-16.441497 59.281803 -53.787991 20.00000000
-30.893696 62.738520 -25.522083 20.00000000
-40.330641 61.450812 -4.881867 20.00000000
-5.015025 49.833957 -37.572093 20.00000000
-20.635162 61.008161 -43.234078 20.00000000
-21.012900 61.142169 -44.508886 20.00000000
-11.241611 56.045757 -49.052911 20.00000000
-41.739079 61.008732 -27.797364 20.00000000
-2.160886 45.449757 -30.435861 20.00000000
-14.859993 58.412259 -44.781026 20.00000000
-42.332264 60.795029 -8.407678 20.00000000
-6.520216 51.645682 -47.167050 20.00000000
-19.712092 60.680688 -21.479590 20.00000000
-25.720195 62.281868 -31.373967 20.00000000
-44.632854 59.871304 -7.689748 20.00000000
-32.336664 62.734973 -16.211840 20.00000000
0.782724 34.750473 -31.654781 20.00000000
-40.729136 61.344824 -24.964101 20.00000000
-5.276899 50.193854 -57.407572 20.00000000
-27.381632 62.534864 -48.027434 20.00000000
-15.524781 58.786365 -58.865141 20.00000000
-33.369995 62.673019 -43.096153 20.00000000
-13.221840 57.423313 -23.087702 20.00000000
-26.028946 62.334630 -14.128856 20.00000000
-5.972166 51.014310 -34.352842 20.00000000
-32.457535 62.734676 -4.304874 20.00000000
-41.025260 61.265895 0.923164 20.00000000
-20.674106 61.021977 -17.727035 20.00000000
-38.073458 62.031863 -9.030996 20.00000000
-34.287396 62.591827 -43.112320 20.00000000
-1.876551 44.872023 -29.890463 20.00000000
-8.817394 54.001162 -49.234270 20.00000000
-42.740142 60.648086 -18.722595 20.00000000
-43.212407 60.477946 -2.685059 20.00000000
-29.278183 62.693411 -47.350252 20.00000000
-41.229734 61.192231 -8.356401 20.00000000
-26.032673 62.335267 -26.809720 20.00000000
0.657609 35.708956 -8.941786 20.00000000
-31.989409 62.735827 -57.668669 20.00000000
-5.056409 49.890830 2.430726 20.00000000
0.035995 40.439674 -29.682656 20.00000000
-7.652955 52.871818 -47.865358 20.00000000
-13.740584 57.777002 1.549993 20.00000000
-2.284273 45.682215 -37.344703 20.00000000
-37.786635 62.082307 -40.942348 20.00000000
0.460910 37.215819 -10.292202 20.00000000
-1.754308 44.623639 -46.603538 20.00000000
0.123582 39.800019 3.814268 20.00000000
-0.696832 42.320560 -60.983701 20.00000000
-27.918963 62.579784 -34.814620 20.00000000
-11.515921 56.260185 -26.487403 20.00000000
-1.674397 44.461271 -42.667572 20.00000000
-41.319522 61.159883 -6.508144 20.00000000
-41.811056 60.982801 -17.045840 20.00000000
-8.866187 54.048485 -19.275285 20.00000000
-38.384498 61.968429 -10.118871 20.00000000
-26.335296 62.386981 -0.960117 20.00000000
-0.177392 40.987355 -40.421445 20.00000000
-20.588486 60.991602 -51.558076 20.00000000
-4.036670 48.489390 2.943353 20.00000000
-28.289948 62.610797 -59.301623 20.00000000
-24.119194 61.997703 -7.965407 20.00000000
-6.626977 51.768675 -19.442143 20.00000000
-0.767989 42.503193 -12.693618 20.00000000
-13.922887 57.884907 3.388982 20.00000000
-44.072903 60.129213 -40.511791 20.00000000
-34.555572 62.568093 -44.998024 20.00000000
-14.961667 58.469475 -7.099471 20.00000000
-0.862115 42.744780 -18.904946 20.00000000
-5.130214 49.992262 -36.640279 20.00000000
-3.945966 48.364734 -9.970054 20.00000000
-13.829900 57.832579 -60.265427 20.00000000
-8.414292 53.610209 -28.929062 20.00000000
-30.464624 62.739575 -35.659386 20.00000000
-3.164272 47.139710 -3.474423 20.00000000
-44.397366 59.979768 -23.699355 20.00000000
0.779060 34.778543 3.799832 20.00000000
-21.624139 61.347109 -28.622446 20.00000000
-18.051856 60.014002 0.692781 20.00000000
-40.446461 61.420007 -11.505828 20.00000000
0.636446 35.871077 -32.553563 20.00000000
-36.542465 62.301121 -58.632965 20.00000000
-5.231518 50.131486 -45.676702 20.00000000
-31.476532 62.737087 -4.663558 20.00000000
-6.308626 51.401924 -32.490487 20.00000000
-40.201301 61.485213 -54.329398 20.00000000
0.690953 35.453509 -30.984460 20.00000000
-20.839273 61.080572 -4.799699 20.00000000
-35.241341 62.507401 -17.209369 20.00000000
0.673709 35.585614 -55.277487 20.00000000
-1.668315 44.448912 -25.798266 20.00000000
-11.993244 56.585633 -18.726594 20.00000000
-1.715737 44.545268 -28.351625 20.00000000
-2.847770 46.615504 -1.731221 20.00000000
0.051828 40.349708 -22.520215 20.00000000
-0.362768 41.463145 -28.356953 20.00000000
-37.082591 62.206128 -16.598271 20.00000000
-41.761926 61.000501 -48.752269 20.00000000
-11.010629 55.857335 -20.506492 20.00000000
-6.393620 51.499840 -41.038567 20.00000000
-42.918037 60.583996 -46.771138 20.00000000
-10.568961 55.497048 -18.310673 20.00000000
-41.511127 61.090855 2.460324 20.00000000
-23.303823 61.785092 3.755172 20.00000000
-3.721379 48.056082 -25.330961 20.00000000
-43.330808 60.435290 -60.953354 20.00000000
-18.769138 60.340137 -3.117590 20.00000000
-27.189179 62.518776 -34.117595 20.00000000
-18.336858 60.143587 -25.918336 20.00000000
0.109750 39.905981 -5.686492 20.00000000
-18.972432 60.418283 -30.392400 20.00000000
-39.822582 61.585941 -49.635919 20.00000000
-42.913908 60.585484 -9.967503 20.00000000
-30.080174 62.740519 -56.228708 20.00000000
-7.296946 52.526539 -16.763556 20.00000000
-37.026413 62.216009 3.681946 20.00000000
-4.363090 48.937993 -29.799914 20.00000000
-46.209446 59.145141 -58.873756 20.00000000
-10.416847 55.372962 0.059371 20.00000000
0.665364 35.649540 -17.457073 20.00000000
-2.459983 45.973234 -31.977704 20.00000000
-43.312868 60.441753 -48.437922 20.00000000
-30.152172 62.740343 -26.739293 20.00000000
-45.777583 59.344053 -27.659972 20.00000000
-40.807407 61.324006 -26.409978 20.00000000
-44.641088 59.867512 -51.443329 20.00000000
0.213939 39.107814 -27.665013 20.00000000
-5.030677 49.855467 -3.070121 20.00000000
-4.389275 48.973980 -5.270636 20.00000000
-12.142449 56.687364 -30.800252 20.00000000
-8.373947 53.571080 -28.062950 20.00000000
-18.838711 60.370844 -29.357335 20.00000000
-14.688773 58.315906 -48.514831 20.00000000
-3.374793 47.488385 -18.133694 20.00000000
-14.417764 58.163397 -16.378896 20.00000000
-13.314745 57.486657 -38.758034 20.00000000
-4.751518 49.471816 -57.873110 20.00000000
-9.547147 54.663511 -60.919003 20.00000000
-7.049535 52.255475 -8.891392 20.00000000
-43.292995 60.448913 -17.888204 20.00000000
-42.756062 60.642350 -37.099158 20.00000000
-6.912882 52.098047 -0.624308 20.00000000
-15.352301 58.689303 -3.222653 20.00000000
-38.660408 61.895045 -7.416571 20.00000000
-35.355367 62.497310 -40.807351 20.00000000
-2.303084 45.713371 -19.428034 20.00000000
0.755986 34.955311 -47.628904 20.00000000
-3.420156 47.563517 -35.051910 20.00000000
-41.199659 61.203065 -38.143749 20.00000000
-24.894793 62.140816 -58.335880 20.00000000
-15.012539 58.498103 -38.248576 20.00000000
-20.640497 61.010053 -47.819889 20.00000000
0.345865 38.097153 -2.215545 20.00000000
0.124512 39.792890 -9.142607 20.00000000
-39.739729 61.607977 -8.529346 20.00000000
-3.919451 48.328296 -0.504680 20.00000000
-17.204542 59.628745 -4.684847 20.00000000
-27.345220 62.531820 -31.274475 20.00000000
0.144421 39.640375 -47.448929 20.00000000
-17.533315 59.778231 -53.297611 20.00000000
-39.038513 61.794480 -9.089201 20.00000000
-25.023776 62.162858 -37.083628 20.00000000
0.605238 36.110159 -16.491873 20.00000000
-4.881089 49.649886 -27.695363 20.00000000
0.642320 35.826078 -10.739114 20.00000000
-12.792861 57.130827 1.937112 20.00000000
-3.276287 47.325234 -42.589614 20.00000000
-44.023219 60.152096 -60.002778 20.00000000
-6.279860 51.368783 -7.197812 20.00000000
-23.562295 61.852490 -32.872375 20.00000000
-43.901803 60.208020 -4.552581 20.00000000
-11.537478 56.274883 -60.341987 20.00000000
-0.770387 42.509347 -3.752325 20.00000000
-33.673506 62.646157 -58.122283 20.00000000
-32.727110 62.729915 -2.885199 20.00000000
-2.128238 45.383422 -10.887329 20.00000000
0.619978 35.997239 -6.308152 20.00000000
-29.727325 62.730958 -36.873514 20.00000000
-13.669516 57.728547 -17.042879 20.00000000
-6.791540 51.958256 -55.181023 20.00000000
-15.096740 58.545487 -56.729814 20.00000000
0.904026 33.821208 -3.359958 20.00000000
-17.640282 59.826867 -27.711739 20.00000000
-39.457153 61.683134 -6.477299 20.00000000
-3.082281 47.003912 -23.963901 20.00000000
-3.668006 47.974016 -26.942115 20.00000000
-0.762892 42.490112 -39.552688 20.00000000
-24.252020 62.030974 -37.582696 20.00000000
-32.300123 62.735063 -42.206118 20.00000000
-37.924995 62.057973 -54.374700 20.00000000
-0.115807 40.829292 0.493638 20.00000000
-18.058967 60.017235 -51.946156 20.00000000
-23.672519 61.881231 -15.489133 20.00000000
-30.310799 62.739953 -2.933756 20.00000000
-35.380973 62.495044 -45.563357 20.00000000
-22.061415 61.461130 -36.301273 20.00000000
-16.202242 59.167603 -33.894658 20.00000000
-32.126131 62.735491 -30.312584 20.00000000
-26.581189 62.429001 -55.085971 20.00000000
-41.993544 60.917057 -42.383513 20.00000000
-10.499315 55.440234 -54.552928 20.00000000
-42.134239 60.866370 -55.125272 20.00000000
-8.576249 53.767285 -16.839462 20.00000000
-26.591120 62.430698 -21.443661 20.00000000
0.576753 36.328373 -18.179818 20.00000000
-1.255430 43.609978 -4.836799 20.00000000
-40.911663 61.296277 -32.979213 20.00000000
-5.387557 50.340821 -58.180051 20.00000000
-1.636352 44.383966 -50.015485 20.00000000
-34.688941 62.556290 -22.047917 20.00000000
-30.929154 62.738433 -58.615082 20.00000000
-26.453699 62.407215 -31.831538 20.00000000
-37.141330 62.195798 -31.303776 20.00000000
-2.057701 45.240099 -15.805615 20.00000000
-10.819010 55.701023 2.072355 20.00000000
0.445333 37.335157 -26.941748 20.00000000
-7.610770 52.830905 -54.729592 20.00000000
-9.187559 54.360171 -39.920953 20.00000000
-1.006508 43.104199 -51.811770 20.00000000
-43.507796 60.371528 -52.751468 20.00000000
-0.745373 42.445145 -42.350353 20.00000000
-38.002408 62.044358 -13.116282 20.00000000
-3.898276 48.299194 -39.740755 20.00000000
-4.491577 49.114575 -51.804490 20.00000000
-8.794776 53.979226 -60.994446 20.00000000
-44.109398 60.112404 -21.619691 20.00000000
-16.612375 59.359497 3.013516 20.00000000
-23.377033 61.804182 -35.657376 20.00000000
-13.509422 57.619392 -40.178000 20.00000000
-31.225620 62.737704 -50.619903 20.00000000
-42.016346 60.908843 -21.999880 20.00000000
-42.446257 60.753962 -45.858126 20.00000000
0.627620 35.938691 -28.962140 20.00000000
-5.240702 50.144108 -55.792975 20.00000000
-29.179487 62.685160 -10.859030 20.00000000
-7.880131 53.092147 -39.985408 20.00000000
-0.120704 40.841861 -48.306571 20.00000000
-40.157890 61.496759 -23.178982 20.00000000
-28.134940 62.597839 -23.321181 20.00000000
-16.275193 59.206187 -7.293911 20.00000000
-14.754578 58.352937 -40.286397 20.00000000
0.064863 40.249849 -56.223600 20.00000000
-41.205755 61.200869 -39.149264 20.00000000
-29.333349 62.698023 0.599875 20.00000000
0.391517 37.747427 1.772516 20.00000000
0.093315 40.031882 -48.581567 20.00000000
-9.822996 54.888532 -43.425144 20.00000000
-32.173732 62.735374 -43.160629 20.00000000
-10.227282 55.218325 -24.183376 20.00000000
-44.131497 60.102225 -49.271882 20.00000000
-44.595212 59.888642 -2.094359 20.00000000
0.475040 37.107572 -30.545872 20.00000000
0.406782 37.630483 -50.050910 20.00000000
-1.962289 45.046232 -33.156820 20.00000000
-12.973587 57.254049 -20.079789 20.00000000
-3.131651 47.085682 -33.570922 20.00000000
-15.069659 58.530248 -42.024737 20.00000000
-5.006013 49.821572 -51.688794 20.00000000
-36.702705 62.272940 -12.610051 20.00000000
-1.944190 45.009458 -50.713243 20.00000000
-18.947807 60.409547 -54.943512 20.00000000
-0.346682 41.421858 -54.836560 20.00000000
-9.010626 54.188570 -50.117434 20.00000000
0.241386 38.897544 -17.114236 20.00000000
-43.876786 60.219542 -54.437799 20.00000000
-3.893469 48.292588 -14.504373 20.00000000
-3.484368 47.669868 -48.082537 20.00000000
-21.977245 61.439183 -10.755196 20.00000000
0.354645 38.029891 -9.736837 20.00000000
-2.870847 46.653726 -25.101959 20.00000000
-0.397772 41.552988 -29.717788 20.00000000
-41.715556 61.017206 -2.062386 20.00000000
-8.877267 54.059231 -48.380958 20.00000000
-22.749704 61.640604 -56.869517 20.00000000
-9.441447 54.577287 -21.532079 20.00000000
-31.605441 62.736771 -1.706200 20.00000000
-13.570327 57.660918 -25.816566 20.00000000
-5.502307 50.473017 -12.929914 20.00000000
0.134902 39.713298 -60.876210 20.00000000
-18.009710 59.994839 -18.632372 20.00000000
-0.062887 40.693465 -17.708349 20.00000000
-2.184180 45.497089 -41.228161 20.00000000
-12.989179 57.264681 -39.660882 20.00000000
-3.509436 47.711386 -5.392419 20.00000000
-41.123665 61.230443 -7.414714 20.00000000
-6.039206 51.091542 -26.407641 20.00000000
-4.571982 49.225077 0.516725 20.00000000
-10.876869 55.748221 -39.512913 20.00000000
-38.425604 61.957496 -0.351541 20.00000000
0.545320 36.569171 -19.773805 20.00000000
-19.931032 60.758361 -14.268595 20.00000000
-25.414074 62.229555 -4.839011 20.00000000
-8.724624 53.911188 1.781458 20.00000000
-5.139826 50.005473 -44.860209 20.00000000
-16.691255 59.395363 -52.935927 20.00000000
-28.735549 62.648048 -36.978344 20.00000000
-9.755069 54.833121 -5.980154 20.00000000
-18.137667 60.053019 -46.554310 20.00000000
-14.434565 58.172851 -30.796939 20.00000000
-43.985655 60.169398 -2.671998 20.00000000
-32.885939 62.715858 -31.905491 20.00000000
-9.867417 54.924769 -55.107980 20.00000000
-11.381010 56.159470 -31.937663 20.00000000
-10.806921 55.691162 -48.501275 20.00000000
-2.125180 45.377208 -27.271272 20.00000000
-24.927313 62.146374 -2.604592 20.00000000
-24.762203 62.118158 -53.118272 20.00000000
-34.474281 62.575287 -10.168316 20.00000000
-4.114173 48.595904 -17.251022 20.00000000
-24.665767 62.101679 -20.700530 20.00000000
-11.005598 55.853231 -45.649790 20.00000000
-22.387436 61.546141 -16.565960 20.00000000
-5.363779 50.313254 -25.697580 20.00000000
-41.851743 60.968143 1.372432 20.00000000
-42.064042 60.891660 -19.302073 20.00000000
-38.099527 62.027278 -33.010654 20.00000000
0.477185 37.091143 -40.574200 20.00000000
-17.873299 59.932816 -9.252494 20.00000000
0.252322 38.813765 -42.517118 20.00000000
-34.171910 62.602048 -20.457306 20.00000000
-41.591077 61.062052 -32.587522 20.00000000
-35.459677 62.488078 -52.973477 20.00000000
-14.002312 57.929603 -28.060921 20.00000000
-25.510994 62.246118 -11.399613 20.00000000
-23.859259 61.929924 -12.585700 20.00000000
-7.816703 53.030631 -40.806321 20.00000000
-38.409556 61.961764 -14.351155 20.00000000
-32.081335 62.735601 -18.405991 20.00000000
-0.390044 41.533152 -7.723087 20.00000000
-17.400135 59.717677 -37.895344 20.00000000
-10.884498 55.754445 -60.624616 20.00000000
-1.198853 43.495019 -19.149354 20.00000000
-23.549229 61.849083 -24.386810 20.00000000
-33.560312 62.656175 -59.358108 20.00000000
-20.215074 60.859128 -24.866447 20.00000000
0.118472 39.839160 -59.997668 20.00000000
-20.383834 60.918999 -37.922957 20.00000000
-29.280501 62.693605 2.845652 20.00000000
-25.626095 62.265787 -59.251508 20.00000000
-33.282874 62.680729 -29.921252 20.00000000
-9.771878 54.846833 -42.090074 20.00000000
0.229903 38.985516 -26.857920 20.00000000
-26.228413 62.368716 -42.005524 20.00000000
-28.012674 62.587618 -60.340112 20.00000000
-16.738814 59.416987 1.337053 20.00000000
0.421484 37.517858 -15.535291 20.00000000
-9.970402 55.008778 -8.647182 20.00000000
0.905184 33.812333 3.533593 20.00000000
0.755738 34.957206 -43.702890 20.00000000
-36.296488 62.344382 -16.870028 20.00000000
-33.639559 62.649162 -57.223088 20.00000000
-18.848566 60.374340 -39.465300 20.00000000
-24.974689 62.154470 -8.379017 20.00000000
-29.090341 62.677708 -13.543957 20.00000000
-19.476770 60.597204 -8.184379 20.00000000
0.392608 37.739071 -59.646829 20.00000000
-27.379144 62.534656 -12.085780 20.00000000
-21.943340 61.430342 -48.285579 20.00000000
-2.415617 45.899753 -11.751359 20.00000000
-43.758337 60.274099 -33.495598 20.00000000
-12.895454 57.200777 -1.289733 20.00000000
-1.143653 43.382860 -42.469162 20.00000000
-43.066461 60.530525 -9.089033 20.00000000
-14.960835 58.469007 -55.899944 20.00000000
-35.846792 62.423471 -33.439962 20.00000000
-29.758742 62.733584 -60.299852 20.00000000
-7.870879 53.083174 -60.845027 20.00000000
-24.483174 62.070476 -49.488287 20.00000000
-11.404326 56.178490 -0.282463 20.00000000
-25.504788 62.245057 -46.158169 20.00000000
-39.980793 61.543861 -43.320366 20.00000000
-1.053131 43.198931 -26.773163 20.00000000
0.659432 35.694985 -41.909231 20.00000000
-12.617923 57.011551 -9.310385 20.00000000
0.846088 34.265056 -26.663826 20.00000000
-46.216580 59.141855 -38.723969 20.00000000
0.312402 38.353507 -39.614429 20.00000000
-25.007540 62.160084 -18.242439 20.00000000
-30.216927 62.740183 -19.091066 20.00000000
0.226659 39.010368 -43.325204 20.00000000
-9.936116 54.980809 -14.393580 20.00000000
-31.916053 62.736007 -37.431363 20.00000000
0.884089 33.973936 -39.085938 20.00000000
-4.499782 49.125852 -37.308933 20.00000000
-2.392289 45.861116 -1.280340 20.00000000
-43.575320 60.347201 -38.506560 20.00000000
-11.874696 56.504805 -47.908611 20.00000000
-0.973759 43.031327 -45.292104 20.00000000
-4.891087 49.663626 -5.694185 20.00000000
-28.703869 62.645400 -24.185448 20.00000000
-24.384465 62.053607 -23.137801 20.00000000
-7.360445 52.588124 -3.484899 20.00000000
-44.399343 59.978858 -10.883838 20.00000000
-2.914859 46.726621 -7.983439 20.00000000
0.069570 40.213794 -24.393727 20.00000000
-1.123428 43.341765 0.356172 20.00000000
-31.443772 62.737168 -39.190712 20.00000000
-17.218510 59.635096 -25.840950 20.00000000
-24.684683 62.104911 -32.818573 20.00000000
-23.887459 61.937277 2.737656 20.00000000
0.906603 33.801467 -11.261735 20.00000000
-10.497890 55.439072 -51.936330 20.00000000
-9.942254 54.985817 -54.104692 20.00000000
-8.978790 54.157694 -28.548842 20.00000000
-19.581075 60.634208 -29.376710 20.00000000
-19.606768 60.643323 -35.363730 20.00000000
-0.402640 41.565481 -57.856757 20.00000000
-5.607110 50.593754 0.862546 20.00000000
-41.180056 61.210128 -30.649424 20.00000000
-17.571508 59.795597 -9.991811 20.00000000
-34.124938 62.606205 -17.465493 20.00000000
-30.667843 62.739075 -57.599247 20.00000000
-1.853703 44.825598 -18.295970 20.00000000
-1.512652 44.132624 -52.731343 20.00000000
-21.415471 61.284987 -31.125330 20.00000000
-29.438112 62.706781 -9.314031 20.00000000
-1.337081 43.775884 -46.943478 20.00000000
-2.189356 45.507605 -16.869593 20.00000000
-2.759497 46.469303 -60.179195 20.00000000
-5.573164 50.554647 -59.123328 20.00000000
-3.010212 46.884548 -22.710630 20.00000000
-3.401765 47.533056 -9.884977 20.00000000
-22.569425 61.593595 -58.587403 20.00000000
-37.269545 62.173248 -1.878671 20.00000000
-14.203193 58.042648 -13.203500 20.00000000
-0.362455 41.462343 -22.642535 20.00000000
-20.541206 60.974829 -2.385354 20.00000000
-31.235822 62.737679 0.867820 20.00000000
-31.208159 62.737747 -41.993414 20.00000000
0.179086 39.374814 -15.022777 20.00000000
-22.134631 61.480222 -38.090650 20.00000000
-3.957407 48.380458 -55.503924 20.00000000
0.177323 39.388316 -49.556409 20.00000000
-42.918001 60.584009 -36.030648 20.00000000
-9.233139 54.404377 -54.928101 20.00000000
-43.534982 60.361734 -11.053313 20.00000000
-0.910863 42.869895 -22.345184 20.00000000
-31.926683 62.735981 -58.560832 20.00000000
-5.362317 50.311244 -61.061164 20.00000000
-6.044834 51.098026 -53.374231 20.00000000
-34.088608 62.609420 -6.289516 20.00000000
-3.253824 47.288031 -59.761711 20.00000000
-38.473722 61.944698 -46.779382 20.00000000
-36.891510 62.239734 -25.921877 20.00000000
-10.118450 55.129547 2.038167 20.00000000
-11.835267 56.477921 -33.199878 20.00000000
-31.312653 62.737490 -22.323030 20.00000000
-41.193119 61.205421 -19.671200 20.00000000
-4.645748 49.326454 -10.174060 20.00000000
0.144313 39.641201 -32.284351 20.00000000
-41.515019 61.089453 -33.470618 20.00000000
-27.110894 62.512231 -40.204036 20.00000000
-0.524306 41.877753 -40.731145 20.00000000
-18.704049 60.310542 3.663900 20.00000000
-31.080818 62.738060 -56.099798 20.00000000
-22.069298 61.463186 -59.338606 20.00000000
-6.534806 51.662490 -48.695378 20.00000000
-29.953612 62.740831 -28.776202 20.00000000
-20.788768 61.062655 -23.731444 20.00000000
-22.660961 61.617464 -6.857760 20.00000000
-37.683783 62.100396 -0.967675 20.00000000
0.177692 39.385491 -40.959136 20.00000000
-10.673447 55.582281 -21.897841 20.00000000
-16.921543 59.500070 -60.650515 20.00000000
-28.381058 62.618414 -9.239726 20.00000000
-0.820470 42.637891 -27.358993 20.00000000
-5.323091 50.257336 -34.247029 20.00000000
-43.779376 60.264408 -20.854469 20.00000000
-27.919287 62.579811 -44.347617 20.00000000
-44.368556 59.993038 -0.724892 20.00000000
-19.496047 60.604043 -24.675699 20.00000000
-24.858604 62.134632 -12.508099 20.00000000
-34.950542 62.533137 -42.607793 20.00000000
-38.020610 62.041157 2.239776 20.00000000
-1.648784 44.409227 2.091157 20.00000000
-29.767413 62.734309 -10.066867 20.00000000
-43.290762 60.449717 -59.060627 20.00000000
-13.105564 57.344033 -2.329374 20.00000000
0.428505 37.464068 -14.545648 20.00000000
-28.830835 62.656014 -53.760093 20.00000000
-41.084293 61.244627 -27.383207 20.00000000
-23.351064 61.797411 -20.351156 20.00000000
0.844142 34.279961 -50.765614 20.00000000
-43.542237 60.359120 -22.250458 20.00000000
0.238978 38.915991 1.883608 20.00000000
-21.539193 61.324959 -54.581294 20.00000000
-5.418490 50.376456 -3.591478 20.00000000
-10.672348 55.581385 -7.036733 20.00000000
-2.240435 45.609608 -49.718750 20.00000000
-24.842854 62.131941 -10.387892 20.00000000
-14.494795 58.206745 -24.511356 20.00000000
-1.823490 44.764209 -39.306018 20.00000000
-37.629213 62.109993 -25.190969 20.00000000
-0.653356 42.208974 -54.781391 20.00000000
-17.382289 59.709563 -38.860222 20.00000000
-37.179815 62.189029 -28.580561 20.00000000
-6.349374 51.448866 1.840660 20.00000000
-20.062806 60.805109 -54.916684 20.00000000
-1.593943 44.297797 -5.531453 20.00000000
-46.227525 59.136813 -31.081258 20.00000000
-39.939688 61.554794 -24.832822 20.00000000
-4.024998 48.473349 -46.012857 20.00000000
0.420747 37.523500 2.741631 20.00000000
-0.454303 41.698080 -32.581105 20.00000000
-24.232629 62.027282 -29.914823 20.00000000
-1.095108 43.284222 -46.371133 20.00000000
-21.412768 61.284028 -29.982888 20.00000000
-39.848242 61.579116 -1.933991 20.00000000
-30.097665 62.740476 -1.542858 20.00000000
0.078491 40.145448 -0.085815 20.00000000
-40.352824 61.444912 -6.100289 20.00000000
0.161764 39.507513 -51.730587 20.00000000
0.045645 40.397077 -7.466657 20.00000000
-46.157260 59.169177 -13.736379 20.00000000
-44.633626 59.870949 -54.856789 20.00000000
-22.978479 61.700258 -11.342000 20.00000000
-42.864652 60.603229 -35.227655 20.00000000
-7.499372 52.722864 -20.838873 20.00000000
-17.429862 59.731193 -30.880643 20.00000000
-32.600116 62.734326 -5.262661 20.00000000
-43.782799 60.262832 -46.419358 20.00000000
-12.787477 57.127156 -53.913995 20.00000000
-22.601062 61.601845 -30.020934 20.00000000
-2.635669 46.264214 -18.439457 20.00000000
-38.819143 61.852826 -51.997280 20.00000000
-6.124851 51.190208 -13.535800 20.00000000
-0.437213 41.654217 -24.752840 20.00000000
-31.438609 62.737181 -48.099930 20.00000000
-29.199844 62.686862 -59.677574 20.00000000
0.837935 34.327515 -56.421809 20.00000000
-3.067649 46.979678 -21.836916 20.00000000
0.366506 37.939033 -45.456376 20.00000000
-40.888227 61.302511 1.941894 20.00000000
-40.932330 61.290780 -51.355289 20.00000000
0.888097 33.943232 -12.073033 20.00000000
-23.844429 61.926057 -52.926492 20.00000000
0.502213 36.899409 -11.452883 20.00000000
-37.124261 62.198800 0.824920 20.00000000
-7.354009 52.581882 -37.899030 20.00000000
-40.919203 61.294272 -29.137120 20.00000000
-41.189865 61.206594 -0.055511 20.00000000
-17.848381 59.921486 -43.853919 20.00000000
-36.657592 62.280874 -11.349084 20.00000000
-19.442130 60.584915 -46.337990 20.00000000
-40.833452 61.317079 -18.845243 20.00000000
-3.614168 47.884848 -59.144646 20.00000000
0.469827 37.147510 -4.215929 20.00000000
-2.557151 46.134168 -23.320338 20.00000000
-26.701421 62.449548 -33.388485 20.00000000
0.329633 38.221504 -21.731851 20.00000000
-0.427855 41.630199 -39.349884 20.00000000
-21.208142 61.211434 -7.780350 20.00000000
-6.767834 51.930946 -6.142722 20.00000000
-6.416288 51.525953 -22.259706 20.00000000
-11.972886 56.571753 3.633823 20.00000000
-27.342969 62.531632 -4.502754 20.00000000
-13.363446 57.519862 -28.962852 20.00000000
-45.376374 59.528846 -46.105590 20.00000000
-21.343051 61.259295 -59.807692 20.00000000
-34.550051 62.568582 -2.379237 20.00000000
-29.769999 62.734525 -42.382147 20.00000000
-10.692618 55.597920 -1.281188 20.00000000
-43.796765 60.256399 -10.251368 20.00000000
-12.658856 57.039460 -58.482652 20.00000000
0.069638 40.213269 -31.432948 20.00000000
-31.429592 62.737203 -2.485658 20.00000000
-4.252754 48.786358 -57.385143 20.00000000
-3.566390 47.805717 -2.261645 20.00000000
-20.472039 60.950290 -40.261672 20.00000000
-15.301350 58.660630 -46.185660 20.00000000
-46.239707 59.131203 -41.040267 20.00000000
-26.729706 62.454381 -26.320083 20.00000000
0.052481 40.344704 -46.692119 20.00000000
-0.732436 42.411942 -1.750365 20.00000000
-36.763565 62.262236 -18.640875 20.00000000
-24.206634 62.020503 -41.205718 20.00000000
-20.790972 61.063437 -28.570966 20.00000000
-45.183238 59.617803 -4.545352 20.00000000
-40.544598 61.393906 -60.283797 20.00000000
-26.400428 62.398111 -11.361271 20.00000000
-28.197628 62.603079 -55.854677 20.00000000
-32.896464 62.714927 -17.213476 20.00000000
-1.857368 44.833045 -21.010810 20.00000000
0.747586 35.019656 -52.260092 20.00000000
-0.330708 41.380861 -1.555678 20.00000000
-20.856389 61.086644 -12.134970 20.00000000
-17.544273 59.783214 1.948584 20.00000000
-4.637700 49.315394 -16.669408 20.00000000
-2.585993 46.181938 -40.600736 20.00000000
-25.059921 62.169035 -43.380003 20.00000000
-27.921311 62.579980 -26.236578 20.00000000
-1.792499 44.701238 -8.805981 20.00000000
-46.163955 59.166093 -18.039581 20.00000000
-3.673200 47.982619 -41.847563 20.00000000
-2.877435 46.664638 -37.497549 20.00000000
-13.871160 57.855798 -22.102139 20.00000000
-0.774868 42.520849 -46.259567 20.00000000
-30.827232 62.738683 -46.615286 20.00000000
-33.974564 62.619513 -11.254353 20.00000000
-34.567514 62.567036 -4.987287 20.00000000
-23.403463 61.811074 -8.378369 20.00000000
-27.709754 62.562294 -58.076960 20.00000000
-39.071901 61.785600 1.877687 20.00000000
0.421484 37.517853 -12.335231 20.00000000
-31.128552 62.737943 -45.621416 20.00000000
-3.388535 47.511144 -36.926887 20.00000000
0.801539 34.606339 -8.723952 20.00000000
-18.151097 60.059125 -55.699126 20.00000000
-44.572061 59.899305 -34.834937 20.00000000
-18.233432 60.096561 -36.492890 20.00000000
-36.627780 62.286117 -6.123111 20.00000000
-16.308440 59.221304 -8.404127 20.00000000
-21.741588 61.377734 -1.346281 20.00000000
-42.145254 60.862402 -40.019165 20.00000000
0.009659 40.507268 -33.563936 20.00000000
-5.020256 49.841145 -22.681069 20.00000000
-3.989653 48.424775 -19.686407 20.00000000
-16.641901 59.372922 -15.758730 20.00000000
-7.377330 52.604500 -2.067940 20.00000000
-37.767030 62.085755 -6.436131 20.00000000
-46.206937 59.146296 -22.582712 20.00000000
-38.287170 61.994277 -53.593131 20.00000000
-23.872073 61.933265 -40.450845 20.00000000
-44.059596 60.135342 -58.822139 20.00000000
-1.221804 43.541654 -55.555378 20.00000000
-10.160764 55.164064 -48.930493 20.00000000
-17.071083 59.568063 -1.505762 20.00000000
-20.624906 61.004522 -19.711917 20.00000000
-1.455725 44.016953 -11.510160 20.00000000
-9.227356 54.398768 -24.381718 20.00000000
-24.015916 61.970773 -38.860411 20.00000000
0.351370 38.054982 -46.963571 20.00000000
-16.910842 59.495205 -44.342232 20.00000000
-0.014591 40.569509 -28.615729 20.00000000
-17.102911 59.582535 -50.188076 20.00000000
-6.361457 51.462786 -9.530340 20.00000000
0.344023 38.111263 -1.230745 20.00000000
-19.636431 60.653846 -37.963854 20.00000000
-19.852183 60.730388 -51.043781 20.00000000
-33.155911 62.691965 -15.834957 20.00000000
-4.560098 49.208745 -19.733518 20.00000000
-8.653345 53.842057 -21.650671 20.00000000
-24.159564 62.008230 -0.781478 20.00000000
-31.979805 62.735851 -31.144210 20.00000000
-38.998471 61.805130 -43.826799 20.00000000
-27.419884 62.538062 -12.908319 20.00000000
-32.806602 62.722880 -58.640370 20.00000000
-2.486533 46.017207 -14.980872 20.00000000
-3.479830 47.662351 -53.970730 20.00000000
-6.115609 51.179561 3.799812 20.00000000
0.098461 39.992459 -2.875438 20.00000000
-13.769584 57.796775 -26.830609 20.00000000
-2.582444 46.176059 0.311423 20.00000000
-1.481551 44.069429 -59.034587 20.00000000
0.567576 36.398679 -31.558149 20.00000000
-2.927322 46.747262 -9.402853 20.00000000
-28.860538 62.658497 3.797104 20.00000000
-16.684549 59.392313 -30.555153 20.00000000
-31.867718 62.736126 -7.034304 20.00000000
-4.604399 49.269628 -2.442969 20.00000000
-5.535642 50.511419 -27.914356 20.00000000
-5.832586 50.853509 -49.387347 20.00000000
-37.853111 62.070616 -55.261659 20.00000000
-38.746259 61.872211 -50.249763 20.00000000
-17.924775 59.956221 -39.718111 20.00000000
-22.025061 61.451651 -45.680638 20.00000000
-6.899551 52.082688 -21.597114 20.00000000
-31.197582 62.737773 -34.945595 20.00000000
-7.354170 52.582038 -19.418015 20.00000000
0.282392 38.583411 -31.920954 20.00000000
0.739899 35.078544 -4.259814 20.00000000
-1.791162 44.698522 -24.159768 20.00000000
0.172809 39.422899 -34.599701 20.00000000
-16.910140 59.494886 -34.310101 20.00000000
-0.466815 41.730195 -41.718317 20.00000000
-34.712642 62.554192 -35.657871 20.00000000
-26.799950 62.466385 -36.110480 20.00000000
-2.594245 46.195605 -55.992015 20.00000000
-0.846235 42.704021 -28.218519 20.00000000
-12.067773 56.636448 -14.760901 20.00000000
-21.248285 61.225675 -13.675723 20.00000000
-37.459016 62.139926 -3.412875 20.00000000
-43.786234 60.261250 2.327117 20.00000000
-44.880434 59.757271 -31.172450 20.00000000
-4.784127 49.516631 -34.364048 20.00000000
-33.203513 62.687753 -13.957068 20.00000000
-1.334240 43.770111 -50.899691 20.00000000
-44.058203 60.135983 -37.898007 20.00000000
0.523386 36.737203 -47.099673 20.00000000
-25.346328 62.217978 -20.197332 20.00000000
-17.709947 59.858543 -29.598329 20.00000000
-10.334069 55.305437 -20.714326 20.00000000
-17.542157 59.782252 -45.009945 20.00000000
-24.801123 62.124809 -28.100325 20.00000000
-27.297717 62.527849 -11.125753 20.00000000
0.775897 34.802775 -46.305528 20.00000000
-30.677085 62.739052 -29.198764 20.00000000
-23.747134 61.900687 -49.043852 20.00000000
-27.252877 62.524100 3.479638 20.00000000
-42.834730 60.614009 -56.647179 20.00000000
-34.323809 62.588604 -3.199354 20.00000000
-16.767183 59.429886 -0.293613 20.00000000
-11.725152 56.402843 -6.365535 20.00000000
-17.240678 59.645175 -54.079062 20.00000000
-1.293109 43.686538 -58.008781 20.00000000
-20.185426 60.848611 -31.560277 20.00000000
-42.060446 60.892955 -28.505814 20.00000000
-3.904573 48.307848 3.820780 20.00000000
-32.212797 62.735278 -0.664164 20.00000000
-11.868836 56.500809 -27.407497 20.00000000
0.642273 35.826440 -43.897462 20.00000000
0.547935 36.549141 2.701968 20.00000000
-3.792425 48.153722 -50.420593 20.00000000
-30.453853 62.739601 1.971406 20.00000000
-22.466301 61.566706 -54.996970 20.00000000
-19.367738 60.558524 -4.851908 20.00000000
-0.772235 42.514090 -55.935720 20.00000000
0.053247 40.338839 -58.881346 20.00000000
-22.419451 61.554489 -52.863532 20.00000000
-17.346812 59.693432 0.301119 20.00000000
-8.553363 53.745089 -11.733960 20.00000000
-35.450989 62.488847 -15.616545 20.00000000
-13.885513 57.863875 -17.856407 20.00000000
-11.707526 56.390825 -34.165033 20.00000000
-16.262384 59.200363 -12.560811 20.00000000
-36.531784 62.303000 -54.315206 20.00000000
-23.069091 61.723885 -44.758186 20.00000000
-5.797254 50.812806 -57.708314 20.00000000
-44.481287 59.941115 -47.654576 20.00000000
-33.869883 62.628778 -21.804422 20.00000000
-43.080827 60.525349 -26.781344 20.00000000
-1.383017 43.869219 -37.876499 20.00000000
-9.284167 54.448987 -4.862250 20.00000000
-6.701192 51.854173 -31.625919 20.00000000
-24.130306 62.000600 -1.647994 20.00000000
-22.185816 61.493568 -60.184257 20.00000000
0.318436 38.307281 -3.629720 20.00000000
-14.217989 58.050974 -25.367189 20.00000000
-0.853527 42.722736 1.981160 20.00000000
-18.022927 60.000849 -3.071331 20.00000000
-0.167624 40.962286 -10.473741 20.00000000
-5.038281 49.865918 -12.197734 20.00000000
-0.970851 43.023862 -50.758077 20.00000000
-16.838926 59.462506 -59.319862 20.00000000
-10.569927 55.497835 -17.359604 20.00000000
-39.083103 61.782621 -5.718504 20.00000000
-15.884691 58.988902 -51.656430 20.00000000
0.200514 39.210661 -2.340531 20.00000000
-27.081774 62.509797 -28.056888 20.00000000
-8.134946 53.339283 -45.147200 20.00000000
-43.330825 60.435284 -30.535625 20.00000000
-7.340788 52.569060 -32.190792 20.00000000
-40.658908 61.363503 -57.629013 20.00000000
-39.124679 61.771563 -35.989865 20.00000000
-7.934786 53.145155 -30.189802 20.00000000
0.708158 35.321710 -29.935401 20.00000000
-15.927370 59.012920 -9.423959 20.00000000
-2.137053 45.401331 -57.423948 20.00000000
-44.840900 59.775480 -6.917212 20.00000000
0.471749 37.132789 -2.321937 20.00000000
-38.856656 61.842849 3.729992 20.00000000
-35.615665 62.464119 -8.382550 20.00000000
-31.301138 62.737519 -35.995201 20.00000000
0.865714 34.114704 -58.506609 20.00000000
-30.397833 62.739739 0.197938 20.00000000
0.402134 37.666094 -36.781491 20.00000000
-11.461251 56.222911 -19.538973 20.00000000
-4.103211 48.580839 -42.430211 20.00000000
0.732029 35.138834 -28.525560 20.00000000
-20.518630 60.966819 -16.400104 20.00000000
-14.619791 58.277086 -2.969847 20.00000000
-22.737934 61.637535 -43.830569 20.00000000
0.301916 38.433842 -56.825436 20.00000000
-40.338419 61.448743 -15.551229 20.00000000
-23.468777 61.828105 -31.431999 20.00000000
-42.158514 60.857625 -22.942650 20.00000000
-27.189166 62.518774 -8.267146 20.00000000
-3.877218 48.270253 -34.675931 20.00000000
-12.229734 56.746876 -43.705178 20.00000000
-25.951510 62.321397 -60.156865 20.00000000
-32.869042 62.717354 -37.234147 20.00000000
-43.782870 60.262799 -32.134553 20.00000000
-16.650010 59.376609 -16.597299 20.00000000
-27.764200 62.566846 -39.735085 20.00000000
-11.230116 56.036380 -54.371981 20.00000000
-7.822619 53.036369 -29.175520 20.00000000
-1.875323 44.869527 -45.695846 20.00000000
-22.395339 61.548202 -23.472183 20.00000000
-2.851655 46.621939 -19.539833 20.00000000
-40.041788 61.527639 -32.227780 20.00000000
0.167678 39.462205 -31.225557 20.00000000
0.394960 37.721050 -34.055020 20.00000000
-41.220083 61.195707 -16.514574 20.00000000
-36.418216 62.322973 -29.039356 20.00000000
-15.720706 58.896621 -7.844054 20.00000000
-41.496021 61.096297 -46.134820 20.00000000
-44.815295 59.787274 -22.168622 20.00000000
-43.710062 60.296334 -25.882738 20.00000000
-37.747802 62.089136 -10.707119 20.00000000
-2.652356 46.291851 -53.785051 20.00000000
-17.295266 59.669995 -25.011448 20.00000000
-18.387218 60.166485 -20.234367 20.00000000
-7.890671 53.102370 -16.664494 20.00000000
-31.219503 62.737719 -55.046864 20.00000000
-41.264263 61.179791 -23.461050 20.00000000
-20.235469 60.866364 -50.266550 20.00000000
-36.478169 62.312429 -27.543220 20.00000000
-45.056089 59.676366 -38.011585 20.00000000
-30.880508 62.738552 3.820891 20.00000000
-0.499582 41.814294 -15.471494 20.00000000
-27.733425 62.564273 -7.713963 20.00000000
-5.294472 50.218004 -13.825835 20.00000000
-9.329803 54.486214 -36.760173 20.00000000
-28.986110 62.668994 -29.828960 20.00000000
0.517893 36.779286 -56.739494 20.00000000
-19.144636 60.479375 -55.784239 20.00000000
-3.537767 47.758309 -15.291067 20.00000000
-35.065237 62.522987 -9.645656 20.00000000
-25.524576 62.248439 -6.031035 20.00000000
-17.712459 59.859685 -43.077729 20.00000000
-34.925942 62.535315 -19.895319 20.00000000
-43.240325 60.467888 -14.830606 20.00000000
-35.578005 62.470743 -19.322239 20.00000000
0.655004 35.728909 -25.783652 20.00000000
-22.182899 61.492808 2.127994 20.00000000
-17.988660 59.985268 -15.265779 20.00000000
-9.118725 54.293411 -38.966469 20.00000000
-0.381340 41.510812 -21.333129 20.00000000
-16.956942 59.516165 -28.242898 20.00000000
-42.251433 60.824149 -43.211365 20.00000000
-17.737605 59.871118 -37.189965 20.00000000
-22.339477 61.533636 -28.083494 20.00000000
-0.441551 41.665351 -43.014118 20.00000000
-2.250967 45.627052 -48.089935 20.00000000
-34.432672 62.578970 -56.637277 20.00000000
-0.624267 42.134315 -25.888117 20.00000000
0.595989 36.181010 -30.485918 20.00000000
0.266246 38.707103 -38.147751 20.00000000
-15.758254 58.917751 -25.024800 20.00000000
-20.370465 60.914256 -25.739703 20.00000000
-14.120010 57.995837 -10.991712 20.00000000
-3.473201 47.651372 -23.533272 20.00000000
-35.894567 62.415068 -12.463698 20.00000000
-3.937302 48.352828 -5.814193 20.00000000
-12.714686 57.077525 -13.384638 20.00000000
-24.280248 62.035798 3.406886 20.00000000
-8.504221 53.697428 -15.035282 20.00000000
-1.471449 44.048903 -17.026416 20.00000000
-11.054006 55.892720 -57.266800 20.00000000
-6.079834 51.138347 -27.435974 20.00000000
-0.064853 40.698510 -58.053325 20.00000000
-33.585551 62.653941 -47.737518 20.00000000
-21.702874 61.367640 -18.385264 20.00000000
-0.679488 42.276045 -45.033488 20.00000000
-22.711228 61.630571 -30.986314 20.00000000
-6.217489 51.296930 -28.485710 20.00000000
-35.342869 62.498416 -13.838022 20.00000000
-0.076399 40.728145 -26.531748 20.00000000
-35.951486 62.405058 -22.344740 20.00000000
-11.107213 55.936123 3.578890 20.00000000
-15.248395 58.630830 -12.974150 20.00000000
-18.339973 60.145004 2.154694 20.00000000
-1.776530 44.668792 -3.796801 20.00000000
-22.065368 61.462161 -9.796174 20.00000000
-7.051710 52.257981 -24.389246 20.00000000
-34.457121 62.576806 -54.162957 20.00000000
-1.748131 44.611089 -14.339595 20.00000000
-4.789662 49.524237 -6.537000 20.00000000
-12.490006 56.924335 -2.851056 20.00000000
-8.664182 53.852568 -33.232489 20.00000000
-2.444936 45.948312 -33.138080 20.00000000
-5.868710 50.895126 -24.372489 20.00000000
-18.099320 60.035583 3.221369 20.00000000
-0.159463 40.941339 -8.307989 20.00000000
-33.446043 62.666288 -39.703043 20.00000000
-1.929086 44.978768 -59.147557 20.00000000
-5.382545 50.335047 -5.940996 20.00000000
-1.931276 44.983219 -22.089321 20.00000000
-2.652324 46.291799 -58.670317 20.00000000
-38.639159 61.900697 -11.037583 20.00000000
-36.411378 62.324176 -37.945029 20.00000000
-3.555249 47.787264 -13.880054 20.00000000
-44.767769 59.809164 -3.047390 20.00000000
-13.490395 57.606419 -9.361008 20.00000000
-0.484796 41.776344 -11.058154 20.00000000
-4.705108 49.408033 -23.291952 20.00000000
0.718546 35.242128 -42.896341 20.00000000
-6.000877 51.047386 -12.575401 20.00000000
-14.896093 58.432574 -11.152129 20.00000000
-14.748807 58.349690 -59.607278 20.00000000
-39.427743 61.690956 -57.543322 20.00000000
-10.891849 55.760441 -34.984849 20.00000000
-34.214035 62.598320 -46.883909 20.00000000
-36.951363 62.229208 -43.382066 20.00000000
0.626341 35.948491 -46.543196 20.00000000
-37.533019 62.126911 -58.840051 20.00000000
-17.338928 59.689847 3.080765 20.00000000
-5.003166 49.817658 -54.102550 20.00000000
-8.547990 53.739878 -46.500834 20.00000000
-36.324894 62.339386 -49.743935 20.00000000
-10.027553 55.055398 -38.024130 20.00000000
-2.468002 45.986517 -6.542611 20.00000000
-37.314976 62.165258 -38.733250 20.00000000
0.689326 35.465978 -53.959884 20.00000000
-16.474135 59.296642 3.857140 20.00000000
-11.527169 56.267854 -25.161932 20.00000000
-12.528952 56.950889 -5.871053 20.00000000
0.776487 34.798255 -29.365176 20.00000000
-8.270826 53.471068 -25.825684 20.00000000
-4.638882 49.317018 -32.516901 20.00000000
-7.927984 53.138559 -58.877124 20.00000000
-8.323982 53.522621 3.328844 20.00000000
-37.388116 62.152395 -35.558245 20.00000000
-13.884058 57.863056 -23.219755 20.00000000
-34.906974 62.536993 -52.194837 20.00000000
-0.418898 41.607211 -55.699474 20.00000000
-19.891215 60.744235 -17.107245 20.00000000
-4.136250 48.626244 -11.686269 20.00000000
-42.494461 60.736595 -17.592086 20.00000000
-25.119278 62.179178 -17.421902 20.00000000
-20.709513 61.034538 -39.406506 20.00000000
-25.371983 62.222362 -15.814575 20.00000000
-0.756104 42.472688 -32.567931 20.00000000
-17.175161 59.615386 -21.730474 20.00000000
-22.703171 61.628470 -49.045958 20.00000000
-45.681193 59.388449 2.178209 20.00000000
-41.936040 60.937774 -10.288400 20.00000000
-8.902019 54.083237 -45.692802 20.00000000
-24.992611 62.157532 -57.460228 20.00000000
-15.840198 58.963864 -43.689417 20.00000000
-14.091140 57.979590 -10.043953 20.00000000
0.474112 37.114685 -60.902672 20.00000000
-34.736732 62.552060 -34.773060 20.00000000
-32.945203 62.710613 -51.979039 20.00000000
-10.763506 55.655746 -50.608919 20.00000000
-25.875678 62.308438 -43.609627 20.00000000
-43.203463 60.481168 -41.853807 20.00000000
-4.697536 49.397627 -44.120108 20.00000000
-8.939634 54.119718 -26.228565 20.00000000
-42.929825 60.579750 -52.086443 20.00000000
0.549818 36.534719 -32.934929 20.00000000
-27.399017 62.536317 -43.619757 20.00000000
-11.013464 55.859647 -28.201026 20.00000000
-40.650014 61.365868 -40.906689 20.00000000
0.690123 35.459873 -0.567303 20.00000000
-10.426397 55.380752 -42.712810 20.00000000
-0.543556 41.927159 -20.494107 20.00000000
0.661477 35.679322 -2.313170 20.00000000
-6.463395 51.580222 -54.360173 20.00000000
-3.757579 48.105832 -1.228401 20.00000000
0.246023 38.862023 -53.961345 20.00000000
-46.151440 59.171858 -25.201270 20.00000000
-24.044832 61.978313 -6.672823 20.00000000
-14.317961 58.107233 -11.759126 20.00000000
-22.384854 61.545468 -33.094402 20.00000000
0.073492 40.183748 -45.247571 20.00000000
-36.480372 62.312042 -42.586681 20.00000000
-5.793845 50.808878 -36.364157 20.00000000
-36.849351 62.247149 -24.095462 20.00000000
0.128276 39.764057 -36.907607 20.00000000
-33.753707 62.639059 -15.318523 20.00000000
-44.045074 60.142030 0.172473 20.00000000
-8.878188 54.060124 -35.180214 20.00000000
-2.451913 45.959868 -28.459245 20.00000000
-6.319181 51.414083 -40.120064 20.00000000
-0.129181 40.863618 -12.019015 20.00000000
-33.898628 62.626234 -5.379762 20.00000000
-16.108538 59.114871 -4.840074 20.00000000
-27.797238 62.569608 1.267514 20.00000000
-22.570567 61.593893 -26.883152 20.00000000
-41.373452 61.140454 -41.882297 20.00000000
-14.283636 58.087917 -36.851353 20.00000000
-15.178028 58.591231 -23.990413 20.00000000
-38.371456 61.971898 -21.059406 20.00000000
-36.143141 62.371351 -43.461454 20.00000000
-14.955431 58.465966 -42.792447 20.00000000
-8.444069 53.639089 -9.231257 20.00000000
-5.482514 50.450215 -54.305785 20.00000000
-13.860156 57.849606 -48.738044 20.00000000
-6.088206 51.147992 0.321393 20.00000000
