-54.235963 49.664741 4.481900 2.00000000
-67.630555 15.382666 5.304087 2.00000000
37.548556 -62.148411 6.004782 2.00000000
45.709124 -57.836936 5.689680 2.00000000
74.327234 -26.052327 5.875769 2.00000000
-28.317079 -60.124571 4.943726 2.00000000
-32.671559 69.823094 5.580470 2.00000000
-43.615698 -49.405820 4.786383 2.00000000
-19.871432 -63.937609 5.673441 2.00000000
23.275885 79.163438 4.393123 2.00000000
-43.818571 -49.215021 6.044481 2.00000000
81.578386 5.259044 6.782184 2.00000000
39.204090 73.567143 6.109965 2.00000000
-6.429642 79.840171 5.205646 2.00000000
15.844962 80.430560 5.461480 2.00000000
75.845109 34.870288 4.958810 2.00000000
12.852908 80.751183 5.862344 2.00000000
3.477818 80.937352 5.808600 2.00000000
-43.858207 -49.177743 6.740297 2.00000000
80.252076 20.134343 3.921789 2.00000000
-24.408939 -62.041247 4.565932 2.00000000
8.436082 80.990914 5.620314 2.00000000
80.311717 19.820413 6.032515 2.00000000
67.379898 49.976299 4.647393 2.00000000
52.159763 -53.437511 4.592140 2.00000000
69.876261 -34.100367 4.772888 2.00000000
53.258812 -52.570584 4.484102 2.00000000
-60.513508 -26.996126 6.712459 2.00000000
-63.926549 31.132959 6.581020 2.00000000
-61.934694 -23.969998 6.009941 2.00000000
-29.108604 71.885433 4.622588 2.00000000
17.644321 80.201867 5.507416 2.00000000
79.005669 25.585203 5.748997 2.00000000
24.423810 78.867781 6.701092 2.00000000
21.019120 -67.411300 4.641113 2.00000000
73.432406 40.143036 6.783058 2.00000000
-46.004091 59.362885 5.888040 2.00000000
66.127760 51.702448 5.183351 2.00000000
78.503882 -15.232305 4.814360 2.00000000
4.302624 80.988613 6.766254 2.00000000
67.720855 49.506268 3.889625 2.00000000
-53.510010 -38.466708 6.826666 2.00000000
10.358065 80.910045 6.810869 2.00000000
78.534766 27.324988 4.240122 2.00000000
51.196555 -54.136191 4.598796 2.00000000
13.667716 -68.505373 4.579809 2.00000000
-2.259653 80.457117 4.607440 2.00000000
-64.730343 28.665487 4.534949 2.00000000
12.274043 80.788043 4.006588 2.00000000
-52.853139 -39.372267 6.721737 2.00000000
-66.327113 22.891543 5.213518 2.00000000
49.683621 67.433426 5.368623 2.00000000
-20.083759 -63.853358 6.108431 2.00000000
-36.676552 -54.971245 5.345803 2.00000000
-0.405680 80.689898 6.504786 2.00000000
49.557847 -55.324869 6.252632 2.00000000
-34.398712 -56.529460 4.378197 2.00000000
48.857182 -55.833109 3.914077 2.00000000
21.303137 79.553814 6.717056 2.00000000
-66.697955 21.090548 6.011476 2.00000000
3.708075 80.951662 5.367260 2.00000000
71.676331 -31.141533 4.414460 2.00000000
33.570097 -63.806400 5.509085 2.00000000
-41.801275 -50.988194 6.869678 2.00000000
81.373863 0.495116 3.909150 2.00000000
55.776623 -50.490838 5.485571 2.00000000
78.794624 -14.201854 4.043058 2.00000000
79.074130 -13.116668 5.853088 2.00000000
61.390244 -45.052807 4.575098 2.00000000
39.332124 -61.310772 4.652775 2.00000000
61.102191 -45.359085 6.870362 2.00000000
47.337594 69.001505 6.824208 2.00000000
-53.261628 -38.809127 5.993736 2.00000000
12.382612 80.781129 5.681708 2.00000000
-7.062130 79.720015 6.503337 2.00000000
-8.276356 79.489345 5.120332 2.00000000
-47.942260 57.332096 4.662278 2.00000000
4.761990 -68.793396 6.052748 2.00000000
-29.481059 -59.483513 5.632579 2.00000000
40.272465 73.063421 5.687474 2.00000000
47.758569 -56.538489 4.546995 2.00000000
80.046492 -9.010242 5.546458 2.00000000
-18.399503 -64.496787 6.716280 2.00000000
45.410925 70.226254 4.233906 2.00000000
33.226141 76.141438 4.841048 2.00000000
15.171891 -68.317325 4.637942 2.00000000
42.197234 -59.842984 4.780148 2.00000000
81.462364 10.300550 5.474256 2.00000000
-68.045988 1.165929 4.638707 2.00000000
-59.526523 -28.920447 4.961423 2.00000000
75.217073 36.356016 5.602449 2.00000000
19.027953 79.989618 5.807836 2.00000000
-28.125649 72.424843 3.955662 2.00000000
-3.246737 -68.134960 5.492008 2.00000000
7.207053 80.991838 6.069063 2.00000000
78.504027 27.419837 4.700820 2.00000000
69.449728 46.971235 6.182208 2.00000000
-20.983548 75.693903 4.497957 2.00000000
13.788347 80.691617 5.224814 2.00000000
81.055556 -2.760012 6.217825 2.00000000
58.784327 59.912507 5.666637 2.00000000
19.865885 -67.630384 5.740997 2.00000000
30.559983 77.088514 4.485472 2.00000000
-39.899277 64.758529 6.299508 2.00000000
77.176647 31.499727 4.382824 2.00000000
81.048378 15.008251 5.909677 2.00000000
78.969313 -13.523623 6.572242 2.00000000
77.396124 30.838413 6.813641 2.00000000
58.137409 -48.324030 5.548340 2.00000000
-43.456290 -49.555741 3.886150 2.00000000
-64.594557 -16.884149 4.425887 2.00000000
45.087174 -58.230984 6.656277 2.00000000
70.881940 -32.518319 5.227007 2.00000000
61.397123 57.242511 6.643210 2.00000000
75.866203 -22.614457 6.046038 2.00000000
-67.591265 -3.497047 3.910476 2.00000000
-51.930520 52.739906 5.852564 2.00000000
42.601312 -59.621241 5.264365 2.00000000
-40.932760 -51.707795 5.493670 2.00000000
49.346614 -55.478092 4.186448 2.00000000
79.472922 23.759608 5.461923 2.00000000
-58.374591 -31.019559 4.472124 2.00000000
-40.087837 64.602777 6.776597 2.00000000
76.241154 -21.669537 3.975691 2.00000000
-62.226314 -23.300227 6.868820 2.00000000
-67.762591 -2.132590 4.122467 2.00000000
-54.107086 -37.643583 6.853359 2.00000000
59.216429 59.506120 4.873665 2.00000000
-36.192712 67.518041 5.877416 2.00000000
-57.555525 44.645658 4.813843 2.00000000
77.538363 -18.196238 4.415886 2.00000000
28.558573 77.740517 5.207411 2.00000000
15.904027 -68.225400 6.382153 2.00000000
-47.431772 -45.685652 4.181295 2.00000000
4.785670 -68.793414 3.903970 2.00000000
79.212862 -12.578039 6.153629 2.00000000
17.221074 80.255660 4.314668 2.00000000
-51.205217 53.615302 4.998256 2.00000000
-66.060711 23.925854 4.851699 2.00000000
79.835005 -10.114391 3.969486 2.00000000
-64.657483 28.889149 5.646443 2.00000000
-67.217141 -6.168190 4.053187 2.00000000
3.158508 80.917507 4.669726 2.00000000
-60.264397 39.717102 3.883844 2.00000000
67.005443 -38.293900 4.081756 2.00000000
11.910821 80.811171 4.398768 2.00000000
68.531793 48.388296 6.696261 2.00000000
49.657986 -55.252232 5.665558 2.00000000
9.179367 80.985100 4.115526 2.00000000
0.406648 80.746478 5.121002 2.00000000
-22.837086 -62.760838 4.550352 2.00000000
-59.479554 -29.006037 6.047492 2.00000000
-11.744068 -66.492334 6.787327 2.00000000
66.465239 -39.036242 5.336562 2.00000000
-39.453427 -52.933483 5.252640 2.00000000
17.923335 -67.971861 4.065686 2.00000000
20.824353 -67.448300 5.186236 2.00000000
76.286919 -21.554205 6.831391 2.00000000
54.818342 -51.282390 5.925462 2.00000000
37.458992 74.389928 3.885461 2.00000000
-64.688140 28.795042 6.856002 2.00000000
76.873737 32.266492 4.443631 2.00000000
53.908884 64.232305 6.846076 2.00000000
-58.765544 -30.307144 4.093064 2.00000000
-41.610614 63.344954 5.185448 2.00000000
-26.480078 73.264453 5.925876 2.00000000
-68.179726 3.317791 4.104385 2.00000000
-37.960708 -54.036751 6.787791 2.00000000
-67.293017 17.983914 4.482476 2.00000000
-51.077620 -41.571707 6.259974 2.00000000
-32.049077 -58.023069 4.090958 2.00000000
-15.559563 -65.421914 3.929464 2.00000000
17.410659 80.231564 6.651268 2.00000000
65.216940 -40.644531 3.886727 2.00000000
59.263027 -47.271399 4.831771 2.00000000
-34.865030 -56.233032 6.208679 2.00000000
61.950645 56.652180 4.838695 2.00000000
81.577250 3.761359 5.852250 2.00000000
79.962028 21.661060 6.767772 2.00000000
-40.044813 64.638315 5.506398 2.00000000
-47.318355 -45.800433 4.748300 2.00000000
64.798922 -41.149052 4.986873 2.00000000
-44.651859 60.628872 5.420882 2.00000000
-54.044169 49.928305 6.848748 2.00000000
23.515298 79.101775 3.923092 2.00000000
68.174442 -36.687476 6.115708 2.00000000
-52.912115 51.483978 3.940950 2.00000000
-64.980811 -15.692312 5.439536 2.00000000
-18.908481 76.513666 6.646979 2.00000000
80.513266 18.759522 5.333326 2.00000000
-56.794308 -33.644465 4.701001 2.00000000
81.337993 -0.068198 4.638625 2.00000000
75.571519 -23.357097 4.051435 2.00000000
80.126678 20.794400 6.246082 2.00000000
-47.214622 58.105765 6.224701 2.00000000
-24.359724 -62.064451 5.341263 2.00000000
-17.446769 -64.807146 6.453935 2.00000000
-35.606315 -55.750067 4.324163 2.00000000
-50.227183 54.795729 6.218142 2.00000000
-18.674974 76.605914 4.029325 2.00000000
-53.534361 50.628885 3.883809 2.00000000
21.832663 -67.256748 6.107179 2.00000000
76.341891 33.612769 6.260699 2.00000000
-6.020178 -67.722662 4.569631 2.00000000
-30.394181 71.179955 5.216306 2.00000000
-26.981854 73.028797 5.057399 2.00000000
-67.835345 13.771386 3.968894 2.00000000
29.907576 77.301050 6.849916 2.00000000
-40.327917 64.404470 5.966658 2.00000000
-67.202706 18.455400 4.673363 2.00000000
-63.050147 33.413393 6.871370 2.00000000
67.400182 -37.751454 3.938012 2.00000000
-35.007477 -56.142482 5.644303 2.00000000
56.577061 -49.787052 4.505127 2.00000000
-35.381112 -55.904971 5.294857 2.00000000
-54.081905 -37.678297 6.330143 2.00000000
63.263614 55.203664 4.479785 2.00000000
-64.476340 29.445219 5.862823 2.00000000
71.430875 -31.587214 4.797917 2.00000000
77.769798 -17.485784 4.366189 2.00000000
54.922778 63.392252 5.659663 2.00000000
39.333463 -61.310143 5.742222 2.00000000
68.753335 48.070416 6.362027 2.00000000
75.515467 -23.498356 6.773602 2.00000000
-66.208968 23.350245 6.670113 2.00000000
70.000720 46.101556 5.413991 2.00000000
18.224863 80.128081 4.836611 2.00000000
-63.733315 31.691731 4.833547 2.00000000
52.666613 65.261578 4.486685 2.00000000
51.122259 -54.190093 5.266608 2.00000000
-53.800133 -38.066746 6.402398 2.00000000
-24.193897 -62.142635 6.876166 2.00000000
24.589640 -66.626517 6.190450 2.00000000
0.390748 -68.545690 4.154284 2.00000000
55.485628 -50.731205 4.943921 2.00000000
-7.617869 79.614440 6.813618 2.00000000
43.844562 71.134262 5.971287 2.00000000
-45.482040 59.856352 5.714817 2.00000000
50.955244 66.508053 6.752071 2.00000000
-13.198061 -66.117826 5.172517 2.00000000
43.992562 -58.857774 4.585128 2.00000000
57.816770 -48.624679 5.236374 2.00000000
-58.109924 -31.501850 3.971410 2.00000000
27.123008 78.172580 6.208253 2.00000000
50.389283 -54.721772 6.466976 2.00000000
68.546022 -36.176854 6.438945 2.00000000
34.547629 75.617072 4.853628 2.00000000
-20.943203 -63.512331 6.739866 2.00000000
25.586494 -66.371376 6.308938 2.00000000
-67.907204 -0.980881 5.086379 2.00000000
27.191114 -65.960680 6.305123 2.00000000
-67.308874 17.901132 3.996000 2.00000000
80.743972 -5.211478 4.787250 2.00000000
-45.550538 59.786220 6.873921 2.00000000
12.569499 80.769229 4.564510 2.00000000
70.932456 -32.438851 6.733216 2.00000000
58.528849 60.152780 6.812194 2.00000000
-67.751290 14.432731 5.632367 2.00000000
73.125941 -28.509434 5.625241 2.00000000
45.466828 70.190718 5.525037 2.00000000
-20.667271 -63.621821 6.202602 2.00000000
-22.466076 -62.908055 4.966325 2.00000000
63.136473 -43.155525 3.898433 2.00000000
81.578183 4.992362 5.073569 2.00000000
73.758220 39.462303 5.976147 2.00000000
-39.379170 -52.995008 4.142996 2.00000000
-44.833069 -48.260899 6.802372 2.00000000
16.148440 -68.194712 4.822393 2.00000000
71.560444 43.554272 6.343945 2.00000000
-61.811347 -24.232640 6.816376 2.00000000
-67.515935 -4.096981 4.991584 2.00000000
79.431064 23.923152 5.022741 2.00000000
79.459000 -11.622406 4.314833 2.00000000
48.086140 -56.330947 5.514302 2.00000000
73.638098 -27.513927 5.904565 2.00000000
-64.493123 -17.197137 5.483815 2.00000000
40.954608 72.725885 5.239957 2.00000000
25.547193 78.578444 5.537230 2.00000000
-3.548185 80.295332 5.861680 2.00000000
1.758627 -68.632791 5.367460 2.00000000
64.800238 53.343324 3.924193 2.00000000
20.836366 79.643223 5.910361 2.00000000
55.855955 62.619077 5.037095 2.00000000
23.726381 79.047409 5.364113 2.00000000
39.907977 -61.040328 5.201482 2.00000000
-67.455233 -4.580419 5.916768 2.00000000
72.416694 -29.797233 6.374525 2.00000000
-33.327006 69.407834 5.017305 2.00000000
-24.774471 -61.868904 5.029427 2.00000000
-15.978872 77.481952 5.468630 2.00000000
13.082507 -68.541744 5.379945 2.00000000
30.113364 -65.037121 5.094835 2.00000000
-37.006283 -54.731296 6.342249 2.00000000
-42.799405 62.363005 5.831762 2.00000000
74.027334 -26.688390 4.403554 2.00000000
-63.564464 32.117254 5.232243 2.00000000
30.716620 -64.841616 5.457031 2.00000000
-46.723242 -46.434731 6.290169 2.00000000
-14.565952 77.939856 6.747981 2.00000000
-59.145515 -29.614741 6.812443 2.00000000
7.130317 80.991896 6.876585 2.00000000
2.201706 -68.661005 3.908535 2.00000000
79.216176 -12.565172 4.223899 2.00000000
81.374707 0.508357 4.484742 2.00000000
-3.292651 80.327416 6.334704 2.00000000
-32.937185 69.654812 4.648846 2.00000000
74.498998 -25.688030 5.414161 2.00000000
-6.713368 -67.589883 6.199106 2.00000000
27.995448 -65.723501 5.871402 2.00000000
38.600217 73.851859 4.335386 2.00000000
-4.018216 80.236316 6.083390 2.00000000
-32.366687 -57.821172 6.232940 2.00000000
-57.251909 -32.922175 5.356620 2.00000000
12.539083 80.771166 6.652374 2.00000000
76.061941 -22.121176 3.959615 2.00000000
23.803878 -66.827630 5.397359 2.00000000
80.325932 19.745589 4.266275 2.00000000
4.350660 80.991599 6.257379 2.00000000
16.337974 -68.170915 5.878198 2.00000000
-62.021481 -23.785201 5.556056 2.00000000
69.167853 -35.214773 4.017615 2.00000000
-56.845843 45.762055 5.411858 2.00000000
-17.508104 76.986354 5.623811 2.00000000
31.233969 76.868949 6.062061 2.00000000
19.884227 79.825602 6.330662 2.00000000
-59.075476 41.940621 6.425593 2.00000000
-53.619630 -38.315586 5.947418 2.00000000
-29.238180 -59.617277 4.586400 2.00000000
54.444895 -51.590862 5.716773 2.00000000
-65.085256 -15.370034 5.793671 2.00000000
-26.332954 -61.134105 3.990147 2.00000000
-57.483459 -32.556686 5.554115 2.00000000
-19.712097 76.196195 5.727353 2.00000000
-67.459088 16.731758 5.072857 2.00000000
68.786718 48.017727 5.005859 2.00000000
78.289186 -15.891375 3.984400 2.00000000
17.904019 -67.974287 5.330341 2.00000000
-68.140194 2.681718 4.160910 2.00000000
56.154824 62.371451 4.680334 2.00000000
80.604451 18.279556 5.343094 2.00000000
-59.911772 40.422113 3.989865 2.00000000
-46.736880 -46.420306 4.237092 2.00000000
61.612919 -44.816044 4.908404 2.00000000
57.404432 -49.011284 6.151801 2.00000000
-1.114719 -68.405935 5.499558 2.00000000
68.728727 48.109256 4.433535 2.00000000
75.903993 34.721233 4.315541 2.00000000
8.389200 -68.796124 3.925776 2.00000000
65.217612 52.838020 3.919674 2.00000000
0.250806 -68.536779 6.763542 2.00000000
48.056850 68.544287 6.250868 2.00000000
71.825408 -30.870848 6.768141 2.00000000
69.322958 -34.970774 6.115956 2.00000000
62.282664 -44.103924 6.311715 2.00000000
81.402872 0.950672 6.831819 2.00000000
-16.746456 -65.035277 4.689545 2.00000000
40.524555 72.944565 6.538433 2.00000000
-0.516969 -68.481907 5.267753 2.00000000
42.445297 -59.706856 6.318942 2.00000000
21.850433 -67.253373 5.596791 2.00000000
64.791974 53.353325 5.060265 2.00000000
81.265130 -1.111136 4.762970 2.00000000
-67.705070 14.796385 3.902157 2.00000000
80.950461 15.788116 4.618911 2.00000000
-40.926757 63.909824 5.415506 2.00000000
73.986871 38.975445 4.258691 2.00000000
-48.482112 -44.566161 5.081849 2.00000000
28.102688 -65.688746 5.126459 2.00000000
77.240109 -19.111813 6.763384 2.00000000
17.776228 80.185101 6.243251 2.00000000
80.212657 -8.142716 5.129971 2.00000000
36.002900 75.039620 4.505765 2.00000000
70.542952 -33.051586 6.827041 2.00000000
-68.206729 7.861614 4.711829 2.00000000
81.550576 8.881290 6.870366 2.00000000
74.061409 -26.616119 3.899149 2.00000000
-8.402676 79.465347 6.803134 2.00000000
79.308618 24.401556 3.916677 2.00000000
76.146920 34.106304 4.065538 2.00000000
-41.274517 63.622579 3.913921 2.00000000
60.502039 -45.997210 4.481550 2.00000000
64.804228 -41.142648 6.855668 2.00000000
48.157677 -56.285616 4.577058 2.00000000
-21.555636 75.467898 6.621732 2.00000000
80.914854 -3.867026 5.085573 2.00000000
-30.357120 71.200293 6.129759 2.00000000
-44.105811 61.157227 3.913642 2.00000000
-68.025929 11.340733 6.487136 2.00000000
-9.772906 -67.000049 4.069143 2.00000000
-43.036168 62.143790 5.311084 2.00000000
-42.356431 62.728904 6.833460 2.00000000
15.234117 -68.309512 5.497267 2.00000000
-64.181565 30.350117 6.004819 2.00000000
-54.353122 49.503741 6.728568 2.00000000
-41.845425 63.150998 5.569620 2.00000000
-29.004604 -59.745919 5.750987 2.00000000
-46.811008 58.534912 5.385590 2.00000000
-38.423241 65.900073 6.363352 2.00000000
9.958136 -68.735923 4.106222 2.00000000
-61.877350 36.296163 4.944403 2.00000000
22.504955 79.323610 6.835429 2.00000000
59.483139 59.255284 5.845191 2.00000000
63.983064 -42.133743 4.048964 2.00000000
4.636227 80.993771 4.921841 2.00000000
-14.969087 77.809206 4.663904 2.00000000
-0.069328 80.716896 4.161990 2.00000000
30.905727 -64.780329 6.386831 2.00000000
-1.055892 -68.413411 5.016439 2.00000000
79.351265 24.234933 5.511303 2.00000000
-23.404358 -62.514890 5.860281 2.00000000
80.980964 15.545170 4.131914 2.00000000
-64.809170 -16.221932 5.948823 2.00000000
-51.529196 53.224279 4.482325 2.00000000
71.362469 -31.711421 6.253467 2.00000000
-56.208729 46.764295 6.828260 2.00000000
-68.183191 8.871026 3.893900 2.00000000
-14.178659 78.065371 6.455173 2.00000000
2.408975 -68.674203 6.597941 2.00000000
6.977268 80.992011 5.218685 2.00000000
76.747690 -20.393008 6.275726 2.00000000
61.671723 -44.753519 4.234740 2.00000000
45.596405 -57.908355 4.364441 2.00000000
-38.923869 65.536932 6.161401 2.00000000
81.104848 14.558500 4.600104 2.00000000
-13.641604 -66.003582 6.001822 2.00000000
80.965053 -3.472068 4.832517 2.00000000
56.923930 61.662185 6.009869 2.00000000
-56.526564 46.264311 6.869466 2.00000000
71.534565 43.601431 6.824032 2.00000000
31.626781 -64.546648 4.932456 2.00000000
53.466243 -52.399242 4.981252 2.00000000
76.274239 -21.586161 6.043681 2.00000000
-63.196647 33.044198 3.964418 2.00000000
30.004532 -65.072391 6.838777 2.00000000
1.722302 80.828246 6.265096 2.00000000
-31.859947 -58.143295 6.553018 2.00000000
-62.584960 34.585720 5.271786 2.00000000
78.332719 27.948428 4.527468 2.00000000
-24.243432 -62.119280 5.845572 2.00000000
-12.263081 -66.358651 6.807190 2.00000000
-26.283654 73.356703 4.370369 2.00000000
-67.123450 18.869173 6.282630 2.00000000
46.100608 69.787835 6.249418 2.00000000
-28.673604 72.124145 4.004953 2.00000000
-67.024948 19.383418 6.079230 2.00000000
54.298619 63.909394 4.191379 2.00000000
70.620484 -32.929619 4.993560 2.00000000
-60.675978 38.844175 5.766880 2.00000000
-45.019784 60.283876 6.256912 2.00000000
16.089967 -68.202054 4.117300 2.00000000
-32.866468 -57.503473 6.254811 2.00000000
22.167675 79.388215 5.954863 2.00000000
-49.957862 55.120783 4.748977 2.00000000
-11.277311 78.808895 6.397892 2.00000000
-58.519875 42.949454 5.344849 2.00000000
-29.112174 -59.686675 5.293197 2.00000000
53.922675 64.220879 5.470997 2.00000000
-54.916970 -36.527091 3.946455 2.00000000
64.275146 -41.781218 5.562625 2.00000000
-38.424151 -53.699499 5.369866 2.00000000
-23.992173 -62.237745 4.901021 2.00000000
24.305912 78.898146 5.302908 2.00000000
-33.688104 69.179073 4.531173 2.00000000
40.587900 72.914699 4.458817 2.00000000
33.209485 -63.948862 5.122098 2.00000000
43.777978 -58.975529 6.562726 2.00000000
57.120394 -49.277607 5.628034 2.00000000
54.375410 -51.648261 5.225582 2.00000000
6.437334 -68.794656 5.050415 2.00000000
14.832702 80.559215 5.543509 2.00000000
-67.565839 15.891852 6.868524 2.00000000
-68.207405 6.969700 6.370297 2.00000000
-29.097736 71.891397 4.137491 2.00000000
-61.459599 -24.981616 6.683769 2.00000000
63.160411 -43.126634 6.678727 2.00000000
-23.767884 74.538223 5.878526 2.00000000
36.366867 -62.701518 5.636783 2.00000000
-35.277594 68.172008 5.661103 2.00000000
81.368780 11.806244 6.827237 2.00000000
-1.064861 -68.412271 6.124867 2.00000000
-65.856226 -12.522403 4.528956 2.00000000
-67.918320 13.030648 6.742857 2.00000000
70.668995 -32.853305 4.038748 2.00000000
-2.726909 -68.201029 6.280359 2.00000000
-66.707811 21.039093 5.073758 2.00000000
-20.805779 75.764131 5.022661 2.00000000
-49.525153 -43.446591 6.831757 2.00000000
-5.569136 80.003645 3.991534 2.00000000
-27.843122 -60.385602 6.590135 2.00000000
80.891467 -4.051026 4.077944 2.00000000
-67.955151 12.452249 6.705245 2.00000000
9.608753 -68.757638 4.987228 2.00000000
45.851590 -57.746674 6.207741 2.00000000
80.931428 -3.736620 6.408068 2.00000000
-28.243582 72.360126 4.536019 2.00000000
61.912580 56.711647 3.929727 2.00000000
-37.925348 66.261248 5.647187 2.00000000
78.645832 -14.779542 6.435571 2.00000000
-67.096254 19.011153 5.276014 2.00000000
-31.715580 -58.235066 4.497158 2.00000000
65.965372 -39.723155 5.857910 2.00000000
-64.816859 -16.198207 5.451519 2.00000000
-68.208586 3.782156 5.072831 2.00000000
81.145892 -2.049269 6.827627 2.00000000
70.399383 -33.277437 3.887966 2.00000000
-11.391136 78.779762 5.483624 2.00000000
42.308466 -59.781944 4.138886 2.00000000
23.835776 -66.819465 3.885383 2.00000000
-44.643250 -48.439421 5.471579 2.00000000
38.399519 73.946485 3.880181 2.00000000
59.017636 -47.503354 5.216359 2.00000000
29.026235 77.588166 6.559404 2.00000000
-54.589513 -36.978511 6.545624 2.00000000
-48.190181 -44.871935 5.416759 2.00000000
-8.726814 79.403770 5.490210 2.00000000
-8.111906 -67.321998 3.963216 2.00000000
73.544717 39.916907 5.490989 2.00000000
75.006947 -24.610711 5.997683 2.00000000
-48.223739 -44.834423 6.045002 2.00000000
44.230353 70.921791 5.694138 2.00000000
-46.275846 -46.903987 6.227901 2.00000000
34.067293 75.807669 5.191431 2.00000000
32.959859 -64.047479 4.646564 2.00000000
-45.706113 -47.439813 5.022181 2.00000000
25.279912 78.647284 4.480486 2.00000000
49.069690 -55.678962 4.708828 2.00000000
58.313295 60.355506 5.389712 2.00000000
-7.594186 -67.421165 4.541106 2.00000000
16.939288 80.291474 3.950402 2.00000000
40.039991 -60.978328 4.476778 2.00000000
-51.820604 52.872568 6.724247 2.00000000
80.242390 -7.987486 6.791909 2.00000000
-32.514253 69.922760 4.593918 2.00000000
0.317362 80.740929 5.767605 2.00000000
76.162578 34.066670 6.525166 2.00000000
51.837983 -53.670916 4.979096 2.00000000
67.485214 -37.634604 4.746967 2.00000000
-22.253049 -62.992584 5.630415 2.00000000
0.552778 -68.556007 5.597382 2.00000000
-58.154078 -31.421390 4.852558 2.00000000
49.043130 -55.698229 5.807769 2.00000000
-5.126025 80.087824 4.191565 2.00000000
53.811040 -52.114435 6.831269 2.00000000
38.942508 73.690474 5.055731 2.00000000
39.507192 -61.228553 6.812930 2.00000000
44.878413 70.564762 5.820245 2.00000000
-33.012766 -57.410474 6.728941 2.00000000
80.874276 16.394894 5.936936 2.00000000
-68.015287 0.671952 5.400292 2.00000000
-14.030638 78.104192 4.521043 2.00000000
74.930442 36.966331 6.747625 2.00000000
35.670996 -62.976427 4.854553 2.00000000
-62.711489 -22.072113 6.496960 2.00000000
13.397449 80.716508 5.511385 2.00000000
81.564580 3.490199 6.800630 2.00000000
-64.140578 -18.284959 6.183528 2.00000000
-8.736908 79.401852 4.962281 2.00000000
61.169247 57.498055 5.089199 2.00000000
16.837882 80.304362 4.688680 2.00000000
-42.647393 -50.287150 5.616646 2.00000000
7.253220 -68.795269 3.978937 2.00000000
44.326822 70.868661 4.166038 2.00000000
-67.510709 16.325611 5.561728 2.00000000
-12.078460 78.603845 4.908665 2.00000000
-20.835374 75.752440 3.879883 2.00000000
-19.017247 76.470697 5.317017 2.00000000
80.300651 -7.683310 6.159219 2.00000000
-23.445867 74.689457 6.825212 2.00000000
-65.407718 26.461107 6.285986 2.00000000
-2.637200 80.409713 4.092599 2.00000000
35.590079 75.203427 4.706990 2.00000000
11.621037 -68.632574 4.150631 2.00000000
21.626442 79.491886 4.112472 2.00000000
-60.417288 39.392833 6.601518 2.00000000
-0.722405 80.650131 3.938323 2.00000000
29.035073 77.585287 4.262153 2.00000000
-26.532973 73.239612 4.836855 2.00000000
-43.210525 -49.786879 6.085089 2.00000000
73.783590 39.408283 4.643106 2.00000000
4.427862 80.993928 5.381866 2.00000000
-38.578880 -53.586901 4.188530 2.00000000
-58.672880 42.671636 6.707148 2.00000000
-61.852912 -24.144135 3.888362 2.00000000
-55.331049 48.144969 6.776667 2.00000000
-51.656534 -40.870822 4.588762 2.00000000
8.155025 80.991125 6.259440 2.00000000
76.928419 -19.937549 5.337690 2.00000000
-45.040142 60.265534 5.740657 2.00000000
-31.770477 -58.200169 6.084174 2.00000000
-58.644181 42.723745 4.543170 2.00000000
76.559894 -20.866277 4.097450 2.00000000
-64.899247 28.146988 6.847648 2.00000000
56.152209 -50.180598 5.852473 2.00000000
-35.896253 -55.539076 5.194590 2.00000000
-65.882900 -12.418189 6.320730 2.00000000
61.286764 -45.162835 3.964576 2.00000000
-7.216739 79.690644 5.915394 2.00000000
22.871240 -67.059446 4.282455 2.00000000
-67.928763 -0.720227 5.662490 2.00000000
-24.052109 74.404738 6.317293 2.00000000
79.425076 23.946545 3.923133 2.00000000
49.110598 -55.649290 6.325181 2.00000000
-59.378394 41.390597 4.156412 2.00000000
71.724691 -31.053724 3.894591 2.00000000
80.107451 -8.691985 4.981750 2.00000000
-55.681219 -35.401313 4.857779 2.00000000
60.827607 57.859492 4.584135 2.00000000
63.304473 -42.952760 5.124343 2.00000000
-36.910689 -54.800861 4.934962 2.00000000
-59.604533 -28.778292 4.062804 2.00000000
-40.608525 64.172685 3.954967 2.00000000
-42.048130 -50.783665 4.082196 2.00000000
61.292410 57.367755 3.881936 2.00000000
-60.466403 39.288665 4.296411 2.00000000
-10.998125 -66.684468 6.194090 2.00000000
81.255441 13.359100 5.267969 2.00000000
71.648363 43.394060 5.164314 2.00000000
-67.857957 13.593477 6.203899 2.00000000
80.689254 17.833180 6.114215 2.00000000
-50.856280 -41.839650 3.937440 2.00000000
-67.047653 -7.060347 6.794863 2.00000000
66.709348 50.900682 6.737406 2.00000000
-21.362746 -63.345856 6.855246 2.00000000
80.172397 -8.352908 3.956670 2.00000000
-67.845481 -1.472443 6.864322 2.00000000
-59.380530 -29.186483 4.380079 2.00000000
55.439777 -50.769077 6.323354 2.00000000
-47.147250 58.177399 6.752845 2.00000000
38.078511 74.097835 6.227281 2.00000000
80.136607 20.742132 5.230600 2.00000000
39.906545 73.235946 6.817728 2.00000000
34.455660 75.653565 5.952356 2.00000000
70.251435 45.705826 5.788072 2.00000000
42.595867 71.821973 5.035573 2.00000000
16.345779 80.366907 3.927517 2.00000000
69.450007 -34.770912 5.240278 2.00000000
-9.455113 -67.064711 6.865557 2.00000000
-66.530267 21.965999 5.376750 2.00000000
21.943480 79.431159 4.741466 2.00000000
81.578634 5.586949 6.404444 2.00000000
81.504425 9.623817 4.661342 2.00000000
47.412289 68.954023 4.931170 2.00000000
56.583895 -49.780645 6.792664 2.00000000
-34.433155 68.707021 3.918288 2.00000000
-67.945463 12.604387 5.550275 2.00000000
81.579858 7.199686 4.518612 2.00000000
74.889297 -24.860239 5.515950 2.00000000
65.543748 -40.250094 3.976021 2.00000000
-48.684083 56.543346 4.802781 2.00000000
41.246852 72.564933 4.688114 2.00000000
-22.636864 75.040755 3.930590 2.00000000
79.711691 -10.641328 6.795093 2.00000000
-65.914106 24.495049 4.500003 2.00000000
37.057722 -62.378927 5.989981 2.00000000
81.520779 2.802324 6.084861 2.00000000
-1.649848 -68.337921 5.454124 2.00000000
57.979332 60.669593 3.938195 2.00000000
41.781318 -60.071224 4.165184 2.00000000
-35.553248 -55.788684 6.095955 2.00000000
-59.343632 -29.253722 3.894464 2.00000000
-67.241461 -6.040171 5.239303 2.00000000
-44.330560 -48.733501 5.873899 2.00000000
-13.550148 78.227172 5.441263 2.00000000
-20.478390 -63.696769 5.762108 2.00000000
-22.074718 -63.063346 6.067616 2.00000000
81.512214 2.667827 5.610936 2.00000000
-64.164643 30.402064 6.840769 2.00000000
-61.255856 -25.415447 6.040619 2.00000000
38.489391 73.904112 5.403263 2.00000000
35.214131 -63.156914 4.830289 2.00000000
52.406165 -53.258786 6.019439 2.00000000
17.459002 -68.030162 5.040192 2.00000000
25.776588 78.519361 5.010412 2.00000000
10.451736 80.904080 5.030376 2.00000000
68.023166 49.089496 5.435798 2.00000000
-26.307053 -61.146316 6.874659 2.00000000
70.716422 44.971891 6.711438 2.00000000
-66.403634 -10.383640 4.544683 2.00000000
-3.276420 -68.131187 6.543715 2.00000000
26.475184 78.339432 6.630105 2.00000000
11.406624 -68.645900 5.363516 2.00000000
-26.051175 -61.266959 6.288359 2.00000000
68.785499 -35.816259 4.428730 2.00000000
43.275309 -59.251376 3.964073 2.00000000
-58.184195 43.558968 4.523080 2.00000000
64.874897 -41.057355 4.068458 2.00000000
-68.208881 5.024769 4.034740 2.00000000
81.579665 6.945377 3.990705 2.00000000
56.838583 -49.541841 6.256248 2.00000000
47.905881 -56.445141 6.267633 2.00000000
-60.065874 40.138153 6.193301 2.00000000
-3.225720 80.335820 5.169866 2.00000000
-65.528359 -13.803406 5.476809 2.00000000
78.937023 25.853408 5.326355 2.00000000
-16.909326 77.180408 6.540169 2.00000000
40.415445 -60.801999 6.859947 2.00000000
7.421428 -68.795396 4.930969 2.00000000
-63.563782 32.118974 4.626920 2.00000000
51.633105 -53.819523 4.362818 2.00000000
-63.809899 -19.291724 6.120533 2.00000000
74.100147 -26.533960 5.829223 2.00000000
-56.895087 -33.485352 6.131205 2.00000000
-53.350317 -38.686860 5.401248 2.00000000
-52.553506 -39.784916 4.872326 2.00000000
34.095664 -63.598772 6.515376 2.00000000
75.455198 35.848984 5.518051 2.00000000
16.012379 80.409281 5.902987 2.00000000
-47.407591 57.900589 5.086205 2.00000000
-60.853551 -26.272073 6.573195 2.00000000
-66.979282 -7.420242 5.831529 2.00000000
-33.726283 69.154860 6.868658 2.00000000
36.443513 74.864785 3.901106 2.00000000
-18.168031 -64.572191 6.263716 2.00000000
-52.071287 52.570009 4.659004 2.00000000
24.191143 -66.728511 4.365534 2.00000000
65.215034 -40.646831 5.354952 2.00000000
-30.038802 -59.176337 5.706016 2.00000000
38.327451 -61.782609 6.843867 2.00000000
-18.323997 -64.521384 5.217616 2.00000000
-40.378948 -52.166651 4.587313 2.00000000
24.946814 78.733077 6.747788 2.00000000
81.489671 9.861201 5.735796 2.00000000
-4.902098 80.125337 6.149779 2.00000000
-58.096375 43.718427 6.301685 2.00000000
34.190058 -63.561481 4.503728 2.00000000
-67.852013 13.640246 5.120861 2.00000000
79.718965 -10.613089 4.481836 2.00000000
-47.424138 -45.687212 6.165529 2.00000000
-30.452792 -58.948333 5.900255 2.00000000
-53.010019 -39.155988 4.117244 2.00000000
36.996634 74.607922 6.149519 2.00000000
63.524687 -42.686976 5.639177 2.00000000
-63.869345 -19.121885 4.416647 2.00000000
64.331200 -41.713563 6.285767 2.00000000
81.301519 12.888432 6.772199 2.00000000
-66.790894 20.605346 6.363435 2.00000000
-52.094200 52.542354 5.151908 2.00000000
77.581104 30.267634 4.095868 2.00000000
-0.582452 80.667703 5.987547 2.00000000
-67.684902 14.955063 5.660876 2.00000000
53.886406 64.250929 6.234900 2.00000000
-57.245459 -32.932356 4.790121 2.00000000
-68.165250 9.152782 4.536786 2.00000000
50.185931 -54.869277 5.406014 2.00000000
71.393206 43.859026 5.815599 2.00000000
29.352107 77.482006 3.900385 2.00000000
-61.687775 -24.495761 4.800731 2.00000000
72.039907 42.680557 5.391223 2.00000000
52.770224 -52.974164 5.367763 2.00000000
-43.771236 61.454562 5.411396 2.00000000
-8.319472 -67.282239 5.742358 2.00000000
-63.222527 -20.778530 4.169893 2.00000000
-36.381729 67.380933 5.154197 2.00000000
-65.670445 -13.248263 3.958724 2.00000000
45.885956 69.924285 6.751277 2.00000000
80.791882 -4.834539 6.005588 2.00000000
76.345235 33.604305 6.865909 2.00000000
64.883548 53.242459 4.565091 2.00000000
-39.531771 65.062087 4.019796 2.00000000
-66.705431 -8.861755 6.808374 2.00000000
41.213833 -60.382638 5.338866 2.00000000
-3.784913 -68.066559 4.827866 2.00000000
77.255630 -19.064169 5.579212 2.00000000
58.654380 60.034720 5.048953 2.00000000
-47.504590 57.797454 6.574784 2.00000000
32.169291 76.560796 5.567421 2.00000000
-62.039210 35.952874 6.542392 2.00000000
-60.844848 38.486015 4.538693 2.00000000
-64.875048 28.221272 5.659765 2.00000000
31.346633 -64.637439 3.972822 2.00000000
66.835064 -38.528033 6.730488 2.00000000
57.360580 61.251521 4.602075 2.00000000
71.548819 -31.373059 5.395134 2.00000000
-60.290302 -27.471399 4.834051 2.00000000
53.549461 64.530102 5.950311 2.00000000
79.441939 -11.688646 4.785184 2.00000000
77.505108 30.502129 5.748995 2.00000000
3.435003 -68.739536 3.897686 2.00000000
-30.994292 -58.650104 5.568249 2.00000000
-67.970155 12.216621 5.991133 2.00000000
81.295096 -0.741873 3.898368 2.00000000
-36.850530 67.040876 6.655208 2.00000000
12.917202 -68.552017 6.726802 2.00000000
76.201285 33.968690 5.955305 2.00000000
-66.376436 22.700045 4.488886 2.00000000
70.202811 -33.586667 5.919702 2.00000000
-16.006055 77.473143 6.214051 2.00000000
-29.503699 -59.471044 5.038578 2.00000000
72.118672 42.537026 6.465848 2.00000000
-16.317098 -65.175143 4.537843 2.00000000
-24.914445 -61.802908 5.871135 2.00000000
80.139151 20.728746 3.954421 2.00000000
81.472924 10.130651 4.505596 2.00000000
67.089882 50.376102 4.209896 2.00000000
-39.631082 -52.786289 5.789501 2.00000000
-62.941273 33.687768 5.397456 2.00000000
15.091712 80.526295 5.944384 2.00000000
-49.023964 -43.988233 5.590403 2.00000000
46.916752 69.269027 3.942940 2.00000000
22.849036 -67.063665 5.341426 2.00000000
80.164155 -8.395939 5.930270 2.00000000
47.902536 68.642382 6.816621 2.00000000
-28.042544 -60.275771 4.024081 2.00000000
-63.345095 -20.468275 5.420646 2.00000000
-37.582602 66.509868 4.655565 2.00000000
14.188467 80.641095 3.880935 2.00000000
78.415280 -15.504292 5.280843 2.00000000
-4.706044 -67.949485 5.913103 2.00000000
-33.758308 69.134583 5.060754 2.00000000
-55.174219 48.375385 5.206602 2.00000000
-67.918574 13.026662 6.216380 2.00000000
72.578448 41.699185 4.453408 2.00000000
1.776893 80.831639 5.024904 2.00000000
29.301532 -65.300221 4.079020 2.00000000
25.173477 78.674698 5.132672 2.00000000
77.348402 -18.779379 4.804930 2.00000000
-51.985823 -40.472173 5.411929 2.00000000
-61.032785 38.087417 5.588244 2.00000000
59.779036 58.968825 5.413159 2.00000000
-68.080700 1.724462 4.529866 2.00000000
-65.887071 24.600014 5.064453 2.00000000
6.676829 80.992237 4.684558 2.00000000
-27.385899 72.830791 6.778142 2.00000000
-60.747422 -26.498054 5.961835 2.00000000
56.976930 61.612339 4.094904 2.00000000
-37.488354 66.578216 5.848741 2.00000000
-66.018375 -11.888877 6.477698 2.00000000
73.272512 -28.243300 4.044708 2.00000000
60.106138 58.622768 5.599037 2.00000000
-65.445146 -14.128524 6.603690 2.00000000
-11.667247 78.709093 4.655451 2.00000000
27.735242 -65.807830 4.146354 2.00000000
6.115096 -68.794414 5.705225 2.00000000
64.887088 53.238181 5.830131 2.00000000
77.815803 29.543439 6.112999 2.00000000
-6.018733 -67.722938 6.850616 2.00000000
81.427989 1.345116 4.562074 2.00000000
-46.559750 58.802065 6.873226 2.00000000
36.677586 74.758348 5.368553 2.00000000
55.690348 -50.562101 6.706245 2.00000000
61.225776 57.425258 6.158415 2.00000000
71.257072 -31.902794 3.932594 2.00000000
37.401838 74.416875 6.422401 2.00000000
80.518562 18.731646 6.014632 2.00000000
80.789729 17.068263 6.158730 2.00000000
-11.090311 78.856757 6.869710 2.00000000
81.218193 -1.480427 5.649438 2.00000000
18.938476 -67.806567 6.189571 2.00000000
26.959417 78.214714 5.249841 2.00000000
68.157793 -36.710354 4.961067 2.00000000
-66.629401 -9.261966 6.545224 2.00000000
48.716613 68.124888 4.360852 2.00000000
-55.288724 -36.014582 6.670209 2.00000000
19.623086 79.875623 4.273399 2.00000000
76.249655 33.846248 4.479767 2.00000000
52.503297 65.381519 4.986262 2.00000000
-67.057159 19.215255 3.938593 2.00000000
23.349722 79.144421 6.300777 2.00000000
48.205324 -56.255427 4.037136 2.00000000
-66.977449 19.631398 6.722116 2.00000000
-67.678633 -2.801238 5.370587 2.00000000
-50.907884 53.974165 5.030767 2.00000000
81.477975 10.049380 6.325921 2.00000000
40.439777 72.984536 5.196454 2.00000000
-12.305762 -66.347657 4.450617 2.00000000
37.927395 74.169083 5.580242 2.00000000
79.284213 24.496909 6.429168 2.00000000
32.910469 76.266697 4.471788 2.00000000
68.858816 -35.700923 3.885933 2.00000000
81.318999 12.607177 6.246288 2.00000000
-66.650956 21.335917 3.972863 2.00000000
-68.206987 7.521981 4.336924 2.00000000
-64.103788 -18.398479 4.798106 2.00000000
49.264427 -55.537707 6.845526 2.00000000
-43.059846 62.121589 6.309808 2.00000000
-48.995919 -44.026137 4.694141 2.00000000
51.749106 65.930351 5.454460 2.00000000
-55.039627 -36.357989 5.613782 2.00000000
81.545098 8.969423 5.164896 2.00000000
6.669038 -68.794830 3.956147 2.00000000
5.776436 80.992914 5.943279 2.00000000
71.315565 44.000510 3.973427 2.00000000
61.291043 -45.158285 5.656419 2.00000000
55.710288 -50.545632 5.989263 2.00000000
47.253923 -56.858201 6.851210 2.00000000
5.244101 -68.793759 6.819880 2.00000000
79.515575 -11.402752 6.121564 2.00000000
28.586986 -65.531794 5.514121 2.00000000
60.668409 58.019696 6.797396 2.00000000
29.456054 77.448143 6.753282 2.00000000
50.776456 -54.440929 5.583851 2.00000000
-7.207189 -67.495293 6.385192 2.00000000
-16.532153 -65.105087 4.026678 2.00000000
52.388247 65.465242 6.364302 2.00000000
45.936737 69.892005 4.010717 2.00000000
-16.031359 -65.268224 5.252837 2.00000000
5.311604 -68.793809 3.989384 2.00000000
10.957688 -68.673801 3.997708 2.00000000
-68.137002 2.630355 5.970292 2.00000000
-52.404944 -39.964763 4.422725 2.00000000
57.556228 61.067517 4.999380 2.00000000
65.501143 52.494776 6.405828 2.00000000
37.506758 74.367407 5.791441 2.00000000
64.808195 53.333697 6.313795 2.00000000
75.504634 -23.525655 5.558951 2.00000000
-36.806900 67.072526 4.991716 2.00000000
64.932268 -40.988112 5.622833 2.00000000
-63.080152 33.337777 4.957689 2.00000000
28.392158 77.794731 4.120841 2.00000000
-53.133117 -38.986292 4.702357 2.00000000
64.529706 53.670845 5.400459 2.00000000
-41.411374 -51.311244 6.789778 2.00000000
57.896232 60.747748 6.612604 2.00000000
-17.145116 -64.905411 4.244256 2.00000000
70.856632 44.750587 5.483477 2.00000000
37.078404 74.569369 5.582573 2.00000000
29.897472 77.304342 3.982094 2.00000000
-3.385953 -68.117266 3.925368 2.00000000
-49.299448 55.889053 5.080238 2.00000000
58.410463 -48.068000 6.691982 2.00000000
-6.054975 -67.715996 5.734840 2.00000000
16.890234 -68.101574 6.653807 2.00000000
81.395028 11.383934 6.348351 2.00000000
-47.396270 -45.716934 5.551432 2.00000000
-51.734650 52.976309 6.263485 2.00000000
-47.550530 57.748608 6.041320 2.00000000
72.258399 -30.084655 4.159899 2.00000000
-40.435116 64.315922 5.343246 2.00000000
14.516343 -68.399633 6.164795 2.00000000
8.447306 -68.796167 5.621094 2.00000000
-67.818345 13.905146 5.561823 2.00000000
-2.970026 80.367924 4.664021 2.00000000
38.976431 -61.477821 6.645115 2.00000000
57.701995 60.930425 5.506604 2.00000000
-17.888795 -64.663154 6.657638 2.00000000
49.019387 67.916795 5.886178 2.00000000
62.931732 55.605454 6.843447 2.00000000
-54.938695 -36.497130 6.843950 2.00000000
-64.477680 29.441107 6.595369 2.00000000
-9.900145 79.161375 6.744473 2.00000000
80.520249 -6.536821 5.242596 2.00000000
74.675605 37.508946 5.024577 2.00000000
-30.057040 -59.166293 6.797086 2.00000000
25.971244 -66.272901 6.866478 2.00000000
28.998137 -65.398547 6.495237 2.00000000
59.031841 59.679723 4.199395 2.00000000
64.918487 53.200175 6.768410 2.00000000
69.728759 46.530814 5.973233 2.00000000
-62.824769 33.981373 3.981225 2.00000000
31.721470 -64.515961 4.464530 2.00000000
81.580082 7.495114 5.556941 2.00000000
-14.269473 78.035939 5.960377 2.00000000
-51.125295 -41.513989 6.853907 2.00000000
-66.436663 22.454675 5.588778 2.00000000
-67.400089 -5.019587 6.696734 2.00000000
-34.417917 68.716671 5.917274 2.00000000
-11.973920 78.630601 5.512777 2.00000000
18.992919 -67.796224 6.838816 2.00000000
33.726643 75.942839 6.128755 2.00000000
9.789552 80.946246 6.454244 2.00000000
-61.718220 36.633665 6.741228 2.00000000
38.124650 -61.877853 5.960428 2.00000000
-67.344798 -5.459934 5.649464 2.00000000
-58.772364 -30.294716 6.032048 2.00000000
29.606555 77.399114 6.189793 2.00000000
-39.891111 64.765274 4.934727 2.00000000
23.025471 79.223907 6.775723 2.00000000
67.233404 50.178234 6.292932 2.00000000
54.758814 -51.331564 4.478746 2.00000000
59.215657 59.506847 6.611437 2.00000000
77.052232 -19.625526 5.831019 2.00000000
-25.468789 73.739401 4.024700 2.00000000
66.509218 -38.975807 4.512950 2.00000000
63.313006 -42.942461 6.048820 2.00000000
59.009251 -47.506558 6.770229 2.00000000
15.117044 -68.324211 6.257345 2.00000000
-4.342548 -67.995685 6.830809 2.00000000
-4.363885 80.192914 6.679621 2.00000000
23.899717 79.002765 6.850304 2.00000000
80.386033 -7.237543 6.386190 2.00000000
48.140118 68.491355 4.284267 2.00000000
-11.478929 -66.560626 5.194172 2.00000000
13.011018 80.741115 6.324615 2.00000000
34.498422 75.636597 4.357246 2.00000000
80.246656 -7.965214 4.528749 2.00000000
-64.561162 -16.987193 5.015564 2.00000000
-30.698872 -58.812805 6.787923 2.00000000
81.579897 7.251207 5.099184 2.00000000
38.463022 73.916544 4.781404 2.00000000
-67.652797 15.207668 6.196740 2.00000000
6.811099 -68.794937 6.184571 2.00000000
-65.290207 -14.733884 5.077451 2.00000000
11.084288 80.863802 5.494328 2.00000000
-59.220407 -29.478268 5.895430 2.00000000
61.312191 57.346828 4.530981 2.00000000
41.325656 72.521532 5.801629 2.00000000
69.833800 46.365016 6.717410 2.00000000
30.634542 -64.868216 4.844047 2.00000000
-68.208939 4.948033 4.571714 2.00000000
17.087928 80.272582 5.592686 2.00000000
55.079718 -51.066492 3.979890 2.00000000
-8.610079 -67.226574 6.804264 2.00000000
-25.991247 -61.295214 5.739739 2.00000000
81.049799 -2.805307 4.099367 2.00000000
-35.510200 68.013117 6.370607 2.00000000
-66.883634 -7.923723 5.773877 2.00000000
20.291025 -67.549619 5.338387 2.00000000
-35.848782 -55.573621 4.726890 2.00000000
-50.503734 -42.266486 5.644748 2.00000000
-40.474630 -52.087375 5.377005 2.00000000
-16.380065 77.351932 6.847410 2.00000000
-30.007174 -59.193756 4.434441 2.00000000
9.624388 -68.756666 5.582563 2.00000000
-35.554296 67.981131 4.157807 2.00000000
60.768486 -45.713904 5.714893 2.00000000
34.875164 -63.290825 5.890327 2.00000000
81.304088 12.847097 4.592405 2.00000000
81.577692 4.343917 5.691177 2.00000000
56.490362 -49.868344 5.783278 2.00000000
-13.155696 78.328130 4.882973 2.00000000
43.841657 -58.940585 5.289809 2.00000000
25.611660 -66.364935 4.831351 2.00000000
47.584778 68.844375 6.295762 2.00000000
-65.596487 -13.537225 6.698845 2.00000000
-58.384248 43.195721 4.890897 2.00000000
-2.116660 -68.278590 6.785215 2.00000000
74.663730 -25.338646 5.875415 2.00000000
29.734201 -65.160001 4.581147 2.00000000
57.766917 60.869367 6.149387 2.00000000
63.002480 55.519803 6.364584 2.00000000
42.850127 71.681941 6.792740 2.00000000
-57.766333 -32.110186 3.913655 2.00000000
72.757576 -29.178285 4.311911 2.00000000
43.040167 71.577277 5.185550 2.00000000
-62.813416 -21.814106 4.494425 2.00000000
81.299918 -0.666149 4.427979 2.00000000
-67.843955 -1.484598 5.548344 2.00000000
58.586548 60.098515 4.063553 2.00000000
-13.272211 -66.098727 4.020792 2.00000000
56.516044 62.045796 4.885127 2.00000000
-66.091618 -11.602712 5.063216 2.00000000
69.706089 -34.368066 6.306171 2.00000000
-11.334111 -66.597927 3.969656 2.00000000
77.203389 -19.224537 6.196992 2.00000000
63.220794 55.255501 5.972945 2.00000000
81.133962 14.326621 5.122668 2.00000000
-52.869672 51.542303 6.572862 2.00000000
19.117344 79.972496 6.873770 2.00000000
-34.821458 68.461005 6.161037 2.00000000
80.846674 16.614728 6.864061 2.00000000
-65.620664 -13.442763 4.756733 2.00000000
-54.044017 -37.730526 3.881216 2.00000000
-30.311611 -59.026088 3.935151 2.00000000
40.291918 -60.860013 4.091477 2.00000000
6.269794 -68.794530 6.338195 2.00000000
-15.726227 77.563830 6.737863 2.00000000
-0.619584 -68.468865 6.680126 2.00000000
64.226962 54.037365 5.478529 2.00000000
70.078908 45.978138 6.800685 2.00000000
-49.711266 55.418408 4.009196 2.00000000
4.698813 -68.793348 5.054332 2.00000000
-48.371108 56.876119 4.477163 2.00000000
81.578339 5.197081 4.587634 2.00000000
70.954284 -32.404514 4.013284 2.00000000
-63.006005 -21.326608 4.583914 2.00000000
-68.207795 6.456695 4.610865 2.00000000
54.603879 63.656473 6.044977 2.00000000
0.573524 80.756850 4.556019 2.00000000
-0.558434 -68.476637 5.777580 2.00000000
-10.434648 -66.829603 4.077978 2.00000000
-27.836391 -60.389309 5.883826 2.00000000
-61.197745 -25.539182 4.037791 2.00000000
-53.221434 51.058910 4.142441 2.00000000
13.204252 80.728810 4.039417 2.00000000
21.488055 -67.322215 5.140744 2.00000000
65.871657 52.046211 3.880188 2.00000000
32.978143 -64.040255 6.333588 2.00000000
66.205375 -39.393345 6.279940 2.00000000
-32.186905 -57.935455 4.763158 2.00000000
47.250365 -56.860483 3.920373 2.00000000
-19.488311 -64.089632 6.010827 2.00000000
24.512301 78.844989 3.987459 2.00000000
-67.769625 14.288470 6.826415 2.00000000
20.918465 -67.430422 3.964878 2.00000000
-3.807043 80.262830 6.683268 2.00000000
81.203189 -1.598471 6.436529 2.00000000
31.731364 -64.512754 5.441724 2.00000000
71.827761 43.067147 6.858144 2.00000000
80.736091 -5.273486 3.939835 2.00000000
62.451522 56.117973 6.737685 2.00000000
28.996572 77.597829 6.025075 2.00000000
-68.209545 4.148646 5.410335 2.00000000
-5.249927 -67.870201 4.668174 2.00000000
25.552423 78.577097 3.932863 2.00000000
-48.478433 56.762005 6.812106 2.00000000
3.244035 -68.727376 6.820263 2.00000000
23.291295 -66.958823 3.971766 2.00000000
-62.754248 34.159094 4.613072 2.00000000
56.564199 62.000507 5.459689 2.00000000
22.456083 -67.138315 4.618270 2.00000000
-47.696194 -45.397059 5.190685 2.00000000
14.816147 80.561319 6.757083 2.00000000
-68.008794 11.609812 4.320703 2.00000000
73.349402 40.294292 5.015934 2.00000000
58.466563 -48.024253 4.706712 2.00000000
-68.202656 8.565349 5.198297 2.00000000
64.364970 53.870291 6.379641 2.00000000
-67.519903 -4.065378 6.035975 2.00000000
-27.060399 -60.791126 3.996421 2.00000000
60.499926 58.206162 4.944971 2.00000000
-20.326310 -63.757114 5.304465 2.00000000
-52.279652 52.318526 5.617527 2.00000000
81.577236 3.742725 5.016715 2.00000000
-37.034789 66.907220 6.044514 2.00000000
48.688101 -55.949552 4.467110 2.00000000
-13.175026 78.323183 3.914295 2.00000000
-68.148556 2.816263 5.311534 2.00000000
72.025716 42.706418 4.126248 2.00000000
-18.642759 -64.417545 3.980395 2.00000000
-2.106759 -68.279848 6.221682 2.00000000
78.669928 26.896969 5.086790 2.00000000
81.372464 0.473140 5.145127 2.00000000
-66.969206 -7.473284 5.330625 2.00000000
76.800823 -20.259106 4.094322 2.00000000
-42.772548 -50.183454 6.116317 2.00000000
68.209667 -36.639069 4.419020 2.00000000
37.256505 -62.285570 4.930818 2.00000000
11.056157 -68.667681 5.756768 2.00000000
81.430690 10.810158 6.623718 2.00000000
-51.596783 53.142706 5.821394 2.00000000
-45.578500 59.765173 4.961339 2.00000000
38.947663 73.688044 3.977240 2.00000000
74.807424 37.228267 5.980864 2.00000000
-55.856741 -35.124321 3.946789 2.00000000
-3.122058 80.348836 6.878411 2.00000000
18.424347 80.102728 5.897124 2.00000000
-55.371977 48.080585 3.987364 2.00000000
28.439339 77.779360 6.345621 2.00000000
72.041686 -30.478148 6.483310 2.00000000
79.602153 23.254694 5.273490 2.00000000
-67.903353 13.236301 5.794952 2.00000000
-59.433679 -29.089632 6.581542 2.00000000
42.293699 -59.790048 6.857176 2.00000000
79.937082 -9.581456 5.493756 2.00000000
-46.069212 -47.098323 5.188326 2.00000000
-24.871397 74.019963 4.858391 2.00000000
27.232988 78.144253 4.043955 2.00000000
69.010130 47.665100 5.404575 2.00000000
-10.183534 79.088843 4.938329 2.00000000
-53.781185 50.289699 6.529184 2.00000000
76.974609 -19.821145 4.671957 2.00000000
46.162788 -57.549509 5.522283 2.00000000
-37.834970 -54.128252 5.983027 2.00000000
76.819591 32.403553 5.072503 2.00000000
73.858548 39.248677 6.811993 2.00000000
-29.310821 -59.577271 6.709616 2.00000000
-52.658191 -39.641022 5.501923 2.00000000
29.442393 -65.254571 6.799686 2.00000000
65.939495 51.961983 5.921662 2.00000000
-63.185322 33.072737 6.467997 2.00000000
80.906966 16.134533 6.499325 2.00000000
-59.775367 40.669792 5.608058 2.00000000
-68.207317 7.085907 4.537781 2.00000000
57.541765 61.081120 4.106323 2.00000000
-26.095981 73.444843 6.860967 2.00000000
71.629814 -31.225995 5.936328 2.00000000
70.984480 44.548790 4.719717 2.00000000
-11.124213 -66.651991 6.824429 2.00000000
-68.060087 1.392785 6.869730 2.00000000
19.615761 79.877026 6.736138 2.00000000
37.617397 -62.116080 3.898773 2.00000000
-19.742637 -63.988715 4.986961 2.00000000
26.209762 78.407794 5.951723 2.00000000
9.418861 80.969850 4.956694 2.00000000
62.029433 56.568140 6.677049 2.00000000
-66.917934 -7.743174 6.872510 2.00000000
46.512388 69.526074 5.955275 2.00000000
