-38.762503 65.638169 1.926491 6.00000000
-42.543654 62.561567 -51.827568 6.00000000
-41.937922 63.074326 -30.471694 6.00000000
-46.224621 59.154430 -30.575035 6.00000000
-40.184424 64.558684 -55.477462 6.00000000
-34.489765 68.673774 -0.648406 6.00000000
-40.922755 63.933678 -10.192827 6.00000000
-40.290088 64.469238 -20.979500 6.00000000
-38.373863 65.932206 -50.722741 6.00000000
-41.993830 63.027000 -10.564517 6.00000000
-36.631719 67.230504 -8.711374 6.00000000
-38.113380 66.129283 2.752426 6.00000000
-35.414950 68.050375 -61.095756 6.00000000
-36.009252 67.649928 -51.488359 6.00000000
-43.875909 61.374541 -41.686288 6.00000000
-40.824528 64.016828 -57.834930 6.00000000
-33.569087 69.294136 -7.018744 6.00000000
-45.598679 59.746100 -36.557635 6.00000000
-40.134619 64.600052 -32.146476 6.00000000
-34.838741 68.438631 -42.542366 6.00000000
-36.962002 67.000393 -30.318975 6.00000000
-41.715579 63.262543 -17.827647 6.00000000
-41.422259 63.510842 -58.457054 6.00000000
-36.952369 67.007682 -53.828746 6.00000000
-34.138866 68.910214 -44.292238 6.00000000
-36.031383 67.635016 -24.056522 6.00000000
-37.096439 66.898681 -56.869393 6.00000000
-35.145610 68.231859 -2.552379 6.00000000
-39.960318 64.731925 -5.097608 6.00000000
-44.060233 61.200310 -40.638511 6.00000000
-45.595545 59.749062 -24.598963 6.00000000
-34.270502 68.821516 -17.683138 6.00000000
-42.891333 62.267253 -9.444589 6.00000000
-39.219441 65.292458 -42.547486 6.00000000
-45.582781 59.761127 -52.939995 6.00000000
-36.951069 67.008665 -5.858787 6.00000000
-40.637010 64.175565 -19.601629 6.00000000
-43.629835 61.607142 -4.020809 6.00000000
-46.049309 59.320143 -27.625907 6.00000000
-41.500046 63.444994 -59.338529 6.00000000
-44.609112 60.681484 -38.749732 6.00000000
-33.763396 69.163209 -30.493907 6.00000000
-40.319553 64.444296 -17.467084 6.00000000
-44.378572 60.899401 -49.347362 6.00000000
-41.363903 63.560241 1.558981 6.00000000
-43.723330 61.518767 -17.910181 6.00000000
-38.862806 65.562282 -10.817289 6.00000000
-38.053579 66.174527 -0.482904 6.00000000
-40.504873 64.287420 -46.630086 6.00000000
-39.093097 65.388048 -13.773885 6.00000000
-39.232026 65.282937 -29.843707 6.00000000
-43.972529 61.283212 -1.381792 6.00000000
-45.111001 60.207075 -39.574178 6.00000000
-42.988569 62.184941 -33.863574 6.00000000
-44.801542 60.499590 -52.238192 6.00000000
-38.298909 65.988915 -19.298037 6.00000000
-45.922306 59.440192 -58.798085 6.00000000
-44.129800 61.134552 -8.109001 6.00000000
-38.963900 65.485796 -36.677081 6.00000000
-42.095585 62.940864 -37.063338 6.00000000
-39.715622 64.917057 -46.556383 6.00000000
-41.242508 63.663003 -25.012950 6.00000000
-33.472434 69.359262 -49.397519 6.00000000
-35.330194 68.107484 -43.407548 6.00000000
-41.306980 63.608427 -46.898644 6.00000000
-43.381339 61.842032 -23.994603 6.00000000
-38.707232 65.679986 -48.045250 6.00000000
-34.595752 68.602359 -50.697254 6.00000000
-41.324419 63.593664 -33.178660 6.00000000
-44.750192 60.548129 -40.418383 6.00000000
-44.266604 61.005238 -33.819911 6.00000000
-38.774277 65.629261 -52.014890 6.00000000
-34.236655 68.844322 -46.332399 6.00000000
-43.249268 61.964257 -41.520665 6.00000000
-38.991012 65.465283 -26.620716 6.00000000
-46.253751 59.126895 -48.245567 6.00000000
-34.236295 68.844565 -8.891634 6.00000000
-44.494304 60.790006 -34.603386 6.00000000
-42.094457 62.941818 -48.199991 6.00000000
-46.101400 59.270904 -29.673722 6.00000000
-45.314276 60.014931 -17.992446 6.00000000
-43.390053 61.833796 -36.413876 6.00000000
-35.784009 67.801699 -45.375067 6.00000000
-43.621418 61.615098 -31.211571 6.00000000
-42.395483 62.686996 -7.072929 6.00000000
-37.815051 66.354993 -33.844966 6.00000000
-34.484378 68.677404 -3.920185 6.00000000
-33.717627 69.194048 -45.629774 6.00000000
-46.171047 59.205071 -19.514856 6.00000000
-42.293533 62.773298 -4.435586 6.00000000
-39.893409 64.782547 -16.804368 6.00000000
-44.954988 60.354546 -11.246203 6.00000000
-46.173753 59.202513 -4.609054 6.00000000
-34.604853 68.596227 -55.531640 6.00000000
-34.042981 68.974822 -54.041175 6.00000000
-39.221085 65.291214 -3.574936 6.00000000
-44.451386 60.830574 -43.568601 6.00000000
-34.850993 68.430375 -33.850775 6.00000000
-37.855558 66.324346 -3.238179 6.00000000
-38.371758 65.933799 -46.909676 6.00000000
-44.167568 61.098852 -50.086077 6.00000000
-40.064761 64.652905 -23.286589 6.00000000
-37.258296 66.776223 -17.857436 6.00000000
-45.155988 60.164551 -50.060857 6.00000000
-45.281918 60.045517 -60.088450 6.00000000
-40.073092 64.646602 -56.346728 6.00000000
-41.268041 63.641389 -60.067556 6.00000000
-35.969262 67.676874 0.048188 6.00000000
-38.708295 65.679181 -37.528896 6.00000000
-33.557689 69.301816 -51.789756 6.00000000
-36.255010 67.484334 -35.622785 6.00000000
-43.923773 61.329299 -61.045040 6.00000000
-41.068928 63.809941 -51.523163 6.00000000
-35.086181 68.271903 -12.474296 6.00000000
-39.984759 64.713433 -5.947889 6.00000000
-40.575185 64.227900 -45.027380 6.00000000
-36.859203 67.077223 -39.950318 6.00000000
-45.207137 60.116203 0.986427 6.00000000
-45.208138 60.115257 -10.321340 6.00000000
-41.294264 63.619191 -1.098384 6.00000000
-37.420047 66.653846 -11.346724 6.00000000
-42.523933 62.578261 -36.165889 6.00000000
-44.304212 60.969690 0.783284 6.00000000
-42.435605 62.653032 -60.606339 6.00000000
-45.378241 59.954468 -25.845229 6.00000000
-39.115932 65.370771 -39.032196 6.00000000
-42.771477 62.368713 -26.269634 6.00000000
-34.017649 68.991890 -50.137182 6.00000000
-44.977875 60.332912 -17.011024 6.00000000
-34.655215 68.562292 -8.084566 6.00000000
-35.729395 67.838499 -38.418765 6.00000000
-45.984014 59.381863 -28.791909 6.00000000
-46.136474 59.237751 -40.127061 6.00000000
-35.021599 68.315419 -20.767280 6.00000000
-34.351240 68.767114 -60.802762 6.00000000
-43.889907 61.361310 -2.657730 6.00000000
-44.757392 60.541323 -58.491891 6.00000000
-43.633554 61.603627 -10.428756 6.00000000
-33.598606 69.274246 -17.381334 6.00000000
-44.037654 61.221653 -5.206913 6.00000000
-36.650286 67.217993 -38.705007 6.00000000
-41.069314 63.809614 -6.349807 6.00000000
-42.475565 62.619206 -2.805341 6.00000000
-34.672539 68.550619 -14.804355 6.00000000
-37.597927 66.519265 -23.648927 6.00000000
-35.080989 68.275401 -26.562086 6.00000000
-45.079779 60.236588 -35.593418 6.00000000
-38.931647 65.510197 -54.412447 6.00000000
-33.581570 69.285725 -15.642804 6.00000000
-42.579401 62.531307 -15.785284 6.00000000
-45.863347 59.495923 -56.907967 6.00000000
-44.411269 60.868495 -57.251773 6.00000000
-45.048107 60.266525 -13.012006 6.00000000
-36.358832 67.414378 -1.533982 6.00000000
-40.762489 64.069345 -32.365516 6.00000000
-45.190991 60.131465 -46.966094 6.00000000
-34.152249 68.901196 -9.735278 6.00000000
-45.171461 60.149925 -21.454897 6.00000000
-38.266423 66.013493 -7.249571 6.00000000
-46.107312 59.265316 -7.478535 6.00000000
-36.900366 67.047026 -2.088731 6.00000000
-37.409973 66.661467 -28.035847 6.00000000
-36.726625 67.166555 -23.772429 6.00000000
-40.952784 63.908258 -25.774632 6.00000000
-42.662750 62.460751 -40.990321 6.00000000
-46.197133 59.180413 -59.556852 6.00000000
-43.787146 61.458444 2.338553 6.00000000
-44.334122 60.941417 -45.351307 6.00000000
-42.242255 62.816705 -44.789573 6.00000000
-33.479323 69.354620 -48.328453 6.00000000
-37.473258 66.613587 -56.228189 6.00000000
-40.111652 64.617429 -2.571268 6.00000000
-37.956585 66.247911 -15.226763 6.00000000
-41.387080 63.540621 -42.476267 6.00000000
-41.959948 63.055682 -35.785441 6.00000000
-42.081469 62.952813 3.065144 6.00000000
-45.907961 59.453752 -41.889230 6.00000000
-33.773107 69.156665 -34.456559 6.00000000
-40.251396 64.501991 -43.611053 6.00000000
-34.484846 68.677088 -36.052551 6.00000000
-38.917686 65.520760 3.860803 6.00000000
-33.492767 69.345562 -10.503035 6.00000000
-37.052707 66.931767 -51.699327 6.00000000
-44.632685 60.659202 -29.468438 6.00000000
-38.500728 65.836223 -35.615099 6.00000000
-43.115447 62.077538 -59.706921 6.00000000
-34.040830 68.976271 -35.257869 6.00000000
-36.398078 67.387933 -20.089861 6.00000000
-34.489419 68.674007 -28.297862 6.00000000
-37.955546 66.248697 3.765664 6.00000000
-33.514950 69.330614 0.263592 6.00000000
-35.707173 67.853472 -23.000105 6.00000000
-45.690089 59.659694 -6.294736 6.00000000
-34.489362 68.674046 -59.453100 6.00000000
-45.532170 59.808967 -11.840604 6.00000000
-36.851153 67.082647 -3.629538 6.00000000
-38.856045 65.567397 -18.821147 6.00000000
-45.110959 60.207115 -44.905149 6.00000000
-45.169108 60.152150 -26.989965 6.00000000
-38.425130 65.893419 -4.613775 6.00000000
-41.816430 63.177171 -47.351260 6.00000000
-46.132329 59.241669 -33.090510 6.00000000
-39.080796 65.397354 -44.587910 6.00000000
-39.662828 64.957000 -29.194085 6.00000000
-36.712164 67.176299 -11.040698 6.00000000
-36.425443 67.369495 1.665585 6.00000000
-33.505475 69.336998 -33.424878 6.00000000
-46.250629 59.129846 -38.610243 6.00000000
-38.124375 66.120964 1.587448 6.00000000
-39.455567 65.113810 -57.906959 6.00000000
-45.260890 60.065393 -49.209414 6.00000000
-40.321722 64.442460 -45.821853 6.00000000
-34.264378 68.825642 -12.206314 6.00000000
-35.737758 67.832864 -13.768753 6.00000000
-42.887340 62.270633 -7.702804 6.00000000
-40.454997 64.329641 -25.048765 6.00000000
-33.688744 69.213510 -0.716791 6.00000000
-37.472678 66.614026 -39.407983 6.00000000
-36.132242 67.567056 -58.314531 6.00000000
-33.508879 69.334705 -41.511093 6.00000000
-41.490203 63.453326 2.621894 6.00000000
-38.010090 66.207430 -38.122240 6.00000000
-33.468764 69.361735 -50.664729 6.00000000
-37.768783 66.389998 -10.230300 6.00000000
-37.731069 66.418532 -22.598630 6.00000000
-34.289507 68.808710 -32.377724 6.00000000
-44.644683 60.647861 -41.929402 6.00000000
-38.788458 65.618532 -24.757802 6.00000000
-44.426402 60.854190 -37.499808 6.00000000
-34.998915 68.330704 -52.310889 6.00000000
-37.255021 66.778701 -49.855994 6.00000000
-38.319453 65.973372 -33.035050 6.00000000
-34.010834 68.996483 -31.316995 6.00000000
-39.409529 65.148641 -37.592653 6.00000000
-35.801968 67.789599 -10.707553 6.00000000
-34.811604 68.456915 -18.228250 6.00000000
-44.792738 60.507912 -47.577280 6.00000000
-44.213348 61.055579 -16.413751 6.00000000
-36.405115 67.383192 -13.827956 6.00000000
-39.491949 65.086284 -60.992527 6.00000000
-42.104938 62.932946 -1.367549 6.00000000
-37.939803 66.260608 -35.075100 6.00000000
-37.580640 66.532344 -32.511572 6.00000000
-38.861902 65.562965 -5.293772 6.00000000
-41.634392 63.331268 -13.474938 6.00000000
-39.192480 65.312856 -32.952431 6.00000000
-44.699512 60.596033 -50.614122 6.00000000
-35.249653 68.161754 -7.408794 6.00000000
-45.602024 59.742938 3.762299 6.00000000
-35.588153 67.933669 -32.099348 6.00000000
-44.830472 60.472245 -22.311310 6.00000000
-39.825021 64.834288 -36.457161 6.00000000
-34.771179 68.484155 -47.790205 6.00000000
-39.858615 64.808872 -39.584577 6.00000000
-39.159937 65.337478 1.070568 6.00000000
-41.095923 63.787089 -20.503039 6.00000000
-38.529853 65.814187 -20.167267 6.00000000
-41.074336 63.805363 -11.836008 6.00000000
-36.258585 67.481925 -14.666280 6.00000000
-36.967981 66.995870 -35.467449 6.00000000
-34.171560 68.888184 -47.400889 6.00000000
-43.394113 61.829958 -40.409379 6.00000000
-40.495491 64.295362 -59.777613 6.00000000
-38.095590 66.142743 -12.870481 6.00000000
-35.385727 68.070065 -57.751890 6.00000000
-40.111918 64.617227 -49.264212 6.00000000
-37.289443 66.752658 -16.136432 6.00000000
-42.340849 62.733244 -27.921651 6.00000000
-43.958559 61.296418 -23.448840 6.00000000
-37.334806 66.718337 -0.538180 6.00000000
-36.818903 67.104377 -57.838728 6.00000000
-45.226559 60.097844 -1.925494 6.00000000
-36.530650 67.298605 -37.418411 6.00000000
-33.873178 69.089236 -2.988918 6.00000000
-37.802260 66.364670 -42.665652 6.00000000
-34.764297 68.488792 -48.677343 6.00000000
-34.924825 68.380626 2.503730 6.00000000
-40.506302 64.286210 -39.235686 6.00000000
-34.045241 68.973299 -57.255166 6.00000000
-35.441155 68.032718 -55.319889 6.00000000
-38.065738 66.165328 -11.023657 6.00000000
-35.764528 67.814826 -15.285309 6.00000000
-40.607758 64.200327 -21.847734 6.00000000
-39.395639 65.159150 -34.452121 6.00000000
-46.160152 59.215369 -51.280959 6.00000000
-39.009231 65.451499 -16.073707 6.00000000
-45.927165 59.435599 -50.466975 6.00000000
-34.841134 68.437018 -31.270651 6.00000000
-44.036673 61.222580 -36.665778 6.00000000
-41.233091 63.670975 -34.120371 6.00000000
-36.996434 66.974343 -58.904303 6.00000000
-38.188819 66.072207 -58.733795 6.00000000
-42.051255 62.978389 -54.142618 6.00000000
-37.788509 66.375074 -28.969073 6.00000000
-41.589217 63.369510 -22.822499 6.00000000
-37.626972 66.497290 -18.740086 6.00000000
-45.587441 59.756722 -19.213696 6.00000000
-42.707875 62.422552 -1.569734 6.00000000
-33.627382 69.254856 -46.628625 6.00000000
-37.778607 66.382566 -27.169687 6.00000000
-42.559589 62.548078 -43.760308 6.00000000
-42.642300 62.478063 -24.386006 6.00000000
-34.488004 68.674961 -34.575880 6.00000000
-36.933139 67.022231 -60.668649 6.00000000
-46.246909 59.133362 -1.296450 6.00000000
-37.622264 66.500852 -60.912601 6.00000000
-36.883904 67.059481 -33.422454 6.00000000
-46.189932 59.187220 -14.463189 6.00000000
-41.383871 63.543337 -10.809822 6.00000000
-43.792382 61.453495 -14.471456 6.00000000
-34.980881 68.342855 -1.476338 6.00000000
-44.075998 61.185408 -15.389453 6.00000000
-36.361193 67.412787 -44.936294 6.00000000
-42.253975 62.806784 -58.622140 6.00000000
-40.440237 64.342135 -52.931936 6.00000000
-35.592223 67.930927 -48.149770 6.00000000
-38.771331 65.631490 -8.011591 6.00000000
-44.346751 60.929480 -3.979185 6.00000000
-44.852051 60.451847 -26.265170 6.00000000
-43.332457 61.888238 -22.854422 6.00000000
-37.499304 66.593881 -36.401269 6.00000000
-44.996181 60.315609 -45.911775 6.00000000
-38.566868 65.786182 -23.993029 6.00000000
-39.480682 65.094808 1.906849 6.00000000
-42.888226 62.269883 -11.259897 6.00000000
-43.362769 61.859586 3.629404 6.00000000
-35.180726 68.208197 -37.939707 6.00000000
-46.172924 59.203296 -34.507488 6.00000000
-38.787813 65.619019 -9.339725 6.00000000
-36.703943 67.181839 -15.459712 6.00000000
-35.017653 68.318077 -46.726153 6.00000000
-39.029144 65.436433 -27.937496 6.00000000
-41.937893 63.074351 -15.279988 6.00000000
-37.234808 66.793994 -38.224303 6.00000000
-41.203391 63.696117 -29.508727 6.00000000
-40.163724 64.576207 -26.128510 6.00000000
-40.077825 64.643021 -44.417342 6.00000000
-35.764370 67.814932 -0.805092 6.00000000
-43.661136 61.577556 0.990556 6.00000000
-40.731474 64.095600 -54.802662 6.00000000
-34.422457 68.719127 -30.529069 6.00000000
-40.952299 63.908668 -0.098764 6.00000000
-39.702263 64.927164 -17.911409 6.00000000
-35.797260 67.792770 -2.074937 6.00000000
-38.666020 65.711166 -49.615724 6.00000000
-37.522119 66.576620 -14.499489 6.00000000
-41.402282 63.527752 -57.292487 6.00000000
-39.243070 65.274581 -59.098114 6.00000000
-43.953168 61.301513 -52.582413 6.00000000
-37.408798 66.662356 -7.498066 6.00000000
-44.293809 60.979523 -54.285193 6.00000000
-45.979467 59.386161 -25.610441 6.00000000
-42.293250 62.773537 -34.771215 6.00000000
-42.542932 62.562179 -46.749362 6.00000000
-41.111322 63.774054 -17.380409 6.00000000
-45.031248 60.282462 -57.378057 6.00000000
-42.388803 62.692651 -5.361317 6.00000000
-45.138081 60.181478 -3.553222 6.00000000
-36.741958 67.156224 -0.144404 6.00000000
-33.743601 69.176547 -21.073534 6.00000000
-34.345655 68.770877 -22.204910 6.00000000
-43.183259 62.020134 -0.244970 6.00000000
-36.468170 67.340705 -2.775026 6.00000000
-43.165972 62.034768 -43.024899 6.00000000
-45.704985 59.645614 -47.691293 6.00000000
-42.672776 62.452264 -8.678537 6.00000000
-36.283508 67.465132 -7.226140 6.00000000
-33.621082 69.259102 -53.381320 6.00000000
-38.725376 65.666258 -55.365963 6.00000000
-40.105684 64.621944 -60.548286 6.00000000
-42.836945 62.313293 -13.807476 6.00000000
-40.769522 64.063391 -53.945476 6.00000000
-44.433689 60.847302 -22.930201 6.00000000
-36.171418 67.540659 -56.303594 6.00000000
-36.179016 67.535540 -22.149762 6.00000000
-41.122901 63.764252 3.654674 6.00000000
-39.254184 65.266172 -50.134516 6.00000000
-41.144212 63.746212 -15.201475 6.00000000
-39.601847 65.003137 -10.624769 6.00000000
-34.509388 68.660552 -12.992252 6.00000000
-38.769415 65.632939 -60.408964 6.00000000
-45.245839 60.079620 -41.090543 6.00000000
-46.136905 59.237343 -21.041366 6.00000000
-33.863890 69.095495 -55.397406 6.00000000
-42.912441 62.249385 -3.554393 6.00000000
-41.071453 63.807804 -39.717945 6.00000000
-36.401825 67.385409 -12.711511 6.00000000
-43.680657 61.559103 -7.191979 6.00000000
-36.199811 67.521528 -53.138969 6.00000000
-37.985497 66.226037 -31.411533 6.00000000
-40.609556 64.198805 -16.445223 6.00000000
-40.570861 64.231560 -15.630826 6.00000000
-35.758229 67.819070 -33.009029 6.00000000
-34.466770 68.689268 1.736716 6.00000000
-41.011464 63.858585 -35.468836 6.00000000
-33.740511 69.178629 -23.563697 6.00000000
-45.137813 60.181731 -55.686228 6.00000000
-43.579703 61.654530 -43.768500 6.00000000
-42.756569 62.381333 -38.578433 6.00000000
-35.321654 68.113239 0.869111 6.00000000
-35.495236 67.996278 -30.949591 6.00000000
-43.595104 61.639972 -17.059655 6.00000000
-43.495602 61.734026 -47.772488 6.00000000
-45.308307 60.020572 -31.529529 6.00000000
-39.985471 64.712895 -0.124459 6.00000000
-36.194114 67.525367 -29.591586 6.00000000
-45.405352 59.928841 -15.166473 6.00000000
-42.552365 62.554193 -33.099342 6.00000000
-41.848166 63.150306 -61.067350 6.00000000
-44.124516 61.139547 -19.133339 6.00000000
-46.232162 59.147301 -3.373288 6.00000000
-34.547555 68.634834 -41.639712 6.00000000
-34.580080 68.612919 -40.796822 6.00000000
-35.413722 68.051202 -29.133116 6.00000000
-40.770832 64.062283 2.052772 6.00000000
-40.461728 64.323943 -29.765279 6.00000000
-41.977014 63.041235 -3.576970 6.00000000
-36.229255 67.501688 -42.952930 6.00000000
-35.252098 68.160107 3.409874 6.00000000
-42.865249 62.289333 -18.697756 6.00000000
-35.735518 67.834373 2.096806 6.00000000
-46.218344 59.160363 -17.925954 6.00000000
-43.652762 61.585471 -37.353580 6.00000000
-39.371561 65.177367 -49.322054 6.00000000
-38.936496 65.506529 -39.909670 6.00000000
-43.339706 61.881386 -46.374745 6.00000000
-34.909403 68.391018 -9.143189 6.00000000
-45.362643 59.969211 -0.732912 6.00000000
-40.906690 63.947277 -41.240487 6.00000000
-43.410747 61.814234 -29.808304 6.00000000
-45.900053 59.461227 -23.720041 6.00000000
-34.251212 68.834514 -19.021117 6.00000000
-35.889005 67.730952 -28.330074 6.00000000
-44.847119 60.456509 -7.513282 6.00000000
-46.183310 59.193479 3.527244 6.00000000
-44.578401 60.710514 -4.873793 6.00000000
-43.793191 61.452731 -53.511853 6.00000000
-42.212480 62.841910 -51.096978 6.00000000
-40.865285 63.982327 -60.969260 6.00000000
-40.279832 64.477920 -40.273607 6.00000000
-35.751900 67.823335 -11.946326 6.00000000
-41.541589 63.409827 -56.231887 6.00000000
-45.253362 60.072509 2.010696 6.00000000
-45.486063 59.852549 -34.697953 6.00000000
-42.946440 62.220604 -17.715331 6.00000000
-41.769709 63.216721 -51.808515 6.00000000
-41.511789 63.435053 -26.211531 6.00000000
-44.799466 60.501553 -15.735780 6.00000000
-41.638067 63.328157 -16.741590 6.00000000
-44.364101 60.913080 -6.780245 6.00000000
-40.074929 64.645212 -54.529552 6.00000000
-45.344392 59.986464 -32.617667 6.00000000
-42.800795 62.343894 -40.011333 6.00000000
-41.673949 63.297784 -12.262043 6.00000000
-35.125621 68.245328 -5.531147 6.00000000
-36.157480 67.550051 3.614033 6.00000000
-43.952883 61.301782 -47.257231 6.00000000
-44.779521 60.520406 -48.570807 6.00000000
-41.703019 63.273175 -4.614736 6.00000000
-34.064844 68.960090 -52.447042 6.00000000
-39.865470 64.803685 -13.912266 6.00000000
-39.917272 64.764493 -31.343550 6.00000000
-41.590538 63.368391 -50.562588 6.00000000
-41.395947 63.533115 -9.546134 6.00000000
-42.104815 62.933050 -26.918596 6.00000000
-40.796206 64.040803 -2.804462 6.00000000
-36.732587 67.162538 -19.260039 6.00000000
-38.285092 65.999369 -2.426926 6.00000000
-35.813126 67.782080 -3.012902 6.00000000
-43.570720 61.663021 -13.493679 6.00000000
-33.522547 69.325496 1.104478 6.00000000
-43.310912 61.908603 -16.132039 6.00000000
-43.210903 61.996733 -28.815546 6.00000000
-41.118875 63.767660 -18.348468 6.00000000
-40.233280 64.517327 -41.472089 6.00000000
-35.094437 68.266340 0.058845 6.00000000
-36.068290 67.610148 -25.548635 6.00000000
-44.224275 61.045250 -58.134817 6.00000000
-38.054617 66.173741 -52.361061 6.00000000
-35.032282 68.308220 -21.841208 6.00000000
-46.239489 59.140376 -13.361117 6.00000000
-43.207238 61.999835 -52.218143 6.00000000
-38.990670 65.465542 -46.528264 6.00000000
-39.919375 64.762901 -47.358661 6.00000000
-35.110856 68.255277 -14.144775 6.00000000
-43.023955 62.154987 -51.039716 6.00000000
-33.582113 69.285359 -39.202303 6.00000000
-37.375873 66.687266 -54.788505 6.00000000
-42.691714 62.436233 -22.310225 6.00000000
-41.852709 63.146460 -2.584940 6.00000000
-34.359818 68.761334 -37.201130 6.00000000
-36.527200 67.300930 -42.021508 6.00000000
-33.720518 69.192100 -40.435799 6.00000000
-41.233874 63.670312 -22.002056 6.00000000
-38.748550 65.648725 -20.980043 6.00000000
-40.791101 64.045125 -4.812480 6.00000000
-34.008346 68.998159 2.696838 6.00000000
-36.122093 67.573895 -6.217018 6.00000000
-44.117963 61.145741 -30.064218 6.00000000
-44.523505 60.762404 -51.499033 6.00000000
-36.190638 67.527708 -30.547411 6.00000000
-41.210204 63.690349 -8.639463 6.00000000
-42.502220 62.596641 -42.490820 6.00000000
-45.720331 59.631108 -20.494993 6.00000000
-42.783789 62.358290 1.342993 6.00000000
-46.220658 59.158176 -53.055020 6.00000000
-34.367919 68.755875 -2.299990 6.00000000
-38.563762 65.788532 -30.365752 6.00000000
-41.680142 63.292541 -41.618023 6.00000000
-45.456001 59.880966 -33.710042 6.00000000
-39.908763 64.770930 0.714928 6.00000000
-33.949480 69.037823 -6.197182 6.00000000
-37.262889 66.772748 -37.325330 6.00000000
-37.157379 66.852575 -22.214462 6.00000000
-40.215777 64.532143 -28.746652 6.00000000
-41.892496 63.112781 -8.378599 6.00000000
-37.232625 66.795645 -47.419535 6.00000000
-37.288178 66.753615 -12.317556 6.00000000
-42.204952 62.848282 -18.475978 6.00000000
-45.078385 60.237905 -59.321070 6.00000000
-38.086097 66.149924 -56.966791 6.00000000
-38.067992 66.163622 0.360832 6.00000000
-44.958500 60.351227 -36.797471 6.00000000
-39.761900 64.882044 -12.349735 6.00000000
-36.557599 67.280447 2.618681 6.00000000
-36.573143 67.269973 -28.676877 6.00000000
-37.314147 66.733967 3.003077 6.00000000
-34.178121 68.883763 -49.360457 6.00000000
-44.818931 60.483154 0.174675 6.00000000
-39.607190 64.999094 -43.701153 6.00000000
-45.551130 59.791045 -45.730184 6.00000000
-37.708829 66.435358 -1.341074 6.00000000
-36.944742 67.013452 -43.411237 6.00000000
-39.488607 65.088812 -21.022812 6.00000000
-41.936255 63.075738 -20.522596 6.00000000
-37.568218 66.541742 -58.000676 6.00000000
-41.312042 63.604142 -55.430736 6.00000000
-35.035756 68.305880 -56.293300 6.00000000
-39.201542 65.306000 -53.526046 6.00000000
-34.396919 68.736335 -7.190660 6.00000000
-37.081478 66.910000 -13.809073 6.00000000
-33.757163 69.167408 -8.309127 6.00000000
-41.859337 63.140850 -24.037244 6.00000000
-41.066352 63.812121 -30.493243 6.00000000
-33.487467 69.349133 3.840256 6.00000000
-40.517475 64.276752 -38.024276 6.00000000
-38.220568 66.048187 -48.873215 6.00000000
-43.083449 62.104624 2.518268 6.00000000
-34.622618 68.584256 -25.609790 6.00000000
-44.579157 60.709799 -31.991528 6.00000000
-43.916521 61.336154 -25.575362 6.00000000
-44.220887 61.048452 -27.239234 6.00000000
-37.870332 66.313168 -5.025153 6.00000000
-37.955388 66.248816 -50.092399 6.00000000
-38.407038 65.907107 -45.198151 6.00000000
-35.750209 67.824474 -27.423036 6.00000000
-43.641794 61.595838 -58.381556 6.00000000
-46.089663 59.281999 -12.436787 6.00000000
-39.901123 64.776710 -15.951329 6.00000000
-42.217753 62.837446 -40.214259 6.00000000
-42.211393 62.842831 -50.149138 6.00000000
-42.007589 63.015353 1.379235 6.00000000
-36.435584 67.362661 -32.472557 6.00000000
-44.091258 61.170984 -20.553949 6.00000000
-39.879261 64.793251 -42.805397 6.00000000
-34.973759 68.347654 -32.424440 6.00000000
-42.918433 62.244313 -44.621533 6.00000000
-41.508692 63.437675 0.729293 6.00000000
-43.509837 61.720570 -18.704567 6.00000000
-46.177385 59.199079 -45.297274 6.00000000
-41.226348 63.676683 -38.103273 6.00000000
-45.854868 59.503937 -46.739453 6.00000000
-39.357550 65.187967 -19.410020 6.00000000
-42.924985 62.238766 -37.107244 6.00000000
-39.485465 65.091190 -23.797688 6.00000000
-36.529479 67.299394 -23.001514 6.00000000
-42.649461 62.472000 -45.828451 6.00000000
-33.765742 69.161628 -25.102921 6.00000000
-42.016639 63.007692 -29.570840 6.00000000
-44.291099 60.982084 -9.438243 6.00000000
-46.254682 59.126015 -55.092955 6.00000000
-45.406365 59.927883 -54.769963 6.00000000
-35.146577 68.231207 -4.530464 6.00000000
-33.780611 69.151609 -59.432256 6.00000000
-43.188976 62.015294 -37.886163 6.00000000
-40.024960 64.683018 -8.777249 6.00000000
-39.598254 65.005856 -22.330259 6.00000000
-42.182647 62.867164 -32.463081 6.00000000
-37.643473 66.484805 -5.965673 6.00000000
-39.859965 64.807850 -27.749881 6.00000000
-42.103076 62.934522 -25.962363 6.00000000
-33.525311 69.323633 -54.677442 6.00000000
-45.782714 59.572141 0.711936 6.00000000
-38.033194 66.189950 -20.945284 6.00000000
-43.745548 61.497765 -9.146374 6.00000000
-45.048923 60.265754 -20.291907 6.00000000
-36.606681 67.247375 -49.066280 6.00000000
-40.671664 64.146230 0.772768 6.00000000
-36.522906 67.303823 -16.669211 6.00000000
-42.021160 63.003865 -22.128302 6.00000000
-42.560326 62.547454 -20.211867 6.00000000
-35.130547 68.242009 -51.409726 6.00000000
-44.064254 61.196509 -24.395025 6.00000000
-46.237268 59.142476 2.715124 6.00000000
-46.216671 59.161944 -5.766677 6.00000000
-34.393781 68.738449 -40.031272 6.00000000
-37.835161 66.339778 -51.306003 6.00000000
-38.659565 65.716049 -28.944724 6.00000000
-44.457644 60.824659 -25.289652 6.00000000
-38.473399 65.856899 -25.598961 6.00000000
-38.954493 65.492913 -43.423373 6.00000000
-35.572235 67.944395 -35.957815 6.00000000
-40.164144 64.575851 -4.135279 6.00000000
-41.510275 63.436335 -7.527661 6.00000000
-39.648041 64.968188 -7.349569 6.00000000
-43.427961 61.797963 -33.176064 6.00000000
-38.076714 66.157024 -28.161222 6.00000000
-45.160168 60.160601 -37.875072 6.00000000
-46.057533 59.312369 -22.065953 6.00000000
-43.652188 61.586013 -6.300205 6.00000000
-37.227816 66.799284 -25.915626 6.00000000
-37.630074 66.494943 -40.340258 6.00000000
-36.234036 67.498467 -49.943551 6.00000000
-41.736485 63.244846 -53.341018 6.00000000
-34.322749 68.786311 -20.346963 6.00000000
-33.733793 69.183155 -5.226121 6.00000000
-43.121800 62.072160 -31.769740 6.00000000
-37.777005 66.383777 -45.651180 6.00000000
-33.469712 69.361096 -32.262208 6.00000000
-33.472537 69.359193 -20.016652 6.00000000
-33.687945 69.214049 1.938687 6.00000000
-44.888224 60.417654 -9.430629 6.00000000
-37.581637 66.531590 -2.235924 6.00000000
-33.645702 69.242512 -36.071333 6.00000000
-45.250697 60.075028 -5.491893 6.00000000
-36.144306 67.558927 -3.762107 6.00000000
-46.210110 59.168146 -2.340968 6.00000000
-43.637238 61.600145 -55.495347 6.00000000
-40.524991 64.270390 -0.814675 6.00000000
-44.770441 60.528989 3.704528 6.00000000
-36.523597 67.303358 -27.845732 6.00000000
-46.239339 59.140518 -11.432860 6.00000000
-40.069344 64.649438 -58.440816 6.00000000
-36.341493 67.426061 -40.510962 6.00000000
-44.292972 60.980314 -10.917166 6.00000000
-35.436409 68.035916 -54.060158 6.00000000
-45.404519 59.929629 -4.600910 6.00000000
-40.293694 64.466186 -57.315176 6.00000000
-34.145355 68.905841 -33.590380 6.00000000
-39.785513 64.864179 -25.428584 6.00000000
-34.372100 68.753058 -51.548341 6.00000000
-40.543144 64.255024 -5.577438 6.00000000
-46.064948 59.305360 -53.969467 6.00000000
-44.324875 60.950158 -56.058706 6.00000000
-36.576205 67.267910 -44.146821 6.00000000
-43.407617 61.817193 -27.636486 6.00000000
-40.335483 64.430811 -13.284314 6.00000000
-35.942846 67.694673 -16.069267 6.00000000
-37.944445 66.257095 -11.856762 6.00000000
-41.952116 63.062311 -43.040959 6.00000000
-46.225149 59.153931 -60.933647 6.00000000
-45.255603 60.070390 -53.758725 6.00000000
-43.481289 61.747555 -8.220255 6.00000000
-43.971739 61.283959 -28.215626 6.00000000
-43.030771 62.149217 -58.743656 6.00000000
-41.653042 63.315481 -14.469117 6.00000000
-44.452470 60.829550 -17.886013 6.00000000
-43.158611 62.040999 -35.547506 6.00000000
-38.101585 66.138207 -13.912224 6.00000000
-33.614298 69.263672 -27.123126 6.00000000
-41.838951 63.158107 -38.018763 6.00000000
-33.862120 69.096688 -28.047531 6.00000000
-34.089330 68.943591 -11.428681 6.00000000
-44.251359 61.019649 -0.452941 6.00000000
-37.364900 66.695568 -44.954255 6.00000000
-40.278882 64.478724 -35.893256 6.00000000
-45.385188 59.947901 -7.026822 6.00000000
-40.802907 64.035131 -56.814329 6.00000000
-42.174158 62.874350 -19.516358 6.00000000
-35.591450 67.931447 -8.764217 6.00000000
-37.393323 66.674064 2.049678 6.00000000
-34.981477 68.342453 -27.493090 6.00000000
-42.144728 62.899263 -9.131859 6.00000000
-44.584972 60.704302 -53.586900 6.00000000
-40.079658 64.641634 3.801533 6.00000000
-44.284643 60.988188 -13.088736 6.00000000
-36.798407 67.118187 3.727979 6.00000000
-41.070229 63.808839 -52.562108 6.00000000
-37.749350 66.404701 -59.644770 6.00000000
-43.550919 61.681738 -50.037008 6.00000000
-43.558370 61.674694 -39.350755 6.00000000
-36.316466 67.442924 -54.565510 6.00000000
-37.245093 66.786212 -9.704392 6.00000000
-36.765335 67.140472 -52.599946 6.00000000
-33.615656 69.262757 -4.095728 6.00000000
-36.058013 67.617072 -47.219922 6.00000000
-35.676791 67.873944 -20.035886 6.00000000
-39.784373 64.865042 -15.051467 6.00000000
-44.640136 60.652159 -14.148315 6.00000000
-35.519014 67.980256 -18.232785 6.00000000
-37.902521 66.288814 -44.231899 6.00000000
-43.938094 61.315761 3.323324 6.00000000
-46.118257 59.254970 -35.496652 6.00000000
-45.539640 59.801906 2.737668 6.00000000
-41.609780 63.352103 -43.838850 6.00000000
-44.615623 60.675329 -55.140029 6.00000000
-38.020335 66.199679 -24.817229 6.00000000
-42.639988 62.480020 -55.428809 6.00000000
-33.476198 69.356726 -1.550219 6.00000000
-39.461456 65.109354 -51.507541 6.00000000
-41.807413 63.184805 -6.639281 6.00000000
-44.795063 60.505715 2.543435 6.00000000
-42.023232 63.002111 -45.919509 6.00000000
-40.701556 64.120926 -12.632485 6.00000000
-39.284240 65.243433 -47.290444 6.00000000
-42.576265 62.533962 -53.673195 6.00000000
-43.203845 62.002707 -24.807261 6.00000000
-44.433339 60.847633 -32.809952 6.00000000
-40.339582 64.427341 -7.807842 6.00000000
-38.037467 66.186717 -55.736117 6.00000000
-42.786133 62.356306 -27.288508 6.00000000
-36.628871 67.232423 -50.679402 6.00000000
-34.470451 68.686788 -38.406507 6.00000000
-38.681837 65.699199 -31.212976 6.00000000
-41.028817 63.843895 -43.210526 6.00000000
-41.295352 63.618271 -5.296739 6.00000000
-34.476755 68.682540 -5.055769 6.00000000
-43.308902 61.910503 -12.099821 6.00000000
-45.680305 59.668943 -39.317093 6.00000000
-41.447651 63.489347 -44.730667 6.00000000
-39.053794 65.417784 -31.977121 6.00000000
-43.774850 61.470067 -22.117145 6.00000000
-34.910393 68.390351 -24.561599 6.00000000
-39.930515 64.754473 -20.211713 6.00000000
-37.098790 66.896902 -27.342362 6.00000000
-44.631520 60.660303 -12.149463 6.00000000
-40.660980 64.155274 -50.705635 6.00000000
-40.320245 64.443710 -24.135335 6.00000000
-35.374892 68.077366 -34.507862 6.00000000
-36.105294 67.585214 -52.322218 6.00000000
-45.316170 60.013140 -43.364960 6.00000000
-42.406583 62.677600 -21.264229 6.00000000
-40.759864 64.071567 2.959797 6.00000000
-45.938236 59.425134 -16.097824 6.00000000
-35.365593 68.083632 -49.111516 6.00000000
-38.543120 65.804150 -53.090974 6.00000000
-34.188291 68.876910 -14.178108 6.00000000
-42.352986 62.722970 0.667311 6.00000000
-43.883779 61.367102 -42.887711 6.00000000
-45.079125 60.237206 -25.057151 6.00000000
-46.144147 59.230498 -26.592795 6.00000000
-41.176898 63.718543 -3.852598 6.00000000
-36.677626 67.199571 0.771127 6.00000000
-46.012848 59.354607 -8.723239 6.00000000
-35.472842 68.011367 -25.066997 6.00000000
-40.945499 63.914425 -44.019574 6.00000000
-34.478103 68.681632 -23.439728 6.00000000
-35.519706 67.979789 -42.096678 6.00000000
-40.290957 64.468503 -9.647221 6.00000000
-37.886819 66.300695 -54.224594 6.00000000
-35.182148 68.207239 -29.984850 6.00000000
-37.652004 66.478351 -41.654217 6.00000000
-39.211679 65.298331 -4.392796 6.00000000
-34.161525 68.894945 -58.690212 6.00000000
-34.944309 68.367498 -35.268756 6.00000000
-39.545415 65.045832 -45.253139 6.00000000
-39.273719 65.251393 -1.232628 6.00000000
-43.171814 62.029823 -53.084826 6.00000000
-43.822738 61.424801 -26.535293 6.00000000
-43.010636 62.166262 -56.068204 6.00000000
-36.100111 67.588707 -59.260687 6.00000000
-40.819406 64.021164 -48.496388 6.00000000
-40.860714 63.986197 -37.264159 6.00000000
-42.106703 62.931452 -12.870382 6.00000000
-42.429616 62.658102 -28.703684 6.00000000
-45.395744 59.937923 -23.032204 6.00000000
-39.768556 64.877008 -50.622056 6.00000000
-46.256433 59.124360 -22.838293 6.00000000
-37.984442 66.226835 -47.785860 6.00000000
-37.210355 66.812494 -34.669365 6.00000000
-36.188445 67.529187 -9.347418 6.00000000
-42.379085 62.700877 -11.780637 6.00000000
-36.745047 67.154142 -48.099563 6.00000000
-44.541397 60.745492 -28.547398 6.00000000
-41.225205 63.677651 -31.630938 6.00000000
-45.341749 59.988961 -28.268849 6.00000000
-34.789283 68.471956 -6.487573 6.00000000
-37.194488 66.824499 -24.611495 6.00000000
-43.394716 61.829388 -45.281905 6.00000000
-33.501649 69.339577 -18.617728 6.00000000
-44.449505 60.832352 -3.049438 6.00000000
-43.960879 61.294224 -29.115629 6.00000000
-43.595969 61.639154 -51.512967 6.00000000
-36.784025 67.127878 -45.591329 6.00000000
-34.286827 68.810515 -26.450912 6.00000000
-35.942456 67.694936 -39.248170 6.00000000
-43.925907 61.327282 -11.666498 6.00000000
-43.377784 61.845392 -49.250605 6.00000000
-41.938493 63.073843 -55.252821 6.00000000
-35.594997 67.929057 -50.655590 6.00000000
-44.628927 60.662754 -19.637360 6.00000000
-44.668981 60.624893 -5.773782 6.00000000
-41.993032 63.027676 3.856639 6.00000000
-38.537534 65.808376 -44.106594 6.00000000
-36.860530 67.076329 -6.825549 6.00000000
-40.463612 64.322348 -6.845890 6.00000000
-36.038136 67.630466 -20.877855 6.00000000
-40.511279 64.281997 -14.642911 6.00000000
-33.660721 69.232392 -29.265151 6.00000000
-36.898627 67.048342 -21.001214 6.00000000
-34.645452 68.568871 -29.288280 6.00000000
-45.226299 60.098090 -30.530828 6.00000000
-35.384740 68.070731 -17.087507 6.00000000
-33.519158 69.327779 -14.287489 6.00000000
-34.944128 68.367620 -45.465338 6.00000000
-39.251165 65.268456 -2.214650 6.00000000
-35.633252 67.903281 -36.973470 6.00000000
-42.822090 62.325868 -12.720582 6.00000000
-45.615125 59.730554 -17.117638 6.00000000
-36.415420 67.376248 -57.134700 6.00000000
-36.199376 67.521821 -33.672784 6.00000000
-38.951103 65.495477 -22.869864 6.00000000
-42.079439 62.954531 -0.538744 6.00000000
-37.582156 66.531197 -29.866270 6.00000000
-35.975271 67.672825 -19.057592 6.00000000
-39.418936 65.141524 -55.557562 6.00000000
-34.335026 68.778039 -15.718971 6.00000000
-35.218437 68.182787 -23.649828 6.00000000
-44.000369 61.256896 -48.320541 6.00000000
-46.061760 59.308374 -43.499051 6.00000000
-36.751265 67.149953 -55.495466 6.00000000
-44.536828 60.749810 -44.566809 6.00000000
-35.015265 68.319687 -10.441648 6.00000000
-41.604222 63.356808 -27.360598 6.00000000
-37.552985 66.553267 -53.120426 6.00000000
-35.452785 68.024881 -9.637170 6.00000000
-37.588378 66.526489 -4.121037 6.00000000
-38.383537 65.924887 -39.102530 6.00000000
-38.902591 65.532181 -40.746165 6.00000000
-44.469724 60.813240 -60.142432 6.00000000
-42.051558 62.978133 -52.562368 6.00000000
-33.505296 69.337119 -37.094822 6.00000000
-41.341738 63.579004 -36.385939 6.00000000
-44.730186 60.567040 1.614961 6.00000000
-42.526820 62.575818 -16.865789 6.00000000
-44.219017 61.050220 -46.168971 6.00000000
-45.825686 59.531521 -9.679325 6.00000000
-36.629028 67.232317 -17.705908 6.00000000
-39.451569 65.116834 -8.403121 6.00000000
-44.259458 61.011994 -59.194821 6.00000000
-38.139366 66.109622 -16.266951 6.00000000
-41.920970 63.088677 -25.085950 6.00000000
-42.761028 62.377557 -57.176270 6.00000000
-38.575414 65.779716 -57.790670 6.00000000
-33.500496 69.340353 -60.822598 6.00000000
-34.466398 68.689519 3.510068 6.00000000
-43.570789 61.662955 -34.553024 6.00000000
-38.410146 65.904755 -1.276714 6.00000000
-43.958009 61.296937 -35.452432 6.00000000
-40.295141 64.464961 -18.873221 6.00000000
-41.672255 63.299218 -49.690747 6.00000000
-43.341015 61.880148 -1.099962 6.00000000
-37.732466 66.417475 -21.779906 6.00000000
-43.253742 61.960469 -4.833929 6.00000000
-33.518353 69.328321 -43.775859 6.00000000
-43.877398 61.373134 -44.778298 6.00000000
-45.436094 59.899782 -42.394379 6.00000000
-42.333838 62.739179 -49.155260 6.00000000
-36.835858 67.092953 -46.422133 6.00000000
-42.750555 62.386423 -14.737412 6.00000000
-43.839956 61.408527 -21.301955 6.00000000
-40.948520 63.911867 -28.324424 6.00000000
-39.540559 65.049507 -52.503457 6.00000000
-45.250807 60.074924 -60.924178 6.00000000
-40.688866 64.131667 -22.715116 6.00000000
-35.886923 67.732355 -4.590027 6.00000000
-45.015611 60.297243 -18.836765 6.00000000
-44.675855 60.618395 -2.157999 6.00000000
-39.597907 65.006118 -48.445678 6.00000000
-37.071277 66.917718 -31.896828 6.00000000
-39.470130 65.102792 -9.630803 6.00000000
-37.606494 66.512783 -46.589794 6.00000000
-40.456271 64.328562 -34.086459 6.00000000
-38.490314 65.844102 -14.723260 6.00000000
-41.038165 63.835982 -1.983906 6.00000000
-40.565965 64.235705 -26.946368 6.00000000
-42.128572 62.912939 -57.602249 6.00000000
-39.241132 65.276047 -6.382516 6.00000000
-45.281820 60.045610 -56.549643 6.00000000
-38.104301 66.136152 -8.897435 6.00000000
-33.588321 69.281176 -56.371639 6.00000000
-33.536984 69.315767 -58.065726 6.00000000
-38.323972 65.969953 -41.734641 6.00000000
-46.042851 59.326247 -52.096799 6.00000000
-35.697310 67.860118 -26.271969 6.00000000
-40.412018 64.366023 -42.263797 6.00000000
-43.207043 62.000001 -21.401392 6.00000000
-41.909496 63.098390 -33.547970 6.00000000
-38.686322 65.695806 -11.625806 6.00000000
-46.252530 59.128049 -31.709636 6.00000000
-40.993930 63.873427 -23.715686 6.00000000
-46.197482 59.180082 -15.397727 6.00000000
-36.558098 67.280110 -10.088248 6.00000000
-46.201162 59.176605 -10.462954 6.00000000
-40.728994 64.097699 -47.550991 6.00000000
-45.712037 59.638948 -38.172911 6.00000000
-34.698927 68.532839 -54.566037 6.00000000
-42.160722 62.885724 -59.569349 6.00000000
-42.748629 62.388054 -48.407727 6.00000000
-41.415301 63.516732 -54.327520 6.00000000
-41.252858 63.654242 -40.549139 6.00000000
-37.690398 66.449303 -17.016845 6.00000000
-39.743421 64.896025 -59.685865 6.00000000
-40.385845 64.388179 -1.692101 6.00000000
-43.236831 61.974785 -54.816419 6.00000000
-43.115672 62.077348 -60.999402 6.00000000
-36.150571 67.554706 -60.552128 6.00000000
-36.235153 67.497714 -34.505652 6.00000000
-43.213691 61.994373 -15.336224 6.00000000
-36.470009 67.339466 -26.237164 6.00000000
-35.684107 67.869014 -46.332692 6.00000000
-36.343718 67.424562 -31.308512 6.00000000
-46.251576 59.128950 -37.770677 6.00000000
-45.932718 59.430350 1.800983 6.00000000
-37.083831 66.908219 -41.017219 6.00000000
-39.078662 65.398969 -16.877924 6.00000000
-34.858031 68.425633 -58.510525 6.00000000
-33.507216 69.335825 -38.352137 6.00000000
-43.655362 61.583013 -56.684206 6.00000000
-41.277398 63.633468 -19.562859 6.00000000
-39.795836 64.856368 -30.430110 6.00000000
-43.513401 61.717201 -19.961434 6.00000000
-35.146917 68.230978 -16.053021 6.00000000
-45.894508 59.466468 -57.840648 6.00000000
-45.473024 59.864874 -2.763028 6.00000000
-42.971631 62.199280 -6.075068 6.00000000
-33.590495 69.279711 -22.626024 6.00000000
-40.399562 64.376567 -10.644247 6.00000000
-33.545953 69.309724 -12.914652 6.00000000
-37.698773 66.442966 -19.690817 6.00000000
-40.346080 64.421840 -34.990691 6.00000000
-40.106926 64.621004 2.427867 6.00000000
-37.023240 66.954062 -59.840287 6.00000000
-39.136693 65.355064 0.186925 6.00000000
-44.762791 60.536219 -1.291821 6.00000000
-39.105323 65.378798 2.599082 6.00000000
-34.805081 68.461311 -43.939659 6.00000000
-40.392963 64.382153 -51.861286 6.00000000
-38.480888 65.851233 -21.796469 6.00000000
-36.513612 67.310085 -24.645053 6.00000000
-40.779022 64.055350 -49.533475 6.00000000
-38.293627 65.992911 -23.231960 6.00000000
-42.340626 62.733433 -31.522436 6.00000000
-38.570187 65.783671 -42.500039 6.00000000
-39.796252 64.856054 -33.689128 6.00000000
-46.039468 59.329445 -49.340291 6.00000000
-34.169705 68.889434 0.266767 6.00000000
-35.359232 68.087918 -59.183807 6.00000000
-42.771525 62.368672 -30.910252 6.00000000
-45.295519 60.032660 -29.412163 6.00000000
-33.973366 69.021729 -16.651480 6.00000000
-42.480817 62.614760 2.368994 6.00000000
-42.261323 62.800564 -56.387816 6.00000000
-42.714904 62.416603 -29.685686 6.00000000
-43.100318 62.090345 0.622736 6.00000000
-34.885933 68.406832 -53.138603 6.00000000
-46.223259 59.155717 -17.020885 6.00000000
-43.769763 61.474876 -32.417646 6.00000000
-44.696835 60.598565 -23.999452 6.00000000
-45.358815 59.972830 -50.946281 6.00000000
-43.567618 61.665953 -60.261883 6.00000000
-41.788087 63.201164 -39.313873 6.00000000
-39.127699 65.361869 -41.631258 6.00000000
-41.598582 63.361582 -48.849124 6.00000000
-34.047288 68.971919 -42.552157 6.00000000
-40.606392 64.201483 -31.136597 6.00000000
-42.644334 62.476341 -54.506328 6.00000000
-41.001679 63.866868 -14.087803 6.00000000
-38.618471 65.747141 -34.641994 6.00000000
-44.613089 60.677725 -30.884979 6.00000000
-35.475970 68.009259 -39.972117 6.00000000
-35.581469 67.938173 -44.342223 6.00000000
-34.978236 68.344638 -60.260835 6.00000000
-35.227863 68.176436 -19.132272 6.00000000
-37.274183 66.764203 -48.884803 6.00000000
-38.329179 65.966014 -26.537624 6.00000000
-45.436774 59.899140 -7.884593 6.00000000
-35.627276 67.907308 -40.848491 6.00000000
-45.568319 59.774797 -14.023361 6.00000000
-45.874704 59.485187 -0.113215 6.00000000
-38.246852 66.028300 -36.356282 6.00000000
-38.471773 65.858129 -3.628520 6.00000000
-37.321430 66.728457 0.487370 6.00000000
-38.886779 65.544144 -12.516045 6.00000000
-38.863834 65.561503 -17.791428 6.00000000
-39.881236 64.791756 -11.508482 6.00000000
-36.581982 67.264017 -4.938352 6.00000000
-39.260368 65.261494 -35.900315 6.00000000
-35.018241 68.317681 -22.780173 6.00000000
-43.957737 61.297194 -38.165552 6.00000000
