-45.743393 -15.651654 -31.168220 18.00000000
-47.414215 -44.509559 1.040991 18.00000000
-47.334650 -44.682299 -32.211389 18.00000000
-40.444499 -8.607648 -21.023066 18.00000000
-41.078250 -9.261103 -58.698213 18.00000000
-49.724298 -27.652822 -33.759107 18.00000000
-31.510198 -2.179045 -9.954972 18.00000000
-40.321082 -8.480393 -49.992587 18.00000000
-47.085237 -18.320556 -55.859419 18.00000000
-44.255166 -13.245488 -54.961210 18.00000000
-39.414348 -7.586844 -2.622057 18.00000000
-49.838960 -29.024579 -22.339040 18.00000000
-43.694087 -12.422578 -58.570788 18.00000000
-27.855018 -0.628507 -4.533800 18.00000000
-34.358955 -3.753127 -18.033924 18.00000000
-48.769903 -40.529092 -51.386493 18.00000000
-46.760135 -17.605547 -48.694210 18.00000000
-29.487010 -1.264379 -48.214980 18.00000000
-49.541319 -36.990709 -15.570387 18.00000000
-49.707991 -36.000568 -7.693492 18.00000000
-49.875563 -29.462487 -27.721710 18.00000000
-36.097112 -4.908624 -25.814852 18.00000000
-35.689887 -4.612312 -54.139419 18.00000000
-34.466610 -3.818128 -10.174985 18.00000000
-46.384814 -16.791423 -23.097216 18.00000000
-46.444028 -46.615959 -21.252509 18.00000000
-47.924121 -43.159828 -37.156345 18.00000000
-40.102241 -8.254748 -54.696519 18.00000000
-45.923351 -15.971429 -36.622998 18.00000000
-48.166574 -42.486812 -60.143390 18.00000000
-24.688883 -0.368779 -48.780262 18.00000000
-38.784205 -7.039878 -59.641288 18.00000000
-41.831478 -10.075245 -45.582775 18.00000000
-30.362349 -1.614133 -37.533738 18.00000000
-43.484499 -12.115183 -44.761926 18.00000000
-47.796533 -20.016965 -27.053936 18.00000000
-49.950312 -33.130597 -21.611903 18.00000000
-49.954289 -31.498302 -58.057287 18.00000000
-41.616190 -9.815768 -56.577279 18.00000000
-34.761031 -3.995893 -43.665534 18.00000000
-48.715260 -40.734547 0.343520 18.00000000
-45.525850 -15.265094 -17.418723 18.00000000
-23.123707 -0.275511 -47.982632 18.00000000
-25.371837 -0.409475 -8.353725 18.00000000
-46.558363 -17.161780 -37.899477 18.00000000
-22.610491 -0.244928 -26.141320 18.00000000
-40.732430 -8.904531 3.575847 18.00000000
-44.621551 -13.782849 -21.763983 18.00000000
-44.093026 -13.007683 -4.959946 18.00000000
-49.860671 -29.284324 -50.229136 18.00000000
-49.831113 -28.930702 -40.078493 18.00000000
-46.170032 -16.409767 -44.730972 18.00000000
-22.549159 -0.241274 -38.537443 18.00000000
-49.954468 -31.424826 -9.697780 18.00000000
-46.882671 -17.875044 -35.868047 18.00000000
-44.687752 -13.879942 -23.918468 18.00000000
-46.767653 -17.622080 -24.531919 18.00000000
-48.496816 -21.990927 -36.436956 18.00000000
-44.651273 -13.826440 -19.648545 18.00000000
-43.186440 -11.736295 -34.396794 18.00000000
-48.654471 -22.561885 -42.181523 18.00000000
-49.747307 -35.556323 -46.314646 18.00000000
-32.421347 -2.627465 3.716059 18.00000000
-36.341710 -5.086602 -6.960167 18.00000000
-49.308569 -38.313952 -18.825414 18.00000000
-49.011981 -23.932965 3.806064 18.00000000
-49.860330 -29.280245 -42.825359 18.00000000
-49.715806 -27.583397 -56.618251 18.00000000
-49.084198 -39.347365 -52.861075 18.00000000
-48.969004 -23.768144 -26.809468 18.00000000
-31.588905 -2.217780 -55.766676 18.00000000
-46.527930 -46.433772 -45.831453 18.00000000
-34.395331 -3.775090 -59.335687 18.00000000
-49.829091 -28.906518 0.006408 18.00000000
-40.041802 -8.192430 -5.728093 18.00000000
-41.975023 -10.251217 -53.122958 18.00000000
-23.482967 -0.296919 -21.233980 18.00000000
-39.119006 -7.330486 -19.929290 18.00000000
-31.590641 -2.218635 -48.174695 18.00000000
-41.861620 -10.112196 -28.528558 18.00000000
-42.286525 -10.633087 -20.606949 18.00000000
-40.790962 -8.964882 -13.666856 18.00000000
-47.672029 -43.859603 -28.256543 18.00000000
-26.231292 -0.460690 -48.236349 18.00000000
-49.912727 -29.907089 -14.095091 18.00000000
-49.725918 -27.672207 3.418511 18.00000000
-32.014870 -2.427418 -2.432905 18.00000000
-21.809636 -0.197206 -29.404100 18.00000000
-38.063131 -6.413984 -9.702081 18.00000000
-30.536658 -1.699919 -7.380674 18.00000000
-46.342104 -46.837272 -0.587524 18.00000000
-35.035459 -4.161587 -2.587975 18.00000000
-31.564181 -2.205612 -33.950883 18.00000000
-36.639321 -5.303155 -18.703471 18.00000000
-23.900167 -0.321780 -44.815000 18.00000000
-42.536851 -10.939962 -40.587525 18.00000000
-24.387897 -0.350843 -15.604401 18.00000000
-40.188251 -8.343432 -18.711170 18.00000000
-49.722174 -35.840317 1.316490 18.00000000
-49.573624 -26.751321 -6.691777 18.00000000
-49.953145 -31.967872 0.820383 18.00000000
-47.841355 -20.143310 -36.899280 18.00000000
-49.949467 -33.272047 -0.042306 18.00000000
-49.956462 -30.430319 2.239168 18.00000000
-38.499649 -6.792882 -25.024853 18.00000000
-43.586922 -12.265402 -30.126979 18.00000000
-49.106833 -39.262258 -40.166123 18.00000000
-45.432105 -15.098513 -57.374261 18.00000000
-34.044419 -3.563217 -34.910308 18.00000000
-49.632874 -36.470198 -48.080032 18.00000000
-48.831299 -23.240035 -54.589072 18.00000000
-48.975587 -39.755733 -2.123184 18.00000000
-37.446402 -5.890416 -29.591802 18.00000000
-49.954627 -31.359323 -27.972621 18.00000000
-49.133607 -39.161588 -16.464468 18.00000000
-47.252959 -44.859665 -2.822146 18.00000000
-30.369170 -1.617490 3.796193 18.00000000
-37.923524 -6.292804 -32.253469 18.00000000
-42.314372 -10.667225 -24.484931 18.00000000
-32.687401 -2.758403 -6.809773 18.00000000
-21.020698 -0.150194 -6.505440 18.00000000
-49.406943 -37.754671 -3.609894 18.00000000
-47.860044 -43.337699 -56.251183 18.00000000
-40.580184 -8.747551 1.375174 18.00000000
-48.588242 -22.307891 -34.247009 18.00000000
-48.410620 -41.809371 -50.295773 18.00000000
-49.753354 -28.000434 -35.834977 18.00000000
-48.671677 -22.627870 -56.163979 18.00000000
-49.768191 -35.320347 -14.585967 18.00000000
-49.869313 -29.387708 -8.734447 18.00000000
-47.670950 -43.862598 -20.574325 18.00000000
-47.312488 -44.730415 -14.258354 18.00000000
-46.971819 -18.071111 -60.845964 18.00000000
-48.044029 -20.714608 -21.220546 18.00000000
-47.063062 -18.271786 -51.555541 18.00000000
-49.925553 -33.542259 -1.805325 18.00000000
-48.844293 -23.289867 -37.840043 18.00000000
-48.423443 -21.784103 -51.756817 18.00000000
-26.211055 -0.459484 -4.644892 18.00000000
-37.189267 -5.703315 -42.397931 18.00000000
-32.835735 -2.833437 1.119676 18.00000000
-48.035308 -42.851189 -29.410978 18.00000000
-47.331310 -18.861757 -49.579766 18.00000000
-45.699483 -15.573628 3.008032 18.00000000
-21.788352 -0.195938 1.349220 18.00000000
-32.679747 -2.754637 -14.883089 18.00000000
-47.708114 -19.767731 -28.854955 18.00000000
-47.736108 -19.846640 -30.980263 18.00000000
-45.213807 -14.710610 -55.446983 18.00000000
-40.178248 -8.333118 -57.294583 18.00000000
-49.679482 -36.205218 -29.102524 18.00000000
-46.861432 -45.709705 -29.077930 18.00000000
-41.986836 -10.265698 -12.668596 18.00000000
-49.896022 -29.707238 -59.418759 18.00000000
-46.386473 -16.794371 -21.350623 18.00000000
-44.848141 -14.115178 -41.468557 18.00000000
-49.956441 -30.615101 -11.126967 18.00000000
-46.367677 -16.760971 -12.057531 18.00000000
-46.997202 -18.126937 -15.546720 18.00000000
-28.616496 -0.925201 -49.871877 18.00000000
-45.996935 -16.102183 -41.431801 18.00000000
-38.624177 -6.900974 -26.617318 18.00000000
-49.549032 -36.946860 -58.427753 18.00000000
-49.954213 -31.529251 -37.129591 18.00000000
-47.328687 -44.695244 -37.792517 18.00000000
-46.969168 -18.065282 -8.525619 18.00000000
-48.548734 -41.360671 -33.483247 18.00000000
-47.413530 -44.511042 -42.827075 18.00000000
-47.610265 -19.491913 -57.838435 18.00000000
-36.556943 -5.243213 -31.234270 18.00000000
-49.143404 -39.124754 -6.592134 18.00000000
-26.195761 -0.458573 -42.445311 18.00000000
-30.190880 -1.538628 -43.047720 18.00000000
-21.206827 -0.161285 -33.463223 18.00000000
-45.773616 -15.705358 -29.409481 18.00000000
-49.348874 -38.084809 -12.947836 18.00000000
-49.205626 -24.675611 2.182469 18.00000000
-49.896243 -29.709893 -48.106173 18.00000000
-49.410811 -25.798515 -16.624845 18.00000000
-37.350242 -5.820446 -44.133190 18.00000000
-48.937383 -39.899378 2.082732 18.00000000
-49.951316 -32.718464 -61.079879 18.00000000
-47.933034 -20.401736 -4.402076 18.00000000
-45.091222 -14.492783 0.737603 18.00000000
-33.335100 -3.134944 -42.886303 18.00000000
-49.878562 -34.073229 2.333777 18.00000000
-44.912411 -14.209440 -28.642061 18.00000000
-49.844269 -29.088096 -2.859411 18.00000000
-35.109792 -4.206468 -16.105244 18.00000000
-47.793332 -43.522880 -25.832737 18.00000000
-29.957276 -1.447609 -19.108128 18.00000000
-49.950580 -33.020678 -15.048941 18.00000000
-39.940285 -8.087756 -60.684914 18.00000000
-48.911246 -23.546639 -24.893578 18.00000000
-46.441697 -46.621032 -8.217120 18.00000000
-31.134075 -1.993936 -28.098302 18.00000000
-22.533601 -0.240347 -51.976833 18.00000000
-39.298344 -7.486152 -38.467473 18.00000000
-21.863613 -0.200422 -31.683929 18.00000000
-48.798532 -40.421449 -43.590865 18.00000000
-44.040436 -12.930553 -26.899148 18.00000000
-49.524714 -37.085115 -35.253106 18.00000000
-36.376266 -5.111746 -15.641497 18.00000000
-44.827007 -14.084182 3.466928 18.00000000
-32.633520 -2.731886 -4.497315 18.00000000
-49.372970 -37.947815 -10.776469 18.00000000
-47.692955 -43.801515 -50.527486 18.00000000
-35.936198 -4.791537 -14.154787 18.00000000
-21.270837 -0.165099 -57.340633 18.00000000
-36.372573 -5.109059 -52.339562 18.00000000
-48.355370 -21.592219 -29.259601 18.00000000
-39.861149 -8.006160 -23.875415 18.00000000
-43.891183 -12.711650 -12.710940 18.00000000
-44.795127 -14.037424 -30.330686 18.00000000
-32.487746 -2.660143 -19.976410 18.00000000
-48.362900 -41.941838 -56.952176 18.00000000
-46.394580 -46.723292 -48.321127 18.00000000
-38.983555 -7.212915 -8.381422 18.00000000
-48.296368 -42.126521 -46.936635 18.00000000
-42.400331 -10.772603 -8.450314 18.00000000
-46.583488 -17.217039 -17.566700 18.00000000
-49.768918 -35.312131 -53.859296 18.00000000
-49.084790 -39.345138 -54.615384 18.00000000
-48.737796 -40.649813 -22.331351 18.00000000
-45.150474 -14.598070 -5.009078 18.00000000
-46.912096 -45.599717 -15.991438 18.00000000
-46.021542 -16.145910 1.231673 18.00000000
-48.169406 -21.068021 -8.382573 18.00000000
-48.901432 -23.509003 -30.319549 18.00000000
-42.863611 -11.340539 -3.800452 18.00000000
-25.564484 -0.420955 -1.638297 18.00000000
-45.485666 -15.193689 -11.358349 18.00000000
-48.175390 -21.084890 2.042516 18.00000000
-49.815379 -28.742466 -57.851081 18.00000000
-31.881347 -2.361705 -43.556131 18.00000000
-47.860576 -20.197490 -23.655669 18.00000000
-28.837117 -1.011162 -3.201416 18.00000000
-49.775607 -35.236559 -9.485358 18.00000000
-49.950495 -33.055445 -29.598886 18.00000000
-44.027786 -12.911999 -2.173145 18.00000000
-28.913071 -1.040756 -20.630492 18.00000000
-49.787606 -35.100972 -1.974820 18.00000000
-36.186008 -4.973308 -34.684403 18.00000000
-49.552124 -26.625504 -29.492729 18.00000000
-36.420335 -5.143812 1.490497 18.00000000
-49.138341 -39.143790 -25.408543 18.00000000
-49.158358 -39.068529 -9.564975 18.00000000
-48.964493 -23.750844 -51.343455 18.00000000
-49.361573 -25.510366 -52.383115 18.00000000
-35.143512 -4.226827 -28.571624 18.00000000
-42.560337 -10.968755 -22.534256 18.00000000
-47.344481 -44.660955 -54.727710 18.00000000
-49.832312 -28.945045 -10.640442 18.00000000
-45.077233 -14.467926 -0.904155 18.00000000
-49.500462 -26.323169 -25.580077 18.00000000
-45.044348 -14.409491 -52.605442 18.00000000
-43.494082 -12.129239 -36.646550 18.00000000
-49.030200 -39.550393 -34.762804 18.00000000
-25.616292 -0.424042 -26.039053 18.00000000
-47.924093 -20.376532 -55.860043 18.00000000
-31.175684 -2.014414 -44.908075 18.00000000
-21.128026 -0.156589 -1.143115 18.00000000
-43.959948 -12.812504 -56.655126 18.00000000
-44.004092 -12.877249 -60.884015 18.00000000
-49.708538 -35.994391 -33.846522 18.00000000
-22.657922 -0.247755 -55.796675 18.00000000
-46.877383 -17.863414 -53.517717 18.00000000
-46.773041 -17.633931 -13.606903 18.00000000
-43.749592 -12.503984 -23.582882 18.00000000
-46.965813 -18.057904 -39.546185 18.00000000
-46.379079 -46.756954 -41.679882 18.00000000
-37.511655 -5.937896 -50.639013 18.00000000
-27.384590 -0.529414 -55.775279 18.00000000
-49.210197 -38.873221 -50.966664 18.00000000
-47.149994 -18.462981 -46.329356 18.00000000
-48.672617 -22.631477 -32.446378 18.00000000
-49.373428 -25.579745 -48.281331 18.00000000
-21.108925 -0.155451 -27.033856 18.00000000
-39.441073 -7.610042 -55.996362 18.00000000
-33.491448 -3.229344 -41.205932 18.00000000
-48.641568 -22.512400 -21.007282 18.00000000
-23.681051 -0.308723 -32.164680 18.00000000
-40.792174 -8.966132 -32.813832 18.00000000
-39.122314 -7.333358 -15.887996 18.00000000
-48.828636 -40.308260 -37.930258 18.00000000
-26.453449 -0.473928 3.007648 18.00000000
-49.798215 -28.537129 -53.771959 18.00000000
-32.922056 -2.885556 -58.444394 18.00000000
-47.711895 -43.748940 -47.804936 18.00000000
-49.950147 -33.198495 -23.944617 18.00000000
-46.485608 -46.525690 -13.712908 18.00000000
-48.768309 -40.535085 -9.082350 18.00000000
-49.476610 -26.183582 -9.623606 18.00000000
-49.956027 -30.784814 -6.820653 18.00000000
-49.951926 -32.468045 -44.568641 18.00000000
-45.495256 -15.210729 -43.548905 18.00000000
-46.886890 -45.654438 -22.564068 18.00000000
-28.531335 -0.892020 -10.639563 18.00000000
-32.757592 -2.792948 -49.448373 18.00000000
-49.690551 -27.435598 -22.431429 18.00000000
-49.637874 -36.441771 -13.110815 18.00000000
-46.116849 -16.315264 -19.185917 18.00000000
-42.373252 -10.739406 -14.190764 18.00000000
-48.008853 -42.924624 -15.512211 18.00000000
-29.372662 -1.219826 0.463724 18.00000000
-49.956577 -30.559322 -40.280171 18.00000000
-44.845827 -14.111785 -58.687638 18.00000000
-49.956855 -30.444984 -51.764515 18.00000000
-24.407644 -0.352020 -46.513183 18.00000000
-49.952036 -32.422974 -40.564526 18.00000000
-37.966095 -6.329756 -18.799260 18.00000000
-35.492474 -4.468667 -39.474493 18.00000000
-48.022111 -20.652826 -46.816611 18.00000000
-49.342074 -25.396256 -26.966631 18.00000000
-48.840921 -23.276936 -15.512852 18.00000000
-49.483541 -37.319193 -45.501410 18.00000000
-35.339671 -4.357482 -20.416878 18.00000000
-49.863042 -29.312683 -29.503447 18.00000000
-47.536004 -44.237190 -4.744091 18.00000000
-47.306225 -18.806585 -11.441253 18.00000000
-48.957912 -39.822191 -33.105595 18.00000000
-47.745844 -43.654702 -52.656725 18.00000000
-44.503330 -13.609459 -44.032676 18.00000000
-23.522452 -0.299272 -16.915387 18.00000000
-22.886189 -0.261357 -34.491995 18.00000000
-49.304489 -25.176301 -30.739893 18.00000000
-49.890861 -33.934265 -54.768200 18.00000000
-46.097534 -16.280943 -61.005446 18.00000000
-46.626370 -46.220050 -39.974356 18.00000000
-36.704011 -5.350225 -9.531150 18.00000000
-33.793754 -3.411870 -52.340197 18.00000000
-48.040499 -20.704658 -48.417008 18.00000000
-39.367249 -7.545962 -53.192283 18.00000000
-27.920975 -0.654206 -36.686793 18.00000000
-21.825551 -0.198154 -20.755690 18.00000000
-27.062906 -0.510245 -43.840404 18.00000000
-34.144263 -3.623501 -26.429780 18.00000000
-49.746474 -27.918131 -17.134819 18.00000000
-37.272069 -5.763565 -26.746476 18.00000000
-42.744860 -11.194961 -50.646514 18.00000000
-49.382465 -37.893831 -23.664689 18.00000000
-28.739257 -0.973032 -35.301866 18.00000000
-47.484657 -19.199019 -40.542232 18.00000000
-25.247467 -0.402064 -21.168432 18.00000000
-49.649739 -27.196760 -18.540821 18.00000000
-47.300847 -44.755700 3.612340 18.00000000
-49.357356 -38.036584 -32.073100 18.00000000
-46.548064 -46.390070 -32.977091 18.00000000
-48.351860 -41.972484 -40.314072 18.00000000
-46.430645 -46.645009 -27.567401 18.00000000
-45.489423 -15.200364 -33.585830 18.00000000
-41.663875 -9.869779 0.345360 18.00000000
-49.954864 -31.262194 -29.779780 18.00000000
-49.470742 -26.149241 3.421986 18.00000000
-34.756726 -3.993294 -22.829283 18.00000000
-47.655027 -19.618087 -8.187795 18.00000000
-41.870697 -10.123323 -2.718167 18.00000000
-43.237827 -11.799291 0.358134 18.00000000
-30.365713 -1.615788 -35.882756 18.00000000
-49.315605 -38.273951 -38.517450 18.00000000
-49.716705 -27.588653 -47.882581 18.00000000
-49.877375 -34.086637 -3.941061 18.00000000
-47.750840 -19.888167 -18.665736 18.00000000
-49.456114 -26.063634 1.297565 18.00000000
-48.627569 -22.458714 -47.763157 18.00000000
-49.252409 -24.871523 -28.792998 18.00000000
-46.762639 -17.611054 -32.342712 18.00000000
-25.100208 -0.393289 -3.530147 18.00000000
-35.869111 -4.742722 -55.781019 18.00000000
-44.077650 -12.985132 -46.200126 18.00000000
-49.430187 -37.622522 -54.012546 18.00000000
-48.328097 -42.038445 -3.621145 18.00000000
-32.904051 -2.874685 -9.311990 18.00000000
-45.399662 -15.040864 -13.867470 18.00000000
-49.938626 -30.216937 -61.020565 18.00000000
-48.183300 -42.440382 -54.755502 18.00000000
-28.825995 -1.006828 -8.041135 18.00000000
-47.389952 -18.990729 -44.724432 18.00000000
-49.740805 -27.850307 -28.396382 18.00000000
-24.092252 -0.333226 -11.099467 18.00000000
-31.588057 -2.217363 -0.693598 18.00000000
-30.253628 -1.563076 -54.929008 18.00000000
-31.890594 -2.366256 -59.534907 18.00000000
-45.239078 -14.755516 -39.678066 18.00000000
-45.871451 -15.879205 -53.895962 18.00000000
-34.781090 -4.008004 3.794648 18.00000000
-24.983618 -0.386342 -51.227933 18.00000000
-35.877307 -4.748686 -32.810528 18.00000000
-21.000146 -0.148969 -54.331861 18.00000000
-49.293139 -38.401677 -42.698121 18.00000000
-49.360217 -38.020317 1.042944 18.00000000
-27.474696 -0.534784 -21.342342 18.00000000
-48.545266 -41.373712 -1.248351 18.00000000
-39.437404 -7.606858 -41.236900 18.00000000
-38.252411 -6.578279 -46.160634 18.00000000
-47.598410 -19.458497 -54.090551 18.00000000
-49.811181 -28.692252 -32.383302 18.00000000
-28.221699 -0.771377 -54.416829 18.00000000
-47.961505 -20.481991 -60.929658 18.00000000
-47.615748 -44.015830 -16.910831 18.00000000
-49.639977 -27.139632 -31.319174 18.00000000
-38.596852 -6.877255 -44.313872 18.00000000
-49.746641 -35.563854 -43.618279 18.00000000
-48.560935 -41.314795 -15.853618 18.00000000
-28.083182 -0.717407 -46.919343 18.00000000
-48.154229 -21.025241 -17.661535 18.00000000
-48.335105 -42.018992 -27.289935 18.00000000
-38.819396 -7.070424 -36.263801 18.00000000
-23.202726 -0.280219 -5.938952 18.00000000
-49.032997 -39.539878 -20.702727 18.00000000
-40.993960 -9.174192 -16.910244 18.00000000
-48.645620 -40.996385 -31.234262 18.00000000
-49.950995 -32.850214 -4.931976 18.00000000
-40.956822 -9.135899 -37.508269 18.00000000
-49.335739 -25.359181 -45.128526 18.00000000
-26.039913 -0.449286 -58.481380 18.00000000
-49.955180 -31.132622 -56.149750 18.00000000
-48.370247 -21.634154 -57.394071 18.00000000
-45.148078 -14.593813 -25.586923 18.00000000
-29.888832 -1.420941 -34.220813 18.00000000
-49.726014 -35.796921 -39.126311 18.00000000
-29.223635 -1.161760 -1.263722 18.00000000
-25.878437 -0.439664 -14.374086 18.00000000
-49.771537 -35.282538 -24.503277 18.00000000
-39.953422 -8.101302 -35.325823 18.00000000
-27.032702 -0.508445 -50.728289 18.00000000
-45.467413 -15.161254 -3.371763 18.00000000
-48.696421 -22.722767 -8.665266 18.00000000
-22.885489 -0.261315 -42.779982 18.00000000
-42.817869 -11.284463 -46.225461 18.00000000
-48.254464 -42.242842 -24.079037 18.00000000
-47.143785 -45.096685 -46.744685 18.00000000
-27.449068 -0.533256 -24.550790 18.00000000
-27.511588 -0.536982 -52.874402 18.00000000
-49.323596 -38.228521 -48.862762 18.00000000
-21.324932 -0.168323 -36.975007 18.00000000
-49.790590 -28.445903 -24.217415 18.00000000
-49.829344 -34.629356 -35.464272 18.00000000
-49.908773 -33.731865 -52.843558 18.00000000
-45.949939 -16.018675 -34.982786 18.00000000
-49.955662 -30.934510 -34.465212 18.00000000
-37.104625 -5.641727 -48.068136 18.00000000
-49.736500 -27.798796 -37.387799 18.00000000
-42.509965 -10.907003 -60.916304 18.00000000
-49.952180 -30.379091 -43.921605 18.00000000
-34.648511 -3.927955 -13.343453 18.00000000
-29.679833 -1.339508 -46.219660 18.00000000
-47.299693 -44.758195 -24.443745 18.00000000
-27.157664 -0.515892 -8.986287 18.00000000
-49.459428 -37.456281 -56.292084 18.00000000
-47.053143 -18.249971 -33.926491 18.00000000
-20.999286 -0.148918 -50.973894 18.00000000
-40.618935 -8.787507 -42.517745 18.00000000
-46.281724 -16.608237 -7.891732 18.00000000
-46.619457 -46.235068 -30.790831 18.00000000
-48.286263 -42.154571 -21.795299 18.00000000
-49.925443 -33.543508 -37.150582 18.00000000
-49.714377 -27.575030 -11.916766 18.00000000
-38.086620 -6.434372 1.949077 18.00000000
-44.867673 -14.143825 -10.304566 18.00000000
-36.495393 -5.198428 -3.710751 18.00000000
-47.870171 -20.224537 -10.361425 18.00000000
-41.759901 -9.987499 -10.197697 18.00000000
-23.150708 -0.277120 -7.948354 18.00000000
-49.699993 -36.088608 -31.152124 18.00000000
-21.668001 -0.188766 -15.974182 18.00000000
-48.886820 -23.452962 -57.657032 18.00000000
-41.335271 -9.526115 -54.597603 18.00000000
-46.011295 -16.127701 -55.785426 18.00000000
-48.322736 -21.500228 -45.470908 18.00000000
-44.523604 -13.639194 -8.604981 18.00000000
-36.179503 -4.968574 -23.980240 18.00000000
-48.639807 -41.018244 -45.334539 18.00000000
-49.911262 -29.889568 -54.969561 18.00000000
-45.518983 -15.252891 -22.769252 18.00000000
-41.333520 -9.524309 -19.304196 18.00000000
-48.633110 -41.043422 -55.462223 18.00000000
-44.309280 -13.324853 -48.389340 18.00000000
-48.284633 -42.159095 -11.447675 18.00000000
-46.843856 -17.789678 -57.424002 18.00000000
-27.594619 -0.541930 -13.738411 18.00000000
-34.546580 -3.866412 -49.530074 18.00000000
-45.992542 -16.094378 -1.353797 18.00000000
-25.835186 -0.437086 -56.217169 18.00000000
-42.444391 -10.826615 -37.951144 18.00000000
-39.777197 -7.919598 -48.560191 18.00000000
-35.634146 -4.571752 -42.356434 18.00000000
-40.416260 -8.578530 -39.413281 18.00000000
-43.513805 -12.158166 -51.880045 18.00000000
-38.899105 -7.139612 -6.588716 18.00000000
-47.376597 -44.591228 -30.534919 18.00000000
-47.100762 -45.190094 -41.327157 18.00000000
-49.165844 -24.523044 -41.832233 18.00000000
-49.832417 -34.594644 -5.788083 18.00000000
-49.774582 -28.254395 -60.608359 18.00000000
-45.454055 -15.137517 -7.699013 18.00000000
-25.801963 -0.435106 -19.422643 18.00000000
-40.040674 -8.191267 -9.139297 18.00000000
-40.266429 -8.424040 -15.630427 18.00000000
-21.279546 -0.165618 3.799248 18.00000000
-40.958059 -9.137174 -1.105033 18.00000000
-38.828506 -7.078332 -58.065972 18.00000000
-46.421876 -16.861597 -52.329655 18.00000000
-49.461250 -37.445921 -27.325959 18.00000000
-48.162945 -42.496885 -7.740228 18.00000000
-22.849759 -0.259186 -54.047275 18.00000000
-49.563478 -26.691947 -4.732944 18.00000000
-47.718952 -43.729349 -11.435015 18.00000000
-23.743314 -0.312433 -56.904795 18.00000000
-28.002817 -0.686094 -59.566427 18.00000000
-31.598333 -2.222420 -23.363150 18.00000000
-49.063526 -24.130646 -61.120234 18.00000000
-29.235283 -1.166299 -24.458168 18.00000000
-49.726905 -35.786860 -55.465569 18.00000000
-46.638157 -46.194462 -36.072021 18.00000000
-45.159738 -14.614533 -35.868167 18.00000000
-40.982280 -9.162149 -35.752986 18.00000000
-46.973939 -18.075775 -43.491421 18.00000000
-34.938459 -4.103021 1.845028 18.00000000
-49.462321 -26.099959 -20.483410 18.00000000
-29.197518 -1.151585 -44.532944 18.00000000
-36.462904 -5.174787 -49.637502 18.00000000
-47.145478 -45.093010 -49.328284 18.00000000
-49.239843 -38.704676 -58.794088 18.00000000
-49.659172 -27.251963 -2.966981 18.00000000
-49.501748 -37.215679 -21.718693 18.00000000
-44.051716 -12.947096 -50.223588 18.00000000
-40.384549 -8.545833 -51.787824 18.00000000
-21.076252 -0.153504 -41.656264 18.00000000
-25.037468 -0.389551 -29.643216 18.00000000
-20.980780 -0.147815 -4.835023 18.00000000
-32.346451 -2.590606 -51.074688 18.00000000
-47.174340 -18.516526 -19.883808 18.00000000
-34.594098 -3.895102 -45.759887 18.00000000
-49.951189 -32.770833 -38.872501 18.00000000
-49.952797 -32.110739 -31.460962 18.00000000
-39.531763 -7.688761 -32.402402 18.00000000
-42.507555 -10.904048 -49.041620 18.00000000
-26.938475 -0.502831 -2.643965 18.00000000
-41.430206 -9.624001 -44.032861 18.00000000
-28.791303 -0.993311 3.859833 18.00000000
-44.615041 -13.773301 -6.592652 18.00000000
-47.906903 -43.207622 -18.714909 18.00000000
-30.593729 -1.728006 -25.384019 18.00000000
-37.998896 -6.358227 -54.427249 18.00000000
-47.630078 -19.547763 -2.224354 18.00000000
-48.758554 -40.571761 -58.799928 18.00000000
-45.615076 -15.423643 -27.675316 18.00000000
-47.273365 -18.734315 -37.663764 18.00000000
-48.385484 -21.677103 -14.980723 18.00000000
-34.730075 -3.977202 -0.199094 18.00000000
-47.269366 -44.824041 -6.843063 18.00000000
-30.523726 -1.693554 -22.125487 18.00000000
-49.945710 -30.301688 -31.198742 18.00000000
-49.865153 -34.224741 -40.229623 18.00000000
-49.222666 -24.740960 -38.810111 18.00000000
-46.161471 -16.394556 -4.179663 18.00000000
-37.757242 -6.148470 -37.524487 18.00000000
-49.748917 -27.947354 1.722013 18.00000000
-49.721915 -27.624308 -49.661224 18.00000000
-49.539593 -37.000523 -60.826988 18.00000000
-47.153424 -18.470523 -29.851477 18.00000000
-49.952127 -32.385466 -19.812006 18.00000000
-49.950763 -32.945504 -26.955854 18.00000000
-27.847783 -0.625688 -41.957100 18.00000000
-21.132125 -0.156834 -11.621801 18.00000000
-28.029336 -0.696427 -17.936803 18.00000000
-49.146775 -39.112080 -4.413860 18.00000000
-46.449560 -46.603916 -60.993878 18.00000000
-49.742406 -35.611699 3.824466 18.00000000
-30.806049 -1.832499 -52.463820 18.00000000
-41.432884 -9.626762 -49.312350 18.00000000
-37.359043 -5.826850 -33.962174 18.00000000
-33.874053 -3.460353 -30.056761 18.00000000
-33.360788 -3.150454 -1.800613 18.00000000
-42.187322 -10.511475 -30.906459 18.00000000
-42.729885 -11.176604 -43.598193 18.00000000
-36.060510 -4.881991 -17.250121 18.00000000
-46.412400 -16.840756 3.643426 18.00000000
-34.009799 -3.542314 -56.203390 18.00000000
-35.937712 -4.792638 -44.811631 18.00000000
-47.326064 -18.850219 -4.205199 18.00000000
-35.684808 -4.608616 -60.727589 18.00000000
-20.952247 -0.146115 -19.378046 18.00000000
-46.353409 -46.812722 -5.942377 18.00000000
-49.547375 -36.956277 -9.208104 18.00000000
-49.770665 -28.207536 -51.759719 18.00000000
-30.410102 -1.637635 -14.236170 18.00000000
-49.766435 -28.156930 -46.001615 18.00000000
-49.651070 -36.366748 -0.537335 18.00000000
-48.036806 -42.847029 -13.957084 18.00000000
-21.019900 -0.150146 -61.067809 18.00000000
-48.156085 -21.030473 -32.711221 18.00000000
-41.140923 -9.325724 -24.034891 18.00000000
-22.111260 -0.215180 -44.262442 18.00000000
-49.617768 -36.556075 -20.046085 18.00000000
-49.629056 -27.075720 -0.126091 18.00000000
-38.213410 -6.544426 -21.160642 18.00000000
-43.082587 -11.608982 -28.741618 18.00000000
-47.392952 -18.997328 -42.217312 18.00000000
-30.271559 -1.570062 -58.971242 18.00000000
-48.928607 -39.932377 -14.981236 18.00000000
-38.088788 -6.436253 -0.275620 18.00000000
-42.449505 -10.832885 -6.675241 18.00000000
-48.096865 -20.863543 -42.037321 18.00000000
-41.954165 -10.225647 -4.950415 18.00000000
-47.944697 -20.434611 -44.180446 18.00000000
-48.858712 -23.345168 -28.605624 18.00000000
-48.604733 -22.371136 3.337053 18.00000000
-48.497444 -41.553516 -25.509601 18.00000000
-34.145887 -3.624481 -39.260829 18.00000000
-22.625971 -0.245851 -9.851417 18.00000000
-33.242834 -3.079236 -33.363381 18.00000000
-39.574147 -7.725551 -13.738128 18.00000000
-46.423034 -46.661508 -56.508554 18.00000000
-37.072455 -5.618319 -35.983334 18.00000000
-49.878751 -34.071094 -13.634327 18.00000000
-49.746803 -35.562018 -21.880185 18.00000000
-38.928620 -7.165231 -4.623104 18.00000000
-48.881693 -40.108769 -12.781236 18.00000000
-31.752536 -2.298311 -41.848913 18.00000000
-32.139672 -2.488840 -29.744035 18.00000000
-47.901161 -20.311891 -16.197901 18.00000000
-49.026465 -39.564437 -29.978635 18.00000000
-49.837724 -34.534676 -26.516606 18.00000000
-23.427869 -0.293636 -24.778771 18.00000000
-49.050688 -39.473358 -36.420710 18.00000000
-48.571305 -41.275804 -14.094973 18.00000000
-45.332830 -14.922108 -48.926606 18.00000000
-29.083735 -1.107252 -60.660542 18.00000000
-33.044439 -2.959449 -12.692137 18.00000000
-47.893206 -20.289468 -38.770652 18.00000000
-48.315659 -21.480281 -19.300131 18.00000000
-47.807256 -43.484229 -45.165066 18.00000000
-41.774279 -10.005124 -26.202663 18.00000000
-48.934769 -23.636853 -11.604155 18.00000000
-29.994481 -1.462105 -40.081891 18.00000000
-49.351135 -38.071955 -30.265816 18.00000000
-22.706364 -0.250642 -40.289864 18.00000000
-23.835359 -0.317918 -37.514956 18.00000000
-48.018010 -42.899206 -42.135373 18.00000000
-44.804326 -14.050916 -12.476469 18.00000000
-48.948055 -39.859252 -60.976496 18.00000000
-48.347038 -21.568731 -11.397989 18.00000000
-39.997595 -8.146848 -27.446466 18.00000000
-28.749580 -0.977055 -22.826537 18.00000000
-22.805534 -0.256551 -19.250970 18.00000000
-32.206763 -2.521858 -25.880862 18.00000000
-42.969755 -11.470661 -26.050718 18.00000000
-24.310493 -0.346231 -41.960036 18.00000000
-27.638624 -0.544552 0.810027 18.00000000
-49.761525 -35.395669 -11.360576 18.00000000
-20.986888 -0.148179 -8.887300 18.00000000
-49.657074 -27.239687 -39.032717 18.00000000
-39.138759 -7.347633 -50.642792 18.00000000
-23.097883 -0.273972 -12.727109 18.00000000
-48.713441 -22.788039 -49.633549 18.00000000
-23.322105 -0.287333 -59.794676 18.00000000
-29.120936 -1.121746 -38.375661 18.00000000
-49.955289 -31.087791 -46.791544 18.00000000
-43.278889 -11.849628 -19.539157 18.00000000
-47.153476 -45.075646 -60.682219 18.00000000
-40.833007 -9.008234 -41.009368 18.00000000
-25.696651 -0.428831 -12.630376 18.00000000
-49.883893 -29.562135 -38.387215 18.00000000
-46.444485 -16.911324 -30.136849 18.00000000
-21.241010 -0.163322 -2.674404 18.00000000
-45.777898 -15.712968 -59.021988 18.00000000
-48.574794 -41.262688 -35.324730 18.00000000
-27.096809 -0.512266 -6.742294 18.00000000
-27.536371 -0.538459 -1.027357 18.00000000
-49.174526 -39.007738 -57.021502 18.00000000
-46.598319 -46.280980 -10.499769 18.00000000
-43.841390 -12.638620 3.658148 18.00000000
-49.756772 -28.041330 -14.837733 18.00000000
-39.865519 -8.010666 -46.770143 18.00000000
-49.737077 -35.671919 -16.383276 18.00000000
-47.720203 -43.725877 -58.017579 18.00000000
-49.486718 -37.301131 -50.314567 18.00000000
-21.635385 -0.186822 -17.969686 18.00000000
-48.432842 -21.810596 -30.944526 18.00000000
-34.793820 -4.015690 -11.764722 18.00000000
-47.182806 -45.011981 -1.088773 18.00000000
-45.878101 -15.891023 -24.416829 18.00000000
-33.066517 -2.972779 -18.366091 18.00000000
-43.533561 -12.187140 -21.519664 18.00000000
-31.165513 -2.009409 1.352252 18.00000000
-27.339857 -0.526749 -31.939934 18.00000000
-38.118565 -6.462100 -52.733210 18.00000000
-49.950858 -32.906548 -8.706157 18.00000000
-46.704453 -17.483081 -10.217146 18.00000000
-46.643831 -46.182135 -58.728586 18.00000000
-48.963542 -23.747198 -13.447417 18.00000000
-46.563530 -46.356505 -19.386684 18.00000000
-48.938704 -23.651942 -35.868073 18.00000000
-47.507756 -19.249821 1.425252 18.00000000
-34.753348 -3.991254 -7.273790 18.00000000
-49.314696 -25.236034 -12.959229 18.00000000
-37.605794 -6.017013 -58.940724 18.00000000
-49.954230 -31.522422 -42.005131 18.00000000
-49.566199 -26.707872 -55.149868 18.00000000
-29.174414 -1.142582 -29.358337 18.00000000
-49.950293 -33.138330 -48.806586 18.00000000
-32.092552 -2.465649 -35.519507 18.00000000
-48.487046 -21.963385 -40.019042 18.00000000
-33.638074 -3.317874 -16.471440 18.00000000
-23.784290 -0.314874 -2.047779 18.00000000
-32.913112 -2.880156 -28.124474 18.00000000
-40.891540 -9.068587 -11.249118 18.00000000
-48.224546 -21.223449 -0.189149 18.00000000
-26.257115 -0.462229 -46.199665 18.00000000
-40.028240 -8.178446 -45.137580 18.00000000
-39.677683 -7.816990 -11.386163 18.00000000
-49.125350 -39.192637 -28.292078 18.00000000
-49.506858 -26.360598 -46.798509 18.00000000
-49.368523 -25.551041 -2.656218 18.00000000
-49.303936 -25.173064 -35.002465 18.00000000
-29.095870 -1.111980 -57.542608 18.00000000
-49.470203 -26.146085 -32.766666 18.00000000
-45.886716 -15.906330 -9.584944 18.00000000
-36.843674 -5.451849 -20.399042 18.00000000
-27.369820 -0.528534 -11.657034 18.00000000
-26.089152 -0.452220 -23.418485 18.00000000
-47.325980 -18.850033 -23.060742 18.00000000
-24.353707 -0.348806 -55.038231 18.00000000
-43.543320 -12.201454 -10.500182 18.00000000
-24.863242 -0.379169 3.128799 18.00000000
-49.104843 -24.289099 -21.900993 18.00000000
-27.384572 -0.529413 -30.033514 18.00000000
-49.485847 -26.237637 -14.843168 18.00000000
-21.192576 -0.160436 -14.095242 18.00000000
-36.676353 -5.330100 -38.711576 18.00000000
-49.810195 -28.680456 -26.092377 18.00000000
-27.578842 -0.540990 -58.016255 18.00000000
-46.428046 -16.875169 -26.640315 18.00000000
-49.706306 -36.019612 -41.340773 18.00000000
-37.762384 -6.152934 -23.627917 18.00000000
-49.043686 -24.054556 -46.449039 18.00000000
-49.745658 -27.908365 -43.744598 18.00000000
-43.576309 -12.249837 -14.441816 18.00000000
-21.166374 -0.158874 -23.125638 18.00000000
-49.890701 -29.643582 -17.353982 18.00000000
-37.776656 -6.165322 -15.899361 18.00000000
-30.289335 -1.578199 -50.648041 18.00000000
-38.745517 -7.006297 -28.257938 18.00000000
-22.695555 -0.249997 -58.207781 18.00000000
-29.342336 -1.208010 -6.253642 18.00000000
-41.985145 -10.263626 2.289925 18.00000000
-48.380432 -41.893171 1.452269 18.00000000
-48.790802 -40.450514 -24.381362 18.00000000
-49.322995 -25.284604 -58.844360 18.00000000
-44.477063 -13.570935 -17.397306 18.00000000
-43.866592 -12.675583 -42.809678 18.00000000
-35.146307 -4.228515 -37.601443 18.00000000
-47.938034 -20.415830 -6.629248 18.00000000
-47.052231 -18.247966 -59.126113 18.00000000
-49.951714 -32.555309 -51.408149 18.00000000
-32.376307 -2.605299 -61.051649 18.00000000
-32.785137 -2.806504 -45.655935 18.00000000
-46.431477 -46.643183 -50.666169 18.00000000
-49.954283 -31.500857 -59.772877 18.00000000
-49.950406 -33.092214 -34.521055 18.00000000
-45.426158 -15.087946 -50.923895 18.00000000
-49.711813 -35.957381 -4.803659 18.00000000
-46.505270 -46.483017 3.237506 18.00000000
-49.222617 -38.802610 -22.311566 18.00000000
-49.903381 -33.792794 -56.617371 18.00000000
-42.893106 -11.376697 -55.425538 18.00000000
-23.647470 -0.306721 -27.748170 18.00000000
-49.818899 -28.784585 -5.606537 18.00000000
-43.044853 -11.562723 -53.352057 18.00000000
-49.855726 -34.331260 -7.514885 18.00000000
-44.155641 -13.099519 -53.418283 18.00000000
-49.343269 -25.403250 -54.173564 18.00000000
-49.768982 -35.311417 -57.518588 18.00000000
-21.231477 -0.162754 -46.127795 18.00000000
-46.864714 -17.835550 -2.255275 18.00000000
-49.783150 -35.151328 -51.026316 18.00000000
-47.194598 -18.561080 -6.405719 18.00000000
-41.732429 -9.953820 -51.470498 18.00000000
-45.920280 -15.965973 -47.929508 18.00000000
-47.682231 -43.831282 -39.197616 18.00000000
-35.829554 -4.713938 -48.276940 18.00000000
-49.954473 -31.422697 -49.397196 18.00000000
-47.815818 -20.071327 -52.163395 18.00000000
-46.622294 -46.228896 -44.144560 18.00000000
-47.127149 -45.132809 -12.522471 18.00000000
-36.684863 -5.336292 -0.431383 18.00000000
-43.044127 -11.561833 -1.965871 18.00000000
-49.873808 -29.441483 -36.663303 18.00000000
-49.467514 -26.130349 -36.829804 18.00000000
-46.667579 -46.130599 -17.445740 18.00000000
-47.428484 -19.075476 3.667384 18.00000000
-49.954900 -31.247279 3.691404 18.00000000
-31.189058 -2.020996 -46.640445 18.00000000
-27.896351 -0.644612 -40.423317 18.00000000
-47.568947 -44.145745 -34.186444 18.00000000
-49.954485 -31.417621 -16.555873 18.00000000
-38.658650 -6.930896 -31.008994 18.00000000
-21.265637 -0.164789 -49.148176 18.00000000
-49.884229 -34.009201 -58.423519 18.00000000
-49.749262 -27.951474 -9.435789 18.00000000
-31.409653 -2.129562 -32.046445 18.00000000
-49.445639 -26.002333 -56.706021 18.00000000
-45.357125 -14.965278 -45.647646 18.00000000
-48.829249 -40.305956 -26.862032 18.00000000
-49.950025 -33.248360 -47.032218 18.00000000
-42.351169 -10.712335 -35.849842 18.00000000
-45.230886 -14.740959 -60.197521 18.00000000
-35.328899 -4.349644 -50.934755 18.00000000
-39.353500 -7.534028 -42.766234 18.00000000
-31.151371 -2.002449 -12.525833 18.00000000
-48.366584 -21.623827 -54.122128 18.00000000
-44.493245 -13.594668 -37.467128 18.00000000
-48.877890 -23.418717 -19.448182 18.00000000
-35.641668 -4.577226 -58.729218 18.00000000
-49.865473 -34.221129 -44.559819 18.00000000
-38.463196 -6.761241 -39.766084 18.00000000
-33.290671 -3.108119 -22.715976 18.00000000
-46.285347 -16.614676 -50.064016 18.00000000
-39.768881 -7.911023 -0.463789 18.00000000
-24.292106 -0.345135 -22.990306 18.00000000
-47.498586 -19.229653 -24.937174 18.00000000
-23.345666 -0.288737 3.851173 18.00000000
-48.770179 -23.005635 -2.893712 18.00000000
-41.439043 -9.633112 -47.520662 18.00000000
-49.955532 -30.988124 -53.566354 18.00000000
-47.250890 -44.864150 -18.482403 18.00000000
-40.042013 -8.192647 -7.447828 18.00000000
-36.576120 -5.257167 -57.144085 18.00000000
-42.918345 -11.407637 -32.572533 18.00000000
-37.721024 -6.117033 -5.049550 18.00000000
-38.960653 -7.193035 -34.332115 18.00000000
-48.513848 -41.491840 -48.524865 18.00000000
-49.956723 -30.499315 -20.123491 18.00000000
-47.125916 -45.135481 -26.959972 18.00000000
-44.307773 -13.322644 -32.318187 18.00000000
-30.334341 -1.600349 -56.594889 18.00000000
-25.894437 -0.440617 -34.391748 18.00000000
-43.608626 -12.297236 -41.101207 18.00000000
-27.838805 -0.622190 -19.583603 18.00000000
-49.857753 -29.249409 -34.778284 18.00000000
-49.793332 -35.036270 -60.852405 18.00000000
-25.249598 -0.402191 -31.304090 18.00000000
-31.082198 -1.968405 -3.595418 18.00000000
-25.875016 -0.439460 -10.437952 18.00000000
-41.953048 -10.224277 -42.444511 18.00000000
-48.349222 -41.979806 3.546811 18.00000000
-49.953691 -31.743746 -12.635823 18.00000000
-49.956693 -30.511580 -0.627719 18.00000000
-49.269321 -24.970491 -6.161599 18.00000000
-46.795636 -17.683624 2.222084 18.00000000
-44.485976 -13.584006 -15.631965 18.00000000
-46.704429 -46.050605 -4.179112 18.00000000
-46.438324 -46.628365 1.290436 18.00000000
-45.803806 -15.759004 -6.082835 18.00000000
-24.739418 -0.371790 -6.746678 18.00000000
-37.885992 -6.260226 -13.847057 18.00000000
-43.292993 -11.866918 -7.445575 18.00000000
-49.954463 -31.426662 -32.868780 18.00000000
-38.197707 -6.530796 -49.163006 18.00000000
-48.673493 -22.634835 -17.096993 18.00000000
-20.936652 -0.145185 -52.770936 18.00000000
-48.629829 -41.055758 -19.627842 18.00000000
-37.411526 -5.865039 -7.908136 18.00000000
-46.625499 -46.221937 -53.931564 18.00000000
-48.813938 -40.363521 -41.733429 18.00000000
-31.892807 -2.367345 -37.694038 18.00000000
-47.312838 -18.821130 -17.168042 18.00000000
-49.622709 -27.038577 -59.543286 18.00000000
-25.579013 -0.421821 -36.768421 18.00000000
-48.063210 -42.773737 -32.948352 18.00000000
-47.887224 -20.272607 -12.249135 18.00000000
-39.213139 -7.412194 1.491435 18.00000000
-20.992377 -0.148506 -39.987305 18.00000000
-47.897812 -43.232860 -9.964840 18.00000000
-42.055481 -10.349850 -33.880934 18.00000000
-47.946123 -43.098753 -1.987455 18.00000000
-38.602761 -6.882384 -12.501267 18.00000000
-41.753675 -9.979866 -39.433619 18.00000000
-49.084229 -24.210045 -32.476881 18.00000000
-48.808821 -40.382761 -11.177474 18.00000000
-49.620940 -27.028222 -40.747127 18.00000000
-26.715614 -0.489550 -16.773692 18.00000000
-32.903036 -2.874073 -10.871845 18.00000000
-46.786792 -45.871752 -52.221480 18.00000000
-49.869881 -29.394509 -15.775697 18.00000000
-48.498403 -21.995399 -1.565422 18.00000000
-39.668633 -7.807659 -29.436371 18.00000000
-34.352665 -3.749330 -47.411914 18.00000000
-29.756934 -1.369550 -16.808899 18.00000000
-48.765283 -40.546462 -5.431604 18.00000000
-28.688881 -0.953405 2.149052 18.00000000
-48.565657 -22.221275 -43.863312 18.00000000
-49.164532 -24.518011 -49.912231 18.00000000
-23.500729 -0.297977 0.659369 18.00000000
-49.032160 -24.010356 -0.996249 18.00000000
-49.952327 -30.380848 -4.436280 18.00000000
-44.323820 -13.346179 1.531303 18.00000000
-44.615183 -13.773509 -33.789440 18.00000000
-49.177275 -24.566882 -18.106308 18.00000000
-40.676236 -8.846589 -30.588938 18.00000000
-49.588225 -36.724034 -37.747656 18.00000000
-48.471846 -21.920540 -26.606763 18.00000000
-47.760335 -19.914930 -34.083067 18.00000000
-29.618240 -1.315510 -26.972344 18.00000000
-48.370535 -41.920644 -17.476522 18.00000000
-39.131934 -7.341709 3.171948 18.00000000
-48.676768 -40.879274 -53.567023 18.00000000
-24.671540 -0.367745 -53.060596 18.00000000
-49.956182 -30.721050 -25.988328 18.00000000
-30.821386 -1.840047 -30.554867 18.00000000
-48.620943 -41.089169 -28.836974 18.00000000
-49.460262 -37.451541 3.173848 18.00000000
-33.880087 -3.463997 -36.980767 18.00000000
-31.696059 -2.270516 -40.276268 18.00000000
-43.278851 -11.849582 -17.266053 18.00000000
-46.407326 -16.831425 -46.640161 18.00000000
-49.231922 -24.776459 -8.769268 18.00000000
-25.471670 -0.415424 -44.189149 18.00000000
-49.457574 -37.466821 -39.817510 18.00000000
-37.623147 -6.032076 -2.595557 18.00000000
-48.798478 -23.114164 -6.799927 18.00000000
-49.951366 -32.698019 -6.748829 18.00000000
-30.137479 -1.517821 -10.885779 18.00000000
-26.405241 -0.471055 -39.054779 18.00000000
-37.084841 -5.627331 -60.508167 18.00000000
-32.166023 -2.501808 -21.732633 18.00000000
-29.062550 -1.098997 -12.736513 18.00000000
-42.597639 -11.014483 -58.025568 18.00000000
-25.333582 -0.407196 -0.008300 18.00000000
-48.146426 -42.542739 -43.802128 18.00000000
-28.093659 -0.721489 -33.580307 18.00000000
-49.786188 -35.116994 -49.381539 18.00000000
-47.753592 -43.633195 -22.940697 18.00000000
-49.328402 -38.201194 -0.932000 18.00000000
-47.212684 -18.600856 -0.656214 18.00000000
-49.690547 -36.142312 -3.203100 18.00000000
-49.423875 -37.658407 -17.301193 18.00000000
-47.999122 -42.951636 0.176403 18.00000000
-46.035979 -16.171563 -16.163850 18.00000000
-49.095216 -39.305936 -47.317436 18.00000000
-32.936265 -2.894135 -54.261882 18.00000000
-36.796822 -5.417758 -46.405701 18.00000000
-48.952146 -39.843871 -49.672421 18.00000000
-22.936984 -0.264384 -49.780021 18.00000000
-49.954289 -31.498191 -23.949327 18.00000000
-37.487173 -5.920082 -55.823286 18.00000000
-49.954259 -31.510537 -21.636950 18.00000000
-43.739379 -12.489005 -38.497638 18.00000000
-49.658706 -36.323333 -52.183453 18.00000000
-41.394892 -9.587589 -22.102026 18.00000000
-48.982179 -23.818672 -43.809919 18.00000000
-49.711034 -35.966187 -18.555426 18.00000000
-49.894885 -33.888793 -16.681432 18.00000000
-49.092508 -24.241793 -56.034175 18.00000000
-23.206297 -0.280432 -4.331165 18.00000000
-28.690043 -0.953857 -51.751187 18.00000000
-48.905089 -40.020802 -18.005244 18.00000000
-49.950419 -33.086832 -42.728358 18.00000000
-47.000336 -18.133831 -27.976626 18.00000000
-47.354511 -44.639178 -8.750823 18.00000000
-46.659146 -17.383437 0.414440 18.00000000
-36.170167 -4.961781 3.569408 18.00000000
-33.814616 -3.424466 -20.440803 18.00000000
-23.114409 -0.274957 2.311579 18.00000000
-49.575098 -26.759950 -42.272391 18.00000000
-48.394157 -21.701550 -5.456660 18.00000000
-26.818772 -0.495698 -27.543171 18.00000000
-26.350006 -0.467764 -54.335306 18.00000000
-48.724229 -22.829415 1.509454 18.00000000
-48.549139 -22.157928 -23.181568 18.00000000
-40.815074 -8.989744 -3.354772 18.00000000
-31.038640 -1.946968 -20.212962 18.00000000
-25.135067 -0.395367 -17.373272 18.00000000
-30.947294 -1.902013 -60.930336 18.00000000
-33.921377 -3.488926 -3.628347 18.00000000
-49.567966 -36.839215 -6.160273 18.00000000
-36.350357 -5.092894 -11.238156 18.00000000
-48.390638 -21.691630 -24.998181 18.00000000
-46.287627 -16.618727 -42.886238 18.00000000
-37.507216 -5.934667 3.509237 18.00000000
-48.675097 -22.640987 -59.491225 18.00000000
-31.780681 -2.312163 -17.203250 18.00000000
-37.132160 -5.661762 -40.520594 18.00000000
-42.383316 -10.751743 -16.350064 18.00000000
-49.466789 -37.414430 -25.357578 18.00000000
-47.917706 -43.177635 -31.359670 18.00000000
-49.119303 -24.344554 -4.134327 18.00000000
-49.844645 -34.456473 -33.324675 18.00000000
-35.031976 -4.159484 -4.809341 18.00000000
-46.592170 -46.294317 -25.460688 18.00000000
-48.695165 -40.810099 -7.490123 18.00000000
-49.897025 -33.864609 -18.823297 18.00000000
-33.324547 -3.128573 -24.311359 18.00000000
-49.784950 -28.378437 -20.360811 18.00000000
-48.580819 -22.279425 -12.944705 18.00000000
-24.426487 -0.353143 -35.460110 18.00000000
-49.900381 -33.826688 -10.846542 18.00000000
-49.396480 -25.714648 -23.060958 18.00000000
