8.970926 20.921421 -54.426737 4.00000000
15.176751 18.461695 -34.050359 4.00000000
15.331016 -6.151648 -33.566245 4.00000000
8.127373 21.028659 -3.082744 4.00000000
0.297138 19.662142 -52.623953 4.00000000
4.733368 20.963899 -4.367403 4.00000000
17.101109 16.884420 -34.115327 4.00000000
17.028669 16.952548 -30.707601 4.00000000
21.652331 5.217658 5.430502 4.00000000
-1.819349 18.451094 -15.258898 4.00000000
20.761904 11.271881 -30.987968 4.00000000
-7.546538 1.383025 -43.505095 4.00000000
17.853992 16.106539 -33.893028 4.00000000
-2.917357 17.612540 -35.106416 4.00000000
16.842028 17.128078 -16.852507 4.00000000
1.683899 -8.040058 -52.580576 4.00000000
21.432510 8.802718 -38.868096 4.00000000
-5.828047 14.360460 -21.825685 4.00000000
-7.462889 11.070716 -16.034879 4.00000000
-8.074656 8.735194 -24.812098 4.00000000
-1.438797 -6.502257 -46.164734 4.00000000
15.123142 -6.302435 -17.359094 4.00000000
5.363581 -8.840112 -17.828789 4.00000000
4.997561 -8.799994 -44.690465 4.00000000
-4.953125 15.550813 -30.781895 4.00000000
21.317698 9.394877 -21.136848 4.00000000
-3.766860 -4.652524 -5.929064 4.00000000
20.531807 0.344098 -32.955325 4.00000000
-2.421920 -5.815926 -9.628465 4.00000000
-8.260690 7.304832 -11.073632 4.00000000
-4.185316 16.423870 0.849038 4.00000000
17.251340 -4.546578 -21.242465 4.00000000
-8.112774 8.536186 -50.638469 4.00000000
-7.097532 0.182734 -30.516169 4.00000000
-8.030697 3.232167 -11.971079 4.00000000
20.899336 1.327753 6.791949 4.00000000
1.873301 20.299437 -38.209831 4.00000000
6.424521 21.091520 -44.620848 4.00000000
2.110561 -8.179048 -27.321960 4.00000000
5.983946 -8.879611 -56.023616 4.00000000
-1.745192 -6.307501 3.738992 4.00000000
-7.758257 10.129480 3.423413 4.00000000
-5.400592 14.970491 -44.512597 4.00000000
5.050761 -8.806757 -21.215005 4.00000000
-5.091411 -3.185678 -42.549080 4.00000000
21.023925 10.485923 -3.610798 4.00000000
18.343058 15.527525 -42.842829 4.00000000
-7.490638 1.210544 -25.811775 4.00000000
-4.021769 -4.401113 -0.288723 4.00000000
-7.818286 2.300542 -42.433769 4.00000000
-8.307441 5.670773 -9.696080 4.00000000
21.678387 6.494650 -0.917708 4.00000000
6.634558 21.091357 -18.489592 4.00000000
-2.401979 18.028487 -46.073840 4.00000000
5.751002 21.062165 -60.256200 4.00000000
10.310481 20.646956 -19.397416 4.00000000
9.751701 -8.579548 -5.123690 4.00000000
3.964136 20.842442 -41.489531 4.00000000
-5.001924 15.491915 -53.042718 4.00000000
-3.966967 16.656029 -59.292300 4.00000000
-6.743490 12.772305 -13.070042 4.00000000
-7.113694 0.223646 -59.360635 4.00000000
19.937801 -0.916695 -14.014857 4.00000000
7.067790 -8.894171 1.076693 4.00000000
6.873095 -8.894032 -45.472744 4.00000000
20.516066 0.304430 -45.622935 4.00000000
-8.026102 3.207976 0.849351 4.00000000
20.519861 11.884575 -31.868119 4.00000000
7.602350 -8.865839 -8.680648 4.00000000
18.201839 15.698490 -52.609249 4.00000000
20.255271 12.473532 -55.872496 4.00000000
-2.511486 17.947814 -23.737850 4.00000000
21.509394 3.822571 -44.038470 4.00000000
-7.805822 2.251840 -21.283832 4.00000000
10.099259 -8.503454 -25.726161 4.00000000
21.634391 4.935906 3.873843 4.00000000
6.484896 21.091473 -57.717101 4.00000000
21.653203 5.231349 -27.090657 4.00000000
21.678114 6.143242 -26.548791 4.00000000
0.666309 19.835520 -0.945343 4.00000000
19.244616 14.289273 -7.419090 4.00000000
19.968735 13.056958 -31.158268 4.00000000
18.934708 -2.548904 -35.230463 4.00000000
13.766463 -7.117208 -59.174314 4.00000000
18.627392 -2.971186 -44.373925 4.00000000
10.348138 -8.439757 -18.353679 4.00000000
-2.811398 17.700069 -10.725428 4.00000000
-0.316835 19.357774 -41.896685 4.00000000
9.029429 -8.716736 -42.093948 4.00000000
2.146276 -8.190682 -38.856627 4.00000000
-3.774374 -4.645457 -2.539598 4.00000000
11.927686 -7.950486 -40.353061 4.00000000
6.935425 -8.894077 -14.496444 4.00000000
-7.932675 9.452238 -18.416138 4.00000000
17.384296 -4.409324 -58.095463 4.00000000
13.644449 -7.184161 -39.801668 4.00000000
-8.307042 6.206809 2.431682 4.00000000
-7.539559 10.835366 -6.307329 4.00000000
20.558387 0.411085 -40.395587 4.00000000
17.912964 16.043644 -35.734407 4.00000000
0.398981 19.709971 -4.738728 4.00000000
-3.167662 -5.207648 -36.660726 4.00000000
4.769405 -8.770991 3.778374 4.00000000
15.207461 18.439345 -31.411572 4.00000000
19.567399 -1.583539 -56.486522 4.00000000
1.418737 -7.941239 0.892403 4.00000000
-3.973134 -4.452986 -13.879255 4.00000000
14.309950 -6.818984 -27.365827 4.00000000
5.123657 -8.816024 -15.943400 4.00000000
-3.950574 -4.477047 -12.552443 4.00000000
-8.252011 4.746446 -43.754038 4.00000000
-4.259312 -4.147757 -11.677150 4.00000000
21.677960 5.945138 -56.387971 4.00000000
1.646925 -8.028013 -26.004601 4.00000000
-7.751078 2.037942 -30.575191 4.00000000
-7.119158 11.958398 -39.526898 4.00000000
-6.533139 13.175290 -35.873476 4.00000000
9.319391 -8.661661 -52.030350 4.00000000
19.620209 -1.493333 -55.506579 4.00000000
3.051488 -8.447257 -35.526678 4.00000000
10.238499 20.665497 -49.806803 4.00000000
21.402499 8.960689 -37.851586 4.00000000
20.426108 0.086165 -21.870449 4.00000000
3.919289 -8.636622 -20.961815 4.00000000
19.193769 14.369534 -21.204844 4.00000000
6.329226 -8.893645 -6.264836 4.00000000
16.561908 17.385727 -14.483059 4.00000000
16.983571 -4.797645 -4.544784 4.00000000
-4.188475 16.420510 -5.578932 4.00000000
19.368222 -1.896882 4.601228 4.00000000
-6.560801 -0.926981 -10.728574 4.00000000
21.678173 6.219344 -5.662732 4.00000000
-2.155788 18.207060 -5.830065 4.00000000
9.103084 -8.702746 -46.921612 4.00000000
9.172510 20.887469 -51.299836 4.00000000
5.758751 -8.865273 -52.951065 4.00000000
20.807667 11.153187 -52.642283 4.00000000
9.757947 -8.578361 -0.089860 4.00000000
20.686057 0.732834 -30.126544 4.00000000
-7.097916 0.183706 -54.433158 4.00000000
12.684496 19.845688 -4.721310 4.00000000
11.912141 -7.956628 -37.164300 4.00000000
4.453718 20.928775 1.811104 4.00000000
7.321966 -8.883252 -43.047286 4.00000000
13.002463 -7.498258 -48.236522 4.00000000
-6.230723 -1.528301 0.635638 4.00000000
20.221512 -0.347793 6.852911 4.00000000
2.604533 20.530088 -13.062410 4.00000000
7.618166 21.062281 -57.709428 4.00000000
5.810644 21.065872 -54.265816 4.00000000
-6.524016 13.191854 -56.332651 4.00000000
0.241656 19.636085 -35.485483 4.00000000
-7.688939 1.822404 -38.590838 4.00000000
-8.138946 8.370724 -10.522452 4.00000000
10.111108 20.698310 -59.713330 4.00000000
16.463060 17.467626 -0.898143 4.00000000
19.290546 14.216775 -56.497484 4.00000000
-8.285036 6.922466 -51.226102 4.00000000
21.599476 4.531374 -41.541680 4.00000000
13.176642 -7.416456 -46.780743 4.00000000
20.986821 10.600407 -53.614219 4.00000000
6.809151 21.091221 -41.490638 4.00000000
7.811784 -8.852832 -56.489662 4.00000000
1.903389 20.309189 -16.744094 4.00000000
20.237883 -0.313070 2.187805 4.00000000
21.532258 8.197486 -53.284678 4.00000000
-1.024834 18.962109 -8.092884 4.00000000
-8.223298 7.707172 -7.883038 4.00000000
-6.599701 -0.856094 -54.847427 4.00000000
11.991854 20.122904 -33.488250 4.00000000
-2.141770 -6.019808 0.871463 4.00000000
21.307147 9.436105 -26.087845 4.00000000
-5.773608 -2.249793 -7.479922 4.00000000
6.754162 -8.893947 -33.004948 4.00000000
-5.355407 15.032584 -26.579403 4.00000000
0.854693 -7.717398 -22.714782 4.00000000
-8.221886 4.482252 -28.515650 4.00000000
-7.600005 10.649818 2.443762 4.00000000
-0.080978 19.484563 -48.983229 4.00000000
15.384194 18.310725 -47.025899 4.00000000
5.474714 -8.847188 -9.041599 4.00000000
17.642220 16.332398 -16.721135 4.00000000
3.464355 -8.549497 0.373887 4.00000000
0.933986 19.946667 -9.139679 4.00000000
-5.585735 14.716072 -46.667790 4.00000000
-5.165244 15.293901 -7.531134 4.00000000
19.345484 -1.932654 0.338711 4.00000000
19.352118 14.119586 -38.835009 4.00000000
-6.762106 -0.536403 -44.415296 4.00000000
21.145052 2.129435 -38.226649 4.00000000
-5.416162 14.949096 6.571267 4.00000000
-5.819037 -2.178090 -26.957368 4.00000000
19.195778 -2.168170 -3.354904 4.00000000
9.560057 20.813249 -56.211534 4.00000000
14.695405 18.772318 5.380485 4.00000000
-2.277451 18.118813 -18.308972 4.00000000
20.452110 0.143252 5.199881 4.00000000
-4.942458 -3.366007 2.618270 4.00000000
-6.833094 12.582250 4.581617 4.00000000
1.998547 20.340029 -5.149345 4.00000000
17.833626 -3.931597 -42.482350 4.00000000
18.266877 15.619753 -7.490186 4.00000000
-7.885569 9.635143 -13.655648 4.00000000
7.615633 21.062442 -25.164461 4.00000000
-7.045221 12.132316 -16.264190 4.00000000
-7.221747 0.497163 -37.674766 4.00000000
20.551164 11.805336 -54.998341 4.00000000
5.477628 -8.847374 -30.154115 4.00000000
-4.217322 -4.192542 -16.987719 4.00000000
8.533233 -8.779616 6.860134 4.00000000
18.739134 15.015389 -30.038514 4.00000000
21.677723 5.640314 6.817916 4.00000000
19.161781 14.420026 -33.901573 4.00000000
11.700739 20.232993 -60.691287 4.00000000
5.318661 -8.837252 -31.571365 4.00000000
0.196798 19.615017 -17.007486 4.00000000
-7.134339 0.275906 4.441209 4.00000000
9.813944 -8.567725 -45.994536 4.00000000
20.615415 0.554805 -44.282629 4.00000000
1.096496 -7.813358 -19.090557 4.00000000
-8.039473 3.278361 -36.254644 4.00000000
7.797603 21.050857 -49.869454 4.00000000
17.849112 -3.915132 -32.184123 4.00000000
21.569475 4.295318 -5.158728 4.00000000
10.748802 20.534056 -30.990553 4.00000000
21.642960 7.129134 -55.523066 4.00000000
21.575970 4.346419 -53.332751 4.00000000
16.652891 17.305956 -35.258292 4.00000000
-4.998293 -3.298410 -16.640833 4.00000000
-8.268316 5.008861 -33.804789 4.00000000
-7.094222 0.174355 -10.977526 4.00000000
2.241215 20.418677 -3.225570 4.00000000
21.556876 8.001433 -51.856414 4.00000000
17.186839 16.803793 -12.551459 4.00000000
21.632729 7.293693 -2.053217 4.00000000
20.738677 0.865444 -51.290288 4.00000000
14.440585 -6.736333 -57.894085 4.00000000
7.805656 -8.853213 -44.827152 4.00000000
-6.437768 -1.151183 -35.749149 4.00000000
13.715170 -7.145354 -13.261001 4.00000000
-3.368463 -5.027205 -3.589060 4.00000000
3.947349 -8.641996 -46.991089 4.00000000
-0.344674 -7.145490 -34.415899 4.00000000
14.281702 -6.834484 -60.037803 4.00000000
21.677903 5.872975 -60.663134 4.00000000
-6.691423 12.882740 -47.112352 4.00000000
0.786504 -7.690337 -28.007433 4.00000000
-0.512769 19.250260 -45.237352 4.00000000
0.896570 -7.734017 -15.028806 4.00000000
-3.677037 -4.737001 -27.874151 4.00000000
21.614812 7.540055 -30.264923 4.00000000
4.224935 20.891980 -48.010438 4.00000000
-7.970995 2.917896 -59.207276 4.00000000
-3.611108 16.996460 -38.262140 4.00000000
5.596414 -8.854937 -32.629623 4.00000000
21.411577 8.912907 -0.911299 4.00000000
-5.774898 -2.247757 -22.908517 4.00000000
20.991630 1.611061 -46.052320 4.00000000
-2.098020 -6.051648 -24.103899 4.00000000
-3.232977 17.351005 5.426274 4.00000000
-8.249830 4.711350 -3.637998 4.00000000
4.072307 -8.665927 -8.324074 4.00000000
9.077439 20.905677 -28.356028 4.00000000
16.445487 -5.285305 3.297712 4.00000000
-8.037763 8.927805 -4.207529 4.00000000
0.928572 19.944528 -38.470090 4.00000000
0.985864 -7.769453 -48.785896 4.00000000
19.207691 14.347558 -14.252129 4.00000000
-7.485891 1.195898 -57.436816 4.00000000
-8.290708 6.833385 -29.491000 4.00000000
-8.276580 5.141855 2.326992 4.00000000
5.734426 21.061134 -5.939460 4.00000000
18.343856 -3.329551 3.478161 4.00000000
14.090405 -6.939453 -46.233817 4.00000000
18.868174 14.837504 -38.235876 4.00000000
8.142183 21.026776 -23.764730 4.00000000
3.654192 20.783570 2.761221 4.00000000
21.658999 6.871126 -8.027503 4.00000000
2.574806 -8.324476 -56.821253 4.00000000
-4.725015 -3.629251 -0.250644 4.00000000
20.894704 10.884635 -24.852184 4.00000000
-4.532630 16.054588 -51.601687 4.00000000
13.230004 -7.391395 -45.577695 4.00000000
19.017711 -2.434849 2.570945 4.00000000
-8.255976 4.810262 -45.101618 4.00000000
1.338676 -7.909467 -43.912676 4.00000000
-2.916430 -5.415802 -41.935194 4.00000000
16.778443 17.187878 -38.754876 4.00000000
11.881146 20.166839 -40.466717 4.00000000
3.569595 20.767501 -43.431287 4.00000000
-2.288423 -5.913080 -38.091042 4.00000000
15.623664 -5.939369 -55.145264 4.00000000
-7.792979 2.201658 -57.176259 4.00000000
13.662234 -7.174402 3.130606 4.00000000
2.792911 -8.380655 -2.623421 4.00000000
5.450906 -8.845672 -45.609825 4.00000000
4.037240 20.856328 -51.196475 4.00000000
-4.366571 -4.033357 -28.790866 4.00000000
17.238976 16.754760 -10.209947 4.00000000
11.658336 20.246806 -15.313643 4.00000000
-8.307039 6.210874 -28.470336 4.00000000
3.276568 -8.505232 -55.748506 4.00000000
17.437495 16.550742 -45.511032 4.00000000
4.959824 20.992341 -50.600283 4.00000000
3.059452 -8.449309 -4.182587 4.00000000
10.607388 20.570481 -11.380968 4.00000000
-7.353550 0.830800 -22.791181 4.00000000
-7.164010 11.845363 -24.792480 4.00000000
-4.062133 16.554843 -43.367853 4.00000000
-8.071466 3.446770 -47.876305 4.00000000
-8.185383 4.191559 -11.243462 4.00000000
0.353471 -7.491302 -9.918722 4.00000000
21.534166 4.017488 -32.641603 4.00000000
12.800718 -7.593006 -53.195417 4.00000000
-7.733786 10.224499 -23.414548 4.00000000
-5.280714 -2.938551 6.791849 4.00000000
21.622902 7.451781 -6.885595 4.00000000
-0.786908 19.099833 -44.322373 4.00000000
-3.219442 -5.164747 -35.539262 4.00000000
-5.497969 -2.639060 -45.602059 4.00000000
5.259303 21.029956 -47.334806 4.00000000
-8.270323 7.153532 -33.514136 4.00000000
-0.934296 -6.820759 -11.364011 4.00000000
18.356121 15.511710 -59.641033 4.00000000
2.008478 -8.145793 -22.311058 4.00000000
16.573785 -5.179323 -15.928536 4.00000000
14.576767 18.847729 -25.815375 4.00000000
20.678653 0.714173 -35.435543 4.00000000
9.806277 20.766095 -17.776027 4.00000000
-1.889738 18.400039 -57.154413 4.00000000
14.979055 18.592020 -61.097108 4.00000000
17.314363 16.682065 -22.350497 4.00000000
16.668814 -5.092769 -8.096734 4.00000000
-6.452938 13.320897 -48.861552 4.00000000
-8.213573 7.783668 -23.816933 4.00000000
-5.859184 -2.114723 1.411086 4.00000000
-7.378903 11.303801 -2.925907 4.00000000
21.149009 2.144798 -56.034826 4.00000000
7.728094 -8.858030 -7.392756 4.00000000
17.341373 16.653257 -46.688316 4.00000000
-6.864963 -0.317384 -5.778155 4.00000000
-3.627658 16.980942 -13.831705 4.00000000
9.545352 -8.618742 -43.511400 4.00000000
-8.146806 3.884346 0.067914 4.00000000
20.404768 12.155198 -61.001536 4.00000000
18.627473 -2.971075 -25.628691 4.00000000
15.772397 -5.831481 -23.476873 4.00000000
-8.006253 9.092316 -40.457764 4.00000000
-7.282789 11.546024 -17.058922 4.00000000
15.483680 -6.040910 6.226340 4.00000000
-3.475126 -4.926891 4.189695 4.00000000
-0.116951 -7.269514 5.001879 4.00000000
10.188134 -8.480708 -47.305965 4.00000000
20.107458 -0.589706 -36.348532 4.00000000
-5.324076 -2.878776 -13.066725 4.00000000
0.074251 -7.359659 -5.605336 4.00000000
-6.150095 -1.655561 -36.598589 4.00000000
-3.541516 17.061711 -7.849025 4.00000000
21.664141 6.788422 0.414923 4.00000000
14.046676 -6.963448 -48.058813 4.00000000
20.107842 12.787461 5.932485 4.00000000
2.345628 -8.255623 -0.252038 4.00000000
-4.864380 15.657924 -14.894602 4.00000000
11.970120 -7.933721 -8.618687 4.00000000
1.267536 20.078442 -4.304687 4.00000000
21.440536 8.760465 -32.908121 4.00000000
-7.151124 0.318394 -46.603996 4.00000000
-5.253040 15.173254 -1.005065 4.00000000
-3.107761 17.455255 0.177403 4.00000000
15.450753 -6.064794 4.877096 4.00000000
17.494450 -4.292208 -53.280189 4.00000000
14.251039 -6.851310 -15.632779 4.00000000
-0.616300 -6.995893 -27.194522 4.00000000
16.528297 -5.216899 0.717581 4.00000000
5.698136 -8.861414 -39.312181 4.00000000
21.607335 4.593211 -61.012606 4.00000000
-8.127994 8.456720 -12.988256 4.00000000
21.418201 3.319001 -0.668160 4.00000000
-7.101295 0.192259 -20.141512 4.00000000
6.859908 21.091182 -49.487321 4.00000000
-0.630950 -6.987825 -40.229980 4.00000000
0.367500 -7.497915 -39.748203 4.00000000
9.539337 -8.619884 6.815000 4.00000000
21.656207 5.278528 -29.901663 4.00000000
14.123140 19.118436 -0.007882 4.00000000
18.464525 -3.183904 -7.099692 4.00000000
16.359745 17.553226 -44.353034 4.00000000
14.925421 -6.429156 -22.247661 4.00000000
21.188355 9.900255 -0.649318 4.00000000
0.919696 19.941022 -56.309164 4.00000000
7.040437 21.091042 -56.130028 4.00000000
9.496732 20.825377 -34.832708 4.00000000
6.080935 21.082676 -56.665951 4.00000000
11.424163 20.323087 -4.794606 4.00000000
15.773525 -5.830663 -6.462048 4.00000000
18.820632 -2.705656 -13.781982 4.00000000
1.089049 -7.810402 -51.801540 4.00000000
16.824364 -4.946922 -23.439899 4.00000000
7.384425 -8.879373 -13.316037 4.00000000
11.806772 20.196354 -3.744560 4.00000000
-7.153818 11.871049 -12.880732 4.00000000
3.988594 20.847088 -36.704179 4.00000000
20.856128 1.195118 -26.667752 4.00000000
16.260981 -5.437718 -56.290301 4.00000000
18.176444 -3.531619 -12.284677 4.00000000
21.043831 1.771299 -20.249892 4.00000000
20.177186 -0.441810 -51.086568 4.00000000
-5.794940 14.412545 -37.331796 4.00000000
0.845709 19.911792 -19.387444 4.00000000
12.550216 -7.704534 3.373011 4.00000000
9.824362 -8.565747 -31.325246 4.00000000
21.123563 2.046008 -57.871857 4.00000000
5.052793 21.004018 5.418598 4.00000000
15.129719 -6.297664 -8.120308 4.00000000
-5.210288 15.232002 -17.153608 4.00000000
3.343446 -8.522459 -15.290706 4.00000000
8.910598 20.929090 -32.252560 4.00000000
10.635609 20.563211 -1.140998 4.00000000
19.667234 -1.407950 -25.564913 4.00000000
0.106961 19.572827 -44.359463 4.00000000
21.142745 2.120477 -23.363271 4.00000000
-6.647746 12.967218 -20.615999 4.00000000
-3.969411 16.653430 3.029029 4.00000000
-7.103327 0.197402 -12.269665 4.00000000
-4.557496 16.028149 -1.713593 4.00000000
-5.216324 -3.027314 -58.869632 4.00000000
-4.155106 16.455990 5.864214 4.00000000
15.946939 -5.697135 -21.393686 4.00000000
-7.895207 9.597724 -39.470548 4.00000000
10.874438 20.501695 -23.764595 4.00000000
-8.186254 4.198496 -39.261946 4.00000000
13.692651 19.355525 -26.245313 4.00000000
21.508753 8.384673 -11.219669 4.00000000
11.870655 20.171002 -1.929390 4.00000000
-3.776970 -4.643016 -20.834543 4.00000000
-8.307068 6.170912 -60.411201 4.00000000
19.030325 14.613976 2.522870 4.00000000
-0.455097 19.281906 -50.113074 4.00000000
-5.658936 -2.417163 4.805010 4.00000000
-7.413936 0.983658 -60.023842 4.00000000
-0.414038 -7.107288 -3.145546 4.00000000
11.640322 -8.055817 -38.817199 4.00000000
6.241279 21.091663 -22.038022 4.00000000
21.673619 6.635959 -3.737705 4.00000000
15.179375 -6.261644 -47.695756 4.00000000
14.533412 18.875287 -33.364036 4.00000000
21.577466 7.837466 -56.796909 4.00000000
8.511852 -8.782301 -49.352751 4.00000000
-5.865329 -2.105025 -32.537069 4.00000000
-5.580883 -2.524761 -57.972098 4.00000000
3.024954 20.637688 -8.164693 4.00000000
-2.771927 -5.535528 -20.929843 4.00000000
16.378239 -5.340856 -60.883231 4.00000000
19.352081 14.119644 -60.787291 4.00000000
0.772073 19.882700 2.893459 4.00000000
-1.687944 18.541967 6.847417 4.00000000
9.996847 20.727741 -57.419412 4.00000000
-6.408949 -1.203700 -32.597408 4.00000000
1.171405 -7.843086 -40.886151 4.00000000
-7.967486 2.899426 -14.573290 4.00000000
2.109781 20.376079 -58.745231 4.00000000
-5.139514 -3.127443 -8.170535 4.00000000
-0.755740 -6.919098 -41.361516 4.00000000
2.539418 20.513423 -42.867239 4.00000000
21.358527 3.007455 -13.339211 4.00000000
17.816692 -3.949601 2.505400 4.00000000
-4.882394 15.636181 -60.818025 4.00000000
13.577164 -7.221082 -20.538278 4.00000000
21.678040 6.564850 -49.837298 4.00000000
9.070061 20.907090 -4.283566 4.00000000
18.024323 15.913398 -22.723905 4.00000000
1.458375 -7.956970 -35.398130 4.00000000
12.920652 19.734345 -1.998337 4.00000000
21.513356 8.348016 -35.744620 4.00000000
-8.289929 6.845611 1.626585 4.00000000
15.280997 18.385829 -35.222365 4.00000000
16.431880 17.493460 -42.068128 4.00000000
5.639661 21.055243 -19.172155 4.00000000
-7.746155 2.018707 -9.607686 4.00000000
17.553873 16.426621 0.363603 4.00000000
21.634286 4.934256 0.608845 4.00000000
9.776662 -8.574807 -9.902895 4.00000000
-5.716783 14.535501 -22.839370 4.00000000
1.714285 20.247901 -50.006567 4.00000000
20.981838 10.615784 -20.436981 4.00000000
-6.117825 13.904583 -6.360155 4.00000000
-6.326662 -1.353649 -51.632677 4.00000000
-2.106547 -6.045442 -11.113181 4.00000000
-0.258466 -7.192969 -52.507842 4.00000000
-6.977002 -0.078811 -33.622755 4.00000000
14.050403 19.158495 -23.171460 4.00000000
21.678264 6.337339 -17.959527 4.00000000
-3.359867 17.232030 -5.537842 4.00000000
16.618652 17.338156 -4.477436 4.00000000
-6.285130 -1.429332 3.781842 4.00000000
-0.147738 -7.253952 -22.312906 4.00000000
-7.446547 1.074503 5.891796 4.00000000
20.784790 0.981656 -59.869208 4.00000000
21.212340 9.806539 -48.474265 4.00000000
8.018761 -8.839978 -53.484048 4.00000000
17.129538 -4.660783 -54.815219 4.00000000
1.424806 -7.943648 -37.038113 4.00000000
15.769342 -5.833698 -59.881297 4.00000000
-5.172177 15.284373 -15.973745 4.00000000
5.159736 21.017450 -8.615315 4.00000000
-0.133206 19.458536 -58.636009 4.00000000
-4.345362 -4.055978 2.213870 4.00000000
20.997893 1.630288 -48.444107 4.00000000
-5.152440 15.310251 -50.489890 4.00000000
20.944247 1.465614 -16.618008 4.00000000
-5.029997 -3.260028 1.609501 4.00000000
-8.306819 6.505006 -27.104763 4.00000000
-7.514173 10.913290 -36.808613 4.00000000
14.618335 -6.623716 -51.771503 4.00000000
-7.383613 0.906901 -32.621944 4.00000000
-6.715912 -0.634768 -45.631683 4.00000000
15.305539 -6.170128 -50.055114 4.00000000
0.485316 -7.553462 -17.101263 4.00000000
11.460539 -8.114084 -45.102314 4.00000000
-7.543402 1.373349 -3.244321 4.00000000
21.154050 10.034293 -52.652025 4.00000000
-1.493627 18.665084 -50.101092 4.00000000
-7.154306 11.869820 3.364348 4.00000000
1.988841 -8.139396 -48.636867 4.00000000
-6.221803 13.740530 -50.067648 4.00000000
11.950872 20.139168 -20.726198 4.00000000
1.466602 -7.960235 -58.963458 4.00000000
-6.225970 13.732966 -46.590655 4.00000000
-8.133850 8.410807 -38.844057 4.00000000
-8.168268 4.055262 -25.587191 4.00000000
5.654916 21.056191 1.693890 4.00000000
-7.194255 0.427571 -45.066885 4.00000000
20.763136 11.268763 -43.076813 4.00000000
18.739735 15.014561 6.872356 4.00000000
6.552567 21.091421 -55.208805 4.00000000
14.603190 18.830934 -44.672782 4.00000000
15.444794 -6.069116 -35.411589 4.00000000
-7.895215 2.601124 -24.104077 4.00000000
19.808214 -1.151980 -39.398300 4.00000000
15.541159 18.196493 2.640748 4.00000000
-6.303273 13.592619 -14.270612 4.00000000
21.622620 7.456303 -5.627750 4.00000000
2.260657 -8.227943 -15.116240 4.00000000
8.292498 -8.809852 1.601644 4.00000000
-3.930462 16.694843 -19.030972 4.00000000
1.660837 -8.032546 -21.190032 4.00000000
-6.669613 -0.728696 -14.939596 4.00000000
21.312540 2.779684 -25.610516 4.00000000
20.809979 1.053459 -1.761362 4.00000000
20.094753 12.815334 -54.698214 4.00000000
1.452044 -7.954457 -5.303447 4.00000000
-0.273830 -7.184507 -14.087868 4.00000000
14.834616 18.683831 -42.894660 4.00000000
17.565110 16.414637 -18.286338 4.00000000
21.330088 2.858978 -61.014218 4.00000000
-8.208587 7.822897 -45.124654 4.00000000
19.711039 13.526554 -40.963264 4.00000000
21.397064 8.989301 -19.975994 4.00000000
0.840951 19.909912 -13.959023 4.00000000
21.509916 3.826673 -24.690893 4.00000000
19.330783 14.153262 6.467336 4.00000000
21.492723 3.708074 -52.434664 4.00000000
19.599568 13.728997 -19.467598 4.00000000
8.916942 20.928284 -50.308490 4.00000000
8.223074 -8.818572 4.371766 4.00000000
1.452477 -7.954629 -38.076624 4.00000000
-7.970879 9.276996 2.277638 4.00000000
7.130069 -8.894215 -35.168359 4.00000000
12.195744 -7.844581 -46.188973 4.00000000
12.797742 19.792295 -18.469661 4.00000000
15.923843 -5.716214 -42.736904 4.00000000
18.037615 -3.699186 -21.869133 4.00000000
-8.299538 6.694706 -34.428538 4.00000000
21.232509 9.727733 -58.376115 4.00000000
8.969977 20.921542 -59.819628 4.00000000
7.361211 21.078641 -1.870345 4.00000000
5.360224 -8.839899 4.864896 4.00000000
18.959002 14.712296 -50.772578 4.00000000
-7.254294 11.617836 -40.704079 4.00000000
-7.747663 2.024598 -23.031279 4.00000000
-6.478086 -1.077712 -9.703228 4.00000000
-8.277934 5.163654 -49.108880 4.00000000
9.980265 20.732012 -22.664632 4.00000000
-7.369954 0.872326 -36.739961 4.00000000
-0.623957 -6.991676 -59.380721 4.00000000
-6.584512 13.082021 -45.815004 4.00000000
0.700438 19.851548 -32.467501 4.00000000
6.207559 21.090548 5.119346 4.00000000
-8.152056 8.267589 -21.089916 4.00000000
-1.200404 18.850868 -38.866932 4.00000000
11.876565 -7.970683 -51.952927 4.00000000
-8.068829 3.432887 6.441584 4.00000000
-5.073742 -3.207068 -10.658287 4.00000000
-0.397033 19.313767 -36.479333 4.00000000
-8.071774 3.448390 -52.852364 4.00000000
19.448724 13.967098 -55.060384 4.00000000
16.014000 17.839687 -39.710010 4.00000000
-6.040751 -1.828145 -24.124449 4.00000000
19.231985 -2.111211 -23.696492 4.00000000
6.638669 -8.893865 -49.944266 4.00000000
1.060682 19.996721 0.965725 4.00000000
5.933100 -8.876374 -4.089539 4.00000000
6.839508 -8.894008 -10.039256 4.00000000
20.547201 11.815367 -42.092208 4.00000000
16.830573 17.138852 6.392931 4.00000000
18.645385 -2.946462 -32.490752 4.00000000
4.683145 -8.760025 -16.896337 4.00000000
7.488593 21.070531 -54.891129 4.00000000
5.112905 -8.814657 -41.125415 4.00000000
13.924577 -7.030448 -16.551159 4.00000000
21.237634 9.707708 -33.474156 4.00000000
18.246173 15.644817 -32.234329 4.00000000
21.390943 9.021523 2.082565 4.00000000
17.791539 16.173146 -26.863340 4.00000000
16.029202 17.827092 -10.091361 4.00000000
3.291203 20.705830 -55.032225 4.00000000
-7.760474 2.074654 5.482131 4.00000000
19.443210 13.975801 -53.907988 4.00000000
13.411201 19.503061 -24.936347 4.00000000
-5.457159 14.892758 -45.652792 4.00000000
1.601583 20.210414 -43.083948 4.00000000
-6.131130 -1.685495 -20.081864 4.00000000
8.714777 -8.756814 -45.168618 4.00000000
20.815258 11.129766 -48.820856 4.00000000
6.032574 21.079670 -7.436208 4.00000000
20.705247 11.415301 -10.630625 4.00000000
15.253172 18.406078 -29.453927 4.00000000
16.803215 -4.966752 -42.755547 4.00000000
10.939184 20.481069 -32.404765 4.00000000
-6.586477 13.078454 -0.942560 4.00000000
-6.362954 -1.287515 -27.005770 4.00000000
15.320747 18.356900 -40.906032 4.00000000
-5.305859 -2.903887 -39.263823 4.00000000
20.526492 0.330706 3.066403 4.00000000
13.734556 -7.134717 -53.262487 4.00000000
14.953003 18.608580 0.593279 4.00000000
4.456824 -8.731255 -9.567708 4.00000000
-3.526494 -4.878582 5.551022 4.00000000
-2.066319 18.271956 -17.161501 4.00000000
1.504062 -7.975101 -11.210238 4.00000000
16.100327 17.768162 -21.673034 4.00000000
21.553277 8.030096 4.906475 4.00000000
-2.026614 18.300756 0.657999 4.00000000
17.671909 -4.103534 -8.006839 4.00000000
6.038790 -8.883103 -47.711322 4.00000000
18.140256 15.773045 -60.737198 4.00000000
18.740243 -2.816118 -10.239542 4.00000000
20.781259 0.972755 -2.885388 4.00000000
-3.857402 -4.567373 -37.283083 4.00000000
8.364272 -8.800838 -58.272138 4.00000000
18.120314 -3.599368 -46.961937 4.00000000
20.636425 11.589511 -59.688009 4.00000000
14.619370 -6.623060 -49.055967 4.00000000
-1.763472 18.491625 -13.919957 4.00000000
18.125370 15.791067 -5.335289 4.00000000
17.956957 -3.796541 -54.036761 4.00000000
-0.938584 -6.818397 -37.705304 4.00000000
-8.145592 3.874677 -61.047903 4.00000000
4.282084 -8.706102 -52.326959 4.00000000
18.849423 -2.666093 -2.602119 4.00000000
13.431989 -7.296535 6.514163 4.00000000
21.626058 7.401010 -59.226176 4.00000000
-0.279996 -7.181111 -15.354469 4.00000000
4.822236 -8.777707 -24.460660 4.00000000
8.245627 21.013625 -33.029201 4.00000000
-8.162910 4.012589 2.816068 4.00000000
19.845527 13.281478 -56.652879 4.00000000
1.727755 20.252266 -51.041001 4.00000000
-1.266921 18.808724 -10.446415 4.00000000
-5.261931 -2.964444 0.680465 4.00000000
21.252436 2.546341 -17.107902 4.00000000
8.477504 -8.786616 -2.493630 4.00000000
14.565049 18.855177 -9.829822 4.00000000
21.553186 8.030819 -44.128745 4.00000000
-7.044780 0.065511 -60.959736 4.00000000
-7.887496 9.627662 -10.569892 4.00000000
21.095062 10.264777 -21.589744 4.00000000
1.025336 19.982757 -30.116290 4.00000000
18.203994 -3.498366 -2.695321 4.00000000
1.831670 -8.088196 -13.940865 4.00000000
7.809203 -8.852992 -34.067419 4.00000000
-6.346583 -1.317348 -6.483370 4.00000000
3.903571 20.830938 -60.851109 4.00000000
7.266602 -8.886690 -29.998630 4.00000000
-6.877456 12.488155 -42.350812 4.00000000
11.494383 -8.103115 -20.322583 4.00000000
-5.810665 14.387806 0.603927 4.00000000
0.531417 -7.575197 -49.844582 4.00000000
-1.236656 -6.630745 -6.491049 4.00000000
-4.049785 -4.371232 -57.880181 4.00000000
13.756409 -7.122725 -7.236445 4.00000000
-4.243082 16.362449 -20.588947 4.00000000
-8.306554 5.624259 -45.699581 4.00000000
0.364016 -7.496273 -11.446477 4.00000000
2.335642 -8.252370 -54.410346 4.00000000
-4.857639 15.666059 -8.477862 4.00000000
3.713643 -8.597239 -6.955790 4.00000000
21.265960 2.598846 -49.818791 4.00000000
17.279879 16.716292 -36.209221 4.00000000
-3.370207 -5.025565 -22.760244 4.00000000
5.790826 21.064640 -39.535899 4.00000000
12.223155 -7.833751 -53.943375 4.00000000
-7.998944 9.130474 -11.536589 4.00000000
-6.129495 -1.688076 -45.681356 4.00000000
11.278733 -8.173007 -60.983844 4.00000000
20.317185 -0.144864 -25.934816 4.00000000
21.678314 6.400702 -27.743924 4.00000000
6.206674 21.090493 -1.314001 4.00000000
-7.867134 2.491403 -25.825990 4.00000000
-3.577884 -4.830251 -16.046811 4.00000000
17.120328 16.866345 -54.850336 4.00000000
11.730310 20.223360 -26.335460 4.00000000
4.618749 20.949503 -38.895723 4.00000000
-7.646865 1.692584 4.377165 4.00000000
12.212287 20.035425 -47.588507 4.00000000
-7.772297 10.074966 -28.026425 4.00000000
11.050981 20.444651 -12.548839 4.00000000
18.873000 -2.633697 -58.218287 4.00000000
12.115935 20.073663 -46.201857 4.00000000
-7.787694 10.015182 -24.398186 4.00000000
21.654054 5.244719 -25.994461 4.00000000
6.606462 -8.893842 -38.837424 4.00000000
16.623890 17.333230 -20.335066 4.00000000
21.677937 5.915530 -11.343047 4.00000000
2.421789 20.477200 -34.180520 4.00000000
-8.037869 8.927253 -30.556360 4.00000000
-3.085010 17.474049 -24.546257 4.00000000
3.010197 -8.436622 -11.979499 4.00000000
-8.193357 7.942700 -22.309913 4.00000000
21.511996 8.358845 -46.874923 4.00000000
-8.239630 4.623559 -50.002175 4.00000000
-2.151878 18.209897 -35.737798 4.00000000
-1.738637 18.509639 -3.799807 4.00000000
-7.792584 2.200116 -48.027820 4.00000000
-1.660944 18.559074 5.597053 4.00000000
15.919233 17.918204 -38.462119 4.00000000
4.517224 20.936751 -11.157084 4.00000000
20.832409 11.076847 -61.027725 4.00000000
-5.120536 15.348758 -9.458764 4.00000000
-6.928922 12.378993 -60.167712 4.00000000
-5.860957 -2.111925 -58.915947 4.00000000
20.674551 11.493003 -40.869262 4.00000000
-0.074059 19.487812 -28.173525 4.00000000
12.341042 19.984329 -54.870336 4.00000000
-3.608438 -4.801516 2.712475 4.00000000
-3.038048 -5.315038 -58.053396 4.00000000
1.850752 -8.094412 -42.360534 4.00000000
9.041021 -8.714534 -6.455497 4.00000000
-2.908560 17.619807 -37.834943 4.00000000
5.298587 -8.835974 -5.695941 4.00000000
-7.662534 1.740930 -53.272333 4.00000000
18.131023 15.784223 -8.969345 4.00000000
-8.250771 4.726492 -52.590569 4.00000000
13.541415 -7.240698 -49.088310 4.00000000
12.777137 19.802010 -39.756366 4.00000000
17.452390 16.534856 -41.795388 4.00000000
-5.758486 -2.273662 -40.282878 4.00000000
18.221619 -3.477093 -4.056286 4.00000000
20.570310 11.756871 -24.103861 4.00000000
0.833971 19.907154 -14.979533 4.00000000
15.155476 -6.278980 -3.507208 4.00000000
-7.418684 11.203547 -46.096556 4.00000000
20.811962 11.139937 -16.395980 4.00000000
17.088802 16.895994 -21.205554 4.00000000
13.277261 -7.369202 -24.657618 4.00000000
12.343055 -7.786380 -12.012279 4.00000000
11.629285 -8.059394 -9.807964 4.00000000
20.979161 10.624042 -54.742130 4.00000000
1.730097 -8.055108 -31.347487 4.00000000
11.109965 20.425437 -16.210095 4.00000000
17.972552 -3.777718 -59.552852 4.00000000
19.535715 13.829786 -1.454615 4.00000000
-3.712798 -4.703368 -56.524718 4.00000000
7.715488 21.056085 -11.188333 4.00000000
19.125235 14.477712 -43.591055 4.00000000
-3.585808 17.020181 -48.524636 4.00000000
16.325011 17.582005 -49.622285 4.00000000
21.135145 2.090972 -6.740280 4.00000000
17.327993 16.667528 -49.279128 4.00000000
18.236630 -3.458974 -36.982344 4.00000000
-6.292656 -1.415618 -50.460654 4.00000000
14.293380 -6.828076 -24.776829 4.00000000
-0.295901 19.369261 -9.983962 4.00000000
-7.768004 2.104076 0.832002 4.00000000
-2.136646 -6.023538 -35.556274 4.00000000
17.292778 16.704161 -61.063903 4.00000000
21.182125 2.273365 -40.752410 4.00000000
21.301474 2.736723 -34.399232 4.00000000
-1.655689 18.562403 -2.620451 4.00000000
-2.527139 17.934884 -7.766073 4.00000000
-5.846190 -2.135233 -25.622135 4.00000000
13.161305 -7.423659 5.446799 4.00000000
8.727893 -8.755167 -4.552535 4.00000000
13.100004 19.649784 -20.768459 4.00000000
21.054729 1.804753 4.639094 4.00000000
-6.610960 13.034004 -4.459404 4.00000000
0.189164 19.611433 -8.497469 4.00000000
-8.255230 7.390586 -39.367762 4.00000000
19.087776 14.534778 -59.612884 4.00000000
-5.060614 15.421080 -13.871166 4.00000000
-6.490266 -1.055517 -60.029398 4.00000000
-8.306932 6.353623 -17.796635 4.00000000
3.387809 20.730555 -3.289991 4.00000000
10.143889 -8.492032 -32.296884 4.00000000
-7.814845 2.287095 -36.517648 4.00000000
21.678403 6.515512 -24.391557 4.00000000
2.604111 -8.332025 -5.064478 4.00000000
16.673335 17.286729 0.776600 4.00000000
13.006448 -7.496386 -7.713835 4.00000000
-1.037422 18.954133 -26.737167 4.00000000
-2.942609 17.591681 -17.703415 4.00000000
-5.646299 14.632847 -18.659790 4.00000000
21.369072 3.062510 -32.462311 4.00000000
-8.307170 6.033899 -25.983502 4.00000000
20.614384 0.552205 6.154333 4.00000000
20.883168 10.920229 -12.418152 4.00000000
-6.761717 -0.537232 -42.460303 4.00000000
-2.527134 17.934888 -44.476935 4.00000000
1.776456 20.268050 -6.983103 4.00000000
-2.630291 17.849674 1.315625 4.00000000
14.113192 -6.926950 -4.116932 4.00000000
21.509056 8.382256 -23.496915 4.00000000
-6.835680 -0.379738 -23.314070 4.00000000
-1.552993 18.627470 1.629980 4.00000000
21.565301 4.262468 -12.076303 4.00000000
-8.213508 7.784184 -4.376344 4.00000000
-7.472505 11.041197 -13.687572 4.00000000
21.216629 9.789780 -45.222767 4.00000000
14.678666 -6.585492 -44.528647 4.00000000
4.553175 20.941266 -45.769026 4.00000000
-6.061353 -1.795628 -55.023076 4.00000000
-6.272560 -1.452237 -15.570383 4.00000000
21.203054 2.354619 -14.260420 4.00000000
20.854541 11.008558 -35.902418 4.00000000
20.080280 -0.647353 -55.966261 4.00000000
21.479162 8.557141 6.002201 4.00000000
-7.423704 11.190896 -28.717171 4.00000000
-1.242861 -6.626800 -30.606057 4.00000000
2.830350 -8.390298 -44.181400 4.00000000
8.671220 20.959522 -31.276738 4.00000000
21.660504 6.846921 -4.719372 4.00000000
21.311504 9.419079 -11.971938 4.00000000
14.074032 -6.948438 -42.276017 4.00000000
15.718543 -5.870546 -46.703545 4.00000000
19.046941 -2.394684 1.159821 4.00000000
-7.511573 1.275140 -4.288486 4.00000000
21.675046 5.574406 -12.406406 4.00000000
-4.221042 16.385883 -14.834314 4.00000000
12.070131 -7.894208 -27.789745 4.00000000
1.409068 -7.937402 -10.126278 4.00000000
21.573047 7.872659 -27.852380 4.00000000
12.166721 20.053508 -37.229414 4.00000000
-7.905468 9.557878 -31.323441 4.00000000
-7.083219 12.048970 -20.391708 4.00000000
18.205117 15.694521 -14.933754 4.00000000
-0.802218 -6.893500 -5.245889 4.00000000
18.660122 -2.926211 -15.810838 4.00000000
11.407488 -8.131277 -59.543624 4.00000000
19.842540 13.286922 -33.347342 4.00000000
19.697226 -1.353495 -43.402918 4.00000000
2.106808 20.375116 -14.353778 4.00000000
14.692876 -6.576489 -30.375844 4.00000000
21.541829 4.077778 -16.768704 4.00000000
21.660362 5.343786 -20.186726 4.00000000
21.471359 3.596536 -4.061623 4.00000000
-3.655214 -4.757524 -28.991322 4.00000000
-8.038612 3.273830 -40.395405 4.00000000
13.637823 -7.187797 -28.329221 4.00000000
-5.990098 -1.908093 -33.613248 4.00000000
3.158457 -8.474810 -26.828875 4.00000000
13.935646 19.221697 -46.956435 4.00000000
18.576700 -3.040842 -43.180728 4.00000000
0.807064 19.896524 -28.956019 4.00000000
-0.219399 -7.214485 -6.584397 4.00000000
-7.761314 2.077936 -8.060775 4.00000000
-3.530059 -4.875229 -39.328193 4.00000000
18.785295 -2.754212 -50.705383 4.00000000
-3.027668 -5.323638 -24.245379 4.00000000
7.711639 21.056330 -30.503558 4.00000000
14.424633 -6.746440 -14.140016 4.00000000
17.164020 16.825254 -15.853091 4.00000000
-8.063810 3.406468 -26.626461 4.00000000
18.792833 14.941364 -0.834166 4.00000000
8.600911 20.968460 -58.687183 4.00000000
-2.765016 -5.541254 -55.291674 4.00000000
2.415360 20.475117 -54.563567 4.00000000
20.393797 12.178560 -21.760035 4.00000000
11.615467 20.260770 -55.671141 4.00000000
18.290732 -3.393673 -18.472569 4.00000000
18.480000 -3.165225 -4.984804 4.00000000
18.015012 -3.726468 -27.668216 4.00000000
-4.000108 16.620792 -0.366233 4.00000000
-5.577084 14.727961 3.680264 4.00000000
-3.809784 16.810177 -51.566743 4.00000000
15.193282 18.449664 -53.199023 4.00000000
-7.731695 10.232618 -48.495453 4.00000000
21.661248 5.357705 -1.164612 4.00000000
-4.615440 -3.761907 -48.305098 4.00000000
16.032190 -5.626713 -37.922771 4.00000000
6.406265 -8.893700 -36.450059 4.00000000
-7.986686 3.000493 2.607377 4.00000000
14.345001 -6.796892 -50.625161 4.00000000
10.824341 -8.317881 -23.809905 4.00000000
21.678126 6.159032 -9.446706 4.00000000
3.178583 -8.479994 -48.925045 4.00000000
-8.136474 8.390169 -47.649408 4.00000000
11.236322 -8.186752 -54.436875 4.00000000
8.984218 -8.722972 -17.937089 4.00000000
18.293413 15.587626 -25.631143 4.00000000
20.676294 0.708227 -33.911005 4.00000000
6.706839 21.091301 -20.823688 4.00000000
21.174477 9.954479 5.686285 4.00000000
19.471069 13.931828 -18.212848 4.00000000
13.217310 19.594477 -36.563155 4.00000000
20.823569 11.104124 5.122770 4.00000000
-6.668422 -0.730867 -2.182541 4.00000000
20.242476 12.500778 -59.390166 4.00000000
-8.113718 3.669182 -49.758229 4.00000000
9.927734 -8.546112 -39.137393 4.00000000
21.650792 5.193496 -32.402331 4.00000000
5.556618 21.050080 -46.198338 4.00000000
-1.535691 -6.440667 -59.545502 4.00000000
18.521632 -3.114976 -24.509635 4.00000000
-2.710813 17.783158 -39.143653 4.00000000
-8.116569 8.516372 -34.172218 4.00000000
21.148993 10.054054 -8.727017 4.00000000
-2.950180 -5.387839 -12.944278 4.00000000
16.717093 17.245576 -40.488894 4.00000000
-3.618218 -4.792317 -33.481760 4.00000000
12.204527 -7.841110 -32.697834 4.00000000
-8.201305 7.880181 -20.070297 4.00000000
15.198252 18.446047 -11.974013 4.00000000
8.096886 21.031802 -51.007578 4.00000000
4.055743 -8.662755 -11.456110 4.00000000
4.535461 -8.741251 -15.162853 4.00000000
21.549756 4.140155 -13.114078 4.00000000
-5.192148 -3.060641 -61.047508 4.00000000
-2.763210 -5.542750 -43.791466 4.00000000
3.142574 -8.470719 -28.027217 4.00000000
17.069535 -4.717043 -18.240575 4.00000000
3.403925 20.734679 -58.812016 4.00000000
21.418516 8.876378 -55.070820 4.00000000
-7.173514 0.375070 6.852490 4.00000000
-6.364784 -1.284180 5.579395 4.00000000
20.580707 11.730551 -12.960571 4.00000000
19.756177 13.444298 -14.700380 4.00000000
13.607215 -7.204592 -37.405282 4.00000000
21.609226 4.608093 -21.617931 4.00000000
19.764572 13.429000 -25.949294 4.00000000
-7.992347 3.030292 -13.358710 4.00000000
-5.217882 -3.025166 -27.395636 4.00000000
-4.023812 -4.398934 -23.176097 4.00000000
7.755927 -8.856301 -23.300031 4.00000000
-5.865881 -2.104153 -8.502875 4.00000000
21.617759 7.516590 -33.753170 4.00000000
20.473155 0.196288 -50.388470 4.00000000
-7.862549 9.724528 -51.212814 4.00000000
17.956486 15.995524 -6.355837 4.00000000
20.270182 12.441781 -50.986164 4.00000000
20.149767 12.698188 -37.717271 4.00000000
10.900403 20.493702 -7.915497 4.00000000
-7.840142 9.811531 -26.805658 4.00000000
-5.495736 -2.642138 -41.295987 4.00000000
10.057104 20.712220 -16.703710 4.00000000
-8.275632 7.070165 -5.602754 4.00000000
20.819211 1.081796 -12.005505 4.00000000
19.314497 14.178970 -27.746668 4.00000000
21.502718 8.432727 -12.568674 4.00000000
20.318440 -0.142204 -15.687359 4.00000000
15.191446 -6.252889 -25.106468 4.00000000
2.930605 -8.416121 -42.346374 4.00000000
3.605403 20.774303 -28.531919 4.00000000
4.363874 -8.719439 -48.612299 4.00000000
17.834159 16.127691 -43.479612 4.00000000
-5.146695 -3.118749 5.310738 4.00000000
14.178696 -6.891006 -55.425395 4.00000000
8.593227 -8.772081 -20.943586 4.00000000
20.445041 0.126323 1.304103 4.00000000
20.098501 12.807353 -13.817370 4.00000000
15.982485 -5.667772 -20.324435 4.00000000
13.426479 19.495857 -49.620768 4.00000000
21.210815 9.812496 -31.284622 4.00000000
4.242484 -8.698518 -51.203413 4.00000000
14.667849 18.789834 -55.931342 4.00000000
13.777512 19.308789 -2.535341 4.00000000
-7.118465 11.960145 6.534082 4.00000000
1.487148 -7.968388 -45.600308 4.00000000
20.416375 0.065522 -11.346816 4.00000000
12.745202 -7.619079 -9.949126 4.00000000
-0.080039 -7.286917 -44.584132 4.00000000
3.442681 20.743394 -53.359829 4.00000000
-6.340565 13.524915 -10.782139 4.00000000
0.596134 19.802562 -31.498023 4.00000000
2.071699 20.363737 0.537454 4.00000000
-1.445727 -6.497852 -43.941688 4.00000000
-3.856594 16.766286 -32.611241 4.00000000
12.990947 -7.503666 -4.316868 4.00000000
14.505207 18.893215 -11.001162 4.00000000
18.619717 15.180008 -27.488288 4.00000000
-0.615088 19.194115 -5.186166 4.00000000
21.678422 6.540113 -52.907562 4.00000000
18.042081 -3.693796 -30.347465 4.00000000
8.995020 -8.721616 -53.196239 4.00000000
-2.652841 -5.634194 -23.215113 4.00000000
15.216324 -6.234842 -43.526844 4.00000000
18.210638 -3.490347 -34.982592 4.00000000
-8.091191 8.648866 -1.305115 4.00000000
7.937279 -8.845038 -54.689736 4.00000000
-7.371027 11.323650 -59.633486 4.00000000
19.005496 14.648203 -16.576434 4.00000000
9.234430 20.875611 -18.769049 4.00000000
19.706308 13.535173 -24.594988 4.00000000
20.531372 11.855435 -53.638227 4.00000000
4.936525 -8.792235 -12.281929 4.00000000
6.149687 21.086951 -42.504770 4.00000000
-4.506406 16.082470 -28.280491 4.00000000
21.130981 10.124431 -4.742750 4.00000000
20.520840 0.316462 -1.205697 4.00000000
-4.068283 -4.351503 -25.971698 4.00000000
-0.286554 -7.177499 -55.928845 4.00000000
14.290644 -6.829577 -32.032819 4.00000000
2.076175 20.365188 -22.026694 4.00000000
18.740149 15.013989 -12.589873 4.00000000
15.605375 18.149759 -44.891124 4.00000000
20.139492 12.720068 -32.179447 4.00000000
-0.688904 -6.955907 0.953300 4.00000000
-0.273825 19.381375 -39.874797 4.00000000
13.255641 -7.379355 -3.123242 4.00000000
-5.757636 -2.275002 -47.037300 4.00000000
7.044907 21.091038 -8.561453 4.00000000
-4.538639 -3.849835 -37.915492 4.00000000
17.875343 16.083768 -56.549776 4.00000000
-7.581699 10.706012 -39.523014 4.00000000
-1.913729 18.382637 -55.195634 4.00000000
16.201403 17.684417 -11.073678 4.00000000
-7.625227 10.572396 -41.639757 4.00000000
0.115157 -7.378945 -2.065552 4.00000000
16.977914 -4.802949 -13.345851 4.00000000
17.792438 -3.975388 -5.210221 4.00000000
-3.095056 17.465750 -54.519331 4.00000000
-7.522763 10.886924 -10.244220 4.00000000
-0.710708 -6.943899 -49.737594 4.00000000
-6.836619 -0.377737 -27.012155 4.00000000
11.852270 -7.980281 0.034227 4.00000000
18.523483 -3.112742 -17.133035 4.00000000
13.707820 19.347171 -44.997251 4.00000000
-6.398237 -1.223220 -38.913853 4.00000000
-1.065032 18.936639 -52.577222 4.00000000
7.463423 -8.874467 -59.228767 4.00000000
13.048717 19.673965 0.154868 4.00000000
21.539160 4.056784 -19.104017 4.00000000
-8.037850 8.927350 -27.405738 4.00000000
19.406947 14.033042 -5.158178 4.00000000
0.167833 -7.403780 -35.586026 4.00000000
21.674266 6.625556 -16.937649 4.00000000
6.024016 21.079138 -53.105146 4.00000000
-8.169944 8.126875 -35.987115 4.00000000
-6.682053 -0.706027 -30.997453 4.00000000
5.143000 -8.818483 -43.385961 4.00000000
9.829935 -8.564688 -19.573611 4.00000000
12.588144 19.886266 -44.863134 4.00000000
-4.407440 -3.989767 -27.114362 4.00000000
21.358329 3.006419 -35.383823 4.00000000
14.596876 -6.637312 -5.367353 4.00000000
14.198837 19.076746 -24.161904 4.00000000
21.666415 5.438848 -42.137236 4.00000000
21.388061 3.161649 -9.449462 4.00000000
11.162002 -8.210838 -4.425402 4.00000000
18.896229 -2.601777 -22.303519 4.00000000
21.309693 9.426156 -9.530484 4.00000000
9.837150 -8.563318 -17.262394 4.00000000
10.622088 20.566694 -60.652632 4.00000000
8.225347 21.016204 -27.269378 4.00000000
6.618191 21.091370 -10.566570 4.00000000
-4.288126 16.314556 -30.237030 4.00000000
-7.705751 1.874279 -58.419998 4.00000000
11.775719 20.208568 -11.293709 4.00000000
12.790123 19.795888 -28.225961 4.00000000
-7.910363 9.538871 -50.165079 4.00000000
21.662040 6.822217 5.503805 4.00000000
11.250635 20.379614 -57.653197 4.00000000
20.999341 10.561777 -9.857156 4.00000000
21.627822 7.372629 -36.159245 4.00000000
-7.052519 12.116837 -45.836568 4.00000000
2.813809 -8.386037 5.627564 4.00000000
21.336311 2.891466 -21.592536 4.00000000
14.126395 19.116643 -15.051610 4.00000000
21.505348 3.790731 -10.270809 4.00000000
21.393019 9.010594 -7.005985 4.00000000
-6.702133 -0.664108 6.576865 4.00000000
2.215351 -8.213184 -18.966723 4.00000000
-6.393640 -1.231596 -5.278041 4.00000000
-8.228380 4.533965 -34.769762 4.00000000
6.676408 21.091324 -60.918276 4.00000000
17.223543 16.769274 2.575311 4.00000000
12.669840 -7.654471 -21.020257 4.00000000
10.051396 -8.515703 -55.097583 4.00000000
-7.102614 12.000092 -37.877720 4.00000000
9.075717 20.906007 -9.198521 4.00000000
-7.842792 9.801244 -9.394266 4.00000000
-5.736308 -2.308666 -6.179698 4.00000000
-7.929871 2.736531 -52.131719 4.00000000
2.658967 -8.346154 1.382557 4.00000000
-7.730474 1.957437 -31.936248 4.00000000
6.037090 -8.882995 -25.168374 4.00000000
20.641761 0.621199 -20.364339 4.00000000
7.941556 21.041691 -60.642595 4.00000000
8.187678 21.020992 -37.105448 4.00000000
7.818489 -8.852416 -38.414151 4.00000000
14.707992 18.764317 -41.607408 4.00000000
14.403940 18.957583 -49.178174 4.00000000
16.410986 -5.313805 -28.875239 4.00000000
-1.906815 18.387652 -52.317846 4.00000000
12.938350 -7.528368 -15.610014 4.00000000
20.111438 -0.581265 -23.787513 4.00000000
1.866794 20.297328 -44.515399 4.00000000
-6.825520 12.598313 -23.686657 4.00000000
6.146645 -8.889970 -49.026257 4.00000000
19.801872 -1.163495 -28.375217 4.00000000
21.674271 5.562230 -7.966605 4.00000000
8.177949 21.022229 -14.448448 4.00000000
17.541588 16.439724 1.481146 4.00000000
20.286283 -0.210409 -28.270869 4.00000000
9.042666 -8.714221 -22.934566 4.00000000
5.905438 21.071766 -35.252110 4.00000000
7.437183 -8.876097 -39.728984 4.00000000
21.677855 5.809994 -23.394795 4.00000000
10.198884 20.675701 -51.902539 4.00000000
-3.191474 17.386103 -12.827999 4.00000000
-7.047894 0.072144 -35.568640 4.00000000
14.232621 -6.861416 -11.603529 4.00000000
17.755106 -4.015079 -15.214929 4.00000000
19.811873 13.342805 -3.509733 4.00000000
12.922348 19.733546 -23.175752 4.00000000
-7.698327 10.348005 -4.051205 4.00000000
-1.896415 18.395195 -25.931829 4.00000000
20.510022 0.289198 -55.736456 4.00000000
-0.051546 19.498385 -14.294708 4.00000000
-7.694789 1.840455 -37.365603 4.00000000
17.186611 16.804008 -44.129986 4.00000000
19.834702 13.301203 -11.348821 4.00000000
-5.398297 -2.776459 -24.727239 4.00000000
-1.995308 18.323464 -22.646834 4.00000000
-7.352357 0.827781 -18.197184 4.00000000
-7.878448 9.662794 -4.866940 4.00000000
18.694728 15.076604 -4.117419 4.00000000
13.490190 19.465819 4.288501 4.00000000
20.526675 0.331167 -16.621768 4.00000000
21.351932 2.973021 5.098868 4.00000000
11.443659 20.316737 1.236338 4.00000000
21.424485 8.844959 -14.429462 4.00000000
13.481945 -7.273074 4.261473 4.00000000
5.655677 21.056238 -3.609904 4.00000000
12.864250 -7.563169 2.284442 4.00000000
10.676858 -8.355627 -52.632383 4.00000000
-7.634299 1.653812 -2.204609 4.00000000
8.172533 -8.824920 -11.340217 4.00000000
21.289873 2.691684 -10.734028 4.00000000
6.455394 -8.893735 -26.268632 4.00000000
-3.098365 -5.265063 1.368774 4.00000000
-4.810281 -3.526025 -30.740058 4.00000000
13.298122 -7.359404 -56.926566 4.00000000
-6.551476 -0.943974 -33.568932 4.00000000
21.199549 9.856516 -39.543358 4.00000000
21.282146 2.661684 -15.247312 4.00000000
