67.117811 50.366601 -3.829205 7.00000000
59.966030 58.770995 -24.270705 7.00000000
65.025330 53.110566 -24.296074 7.00000000
69.517602 46.892427 -3.168195 7.00000000
62.201237 56.406264 -31.821697 7.00000000
62.704102 55.859910 -26.556983 7.00000000
66.190740 51.599110 -9.358760 7.00000000
62.250074 56.354597 -35.308318 7.00000000
61.593072 57.049671 -33.216972 7.00000000
64.804204 53.371780 -20.387598 7.00000000
67.516909 49.839100 -22.692958 7.00000000
66.266032 51.492431 -23.768466 7.00000000
64.576052 53.641294 -47.639896 7.00000000
67.449818 49.927777 -32.681065 7.00000000
61.281405 57.379398 -27.419512 7.00000000
65.795647 52.114158 -37.343955 7.00000000
61.151091 57.517264 -0.634747 7.00000000
63.985977 54.338345 -35.331038 7.00000000
68.623035 48.220088 -41.825819 7.00000000
68.215042 48.825609 -59.430896 7.00000000
62.707952 55.848141 -50.778771 7.00000000
59.807554 58.938655 -44.206577 7.00000000
66.113066 51.719675 1.450354 7.00000000
65.727476 52.226385 -18.466375 7.00000000
60.764114 57.926665 -43.084286 7.00000000
69.686082 46.642374 -9.574348 7.00000000
66.105515 51.704594 -33.743492 7.00000000
68.065083 49.048188 -22.510383 7.00000000
66.102010 51.736956 3.085209 7.00000000
67.148682 50.325800 -17.036361 7.00000000
62.117651 56.494693 -0.345382 7.00000000
62.988070 55.533253 -3.858288 7.00000000
63.911230 54.426642 -17.900411 7.00000000
64.946620 53.203546 -17.457691 7.00000000
67.971773 49.186674 -20.579972 7.00000000
63.021427 55.484657 -19.757300 7.00000000
63.357484 55.080777 -30.332047 7.00000000
69.936525 46.270680 3.499357 7.00000000
60.746022 57.945805 -59.117612 7.00000000
68.193908 48.856995 -15.956120 7.00000000
68.654731 48.173061 -15.726368 7.00000000
68.553008 48.324019 -54.669975 7.00000000
68.771802 47.999313 -6.868064 7.00000000
67.148705 50.325769 -40.393256 7.00000000
64.823850 53.348573 -1.592127 7.00000000
67.165689 50.303321 -31.533177 7.00000000
64.391292 53.859549 -28.588894 7.00000000
62.849108 55.686511 -32.852161 7.00000000
60.359407 58.354823 -11.638542 7.00000000
69.420465 47.036587 -15.762536 7.00000000
66.392305 51.325533 -32.643858 7.00000000
65.333094 52.725518 -14.503447 7.00000000
64.301525 53.965591 -12.340248 7.00000000
67.698942 49.591579 -36.475202 7.00000000
61.033773 57.641380 -21.528555 7.00000000
68.695924 48.111918 -23.059950 7.00000000
69.430248 47.022069 -61.097129 7.00000000
67.527574 49.825003 -2.946369 7.00000000
61.817021 56.812744 -39.967617 7.00000000
66.620840 51.023466 -9.916833 7.00000000
63.494669 54.918722 -39.800569 7.00000000
64.280980 53.989860 -49.894306 7.00000000
65.430092 52.597328 -57.522536 7.00000000
60.327112 58.388990 -49.786550 7.00000000
68.676678 48.140479 -26.288989 7.00000000
60.530699 58.173606 2.223469 7.00000000
69.314266 47.194202 -38.512851 7.00000000
65.135070 52.980931 -33.150272 7.00000000
68.857288 47.872424 -38.960240 7.00000000
68.595403 48.261100 -33.361269 7.00000000
68.837969 47.901102 -19.951737 7.00000000
63.639795 54.747285 0.694051 7.00000000
65.424426 52.604792 -3.113975 7.00000000
69.172982 47.403906 3.665503 7.00000000
63.184157 55.285527 -59.374770 7.00000000
63.091619 55.409222 -1.282215 7.00000000
61.064644 57.608720 0.306475 7.00000000
61.661601 56.977170 -45.245398 7.00000000
65.422897 52.606813 -7.792835 7.00000000
67.142009 50.334620 -57.569947 7.00000000
64.328225 53.934050 2.004192 7.00000000
60.664709 58.031830 -10.218999 7.00000000
64.222713 54.058690 -3.908053 7.00000000
65.999422 51.844819 -30.291177 7.00000000
67.825630 49.403553 -57.028559 7.00000000
66.378931 51.343211 -41.885072 7.00000000
60.613504 58.086002 -23.260694 7.00000000
64.846770 53.321498 -53.912803 7.00000000
64.218393 54.063793 -27.307952 7.00000000
64.140746 54.155517 -29.629010 7.00000000
61.592830 57.049926 -35.196387 7.00000000
61.134147 57.535189 -19.579062 7.00000000
69.926032 46.286254 -46.265139 7.00000000
59.772253 58.976001 -35.493303 7.00000000
67.249826 50.192114 -12.698980 7.00000000
68.127089 48.956171 1.915639 7.00000000
68.689349 48.121679 -18.330593 7.00000000
64.938368 53.213294 -3.677976 7.00000000
59.735440 59.014947 1.980569 7.00000000
59.890333 58.851079 -18.580387 7.00000000
64.097054 54.207130 -48.120128 7.00000000
67.306619 50.117049 -28.558611 7.00000000
62.586500 55.991538 -42.047705 7.00000000
66.299170 51.448633 -49.630493 7.00000000
69.141891 47.450035 -15.120805 7.00000000
62.162949 56.446771 0.807705 7.00000000
63.102520 55.381964 -45.298147 7.00000000
68.101153 48.994662 -4.215302 7.00000000
64.736015 53.452331 -22.219400 7.00000000
63.773914 54.588853 -23.857500 7.00000000
63.853763 54.494527 -31.750590 7.00000000
68.142661 48.933032 -55.340366 7.00000000
63.180442 55.289916 -46.819667 7.00000000
60.917352 57.764547 -2.873571 7.00000000
64.180564 54.108481 -59.388789 7.00000000
61.073132 57.599739 -59.824765 7.00000000
61.816757 56.813024 -11.766633 7.00000000
59.968528 58.768352 -52.509156 7.00000000
61.786760 56.844759 -1.154805 7.00000000
68.577978 48.286978 -9.896137 7.00000000
69.281424 47.242944 -49.633295 7.00000000
69.942866 46.261269 -37.415182 7.00000000
60.734835 57.957640 -14.354234 7.00000000
69.805380 46.465319 -26.687989 7.00000000
61.140882 57.528064 -13.673897 7.00000000
68.577921 48.287070 2.324320 7.00000000
61.306323 57.353036 -48.635808 7.00000000
66.335027 51.401237 -21.839047 7.00000000
68.435702 48.498117 -45.618518 7.00000000
62.273581 56.329728 -9.117704 7.00000000
67.499431 49.862201 -39.258817 7.00000000
68.602907 48.249985 0.777287 7.00000000
62.502489 56.087555 -49.569730 7.00000000
68.613391 48.234401 -40.416291 7.00000000
61.194650 57.471180 -14.995917 7.00000000
64.614157 53.596281 -10.427911 7.00000000
66.685623 50.937838 1.321821 7.00000000
60.541841 58.161817 -22.188268 7.00000000
61.942538 56.679954 -48.156334 7.00000000
60.840626 57.845719 -20.392073 7.00000000
68.140377 48.936429 -39.565266 7.00000000
69.493745 46.927830 -14.487971 7.00000000
69.334200 47.164618 -57.308642 7.00000000
60.554897 58.148005 -18.109543 7.00000000
64.946122 53.204133 -56.003896 7.00000000
60.777426 57.912581 -56.645965 7.00000000
63.561322 54.839985 -53.277954 7.00000000
67.351616 50.057573 -1.857922 7.00000000
69.885035 46.347099 0.890734 7.00000000
69.750859 46.546236 -30.203679 7.00000000
69.593551 46.779703 -36.395749 7.00000000
62.350501 56.248351 -5.755461 7.00000000
64.966945 53.179536 3.378947 7.00000000
64.460210 53.778137 -21.319240 7.00000000
67.502616 49.857991 -53.391082 7.00000000
64.447293 53.793396 -4.835596 7.00000000
68.521974 48.370078 -57.945722 7.00000000
62.081299 56.533152 -30.571720 7.00000000
60.207786 58.515230 -38.110023 7.00000000
59.902622 58.838077 -20.668480 7.00000000
61.453902 57.196905 -53.848371 7.00000000
69.411267 47.050238 -32.941050 7.00000000
68.342699 48.636147 -49.327536 7.00000000
59.936614 58.802116 -26.072543 7.00000000
67.899340 49.294170 -31.914455 7.00000000
66.207826 51.569367 -36.198617 7.00000000
65.952833 51.906401 -51.022646 7.00000000
63.246128 55.212321 -52.622541 7.00000000
59.941490 58.796957 -41.819014 7.00000000
66.952885 50.584592 -46.267309 7.00000000
67.315816 50.104892 -46.877780 7.00000000
69.796676 46.478237 -17.480104 7.00000000
68.912257 47.790856 -7.767888 7.00000000
59.904779 58.835795 -25.127243 7.00000000
66.671181 50.956932 -43.881413 7.00000000
61.708588 56.927461 -12.905589 7.00000000
64.638198 53.567882 -58.858195 7.00000000
65.859833 52.059827 -5.720047 7.00000000
60.890489 57.792966 -8.285328 7.00000000
64.468380 53.768487 -6.599588 7.00000000
69.842515 46.410204 -13.228624 7.00000000
63.821731 54.532366 -27.969671 7.00000000
69.005751 47.652083 -44.191744 7.00000000
65.899817 51.976475 -47.217372 7.00000000
62.012882 56.605534 3.314129 7.00000000
63.144620 55.332232 -48.568089 7.00000000
65.821777 52.109268 -0.039056 7.00000000
66.513838 51.164898 -24.580181 7.00000000
63.849742 54.499277 -38.639475 7.00000000
68.043176 49.080691 -38.019353 7.00000000
68.616101 48.230392 -16.738532 7.00000000
62.243013 56.362067 -46.063765 7.00000000
68.121788 48.964038 -2.903184 7.00000000
61.268095 57.393479 -1.836741 7.00000000
68.716495 48.081380 -60.976308 7.00000000
65.194541 52.908664 -45.740352 7.00000000
62.250343 56.354313 -12.453182 7.00000000
59.856776 58.886581 -27.173291 7.00000000
63.112554 55.370111 -61.110484 7.00000000
68.572650 48.294867 -38.034532 7.00000000
66.180562 51.605398 -19.970323 7.00000000
69.258353 47.277185 -47.674913 7.00000000
65.267049 52.817049 -53.158131 7.00000000
69.575130 46.807043 -47.075583 7.00000000
67.056673 50.447412 -10.604669 7.00000000
65.096447 53.026556 -38.417369 7.00000000
65.010653 53.127904 -49.364062 7.00000000
61.102327 57.568853 -7.516084 7.00000000
63.334940 55.107409 -27.023268 7.00000000
66.316586 51.434087 -2.573784 7.00000000
60.565539 58.136746 -19.206633 7.00000000
60.979709 57.698577 -26.742179 7.00000000
60.872178 57.812339 -55.384498 7.00000000
68.077806 49.029311 -9.776278 7.00000000
60.270332 58.449060 -1.098698 7.00000000
65.670349 52.291302 -29.555843 7.00000000
69.368345 47.113942 -31.976102 7.00000000
66.166560 51.623906 -20.932459 7.00000000
66.695279 50.925081 -20.699235 7.00000000
67.643597 49.671651 -0.266384 7.00000000
62.845759 55.685274 -55.275425 7.00000000
64.701137 53.493532 -5.622301 7.00000000
61.553317 57.091729 -28.639907 7.00000000
63.747874 54.619613 -19.578179 7.00000000
69.424777 47.030188 -37.621862 7.00000000
63.811380 54.544593 1.633007 7.00000000
67.787627 49.459962 -23.605294 7.00000000
64.457781 53.781007 -42.439431 7.00000000
65.352741 52.699548 -13.619144 7.00000000
60.527738 58.176738 -15.730887 7.00000000
60.319505 58.397037 -51.821120 7.00000000
63.419927 55.007014 -22.929297 7.00000000
63.822890 54.530997 -21.120831 7.00000000
69.353751 47.135600 -55.084580 7.00000000
65.594000 52.390593 -34.333884 7.00000000
68.706000 48.096982 3.824134 7.00000000
64.605026 53.607068 -40.423719 7.00000000
60.010333 58.724125 -21.459907 7.00000000
69.883294 46.349683 -55.313128 7.00000000
62.915026 55.603450 -58.642026 7.00000000
64.322097 53.941289 0.812858 7.00000000
66.345010 51.388045 -52.135959 7.00000000
69.694193 46.630335 -50.098704 7.00000000
69.084828 47.534721 -39.777997 7.00000000
68.842817 47.893901 -49.129888 7.00000000
62.968888 55.550553 -15.324511 7.00000000
65.971196 51.882130 -43.250722 7.00000000
63.796039 54.562717 -54.240424 7.00000000
63.069287 55.428374 -16.547636 7.00000000
67.053093 50.452143 -35.700213 7.00000000
63.043360 55.463562 -9.190608 7.00000000
66.500036 51.183140 -25.459708 7.00000000
69.350446 47.140505 -51.261061 7.00000000
61.771755 56.860633 1.924852 7.00000000
64.503477 53.727026 -8.860602 7.00000000
64.702961 53.491378 -37.074357 7.00000000
69.757740 46.536024 -4.024554 7.00000000
60.509231 58.196318 -3.737090 7.00000000
63.822880 54.531010 -33.683328 7.00000000
60.354638 58.359868 -35.144402 7.00000000
69.934389 46.273850 -10.696336 7.00000000
66.682916 50.941421 -30.115333 7.00000000
62.443728 56.149721 -56.971741 7.00000000
66.956639 50.579631 -41.906267 7.00000000
64.423206 53.821850 -31.825313 7.00000000
64.413472 53.833349 -45.330666 7.00000000
68.012988 49.125486 -53.241018 7.00000000
64.971001 53.174744 -11.287846 7.00000000
61.296685 57.363233 -41.665726 7.00000000
69.339984 47.156033 -28.300482 7.00000000
60.886945 57.796716 -28.123135 7.00000000
61.180519 57.486130 -57.484614 7.00000000
63.109251 55.374012 -49.413793 7.00000000
66.555406 51.111116 2.440350 7.00000000
67.942982 49.229389 -48.678751 7.00000000
63.324522 55.127810 -0.217001 7.00000000
61.577177 57.066487 -47.380631 7.00000000
65.517829 52.481327 2.931095 7.00000000
64.371742 53.882644 -26.110655 7.00000000
63.595618 54.799472 -49.930351 7.00000000
67.797298 49.445609 -18.361477 7.00000000
69.089139 47.528324 -52.496604 7.00000000
67.807881 49.429894 -59.916966 7.00000000
61.870343 56.756332 -10.026676 7.00000000
69.859881 46.384431 -47.790961 7.00000000
65.227232 52.865451 -36.399048 7.00000000
65.941279 51.937793 -13.537379 7.00000000
67.381446 50.018147 -38.294369 7.00000000
62.936702 55.590703 -13.031174 7.00000000
65.615736 52.353401 -40.127011 7.00000000
65.181367 52.926078 -51.262136 7.00000000
64.173856 54.116404 -11.367896 7.00000000
62.338093 56.261478 -18.051830 7.00000000
61.391514 57.262908 -3.863412 7.00000000
60.933369 57.747602 -32.030417 7.00000000
62.880186 55.645388 -39.625993 7.00000000
65.245328 52.841532 -9.396150 7.00000000
68.047377 49.074470 -1.504346 7.00000000
67.341902 50.070413 -25.504948 7.00000000
67.427044 49.957878 -16.342158 7.00000000
63.563192 54.837776 -24.702309 7.00000000
64.131547 54.166384 -43.304317 7.00000000
68.359173 48.611698 -52.356116 7.00000000
69.429554 47.023098 -29.449111 7.00000000
64.577137 53.640012 -35.934665 7.00000000
59.849008 58.894798 -28.728078 7.00000000
59.832628 58.912128 -0.445313 7.00000000
60.248143 58.472535 -27.995952 7.00000000
68.311220 48.682867 -57.196571 7.00000000
66.891852 50.665262 -32.501240 7.00000000
63.341450 55.099718 -57.503654 7.00000000
66.658758 50.973351 -17.659224 7.00000000
66.980141 50.548568 -19.306944 7.00000000
61.757212 56.876019 -21.156246 7.00000000
68.990139 47.675265 -8.822925 7.00000000
61.378061 57.277141 -36.302280 7.00000000
69.057032 47.575993 2.819507 7.00000000
63.168736 55.303743 -26.015800 7.00000000
61.827688 56.801459 -26.137005 7.00000000
68.354254 48.619013 -19.878534 7.00000000
65.539481 52.452743 -46.400540 7.00000000
59.793978 58.953017 -53.543079 7.00000000
69.904949 46.317543 -14.878986 7.00000000
60.513535 58.191764 -53.917368 7.00000000
67.056860 50.447160 2.725944 7.00000000
61.983376 56.636750 -54.156465 7.00000000
66.610922 51.036572 0.312397 7.00000000
62.332536 56.267357 -54.866494 7.00000000
64.588811 53.626222 -39.056936 7.00000000
63.475101 54.941838 -55.874019 7.00000000
69.069801 47.557023 -50.494834 7.00000000
65.211773 52.885886 -16.526344 7.00000000
64.541808 53.681746 -33.809617 7.00000000
63.825679 54.527704 -57.181162 7.00000000
62.064832 56.550573 -36.351873 7.00000000
68.270727 48.742977 -26.693203 7.00000000
65.822328 52.078894 -50.197623 7.00000000
60.735568 57.956864 -28.968733 7.00000000
62.812035 55.733353 -29.055989 7.00000000
67.049650 50.456694 -37.015881 7.00000000
59.970309 58.766469 -39.597380 7.00000000
60.787710 57.901701 -38.617076 7.00000000
63.432601 54.992042 -32.871652 7.00000000
68.911512 47.791948 -25.138920 7.00000000
64.914818 53.241113 -59.875646 7.00000000
65.450016 52.570965 0.796490 7.00000000
67.308546 50.114501 -18.657370 7.00000000
61.697727 56.938951 -19.151410 7.00000000
59.785295 58.962204 -3.474590 7.00000000
63.713435 54.660296 -41.376117 7.00000000
60.649948 58.047446 -58.062829 7.00000000
67.784399 49.464753 -46.263155 7.00000000
59.721804 59.029373 -38.588198 7.00000000
61.187910 57.478310 -18.659310 7.00000000
63.572426 54.826869 -43.397150 7.00000000
64.910635 53.246055 -2.677988 7.00000000
59.850119 58.893623 -19.452011 7.00000000
65.932076 51.962701 -3.743503 7.00000000
63.197345 55.278364 -6.825095 7.00000000
63.503051 54.908821 -34.846977 7.00000000
64.343889 53.915546 -44.239129 7.00000000
69.810486 46.457741 -53.080490 7.00000000
59.789615 58.957633 -23.230559 7.00000000
69.309214 47.201701 -18.203028 7.00000000
68.753557 48.026375 -55.444383 7.00000000
60.056844 58.674919 -9.772355 7.00000000
68.305988 48.690642 -29.136343 7.00000000
61.018264 57.657787 -25.800135 7.00000000
69.602754 46.766044 -6.873147 7.00000000
65.686938 52.263992 -33.115699 7.00000000
59.835584 58.909000 -57.104444 7.00000000
69.281816 47.242363 -45.132019 7.00000000
69.893787 46.334109 -6.141941 7.00000000
62.753306 55.801008 -35.727776 7.00000000
66.408803 51.303727 -55.427407 7.00000000
65.752055 52.171776 -38.559098 7.00000000
68.816972 47.932259 -57.116812 7.00000000
62.628216 55.942263 -6.596639 7.00000000
65.025758 53.110060 -57.988187 7.00000000
68.321973 48.666921 -23.592853 7.00000000
69.911903 46.307224 -41.169628 7.00000000
64.229531 54.050636 -20.411590 7.00000000
62.909243 55.614780 -30.776247 7.00000000
67.893085 49.303453 -24.567024 7.00000000
63.353542 55.085435 -55.036068 7.00000000
62.761992 55.794715 -17.267150 7.00000000
66.933980 50.609580 -29.279903 7.00000000
66.857669 50.710443 -38.543019 7.00000000
59.827887 58.917143 -13.285264 7.00000000
60.648844 58.048614 -40.480069 7.00000000
62.562776 56.019561 -14.499967 7.00000000
67.204938 50.251443 -49.630842 7.00000000
69.012767 47.641679 -11.920053 7.00000000
65.075106 53.051767 -21.065687 7.00000000
64.675775 53.523492 -25.154839 7.00000000
60.938098 57.742598 -51.545771 7.00000000
68.581907 48.281144 -14.387976 7.00000000
60.620356 58.078752 -24.131877 7.00000000
69.540135 46.858981 -8.660268 7.00000000
67.699140 49.591284 -30.194945 7.00000000
66.668638 50.960293 -28.515314 7.00000000
63.406327 55.023080 -47.723660 7.00000000
62.587380 55.990499 -38.242043 7.00000000
63.605089 54.788283 -60.250754 7.00000000
69.570029 46.814613 -12.234466 7.00000000
69.176093 47.399275 -12.752757 7.00000000
61.510473 57.137056 -43.413723 7.00000000
67.314453 50.106693 -48.793573 7.00000000
69.853075 46.394533 2.338879 7.00000000
67.513978 49.842974 -45.580636 7.00000000
62.107770 56.505147 -11.025034 7.00000000
61.523986 57.122760 -31.604928 7.00000000
66.471052 51.221446 -7.399465 7.00000000
65.630957 52.346173 -8.689060 7.00000000
67.741841 49.527912 -10.541897 7.00000000
64.276787 53.994813 -52.909117 7.00000000
63.309113 55.147743 2.259067 7.00000000
61.321261 57.337232 -17.745894 7.00000000
61.713033 56.922758 -15.425090 7.00000000
66.366179 51.360062 -19.085915 7.00000000
69.919836 46.295449 -11.634359 7.00000000
61.429239 57.222997 -54.698494 7.00000000
67.181965 50.281809 -20.439266 7.00000000
61.179644 57.487055 -22.471033 7.00000000
68.148091 48.924977 -43.125050 7.00000000
61.298800 57.360995 -9.759207 7.00000000
61.958319 56.663258 -16.545992 7.00000000
62.337542 56.262061 -21.955884 7.00000000
67.379525 50.020685 -42.910405 7.00000000
69.554397 46.837819 -0.647456 7.00000000
68.599665 48.254797 -0.341986 7.00000000
59.992262 58.743244 -43.138168 7.00000000
66.887390 50.671160 -39.509606 7.00000000
68.657003 48.169675 -60.011218 7.00000000
68.192668 48.858846 2.760991 7.00000000
59.897519 58.843476 -36.486147 7.00000000
63.892788 54.448427 -37.676800 7.00000000
64.974493 53.170619 -27.013195 7.00000000
67.597485 49.732599 -55.273257 7.00000000
66.159705 51.643165 -8.339287 7.00000000
64.391293 53.859548 -17.448395 7.00000000
69.846397 46.404443 -24.885095 7.00000000
60.159223 58.566607 -31.449162 7.00000000
69.556185 46.835159 -16.738088 7.00000000
67.875676 49.329283 -47.108868 7.00000000
64.486556 53.747015 -13.167002 7.00000000
61.474860 57.174733 -40.767659 7.00000000
64.399601 53.849735 -22.844189 7.00000000
61.570325 57.073736 -34.168067 7.00000000
66.776290 50.818005 -42.820296 7.00000000
62.477610 56.113876 -23.584058 7.00000000
65.500381 52.517078 -27.498983 7.00000000
61.118905 57.551315 -29.928932 7.00000000
67.767369 49.490027 -42.241522 7.00000000
67.056718 50.447352 -55.290128 7.00000000
65.919168 51.950897 -42.095676 7.00000000
59.777772 58.970162 -12.051394 7.00000000
63.599057 54.795410 -58.818489 7.00000000
60.935036 57.745838 -44.895878 7.00000000
64.683638 53.514204 -41.402716 7.00000000
67.158316 50.313063 3.673602 7.00000000
69.138504 47.455059 -60.202505 7.00000000
65.886106 51.997195 -26.889307 7.00000000
65.038528 53.094976 -31.695916 7.00000000
67.140972 50.335991 -26.678217 7.00000000
61.216576 57.447983 -30.767857 7.00000000
67.071243 50.428154 -21.545059 7.00000000
64.116108 54.184622 -18.909988 7.00000000
63.497641 54.915654 -5.192712 7.00000000
66.381260 51.341204 -5.560577 7.00000000
64.473453 53.762493 2.855082 7.00000000
63.127980 55.351888 -42.885436 7.00000000
64.067305 54.242272 -32.810647 7.00000000
63.459187 54.960637 -36.033415 7.00000000
62.412809 56.182432 -21.137628 7.00000000
67.179987 50.284422 -9.338801 7.00000000
62.126626 56.485199 -50.364359 7.00000000
59.834098 58.910573 -40.700524 7.00000000
64.081605 54.225380 -8.146177 7.00000000
68.877955 47.841750 -34.230595 7.00000000
63.814367 54.541066 -16.600999 7.00000000
64.621098 53.588082 -48.478927 7.00000000
61.214435 57.450249 -24.013263 7.00000000
66.508549 51.171889 -37.069932 7.00000000
65.009571 53.129183 -18.843653 7.00000000
68.959363 47.720930 -29.963204 7.00000000
68.903773 47.803454 1.625309 7.00000000
65.687447 52.257172 -52.063084 7.00000000
69.326842 47.175538 -27.381260 7.00000000
67.740426 49.530012 -35.547195 7.00000000
67.315817 50.104890 -14.884845 7.00000000
69.935417 46.272325 -51.045030 7.00000000
66.406353 51.306961 -10.780082 7.00000000
59.790493 58.956705 -55.779325 7.00000000
69.531712 46.871482 -40.343504 7.00000000
68.025494 49.106946 -6.365720 7.00000000
68.078270 49.028623 -5.118623 7.00000000
68.229775 48.803768 -7.542672 7.00000000
69.053597 47.581088 -1.376019 7.00000000
63.095657 55.394222 -20.858788 7.00000000
68.738262 48.049076 -30.750599 7.00000000
67.065221 50.436113 -61.031240 7.00000000
66.917153 50.631821 -47.508191 7.00000000
61.062648 57.610831 -53.099593 7.00000000
63.999243 54.322672 -1.654971 7.00000000
62.166452 56.443065 -32.696552 7.00000000
68.486476 48.422775 -20.709382 7.00000000
61.285035 57.375558 -10.674038 7.00000000
69.899188 46.326093 -7.908601 7.00000000
65.037633 53.096033 2.244768 7.00000000
69.878776 46.356388 -43.311013 7.00000000
69.629174 46.726833 -60.209442 7.00000000
61.233505 57.430074 -39.527917 7.00000000
61.407455 57.246043 -52.011096 7.00000000
66.482707 51.206046 -47.143321 7.00000000
68.706102 48.096827 -2.076491 7.00000000
69.924165 46.289025 -21.211396 7.00000000
67.681880 49.616900 -52.349132 7.00000000
67.030203 50.482398 -33.929040 7.00000000
69.785084 46.495440 -44.202222 7.00000000
64.784847 53.394646 -60.983216 7.00000000
60.441916 58.267533 -13.444213 7.00000000
63.143951 55.334288 -23.701483 7.00000000
67.382196 50.017155 -13.686381 7.00000000
66.132692 51.668672 -29.001534 7.00000000
60.215734 58.506822 -32.928225 7.00000000
64.669838 53.530506 -37.877993 7.00000000
66.465307 51.229043 -51.252577 7.00000000
62.294481 56.307617 -53.244235 7.00000000
62.827606 55.718121 0.542236 7.00000000
59.833799 58.910888 -15.847914 7.00000000
68.324310 48.663454 -21.524333 7.00000000
67.493269 49.870345 -59.118182 7.00000000
68.191350 48.860802 0.077322 7.00000000
60.639963 58.058009 -42.272446 7.00000000
65.804281 52.102747 -54.734534 7.00000000
61.536135 57.109907 -55.597860 7.00000000
68.954516 47.728123 -42.433432 7.00000000
67.185601 50.277002 -5.685273 7.00000000
62.199392 56.408216 -33.670903 7.00000000
61.335777 57.321875 -16.537802 7.00000000
61.685834 56.951534 -20.008839 7.00000000
68.474878 48.439983 -28.310157 7.00000000
68.717487 48.079909 -47.949119 7.00000000
65.844934 52.049015 -58.201694 7.00000000
60.601683 58.098508 -6.971575 7.00000000
60.581849 58.119491 -45.986978 7.00000000
60.991843 57.685739 -49.548326 7.00000000
66.259580 51.500961 -46.217931 7.00000000
61.752127 56.881398 -22.246487 7.00000000
67.231995 50.215681 -44.704651 7.00000000
61.646291 56.993368 0.196101 7.00000000
67.102306 50.387096 -56.582392 7.00000000
69.540988 46.857714 -42.344228 7.00000000
68.676976 48.140033 -36.039881 7.00000000
67.315042 50.105915 -6.541843 7.00000000
69.689325 46.637562 -2.382223 7.00000000
67.767636 49.489631 -12.342520 7.00000000
60.031413 58.701823 2.694655 7.00000000
68.333140 48.650343 -31.246231 7.00000000
63.442022 54.984437 -2.390476 7.00000000
62.508778 56.080902 -40.263781 7.00000000
69.091365 47.525033 -4.095562 7.00000000
66.725532 50.885094 -60.429423 7.00000000
60.202312 58.521021 -8.277231 7.00000000
66.791671 50.797672 -6.569111 7.00000000
61.770747 56.861699 -6.830194 7.00000000
68.531330 48.356193 -50.424190 7.00000000
63.664997 54.717515 -25.709483 7.00000000
68.650863 48.178787 -43.215152 7.00000000
61.970544 56.650325 -3.407461 7.00000000
63.808635 54.547836 -0.683123 7.00000000
67.940030 49.233783 -28.312751 7.00000000
67.078252 50.418889 -27.596971 7.00000000
69.024926 47.623640 -3.273230 7.00000000
67.806733 49.431607 -7.999170 7.00000000
66.793340 50.795468 -14.795029 7.00000000
62.994548 55.514691 -24.611362 7.00000000
62.460576 56.131897 -27.339986 7.00000000
68.223690 48.812774 -44.134524 7.00000000
60.622398 58.076593 -39.480250 7.00000000
69.250206 47.289290 0.859377 7.00000000
62.665046 55.898759 -0.713015 7.00000000
69.942154 46.262326 -23.604216 7.00000000
66.491680 51.194186 -56.384884 7.00000000
66.647326 50.988462 -41.083846 7.00000000
63.268749 55.185599 -38.044724 7.00000000
65.790326 52.121193 -53.895424 7.00000000
64.063633 54.246610 -56.457268 7.00000000
64.839988 53.329509 1.450682 7.00000000
67.594221 49.736913 2.363515 7.00000000
63.468655 54.949452 -45.973368 7.00000000
64.279831 53.991218 -53.796084 7.00000000
65.959529 51.920610 -7.145864 7.00000000
62.565476 56.016372 -30.060923 7.00000000
67.593312 49.738115 -26.295414 7.00000000
59.747322 59.002376 -14.185726 7.00000000
64.103096 54.199993 -22.148225 7.00000000
66.786105 50.805032 -52.729775 7.00000000
69.888553 46.341877 -15.962546 7.00000000
62.290827 56.311483 2.503672 7.00000000
64.893050 53.266828 -0.337931 7.00000000
67.514892 49.841766 -19.865165 7.00000000
62.194123 56.413791 -22.756064 7.00000000
65.061528 53.067806 -25.866940 7.00000000
67.209625 50.245249 -43.743986 7.00000000
67.071471 50.427850 -0.029047 7.00000000
65.009339 53.129457 -47.120235 7.00000000
67.765561 49.492710 -43.785432 7.00000000
63.792320 54.567109 3.543734 7.00000000
65.416988 52.616402 -25.108593 7.00000000
69.837013 46.418371 -38.727620 7.00000000
67.169740 50.297966 -30.378510 7.00000000
68.586760 48.273925 -37.110630 7.00000000
64.106462 54.196016 -58.571003 7.00000000
65.211037 52.886859 -19.746846 7.00000000
60.985076 57.692898 -32.949640 7.00000000
65.389673 52.650729 -0.773398 7.00000000
63.562681 54.838380 -51.200960 7.00000000
65.698589 52.262136 -21.730042 7.00000000
66.328783 51.409492 -54.553451 7.00000000
59.714634 59.036959 -2.337421 7.00000000
59.797117 58.949696 -7.533244 7.00000000
69.930464 46.279676 -39.882972 7.00000000
60.709923 57.983995 -17.224494 7.00000000
66.290356 51.471308 -1.723829 7.00000000
64.789386 53.389285 -56.861646 7.00000000
62.001679 56.617386 -2.566321 7.00000000
69.174194 47.402101 -2.301335 7.00000000
63.469010 54.949032 -15.711529 7.00000000
62.297829 56.304074 -60.470613 7.00000000
61.186842 57.479441 -44.086907 7.00000000
65.944419 51.917522 -48.931232 7.00000000
62.797415 55.746686 -37.510386 7.00000000
65.935613 51.931891 -24.528610 7.00000000
60.525932 58.178649 -37.266840 7.00000000
65.868700 52.017601 -32.219302 7.00000000
67.829623 49.397635 -40.344601 7.00000000
69.902720 46.320851 -19.961457 7.00000000
66.246966 51.517629 -16.252459 7.00000000
62.825049 55.721008 -22.454867 7.00000000
67.687567 49.608460 -21.694449 7.00000000
64.759255 53.424878 -30.210976 7.00000000
61.896377 56.728790 -27.897154 7.00000000
66.215398 51.559358 -44.346674 7.00000000
61.487344 57.161525 -59.229851 7.00000000
66.753673 50.847898 -49.181628 7.00000000
66.329727 51.408246 -31.754724 7.00000000
61.288249 57.372157 -5.345462 7.00000000
65.681477 52.288767 -19.292592 7.00000000
67.279063 50.153470 -17.821193 7.00000000
62.210121 56.396865 -44.803425 7.00000000
61.936289 56.686565 -52.408411 7.00000000
65.667381 52.299767 -26.051626 7.00000000
66.639970 50.998185 -58.146812 7.00000000
65.626543 52.353150 -11.085286 7.00000000
68.351092 48.623696 -35.401790 7.00000000
66.216318 51.567522 -6.413947 7.00000000
64.052456 54.259814 -61.007706 7.00000000
68.923353 47.774374 -28.955857 7.00000000
66.312428 51.431106 -14.123915 7.00000000
61.138935 57.530124 -46.362950 7.00000000
63.184095 55.285600 -41.793089 7.00000000
68.033429 49.095148 -60.810552 7.00000000
68.572539 48.295051 -8.357454 7.00000000
65.036602 53.097251 -8.492561 7.00000000
59.814126 58.931702 -8.825258 7.00000000
64.742138 53.445098 -14.376638 7.00000000
63.882219 54.460912 -10.266253 7.00000000
67.876218 49.328485 -17.428145 7.00000000
61.403215 57.250529 2.904952 7.00000000
63.570378 54.829287 -3.477748 7.00000000
67.456421 49.919049 -41.426055 7.00000000
62.370857 56.226815 -15.781648 7.00000000
64.170217 54.120703 -39.783248 7.00000000
66.000139 51.843875 -39.451681 7.00000000
65.807927 52.097929 -40.927229 7.00000000
63.353912 55.084997 -17.445072 7.00000000
59.963155 58.774037 -46.884776 7.00000000
62.688065 55.871569 -2.783914 7.00000000
68.258347 48.761361 -10.685387 7.00000000
66.310442 51.433735 -38.835539 7.00000000
69.820483 46.442904 -48.834103 7.00000000
69.910414 46.309433 -27.900801 7.00000000
62.429531 56.164741 -25.662165 7.00000000
68.592241 48.265801 -22.183525 7.00000000
62.977923 55.541763 -11.165528 7.00000000
66.929842 50.615049 -53.736241 7.00000000
68.545443 48.335246 -46.923646 7.00000000
63.987108 54.337009 -47.100711 7.00000000
62.188401 56.419844 -39.122173 7.00000000
68.143789 48.931374 -25.692342 7.00000000
61.497967 57.150287 -60.477034 7.00000000
65.416311 52.618383 -48.091193 7.00000000
64.328774 53.933401 -57.678337 7.00000000
68.625681 48.216183 -3.960455 7.00000000
66.622761 51.020925 -0.690918 7.00000000
66.175602 51.616506 -12.141231 7.00000000
61.024832 57.650838 -12.522636 7.00000000
62.949616 55.562588 -60.145277 7.00000000
64.497057 53.734610 -16.487148 7.00000000
59.814125 58.931702 -33.642959 7.00000000
69.702825 46.617525 -57.890196 7.00000000
65.379210 52.671903 -39.427831 7.00000000
65.462073 52.559274 -44.904369 7.00000000
59.846617 58.897328 -46.005153 7.00000000
62.142519 56.468384 -43.806872 7.00000000
64.718699 53.472787 -27.906634 7.00000000
64.879120 53.283283 -50.374605 7.00000000
60.401486 58.310306 -25.490461 7.00000000
69.340566 47.155169 -30.830017 7.00000000
63.142413 55.334839 -33.818190 7.00000000
67.506012 49.853502 -4.988240 7.00000000
63.988546 54.335310 -30.431143 7.00000000
61.552154 57.092959 -38.839432 7.00000000
65.539775 52.467007 -24.008556 7.00000000
68.363822 48.604810 -24.856902 7.00000000
64.136160 54.160934 -9.519884 7.00000000
67.756395 49.506313 -49.718328 7.00000000
59.741799 59.008220 3.823273 7.00000000
63.321119 55.123735 -37.018738 7.00000000
69.054231 47.580132 -56.161356 7.00000000
60.444756 58.264528 -44.412527 7.00000000
65.520564 52.493385 -28.584220 7.00000000
68.059677 49.056197 -45.055544 7.00000000
68.025150 49.107437 -51.661395 7.00000000
62.765978 55.779614 -47.444174 7.00000000
60.952671 57.727181 -11.445563 7.00000000
63.345889 55.094474 -31.292877 7.00000000
66.686368 50.936859 -31.037193 7.00000000
66.630550 51.010635 -45.025408 7.00000000
67.344086 50.067527 -7.486665 7.00000000
66.140014 51.679824 -0.714388 7.00000000
69.053651 47.580992 -54.205466 7.00000000
67.369199 50.034333 -8.450493 7.00000000
61.085564 57.586587 -50.638952 7.00000000
59.963662 58.773501 -6.438556 7.00000000
63.718054 54.654839 -14.165270 7.00000000
63.621804 54.768538 -8.772348 7.00000000
65.284930 52.789184 -41.131829 7.00000000
68.853211 47.878474 -32.272465 7.00000000
68.071995 49.037917 -41.058842 7.00000000
63.654110 54.730376 -44.464288 7.00000000
64.304502 53.962074 3.812865 7.00000000
67.730799 49.544296 -57.873150 7.00000000
62.076485 56.538245 -56.096074 7.00000000
64.060511 54.250299 -36.534548 7.00000000
69.176080 47.399291 -26.608510 7.00000000
60.497379 58.208856 -9.151413 7.00000000
62.811571 55.730015 -36.608581 7.00000000
69.948373 46.253096 -22.573628 7.00000000
63.750960 54.615967 -4.312017 7.00000000
64.250134 54.026298 -34.604007 7.00000000
62.072019 56.542969 -41.034621 7.00000000
62.736423 55.814988 1.594343 7.00000000
69.849879 46.399276 -4.901292 7.00000000
62.760251 55.788099 -44.441932 7.00000000
60.472033 58.235671 -36.349943 7.00000000
59.870343 58.872227 -5.046440 7.00000000
64.890423 53.269930 -15.700064 7.00000000
69.043213 47.596484 -24.312719 7.00000000
66.580466 51.076834 -50.397583 7.00000000
62.985848 55.519991 -34.742281 7.00000000
61.577347 57.066306 -56.598529 7.00000000
61.942438 56.680060 -41.839363 7.00000000
65.734309 52.212555 3.773529 7.00000000
64.745969 53.440573 -34.969657 7.00000000
69.408106 47.054941 1.963715 7.00000000
63.173514 55.306587 -8.038796 7.00000000
61.067824 57.605356 -37.013546 7.00000000
63.047343 55.448972 -28.104286 7.00000000
68.623712 48.219100 -11.340660 7.00000000
66.925174 50.621219 -59.088376 7.00000000
69.234853 47.312071 -6.239219 7.00000000
63.551024 54.852151 -21.956680 7.00000000
65.604313 52.371266 1.808382 7.00000000
63.012300 55.498714 -13.934384 7.00000000
60.560448 58.142133 -41.388990 7.00000000
66.110997 51.697349 -59.828973 7.00000000
64.420350 53.825224 -24.175182 7.00000000
61.536539 57.109480 -23.257049 7.00000000
67.207898 50.247532 -51.187857 7.00000000
67.227435 50.221708 -59.943589 7.00000000
65.811850 52.114623 -14.817643 7.00000000
69.018152 47.633679 -21.649709 7.00000000
66.189656 51.593382 -60.789657 7.00000000
69.373550 47.106222 -4.800532 7.00000000
61.835478 56.793218 -57.499434 7.00000000
69.820558 46.442792 -54.059372 7.00000000
61.906244 56.718351 -4.966097 7.00000000
59.891787 58.849540 -47.976569 7.00000000
65.988644 51.859067 -45.422069 7.00000000
69.441587 47.005239 -11.291384 7.00000000
61.893589 56.731740 -61.056413 7.00000000
65.443223 52.579944 -4.054265 7.00000000
60.149721 58.576660 -29.526762 7.00000000
68.032396 49.096683 -58.520390 7.00000000
64.085349 54.220957 -48.992744 7.00000000
63.037193 55.466335 -18.277652 7.00000000
69.117415 47.486366 -9.615957 7.00000000
68.510258 48.387466 -53.565027 7.00000000
62.606052 55.968437 -59.350395 7.00000000
64.451164 53.788823 -60.353011 7.00000000
66.208828 51.568038 -18.023418 7.00000000
67.705141 49.582378 -29.165888 7.00000000
69.582124 46.796662 -56.462005 7.00000000
68.660673 48.164229 -44.729834 7.00000000
64.049810 54.262939 -46.013832 7.00000000
63.071168 55.419000 -40.587636 7.00000000
67.412671 49.976876 -11.670517 7.00000000
69.452314 46.989319 -20.929505 7.00000000
65.628193 52.347395 -31.176727 7.00000000
63.741777 54.626815 -7.294235 7.00000000
63.454160 54.966575 -28.747592 7.00000000
69.766862 46.522485 -1.380094 7.00000000
60.002668 58.732234 0.589096 7.00000000
69.404376 47.060466 -22.905543 7.00000000
65.623092 52.358445 -12.722567 7.00000000
61.175240 57.491715 2.099701 7.00000000
68.552717 48.324474 -1.245188 7.00000000
65.825588 52.101847 -9.878022 7.00000000
62.926198 55.604830 -10.299615 7.00000000
66.130494 51.687792 -4.846519 7.00000000
64.957242 53.190997 -28.995234 7.00000000
67.780056 49.471199 -14.707066 7.00000000
61.791693 56.839540 -29.821247 7.00000000
61.731267 56.903467 -14.260164 7.00000000
64.453030 53.786619 -55.553292 7.00000000
66.296210 51.452546 -40.460424 7.00000000
62.063313 56.552180 -42.804415 7.00000000
67.991582 49.157269 -32.951179 7.00000000
60.442351 58.267073 -52.973429 7.00000000
63.753219 54.613300 -26.513832 7.00000000
66.732289 50.876163 -22.568812 7.00000000
66.691810 50.929662 -9.034559 7.00000000
66.976132 50.553866 -15.734978 7.00000000
62.394844 56.201438 -19.011444 7.00000000
69.713761 46.601294 -59.169214 7.00000000
60.084912 58.645225 -14.974224 7.00000000
65.508643 52.493504 -56.028484 7.00000000
63.974119 54.352352 -15.191522 7.00000000
60.887171 57.796476 3.539732 7.00000000
66.600181 51.050770 -3.315222 7.00000000
68.148503 48.924381 -18.968706 7.00000000
61.415342 57.237699 -8.963711 7.00000000
66.127741 51.675215 -22.866820 7.00000000
62.350910 56.247918 -58.120704 7.00000000
65.623704 52.363150 -20.704849 7.00000000
59.908318 58.832051 -17.245263 7.00000000
62.991539 55.513065 -56.606157 7.00000000
61.832822 56.796028 -8.095406 7.00000000
61.974884 56.645733 -59.606865 7.00000000
67.100703 50.389212 1.920058 7.00000000
69.589968 46.785022 -21.846732 7.00000000
67.631973 49.687015 -48.098115 7.00000000
67.683599 49.614349 -15.579778 7.00000000
62.215148 56.391547 -51.325687 7.00000000
61.837677 56.790891 -26.968176 7.00000000
69.482101 46.945112 -33.789541 7.00000000
63.839137 54.511804 -6.419571 7.00000000
63.651427 54.733545 -12.900319 7.00000000
61.578649 57.064929 -49.516729 7.00000000
60.351431 58.363261 -47.509768 7.00000000
67.782695 49.467275 -56.041732 7.00000000
63.480955 54.934921 -12.070352 7.00000000
65.216009 52.880286 -6.055453 7.00000000
63.786445 54.574049 -52.207273 7.00000000
68.220676 48.817269 -12.782971 7.00000000
59.714354 59.037255 -50.338677 7.00000000
63.200740 55.265938 -43.984823 7.00000000
66.157224 51.636247 -28.004612 7.00000000
59.828096 58.916922 -60.243417 7.00000000
68.966497 47.710347 -17.498658 7.00000000
65.317333 52.746351 -35.382882 7.00000000
69.848110 46.401901 -35.089046 7.00000000
65.428847 52.598947 -17.752419 7.00000000
60.727300 57.965612 -48.825276 7.00000000
61.058724 57.614983 -6.265812 7.00000000
68.933117 47.759887 -19.019276 7.00000000
68.019507 49.115811 -54.186636 7.00000000
63.475261 54.941648 -18.840963 7.00000000
67.752031 49.512790 -9.056510 7.00000000
69.299755 47.215739 -53.354514 7.00000000
65.803577 52.123596 -16.766704 7.00000000
60.516373 58.188762 -50.782165 7.00000000
69.675712 46.657764 -52.113196 7.00000000
62.447805 56.145408 -1.596482 7.00000000
66.748369 50.854906 -8.235428 7.00000000
67.020185 50.495636 -1.166759 7.00000000
60.633439 58.064911 -33.664351 7.00000000
68.838338 47.900548 -59.007117 7.00000000
62.867712 55.659340 -53.578597 7.00000000
62.328403 56.271729 -24.595521 7.00000000
69.480838 46.946985 -19.292979 7.00000000
69.025689 47.622498 -13.935103 7.00000000
65.532878 52.462884 -43.927926 7.00000000
68.979252 47.691411 -46.510937 7.00000000
61.001637 57.675378 -61.011984 7.00000000
67.910723 49.277276 -11.328355 7.00000000
66.394196 51.323030 -13.245841 7.00000000
65.201352 52.899662 -54.605964 7.00000000
65.991494 51.855302 -53.101019 7.00000000
63.283693 55.169788 -14.643158 7.00000000
66.513182 51.171101 3.865303 7.00000000
59.723726 59.027341 -49.084109 7.00000000
61.348493 57.308422 1.281062 7.00000000
59.725374 59.025597 -32.021201 7.00000000
65.339288 52.717330 -2.005144 7.00000000
59.854071 58.889442 -30.358491 7.00000000
67.304865 50.119366 -24.120374 7.00000000
59.809049 58.937073 -54.849275 7.00000000
65.414205 52.627626 -43.011087 7.00000000
65.924095 51.944385 -55.564011 7.00000000
60.162748 58.562878 -58.931756 7.00000000
67.120064 50.363622 0.876080 7.00000000
60.599722 58.100583 0.911462 7.00000000
63.027735 55.470680 -32.033653 7.00000000
59.743047 59.006900 -51.548813 7.00000000
60.301817 58.415750 -61.046688 7.00000000
62.495909 56.094516 -8.116631 7.00000000
60.852203 57.833471 -35.747364 7.00000000
64.607002 53.604734 -46.402061 7.00000000
64.816417 53.357354 -43.490459 7.00000000
61.549903 57.095341 -25.307286 7.00000000
60.972966 57.705710 -34.720557 7.00000000
65.331588 52.731316 -42.010530 7.00000000
67.385437 50.012871 -54.355575 7.00000000
64.077610 54.230099 -40.607392 7.00000000
65.313971 52.750811 -60.873999 7.00000000
63.199283 55.281203 3.217134 7.00000000
69.558622 46.831543 -25.677187 7.00000000
65.919264 51.950770 -56.683366 7.00000000
62.921716 55.612831 -5.316629 7.00000000
64.825471 53.346658 -44.520844 7.00000000
69.020661 47.629955 -58.130025 7.00000000
62.463275 56.129041 -34.427725 7.00000000
60.950721 57.729244 -47.376259 7.00000000
66.766436 50.831028 -12.146549 7.00000000
69.898609 46.326954 -32.314360 7.00000000
60.381250 58.331715 -2.481818 7.00000000
69.282943 47.240690 -35.217415 7.00000000
65.011806 53.126542 -23.331861 7.00000000
64.492918 53.739500 -54.760332 7.00000000
68.391328 48.563994 -13.531026 7.00000000
67.703606 49.584657 3.243514 7.00000000
60.888153 57.795438 -4.701006 7.00000000
65.301790 52.766898 -22.425357 7.00000000
69.762043 46.529637 -28.778953 7.00000000
65.174793 52.934007 -52.241406 7.00000000
62.527992 56.060574 -4.426502 7.00000000
63.863316 54.483243 -42.573565 7.00000000
60.710585 57.983296 -31.236025 7.00000000
67.548375 49.797509 -34.254910 7.00000000
68.916583 47.784422 -27.912240 7.00000000
60.867049 57.817765 -24.964716 7.00000000
69.116801 47.487269 -41.006327 7.00000000
59.711411 59.040369 -1.426844 7.00000000
61.407776 57.245704 -42.573810 7.00000000
59.881057 58.860892 -57.972966 7.00000000
65.131964 52.984601 -6.932082 7.00000000
64.344841 53.914422 -2.407572 7.00000000
65.088162 53.036344 -34.244122 7.00000000
62.898168 55.623363 -46.023184 7.00000000
62.607334 55.966929 3.685646 7.00000000
68.995083 47.667926 -10.601307 7.00000000
64.583783 53.632162 -51.860874 7.00000000
64.438301 53.804018 -0.849026 7.00000000
69.830396 46.428192 -45.186571 7.00000000
64.175953 54.113927 -5.765788 7.00000000
66.174652 51.613213 -35.298676 7.00000000
66.576908 51.081536 -48.233251 7.00000000
66.492080 51.193656 -27.335154 7.00000000
65.466639 52.548992 -5.160723 7.00000000
63.878827 54.464920 -55.044803 7.00000000
65.653919 52.301487 -60.206009 7.00000000
62.607582 55.968891 -52.254250 7.00000000
60.579912 58.121541 -0.288874 7.00000000
68.221612 48.815866 -34.138342 7.00000000
61.818237 56.811458 -37.546100 7.00000000
66.347590 51.384635 -37.863099 7.00000000
65.355768 52.695566 -58.766963 7.00000000
68.395752 48.557425 -17.636906 7.00000000
64.399257 53.850140 -19.569039 7.00000000
68.940190 47.749400 -5.298945 7.00000000
67.935429 49.240611 -27.439248 7.00000000
69.792986 46.483713 0.067251 7.00000000
62.906072 55.628331 -11.974578 7.00000000
66.897103 50.658319 -4.651106 7.00000000
66.225027 51.546631 -58.903394 7.00000000
67.602957 49.725367 -4.110843 7.00000000
67.147036 50.327976 -34.830245 7.00000000
59.732663 59.017885 -11.223649 7.00000000
67.816703 49.416811 0.749723 7.00000000
60.578580 58.122950 -5.677183 7.00000000
63.908387 54.430000 2.705840 7.00000000
67.739247 49.531762 -37.267244 7.00000000
65.563162 52.433072 -15.765707 7.00000000
62.529952 56.058333 -48.350405 7.00000000
64.666250 53.534744 -7.404528 7.00000000
69.262222 47.271444 -59.392325 7.00000000
