6.370450 -28.221954 -44.252578 17.00000000
8.471976 -33.971884 2.322707 17.00000000
22.698885 -50.648928 -44.629184 17.00000000
41.902720 -57.112060 -16.579358 17.00000000
9.162854 -35.400348 -49.946165 17.00000000
10.829877 -38.377128 -41.914394 17.00000000
5.312382 -24.136436 -47.423204 17.00000000
8.211564 -33.360659 -34.682797 17.00000000
35.197463 -56.086945 -36.881642 17.00000000
6.123335 -27.267770 -59.908267 17.00000000
6.312574 -27.998475 -51.881286 17.00000000
19.053495 -47.903394 -28.132743 17.00000000
11.889804 -40.051634 -61.043583 17.00000000
36.867332 -56.458863 -12.564257 17.00000000
4.870793 -22.431333 -46.560107 17.00000000
24.328224 -51.648402 -37.171705 17.00000000
19.116555 -47.955821 -59.875401 17.00000000
5.704509 -25.650556 -47.193796 17.00000000
32.454133 -55.310208 -8.676265 17.00000000
44.557135 -57.206628 -7.190165 17.00000000
32.597659 -55.354326 -41.591726 17.00000000
43.118251 -57.186279 -1.637530 17.00000000
27.193084 -53.193906 -58.407945 17.00000000
22.558221 -50.549666 -47.271467 17.00000000
33.829004 -55.732827 -32.558847 17.00000000
21.106674 -49.525351 -37.708694 17.00000000
6.004270 -26.808021 -42.100339 17.00000000
27.353639 -53.272728 -47.625402 17.00000000
10.751043 -38.251639 -14.675877 17.00000000
6.561844 -28.900422 -9.341479 17.00000000
5.251393 -23.900943 -38.324142 17.00000000
32.405782 -55.295345 -36.359506 17.00000000
25.876987 -52.547783 -48.278170 17.00000000
9.097601 -35.275563 -19.416921 17.00000000
21.332811 -49.684930 -59.348244 17.00000000
7.091604 -30.479486 -15.736217 17.00000000
7.425556 -31.474902 -36.947716 17.00000000
42.491002 -57.147980 1.826526 17.00000000
5.523815 -24.952843 -9.505126 17.00000000
5.218955 -23.775690 -20.035184 17.00000000
28.854445 -53.976092 -38.305765 17.00000000
23.694884 -51.272685 -2.076395 17.00000000
4.923061 -22.633153 -24.278745 17.00000000
6.416316 -28.399053 -28.344212 17.00000000
9.771972 -36.565168 -24.779525 17.00000000
9.204396 -35.479789 -2.227077 17.00000000
12.627265 -41.042185 -38.408799 17.00000000
6.939996 -30.027586 -54.640623 17.00000000
6.583750 -28.965717 -59.882536 17.00000000
8.329150 -33.636650 -22.444549 17.00000000
15.705664 -44.776367 -24.633903 17.00000000
8.253831 -33.459866 -15.107934 17.00000000
5.743692 -25.801854 -30.739387 17.00000000
9.351479 -35.761056 -48.386325 17.00000000
6.949694 -30.056495 -33.795427 17.00000000
39.868680 -56.931390 -10.738166 17.00000000
38.199619 -56.696068 -38.248832 17.00000000
29.754054 -54.332578 -35.146280 17.00000000
19.642998 -48.393497 -33.615597 17.00000000
17.173515 -46.218975 -23.987365 17.00000000
12.142229 -40.390689 -10.804381 17.00000000
16.732707 -45.789255 -27.598528 17.00000000
15.820825 -44.900310 -13.739698 17.00000000
33.263354 -55.558953 -15.261622 17.00000000
13.634118 -42.394581 -57.230497 17.00000000
21.259295 -49.633052 -3.748826 17.00000000
39.819451 -56.924449 -27.521116 17.00000000
40.972345 -57.055253 -56.894563 17.00000000
18.248931 -47.234492 -42.338850 17.00000000
26.950298 -53.074713 -45.777815 17.00000000
11.225854 -39.007444 -36.489553 17.00000000
25.451857 -52.314976 -6.281107 17.00000000
40.565971 -57.029701 -35.176344 17.00000000
21.909273 -50.091722 -32.209874 17.00000000
28.367786 -53.770613 -14.996069 17.00000000
13.810288 -42.611207 3.558115 17.00000000
35.490482 -56.152207 -7.865922 17.00000000
11.281588 -39.096161 -52.087723 17.00000000
25.699966 -52.460877 -20.447957 17.00000000
18.964448 -47.829361 -12.366168 17.00000000
41.974046 -57.116415 -38.727678 17.00000000
32.915513 -55.452031 -47.746236 17.00000000
29.384707 -54.186218 -55.063590 17.00000000
7.672072 -32.094394 -54.567582 17.00000000
35.921083 -56.248112 -16.604316 17.00000000
16.636996 -45.695952 -15.366239 17.00000000
28.451702 -53.811810 -42.621812 17.00000000
25.766858 -52.493717 -42.102165 17.00000000
6.127159 -27.282534 -27.309711 17.00000000
23.836145 -51.356485 -7.992808 17.00000000
20.599018 -49.167113 -2.360797 17.00000000
4.837367 -22.302265 -42.902090 17.00000000
27.671456 -53.428757 -24.146560 17.00000000
6.485508 -28.666225 -12.188272 17.00000000
15.003478 -43.974233 -23.003164 17.00000000
22.520314 -50.522915 -37.797868 17.00000000
9.675642 -36.380956 -61.063497 17.00000000
23.931467 -51.413034 3.633630 17.00000000
22.492729 -50.503450 -3.049502 17.00000000
14.698629 -43.625993 -8.319593 17.00000000
28.809995 -53.958478 -48.872115 17.00000000
46.338752 -57.174430 -29.536335 17.00000000
4.905602 -22.565740 -26.427458 17.00000000
36.753431 -56.433495 -23.685544 17.00000000
22.807884 -50.725845 -4.891392 17.00000000
10.894756 -38.480402 -0.699735 17.00000000
15.038270 -44.013978 -56.550701 17.00000000
8.677822 -34.455033 -35.967788 17.00000000
46.821491 -57.165706 -46.803333 17.00000000
17.894481 -46.921807 -3.508364 17.00000000
27.960858 -53.570836 1.665208 17.00000000
10.035201 -37.068542 -57.111543 17.00000000
29.157227 -54.096075 -23.575356 17.00000000
15.235850 -44.239680 -49.399857 17.00000000
39.972265 -56.945994 -39.050194 17.00000000
38.246018 -56.702610 -1.315052 17.00000000
14.392741 -43.276565 -60.758538 17.00000000
31.562533 -55.036140 -30.576214 17.00000000
38.664176 -56.761566 -40.617012 17.00000000
20.722634 -49.254346 -53.998327 17.00000000
19.303372 -48.111137 -15.119902 17.00000000
14.605350 -43.519437 -51.049271 17.00000000
10.910503 -38.505469 -49.241883 17.00000000
9.259918 -35.585963 1.400721 17.00000000
6.695871 -29.299919 -18.515322 17.00000000
43.047371 -57.181951 -24.111768 17.00000000
34.438828 -55.917979 -31.020649 17.00000000
30.093469 -54.467077 -48.014425 17.00000000
30.362996 -54.573882 -42.986257 17.00000000
35.973636 -56.259816 1.912357 17.00000000
4.831853 -22.280971 -41.308718 17.00000000
32.412370 -55.297370 -27.083284 17.00000000
35.701948 -56.199305 -58.766753 17.00000000
30.957097 -54.809305 -16.448461 17.00000000
25.694168 -52.458031 -3.145015 17.00000000
11.947910 -40.129681 -46.289575 17.00000000
4.830175 -22.274495 -18.905711 17.00000000
18.285868 -47.265201 -32.896284 17.00000000
17.284636 -46.327301 -34.156086 17.00000000
11.676383 -39.724597 -9.352105 17.00000000
11.479374 -39.410998 -6.523939 17.00000000
18.124155 -47.130755 -22.596140 17.00000000
26.572855 -52.889412 -36.034925 17.00000000
35.914208 -56.246580 -43.572437 17.00000000
10.980125 -38.616293 -60.994786 17.00000000
37.771105 -56.635652 -31.710571 17.00000000
8.719179 -34.551904 -53.705471 17.00000000
10.766179 -38.275733 -2.436445 17.00000000
10.953296 -38.573586 -46.730667 17.00000000
19.702568 -48.443022 -23.642558 17.00000000
5.451796 -24.674755 -36.439673 17.00000000
35.973792 -56.259851 -46.262759 17.00000000
30.925903 -54.796944 -19.100721 17.00000000
14.909213 -43.866551 -18.344113 17.00000000
7.637094 -32.012294 -11.357806 17.00000000
36.787247 -56.441026 -38.775785 17.00000000
13.165236 -41.764783 -39.681485 17.00000000
7.905999 -32.643454 -61.006184 17.00000000
35.730988 -56.205773 -19.297757 17.00000000
39.530052 -56.883646 -53.702347 17.00000000
41.264993 -57.073122 -14.915535 17.00000000
22.997379 -50.858904 -54.723132 17.00000000
12.513438 -40.889293 -36.428735 17.00000000
38.147724 -56.688751 -10.314182 17.00000000
34.437578 -55.917701 -55.505231 17.00000000
6.187278 -27.514673 -10.443180 17.00000000
7.783507 -32.355948 1.258774 17.00000000
5.288232 -24.043187 -30.927355 17.00000000
34.633339 -55.961301 -44.545208 17.00000000
6.107115 -27.205139 -45.529939 17.00000000
46.008874 -57.180392 -20.163168 17.00000000
32.105966 -55.203185 -58.842934 17.00000000
33.571535 -55.653684 -11.118151 17.00000000
5.564421 -25.109635 -52.685981 17.00000000
14.842924 -43.790826 -54.962677 17.00000000
30.547494 -54.646993 -32.746673 17.00000000
7.202513 -30.810074 -0.076026 17.00000000
15.865439 -44.943802 -16.564060 17.00000000
27.196011 -53.195343 -5.726437 17.00000000
6.146247 -27.356239 -25.375029 17.00000000
28.331063 -53.752583 -33.229202 17.00000000
43.523010 -57.210992 -32.172607 17.00000000
5.743349 -25.800528 -15.871586 17.00000000
32.562990 -55.343669 -16.916998 17.00000000
9.100908 -35.281887 -29.702248 17.00000000
31.215680 -54.911773 -34.213845 17.00000000
29.212031 -54.117792 -31.604881 17.00000000
17.906251 -46.933281 -51.585881 17.00000000
38.840184 -56.786381 2.842433 17.00000000
10.171896 -37.329753 -32.797282 17.00000000
22.870180 -50.769806 -11.285626 17.00000000
31.942638 -55.152980 -10.541481 17.00000000
44.755042 -57.203052 -29.517154 17.00000000
7.236525 -30.911455 -21.300338 17.00000000
25.232536 -52.184867 -33.159952 17.00000000
28.904432 -53.995900 -20.506137 17.00000000
30.363561 -54.574106 -40.017666 17.00000000
17.896028 -46.923315 -16.338292 17.00000000
13.226200 -41.846670 -9.424012 17.00000000
9.410466 -35.873857 -35.686748 17.00000000
46.069766 -57.179292 -53.766903 17.00000000
18.728349 -47.633072 -49.293432 17.00000000
14.654278 -43.575329 -44.488998 17.00000000
46.491886 -57.171663 -5.577133 17.00000000
7.421567 -31.463014 -43.104576 17.00000000
45.259535 -57.193934 -55.688010 17.00000000
42.532006 -57.150483 -55.756636 17.00000000
7.325542 -31.176790 -29.840319 17.00000000
8.468249 -33.963134 -18.551195 17.00000000
32.216149 -55.237054 -33.055117 17.00000000
39.405665 -56.866109 -16.573561 17.00000000
19.631061 -48.383572 -17.926647 17.00000000
17.328720 -46.370277 -9.481426 17.00000000
6.255602 -27.778492 -49.421424 17.00000000
25.564133 -52.381581 3.643151 17.00000000
29.398289 -54.191600 -18.979142 17.00000000
6.614590 -29.057643 -14.631003 17.00000000
34.588593 -55.951335 -6.225366 17.00000000
45.150077 -57.195913 -51.042237 17.00000000
10.803367 -38.334929 -22.397986 17.00000000
18.631380 -47.552454 1.665089 17.00000000
22.514707 -50.518959 -41.426056 17.00000000
15.495901 -44.536746 -0.460331 17.00000000
12.145619 -40.395243 -19.515228 17.00000000
32.692402 -55.383449 -12.443384 17.00000000
31.337877 -54.960196 -21.004122 17.00000000
6.974574 -30.130654 -11.441733 17.00000000
29.595978 -54.269937 -27.719173 17.00000000
15.380642 -44.405082 -10.160766 17.00000000
14.668641 -43.591736 -14.554409 17.00000000
43.504812 -57.209881 -11.491451 17.00000000
6.236360 -27.704190 -55.014745 17.00000000
23.055874 -50.893605 -43.027123 17.00000000
39.598085 -56.893238 -9.096980 17.00000000
12.385391 -40.717302 -14.928296 17.00000000
13.291405 -41.934253 -27.920530 17.00000000
45.417172 -57.191085 -31.208773 17.00000000
23.824245 -51.349426 -13.745250 17.00000000
9.505804 -36.056172 -16.622037 17.00000000
45.574439 -57.188243 -60.467869 17.00000000
5.491724 -24.828931 -49.047188 17.00000000
26.483995 -52.845787 1.847705 17.00000000
5.337019 -24.231567 -40.810941 17.00000000
29.912406 -54.395328 -49.946045 17.00000000
19.456209 -48.238203 2.722153 17.00000000
7.495428 -31.679786 2.858557 17.00000000
28.508699 -53.839084 -44.287216 17.00000000
21.571683 -49.853495 -48.317239 17.00000000
34.411527 -55.911888 -16.469702 17.00000000
10.486828 -37.831062 -12.175465 17.00000000
6.483044 -28.656713 -41.901880 17.00000000
17.514877 -46.551751 -48.036024 17.00000000
45.363688 -57.192052 -2.312172 17.00000000
15.612816 -44.670303 -60.326858 17.00000000
24.234364 -51.592722 -50.143846 17.00000000
11.442338 -39.352043 -58.868147 17.00000000
5.929750 -26.520280 -9.044565 17.00000000
31.320779 -54.953421 3.446047 17.00000000
38.471130 -56.734348 -17.985524 17.00000000
13.272831 -41.909304 -17.694865 17.00000000
29.417793 -54.199329 -9.227948 17.00000000
35.086284 -56.062183 -38.683463 17.00000000
6.315763 -28.010791 -7.230373 17.00000000
12.802874 -41.278062 -41.437793 17.00000000
4.825973 -22.258269 -60.479105 17.00000000
13.419076 -42.105739 -37.334373 17.00000000
26.446480 -52.827369 -9.663657 17.00000000
17.849855 -46.878304 -1.600616 17.00000000
38.920167 -56.797658 -22.023663 17.00000000
28.996101 -54.032226 -6.580256 17.00000000
15.979260 -45.054760 -8.550305 17.00000000
39.050555 -56.816042 -42.705683 17.00000000
10.152110 -37.292109 -31.158947 17.00000000
7.312409 -31.137645 -48.928059 17.00000000
35.568644 -56.169615 -29.502936 17.00000000
37.988888 -56.666357 -43.752106 17.00000000
13.326802 -41.981797 -14.720019 17.00000000
37.329922 -56.561893 -45.347742 17.00000000
4.836106 -22.297393 -53.163461 17.00000000
5.635909 -25.385671 -7.659833 17.00000000
5.628120 -25.355597 -39.618218 17.00000000
9.556477 -36.153076 -54.560271 17.00000000
8.906963 -34.911005 -12.137313 17.00000000
36.745426 -56.431712 -57.547463 17.00000000
41.377163 -57.079971 -26.790497 17.00000000
8.085967 -33.065864 -46.984488 17.00000000
6.153109 -27.382734 -32.095281 17.00000000
7.938450 -32.719621 -0.366369 17.00000000
28.348435 -53.761112 -50.885029 17.00000000
6.033416 -26.920565 -21.632785 17.00000000
10.275046 -37.493947 -6.435522 17.00000000
9.031195 -35.148574 3.668536 17.00000000
6.183410 -27.499734 -15.667108 17.00000000
5.740040 -25.787753 -54.838593 17.00000000
31.480921 -55.011054 -54.255423 17.00000000
46.831097 -57.165532 -3.262669 17.00000000
6.174642 -27.465881 -37.553655 17.00000000
4.907086 -22.571469 -58.658774 17.00000000
10.373614 -37.650848 -37.277045 17.00000000
39.057161 -56.816973 -19.949187 17.00000000
6.635179 -29.119013 -26.178944 17.00000000
39.708369 -56.908787 -14.444204 17.00000000
32.622339 -55.361913 -2.017974 17.00000000
5.734884 -25.767844 -19.992478 17.00000000
43.354109 -57.200680 -50.243749 17.00000000
10.168066 -37.322622 3.062627 17.00000000
4.944045 -22.714181 -6.693558 17.00000000
6.870927 -29.821711 -58.259506 17.00000000
25.121508 -52.119003 -1.582757 17.00000000
4.860338 -22.390962 1.499627 17.00000000
6.648273 -29.158042 -22.809510 17.00000000
22.961532 -50.834270 -59.943557 17.00000000
16.740373 -45.796728 3.204510 17.00000000
7.579183 -31.876371 -38.739630 17.00000000
18.831727 -47.719020 -57.111147 17.00000000
12.568205 -40.962856 -5.790848 17.00000000
44.510797 -57.207466 -24.878820 17.00000000
44.296128 -57.211345 -41.965468 17.00000000
22.093131 -50.221465 -30.140710 17.00000000
34.950544 -56.031950 -1.807667 17.00000000
19.953677 -48.651790 -21.954891 17.00000000
7.706543 -32.175301 -40.695881 17.00000000
6.267477 -27.824341 -35.234649 17.00000000
6.404526 -28.353530 -33.658251 17.00000000
20.678375 -49.223114 -32.630630 17.00000000
14.207413 -43.064858 -26.575701 17.00000000
21.566222 -49.849641 -52.120064 17.00000000
12.264319 -40.554679 -3.066755 17.00000000
36.092090 -56.286199 -41.950111 17.00000000
37.866383 -56.649085 -59.283352 17.00000000
21.490041 -49.795882 -46.478041 17.00000000
5.797465 -26.009489 1.168649 17.00000000
33.530122 -55.640954 -38.111559 17.00000000
8.714444 -34.540990 -33.705252 17.00000000
36.740207 -56.430550 -17.971565 17.00000000
23.035726 -50.881652 -35.490372 17.00000000
13.531121 -42.256237 -49.901740 17.00000000
9.785959 -36.591916 -18.638485 17.00000000
42.396825 -57.142230 -54.079128 17.00000000
25.296549 -52.222842 -26.995546 17.00000000
38.380143 -56.721520 -8.086900 17.00000000
20.639995 -49.196030 -5.162623 17.00000000
6.170539 -27.450038 -3.659978 17.00000000
8.202652 -33.339741 -32.689521 17.00000000
46.259620 -57.175860 -27.788264 17.00000000
11.884682 -40.044755 -0.967890 17.00000000
21.030440 -49.471555 -50.193682 17.00000000
37.833956 -56.644513 -35.762577 17.00000000
8.780337 -34.668856 -28.238221 17.00000000
16.397455 -45.462436 -53.827489 17.00000000
18.028606 -47.051318 -27.110861 17.00000000
42.901423 -57.173039 -7.471971 17.00000000
24.296200 -51.629405 -34.546599 17.00000000
5.539951 -25.015150 -21.561034 17.00000000
18.025249 -47.048527 -11.214166 17.00000000
44.127337 -57.214396 3.852559 17.00000000
23.274107 -51.023067 -57.759914 17.00000000
5.191450 -23.669485 -35.071751 17.00000000
34.294833 -55.876018 -28.189057 17.00000000
24.676305 -51.854894 -31.750811 17.00000000
16.409386 -45.474067 -52.003559 17.00000000
41.269795 -57.073415 -22.521139 17.00000000
29.932167 -54.403158 -21.633307 17.00000000
30.610715 -54.672045 -45.927394 17.00000000
7.159159 -30.680849 -19.808937 17.00000000
6.720042 -29.371967 -45.531989 17.00000000
19.683211 -48.426929 -37.962784 17.00000000
31.483612 -55.011881 -28.848558 17.00000000
29.597502 -54.270541 1.491071 17.00000000
15.030986 -44.005656 -47.783213 17.00000000
4.977574 -22.843645 -0.014633 17.00000000
34.852343 -56.010079 -57.073535 17.00000000
28.484574 -53.827948 -4.528892 17.00000000
14.676518 -43.600734 -58.492115 17.00000000
27.037721 -53.117632 -49.668039 17.00000000
20.876708 -49.363072 -28.574361 17.00000000
33.016130 -55.482959 -60.225269 17.00000000
6.364564 -28.199226 -1.839454 17.00000000
14.458220 -43.351364 -6.637791 17.00000000
11.933135 -40.109837 -16.426233 17.00000000
20.118192 -48.788565 -35.537986 17.00000000
25.508205 -52.348403 -10.893117 17.00000000
25.213789 -52.173747 -56.069266 17.00000000
8.099171 -33.096857 -25.708457 17.00000000
17.562830 -46.598498 -45.885935 17.00000000
9.830603 -36.677288 -22.878370 17.00000000
44.221954 -57.212686 0.009361 17.00000000
22.320941 -50.382224 -13.890991 17.00000000
38.453886 -56.731917 -24.816765 17.00000000
45.039906 -57.197904 -10.185568 17.00000000
17.082731 -46.130475 -19.096191 17.00000000
43.506193 -57.209966 -19.625004 17.00000000
5.633539 -25.376519 -56.276180 17.00000000
41.476665 -57.086046 -10.057850 17.00000000
19.650833 -48.400011 -42.625808 17.00000000
8.903906 -34.905159 -5.330396 17.00000000
31.380647 -54.977144 -44.337264 17.00000000
29.589494 -54.267368 -60.876896 17.00000000
7.405018 -31.413685 -33.006668 17.00000000
29.300519 -54.152857 -2.660928 17.00000000
19.109911 -47.950297 -6.033999 17.00000000
46.600395 -57.169702 -18.627818 17.00000000
14.163652 -43.014869 -52.773269 17.00000000
33.658565 -55.680436 -49.973098 17.00000000
26.447039 -52.827644 -16.766543 17.00000000
20.295480 -48.935960 -55.734455 17.00000000
17.027724 -46.076852 -25.520277 17.00000000
12.809840 -41.287419 -53.488423 17.00000000
45.161660 -57.195703 -14.108403 17.00000000
28.421030 -53.796752 -40.794482 17.00000000
8.704244 -34.517050 -21.067437 17.00000000
25.913871 -52.565891 -39.016439 17.00000000
9.627987 -36.289825 -11.850818 17.00000000
10.764472 -38.273016 -55.770087 17.00000000
9.502825 -36.050477 -58.294416 17.00000000
23.080193 -50.908032 -15.122470 17.00000000
9.006703 -35.101737 -45.091834 17.00000000
5.591544 -25.214364 -50.819573 17.00000000
27.747383 -53.466033 -53.757082 17.00000000
9.517654 -36.078833 -33.783005 17.00000000
8.755084 -34.620565 -38.035873 17.00000000
9.994931 -36.991534 -1.566483 17.00000000
40.727482 -57.040302 -17.730448 17.00000000
4.864317 -22.406327 -2.610647 17.00000000
11.722532 -39.798057 -28.961310 17.00000000
43.063523 -57.182937 -4.146303 17.00000000
7.325212 -31.175805 -58.880814 17.00000000
11.742721 -39.830194 -24.085219 17.00000000
7.860242 -32.536056 -48.509122 17.00000000
45.660374 -57.186690 -16.847153 17.00000000
8.020035 -32.911113 -4.849522 17.00000000
28.564400 -53.861156 3.813593 17.00000000
44.378007 -57.209866 -48.889727 17.00000000
8.597408 -34.266290 -8.910379 17.00000000
13.972696 -42.796732 -34.468845 17.00000000
40.661033 -57.036245 -52.416864 17.00000000
46.732854 -57.167308 -11.003758 17.00000000
46.004077 -57.180479 -48.663921 17.00000000
5.311204 -24.131890 -27.415682 17.00000000
25.946338 -52.581830 -13.020408 17.00000000
32.951403 -55.463063 2.634075 17.00000000
30.350722 -54.569018 -7.407311 17.00000000
21.526022 -49.821273 -12.507755 17.00000000
26.209485 -52.711020 -53.208901 17.00000000
8.204184 -33.343336 -37.186884 17.00000000
11.733223 -39.815074 -30.600459 17.00000000
36.804281 -56.444820 0.341259 17.00000000
7.734089 -32.239957 -31.481359 17.00000000
16.745523 -45.801749 -44.905072 17.00000000
27.062352 -53.129725 -56.557757 17.00000000
44.232251 -57.212500 -46.812902 17.00000000
42.163590 -57.127989 -49.118432 17.00000000
5.368444 -24.352910 -6.596215 17.00000000
24.850625 -51.958306 -51.690811 17.00000000
45.032491 -57.198038 -33.128899 17.00000000
32.090902 -55.198555 -46.017072 17.00000000
17.141401 -46.187669 0.322261 17.00000000
12.821999 -41.303750 -47.283154 17.00000000
16.101731 -45.174150 -31.953176 17.00000000
8.029802 -32.934038 -56.097629 17.00000000
10.743430 -38.239520 -24.770218 17.00000000
46.735304 -57.167264 -22.041833 17.00000000
30.794813 -54.744997 -2.795259 17.00000000
39.377711 -56.862168 -29.536904 17.00000000
9.999710 -37.000674 -45.857735 17.00000000
10.170150 -37.326607 -52.656962 17.00000000
14.638571 -43.557386 -3.685797 17.00000000
16.126631 -45.198424 -55.812723 17.00000000
20.737186 -49.264615 -41.307230 17.00000000
7.656010 -32.056693 -28.291632 17.00000000
34.958489 -56.033720 0.511971 17.00000000
38.102017 -56.682307 -13.890479 17.00000000
15.925587 -45.002436 -41.560017 17.00000000
12.898744 -41.406834 -30.842767 17.00000000
41.341454 -57.077790 -60.220352 17.00000000
8.171812 -33.267354 -2.962490 17.00000000
34.331900 -55.887412 -9.344494 17.00000000
18.719541 -47.625750 -47.363520 17.00000000
5.754084 -25.841982 -12.966974 17.00000000
46.741094 -57.167159 -52.070139 17.00000000
14.160317 -43.011058 -11.452245 17.00000000
27.687956 -53.436858 0.132228 17.00000000
29.438667 -54.207600 -51.816983 17.00000000
28.289768 -53.732310 -60.089423 17.00000000
5.252370 -23.904712 -25.532523 17.00000000
18.593670 -47.521102 -35.875590 17.00000000
8.205500 -33.346426 -24.125119 17.00000000
6.587373 -28.976518 -53.241295 17.00000000
37.317864 -56.559207 -29.681986 17.00000000
8.285297 -33.533721 -41.654656 17.00000000
25.357531 -52.259018 -58.413180 17.00000000
9.306579 -35.675193 -46.719968 17.00000000
9.432064 -35.915159 -53.007464 17.00000000
9.596885 -36.230347 -44.214446 17.00000000
21.190353 -49.584401 -57.157035 17.00000000
40.502602 -57.020767 2.401639 17.00000000
23.543641 -51.182963 -46.133878 17.00000000
17.101575 -46.148845 -61.028227 17.00000000
31.137042 -54.880612 -41.380686 17.00000000
39.007288 -56.809942 -45.872363 17.00000000
43.419579 -57.204677 -15.019338 17.00000000
12.117191 -40.357058 -40.128905 17.00000000
41.196465 -57.068938 -58.651301 17.00000000
6.057828 -27.014825 -47.894971 17.00000000
8.425803 -33.863508 -49.680792 17.00000000
11.681796 -39.733214 1.394273 17.00000000
12.261504 -40.550898 -48.995046 17.00000000
24.632404 -51.828851 -43.711240 17.00000000
16.537332 -45.598794 -22.485264 17.00000000
5.740337 -25.788900 -35.060062 17.00000000
9.950272 -36.906132 -13.420747 17.00000000
5.543292 -25.028050 -24.192299 17.00000000
5.823865 -26.111426 -28.870093 17.00000000
36.695110 -56.420505 -1.975988 17.00000000
33.613376 -55.666546 -39.793975 17.00000000
14.270772 -43.137236 -32.986904 17.00000000
11.606874 -39.613952 -43.261497 17.00000000
24.708523 -51.874007 -16.013956 17.00000000
45.201413 -57.194985 -4.219844 17.00000000
7.975154 -32.805770 -29.985344 17.00000000
17.627542 -46.661583 -54.830815 17.00000000
14.192736 -43.048091 -16.512862 17.00000000
45.446069 -57.190563 -37.767843 17.00000000
6.435932 -28.474800 -21.283037 17.00000000
10.704496 -38.177546 -8.390187 17.00000000
10.088236 -37.169961 0.383472 17.00000000
18.886223 -47.764326 -21.290619 17.00000000
4.870729 -22.431085 -13.631751 17.00000000
5.271051 -23.976848 -57.482533 17.00000000
43.028246 -57.180783 -30.692955 17.00000000
22.186421 -50.287297 -8.366560 17.00000000
33.843931 -55.737416 -58.543536 17.00000000
16.061496 -45.134927 -57.865593 17.00000000
38.538171 -56.743801 -12.359954 17.00000000
42.067359 -57.122113 -12.474834 17.00000000
15.748748 -44.825583 -2.200218 17.00000000
33.397080 -55.600059 -21.725309 17.00000000
6.180451 -27.488309 -29.814915 17.00000000
35.632035 -56.183734 -54.044756 17.00000000
40.686815 -57.037819 -45.155916 17.00000000
36.786369 -56.440831 -25.293617 17.00000000
44.718969 -57.203704 -45.152502 17.00000000
22.043785 -50.186643 -6.297582 17.00000000
37.327812 -56.561423 3.844097 17.00000000
5.574924 -25.150192 -60.766746 17.00000000
13.776435 -42.572536 -2.020262 17.00000000
36.429738 -56.361401 -26.801961 17.00000000
13.351011 -42.014314 -43.210297 17.00000000
12.224493 -40.501186 -57.261958 17.00000000
15.588159 -44.642137 -26.430832 17.00000000
30.837480 -54.761905 -4.573701 17.00000000
19.227442 -48.048010 -10.508848 17.00000000
28.289373 -53.732116 -22.210888 17.00000000
45.915421 -57.182081 -40.784733 17.00000000
7.928874 -32.697145 -58.594493 17.00000000
23.303579 -51.040551 1.856808 17.00000000
30.784466 -54.740897 -25.864997 17.00000000
8.573787 -34.210847 -16.739980 17.00000000
25.854154 -52.536574 -60.064460 17.00000000
20.158866 -48.822381 -61.012382 17.00000000
9.741700 -36.507278 -41.031375 17.00000000
22.844622 -50.751770 -39.774613 17.00000000
36.280834 -56.328236 -47.840312 17.00000000
23.613338 -51.224310 -48.630704 17.00000000
6.556860 -28.885566 -47.117301 17.00000000
18.298763 -47.275922 -17.771113 17.00000000
46.708133 -57.167755 -39.025371 17.00000000
6.078846 -27.095983 -39.077412 17.00000000
5.782649 -25.952280 -37.287920 17.00000000
46.607201 -57.169579 -15.292819 17.00000000
15.634906 -44.695538 -20.507621 17.00000000
37.062111 -56.502245 -53.218882 17.00000000
14.482468 -43.379064 -29.687953 17.00000000
10.737356 -38.229852 -28.937677 17.00000000
35.557706 -56.167179 -61.048715 17.00000000
46.469153 -57.172074 0.393463 17.00000000
5.903428 -26.418641 -18.226040 17.00000000
19.099246 -47.941430 -31.665903 17.00000000
40.292335 -56.991121 -12.554451 17.00000000
21.796883 -50.012411 2.753809 17.00000000
5.331661 -24.210878 -11.457751 17.00000000
31.537188 -55.028350 -48.569361 17.00000000
20.305596 -48.944370 0.965243 17.00000000
9.323948 -35.708409 -56.613958 17.00000000
45.355007 -57.192209 -43.536494 17.00000000
9.913595 -36.835994 -38.994355 17.00000000
14.034607 -42.867455 -48.462650 17.00000000
39.541331 -56.885237 -0.241874 17.00000000
20.498315 -49.096050 -7.072989 17.00000000
13.023775 -41.574774 -34.583565 17.00000000
17.766466 -46.797012 -28.631548 17.00000000
34.890490 -56.018575 -33.656847 17.00000000
29.886448 -54.385041 -1.220164 17.00000000
15.798195 -44.878249 -4.813117 17.00000000
17.922765 -46.949380 -31.071570 17.00000000
24.722744 -51.882443 -47.266949 17.00000000
12.446507 -40.799393 3.742495 17.00000000
8.488360 -34.010338 -57.494517 17.00000000
24.170897 -51.555071 -0.270371 17.00000000
9.000556 -35.089984 -43.050473 17.00000000
26.224886 -52.718580 -54.880666 17.00000000
6.541998 -28.841267 -4.108635 17.00000000
8.788016 -34.683542 -32.067231 17.00000000
39.912526 -56.937572 -23.677334 17.00000000
45.055069 -57.197630 -58.444790 17.00000000
28.352067 -53.762895 -8.019499 17.00000000
11.386590 -39.263304 -38.458570 17.00000000
7.477138 -31.628653 -57.296665 17.00000000
12.731078 -41.181626 -25.161308 17.00000000
43.673411 -57.220176 -18.051907 17.00000000
6.217297 -27.630585 -57.470873 17.00000000
6.741096 -29.434721 -49.807792 17.00000000
7.769665 -32.323458 -6.370193 17.00000000
43.427313 -57.205149 -5.789859 17.00000000
26.861936 -53.031333 -21.734737 17.00000000
33.973485 -55.777239 -4.404669 17.00000000
39.719513 -56.910359 -60.299915 17.00000000
10.959920 -38.584130 -5.030127 17.00000000
33.009201 -55.480829 -43.449465 17.00000000
7.528546 -31.757517 -14.182762 17.00000000
9.854483 -36.722953 -29.141975 17.00000000
5.004780 -22.948693 -10.147533 17.00000000
14.443236 -43.334248 -28.079525 17.00000000
35.429552 -56.138636 -11.063149 17.00000000
46.796990 -57.166149 -34.292901 17.00000000
24.619952 -51.821464 -53.325485 17.00000000
46.656432 -57.168689 -9.297347 17.00000000
39.381356 -56.862682 -36.170585 17.00000000
30.029045 -54.441548 -29.459185 17.00000000
13.976186 -42.800719 -31.341586 17.00000000
43.637358 -57.217974 -39.270619 17.00000000
24.487237 -51.742733 -24.224777 17.00000000
36.677615 -56.416609 -33.296315 17.00000000
46.631518 -57.169139 -44.860103 17.00000000
4.957848 -22.767475 -17.141526 17.00000000
44.962867 -57.199296 -12.337070 17.00000000
39.225191 -56.840664 -58.146524 17.00000000
15.814746 -44.894384 -46.027618 17.00000000
41.411730 -57.082081 -2.330544 17.00000000
41.070482 -57.061245 -33.334698 17.00000000
32.264804 -55.252010 -0.445636 17.00000000
36.788997 -56.441416 -36.917243 17.00000000
36.644558 -56.409246 -9.043597 17.00000000
32.653422 -55.371467 -5.246807 17.00000000
34.401969 -55.908950 -42.369305 17.00000000
8.278042 -33.516692 -45.452001 17.00000000
5.387951 -24.428230 -13.607118 17.00000000
7.181751 -30.748190 -17.429126 17.00000000
22.703212 -50.651982 -20.412151 17.00000000
12.073018 -40.297726 -27.203929 17.00000000
13.146612 -41.739768 -11.297400 17.00000000
13.598193 -42.346328 -54.843807 17.00000000
33.207615 -55.541819 -18.680830 17.00000000
22.641807 -50.608650 0.526698 17.00000000
37.505760 -56.598240 -55.024293 17.00000000
20.358617 -48.988451 -47.292968 17.00000000
4.890657 -22.508032 -44.488935 17.00000000
5.379632 -24.396110 -42.450022 17.00000000
5.408105 -24.506053 0.369398 17.00000000
45.125655 -57.196354 1.722516 17.00000000
32.547514 -55.338912 -56.993749 17.00000000
26.133242 -52.673589 -15.267621 17.00000000
30.425379 -54.598602 -11.976994 17.00000000
46.687276 -57.168132 -56.944849 17.00000000
10.643838 -38.080990 -58.394647 17.00000000
11.675720 -39.723541 -25.705089 17.00000000
12.323471 -40.634131 -50.998036 17.00000000
24.102542 -51.514520 -19.456857 17.00000000
28.896120 -53.992607 -57.629121 17.00000000
34.190948 -55.844085 -46.434434 17.00000000
22.512164 -50.517164 -28.271430 17.00000000
5.095317 -23.298285 -51.517794 17.00000000
32.808940 -55.419271 1.004671 17.00000000
27.057404 -53.127295 -51.793420 17.00000000
21.757654 -49.984729 -15.394015 17.00000000
16.028614 -45.102872 -6.529459 17.00000000
11.852224 -40.001158 -41.683329 17.00000000
41.047077 -57.059816 -37.429017 17.00000000
16.048154 -45.121921 -18.468971 17.00000000
12.444391 -40.796551 -8.018099 17.00000000
24.480549 -51.738766 -60.813393 17.00000000
45.804279 -57.184090 3.457146 17.00000000
17.339730 -46.381010 -21.051833 17.00000000
20.049808 -48.731712 -20.363222 17.00000000
44.325237 -57.210819 -52.326097 17.00000000
22.727068 -50.668816 -18.494108 17.00000000
5.833498 -26.148620 -5.712814 17.00000000
13.510950 -42.229143 -5.874959 17.00000000
6.683285 -29.262405 -24.581697 17.00000000
42.542082 -57.151099 -40.787194 17.00000000
23.331108 -51.056882 -31.369805 17.00000000
11.797448 -39.917308 -21.167623 17.00000000
40.054494 -56.957588 3.870831 17.00000000
31.935994 -55.150938 -39.801451 17.00000000
25.251456 -52.196092 -8.203108 17.00000000
6.892210 -29.885149 -51.539019 17.00000000
32.956814 -55.464726 -28.981502 17.00000000
31.073978 -54.855621 1.745203 17.00000000
7.038659 -30.321673 -46.715950 17.00000000
24.305079 -51.634672 -11.992944 17.00000000
20.508274 -49.103078 -8.842709 17.00000000
25.097131 -52.104541 -45.301533 17.00000000
21.322565 -49.677699 -23.000633 17.00000000
19.031826 -47.885379 -44.315024 17.00000000
4.869208 -22.425211 -28.795496 17.00000000
14.147213 -42.996089 -13.201868 17.00000000
37.611442 -56.613141 -61.042385 17.00000000
24.189866 -51.566324 -39.932922 17.00000000
44.455316 -57.208469 -36.165037 17.00000000
7.570233 -31.855362 -8.546750 17.00000000
14.312334 -43.184713 -38.789218 17.00000000
43.369270 -57.201605 -44.302044 17.00000000
10.809236 -38.344270 -40.087547 17.00000000
4.879620 -22.465414 -30.921936 17.00000000
45.827723 -57.183666 -26.333458 17.00000000
12.469623 -40.830442 -13.087007 17.00000000
8.818123 -34.741115 -25.054643 17.00000000
7.065027 -30.400268 -41.231783 17.00000000
43.191144 -57.190729 -59.489192 17.00000000
43.254440 -57.194594 -9.090263 17.00000000
28.160175 -53.668688 -9.977933 17.00000000
7.314448 -31.143723 -12.655562 17.00000000
31.188776 -54.901112 -51.476864 17.00000000
44.538524 -57.206965 -27.982773 17.00000000
9.507996 -36.060364 -37.264152 17.00000000
4.825285 -22.255610 -11.974729 17.00000000
38.257026 -56.704162 -5.291289 17.00000000
40.843263 -57.047372 -54.663488 17.00000000
40.883143 -57.049807 -40.778085 17.00000000
8.472721 -33.973632 -1.441140 17.00000000
20.880174 -49.365517 -24.770243 17.00000000
20.702103 -49.239857 -26.647942 17.00000000
31.025243 -54.836309 -38.043464 17.00000000
10.516635 -37.878509 -43.451523 17.00000000
38.270215 -56.706021 0.820954 17.00000000
27.338893 -53.265489 -37.295751 17.00000000
41.840147 -57.108240 -50.849352 17.00000000
32.170731 -55.223093 -50.084514 17.00000000
4.932986 -22.671475 -39.822378 17.00000000
6.692500 -29.289871 -38.048540 17.00000000
13.515466 -42.235209 -7.801915 17.00000000
10.139362 -37.267730 -59.883071 17.00000000
7.083877 -30.456455 -9.803218 17.00000000
4.829502 -22.271893 -55.615258 17.00000000
10.071579 -37.138109 -10.062039 17.00000000
7.418864 -31.454955 -51.624803 17.00000000
16.681529 -45.739365 -1.233150 17.00000000
7.106277 -30.523223 -31.188284 17.00000000
14.082966 -42.922698 -19.540386 17.00000000
6.971507 -30.121512 -2.494722 17.00000000
8.631746 -34.346886 0.710618 17.00000000
16.215160 -45.284726 -48.583337 17.00000000
20.988935 -49.442266 -17.673776 17.00000000
7.070248 -30.415829 -60.407008 17.00000000
18.851170 -47.735184 -39.469375 17.00000000
8.123206 -33.153269 -43.711559 17.00000000
5.417186 -24.541117 -1.434526 17.00000000
8.429071 -33.871180 -6.759296 17.00000000
15.126810 -44.115119 -31.107179 17.00000000
7.764728 -32.311871 -19.324931 17.00000000
40.004494 -56.950538 -25.376041 17.00000000
6.838939 -29.726363 -6.080074 17.00000000
42.196860 -57.130020 -52.429318 17.00000000
40.004593 -56.950552 -49.055914 17.00000000
32.218791 -55.237866 -7.167269 17.00000000
7.585930 -31.892205 -23.104216 17.00000000
22.992770 -50.856170 -23.892244 17.00000000
38.404237 -56.724917 -26.701379 17.00000000
17.584574 -46.619695 -6.122039 17.00000000
22.357386 -50.407942 -56.574805 17.00000000
8.542990 -34.138564 -51.326279 17.00000000
43.860730 -57.219214 -56.969489 17.00000000
14.943563 -43.905789 1.579424 17.00000000
9.871714 -36.755906 -49.794366 17.00000000
35.278883 -56.105079 -49.716704 17.00000000
30.066443 -54.456368 -56.792075 17.00000000
22.839520 -50.748170 -51.198965 17.00000000
11.003192 -38.653011 -53.651044 17.00000000
30.431470 -54.601016 -59.202010 17.00000000
15.361951 -44.383731 -11.960204 17.00000000
34.791665 -55.996564 -14.247957 17.00000000
38.907180 -56.795827 -33.234651 17.00000000
19.449663 -48.232761 -52.576441 17.00000000
16.806283 -45.860980 -36.625801 17.00000000
26.575419 -52.890671 -34.189700 17.00000000
13.972930 -42.797000 -24.518443 17.00000000
41.658921 -57.097174 -20.737020 17.00000000
16.153954 -45.225060 -30.012597 17.00000000
6.023524 -26.882366 -53.086459 17.00000000
6.838516 -29.725104 -36.398216 17.00000000
15.477477 -44.515700 3.682116 17.00000000
28.491801 -53.831496 -46.354902 17.00000000
25.117846 -52.116830 -29.934608 17.00000000
42.477963 -57.147184 -35.798309 17.00000000
7.181686 -30.747995 -27.244962 17.00000000
8.237123 -33.420649 -27.404735 17.00000000
39.795203 -56.921030 -50.870677 17.00000000
42.311156 -57.136999 3.811609 17.00000000
13.949058 -42.769729 -40.724458 17.00000000
4.980793 -22.856074 -21.933812 17.00000000
15.812118 -44.891822 -35.298189 17.00000000
17.604491 -46.639111 -13.152273 17.00000000
46.777717 -57.166497 -55.119573 17.00000000
6.578166 -28.949075 0.632429 17.00000000
5.600239 -25.247938 -43.962553 17.00000000
16.936764 -45.988180 -50.113190 17.00000000
30.387498 -54.583591 -10.375368 17.00000000
40.109553 -56.965350 -31.103598 17.00000000
22.063625 -50.200644 -53.502715 17.00000000
20.458751 -49.068131 -11.373407 17.00000000
5.602900 -25.258215 -3.135494 17.00000000
9.874904 -36.762006 -20.805845 17.00000000
39.043029 -56.814981 -55.436301 17.00000000
35.028151 -56.049235 -23.282755 17.00000000
40.948791 -57.053815 -42.698087 17.00000000
5.196270 -23.688093 -8.207496 17.00000000
21.472971 -49.783836 -10.280495 17.00000000
6.879517 -29.847316 -39.521458 17.00000000
26.614370 -52.909793 -40.518174 17.00000000
46.430528 -57.172772 -24.726322 17.00000000
35.337062 -56.118037 -20.892452 17.00000000
7.947525 -32.740921 -52.523627 17.00000000
12.104623 -40.340177 -54.780741 17.00000000
35.187433 -56.084711 -12.643571 17.00000000
10.017926 -37.035508 -3.947760 17.00000000
9.522676 -36.088438 -27.466263 17.00000000
19.296850 -48.105715 -4.154591 17.00000000
27.339892 -53.265979 -12.716399 17.00000000
15.249947 -44.255783 -39.410910 17.00000000
27.181194 -53.188069 -11.109266 17.00000000
24.360198 -51.667370 -4.016592 17.00000000
24.936081 -52.009001 -17.976049 17.00000000
36.949919 -56.477257 -20.387490 17.00000000
10.506282 -37.862029 -34.472564 17.00000000
18.313847 -47.288463 -58.570602 17.00000000
5.402038 -24.482628 -29.218405 17.00000000
13.145407 -41.738149 2.232766 17.00000000
16.337273 -45.403768 -39.807107 17.00000000
25.008423 -52.051917 1.275076 17.00000000
5.707721 -25.662959 -27.342952 17.00000000
31.646036 -55.061808 -24.373812 17.00000000
42.417127 -57.143469 -46.684922 17.00000000
34.775242 -55.992906 -26.570227 17.00000000
6.207046 -27.591003 -13.952477 17.00000000
6.948346 -30.052474 -8.066075 17.00000000
26.204649 -52.708645 -24.792600 17.00000000
23.266691 -51.018668 -26.757755 17.00000000
33.361792 -55.589212 -51.762842 17.00000000
7.633654 -32.004222 -44.882295 17.00000000
30.753775 -54.728735 -14.269115 17.00000000
38.096277 -56.681498 -50.394434 17.00000000
27.018091 -53.107995 -32.257599 17.00000000
18.092250 -47.104231 -19.815896 17.00000000
26.061482 -52.638359 -19.001349 17.00000000
10.800320 -38.330078 -44.960215 17.00000000
46.715765 -57.167617 -42.234048 17.00000000
5.457623 -24.697258 -17.215838 17.00000000
5.334474 -24.221743 -15.624835 17.00000000
27.712167 -53.448744 -1.634546 17.00000000
9.766622 -36.554938 -42.610100 17.00000000
42.751311 -57.163874 -33.771644 17.00000000
33.872310 -55.746139 -0.620270 17.00000000
11.276374 -39.087862 -17.652219 17.00000000
38.098348 -56.681790 -51.971282 17.00000000
43.876136 -57.218936 -22.627659 17.00000000
19.144464 -47.979024 -40.929203 17.00000000
4.921012 -22.625241 -36.945375 17.00000000
6.922258 -29.974716 3.246901 17.00000000
13.159405 -41.756950 -59.793047 17.00000000
7.393951 -31.380698 -5.102606 17.00000000
44.520508 -57.207290 -21.142082 17.00000000
26.785382 -52.993749 -26.434979 17.00000000
20.557705 -49.137960 3.620698 17.00000000
7.617519 -31.966350 -24.697851 17.00000000
5.596940 -25.235201 -45.585339 17.00000000
20.051143 -48.732822 -58.328244 17.00000000
14.720314 -43.650764 -36.394930 17.00000000
13.183489 -41.789301 -32.913270 17.00000000
11.137849 -38.867358 -19.733922 17.00000000
17.490137 -46.527634 -38.736581 17.00000000
28.394117 -53.783539 -29.226925 17.00000000
40.068879 -56.959616 -3.662429 17.00000000
8.680871 -34.462188 -55.315436 17.00000000
8.887123 -34.873065 -3.776309 17.00000000
6.226899 -27.667660 3.077550 17.00000000
13.052488 -41.613341 -23.461760 17.00000000
36.899485 -56.466024 -40.494236 17.00000000
26.752655 -52.977683 -8.101094 17.00000000
7.440589 -31.519712 -34.961006 17.00000000
41.111147 -57.063728 -47.956272 17.00000000
19.315221 -48.120989 -8.022391 17.00000000
7.834613 -32.475902 -21.324147 17.00000000
27.246802 -53.220278 -3.276265 17.00000000
27.732468 -53.458710 -19.020569 17.00000000
43.547236 -57.212472 -37.702000 17.00000000
8.402910 -33.809776 -10.765092 17.00000000
36.078512 -56.283175 -34.961533 17.00000000
4.846485 -22.337470 -32.869246 17.00000000
16.474007 -45.537063 -11.375450 17.00000000
24.342255 -51.656726 -9.624427 17.00000000
26.519889 -52.863408 -28.443499 17.00000000
40.869695 -57.048986 -28.931695 17.00000000
15.329697 -44.346886 -52.695148 17.00000000
9.073645 -35.229752 -15.067716 17.00000000
11.108955 -38.821364 3.866258 17.00000000
5.931515 -26.527093 -33.566141 17.00000000
18.191451 -47.186705 -7.412989 17.00000000
29.366083 -54.178838 -16.856224 17.00000000
36.797572 -56.443326 -15.123894 17.00000000
5.359939 -24.320070 -4.658166 17.00000000
10.965966 -38.593754 -10.523009 17.00000000
46.178455 -57.177327 -7.248251 17.00000000
37.409566 -56.579631 -3.477357 17.00000000
9.248486 -35.564102 -7.000386 17.00000000
10.503029 -37.856851 -50.812203 17.00000000
20.158673 -48.822221 -39.607734 17.00000000
34.396509 -55.907272 -48.130241 17.00000000
20.651839 -49.204388 -14.271977 17.00000000
4.863280 -22.402321 -4.419101 17.00000000
37.161241 -56.524324 -22.101257 17.00000000
35.624587 -56.182075 -52.260829 17.00000000
8.145963 -33.206684 -13.003018 17.00000000
18.209746 -47.201915 3.417046 17.00000000
23.162361 -50.956776 -22.074225 17.00000000
36.184404 -56.306759 -55.736922 17.00000000
13.747635 -42.539636 -0.488389 17.00000000
14.517213 -43.418754 -42.017682 17.00000000
34.641107 -55.963031 3.767239 17.00000000
13.227639 -41.848603 -45.360005 17.00000000
21.324646 -49.679168 -19.396206 17.00000000
25.208894 -52.170843 -22.457139 17.00000000
6.246114 -27.741853 -23.503463 17.00000000
9.230012 -35.528773 -39.791537 17.00000000
11.037851 -38.708180 -26.713859 17.00000000
5.248003 -23.887850 -54.483577 17.00000000
26.422890 -52.815788 -44.193778 17.00000000
8.828981 -34.761879 -60.721543 17.00000000
15.800773 -44.880762 -37.775284 17.00000000
39.318345 -56.853798 -6.634104 17.00000000
46.469223 -57.172072 -13.002254 17.00000000
6.356938 -28.169780 -5.636787 17.00000000
15.616971 -44.675049 -28.317983 17.00000000
29.147397 -54.092179 -13.453856 17.00000000
33.173963 -55.531475 -34.381649 17.00000000
37.837807 -56.645056 -48.082138 17.00000000
43.028942 -57.180826 -27.048977 17.00000000
22.133504 -50.249956 -1.449715 17.00000000
19.041447 -47.893377 -25.074542 17.00000000
22.231355 -50.319006 -34.014140 17.00000000
24.233013 -51.591920 -28.809963 17.00000000
20.217753 -48.871338 -30.962203 17.00000000
22.401419 -50.439015 -25.354580 17.00000000
5.162334 -23.557060 3.449679 17.00000000
41.097156 -57.062874 -6.434561 17.00000000
6.491380 -28.688897 -31.186695 17.00000000
7.942333 -32.728734 -17.781917 17.00000000
45.244488 -57.194206 -23.405319 17.00000000
16.853338 -45.906852 -42.909877 17.00000000
13.297220 -41.942063 -3.730177 17.00000000
19.294212 -48.103522 -0.997483 17.00000000
35.948036 -56.254115 -31.315682 17.00000000
36.472496 -56.370924 -5.477784 17.00000000
21.192726 -49.586076 -43.525157 17.00000000
9.060246 -35.204130 -22.632262 17.00000000
12.048524 -40.264825 -33.497616 17.00000000
32.429921 -55.302765 -22.846192 17.00000000
12.676252 -41.107984 0.362179 17.00000000
10.171378 -37.328928 -47.583418 17.00000000
17.599221 -46.633974 -56.864586 17.00000000
32.396294 -55.292429 -14.062135 17.00000000
33.639663 -55.674626 -24.425668 17.00000000
20.134813 -48.802384 -45.502150 17.00000000
24.024761 -51.468378 -6.189665 17.00000000
7.341351 -31.223912 -53.277395 17.00000000
6.870084 -29.819200 -43.194219 17.00000000
12.427404 -40.773734 -44.128868 17.00000000
13.975060 -42.799433 -22.143264 17.00000000
42.660544 -57.158332 -28.729227 17.00000000
22.591192 -50.572932 -16.770168 17.00000000
5.243553 -23.870668 -33.016811 17.00000000
10.395305 -37.685375 -16.760615 17.00000000
42.336018 -57.138517 0.063184 17.00000000
28.817012 -53.961258 -25.293998 17.00000000
6.937012 -30.018694 -28.710040 17.00000000
43.996901 -57.216753 -54.497292 17.00000000
13.906068 -42.720620 -46.711829 17.00000000
24.320054 -51.643555 -41.650360 17.00000000
18.899685 -47.775518 -55.184315 17.00000000
15.987183 -45.062483 1.096258 17.00000000
6.037181 -26.935103 -0.457967 17.00000000
46.689012 -57.168100 -36.517678 17.00000000
6.314215 -28.004811 -17.308320 17.00000000
4.865088 -22.409302 -49.895251 17.00000000
13.245302 -41.872327 -20.798304 17.00000000
17.192188 -46.237179 -40.991705 17.00000000
21.568075 -49.850949 -21.236769 17.00000000
9.500709 -36.046429 -31.979583 17.00000000
34.204409 -55.848222 -53.543007 17.00000000
18.169909 -47.168795 -53.175231 17.00000000
9.793304 -36.605961 -8.264609 17.00000000
