-30.185012 62.740262 -47.275315 20.00000000
-43.423220 60.401998 -56.119498 20.00000000
-8.669493 53.857719 -0.648787 20.00000000
-36.663703 62.279799 -26.273060 20.00000000
-11.117949 55.944881 -28.452155 20.00000000
-23.142245 61.742960 -10.175663 20.00000000
-28.385688 62.618801 -49.160852 20.00000000
-28.286408 62.610501 -39.685866 20.00000000
-24.586739 62.088174 -59.045519 20.00000000
-5.144588 50.012017 -3.325780 20.00000000
-33.749669 62.639417 -48.739487 20.00000000
-44.385051 59.985440 -2.522506 20.00000000
-7.826817 53.040440 -10.645086 20.00000000
-32.244808 62.735199 -54.427342 20.00000000
-26.553214 62.424221 -8.709767 20.00000000
-3.158217 47.129681 -9.949795 20.00000000
-45.012752 59.696327 -49.085850 20.00000000
0.639148 35.850381 -30.811147 20.00000000
-30.644267 62.739133 -50.751927 20.00000000
-0.642206 42.180357 -56.318995 20.00000000
-41.853532 60.967499 -25.604674 20.00000000
0.842568 34.292025 -4.896116 20.00000000
-24.509760 62.075019 -32.145496 20.00000000
-26.755627 62.458811 -34.201735 20.00000000
0.770182 34.846556 -53.912945 20.00000000
-7.729304 52.945867 -3.755739 20.00000000
-12.878111 57.188952 -44.819283 20.00000000
-24.651956 62.099319 -26.136276 20.00000000
-1.215003 43.527836 -39.271137 20.00000000
-10.499927 55.440734 -46.886492 20.00000000
-19.199402 60.498804 -55.652894 20.00000000
-44.360389 59.996799 -23.039846 20.00000000
-27.694688 62.561035 -32.442832 20.00000000
-25.990827 62.328116 -40.920619 20.00000000
-0.109225 40.812397 -37.608977 20.00000000
-7.642540 52.861718 -22.426250 20.00000000
-32.092370 62.735574 -30.019560 20.00000000
-35.023585 62.526673 -7.171258 20.00000000
-12.682414 57.055522 -58.838551 20.00000000
-22.213483 61.500783 -8.214648 20.00000000
-3.621329 47.896708 -26.525589 20.00000000
0.091212 40.047998 -20.564089 20.00000000
-10.679891 55.587538 -56.949370 20.00000000
-23.167390 61.749517 -46.094697 20.00000000
-7.338824 52.567156 -24.119259 20.00000000
-16.685504 59.392748 -37.495860 20.00000000
-44.463130 59.949478 3.607247 20.00000000
-0.844728 42.700153 -3.052280 20.00000000
0.347308 38.086098 -60.611929 20.00000000
-23.992102 61.964563 -6.355386 20.00000000
-31.954100 62.735914 -3.002860 20.00000000
-26.051025 62.338403 -25.207690 20.00000000
-12.095497 56.655351 -49.027182 20.00000000
-6.938051 52.127041 -45.624710 20.00000000
-35.795373 62.432514 -3.555063 20.00000000
-45.939082 59.269668 -21.392586 20.00000000
-28.021500 62.588355 -47.273402 20.00000000
-0.856588 42.730594 -8.816525 20.00000000
-12.259266 56.767012 -10.596700 20.00000000
-0.724797 42.392335 -31.005750 20.00000000
-7.000957 52.199512 -34.118247 20.00000000
-1.532871 44.173706 -22.724662 20.00000000
-30.679339 62.739047 -6.676511 20.00000000
-7.119618 52.336213 -29.807893 20.00000000
-6.973075 52.167390 -16.466136 20.00000000
-1.626024 44.362981 -18.936122 20.00000000
-16.204409 59.168822 -57.177422 20.00000000
-28.515700 62.629669 -12.027014 20.00000000
-13.440977 57.572724 -43.298919 20.00000000
-20.478226 60.952485 -33.924151 20.00000000
-39.079042 61.783701 -13.682452 20.00000000
-15.259359 58.637000 -2.522624 20.00000000
0.271676 38.665504 -0.324279 20.00000000
-6.167196 51.238991 -35.560626 20.00000000
-3.517237 47.724307 -52.163561 20.00000000
-42.844626 60.610444 -22.055656 20.00000000
-17.052682 59.559697 -54.496164 20.00000000
-1.949445 45.020134 -12.352024 20.00000000
0.748822 35.010189 -2.880396 20.00000000
-1.722149 44.558296 -6.045394 20.00000000
-45.876156 59.298651 -38.127826 20.00000000
-35.584363 62.469624 -1.278669 20.00000000
-32.014701 62.735765 -40.279608 20.00000000
-35.363159 62.496620 -31.117409 20.00000000
-46.225813 59.137602 -42.614283 20.00000000
-35.830634 62.426312 -5.660903 20.00000000
-44.166842 60.085945 -29.603568 20.00000000
0.234819 38.947853 -7.634014 20.00000000
-3.640034 47.927689 -60.675912 20.00000000
-30.470714 62.739560 -22.795354 20.00000000
-43.640543 60.323704 -31.814061 20.00000000
-29.832090 62.739716 -13.027984 20.00000000
0.287544 38.543941 -38.543406 20.00000000
-38.408722 61.961986 -3.727281 20.00000000
-14.704592 58.324808 -14.285166 20.00000000
-27.331378 62.530663 -0.163357 20.00000000
-12.189023 56.719119 -24.736247 20.00000000
-11.517125 56.261006 -50.961848 20.00000000
-0.882142 42.796181 -16.162260 20.00000000
0.109474 39.908096 -39.428382 20.00000000
-5.682717 50.680855 -14.482749 20.00000000
0.621137 35.988359 -48.230716 20.00000000
-4.334141 48.898209 -20.277751 20.00000000
-9.263365 54.432018 -16.814331 20.00000000
-20.196453 60.852522 -10.646061 20.00000000
-43.839165 60.236870 -12.729753 20.00000000
0.868334 34.094631 -10.823842 20.00000000
-24.886689 62.139432 -11.227951 20.00000000
-5.133140 49.996284 -8.938534 20.00000000
-21.730468 61.374835 -43.609897 20.00000000
-10.036761 55.062910 -30.896363 20.00000000
-4.596328 49.258535 -54.678335 20.00000000
-1.468825 44.043572 -17.179082 20.00000000
-40.063101 61.521970 -51.297352 20.00000000
-2.937311 46.763806 -17.805981 20.00000000
-8.171976 53.375197 -20.851483 20.00000000
-26.492761 62.413890 -46.906712 20.00000000
0.518374 36.775600 -25.725703 20.00000000
-8.203742 53.406005 -25.313919 20.00000000
-43.817389 60.246900 -20.061592 20.00000000
-44.890820 59.752488 -11.334915 20.00000000
-42.994152 60.556575 -54.235960 20.00000000
-13.600778 57.681680 -38.607128 20.00000000
-23.686780 61.884950 -48.498306 20.00000000
-39.078783 61.783770 -9.516793 20.00000000
0.854485 34.200730 1.118741 20.00000000
0.580458 36.299987 -10.802578 20.00000000
-0.675542 42.265917 -10.512867 20.00000000
0.597831 36.166899 -41.969940 20.00000000
-10.819689 55.701577 -2.825610 20.00000000
-6.664035 51.811366 -19.472409 20.00000000
-22.198705 61.496929 -6.359654 20.00000000
-18.633488 60.278459 -53.994689 20.00000000
-36.366881 62.332002 1.883510 20.00000000
-42.057196 60.894126 -27.220753 20.00000000
-19.390428 60.566573 -32.365892 20.00000000
-6.141418 51.209294 -50.203018 20.00000000
-31.297791 62.737527 -9.137880 20.00000000
-23.008179 61.708002 1.917626 20.00000000
-3.613093 47.883068 -42.801299 20.00000000
-43.859091 60.227692 -26.901688 20.00000000
-13.239923 57.435642 -41.186436 20.00000000
-42.443403 60.754990 -44.691003 20.00000000
-40.709848 61.349954 -60.669699 20.00000000
-0.130482 40.866956 -16.435010 20.00000000
0.250947 38.824300 -50.781993 20.00000000
-32.163892 62.735398 -47.054226 20.00000000
-22.902460 61.680435 -51.102243 20.00000000
-28.083900 62.593572 -20.391945 20.00000000
-1.928763 44.978112 -45.560005 20.00000000
-38.431765 61.955857 -31.162457 20.00000000
-26.554551 62.424449 -23.654138 20.00000000
-29.219992 62.688546 -18.742448 20.00000000
-43.859613 60.227452 -36.475821 20.00000000
-39.956706 61.550268 -43.600177 20.00000000
-44.526518 59.920282 -53.141735 20.00000000
-37.036634 62.214211 -6.756791 20.00000000
-29.188701 62.685930 -0.146029 20.00000000
-39.413236 61.694815 -15.575538 20.00000000
0.589936 36.227377 -49.847437 20.00000000
-5.502681 50.473448 -45.357544 20.00000000
-9.061732 54.238136 -12.714441 20.00000000
-16.647007 59.375244 -43.105024 20.00000000
-20.864490 61.089518 -47.908625 20.00000000
-23.442466 61.821244 -21.585993 20.00000000
-34.236305 62.596349 -2.269452 20.00000000
0.063752 40.258362 1.621727 20.00000000
-32.793397 62.724049 -52.821535 20.00000000
-13.852592 57.845349 -36.740928 20.00000000
-17.168335 59.612282 -34.016419 20.00000000
-3.387597 47.509590 -36.075010 20.00000000
-36.394559 62.327134 -46.441513 20.00000000
-21.483362 61.309072 -52.386038 20.00000000
-4.330646 48.893405 -15.756863 20.00000000
-46.085269 59.202335 -3.690595 20.00000000
-28.688721 62.644133 -2.144211 20.00000000
-37.117917 62.199915 -19.568880 20.00000000
-14.530124 58.226627 -44.546668 20.00000000
-30.612107 62.739212 -28.366401 20.00000000
-26.886999 62.481261 -53.241040 20.00000000
-20.828905 61.076894 -50.446886 20.00000000
-46.226270 59.137392 -50.019124 20.00000000
-30.669911 62.739070 -4.402091 20.00000000
-36.512550 62.306383 -10.471680 20.00000000
-15.735172 58.904761 -8.661457 20.00000000
0.783830 34.742004 -50.571111 20.00000000
-37.143100 62.195487 -35.541608 20.00000000
-8.166846 53.370221 -50.866343 20.00000000
-5.185493 50.068233 -39.821375 20.00000000
-3.620723 47.895704 2.881673 20.00000000
-44.580415 59.895457 -41.494210 20.00000000
-31.987769 62.735831 3.628092 20.00000000
-37.708574 62.096036 -16.118087 20.00000000
-6.408494 51.516975 -6.931541 20.00000000
-42.985452 60.559709 -52.279427 20.00000000
-26.205180 62.364746 -44.693777 20.00000000
-37.002211 62.220265 -41.922081 20.00000000
-16.166003 59.147210 -22.405773 20.00000000
0.603446 36.123887 -61.041867 20.00000000
-4.316177 48.873521 1.205191 20.00000000
-23.678280 61.882733 -2.073281 20.00000000
-31.688019 62.736568 -56.231007 20.00000000
-4.570145 49.222552 -41.252898 20.00000000
-19.512794 60.609984 -30.525376 20.00000000
-7.587822 52.808649 -54.876147 20.00000000
0.454938 37.261569 -54.290703 20.00000000
-21.794116 61.391431 -39.141726 20.00000000
-0.101882 40.793550 -22.440208 20.00000000
-20.506019 60.962345 -3.629807 20.00000000
-5.976339 51.019118 -52.399826 20.00000000
-39.012064 61.801515 -53.707428 20.00000000
-46.115320 59.188494 -23.463433 20.00000000
-19.786616 60.707127 -5.330332 20.00000000
-44.703433 59.838796 -24.796346 20.00000000
-41.535584 61.082044 -31.611119 20.00000000
-18.341083 60.145508 -35.701157 20.00000000
-37.088065 62.205166 -28.171983 20.00000000
-12.647411 57.031656 -4.826967 20.00000000
-0.061302 40.689399 3.124182 20.00000000
-6.147824 51.216674 -4.964406 20.00000000
-9.027176 54.204621 -45.601280 20.00000000
-27.656031 62.557803 -37.686480 20.00000000
0.725733 35.187067 -15.683226 20.00000000
0.052462 40.344850 -30.447201 20.00000000
-28.388082 62.619001 -7.798232 20.00000000
-36.472299 62.313462 -34.068769 20.00000000
-41.278005 61.174840 -42.899519 20.00000000
-7.848606 53.061573 -7.075186 20.00000000
-45.853174 59.309236 -9.066914 20.00000000
-3.174793 47.157135 0.400044 20.00000000
-30.219513 62.740177 -44.403792 20.00000000
0.878188 34.019143 -8.978709 20.00000000
-26.073744 62.342285 -61.099874 20.00000000
-21.205663 61.210554 -13.750171 20.00000000
-0.094183 40.773790 -8.502524 20.00000000
-37.808581 62.078447 -47.518639 20.00000000
-30.507355 62.739470 -2.117768 20.00000000
-22.452892 61.563209 -55.956075 20.00000000
-10.352392 55.320383 -36.008234 20.00000000
-1.494948 44.096651 -9.975660 20.00000000
-3.496495 47.689953 -6.994522 20.00000000
0.530117 36.685640 -43.667935 20.00000000
-30.884688 62.738542 -31.668094 20.00000000
-12.257728 56.765963 -27.301209 20.00000000
-28.374143 62.617835 -34.431489 20.00000000
-0.870470 42.766222 -0.263818 20.00000000
-25.018798 62.162007 -56.268364 20.00000000
-15.550664 58.800931 -39.348414 20.00000000
-5.065285 49.903029 -60.962079 20.00000000
-25.988663 62.327746 -13.499602 20.00000000
-26.525428 62.419472 -2.003531 20.00000000
-15.591727 58.824038 -10.543122 20.00000000
-14.551187 58.238480 -29.472326 20.00000000
-5.753489 50.762387 -10.625471 20.00000000
-19.605003 60.642697 -57.558112 20.00000000
-3.912026 48.318091 -3.327038 20.00000000
-16.024301 59.067468 -61.080939 20.00000000
-13.909004 57.877094 -1.501868 20.00000000
-3.981206 48.413166 -31.427781 20.00000000
-8.400182 53.596525 -42.091544 20.00000000
-2.635798 46.264428 -27.605492 20.00000000
0.574071 36.348919 -45.405412 20.00000000
-7.942224 53.152370 -46.548555 20.00000000
-2.429917 45.923437 -22.753759 20.00000000
-2.065198 45.255332 -42.531277 20.00000000
-28.912208 62.662816 1.775710 20.00000000
-45.644200 59.405488 -60.818923 20.00000000
0.612885 36.051576 -37.470998 20.00000000
-44.217236 60.062734 -0.703195 20.00000000
-37.653629 62.105699 -40.422592 20.00000000
-29.906192 62.740947 3.405607 20.00000000
-40.924573 61.292844 -48.402182 20.00000000
-6.838176 52.011983 -21.202789 20.00000000
-4.418423 49.014039 -5.911449 20.00000000
-33.886710 62.627288 -50.910716 20.00000000
-17.347662 59.693818 -56.028762 20.00000000
-4.191227 48.701800 -56.146335 20.00000000
-11.403033 56.177436 -32.709776 20.00000000
-11.929730 56.542328 -39.817445 20.00000000
-18.525958 60.229567 -29.062622 20.00000000
-39.225842 61.744656 -11.823880 20.00000000
0.260885 38.748166 -30.212409 20.00000000
-18.874266 60.383458 3.130764 20.00000000
-7.067325 52.275970 -49.544759 20.00000000
-33.815373 62.633602 -6.085398 20.00000000
-13.659421 57.721664 -31.070620 20.00000000
-24.309894 62.040864 -19.524811 20.00000000
-3.611886 47.881069 -33.062413 20.00000000
-9.585188 54.694542 -51.304857 20.00000000
-43.280851 60.453288 -3.727494 20.00000000
0.477742 37.086874 -27.520229 20.00000000
-4.200716 48.714842 -17.694011 20.00000000
0.214830 39.100985 -46.986119 20.00000000
-2.655431 46.296944 -1.067227 20.00000000
0.207769 39.155080 -23.116620 20.00000000
-45.005390 59.699718 -32.178773 20.00000000
0.808370 34.554010 -38.644616 20.00000000
-13.924160 57.885623 -10.797974 20.00000000
-16.065344 59.090564 -16.371958 20.00000000
-12.803298 57.137943 -23.091920 20.00000000
-45.731830 59.365126 -30.606721 20.00000000
-8.205207 53.407426 -15.755344 20.00000000
-12.312726 56.803462 -2.744392 20.00000000
-18.195120 60.079142 -19.050917 20.00000000
-27.995323 62.586167 -44.962169 20.00000000
-2.411490 45.892918 -37.631743 20.00000000
-2.745345 46.445865 -11.969368 20.00000000
-13.985891 57.920362 -35.178519 20.00000000
-1.120733 43.336291 -12.538815 20.00000000
-27.110942 62.512235 -57.240524 20.00000000
-41.614695 61.053543 -7.159928 20.00000000
-43.149074 60.500762 -43.279905 20.00000000
-1.333232 43.768063 -4.301412 20.00000000
-46.059529 59.214191 -40.199928 20.00000000
-20.512300 60.964574 -42.582164 20.00000000
-3.221344 47.234235 -40.038442 20.00000000
-9.464189 54.595839 -15.006751 20.00000000
-46.024881 59.230150 -58.210629 20.00000000
-34.164792 62.602678 -19.417461 20.00000000
-45.343068 59.544187 -47.301018 20.00000000
-29.893424 62.740978 -42.428497 20.00000000
-13.982649 57.918538 -17.157842 20.00000000
-13.674568 57.731991 -12.898848 20.00000000
-15.389909 58.710466 -23.862474 20.00000000
-2.897839 46.698431 -25.414529 20.00000000
-0.057833 40.680495 -48.426838 20.00000000
-0.607233 42.090593 -38.764350 20.00000000
-2.030285 45.184392 -2.281696 20.00000000
-21.182138 61.202209 -59.494372 20.00000000
-25.997296 62.329221 -27.428550 20.00000000
-41.447698 61.113706 -53.229545 20.00000000
-44.733903 59.824762 -43.816790 20.00000000
-25.908079 62.313975 -38.859581 20.00000000
-2.006736 45.136543 -40.235875 20.00000000
0.694517 35.426207 -6.614803 20.00000000
-20.049787 60.800491 -39.137885 20.00000000
-21.902564 61.419709 -16.128377 20.00000000
-26.236265 62.370058 -15.251880 20.00000000
-38.510661 61.934873 -5.504859 20.00000000
-39.949213 61.552261 -34.719791 20.00000000
0.153063 39.574173 -36.613786 20.00000000
-39.198319 61.751976 -40.440727 20.00000000
-44.416982 59.970733 -45.658789 20.00000000
-31.945627 62.735935 -36.691346 20.00000000
-37.782900 62.082964 -43.677980 20.00000000
-33.941576 62.622433 -17.566641 20.00000000
-13.082902 57.328582 -55.060639 20.00000000
-30.142175 62.740367 -29.930925 20.00000000
-33.805633 62.634464 -60.624030 20.00000000
-0.617227 42.116245 -44.740385 20.00000000
-4.284058 48.829379 -59.055958 20.00000000
-0.056463 40.676977 -0.121460 20.00000000
-40.478736 61.411423 -27.583044 20.00000000
-15.043696 58.515637 -12.254913 20.00000000
-38.107900 62.025805 -21.432597 20.00000000
-19.121029 60.471000 -41.678191 20.00000000
-29.420341 62.705295 -52.012883 20.00000000
-32.303643 62.735055 -38.508521 20.00000000
-9.137694 54.311809 -38.555699 20.00000000
-42.716409 60.656636 -5.918092 20.00000000
-7.747863 52.963866 -37.908969 20.00000000
-33.624463 62.650498 -41.622971 20.00000000
-39.791791 61.594131 -1.859750 20.00000000
-38.666564 61.893408 -45.168572 20.00000000
-39.164411 61.760995 -28.632621 20.00000000
-9.523340 54.644090 -34.450676 20.00000000
-31.371135 62.737347 -57.857861 20.00000000
0.131891 39.736361 -45.405729 20.00000000
-9.846168 54.907435 -41.523746 20.00000000
-20.439261 60.938662 -6.870845 20.00000000
-2.026798 45.177307 -34.460844 20.00000000
-7.606757 52.827013 0.872910 20.00000000
-4.625990 49.299300 -33.530825 20.00000000
-34.520312 62.571214 2.095173 20.00000000
-2.044944 45.214178 3.174162 20.00000000
-20.886025 61.097158 -26.336958 20.00000000
-20.958175 61.122754 -37.760811 20.00000000
-28.915640 62.663103 -31.400137 20.00000000
-18.402654 60.173503 -38.289929 20.00000000
0.509143 36.846315 -51.903140 20.00000000
-16.405210 59.265304 -52.933268 20.00000000
-10.438488 55.390615 -38.790480 20.00000000
-17.545105 59.783592 -41.707568 20.00000000
-0.115901 40.829532 -26.276859 20.00000000
-11.640877 56.345382 -12.145335 20.00000000
-26.006450 62.330785 -42.633546 20.00000000
0.623386 35.971129 -4.556749 20.00000000
-22.549285 61.588344 -60.511941 20.00000000
-7.380171 52.607256 -1.888184 20.00000000
0.610362 36.070902 2.005509 20.00000000
-42.674409 60.671767 -30.433017 20.00000000
-39.269809 61.732962 3.362255 20.00000000
-11.269754 56.068714 -41.944188 20.00000000
-45.703514 59.378168 -1.493868 20.00000000
-28.842639 62.657001 -56.859366 20.00000000
-30.575520 62.739302 -60.830348 20.00000000
-26.807449 62.467667 -11.780412 20.00000000
-7.309415 52.538633 -52.727863 20.00000000
-16.627422 59.366339 0.987292 20.00000000
-37.558967 62.122347 -37.063511 20.00000000
0.169079 39.451476 -2.107436 20.00000000
-2.286679 45.686201 -10.146218 20.00000000
-6.332868 51.429850 3.540571 20.00000000
-11.398598 56.173817 -23.008606 20.00000000
0.893670 33.900540 -23.015313 20.00000000
-30.728562 62.738926 -19.866797 20.00000000
-7.131822 52.350272 -5.336301 20.00000000
-1.238123 43.574812 -50.740222 20.00000000
-32.093408 62.735571 -34.835946 20.00000000
-11.685311 56.375678 -30.184923 20.00000000
-5.773996 50.786012 -54.367482 20.00000000
-6.127679 51.193466 -48.338636 20.00000000
-44.111599 60.111390 -17.412564 20.00000000
-35.037099 62.525477 -44.779371 20.00000000
-40.179926 61.490898 -4.395141 20.00000000
-19.271322 60.524319 -17.033672 20.00000000
-40.048551 61.525840 1.711455 20.00000000
-8.584268 53.775063 -53.079973 20.00000000
-46.067894 59.210338 -52.672742 20.00000000
-4.824283 49.571817 -50.512854 20.00000000
0.671714 35.600901 -12.199017 20.00000000
-33.294416 62.679707 -0.218991 20.00000000
0.678521 35.548753 -0.292010 20.00000000
-2.336484 45.768690 -52.189503 20.00000000
0.398790 37.691706 -19.609433 20.00000000
-46.163246 59.166420 -5.782701 20.00000000
-27.520947 62.546510 -16.580596 20.00000000
-32.235344 62.735222 -32.942177 20.00000000
-27.344078 62.531725 -6.345802 20.00000000
-10.797530 55.683501 -7.721858 20.00000000
-0.123217 40.848310 -19.092396 20.00000000
-9.217441 54.389152 -32.960013 20.00000000
-10.381168 55.343857 1.994996 20.00000000
-7.746408 52.962454 3.629677 20.00000000
0.128187 39.764738 -60.863951 20.00000000
-24.439468 62.063007 -44.520379 20.00000000
-6.202037 51.279129 -8.757597 20.00000000
-40.977196 61.278848 -16.407845 20.00000000
-36.955056 62.228558 -11.985346 20.00000000
-15.349845 58.687921 -55.720060 20.00000000
0.166244 39.473192 -41.161316 20.00000000
-14.358107 58.129825 -50.936706 20.00000000
-33.714933 62.642491 -35.138061 20.00000000
0.376073 37.865738 3.389247 20.00000000
-5.450866 50.413756 -29.948270 20.00000000
-34.713263 62.554137 -46.906611 20.00000000
0.699039 35.391564 -57.165426 20.00000000
-6.091627 51.151934 -0.155509 20.00000000
-6.171702 51.244183 -41.676013 20.00000000
-27.161149 62.516432 2.735748 20.00000000
-7.361050 52.588711 -35.869355 20.00000000
-25.938750 62.319216 -17.313486 20.00000000
-6.076464 51.134465 -60.175607 20.00000000
-6.545395 51.674689 -43.835976 20.00000000
-12.596184 56.996729 -7.757298 20.00000000
-10.358143 55.325074 -13.450108 20.00000000
-36.787054 62.258105 -30.294793 20.00000000
-5.075431 49.916973 -18.658614 20.00000000
-5.271030 50.185787 -12.315436 20.00000000
-9.996567 55.030121 -18.219362 20.00000000
-2.363191 45.812923 -29.332116 20.00000000
-22.669023 61.619566 -41.734764 20.00000000
-15.577164 58.815843 -34.848139 20.00000000
-19.069317 60.452655 -25.627368 20.00000000
-38.766876 61.866728 -0.742829 20.00000000
-15.721345 58.896980 -25.575071 20.00000000
-3.773797 48.128121 -53.707945 20.00000000
-36.247948 62.352919 3.512405 20.00000000
-0.522577 41.873315 -4.532965 20.00000000
-24.360998 62.049597 -8.480350 20.00000000
-16.017999 59.063921 -14.023946 20.00000000
-41.073947 61.248355 -56.830588 20.00000000
-35.812413 62.429517 -15.696719 20.00000000
-18.248140 60.103249 -60.637647 20.00000000
-3.195473 47.191387 -29.486522 20.00000000
-37.022653 62.216670 0.158598 20.00000000
-36.102655 62.378472 -22.811067 20.00000000
-23.829128 61.922067 -39.312400 20.00000000
-42.803660 60.625202 2.313823 20.00000000
-7.597685 52.818214 -58.005811 20.00000000
0.339595 38.145187 -13.744918 20.00000000
-39.600294 61.645063 -17.171781 20.00000000
-37.823174 62.075881 -49.448728 20.00000000
-5.691905 50.691440 1.753948 20.00000000
-34.385749 62.583123 -54.120815 20.00000000
-14.820397 58.389976 -42.270478 20.00000000
-42.645627 60.682136 -57.983481 20.00000000
-37.203952 62.184784 -14.386996 20.00000000
-26.335698 62.387050 -20.552336 20.00000000
-2.113082 45.352626 -56.081606 20.00000000
-25.974321 62.325295 -29.115854 20.00000000
-21.430494 61.290316 -21.378143 20.00000000
-5.768325 50.779478 -37.868261 20.00000000
-34.516654 62.571537 -14.510651 20.00000000
-1.536505 44.181089 -37.675664 20.00000000
-4.655118 49.339332 -35.451921 20.00000000
-22.175973 61.491002 -4.286033 20.00000000
-32.369652 62.734892 -7.188433 20.00000000
0.144653 39.638596 -42.975065 20.00000000
-2.225692 45.581437 -4.522401 20.00000000
0.480620 37.064828 -34.835054 20.00000000
-37.559657 62.122226 -52.875984 20.00000000
-9.358641 54.509739 -28.827824 20.00000000
0.286270 38.553700 -44.226608 20.00000000
0.700711 35.378761 -19.976396 20.00000000
-36.504253 62.307842 -50.891221 20.00000000
-24.273912 62.034715 -14.661545 20.00000000
-14.970977 58.474715 -52.969062 20.00000000
-0.766806 42.500156 -6.593130 20.00000000
-2.610516 46.222554 -44.444445 20.00000000
-2.717897 46.400403 -50.420972 20.00000000
0.103061 39.957221 -58.229712 20.00000000
-17.646463 59.829678 -47.304609 20.00000000
-18.279692 60.117595 -9.384319 20.00000000
-9.299636 54.461606 -6.374605 20.00000000
0.866445 34.109103 -35.357227 20.00000000
0.863616 34.130776 -60.616037 20.00000000
-27.317367 62.529492 -18.683486 20.00000000
-12.527341 56.949790 -36.099654 20.00000000
-19.297950 60.533766 -36.927635 20.00000000
-16.883981 59.482992 3.307383 20.00000000
-18.198514 60.080685 -27.225659 20.00000000
-0.700220 42.329256 -37.056895 20.00000000
-21.601579 61.341226 -45.368428 20.00000000
0.524273 36.730414 -29.348885 20.00000000
-35.322225 62.500243 -52.302182 20.00000000
-17.945041 59.965436 -15.820657 20.00000000
-34.612583 62.563047 -12.248505 20.00000000
0.784645 34.735760 -25.625608 20.00000000
-33.593901 62.653202 -43.559267 20.00000000
-27.618893 62.554698 -4.175142 20.00000000
-2.773085 46.491809 -20.993700 20.00000000
-19.220516 60.506295 -23.879428 20.00000000
-17.418625 59.726084 -40.013939 20.00000000
-8.170844 53.374099 -59.383824 20.00000000
-2.467785 45.986156 -31.335441 20.00000000
-4.245166 48.775929 -9.271959 20.00000000
-6.844875 52.019700 -26.543646 20.00000000
-5.510513 50.482470 -16.644805 20.00000000
-4.758816 49.481846 3.772106 20.00000000
-2.992233 46.854771 -5.461311 20.00000000
-18.690324 60.304301 -21.078480 20.00000000
-7.736971 52.953302 -19.212346 20.00000000
-9.009761 54.187731 -2.818847 20.00000000
-31.394665 62.737289 -26.500245 20.00000000
-16.780884 59.436115 -6.626542 20.00000000
0.902620 33.831975 -13.849529 20.00000000
-6.439894 51.553149 -11.985216 20.00000000
-36.239680 62.354373 -53.973550 20.00000000
-13.645380 57.712090 1.708459 20.00000000
0.055416 40.322222 -24.342527 20.00000000
-3.416990 47.558273 -19.518444 20.00000000
-0.632413 42.155220 -59.976226 20.00000000
-26.588663 62.430279 -55.011553 20.00000000
-40.330417 61.450872 -58.264678 20.00000000
-23.644163 61.873837 3.844296 20.00000000
-9.836746 54.899749 -25.431115 20.00000000
-29.776644 62.735081 -26.912368 20.00000000
-2.614808 46.229662 -60.533100 20.00000000
-0.953535 42.979419 2.956130 20.00000000
-6.446237 51.560456 -3.209955 20.00000000
-37.375871 62.154549 -2.203549 20.00000000
-27.743832 62.565143 -25.837528 20.00000000
0.906756 33.800292 -56.139215 20.00000000
-7.128151 52.346044 -60.783834 20.00000000
-1.490446 44.087504 1.332940 20.00000000
-8.265613 53.466011 -49.247630 20.00000000
0.366633 37.938058 -21.530740 20.00000000
-46.121871 59.185477 1.207754 20.00000000
-3.081494 47.002609 -48.717150 20.00000000
-17.545194 59.783633 -23.287459 20.00000000
0.446802 37.323900 -58.155469 20.00000000
-5.775535 50.787785 -1.798655 20.00000000
-11.900061 56.522099 -20.735495 20.00000000
-7.398530 52.625062 -40.490608 20.00000000
-43.572102 60.348361 -10.106363 20.00000000
-2.226870 45.583830 -15.842872 20.00000000
-19.132293 60.474996 -48.346175 20.00000000
0.560830 36.450358 -16.715473 20.00000000
-1.059442 43.211753 -47.195717 20.00000000
-28.244345 62.606985 -41.776089 20.00000000
-10.929005 55.790751 -15.137913 20.00000000
-13.380501 57.531491 -20.586286 20.00000000
-13.766815 57.794887 -3.550636 20.00000000
-4.972280 49.775211 -24.117337 20.00000000
-31.270220 62.737595 -13.624992 20.00000000
-43.804047 60.253045 -34.060468 20.00000000
-37.561812 62.121847 -56.844286 20.00000000
-22.636524 61.611092 -54.307287 20.00000000
-5.243782 50.148340 -56.393728 20.00000000
-20.121801 60.826038 -19.500925 20.00000000
-0.730287 42.406427 -26.564731 20.00000000
0.409260 37.611499 1.121190 20.00000000
-5.236115 50.137803 -43.337261 20.00000000
-0.217275 41.089721 -35.334395 20.00000000
-32.390878 62.734840 -16.594526 20.00000000
-33.135806 62.693745 -45.530412 20.00000000
0.525885 36.718065 -1.568550 20.00000000
-17.652605 59.832470 -0.477416 20.00000000
-1.212362 43.522469 -25.093718 20.00000000
-22.900841 61.680013 -26.963512 20.00000000
-9.772948 54.847707 -27.165289 20.00000000
-9.039760 54.216826 1.390028 20.00000000
-39.213960 61.747816 -57.091944 20.00000000
0.206516 39.164676 -28.383944 20.00000000
-24.746892 62.115542 -54.295634 20.00000000
-29.115052 62.679774 -24.411531 20.00000000
-15.952274 59.026935 -41.078278 20.00000000
-5.586007 50.569442 -34.173530 20.00000000
-1.428447 43.961529 -41.488744 20.00000000
-22.149518 61.484104 -49.311164 20.00000000
-22.318570 61.528184 -57.834756 20.00000000
-42.892969 60.593028 -41.178467 20.00000000
-22.192383 61.495280 -33.117716 20.00000000
-32.595247 62.734338 -28.059216 20.00000000
-6.248501 51.332658 -17.990723 20.00000000
-0.289078 41.274011 -27.946921 20.00000000
-4.353654 48.925025 -29.216719 20.00000000
-11.390005 56.166808 3.396920 20.00000000
-33.302968 62.678951 -55.795124 20.00000000
-41.209610 61.199480 -38.255338 20.00000000
-28.881143 62.660219 -28.883261 20.00000000
-39.815529 61.587817 -21.400482 20.00000000
-15.548179 58.799532 -27.954401 20.00000000
-25.367578 62.221610 -5.066149 20.00000000
-15.729730 58.901699 -20.381764 20.00000000
-41.251590 61.184357 3.607704 20.00000000
-12.720257 57.081324 -33.389935 20.00000000
-12.284082 56.783932 -56.657725 20.00000000
-14.480220 58.198543 -60.361033 20.00000000
0.419072 37.536330 -46.610469 20.00000000
-41.883532 60.956691 -4.596004 20.00000000
-0.663588 42.235236 -24.323618 20.00000000
-25.017067 62.161712 -35.133394 20.00000000
-41.300846 61.166611 0.540369 20.00000000
0.289974 38.525328 -32.133817 20.00000000
-0.756326 42.473258 -40.390657 20.00000000
-18.622404 60.273420 -14.365343 20.00000000
-41.588358 61.063031 -2.861657 20.00000000
-38.551878 61.923911 -32.880937 20.00000000
-10.455367 55.404384 -44.890148 20.00000000
-40.671802 61.360073 -10.764639 20.00000000
-31.735438 62.736451 -48.671682 20.00000000
-45.043620 59.682109 -7.059482 20.00000000
-31.042470 62.738154 -53.254877 20.00000000
0.444938 37.338182 -3.103255 20.00000000
-9.273016 54.439890 -58.507930 20.00000000
0.691171 35.451843 3.602910 20.00000000
-1.862626 44.843728 -8.245038 20.00000000
-35.567461 62.472597 -17.254900 20.00000000
-14.993183 58.487211 1.019689 20.00000000
-34.138859 62.604973 -32.264463 20.00000000
-13.617685 57.693207 -25.319646 20.00000000
-17.272976 59.659860 -48.891054 20.00000000
-12.411629 56.870896 -47.229713 20.00000000
-42.663224 60.675796 -37.929247 20.00000000
-7.990956 53.199633 -33.057811 20.00000000
0.422479 37.510232 -40.673194 20.00000000
-14.757080 58.354345 -57.389580 20.00000000
-19.568795 60.629852 -59.671421 20.00000000
-33.179119 62.689911 -8.768268 20.00000000
-26.151172 62.355516 -32.515421 20.00000000
-21.928844 61.426562 -19.666559 20.00000000
-26.258237 62.373813 -58.818884 20.00000000
0.072702 40.189794 -14.564714 20.00000000
-38.526051 61.930780 1.677365 20.00000000
-38.603168 61.910269 -61.011714 20.00000000
-45.950613 59.264357 -34.034670 20.00000000
-0.166612 40.959689 -32.035209 20.00000000
-40.936055 61.289790 -13.183900 20.00000000
-32.512450 62.734541 -10.914714 20.00000000
-15.493951 58.769015 -49.288939 20.00000000
-5.494098 50.463560 -25.612859 20.00000000
-15.622255 58.841218 -58.983912 20.00000000
-21.351903 61.262435 -40.936253 20.00000000
-1.479178 44.064607 -28.443460 20.00000000
-3.901885 48.304154 -11.107666 20.00000000
-35.632169 62.461217 -41.109803 20.00000000
0.730275 35.152273 -33.794191 20.00000000
-2.171498 45.471320 -24.523042 20.00000000
-45.910281 59.282933 -45.794244 20.00000000
-0.528801 41.889290 -51.171400 20.00000000
-27.807667 62.570479 -14.222432 20.00000000
-0.652281 42.206216 -21.517495 20.00000000
-21.874467 61.412383 0.678516 20.00000000
-3.934534 48.349023 -23.304527 20.00000000
0.471257 37.136556 -6.022577 20.00000000
-43.265838 60.458696 -60.976195 20.00000000
-0.663746 42.235641 -33.631241 20.00000000
-10.510882 55.449670 -11.044605 20.00000000
-20.682877 61.025088 -54.521239 20.00000000
-10.983588 55.835276 -4.789008 20.00000000
-23.891632 61.938365 -4.326036 20.00000000
-20.130136 60.828995 -46.394033 20.00000000
-6.842503 52.016968 1.997471 20.00000000
-5.680586 50.678400 -27.693485 20.00000000
-43.727370 60.288362 -49.894892 20.00000000
-6.455852 51.571533 -57.854097 20.00000000
-41.909468 60.947347 -50.099858 20.00000000
-30.089942 62.740495 -48.929350 20.00000000
-31.204139 62.737757 0.713330 20.00000000
-24.404676 62.057061 -61.014013 20.00000000
-20.547112 60.976924 -1.000985 20.00000000
-19.188276 60.494857 -2.182970 20.00000000
-36.289072 62.345686 -32.489774 20.00000000
-4.290935 48.838830 -12.587624 20.00000000
-27.773469 62.567621 -10.340675 20.00000000
-24.036213 61.976065 -16.790942 20.00000000
-5.115308 49.971777 -0.223442 20.00000000
-31.003465 62.738250 -17.617608 20.00000000
-1.385648 43.874566 -53.755604 20.00000000
-7.694297 52.911914 -43.566997 20.00000000
-6.497058 51.619003 -32.461097 20.00000000
-1.861200 44.840831 -47.338689 20.00000000
-32.170128 62.735383 -24.970483 20.00000000
-13.449941 57.578837 -28.152847 20.00000000
-30.861822 62.738598 -15.470820 20.00000000
0.350662 38.060407 -42.709493 20.00000000
-40.844582 61.314119 -19.221115 20.00000000
-0.017716 40.577528 -52.273787 20.00000000
-40.405715 61.430845 -45.209541 20.00000000
0.878058 34.020143 -44.600154 20.00000000
-23.246470 61.770137 -52.722424 20.00000000
0.846565 34.261406 -28.978698 20.00000000
-33.304528 62.678812 -58.305428 20.00000000
-9.501810 54.626527 -9.546869 20.00000000
-17.835838 59.915783 -50.659035 20.00000000
-38.791444 61.860193 -38.775449 20.00000000
-34.429806 62.579224 -23.673221 20.00000000
-1.447916 44.001086 -1.417572 20.00000000
-2.662663 46.308922 -46.447342 20.00000000
-41.120242 61.231676 -33.561626 20.00000000
-4.424173 49.021940 -21.875860 20.00000000
-9.467210 54.598303 3.544487 20.00000000
0.893510 33.901770 -52.472855 20.00000000
-1.259089 43.617414 -20.358506 20.00000000
-0.653385 42.209048 -29.427177 20.00000000
-2.472997 45.994788 -58.687518 20.00000000
-5.463452 50.428255 -6.328980 20.00000000
-32.798199 62.723624 1.859017 20.00000000
-14.195291 58.038201 -26.738480 20.00000000
-4.307907 48.862155 -25.404114 20.00000000
-45.222521 59.599709 -14.027045 20.00000000
-29.965058 62.740802 -11.360117 20.00000000
0.371816 37.898348 -11.638042 20.00000000
-37.023150 62.216582 -8.831718 20.00000000
-2.908188 46.715572 -3.409791 20.00000000
0.490809 36.986768 -14.885707 20.00000000
-19.600366 60.641052 -51.884657 20.00000000
-18.114552 60.042509 -58.964337 20.00000000
-35.885206 62.416715 -24.634987 20.00000000
-13.865280 57.852489 -5.538665 20.00000000
-25.357604 62.219905 -3.221454 20.00000000
-21.912521 61.422306 -36.298294 20.00000000
-31.769570 62.736367 -42.005399 20.00000000
-0.758209 42.478092 -42.271313 20.00000000
-24.911095 62.143602 -30.454067 20.00000000
-18.495939 60.215918 1.162315 20.00000000
-28.107533 62.595548 -22.291470 20.00000000
-32.192370 62.735328 -5.166270 20.00000000
0.233964 38.954403 -53.320279 20.00000000
0.133917 39.720845 -33.631364 20.00000000
-1.573389 44.256034 -30.298621 20.00000000
-1.162205 43.420556 -35.923391 20.00000000
-12.899255 57.203369 -50.693439 20.00000000
-15.785469 58.933066 -46.120518 20.00000000
-10.992852 55.842834 -60.462625 20.00000000
-0.623396 42.132079 -49.434513 20.00000000
-29.275342 62.693173 -36.919170 20.00000000
-11.740605 56.413379 -6.510713 20.00000000
-34.002761 62.617018 -36.915841 20.00000000
-0.797369 42.578600 -18.557458 20.00000000
-20.135173 60.830783 -35.583480 20.00000000
-14.669594 58.305113 -18.937879 20.00000000
-3.509474 47.711450 -45.678056 20.00000000
-30.119466 62.740423 -40.240149 20.00000000
-39.855468 61.577194 -30.294874 20.00000000
-41.320780 61.159430 -1.123145 20.00000000
0.844384 34.278108 -58.970390 20.00000000
0.674071 35.582843 -22.733650 20.00000000
0.323873 38.265627 -9.402328 20.00000000
-24.812863 62.126816 -0.340100 20.00000000
-39.395580 61.699511 -36.675940 20.00000000
-19.553387 60.624386 -12.453475 20.00000000
-43.562322 60.351884 -7.630651 20.00000000
-3.192752 47.186879 -57.303017 20.00000000
-2.190921 45.510786 -54.348641 20.00000000
-2.892177 46.689055 -14.785678 20.00000000
-14.412626 58.160505 -48.017986 20.00000000
-23.271075 61.776553 -30.940661 20.00000000
0.543723 36.581407 -38.976448 20.00000000
-15.483502 58.763135 -4.351716 20.00000000
-44.572333 59.899180 -57.624489 20.00000000
-1.943643 45.008346 -21.175790 20.00000000
-17.548123 59.784964 -25.581794 20.00000000
-8.300041 53.499402 -56.424228 20.00000000
-33.985426 62.618552 -29.871953 20.00000000
-3.968709 48.395991 -14.205150 20.00000000
-45.677996 59.389922 -56.149466 20.00000000
-4.166306 48.667550 -49.165519 20.00000000
-5.038254 49.865880 -47.812974 20.00000000
-28.280424 62.610001 -55.249803 20.00000000
-37.495326 62.133540 -24.256929 20.00000000
0.206653 39.163630 -4.252110 20.00000000
0.113463 39.877534 -12.769742 20.00000000
-2.900323 46.702545 -34.481165 20.00000000
-45.630243 59.411916 -36.153846 20.00000000
0.552131 36.516996 -55.932097 20.00000000
-26.808775 62.467893 -49.699288 20.00000000
-14.424476 58.167174 -54.578823 20.00000000
0.883427 33.979013 -27.327744 20.00000000
-24.461980 62.066854 -28.654893 20.00000000
-9.933733 54.978865 -52.915355 20.00000000
-6.245359 51.329038 -56.125643 20.00000000
-24.956837 62.151419 -51.560260 20.00000000
-21.292854 61.241486 -17.863492 20.00000000
0.832152 34.371814 -47.647898 20.00000000
-18.836737 60.370143 -45.391092 20.00000000
-9.035596 54.212788 -11.114658 20.00000000
-1.969781 45.061456 -50.015137 20.00000000
0.840277 34.309577 -31.189115 20.00000000
-27.510404 62.545629 -30.214546 20.00000000
-20.972466 61.127824 3.537385 20.00000000
-15.429395 58.732687 -32.055255 20.00000000
-24.573982 62.085994 1.435325 20.00000000
0.062131 40.270780 -10.997900 20.00000000
-15.221784 58.615855 2.773824 20.00000000
-13.439465 57.571694 -52.431473 20.00000000
-1.586291 44.282250 -57.150994 20.00000000
-41.595767 61.060362 -8.916230 20.00000000
-12.297616 56.793160 1.134273 20.00000000
-40.149212 61.499067 -32.227837 20.00000000
-45.371120 59.531266 -18.966123 20.00000000
-39.410320 61.695590 -7.391277 20.00000000
-1.534666 44.177353 -14.121196 20.00000000
-33.697957 62.643993 -4.246785 20.00000000
0.013565 40.497243 -56.027052 20.00000000
-0.121953 40.845066 -3.015618 20.00000000
-41.725101 61.013768 -59.299682 20.00000000
-23.101430 61.732318 -18.561259 20.00000000
-2.064492 45.253898 -36.122746 20.00000000
-30.400675 62.739732 -35.690063 20.00000000
-42.440747 60.755947 -23.757883 20.00000000
-38.844070 61.846196 -18.579936 20.00000000
-14.432706 58.171805 -33.642021 20.00000000
-44.980605 59.711133 -51.329216 20.00000000
-1.948919 45.019065 -26.159527 20.00000000
-45.696574 59.381365 -16.423788 20.00000000
-13.504053 57.615731 -9.080161 20.00000000
-34.839007 62.543009 -9.890524 20.00000000
-39.765389 61.601153 -46.886974 20.00000000
-15.377108 58.703263 -0.873518 20.00000000
-38.810227 61.855198 -58.736246 20.00000000
-33.694088 62.644336 -26.298175 20.00000000
0.787208 34.716120 -17.284613 20.00000000
-4.634129 49.310486 -37.776929 20.00000000
-0.126181 40.855918 -54.502763 20.00000000
-38.606086 61.909493 -42.253815 20.00000000
-39.501513 61.671336 -49.180986 20.00000000
-6.513442 51.637878 -39.455866 20.00000000
-7.758272 52.973962 -12.773639 20.00000000
0.493452 36.966525 -23.579043 20.00000000
-41.406213 61.128652 -40.540687 20.00000000
-13.511525 57.620826 3.455324 20.00000000
-14.527842 58.225343 -7.620203 20.00000000
-9.187966 54.360565 -23.391257 20.00000000
-41.567398 61.070582 -55.354603 20.00000000
-16.232964 59.184892 -51.094666 20.00000000
-17.007797 59.539289 -29.375271 20.00000000
-25.300083 62.210076 -21.680778 20.00000000
-3.442734 47.600910 -1.397997 20.00000000
-39.530124 61.663726 -23.500116 20.00000000
-1.309019 43.718865 -32.325039 20.00000000
-8.980430 54.159285 -43.610220 20.00000000
-1.355102 43.812500 -55.368881 20.00000000
-13.146435 57.371900 -15.111887 20.00000000
-30.087335 62.740502 -33.270870 20.00000000
-43.951535 60.185114 -15.565255 20.00000000
-18.207259 60.084661 -3.937176 20.00000000
-13.306768 57.481219 -0.110122 20.00000000
-25.682814 62.275480 -6.658928 20.00000000
-45.711796 59.374354 -26.083705 20.00000000
-41.890451 60.954198 -29.017678 20.00000000
0.268607 38.689012 -48.785661 20.00000000
0.211158 39.129119 -25.503061 20.00000000
-9.134763 54.308965 -19.941387 20.00000000
-27.611746 62.554101 -60.696791 20.00000000
-2.324782 45.749308 -6.911855 20.00000000
-16.763904 59.428395 -3.392195 20.00000000
-0.169652 40.967491 -46.582536 20.00000000
-36.302916 62.343251 -60.771578 20.00000000
-0.508150 41.836285 1.608834 20.00000000
-11.262363 56.062685 -58.539760 20.00000000
0.206815 39.162387 -18.283725 20.00000000
-41.201906 61.202256 -36.614123 20.00000000
0.813043 34.518205 -36.903706 20.00000000
-40.660666 61.363035 -5.865866 20.00000000
0.258755 38.764488 -16.393296 20.00000000
-12.391262 56.857009 -16.924921 20.00000000
-23.437535 61.819958 -34.343960 20.00000000
-8.465841 53.660204 -27.469336 20.00000000
-42.966580 60.566508 -47.974252 20.00000000
-27.889427 62.577314 -58.774322 20.00000000
-9.505251 54.629334 -49.368278 20.00000000
-10.663681 55.574315 -21.691483 20.00000000
-5.420263 50.378499 -20.195289 20.00000000
-0.371886 41.486547 -1.643562 20.00000000
-44.720992 59.830709 -5.514668 20.00000000
-18.685402 60.302064 -7.256727 20.00000000
0.683859 35.507857 -27.742177 20.00000000
-3.799621 48.163611 -47.579818 20.00000000
-24.010111 61.969259 -36.614955 20.00000000
-7.939100 53.149339 -17.553470 20.00000000
-4.767982 49.494442 -52.792442 20.00000000
-45.813806 59.327369 -28.393583 20.00000000
-14.007732 57.932653 -46.375951 20.00000000
-35.121377 62.518018 -57.868043 20.00000000
-11.745850 56.416955 -45.784007 20.00000000
-35.475299 62.486696 -48.499791 20.00000000
-0.375595 41.496066 -13.175229 20.00000000
-7.296852 52.526448 -8.984553 20.00000000
-19.814286 60.716943 -22.288636 20.00000000
-10.378605 55.341766 -0.552820 20.00000000
-18.931706 60.403835 -43.763298 20.00000000
-4.550112 49.195021 -2.041005 20.00000000
-10.807993 55.692036 -49.452975 20.00000000
-24.610646 62.092259 -23.285143 20.00000000
-21.845542 61.404841 -2.020744 20.00000000
-14.735607 58.342261 -22.317313 20.00000000
-30.046689 62.740602 -38.392418 20.00000000
-44.055747 60.137115 -39.848484 20.00000000
0.514966 36.801708 -32.256770 20.00000000
0.808905 34.549909 -21.359840 20.00000000
-33.477624 62.663493 -21.518288 20.00000000
-21.666232 61.358085 -28.111210 20.00000000
-24.242617 62.029367 -41.930230 20.00000000
-1.615959 44.342531 -52.156780 20.00000000
-32.974214 62.708046 -12.682067 20.00000000
-29.630340 62.722850 -9.212466 20.00000000
-10.472356 55.418243 -19.935221 20.00000000
-29.334528 62.698121 -16.719348 20.00000000
-31.852304 62.736164 -21.068654 20.00000000
-4.198589 48.711918 -44.346795 20.00000000
-27.250859 62.523932 -51.510075 20.00000000
-17.870720 59.931643 -52.441629 20.00000000
-35.361610 62.496757 -20.727325 20.00000000
-28.618848 62.638292 -53.498559 20.00000000
-16.394963 59.260644 -18.074328 20.00000000
-0.520349 41.867596 -53.288320 20.00000000
-1.541306 44.190845 -59.987780 20.00000000
-25.146540 62.183837 -49.437986 20.00000000
-44.762898 59.811407 -59.161479 20.00000000
0.873749 34.053152 -40.761391 20.00000000
0.904303 33.819086 -7.176509 20.00000000
-7.110926 52.326199 -14.438017 20.00000000
-42.679426 60.669959 -35.278450 20.00000000
-38.617476 61.906464 -26.878173 20.00000000
-8.430065 53.625506 -35.295860 20.00000000
-42.890640 60.593866 -14.338902 20.00000000
-22.054134 61.459232 -11.870953 20.00000000
-46.167607 59.164411 3.171539 20.00000000
-44.174229 60.082543 1.413349 20.00000000
-10.348222 55.316982 -54.521051 20.00000000
-41.919873 60.943599 -17.712734 20.00000000
-9.260293 54.429512 -61.089495 20.00000000
-11.906268 56.526331 -0.641157 20.00000000
-32.886762 62.715786 -14.735116 20.00000000
-9.487645 54.614972 -4.566580 20.00000000
-1.420579 43.945541 -49.004030 20.00000000
-6.039464 51.091840 -23.785992 20.00000000
-39.118606 61.773178 -55.352317 20.00000000
-5.149960 50.019399 -31.683958 20.00000000
-2.836936 46.597560 1.821093 20.00000000
-18.167652 60.066653 -5.631741 20.00000000
-0.134134 40.876330 -6.477119 20.00000000
-25.955422 62.322065 -36.884360 20.00000000
-1.143885 43.383332 -43.788515 20.00000000
-39.112874 61.774702 -25.298892 20.00000000
-11.573704 56.299583 -54.190169 20.00000000
-7.973299 53.182508 -31.431413 20.00000000
-36.175405 62.365677 -39.590032 20.00000000
-11.960101 56.563035 -13.719592 20.00000000
-25.597580 62.260914 3.455608 20.00000000
-35.874979 62.418513 -37.389501 20.00000000
-12.712220 57.075844 -60.646243 20.00000000
-23.173514 61.751114 -24.698928 20.00000000
-17.426631 59.729724 -32.090338 20.00000000
-20.287624 60.884867 -15.412915 20.00000000
-8.953306 54.132978 -47.780686 20.00000000
-35.375253 62.495550 -28.426388 20.00000000
-46.255850 59.123767 -11.030325 20.00000000
-21.317543 61.250245 -30.395864 20.00000000
-11.627592 56.336325 -18.751975 20.00000000
0.240134 38.907133 -35.037100 20.00000000
-0.857821 42.733759 -14.331976 20.00000000
-24.829670 62.129688 -46.523467 20.00000000
-3.127468 47.078754 -55.259032 20.00000000
-3.301352 47.366747 -37.976585 20.00000000
-0.967787 43.015999 -58.424279 20.00000000
-21.370229 61.268937 -23.312861 20.00000000
