-26.772431 69.167506 -61.036548 21.00000000
-8.161577 62.023257 -56.112084 21.00000000
-17.898404 67.130427 -30.073311 21.00000000
-3.297551 57.924043 -2.521148 21.00000000
8.419772 34.938649 -51.483226 21.00000000
-18.421714 67.304265 -33.316516 21.00000000
-7.767010 61.744826 -9.484712 21.00000000
7.130405 39.917633 -53.430103 21.00000000
-22.575418 68.451129 -26.715633 21.00000000
-14.650529 65.797980 -13.030526 21.00000000
-31.347590 69.401099 -55.928666 21.00000000
-0.294722 54.634341 -44.811766 21.00000000
-11.161883 63.967165 -57.690333 21.00000000
-13.489578 65.228025 -27.722150 21.00000000
-5.935791 60.311332 2.405791 21.00000000
8.078425 36.256786 -27.707595 21.00000000
-6.504235 60.783933 -45.465903 21.00000000
4.699943 46.636534 -14.189560 21.00000000
0.950200 52.962200 -33.381549 21.00000000
-31.793104 69.393047 -28.081728 21.00000000
2.593354 50.491298 -51.740464 21.00000000
4.785258 46.436283 -58.630630 21.00000000
-1.088019 55.549597 -25.641403 21.00000000
-19.123695 67.520046 -23.114192 21.00000000
-16.254438 66.478976 -42.336741 21.00000000
7.313513 39.210548 -19.933584 21.00000000
7.017711 40.352811 -0.157702 21.00000000
-4.802580 59.369187 -20.610998 21.00000000
1.449733 52.291243 -4.734825 21.00000000
-0.664507 55.065804 -9.462949 21.00000000
-22.285180 68.386486 -4.646151 21.00000000
-17.631899 67.024819 -49.484100 21.00000000
-25.413297 68.975881 -25.713355 21.00000000
3.666676 48.633118 -27.951306 21.00000000
-5.510916 59.958094 -60.960472 21.00000000
-9.150856 62.721354 -18.491506 21.00000000
-16.582811 66.609099 -12.832824 21.00000000
6.626575 41.641879 -39.657129 21.00000000
-20.244076 67.864438 -56.639025 21.00000000
5.657566 44.388808 -48.647951 21.00000000
-6.048128 60.404728 -20.940394 21.00000000
-9.894341 63.215220 -21.765819 21.00000000
-4.497181 59.093499 -2.713100 21.00000000
-32.132280 69.386918 -53.158673 21.00000000
5.271669 45.294584 -12.096084 21.00000000
8.014195 36.504813 -34.869791 21.00000000
-10.233401 63.416361 -58.817306 21.00000000
-32.440419 69.381349 -14.524323 21.00000000
6.272157 42.698332 1.233505 21.00000000
-27.041603 69.205457 -40.045604 21.00000000
-7.494871 61.552788 -43.732120 21.00000000
-11.576701 64.213248 -43.088826 21.00000000
-14.982816 65.961113 -45.757092 21.00000000
8.038124 36.412411 -44.167371 21.00000000
-30.480177 69.416775 -61.098892 21.00000000
-13.687960 65.325418 -60.154973 21.00000000
-22.799587 68.501056 -23.884732 21.00000000
6.056381 43.341520 -4.472818 21.00000000
0.058642 54.159713 -2.553576 21.00000000
2.378148 50.833869 -12.379130 21.00000000
-24.531435 68.851547 -7.930560 21.00000000
8.316124 35.338891 -57.787427 21.00000000
7.563977 38.243364 -51.067082 21.00000000
6.699472 41.424587 -16.488456 21.00000000
-10.809178 63.757929 3.721225 21.00000000
7.272367 39.369437 -0.497140 21.00000000
8.564635 34.379250 -13.144001 21.00000000
-22.014386 68.326174 -35.585366 21.00000000
-14.831206 65.886682 -31.332173 21.00000000
4.499779 47.040038 -39.908376 21.00000000
7.084778 40.093827 -47.217172 21.00000000
0.251808 53.900259 -31.127625 21.00000000
8.441689 34.854014 -45.005147 21.00000000
2.844820 50.091007 -26.841427 21.00000000
-19.065831 67.502259 -12.864119 21.00000000
-32.577436 69.378873 -41.389320 21.00000000
1.557621 52.140009 -36.649015 21.00000000
7.059389 40.191867 -8.497942 21.00000000
4.107403 47.790348 -16.838521 21.00000000
3.405849 49.131877 -4.331626 21.00000000
-21.341234 68.176247 0.330084 21.00000000
-19.963884 67.778310 -4.275613 21.00000000
-15.500953 66.180394 -7.239001 21.00000000
-16.025073 66.388086 -36.814464 21.00000000
-2.759975 57.399989 -54.828681 21.00000000
5.930679 43.716211 -52.753615 21.00000000
-33.457187 69.362974 -36.631326 21.00000000
-18.225339 67.243902 -57.516846 21.00000000
-27.997802 69.276845 -31.731523 21.00000000
-13.346840 65.157949 -52.052089 21.00000000
7.254297 39.439217 -38.719232 21.00000000
6.153524 43.051955 -38.529170 21.00000000
-2.331385 56.969942 -8.697162 21.00000000
-6.838131 61.061532 -19.711224 21.00000000
-4.020945 58.629241 -25.703734 21.00000000
-0.191887 54.496217 -42.858578 21.00000000
-23.728967 68.708051 -29.897488 21.00000000
-21.384118 68.185799 -50.517184 21.00000000
-0.301525 54.643479 -3.555216 21.00000000
-29.151638 69.347297 1.719549 21.00000000
1.894040 51.604487 -21.703559 21.00000000
-18.842972 67.433755 -24.234560 21.00000000
-11.097495 63.928968 -49.497201 21.00000000
5.033202 45.854311 -31.095091 21.00000000
-7.577599 61.611166 -44.679114 21.00000000
2.907744 49.990842 -33.787701 21.00000000
-8.144497 62.011205 -23.246842 21.00000000
-9.563686 63.012673 -12.880088 21.00000000
-29.285476 69.355469 -19.815667 21.00000000
-30.705849 69.412697 -4.363704 21.00000000
-30.757362 69.411766 -1.461555 21.00000000
-0.979382 55.425498 -23.262548 21.00000000
-27.362234 69.238038 -27.977267 21.00000000
6.153009 43.053490 -55.946772 21.00000000
-27.296847 69.234045 -50.216461 21.00000000
-16.946415 66.753184 -60.983862 21.00000000
-30.426304 69.417749 -8.567599 21.00000000
4.226629 47.562361 -51.378603 21.00000000
-20.186052 67.846602 -9.730582 21.00000000
-18.024832 67.180526 -0.482281 21.00000000
-11.410035 64.114376 -7.978281 21.00000000
-18.245897 67.250221 -20.098808 21.00000000
2.830685 50.113507 -18.343738 21.00000000
6.348416 42.471019 -21.931445 21.00000000
-2.031289 56.627130 -18.714611 21.00000000
-30.369101 69.418782 -47.381329 21.00000000
-22.913457 68.526418 -1.988866 21.00000000
-4.593995 59.187878 -29.535885 21.00000000
8.044253 36.388742 -58.122823 21.00000000
6.356167 42.447914 -2.216387 21.00000000
-30.096399 69.404983 -20.503351 21.00000000
1.086576 52.779024 -52.947368 21.00000000
-18.142924 67.218568 -16.962982 21.00000000
7.212994 39.598710 -32.709094 21.00000000
-1.285686 55.775400 -31.148200 21.00000000
-1.720835 56.272487 -25.629134 21.00000000
6.894256 40.829543 2.264775 21.00000000
-5.676357 60.095640 -8.011004 21.00000000
-0.237974 54.558119 -38.809001 21.00000000
-1.569682 56.099819 -30.497362 21.00000000
-0.103645 54.377692 -5.974650 21.00000000
-2.243142 56.869138 -25.763768 21.00000000
-18.164222 67.225115 -13.974452 21.00000000
-29.144131 69.346838 3.337132 21.00000000
-27.745572 69.261444 -20.862413 21.00000000
-7.296610 61.412883 -45.946090 21.00000000
-22.153178 68.357086 -50.130572 21.00000000
-20.402216 67.913048 -53.585555 21.00000000
-31.899147 69.391131 -49.595667 21.00000000
4.934050 46.087039 -26.868031 21.00000000
-6.045331 60.402403 -35.856865 21.00000000
-28.506996 69.307936 -55.431822 21.00000000
-7.600214 61.627124 -0.223006 21.00000000
-27.565242 69.250433 -60.760118 21.00000000
-6.242258 60.566127 -42.835227 21.00000000
-2.954032 57.589165 -25.853978 21.00000000
-17.940013 67.146915 -2.754980 21.00000000
-6.639347 60.896265 -47.503439 21.00000000
-27.813727 69.265605 -15.839952 21.00000000
7.906054 36.922407 -39.541394 21.00000000
1.852138 51.671188 -6.036005 21.00000000
8.531745 34.506258 -27.763427 21.00000000
8.100311 36.172271 -56.122879 21.00000000
8.139757 36.019945 -16.490261 21.00000000
0.480311 53.593340 -55.971963 21.00000000
-4.795648 59.363424 -48.078128 21.00000000
0.668238 53.340923 -26.501743 21.00000000
-23.641467 68.688563 -7.767175 21.00000000
5.844906 43.949085 3.697393 21.00000000
-8.328503 62.141051 -29.633767 21.00000000
-15.344059 66.118222 1.346588 21.00000000
5.205449 45.450013 -30.345290 21.00000000
6.120877 43.149268 -28.227325 21.00000000
-28.632514 69.315600 -20.245023 21.00000000
5.250921 45.343284 -51.376833 21.00000000
-28.559550 69.311145 -36.016931 21.00000000
7.054098 40.212301 -0.896155 21.00000000
-1.124334 55.591082 -24.368413 21.00000000
-15.910014 66.342492 -15.796205 21.00000000
8.313758 35.348029 -30.701660 21.00000000
5.977926 43.575379 -13.309239 21.00000000
-11.820043 64.357605 -25.999637 21.00000000
5.839807 43.961052 -20.674675 21.00000000
-24.518001 68.849653 -14.401927 21.00000000
-24.104813 68.791398 -43.526299 21.00000000
-26.589125 69.141662 -50.636623 21.00000000
-28.219852 69.290403 -47.226295 21.00000000
8.129240 36.060560 -12.122622 21.00000000
2.024741 51.396433 -15.167230 21.00000000
8.024942 36.463313 2.540420 21.00000000
2.925769 49.962150 -45.732235 21.00000000
-2.114261 56.721912 -51.908006 21.00000000
7.929594 36.831507 -54.671906 21.00000000
-10.996817 63.869243 -52.601829 21.00000000
0.053799 54.166219 -37.689344 21.00000000
-28.160201 69.286761 -26.774485 21.00000000
-12.945051 64.960696 -5.075360 21.00000000
8.172249 35.894476 -17.323807 21.00000000
6.600841 41.718588 -10.134505 21.00000000
-19.403886 67.606173 -25.970834 21.00000000
-14.861810 65.901706 -24.846802 21.00000000
-16.832601 66.708083 -23.180888 21.00000000
-7.509345 61.563002 -33.781070 21.00000000
0.879074 53.057734 -6.168508 21.00000000
6.829050 41.038343 -56.843872 21.00000000
-11.109153 63.935884 -26.121491 21.00000000
-11.052807 63.902458 -1.499225 21.00000000
5.333492 45.149472 -11.228871 21.00000000
-12.124617 64.538288 -31.971292 21.00000000
8.507972 34.598056 -26.825165 21.00000000
-15.453421 66.161559 -16.980726 21.00000000
2.611103 50.463044 -49.982605 21.00000000
-25.520079 68.990937 -29.555857 21.00000000
8.555505 34.414507 -48.346920 21.00000000
-10.260370 63.432360 -15.434415 21.00000000
-32.572357 69.378965 -30.959217 21.00000000
-8.827995 62.493523 -24.296581 21.00000000
-11.386326 64.100311 -6.976530 21.00000000
-27.919150 69.272042 0.090913 21.00000000
0.589051 53.447284 -15.882339 21.00000000
-13.147614 65.060141 -8.499428 21.00000000
7.766763 37.460292 -42.793579 21.00000000
7.993452 36.584915 -6.159515 21.00000000
-18.302573 67.267643 -35.382610 21.00000000
5.562185 44.612685 -55.130315 21.00000000
-25.711331 69.017901 -15.723066 21.00000000
1.365628 52.404210 -1.276397 21.00000000
-4.874572 59.429041 -8.404353 21.00000000
7.318923 39.189657 -3.478076 21.00000000
-20.880763 68.060148 -30.163090 21.00000000
8.143928 36.003840 -10.390416 21.00000000
1.364712 52.405440 -48.229795 21.00000000
-17.918454 67.138372 -12.486235 21.00000000
-29.444818 69.365198 -38.260847 21.00000000
4.066019 47.869484 -15.108743 21.00000000
7.125813 39.935366 -5.711542 21.00000000
4.450205 47.134834 -44.303434 21.00000000
0.456595 53.625195 -51.274879 21.00000000
-29.330398 69.358212 -48.769459 21.00000000
6.640909 41.599153 -18.655281 21.00000000
6.331993 42.519972 -4.651893 21.00000000
-7.322844 61.431395 -39.314829 21.00000000
3.048588 49.766643 -0.160807 21.00000000
-27.530656 69.248321 3.674991 21.00000000
-17.448927 66.952314 1.045142 21.00000000
-14.990861 65.965063 -20.133753 21.00000000
-12.429784 64.707731 -10.533971 21.00000000
8.105859 36.150848 -9.591367 21.00000000
-29.346035 69.359166 -55.819494 21.00000000
7.283990 39.324555 -8.687481 21.00000000
-6.113370 60.458970 -38.999874 21.00000000
-23.571041 68.672877 -44.254338 21.00000000
-20.569222 67.964384 -47.445046 21.00000000
-0.875936 55.307328 -16.061264 21.00000000
-8.140554 62.008422 -12.987706 21.00000000
0.448724 53.635768 -58.039869 21.00000000
-3.314791 57.940850 -39.556912 21.00000000
-30.197898 69.411180 -11.148814 21.00000000
-5.988115 60.354834 -11.374192 21.00000000
-7.614029 61.636873 -40.124648 21.00000000
-29.879978 69.391768 -33.581932 21.00000000
-33.257185 69.366588 -46.238245 21.00000000
-3.491491 58.113105 -5.092861 21.00000000
6.995798 40.437428 -42.395980 21.00000000
-32.809387 69.374681 -26.093401 21.00000000
-6.400640 60.697805 -44.659848 21.00000000
-7.079143 61.259424 -22.961961 21.00000000
-33.255892 69.366612 2.969176 21.00000000
2.239099 51.055212 -26.864669 21.00000000
8.151378 35.975071 -32.387304 21.00000000
-17.469152 66.960328 -20.415061 21.00000000
1.429404 52.318548 -22.043133 21.00000000
-10.412118 63.522381 -9.604204 21.00000000
-11.081792 63.919652 -27.714185 21.00000000
-6.058896 60.413681 -33.384999 21.00000000
-31.195495 69.403848 -10.548396 21.00000000
-19.643382 67.679791 -44.485975 21.00000000
5.329794 45.158153 -53.869350 21.00000000
-12.347154 64.667165 2.534418 21.00000000
0.896454 53.034390 1.333212 21.00000000
-13.564532 65.264823 -53.260458 21.00000000
-19.774957 67.720236 -14.874277 21.00000000
3.080605 49.715677 -53.480674 21.00000000
1.449071 52.292132 -33.764711 21.00000000
7.708480 37.685356 -3.847555 21.00000000
-22.840186 68.510099 2.851043 21.00000000
3.997398 48.000703 -59.908728 21.00000000
-6.633304 60.891240 -7.325539 21.00000000
3.473029 49.003414 -51.219130 21.00000000
-22.584185 68.453082 -43.378322 21.00000000
-10.442117 63.540178 -32.965995 21.00000000
-29.143078 69.346774 -58.887964 21.00000000
-15.371519 66.129104 -48.903132 21.00000000
-31.307950 69.401815 -17.390277 21.00000000
-30.658709 69.413549 -42.025269 21.00000000
-22.110052 68.347481 -29.332877 21.00000000
-14.105079 65.530198 -18.056322 21.00000000
3.026662 49.801545 -56.089325 21.00000000
-23.542286 68.666473 -54.393747 21.00000000
8.575163 34.338596 -47.589254 21.00000000
-24.936468 68.908653 -43.596654 21.00000000
-33.318044 69.365488 -32.261991 21.00000000
-26.194502 69.086024 -12.900023 21.00000000
-21.624256 68.239283 -47.860124 21.00000000
-0.982758 55.429354 -52.441949 21.00000000
-0.645209 55.043759 -40.516207 21.00000000
-26.882626 69.183043 -57.110679 21.00000000
2.615650 50.455807 -60.126627 21.00000000
-24.786337 68.887486 -33.607267 21.00000000
-9.002172 62.616433 -4.419448 21.00000000
1.852922 51.669940 -12.972433 21.00000000
3.711534 48.547340 -22.146614 21.00000000
-3.973571 58.583059 1.466798 21.00000000
-19.174525 67.535670 -60.840323 21.00000000
-22.659026 68.469750 -40.578507 21.00000000
-2.219811 56.842486 2.853872 21.00000000
-13.258100 65.114384 -38.381442 21.00000000
-6.593752 60.858357 -25.776975 21.00000000
-24.966113 68.912833 -37.135554 21.00000000
-20.195731 67.849577 -21.219360 21.00000000
-8.422516 62.207392 -8.789928 21.00000000
3.479228 48.991560 -33.871159 21.00000000
-30.788282 69.411207 -45.605345 21.00000000
-11.665393 64.265862 -28.648200 21.00000000
6.783779 41.173286 -1.221333 21.00000000
-23.836838 68.732076 -33.055275 21.00000000
-1.042253 55.497317 -42.244933 21.00000000
-14.165501 65.559862 -17.134625 21.00000000
-13.287481 65.128808 -23.080731 21.00000000
0.605490 53.425204 -3.084716 21.00000000
-6.202782 60.533307 -20.071974 21.00000000
-27.489356 69.245800 -11.410710 21.00000000
-31.180835 69.404113 -58.428160 21.00000000
-15.896710 66.337220 -20.209128 21.00000000
2.387362 50.819202 -9.859614 21.00000000
-19.604647 67.667885 -6.631282 21.00000000
6.683208 41.473069 3.445598 21.00000000
-24.101464 68.790925 -37.320471 21.00000000
0.379365 53.728929 -42.705609 21.00000000
-17.227008 66.864374 -22.489318 21.00000000
-12.070564 64.506222 -39.174294 21.00000000
6.925953 40.707142 -21.481563 21.00000000
-25.657766 69.010349 -56.521787 21.00000000
-1.130308 55.597905 -27.816716 21.00000000
8.092181 36.203664 -8.325545 21.00000000
-26.614107 69.145184 -34.060233 21.00000000
2.266800 51.011117 -59.266998 21.00000000
4.366094 47.295672 -10.972985 21.00000000
-9.186315 62.746376 -6.647161 21.00000000
0.788404 53.179520 -40.902296 21.00000000
-15.795992 66.297309 3.689863 21.00000000
7.515935 38.428882 -23.247899 21.00000000
-1.424577 55.934060 -49.343538 21.00000000
-17.489133 66.968246 -17.431168 21.00000000
1.253864 52.554328 -7.382530 21.00000000
-16.822194 66.703959 -37.484568 21.00000000
-2.512266 57.158511 -46.512570 21.00000000
2.152720 51.192713 -47.216724 21.00000000
-24.121117 68.793696 -35.787153 21.00000000
-2.016821 56.610604 -46.832288 21.00000000
6.011989 43.473842 -14.575554 21.00000000
-3.651563 58.269151 -57.190075 21.00000000
-33.260860 69.366522 -28.028344 21.00000000
-23.076055 68.562632 -25.218595 21.00000000
-2.517656 57.163765 -1.196743 21.00000000
-1.595589 56.129414 -42.191122 21.00000000
-6.329255 60.638455 -2.300466 21.00000000
4.793208 46.417625 -34.872238 21.00000000
2.566616 50.533860 -24.008166 21.00000000
5.775165 44.112781 -39.191133 21.00000000
-9.603188 63.040547 -43.745571 21.00000000
8.136935 36.030844 -57.246314 21.00000000
7.217302 39.582076 -27.655959 21.00000000
-14.331863 65.641535 -40.040156 21.00000000
-33.019426 69.370885 -17.090512 21.00000000
4.703402 46.628415 -48.210213 21.00000000
-2.290366 56.923084 -32.009681 21.00000000
0.647915 53.368219 -46.706883 21.00000000
-5.032868 59.560647 -12.228701 21.00000000
-17.344564 66.910958 -5.086430 21.00000000
-16.578999 66.607589 -59.779202 21.00000000
-9.542106 62.997444 -38.509617 21.00000000
-10.723974 63.707384 -47.443648 21.00000000
-4.505576 59.101683 -0.834183 21.00000000
-19.234412 67.554079 -8.231102 21.00000000
-29.316435 69.357359 -35.739854 21.00000000
-3.736125 58.351586 -53.398955 21.00000000
-1.708580 56.258488 0.097938 21.00000000
7.961117 36.709778 -37.706732 21.00000000
4.761818 46.491301 -28.419939 21.00000000
-13.054530 65.014443 -13.292243 21.00000000
-5.053879 59.578116 3.760344 21.00000000
-19.473234 67.627490 -9.443845 21.00000000
-13.022433 64.998685 -53.954029 21.00000000
-12.000612 64.464724 -17.737343 21.00000000
4.276799 47.466425 -54.414361 21.00000000
-17.489952 66.968570 -33.510271 21.00000000
-22.917267 68.527267 -44.717594 21.00000000
5.038680 45.841454 -32.282407 21.00000000
-3.201988 57.830884 -23.630302 21.00000000
-15.396680 66.139074 -4.932737 21.00000000
-1.648492 56.189847 -38.712108 21.00000000
-29.299331 69.356315 -12.604198 21.00000000
-2.179065 56.795941 -17.283457 21.00000000
-9.600381 63.038567 -9.742886 21.00000000
8.569348 34.361050 -28.600794 21.00000000
-25.503536 68.988604 -26.553518 21.00000000
-6.041146 60.398924 -34.336889 21.00000000
-15.932519 66.351410 -13.339439 21.00000000
-31.028340 69.406868 -47.807901 21.00000000
-1.388522 55.892873 -15.860531 21.00000000
6.581810 41.775315 -0.182804 21.00000000
-10.618901 63.645051 -39.613880 21.00000000
-8.339788 62.149014 -22.523471 21.00000000
-16.648120 66.634979 -5.536383 21.00000000
-0.480489 54.855593 -52.719426 21.00000000
-8.855489 62.512925 2.251624 21.00000000
-23.593972 68.677984 -6.419555 21.00000000
2.157437 51.185204 -8.396222 21.00000000
-2.923246 57.559153 -5.059851 21.00000000
-7.397237 61.483891 -56.092108 21.00000000
-3.516246 58.137237 -52.495714 21.00000000
-2.978100 57.612627 -33.691222 21.00000000
-18.539347 67.340424 -44.432745 21.00000000
-10.291355 63.450741 -38.391035 21.00000000
-18.261006 67.254865 -17.833590 21.00000000
-22.022303 68.327937 -41.970386 21.00000000
7.743479 37.550206 -59.559445 21.00000000
-6.022366 60.383310 -2.999079 21.00000000
-17.120935 66.822341 -39.566285 21.00000000
5.662104 44.378158 -45.990938 21.00000000
5.698399 44.292965 -7.354046 21.00000000
5.470833 44.827107 -1.896044 21.00000000
6.304120 42.603057 -16.931373 21.00000000
1.779518 51.786787 -7.595688 21.00000000
2.854917 50.074934 -48.860204 21.00000000
-18.870477 67.442210 -27.184796 21.00000000
5.905656 43.790800 -3.732834 21.00000000
-30.313735 69.418253 -56.293881 21.00000000
8.340534 35.244632 -9.534809 21.00000000
-31.468826 69.398908 -19.292967 21.00000000
-26.386598 69.113108 -60.361645 21.00000000
-14.952166 65.946066 -54.959499 21.00000000
-0.024492 54.271376 -61.008207 21.00000000
7.708994 37.683372 -23.747082 21.00000000
6.553678 41.859172 -22.873402 21.00000000
-1.778541 56.338407 -39.737078 21.00000000
-10.627288 63.650026 -55.028055 21.00000000
-33.457043 69.362976 -13.667665 21.00000000
-32.743411 69.375873 -6.460243 21.00000000
-12.731828 64.856016 -6.790314 21.00000000
-13.090394 65.032050 -49.516796 21.00000000
3.190576 49.540622 -60.853543 21.00000000
-0.449302 54.819967 -30.470625 21.00000000
-10.807263 63.756793 1.266080 21.00000000
6.172658 42.994920 -50.273823 21.00000000
2.957776 49.911201 -42.253004 21.00000000
-8.485185 62.251615 -54.687124 21.00000000
-14.507584 65.727803 -8.559821 21.00000000
6.502230 42.012529 -7.116600 21.00000000
-4.991487 59.526243 -57.763239 21.00000000
-24.813453 68.891309 -4.875973 21.00000000
7.412047 38.830055 -33.548295 21.00000000
5.160800 45.554814 -44.985729 21.00000000
-5.969155 60.339071 -43.731672 21.00000000
2.512182 50.620511 -42.617570 21.00000000
1.988775 51.453685 -4.218470 21.00000000
-10.345009 63.482570 3.152587 21.00000000
6.849814 40.976447 -38.601708 21.00000000
5.539157 44.666737 -53.090876 21.00000000
4.921754 46.115901 -39.878448 21.00000000
-11.209127 63.995191 -29.646191 21.00000000
-13.512998 65.239522 -17.562290 21.00000000
6.778495 41.189035 -30.442308 21.00000000
2.651008 50.399523 -8.891139 21.00000000
7.134300 39.902592 -44.595525 21.00000000
-24.651584 68.868487 -39.059524 21.00000000
2.702988 50.316779 -38.554942 21.00000000
-14.360153 65.655423 -29.748145 21.00000000
-3.437558 58.060529 2.728718 21.00000000
2.960336 49.907125 -56.915971 21.00000000
-4.910674 59.459056 -42.558157 21.00000000
-27.594942 69.252247 -14.652595 21.00000000
-5.266118 59.754570 2.633658 21.00000000
5.189566 45.487295 -18.877432 21.00000000
-31.580000 69.396899 -34.547355 21.00000000
6.275480 42.688426 -37.796496 21.00000000
-3.653050 58.270600 -20.497266 21.00000000
-12.616401 64.799348 -25.704254 21.00000000
-17.609222 67.015833 -14.817836 21.00000000
-11.228782 64.006851 -51.775748 21.00000000
5.101521 45.693954 -36.312141 21.00000000
-21.449161 68.200285 -22.074124 21.00000000
4.467493 47.101776 -5.815714 21.00000000
3.911112 48.165701 -9.553080 21.00000000
4.366978 47.293982 -50.002695 21.00000000
-33.071066 69.369952 -5.289181 21.00000000
6.774275 41.201615 -43.917432 21.00000000
-17.458864 66.956251 -50.895535 21.00000000
-20.000316 67.789509 -19.357506 21.00000000
-0.415917 54.781830 -6.694941 21.00000000
8.066622 36.302364 -33.162494 21.00000000
-16.857748 66.718048 -33.919025 21.00000000
-15.554204 66.201496 -11.622801 21.00000000
5.447360 44.882203 -50.025877 21.00000000
-2.299473 56.933488 -41.024100 21.00000000
-29.604137 69.374926 -37.471654 21.00000000
-24.382161 68.830501 -24.342439 21.00000000
-14.396743 65.673387 -49.120115 21.00000000
-15.945605 66.356595 -52.721527 21.00000000
5.604793 44.512677 -2.630347 21.00000000
-8.013600 61.918836 -45.834778 21.00000000
-10.063748 63.315717 -44.405627 21.00000000
-2.180461 56.797535 -6.782879 21.00000000
-27.536490 69.248678 -31.007715 21.00000000
-22.689641 68.476569 -32.112579 21.00000000
3.704980 48.559872 -11.160620 21.00000000
2.878972 50.036642 -9.651687 21.00000000
-18.576831 67.351946 -56.352212 21.00000000
-22.043542 68.332668 -2.288978 21.00000000
-10.992769 63.866841 -59.598334 21.00000000
7.088890 40.077947 -55.410342 21.00000000
-0.334662 54.687988 -11.491141 21.00000000
-24.528478 68.851130 3.800438 21.00000000
0.459300 53.621562 -34.979737 21.00000000
2.109967 51.260768 -60.230975 21.00000000
6.970629 40.534622 -14.831540 21.00000000
-7.208820 61.350933 -9.037634 21.00000000
-12.403671 64.694911 -50.034297 21.00000000
3.503726 48.944714 -21.482059 21.00000000
3.434614 49.076873 -14.687860 21.00000000
-21.718984 68.260381 -27.022678 21.00000000
7.551688 38.290820 -40.763640 21.00000000
3.521319 48.911073 -57.556188 21.00000000
-11.637136 64.249099 -20.637161 21.00000000
6.108494 43.186179 -1.953333 21.00000000
1.468827 52.265596 -9.176381 21.00000000
-14.095916 65.525700 -31.785188 21.00000000
8.318564 35.329471 -31.643599 21.00000000
-4.635150 59.227998 -27.781992 21.00000000
-20.550881 67.958746 -28.014466 21.00000000
6.529116 41.932387 -37.388930 21.00000000
6.654255 41.559370 -59.237648 21.00000000
-5.077516 59.597768 -25.097301 21.00000000
-9.776749 63.145461 -40.927416 21.00000000
-9.385156 62.886690 -44.605025 21.00000000
-5.514074 59.960719 -14.188710 21.00000000
-2.030738 56.626501 -36.864106 21.00000000
7.329592 39.148461 -31.884136 21.00000000
-28.652485 69.316819 -37.624314 21.00000000
-1.750196 56.306028 -10.102881 21.00000000
6.494117 42.036712 -26.986275 21.00000000
8.309929 35.362814 -12.918339 21.00000000
8.572582 34.348562 -37.563250 21.00000000
-11.897318 64.403447 -32.774468 21.00000000
0.963482 52.944360 -20.029667 21.00000000
-1.502016 56.022522 -41.295709 21.00000000
-8.872433 62.524882 0.894419 21.00000000
-20.098479 67.819683 -30.171311 21.00000000
-21.193824 68.143416 -7.435397 21.00000000
-1.058138 55.515463 -43.832471 21.00000000
-2.175565 56.791943 -14.035201 21.00000000
7.128309 39.925727 -36.942017 21.00000000
5.750448 44.170797 -47.871145 21.00000000
4.784990 46.436912 -34.065889 21.00000000
2.084361 51.301528 -56.811374 21.00000000
-21.208766 68.146744 -51.478144 21.00000000
-30.720429 69.412433 -19.657375 21.00000000
-16.325131 66.506990 -17.139199 21.00000000
-16.487648 66.571390 -6.605595 21.00000000
2.017706 51.407632 -48.891745 21.00000000
-24.505730 68.847923 -51.930606 21.00000000
-28.057669 69.280500 -54.710019 21.00000000
-3.204605 57.833435 -51.631495 21.00000000
-3.937417 58.547814 -60.805013 21.00000000
7.419708 38.800471 -35.681642 21.00000000
-29.303811 69.356588 -47.495236 21.00000000
-20.685468 68.000117 -8.038274 21.00000000
-8.244265 62.081607 -43.443198 21.00000000
6.000587 43.507829 -48.391371 21.00000000
-29.716873 69.381809 -31.006375 21.00000000
7.688627 37.762019 -35.867481 21.00000000
-10.418809 63.526351 -18.283658 21.00000000
-32.213986 69.385441 -43.182467 21.00000000
7.168815 39.769312 -33.782943 21.00000000
-10.689590 63.686986 -7.613744 21.00000000
-5.159040 59.665546 -28.343230 21.00000000
-32.791829 69.374998 1.985926 21.00000000
2.180843 51.147945 -7.496042 21.00000000
-28.007544 69.277440 -29.515628 21.00000000
4.668349 46.710692 -6.794682 21.00000000
-11.347159 64.077076 -3.682402 21.00000000
7.375822 38.969937 -41.195200 21.00000000
-9.189092 62.748336 -47.757819 21.00000000
4.304522 47.413413 -46.351944 21.00000000
-17.408004 66.936097 -44.750216 21.00000000
-12.826568 64.902528 -0.842196 21.00000000
-12.848833 64.913459 -32.757950 21.00000000
-23.642342 68.688758 -29.014329 21.00000000
-8.809502 62.480473 -0.499460 21.00000000
-25.911818 69.046168 -55.319125 21.00000000
4.214076 47.586366 -48.047196 21.00000000
-18.431635 67.307315 -50.809462 21.00000000
4.681795 46.679130 -24.192084 21.00000000
2.653646 50.395324 -15.010171 21.00000000
2.090397 51.291920 -22.506328 21.00000000
-28.158594 69.286663 -27.604724 21.00000000
-23.384899 68.631419 -36.963254 21.00000000
-22.397562 68.411516 -23.150047 21.00000000
0.241350 53.914306 -22.102193 21.00000000
5.935995 43.700365 -25.721551 21.00000000
-1.939069 56.521784 -48.965284 21.00000000
7.303942 39.247509 -17.046091 21.00000000
-26.396694 69.114531 -10.367853 21.00000000
-7.008544 61.203213 -20.966018 21.00000000
4.824059 46.345210 -30.210267 21.00000000
-12.558708 64.771025 -38.503296 21.00000000
-28.947689 69.334844 -61.092843 21.00000000
-5.496657 59.946239 -31.714845 21.00000000
-18.384311 67.292768 1.610192 21.00000000
5.241422 45.365578 -26.573384 21.00000000
-23.134237 68.575591 -4.359316 21.00000000
5.173576 45.524827 -44.229158 21.00000000
1.679209 51.946462 -13.672429 21.00000000
7.566843 38.232295 -44.454137 21.00000000
-17.810127 67.095445 -56.505145 21.00000000
0.858696 53.085105 -21.799165 21.00000000
-2.376920 57.021957 -10.542551 21.00000000
8.283399 35.465263 -34.711400 21.00000000
-21.229062 68.151264 -5.772783 21.00000000
-11.506483 64.171592 -12.878445 21.00000000
-16.407229 66.539522 -16.340278 21.00000000
-0.264985 54.594399 -8.769810 21.00000000
-14.656644 65.800982 -19.263362 21.00000000
6.023836 43.438529 1.750503 21.00000000
6.344167 42.483684 -29.659666 21.00000000
3.981058 48.031948 -0.957666 21.00000000
1.125720 52.726447 -45.928268 21.00000000
7.422374 38.790174 -56.890862 21.00000000
0.850026 53.096750 -32.541564 21.00000000
-5.315484 59.795612 -17.923678 21.00000000
0.841164 53.108654 -48.621096 21.00000000
-31.226485 69.403288 -50.248499 21.00000000
-12.728822 64.854541 -60.188775 21.00000000
-7.102170 61.275674 -14.794277 21.00000000
-21.178087 68.139911 -12.895766 21.00000000
-9.857759 63.193518 3.828991 21.00000000
0.809555 53.151110 -1.195553 21.00000000
-22.914067 68.526554 -18.352245 21.00000000
-1.219819 55.700157 -51.633685 21.00000000
-31.726367 69.394254 -12.106977 21.00000000
-12.377751 64.682186 -48.557233 21.00000000
2.847194 50.087228 -52.784483 21.00000000
-24.872120 68.899581 -25.136867 21.00000000
-23.200421 68.590332 -1.223092 21.00000000
3.296376 49.341214 -11.211081 21.00000000
-16.195820 66.455747 -60.685507 21.00000000
4.393261 47.243723 -9.405200 21.00000000
-31.238330 69.403074 -55.122035 21.00000000
-1.318509 55.812895 -54.187156 21.00000000
-0.682488 55.086344 -47.534977 21.00000000
-31.164040 69.404416 -35.544311 21.00000000
-6.486647 60.769310 -30.324902 21.00000000
-3.755803 58.370769 -4.018922 21.00000000
8.093994 36.196666 -3.972760 21.00000000
7.559666 38.260010 -7.707284 21.00000000
3.290687 49.352093 -54.255559 21.00000000
-25.722757 69.019512 -37.356411 21.00000000
-2.709990 57.351261 -4.347107 21.00000000
-27.497283 69.246284 1.514000 21.00000000
-15.808057 66.302089 -25.434005 21.00000000
-12.702102 64.841423 -33.598093 21.00000000
-4.431780 59.029743 -3.515467 21.00000000
2.141092 51.211223 -46.021570 21.00000000
-4.407539 59.006112 -51.096228 21.00000000
-24.192696 68.803788 -51.023190 21.00000000
-22.173031 68.361508 -5.492188 21.00000000
-33.335986 69.365164 -59.829417 21.00000000
4.177038 47.657191 -52.461724 21.00000000
-21.341058 68.176208 -24.396431 21.00000000
5.158261 45.560774 -60.996491 21.00000000
-33.163820 69.368276 -8.037996 21.00000000
-4.810534 59.375800 -35.635683 21.00000000
-0.776246 55.193447 -18.332632 21.00000000
8.555481 34.414599 -25.759157 21.00000000
-1.948607 56.532679 -34.073484 21.00000000
-18.166356 67.225771 -26.924091 21.00000000
7.819805 37.255465 0.157483 21.00000000
-21.212946 68.147675 -10.204614 21.00000000
-0.628047 55.024154 -2.951896 21.00000000
-20.044151 67.802983 -37.682895 21.00000000
-31.760322 69.393640 1.644344 21.00000000
-33.386279 69.364255 -21.904723 21.00000000
-22.639401 68.465379 -14.763844 21.00000000
-6.507369 60.786539 3.856395 21.00000000
-15.230658 66.073285 -33.991178 21.00000000
3.460642 49.027101 -56.805052 21.00000000
0.174881 54.003585 -9.686359 21.00000000
-23.434612 68.642491 -39.141350 21.00000000
-16.726637 66.666093 -32.419940 21.00000000
-12.710479 64.845535 -59.087384 21.00000000
4.802881 46.394919 -11.032205 21.00000000
-25.329773 68.964105 -35.021752 21.00000000
-18.023011 67.179804 -42.740482 21.00000000
-10.254046 63.428608 0.443950 21.00000000
-9.028734 62.635177 -8.908616 21.00000000
-23.216352 68.593880 -16.864811 21.00000000
6.750305 41.273065 -42.218871 21.00000000
0.528177 53.529048 -34.048048 21.00000000
-17.582154 67.005107 -53.583112 21.00000000
1.879985 51.626860 -25.380883 21.00000000
8.300280 35.400074 -20.722759 21.00000000
7.693238 37.744215 -8.762042 21.00000000
-3.883528 58.495281 -18.838071 21.00000000
-15.957609 66.361352 -27.848761 21.00000000
-18.228279 67.244805 -23.421574 21.00000000
0.569649 53.473345 -2.262500 21.00000000
1.609204 52.057898 -28.389827 21.00000000
-13.103081 65.038279 -50.406300 21.00000000
-26.754567 69.164988 -3.610948 21.00000000
-19.809971 67.730999 -36.775413 21.00000000
6.313351 42.575540 -16.012916 21.00000000
-20.819546 68.041331 -16.251905 21.00000000
-2.077941 56.680423 -16.077462 21.00000000
-4.259350 58.861650 -24.970788 21.00000000
-3.108395 57.739645 -3.444454 21.00000000
7.156906 39.815298 -41.552532 21.00000000
-4.299401 58.900693 -53.381034 21.00000000
4.196429 47.620110 -7.671995 21.00000000
1.054779 52.821733 -10.713950 21.00000000
4.975101 45.990686 -16.979970 21.00000000
-0.342139 54.697551 -28.747812 21.00000000
-29.833143 69.388909 -28.059527 21.00000000
0.207775 53.959402 -28.981131 21.00000000
-0.922006 55.359955 -28.582505 21.00000000
-12.830590 64.904502 -45.924345 21.00000000
-13.258552 65.114605 -12.275428 21.00000000
6.890758 40.843049 -45.673934 21.00000000
4.141410 47.725319 -56.114693 21.00000000
-23.385618 68.631579 -50.713220 21.00000000
-16.011287 66.382623 -34.293577 21.00000000
-33.205487 69.367523 -20.936600 21.00000000
-23.869158 68.739275 -17.351910 21.00000000
4.569942 46.905869 -52.757303 21.00000000
-5.319467 59.798924 -36.590031 21.00000000
7.450817 38.680341 -57.765890 21.00000000
4.010401 47.975837 -38.052227 21.00000000
7.557418 38.268693 -5.159405 21.00000000
-0.337569 54.691892 3.681964 21.00000000
-1.878869 56.453015 -27.110088 21.00000000
4.360910 47.305585 -13.484371 21.00000000
8.428992 34.903044 -41.250008 21.00000000
-32.844974 69.374038 -50.577077 21.00000000
2.405221 50.790774 0.950964 21.00000000
4.051707 47.896851 -41.880629 21.00000000
8.528740 34.517860 -36.745939 21.00000000
5.889448 43.839114 -41.284642 21.00000000
7.665764 37.850307 -37.897235 21.00000000
-4.392966 58.991905 -23.624021 21.00000000
-30.484636 69.416694 -43.584672 21.00000000
5.789743 44.078564 -50.115219 21.00000000
-3.510469 58.131606 -26.194717 21.00000000
5.691189 44.309889 -0.935790 21.00000000
0.285965 53.854380 -17.847464 21.00000000
5.419580 44.947407 -23.011198 21.00000000
7.717000 37.652454 -18.883323 21.00000000
-26.591994 69.142066 -32.277984 21.00000000
7.699857 37.718654 -2.353245 21.00000000
1.779539 51.786752 -60.930808 21.00000000
-20.605649 67.975581 2.750820 21.00000000
-20.474611 67.935302 -2.598985 21.00000000
-7.402821 61.487831 -26.374011 21.00000000
-7.075043 61.256531 -3.871927 21.00000000
0.958835 52.950602 -49.987814 21.00000000
-5.120392 59.633414 -59.398951 21.00000000
-25.400921 68.974136 -13.064463 21.00000000
-17.206372 66.856197 -55.768111 21.00000000
7.881965 37.015429 -58.873787 21.00000000
-9.465200 62.943175 -56.509583 21.00000000
-2.790428 57.429676 -16.634011 21.00000000
-15.825430 66.308974 -43.837766 21.00000000
-23.592700 68.677701 -51.559328 21.00000000
-26.522905 69.132325 -53.615408 21.00000000
-6.783914 61.016456 -17.168917 21.00000000
-28.787025 69.325034 -3.704912 21.00000000
1.315106 52.472070 -60.780771 21.00000000
-32.854950 69.373858 -10.467912 21.00000000
2.745777 50.248666 -4.267299 21.00000000
-31.902050 69.391079 -25.343651 21.00000000
1.885251 51.618477 -50.500158 21.00000000
-0.224322 54.539782 -25.182746 21.00000000
-5.981886 60.349655 0.887309 21.00000000
-28.254515 69.292519 1.052542 21.00000000
-19.725955 67.705174 -10.585866 21.00000000
-8.768883 62.451810 -48.903939 21.00000000
-13.167792 65.070048 -9.894047 21.00000000
8.169739 35.904170 -36.152484 21.00000000
5.358164 45.091563 -46.424771 21.00000000
4.654932 46.742184 -27.409073 21.00000000
6.214951 42.868853 -52.776462 21.00000000
6.617779 41.668099 -44.603834 21.00000000
-0.278467 54.612508 -41.042491 21.00000000
6.991670 40.453369 -31.058176 21.00000000
-0.933174 55.372712 -7.870243 21.00000000
-23.194770 68.589073 -9.500391 21.00000000
-3.187215 57.816482 -34.438027 21.00000000
5.538884 44.667377 -44.025859 21.00000000
0.535579 53.519107 -4.699149 21.00000000
-10.182169 63.385968 -31.661586 21.00000000
-27.148401 69.220515 -24.121516 21.00000000
-20.269534 67.872263 -7.370117 21.00000000
-16.571226 66.604509 -48.406578 21.00000000
-23.235894 68.598232 -15.524290 21.00000000
-20.547115 67.957589 -4.904428 21.00000000
7.134075 39.903464 -39.671979 21.00000000
-21.050898 68.111583 -19.927861 21.00000000
-20.454130 67.929006 -41.997657 21.00000000
-2.212469 56.834100 -35.332481 21.00000000
-17.841671 67.107945 -32.797444 21.00000000
-11.399853 64.108336 -31.279084 21.00000000
-7.324539 61.432591 -4.623880 21.00000000
2.796506 50.167914 -5.828735 21.00000000
-31.255387 69.402765 -39.925004 21.00000000
-32.192350 69.385832 -36.914286 21.00000000
7.792427 37.361189 -34.828424 21.00000000
-16.368846 66.524312 -15.032244 21.00000000
-29.672265 69.379086 -4.027962 21.00000000
-2.666538 57.308902 -56.544916 21.00000000
-26.026294 69.062308 -14.807728 21.00000000
-1.151825 55.622486 -29.303339 21.00000000
8.571988 34.350854 2.267910 21.00000000
-0.496595 54.873991 -57.388253 21.00000000
-3.991847 58.600876 -33.456386 21.00000000
-9.073492 62.666761 -35.745298 21.00000000
-2.429662 57.077984 -42.734244 21.00000000
2.147039 51.201755 -53.789217 21.00000000
1.472281 52.260957 -35.536594 21.00000000
4.607747 46.833578 -59.599603 21.00000000
-11.848867 64.374705 -55.816312 21.00000000
-30.179987 69.410087 -51.166693 21.00000000
0.632968 53.388296 -10.078532 21.00000000
-28.204282 69.289452 -1.957509 21.00000000
-7.692674 61.692370 3.737716 21.00000000
-10.229248 63.413897 -26.045093 21.00000000
7.656795 37.884939 -43.513746 21.00000000
7.193954 39.672234 -31.272425 21.00000000
-22.072730 68.339169 -11.859923 21.00000000
6.092623 43.233490 -35.645617 21.00000000
6.016061 43.461704 -40.513000 21.00000000
-0.168697 54.465068 -32.280247 21.00000000
7.718474 37.646763 -17.139053 21.00000000
-10.555420 63.607392 -35.509893 21.00000000
7.542813 38.325091 -31.741913 21.00000000
-23.012772 68.548538 -12.622357 21.00000000
1.232986 52.582370 -38.247748 21.00000000
-6.092560 60.441669 -32.367848 21.00000000
-10.343051 63.481408 -51.745040 21.00000000
8.246996 35.605834 -4.934107 21.00000000
4.968567 46.006023 -8.734791 21.00000000
-0.477604 54.852297 -5.364712 21.00000000
-13.422561 65.195123 -45.400331 21.00000000
-3.437102 58.060084 -15.577298 21.00000000
-17.885615 67.125359 -37.286257 21.00000000
7.527213 38.385330 -4.214818 21.00000000
-5.340456 59.816374 -6.014535 21.00000000
0.984285 52.916419 -5.169808 21.00000000
-17.659748 67.035855 -10.121787 21.00000000
1.440117 52.304158 -10.324564 21.00000000
2.490557 50.654933 -27.529416 21.00000000
-1.667105 56.211109 -42.948519 21.00000000
-3.130856 57.761541 -22.061228 21.00000000
2.890046 50.019014 -13.421022 21.00000000
-5.578611 60.014374 -24.518464 21.00000000
-19.960803 67.777363 1.240107 21.00000000
-24.820067 68.892242 -59.656315 21.00000000
5.116920 45.657808 -13.482105 21.00000000
-11.657555 64.261213 -14.968957 21.00000000
5.014499 45.898211 -7.254089 21.00000000
-16.509339 66.579985 -11.979026 21.00000000
8.238227 35.639696 -50.440299 21.00000000
-12.234916 64.603721 -14.442064 21.00000000
-4.934631 59.478974 -55.160431 21.00000000
6.599357 41.723011 -55.967879 21.00000000
-17.113998 66.819592 -42.230586 21.00000000
-0.362028 54.720271 -59.670839 21.00000000
5.269822 45.298917 -3.926791 21.00000000
8.559508 34.399049 -24.728950 21.00000000
-2.501656 57.148168 -50.215207 21.00000000
-4.997549 59.531284 -7.617391 21.00000000
7.843660 37.163347 -45.826126 21.00000000
7.203521 39.635291 -23.924878 21.00000000
-16.273935 66.486702 -11.089430 21.00000000
5.936234 43.699653 -5.859339 21.00000000
-4.614780 59.208140 1.695213 21.00000000
7.139010 39.884404 -4.709176 21.00000000
-8.273337 62.102122 -32.507840 21.00000000
1.420690 52.330252 -25.060116 21.00000000
2.000200 51.435499 -36.824007 21.00000000
-19.146183 67.526958 -19.229942 21.00000000
-24.480298 68.844337 -40.915493 21.00000000
-28.352802 69.298521 -40.318153 21.00000000
-16.532175 66.589034 -58.815852 21.00000000
-28.942199 69.334509 -54.086842 21.00000000
-1.792668 56.354544 -32.602044 21.00000000
-2.000369 56.591810 -11.647648 21.00000000
-9.400355 62.897416 0.363205 21.00000000
5.255317 45.332964 -5.047912 21.00000000
6.067764 43.307588 -32.666501 21.00000000
8.145613 35.997333 -43.114154 21.00000000
-13.811140 65.385892 -5.322332 21.00000000
8.094130 36.196138 -52.870770 21.00000000
6.053114 43.351258 -44.988130 21.00000000
-28.760745 69.323429 -6.222539 21.00000000
-15.426043 66.150710 -19.097667 21.00000000
-6.703285 60.949422 -46.502122 21.00000000
7.758301 37.492969 -49.895571 21.00000000
4.200954 47.611457 0.985684 21.00000000
8.346678 35.220908 -5.982605 21.00000000
-1.986860 56.576378 -54.284191 21.00000000
-8.842699 62.503899 -3.474372 21.00000000
-12.315155 64.651321 -18.628865 21.00000000
2.692156 50.334021 2.345381 21.00000000
-4.329220 58.929762 -8.993146 21.00000000
-10.084292 63.327905 -42.135249 21.00000000
6.604474 41.707760 -4.106957 21.00000000
1.512955 52.206324 0.291597 21.00000000
-18.693230 67.387726 -12.023607 21.00000000
-11.658365 64.261693 -47.232037 21.00000000
-2.044785 56.642547 -58.444895 21.00000000
3.446865 49.053446 -55.914716 21.00000000
7.926872 36.842019 -35.638487 21.00000000
-8.120187 61.994050 -53.898077 21.00000000
-0.192115 54.496523 0.958601 21.00000000
3.818305 48.343169 -30.937302 21.00000000
-27.361633 69.238001 -43.384808 21.00000000
-21.927964 68.306926 -17.098711 21.00000000
1.005019 52.888569 -56.273996 21.00000000
-10.646353 63.661337 -34.194578 21.00000000
0.256397 53.894095 0.525328 21.00000000
6.938841 40.657373 -12.054115 21.00000000
-13.816695 65.388619 1.729253 21.00000000
1.885026 51.618836 -45.131489 21.00000000
-7.032988 61.223535 -28.236531 21.00000000
-31.636128 69.395884 -22.898552 21.00000000
-12.512940 64.748556 -12.656028 21.00000000
-7.321302 61.430307 -58.219326 21.00000000
-19.018941 67.487846 -34.989061 21.00000000
-7.366790 61.462406 -47.089946 21.00000000
7.013840 40.367759 -1.821376 21.00000000
-8.101605 61.980937 -20.398072 21.00000000
-22.531807 68.441416 -37.144227 21.00000000
0.138341 54.052664 -53.752883 21.00000000
-3.710727 58.326827 -46.579764 21.00000000
-23.725660 68.707314 -38.347119 21.00000000
-29.749777 69.383818 -60.507126 21.00000000
3.037134 49.784875 2.979273 21.00000000
-24.577786 68.858082 3.050050 21.00000000
-25.862471 69.039211 -20.668291 21.00000000
-0.210635 54.521398 -43.703062 21.00000000
-5.983870 60.351305 -17.314523 21.00000000
-2.209613 56.830837 -2.047871 21.00000000
-21.375251 68.183824 -27.757152 21.00000000
-19.404100 67.606239 -39.310057 21.00000000
-1.652080 56.193946 -56.417485 21.00000000
-10.800045 63.752511 -43.298030 21.00000000
-33.186414 69.367867 -15.443040 21.00000000
-21.029696 68.105928 -34.735185 21.00000000
-24.116065 68.792984 -42.421397 21.00000000
-0.154977 54.446640 -19.089515 21.00000000
-8.962524 62.588455 -7.679262 21.00000000
-32.320826 69.383510 -7.404756 21.00000000
-19.888129 67.755024 -31.716702 21.00000000
-8.228003 62.070132 -27.033295 21.00000000
-15.233100 66.074253 -26.341526 21.00000000
2.661411 50.382962 -40.096842 21.00000000
-17.351186 66.913582 -0.145991 21.00000000
-20.296265 67.880480 -17.805893 21.00000000
6.343414 42.485929 -33.271274 21.00000000
-25.073485 68.927971 -48.077197 21.00000000
7.632664 37.978124 -28.305462 21.00000000
5.236772 45.376493 -38.662203 21.00000000
-26.951010 69.192684 -44.595053 21.00000000
0.442480 53.644154 -50.006417 21.00000000
8.151985 35.972729 -2.094536 21.00000000
4.618063 46.813851 -31.156884 21.00000000
-17.907770 67.134138 -6.885467 21.00000000
6.647816 41.578565 -17.246107 21.00000000
-5.912311 60.291811 -15.929237 21.00000000
8.164521 35.924319 0.638658 21.00000000
-4.668572 59.257774 -25.661544 21.00000000
0.904701 53.023313 -9.337343 21.00000000
-26.476291 69.125753 -24.795526 21.00000000
-23.909474 68.748254 -8.706119 21.00000000
4.472296 47.092591 2.855014 21.00000000
-18.360028 67.285303 -8.145676 21.00000000
6.163247 43.022972 -10.284656 21.00000000
-21.138904 68.131184 -38.307440 21.00000000
-14.285762 65.618902 -13.773651 21.00000000
-33.183239 69.367925 -49.024561 21.00000000
-32.111765 69.387289 -33.668051 21.00000000
-12.372598 64.679657 -1.436694 21.00000000
5.194109 45.476631 -43.092064 21.00000000
-6.446115 60.735612 -38.331276 21.00000000
-32.092256 69.387641 -50.736147 21.00000000
-24.557096 68.855165 -16.661788 21.00000000
-12.138864 64.546740 -54.088316 21.00000000
5.832126 43.979082 -6.589993 21.00000000
-16.422318 66.545502 -55.877524 21.00000000
-24.495465 68.846476 -28.695228 21.00000000
-4.300559 58.901823 -6.721841 21.00000000
8.231004 35.667590 2.943307 21.00000000
8.169325 35.905767 -38.396396 21.00000000
7.692151 37.748410 -34.157520 21.00000000
-26.708706 69.158522 -36.964039 21.00000000
-33.211264 69.367418 -37.384633 21.00000000
4.519039 47.003208 -16.666542 21.00000000
-9.508651 62.973836 -59.303341 21.00000000
-23.140968 68.577090 -39.949461 21.00000000
-16.770097 66.683315 -34.689943 21.00000000
-21.355382 68.179399 -28.718680 21.00000000
-7.842224 61.797902 -35.138395 21.00000000
6.930171 40.690851 -56.087727 21.00000000
-32.909800 69.372866 -45.143469 21.00000000
-25.305537 68.960688 2.405766 21.00000000
-2.361656 57.004521 -33.506147 21.00000000
-26.985130 69.197495 -17.880150 21.00000000
-12.320437 64.654048 -40.493180 21.00000000
-20.419976 67.918507 -34.032092 21.00000000
1.130193 52.720439 -40.241958 21.00000000
-16.046074 66.396408 -26.242791 21.00000000
-19.708271 67.699738 -29.522071 21.00000000
-28.335009 69.297434 -45.562781 21.00000000
-18.650336 67.374541 -39.480514 21.00000000
0.909432 53.016959 -27.241498 21.00000000
4.154712 47.699884 -19.253595 21.00000000
-20.937439 68.077569 -59.538031 21.00000000
-9.186958 62.746830 -19.587712 21.00000000
-8.135098 62.004572 -26.209115 21.00000000
-4.484188 59.080833 -59.239597 21.00000000
-2.503024 57.149500 -41.908545 21.00000000
-32.538784 69.379571 -51.438252 21.00000000
-26.362527 69.109714 -56.019541 21.00000000
5.384704 45.029269 2.501084 21.00000000
8.274619 35.499168 -27.431963 21.00000000
-11.362213 64.086007 -54.416783 21.00000000
-25.066763 68.927023 -55.163131 21.00000000
0.214017 53.951018 -59.794907 21.00000000
-21.780798 68.274149 -46.083934 21.00000000
-8.706641 62.407888 -14.891278 21.00000000
-30.525914 69.415948 -29.635777 21.00000000
8.265713 35.533559 -45.515900 21.00000000
0.282535 53.858987 -32.733169 21.00000000
-15.285176 66.094889 -53.280240 21.00000000
-32.440703 69.381344 -58.737224 21.00000000
-20.241204 67.863555 -11.393251 21.00000000
8.520223 34.550748 -31.403145 21.00000000
7.093232 40.061179 -36.004566 21.00000000
4.866717 46.245083 3.178330 21.00000000
-9.781975 63.148561 -54.291581 21.00000000
-30.184514 69.410363 -26.204118 21.00000000
4.307180 47.408330 -34.946771 21.00000000
-16.997521 66.773436 -56.872024 21.00000000
2.828782 50.116536 -31.529254 21.00000000
2.516826 50.613117 -35.013229 21.00000000
2.502416 50.636056 -57.396728 21.00000000
3.439815 49.066927 -30.738834 21.00000000
-1.072284 55.531623 -0.485210 21.00000000
-7.901133 61.839472 -37.102803 21.00000000
-15.972072 66.367083 -6.107139 21.00000000
-11.208894 63.995053 -11.347722 21.00000000
-17.413659 66.938338 -36.706039 21.00000000
3.689982 48.588551 -32.173728 21.00000000
8.177780 35.873117 -53.578010 21.00000000
-21.899334 68.300549 -57.001037 21.00000000
-24.945341 68.909904 -40.263262 21.00000000
7.546408 38.311207 -27.582913 21.00000000
7.572026 38.212284 -36.763059 21.00000000
-33.169530 69.368172 -60.849482 21.00000000
-18.929054 67.460215 -57.118190 21.00000000
0.939355 52.976767 -35.042784 21.00000000
-0.134145 54.418659 -10.506076 21.00000000
-6.181396 60.515527 -22.557874 21.00000000
3.489911 48.971132 -19.768883 21.00000000
-5.235600 59.729198 -51.074884 21.00000000
-14.839656 65.890830 -25.694571 21.00000000
6.077618 43.278216 -24.837808 21.00000000
2.411729 50.780414 -20.943840 21.00000000
4.110198 47.785004 -43.590726 21.00000000
-28.534073 69.309589 -22.390432 21.00000000
3.676825 48.613710 -25.841217 21.00000000
-28.472926 69.305855 -33.822887 21.00000000
-3.093970 57.725582 -57.373610 21.00000000
-1.180861 55.655654 -4.112546 21.00000000
-7.770277 61.747131 -2.777109 21.00000000
-32.310386 69.383699 0.959776 21.00000000
-22.995981 68.544798 -21.349449 21.00000000
0.920402 53.002224 -39.226456 21.00000000
-6.871441 61.089226 -56.688893 21.00000000
-23.713632 68.704635 -55.305003 21.00000000
-16.560991 66.600453 -49.482043 21.00000000
-21.847164 68.288930 -48.846579 21.00000000
-27.821926 69.266106 -19.894974 21.00000000
7.485855 38.545037 -54.969436 21.00000000
3.618848 48.724575 -33.047654 21.00000000
-25.254623 68.953510 -51.424882 21.00000000
0.033107 54.194011 -52.012102 21.00000000
-12.100953 64.524250 -7.706636 21.00000000
-1.169948 55.643188 -39.136227 21.00000000
6.292553 42.637537 -44.274428 21.00000000
-5.617403 60.046627 -29.023287 21.00000000
2.319149 50.927786 -54.759133 21.00000000
-5.759899 60.165097 -53.918253 21.00000000
-27.185676 69.225770 -26.152459 21.00000000
7.772629 37.437641 2.800383 21.00000000
7.139460 39.882667 -26.397651 21.00000000
-6.352603 60.657867 -18.787489 21.00000000
-30.911520 69.408980 -52.285942 21.00000000
-5.029156 59.557561 -23.995364 21.00000000
7.285203 39.319869 -59.934404 21.00000000
-28.003090 69.277168 -49.805549 21.00000000
0.064306 54.152106 -24.444833 21.00000000
-5.240590 59.733346 -37.661408 21.00000000
