5.276026 34.094523 -49.509109 26.00000000
1.845020 33.856174 -20.522942 26.00000000
2.865468 33.927063 3.738628 26.00000000
1.997034 33.866734 -18.946708 26.00000000
8.552597 34.322144 -21.926112 26.00000000
1.995818 33.866649 -47.422801 26.00000000
5.214230 34.090230 -1.136976 26.00000000
5.550253 34.113573 -50.927477 26.00000000
8.456868 34.315494 -29.160527 26.00000000
4.130382 34.014936 -27.016393 26.00000000
3.326657 33.959102 -7.362894 26.00000000
4.629387 34.049601 3.621425 26.00000000
1.908839 33.860607 -55.562528 26.00000000
1.086808 33.803501 -50.410361 26.00000000
8.499356 34.318445 -13.015240 26.00000000
7.543676 34.252055 -8.025672 26.00000000
7.360106 34.239303 -39.251228 26.00000000
7.574487 34.254195 -49.117643 26.00000000
4.991617 34.074765 -16.774561 26.00000000
5.614645 34.118047 -55.930881 26.00000000
1.157141 33.808387 -34.539117 26.00000000
5.415161 34.104189 -16.225061 26.00000000
3.874439 33.997156 0.778458 26.00000000
4.205758 34.020172 -29.678611 26.00000000
2.328211 33.889741 -18.325523 26.00000000
1.098974 33.804346 -2.568397 26.00000000
8.004400 34.284061 -46.618165 26.00000000
3.588027 33.977259 -18.611278 26.00000000
7.426610 34.243922 -53.337166 26.00000000
8.122522 34.292267 -32.486078 26.00000000
6.388315 34.171793 -46.099409 26.00000000
4.198646 34.019678 -33.770789 26.00000000
7.406917 34.242554 -57.431985 26.00000000
2.393582 33.894282 -3.572167 26.00000000
7.182561 34.226969 -9.562092 26.00000000
3.054221 33.940176 -50.246263 26.00000000
2.729051 33.917587 -28.471939 26.00000000
7.499249 34.248969 -58.034621 26.00000000
4.105408 34.013201 -46.017518 26.00000000
4.182782 34.018576 -5.513081 26.00000000
3.650045 33.981567 -11.124131 26.00000000
4.360613 34.030930 -39.745911 26.00000000
1.671546 33.844122 -30.876661 26.00000000
3.093104 33.942877 -34.041906 26.00000000
5.054508 34.079134 1.190143 26.00000000
7.230275 34.230283 -21.469105 26.00000000
7.169773 34.226080 -2.335300 26.00000000
2.721531 33.917064 -21.124850 26.00000000
8.462726 34.315901 -29.907938 26.00000000
1.883727 33.858863 -22.197393 26.00000000
5.599873 34.117020 -32.727911 26.00000000
7.649213 34.259387 -59.689408 26.00000000
2.368619 33.892548 -21.746811 26.00000000
6.385125 34.171571 -37.586956 26.00000000
7.984984 34.282712 -60.283211 26.00000000
8.508163 34.319057 -17.194302 26.00000000
3.526639 33.972994 -40.285093 26.00000000
7.846723 34.273107 -26.774641 26.00000000
4.614323 34.048555 -16.245244 26.00000000
2.267507 33.885523 -40.026247 26.00000000
3.762716 33.989395 -56.201702 26.00000000
4.826536 34.063297 -19.832334 26.00000000
2.281952 33.886527 -31.182134 26.00000000
4.880250 34.067029 -23.806291 26.00000000
7.219627 34.229544 -50.976220 26.00000000
2.091148 33.873272 -21.051586 26.00000000
1.036197 33.799985 -12.386875 26.00000000
8.112201 34.291550 3.072960 26.00000000
2.872045 33.927520 -0.618488 26.00000000
4.861401 34.065719 -15.092737 26.00000000
1.852844 33.856717 -44.979753 26.00000000
8.231469 34.299835 -20.267027 26.00000000
2.633200 33.910928 -50.757384 26.00000000
0.971903 33.795519 -41.308519 26.00000000
3.626061 33.979901 -33.645131 26.00000000
6.989201 34.213536 -38.654207 26.00000000
2.626268 33.910446 2.271259 26.00000000
4.804627 34.061775 -32.351616 26.00000000
3.442399 33.967142 -25.189648 26.00000000
7.828912 34.271870 -48.059505 26.00000000
7.934757 34.279223 -55.292117 26.00000000
3.764117 33.989492 -38.611099 26.00000000
1.082635 33.803211 -33.463839 26.00000000
7.674640 34.261153 -47.183591 26.00000000
1.745136 33.849235 1.068887 26.00000000
6.787129 34.199498 -42.718159 26.00000000
7.725266 34.264670 -5.059020 26.00000000
8.457761 34.315556 -48.812652 26.00000000
7.928295 34.278774 -8.612339 26.00000000
7.601250 34.256055 -16.590407 26.00000000
0.939768 33.793286 1.967452 26.00000000
8.375786 34.309861 -58.778445 26.00000000
3.951772 34.002528 -42.535749 26.00000000
7.021554 34.215784 -1.458436 26.00000000
7.849657 34.273311 -2.345202 26.00000000
3.587811 33.977244 -21.871990 26.00000000
4.819907 34.062837 -3.452900 26.00000000
3.613863 33.979054 -4.397196 26.00000000
1.512205 33.833053 2.349499 26.00000000
6.062077 34.149129 -18.203895 26.00000000
2.434212 33.897104 -1.657967 26.00000000
2.359974 33.891947 -60.873097 26.00000000
4.145138 34.015961 -14.591722 26.00000000
4.358824 34.030806 -57.757756 26.00000000
8.395824 34.311253 -1.843296 26.00000000
2.636522 33.911159 -26.206914 26.00000000
7.546964 34.252283 -32.402351 26.00000000
3.653489 33.981807 -39.733238 26.00000000
5.626091 34.118842 -12.531324 26.00000000
8.533433 34.320813 -31.910558 26.00000000
5.553322 34.113787 -21.385650 26.00000000
6.523349 34.181174 -46.666707 26.00000000
5.080522 34.080942 -18.787910 26.00000000
6.481400 34.178259 -53.452631 26.00000000
3.553730 33.974876 -50.882584 26.00000000
3.765549 33.989591 -59.285713 26.00000000
4.961378 34.072665 -37.905548 26.00000000
5.069625 34.080184 -50.370779 26.00000000
3.256936 33.954258 -51.474100 26.00000000
1.938844 33.862691 -7.877294 26.00000000
0.930406 33.792636 -49.185474 26.00000000
3.225129 33.952049 -13.700082 26.00000000
5.511660 34.110892 -28.047107 26.00000000
6.441532 34.175490 -12.072252 26.00000000
7.754455 34.266698 -27.969829 26.00000000
3.974045 34.004075 -34.594597 26.00000000
2.938919 33.932166 -17.143496 26.00000000
4.424547 34.035371 -21.979522 26.00000000
3.368664 33.962020 -2.002005 26.00000000
3.847910 33.995313 -17.000058 26.00000000
7.262974 34.232555 -54.559798 26.00000000
2.781966 33.921263 -34.525383 26.00000000
2.558084 33.905710 -2.757529 26.00000000
6.768080 34.198175 -11.008236 26.00000000
7.278805 34.233655 -35.497866 26.00000000
1.565892 33.836783 -35.784112 26.00000000
7.282531 34.233913 -23.201322 26.00000000
6.035687 34.147296 -40.742422 26.00000000
4.557618 34.044616 -56.434564 26.00000000
1.667088 33.843813 -10.340102 26.00000000
4.602266 34.047717 -22.678283 26.00000000
3.823307 33.993604 -8.584353 26.00000000
7.681809 34.261651 -50.499227 26.00000000
5.725094 34.125719 -18.732281 26.00000000
5.379330 34.101699 -2.759829 26.00000000
1.589135 33.838397 -59.250466 26.00000000
4.368341 34.031467 1.314561 26.00000000
3.769746 33.989883 -16.152240 26.00000000
6.582064 34.185253 -59.710292 26.00000000
4.659126 34.051667 -61.038062 26.00000000
2.514634 33.902691 -39.414783 26.00000000
4.520492 34.042037 -0.663343 26.00000000
3.588631 33.977301 -45.689107 26.00000000
7.872507 34.274899 -14.902026 26.00000000
6.836307 34.202915 -7.232828 26.00000000
5.886347 34.136922 -49.372401 26.00000000
4.195893 34.019487 -55.646354 26.00000000
6.006017 34.145235 -1.346648 26.00000000
1.007139 33.797967 -18.851907 26.00000000
4.224212 34.021454 -11.335263 26.00000000
5.268613 34.094008 -35.270201 26.00000000
2.397430 33.894549 -37.042319 26.00000000
8.424142 34.313220 -28.336636 26.00000000
1.596879 33.838935 -12.559086 26.00000000
6.999264 34.214235 -6.610745 26.00000000
4.422044 34.035197 -41.230864 26.00000000
6.451363 34.176173 -42.193887 26.00000000
1.072710 33.802522 -16.384956 26.00000000
4.207242 34.020275 -9.348153 26.00000000
6.416266 34.173735 -38.736838 26.00000000
5.690581 34.123322 -23.281207 26.00000000
3.395849 33.963909 -14.634654 26.00000000
7.086394 34.220288 -2.898041 26.00000000
2.425197 33.896478 -10.051360 26.00000000
6.657039 34.190461 -9.330813 26.00000000
6.302419 34.165826 -25.473416 26.00000000
7.842018 34.272781 -35.314860 26.00000000
6.634542 34.188898 -8.311064 26.00000000
3.638963 33.980797 -55.292006 26.00000000
5.847424 34.134218 -30.963039 26.00000000
5.589032 34.116267 -19.318381 26.00000000
3.437809 33.966823 -0.171488 26.00000000
4.857453 34.065445 -29.703179 26.00000000
3.486416 33.970200 -52.123068 26.00000000
4.854181 34.065218 -0.140144 26.00000000
6.878888 34.205873 -51.445358 26.00000000
3.213892 33.951268 0.775738 26.00000000
3.002326 33.936571 -27.372214 26.00000000
3.935850 34.001422 -29.127585 26.00000000
5.386885 34.102224 -55.326942 26.00000000
1.412899 33.826154 -47.890926 26.00000000
4.743235 34.057510 -6.497960 26.00000000
1.864227 33.857508 -26.208544 26.00000000
5.856995 34.134882 2.047306 26.00000000
4.145513 34.015987 -49.642925 26.00000000
3.781829 33.990722 -9.724466 26.00000000
5.993076 34.144336 -36.310150 26.00000000
7.719146 34.264245 -20.025328 26.00000000
8.230464 34.299766 -59.758618 26.00000000
3.369391 33.962070 -16.632559 26.00000000
2.628249 33.910584 -38.680967 26.00000000
0.975463 33.795766 -32.292992 26.00000000
0.942137 33.793451 -31.543104 26.00000000
3.088897 33.942585 -57.373387 26.00000000
5.926054 34.139680 -26.676530 26.00000000
4.274793 34.024968 -38.986922 26.00000000
6.942995 34.210326 -27.686378 26.00000000
5.120825 34.083741 -59.940003 26.00000000
6.942450 34.210288 -54.032734 26.00000000
8.437642 34.314158 -40.066285 26.00000000
4.136670 34.015373 -27.633160 26.00000000
2.628941 33.910632 -56.954933 26.00000000
1.529360 33.834245 -36.337718 26.00000000
6.663673 34.190922 -5.219042 26.00000000
5.830331 34.133030 -14.983098 26.00000000
1.626411 33.840987 -13.689319 26.00000000
1.918760 33.861296 -27.299859 26.00000000
4.760062 34.058679 -30.861217 26.00000000
4.244634 34.022873 -15.668041 26.00000000
5.751292 34.127539 -10.421072 26.00000000
0.955803 33.794400 -34.004409 26.00000000
7.151501 34.224811 -5.533156 26.00000000
8.466820 34.316185 -5.639031 26.00000000
2.264426 33.885309 -40.644214 26.00000000
6.398683 34.172513 -56.666995 26.00000000
5.687486 34.123107 -54.238124 26.00000000
2.541627 33.904566 -19.571296 26.00000000
4.890336 34.067729 -39.374072 26.00000000
2.128585 33.875873 -30.443178 26.00000000
1.348413 33.821675 1.578210 26.00000000
7.893961 34.276389 -31.105145 26.00000000
4.355698 34.030589 -54.861881 26.00000000
4.374199 34.031874 -38.335918 26.00000000
5.850491 34.134431 -17.692824 26.00000000
4.104841 34.013162 -10.752851 26.00000000
3.645562 33.981256 3.439649 26.00000000
4.915832 34.069501 -5.902673 26.00000000
3.629214 33.980120 -20.826454 26.00000000
1.798311 33.852929 -15.271072 26.00000000
7.984698 34.282692 -25.344293 26.00000000
3.569653 33.975983 -36.670967 26.00000000
2.794633 33.922142 -6.121302 26.00000000
7.987389 34.282879 -39.133319 26.00000000
6.799030 34.200325 -33.771092 26.00000000
6.354115 34.169417 -27.902930 26.00000000
8.358443 34.308656 -49.788537 26.00000000
1.577810 33.837611 -53.068523 26.00000000
2.961643 33.933745 -9.630381 26.00000000
5.267230 34.093912 -25.456372 26.00000000
6.590406 34.185832 -38.180691 26.00000000
6.867083 34.205053 -43.255545 26.00000000
4.948512 34.071771 -58.780684 26.00000000
8.556697 34.322429 -4.843088 26.00000000
4.948697 34.071784 -55.804776 26.00000000
1.508940 33.832826 -17.491357 26.00000000
4.520186 34.042015 -23.345781 26.00000000
7.300983 34.235195 -56.564316 26.00000000
5.739050 34.126689 -39.561890 26.00000000
0.917333 33.791728 -27.462334 26.00000000
2.588249 33.907805 -35.415418 26.00000000
7.596092 34.255696 -6.615240 26.00000000
6.557273 34.183530 -2.691630 26.00000000
1.106839 33.804893 -10.010180 26.00000000
7.347688 34.238440 -45.613232 26.00000000
4.823250 34.063069 -36.516544 26.00000000
7.166687 34.225866 0.719438 26.00000000
5.557175 34.114054 -44.844575 26.00000000
3.665280 33.982626 -31.264424 26.00000000
7.778228 34.268349 -30.531748 26.00000000
1.588821 33.838376 -24.133234 26.00000000
2.608362 33.909202 -23.762527 26.00000000
5.574941 34.115288 -31.442127 26.00000000
1.101524 33.804524 -21.826506 26.00000000
6.952265 34.210970 -57.916215 26.00000000
2.394832 33.894369 -20.393941 26.00000000
1.045207 33.800611 -11.373238 26.00000000
8.547612 34.321798 -44.374825 26.00000000
1.795544 33.852737 -60.286179 26.00000000
4.403235 34.033891 -7.519368 26.00000000
8.567792 34.323200 -6.793552 26.00000000
2.624123 33.910297 -22.509822 26.00000000
1.884834 33.858939 -56.176891 26.00000000
2.330786 33.889919 3.844226 26.00000000
6.386830 34.171690 -11.426115 26.00000000
5.441839 34.106042 -9.653132 26.00000000
4.863721 34.065881 -14.495164 26.00000000
5.039773 34.078111 -57.091896 26.00000000
4.703714 34.054765 -25.424510 26.00000000
6.717909 34.194690 -55.517748 26.00000000
6.570435 34.184445 -19.732923 26.00000000
2.270638 33.885741 -9.244862 26.00000000
5.090759 34.081653 -21.040836 26.00000000
8.509604 34.319157 -9.961580 26.00000000
7.329263 34.237160 -20.798051 26.00000000
8.273409 34.302749 1.520463 26.00000000
1.154552 33.808207 -43.717808 26.00000000
3.317443 33.958462 -18.049524 26.00000000
1.119159 33.805749 -20.236516 26.00000000
2.887183 33.928572 -58.675042 26.00000000
5.748864 34.127371 -11.948303 26.00000000
3.946364 34.002152 -35.211137 26.00000000
1.655927 33.843037 -33.263428 26.00000000
7.887412 34.275934 -34.143412 26.00000000
6.551466 34.183127 -28.565528 26.00000000
1.522067 33.833738 -8.276315 26.00000000
3.145898 33.946545 -11.579883 26.00000000
1.086541 33.803483 -23.344710 26.00000000
7.038436 34.216956 -41.696527 26.00000000
4.280359 34.025355 -54.280454 26.00000000
8.190396 34.296982 -60.930570 26.00000000
0.934887 33.792947 -41.897711 26.00000000
6.966155 34.211935 -61.012573 26.00000000
3.053125 33.940100 -13.048232 26.00000000
4.661476 34.051831 -46.751320 26.00000000
6.009718 34.145492 -13.022962 26.00000000
2.584376 33.907536 -19.015549 26.00000000
8.333221 34.306904 -47.164723 26.00000000
3.586616 33.977161 -59.979001 26.00000000
3.404723 33.964525 -44.206912 26.00000000
7.022522 34.215851 -44.474141 26.00000000
5.978809 34.143345 -29.715648 26.00000000
5.762231 34.128299 -11.283782 26.00000000
8.305648 34.304989 -11.796867 26.00000000
2.936825 33.932020 -22.030555 26.00000000
3.345271 33.960395 -49.224453 26.00000000
5.808002 34.131479 -4.355944 26.00000000
5.489400 34.109346 -15.578110 26.00000000
8.347624 34.307905 -27.170220 26.00000000
1.116561 33.805568 -32.875150 26.00000000
3.123050 33.944957 -39.080161 26.00000000
7.720287 34.264324 -11.830663 26.00000000
4.551322 34.044178 -53.217826 26.00000000
2.845179 33.925654 -29.173276 26.00000000
7.770591 34.267819 -1.654844 26.00000000
1.056920 33.801425 -1.887453 26.00000000
1.559094 33.836311 -46.850783 26.00000000
2.168866 33.878671 -53.066507 26.00000000
5.663126 34.121415 -4.994698 26.00000000
1.148609 33.807794 -3.357293 26.00000000
7.829561 34.271915 -19.110677 26.00000000
5.038902 34.078050 -12.443188 26.00000000
2.662670 33.912975 -24.436086 26.00000000
1.620847 33.840600 -36.904943 26.00000000
1.473632 33.830374 -0.792226 26.00000000
1.874391 33.858214 -9.737441 26.00000000
8.417813 34.312781 -35.072207 26.00000000
0.982250 33.796238 -58.484806 26.00000000
4.326686 34.028573 -42.014142 26.00000000
6.843008 34.203380 -57.160008 26.00000000
3.601709 33.978209 -44.946472 26.00000000
4.640964 34.050406 -40.615635 26.00000000
6.489562 34.178826 -39.333703 26.00000000
4.062781 34.010240 -24.865406 26.00000000
4.230516 34.021892 -18.496951 26.00000000
7.250311 34.231675 -43.874389 26.00000000
4.427661 34.035588 -2.123249 26.00000000
5.514250 34.111072 -1.958978 26.00000000
3.880792 33.997597 -47.775499 26.00000000
7.341437 34.238006 -12.313925 26.00000000
7.348071 34.238466 -30.023965 26.00000000
0.998538 33.797369 -24.311974 26.00000000
3.319944 33.958635 -30.589488 26.00000000
7.457746 34.246085 -27.393992 26.00000000
6.442945 34.175588 -20.821485 26.00000000
8.177193 34.296065 -23.640247 26.00000000
5.078505 34.080801 -35.917455 26.00000000
3.779406 33.990554 -28.399220 26.00000000
6.846884 34.203649 -58.594923 26.00000000
7.185299 34.227159 -52.411546 26.00000000
3.171026 33.948290 -37.113578 26.00000000
3.604191 33.978382 -12.728701 26.00000000
5.285673 34.095193 -48.185380 26.00000000
2.555070 33.905500 -32.460473 26.00000000
7.794910 34.269508 -44.355933 26.00000000
3.982609 34.004670 -37.887753 26.00000000
1.060033 33.801641 -15.454510 26.00000000
2.126844 33.875752 -58.973929 26.00000000
0.948572 33.793898 -42.464022 26.00000000
5.120267 34.083703 -4.146642 26.00000000
7.010273 34.215000 -39.877460 26.00000000
4.994725 34.074981 -21.638056 26.00000000
4.041735 34.008778 -26.395688 26.00000000
5.600718 34.117079 -16.978466 26.00000000
4.345671 34.029892 -8.292168 26.00000000
2.528093 33.903626 -12.694560 26.00000000
5.542468 34.113033 -57.480421 26.00000000
3.727205 33.986928 -12.027720 26.00000000
3.995548 34.005569 -22.403339 26.00000000
2.757644 33.919573 -44.147896 26.00000000
3.586724 33.977168 -15.445600 26.00000000
4.900622 34.068444 -7.210983 26.00000000
6.351404 34.169229 -48.918064 26.00000000
2.621085 33.910086 0.437356 26.00000000
7.079495 34.219809 -12.853067 26.00000000
6.768513 34.198205 -13.819737 26.00000000
6.430304 34.174710 -59.116590 26.00000000
1.746950 33.849361 -0.152339 26.00000000
8.517655 34.319717 -17.898914 26.00000000
5.552646 34.113740 -58.693593 26.00000000
1.602193 33.839305 -45.637105 26.00000000
1.119333 33.805761 -3.928833 26.00000000
8.248976 34.301052 0.927528 26.00000000
4.120253 34.014232 -50.473736 26.00000000
2.529633 33.903733 -33.847350 26.00000000
3.450197 33.967684 -26.350456 26.00000000
7.504660 34.249345 -49.683334 26.00000000
4.991147 34.074733 -54.359097 26.00000000
2.750823 33.919099 -41.212282 26.00000000
6.331139 34.167821 -44.731718 26.00000000
7.681124 34.261603 -5.759626 26.00000000
2.279781 33.886376 -29.437025 26.00000000
4.044266 34.008954 -30.836607 26.00000000
2.547255 33.904957 -55.311930 26.00000000
3.797462 33.991808 -23.930545 26.00000000
3.587090 33.977194 -27.016508 26.00000000
1.799981 33.853045 -31.586448 26.00000000
7.479659 34.247608 -28.681297 26.00000000
7.579249 34.254526 -42.691103 26.00000000
6.505743 34.179951 -32.776691 26.00000000
3.481403 33.969852 -29.848444 26.00000000
2.359252 33.891897 -58.364795 26.00000000
7.582612 34.254760 -51.966629 26.00000000
8.146525 34.293934 -6.275980 26.00000000
8.546094 34.321692 -60.315602 26.00000000
4.468611 34.038433 -12.306206 26.00000000
5.650528 34.120539 -29.219332 26.00000000
3.137706 33.945976 -42.571444 26.00000000
7.005534 34.214671 -49.355787 26.00000000
2.790749 33.921873 -36.627533 26.00000000
2.527887 33.903612 -27.879624 26.00000000
1.757832 33.850117 -41.158925 26.00000000
7.093064 34.220751 -59.998055 26.00000000
1.619545 33.840510 -29.498339 26.00000000
3.552349 33.974780 -0.810232 26.00000000
3.958494 34.002995 -30.212142 26.00000000
8.231393 34.299830 -7.489439 26.00000000
6.151750 34.155359 -10.888390 26.00000000
7.604197 34.256259 3.317732 26.00000000
5.809612 34.131591 -35.586240 26.00000000
8.482614 34.317282 -31.231179 26.00000000
2.141575 33.876775 -0.829463 26.00000000
6.737326 34.196038 -36.595860 26.00000000
1.640797 33.841986 -27.885492 26.00000000
7.760314 34.267105 -43.403825 26.00000000
2.264468 33.885312 -48.833244 26.00000000
3.259311 33.954423 -28.631231 26.00000000
8.057406 34.287743 -24.537239 26.00000000
3.230750 33.952439 -55.809607 26.00000000
3.844207 33.995056 -53.630991 26.00000000
0.925398 33.792288 -14.585301 26.00000000
1.928837 33.861996 0.397378 26.00000000
7.676112 34.261255 -0.924500 26.00000000
3.093843 33.942928 -36.070429 26.00000000
1.698044 33.845963 3.434269 26.00000000
2.230169 33.882930 -13.305211 26.00000000
2.054844 33.870750 -14.735790 26.00000000
4.466151 34.038262 -47.999070 26.00000000
6.323898 34.167318 -29.166244 26.00000000
5.628695 34.119023 -37.267945 26.00000000
8.423817 34.313198 -18.675240 26.00000000
3.479931 33.969750 -27.744384 26.00000000
8.062738 34.288114 -41.551785 26.00000000
8.572758 34.323544 3.635557 26.00000000
4.288665 34.025932 -28.663426 26.00000000
5.194056 34.088829 -17.441929 26.00000000
4.677387 34.052936 1.814776 26.00000000
1.367211 33.822981 -21.231561 26.00000000
6.944566 34.210435 -35.011601 26.00000000
7.728902 34.264922 -32.974819 26.00000000
5.590392 34.116362 -7.545170 26.00000000
3.451795 33.967795 -43.476427 26.00000000
5.577637 34.115476 -5.875447 26.00000000
5.607648 34.117561 -30.311676 26.00000000
1.734635 33.848505 -39.326453 26.00000000
6.028084 34.146768 -55.210639 26.00000000
6.005258 34.145182 0.031454 26.00000000
6.898890 34.207262 -47.129321 26.00000000
4.067627 34.010576 -44.441056 26.00000000
6.571412 34.184513 -50.563327 26.00000000
1.532868 33.834489 -52.281958 26.00000000
1.591420 33.838556 -14.347415 26.00000000
3.767765 33.989745 -23.121956 26.00000000
1.748066 33.849438 -41.745293 26.00000000
5.072173 34.080362 -22.372044 26.00000000
4.304522 34.027033 -24.361025 26.00000000
1.010364 33.798191 -22.586447 26.00000000
8.351464 34.308171 -58.202646 26.00000000
1.064538 33.801954 -26.195487 26.00000000
7.481481 34.247734 -40.392891 26.00000000
7.146056 34.224433 -19.947884 26.00000000
5.025648 34.077129 -43.836470 26.00000000
2.475987 33.900006 -31.793988 26.00000000
0.949802 33.793983 -7.922327 26.00000000
6.258880 34.162801 -17.132121 26.00000000
3.892483 33.998409 1.825543 26.00000000
2.272888 33.885897 -49.552594 26.00000000
7.451961 34.245684 -13.573146 26.00000000
6.768380 34.198196 3.518066 26.00000000
8.567808 34.323201 -19.453391 26.00000000
5.952993 34.141551 -0.713306 26.00000000
4.419875 34.035047 -43.822302 26.00000000
2.552532 33.905324 -42.706957 26.00000000
3.161304 33.947615 -12.281490 26.00000000
5.444353 34.106217 0.139570 26.00000000
1.706984 33.846584 -34.249845 26.00000000
7.287654 34.234269 -46.416232 26.00000000
4.765473 34.059055 -55.293402 26.00000000
2.190228 33.880155 -6.116211 26.00000000
6.051593 34.148401 -24.070521 26.00000000
1.508941 33.832826 -40.039726 26.00000000
7.639327 34.258700 -21.958917 26.00000000
5.742433 34.126924 -52.504974 26.00000000
3.232054 33.952530 -53.450835 26.00000000
6.663358 34.190900 1.826693 26.00000000
2.940393 33.932268 -3.995919 26.00000000
1.971909 33.864988 -46.168601 26.00000000
7.820594 34.271292 -45.264280 26.00000000
3.795031 33.991639 -6.474722 26.00000000
5.368743 34.100964 -18.224535 26.00000000
2.587016 33.907720 -16.278761 26.00000000
5.463313 34.107534 -23.950939 26.00000000
8.389698 34.310827 -52.193560 26.00000000
6.306851 34.166134 -52.580328 26.00000000
2.589370 33.907883 -17.741917 26.00000000
5.642671 34.119994 -58.123064 26.00000000
4.801562 34.061562 -58.111827 26.00000000
5.458853 34.107224 -48.748101 26.00000000
2.292679 33.887272 -33.004528 26.00000000
5.020864 34.076797 -24.441751 26.00000000
6.136814 34.154321 -30.467274 26.00000000
5.266850 34.093886 -26.708286 26.00000000
4.710473 34.055235 -17.991866 26.00000000
5.801573 34.131032 -27.333142 26.00000000
4.473804 34.038793 -17.047388 26.00000000
3.084693 33.942293 -16.026097 26.00000000
4.316046 34.027834 -33.092157 26.00000000
5.113168 34.083209 -11.476266 26.00000000
3.173988 33.948496 -8.000834 26.00000000
3.192540 33.949785 -47.524344 26.00000000
5.724958 34.125710 -42.513122 26.00000000
2.014544 33.867950 -42.351712 26.00000000
6.219044 34.160034 -33.933747 26.00000000
6.106062 34.152185 -8.650851 26.00000000
6.385353 34.171587 -26.174243 26.00000000
3.192845 33.949806 -56.613723 26.00000000
3.705811 33.985441 -53.005702 26.00000000
1.763635 33.850520 -23.537597 26.00000000
3.992458 34.005355 -3.248199 26.00000000
1.181471 33.810077 -59.651640 26.00000000
7.158031 34.225265 -24.293182 26.00000000
8.407920 34.312093 -15.356091 26.00000000
5.479300 34.108644 -36.615295 26.00000000
0.991446 33.796876 -30.943230 26.00000000
6.519522 34.180908 -48.244527 26.00000000
4.910186 34.069108 -28.330831 26.00000000
4.471550 34.038637 -2.895639 26.00000000
2.054186 33.870704 -54.497036 26.00000000
4.260911 34.024004 -3.870616 26.00000000
6.368890 34.170443 -23.511996 26.00000000
6.132225 34.154003 -42.932117 26.00000000
4.067645 34.010578 -19.524866 26.00000000
2.929689 33.931525 -37.680168 26.00000000
0.916690 33.791683 -52.400714 26.00000000
7.025564 34.216062 -45.080468 26.00000000
7.094590 34.220857 -0.616142 26.00000000
3.007067 33.936900 -26.758867 26.00000000
2.602382 33.908787 -5.117434 26.00000000
6.232456 34.160965 -31.609621 26.00000000
7.776206 34.268209 -58.848239 26.00000000
2.192393 33.880305 -10.811831 26.00000000
1.282342 33.817085 -57.893902 26.00000000
5.497395 34.109901 -9.012827 26.00000000
4.824517 34.063157 -38.697743 26.00000000
1.068346 33.802219 -60.359768 26.00000000
3.936745 34.001484 -36.107882 26.00000000
6.831015 34.202547 -22.869682 26.00000000
0.933336 33.792840 -13.979382 26.00000000
8.249915 34.301117 -57.019041 26.00000000
6.378419 34.171105 -56.123596 26.00000000
6.602120 34.186646 -60.568492 26.00000000
6.574065 34.184697 -31.011279 26.00000000
4.819170 34.062786 -48.538629 26.00000000
3.686083 33.984071 -57.944878 26.00000000
5.019059 34.076672 -4.737982 26.00000000
2.169461 33.878712 -38.185816 26.00000000
8.481016 34.317171 -20.797940 26.00000000
2.401410 33.894826 -41.814896 26.00000000
8.297036 34.304390 -40.964339 26.00000000
1.210928 33.812124 -53.662143 26.00000000
2.509401 33.902328 -57.607980 26.00000000
4.941373 34.071275 -8.286284 26.00000000
6.276862 34.164050 -21.762394 26.00000000
1.995705 33.866642 -5.556439 26.00000000
4.113565 34.013768 -17.833534 26.00000000
0.934187 33.792899 -56.301534 26.00000000
4.442753 34.036636 -13.702135 26.00000000
6.121448 34.153254 -13.581418 26.00000000
4.055241 34.009716 -60.935953 26.00000000
2.210639 33.881573 -34.637359 26.00000000
5.921926 34.139393 -39.042088 26.00000000
5.089242 34.081547 -29.002296 26.00000000
4.681978 34.053255 -53.850057 26.00000000
6.981808 34.213022 -18.531779 26.00000000
4.826364 34.063285 -49.164931 26.00000000
7.430512 34.244194 -33.576634 26.00000000
0.939041 33.793236 -25.473870 26.00000000
2.987661 33.935552 -52.725175 26.00000000
4.760120 34.058683 -45.140186 26.00000000
6.957980 34.211367 -32.440087 26.00000000
1.471371 33.830216 -56.705572 26.00000000
7.155720 34.225104 1.401131 26.00000000
8.483615 34.317352 -51.445818 26.00000000
6.557075 34.183517 0.036863 26.00000000
3.289503 33.956521 -19.438454 26.00000000
1.486837 33.831291 -28.795915 26.00000000
3.430343 33.966305 -22.645341 26.00000000
4.146402 34.016049 -45.269536 26.00000000
1.347961 33.821643 -43.180860 26.00000000
0.932771 33.792800 -0.353193 26.00000000
2.727419 33.917473 -7.682435 26.00000000
7.436747 34.244627 -41.086420 26.00000000
6.337421 34.168257 -6.638785 26.00000000
5.070836 34.080269 -20.483679 26.00000000
5.735184 34.126420 -22.671926 26.00000000
3.791662 33.991405 -37.288807 26.00000000
5.604492 34.117341 -21.978373 26.00000000
2.764571 33.920054 -29.866686 26.00000000
1.225095 33.813108 -28.279897 26.00000000
6.552989 34.183233 0.604643 26.00000000
2.017897 33.868183 -6.662425 26.00000000
7.174384 34.226401 -29.261650 26.00000000
7.841686 34.272757 -38.328604 26.00000000
7.484309 34.247931 -36.670353 26.00000000
2.237304 33.883425 -26.711982 26.00000000
7.538940 34.251726 -9.090840 26.00000000
1.243343 33.814376 -57.251719 26.00000000
4.923480 34.070032 -40.018957 26.00000000
6.845314 34.203540 -31.503328 26.00000000
6.234008 34.161073 -57.630769 26.00000000
7.946846 34.280063 -29.467746 26.00000000
3.786864 33.991072 -54.640851 26.00000000
5.967155 34.142535 -50.187808 26.00000000
7.093475 34.220780 -28.209720 26.00000000
2.138994 33.876596 -35.882755 26.00000000
6.050818 34.148347 -60.373688 26.00000000
7.130071 34.223322 -14.234443 26.00000000
7.007250 34.214790 -15.844723 26.00000000
8.352417 34.308238 -43.625379 26.00000000
5.406305 34.103573 -41.478334 26.00000000
8.550896 34.322026 -38.208755 26.00000000
0.978252 33.795960 -46.453127 26.00000000
8.011453 34.284551 -57.697197 26.00000000
5.751221 34.127534 -43.381169 26.00000000
2.366247 33.892383 -37.629187 26.00000000
8.370870 34.309520 -8.121307 26.00000000
2.551298 33.905238 -11.841028 26.00000000
7.835178 34.272305 -12.802561 26.00000000
2.630745 33.910757 -60.109753 26.00000000
3.246852 33.953558 -35.518824 26.00000000
5.145024 34.085422 -44.431424 26.00000000
6.472321 34.177629 -14.779228 26.00000000
8.501384 34.318586 -55.522911 26.00000000
5.598689 34.116938 -40.143209 26.00000000
5.538901 34.112785 -56.713698 26.00000000
8.491797 34.317920 -11.121327 26.00000000
6.673274 34.191589 -43.942056 26.00000000
4.399907 34.033660 -47.304870 26.00000000
6.325942 34.167460 -16.473344 26.00000000
1.717563 33.847319 -4.741044 26.00000000
8.511513 34.319290 -42.902550 26.00000000
8.546680 34.321733 -14.210049 26.00000000
3.283545 33.956107 -21.342675 26.00000000
3.475826 33.969464 -58.675219 26.00000000
3.217501 33.951519 -23.446284 26.00000000
1.509498 33.832865 -54.279748 26.00000000
7.883110 34.275635 -2.912111 26.00000000
1.115980 33.805528 -7.074674 26.00000000
5.339600 34.098939 -38.388238 26.00000000
8.420065 34.312937 -21.357603 26.00000000
3.268199 33.955041 -34.917856 26.00000000
8.407974 34.312097 -53.998735 26.00000000
3.141975 33.946272 -59.659774 26.00000000
7.228780 34.230179 -10.372282 26.00000000
3.802158 33.992135 -1.370945 26.00000000
3.363552 33.961665 -61.110281 26.00000000
1.819659 33.854412 -51.747102 26.00000000
5.503232 34.110307 -19.983258 26.00000000
7.101771 34.221356 -19.359334 26.00000000
2.233008 33.883127 -36.452487 26.00000000
2.944118 33.932527 -18.567623 26.00000000
8.552783 34.322157 -48.127454 26.00000000
3.968516 34.003691 -43.269461 26.00000000
6.291493 34.165067 -14.142428 26.00000000
6.874853 34.205592 -21.959983 26.00000000
2.559757 33.905826 -55.929318 26.00000000
5.217558 34.090461 -59.363249 26.00000000
6.445638 34.175775 -40.385584 26.00000000
2.753446 33.919281 -45.956279 26.00000000
3.196342 33.950049 -6.805343 26.00000000
6.608071 34.187059 -17.809347 26.00000000
4.538542 34.043291 -51.266232 26.00000000
4.803941 34.061728 -5.247145 26.00000000
0.953283 33.794225 0.242775 26.00000000
3.814797 33.993013 -32.450025 26.00000000
6.100360 34.151789 -45.364632 26.00000000
2.650531 33.912132 -48.116706 26.00000000
7.843637 34.272893 -9.695038 26.00000000
8.019121 34.285084 -4.374334 26.00000000
5.317429 34.097399 -33.250706 26.00000000
5.091663 34.081715 -42.802337 26.00000000
6.075484 34.150061 -36.957282 26.00000000
6.883107 34.206166 2.885560 26.00000000
3.422245 33.965742 1.402267 26.00000000
7.689623 34.262194 -14.341399 26.00000000
2.910304 33.930178 -40.367128 26.00000000
2.189850 33.880129 -7.249187 26.00000000
2.895827 33.929172 -31.244098 26.00000000
3.841044 33.994836 -2.332934 26.00000000
7.078694 34.219753 -11.788766 26.00000000
5.269493 34.094069 -42.167275 26.00000000
5.516705 34.111243 -6.478562 26.00000000
4.751532 34.058087 -1.637246 26.00000000
4.326507 34.028561 -35.729483 26.00000000
4.767733 34.059212 -49.788351 26.00000000
2.530937 33.903824 -0.182696 26.00000000
7.513559 34.249963 -37.559098 26.00000000
4.529590 34.042669 -43.228975 26.00000000
2.775721 33.920829 -14.405024 26.00000000
5.655275 34.120869 -45.934006 26.00000000
1.005115 33.797826 -37.779197 26.00000000
5.335959 34.098686 -0.419790 26.00000000
3.819724 33.993355 2.887868 26.00000000
7.253127 34.231871 -26.786883 26.00000000
3.724299 33.986726 -41.697621 26.00000000
6.436628 34.175149 -27.286632 26.00000000
3.800457 33.992016 -7.886464 26.00000000
4.131135 34.014988 -25.722382 26.00000000
6.431854 34.174817 -19.111717 26.00000000
7.577966 34.254437 -61.102263 26.00000000
0.908432 33.791110 -1.181025 26.00000000
2.609162 33.909258 -54.256820 26.00000000
0.961820 33.794818 -13.118624 26.00000000
4.373004 34.031791 -9.940496 26.00000000
8.103642 34.290955 -53.462672 26.00000000
1.696627 33.845865 -37.902470 26.00000000
6.331302 34.167832 -34.807080 26.00000000
1.946457 33.863220 -28.445512 26.00000000
8.426542 34.313387 -3.908905 26.00000000
1.693123 33.845621 -4.099446 26.00000000
7.758416 34.266973 -15.748407 26.00000000
7.280725 34.233788 -55.778583 26.00000000
1.551767 33.835802 -26.839832 26.00000000
7.241206 34.231043 -38.157293 26.00000000
1.020446 33.798891 3.059199 26.00000000
3.987406 34.005004 -21.490092 26.00000000
4.651960 34.051170 -27.376736 26.00000000
2.622264 33.910168 -53.633645 26.00000000
6.754584 34.197237 -45.637584 26.00000000
1.017903 33.798714 -53.019754 26.00000000
3.628544 33.980074 -5.870800 26.00000000
1.568200 33.836943 -18.165636 26.00000000
1.551826 33.835806 -7.459752 26.00000000
5.360351 34.100381 1.712556 26.00000000
0.991819 33.796902 -45.158018 26.00000000
1.287219 33.817424 -51.160032 26.00000000
5.906303 34.138308 -48.311980 26.00000000
5.771517 34.128944 -8.154031 26.00000000
2.521603 33.903175 -45.443514 26.00000000
8.317328 34.305800 -50.444609 26.00000000
5.164798 34.086796 -23.057625 26.00000000
4.591589 34.046976 -13.056112 26.00000000
5.283147 34.095018 -40.950925 26.00000000
6.180680 34.157369 -54.631837 26.00000000
5.732458 34.126231 -61.082256 26.00000000
4.296241 34.026458 -36.774766 26.00000000
6.633040 34.188794 -3.380446 26.00000000
4.577797 34.046018 -42.600092 26.00000000
2.084144 33.872785 -59.676630 26.00000000
6.852999 34.204074 -52.923208 26.00000000
3.703704 33.985295 -46.945970 26.00000000
3.225199 33.952054 -2.867157 26.00000000
1.075796 33.802736 -5.603666 26.00000000
0.945950 33.793716 -36.038209 26.00000000
1.509424 33.832860 -9.253136 26.00000000
7.677667 34.261363 -26.187598 26.00000000
2.980784 33.935074 -15.174278 26.00000000
7.685385 34.261899 1.099781 26.00000000
8.559857 34.322648 -54.962526 26.00000000
8.486984 34.317586 -33.068884 26.00000000
6.786998 34.199489 -4.590566 26.00000000
5.830907 34.133070 -25.085240 26.00000000
5.851368 34.134492 -25.809197 26.00000000
8.487616 34.317630 -46.222813 26.00000000
2.965496 33.934012 -44.705950 26.00000000
5.706318 34.124415 3.853785 26.00000000
6.978177 34.212770 -3.937232 26.00000000
5.141589 34.085184 -51.337759 26.00000000
8.411625 34.312351 -42.172410 26.00000000
7.851461 34.273437 -54.424826 26.00000000
3.140567 33.946174 -32.733267 26.00000000
5.638043 34.119672 -20.756146 26.00000000
1.820523 33.854472 -2.216108 26.00000000
1.909295 33.860639 -2.923925 26.00000000
6.628443 34.188474 -15.440591 26.00000000
6.324683 34.167372 2.350891 26.00000000
8.534517 34.320888 -9.015818 26.00000000
7.416283 34.243205 -24.819586 26.00000000
6.583321 34.185340 -13.166039 26.00000000
8.555679 34.322358 -24.922923 26.00000000
2.726073 33.917380 1.707446 26.00000000
4.303554 34.026966 -4.501131 26.00000000
5.935268 34.140320 1.387744 26.00000000
2.508248 33.902248 -50.088770 26.00000000
8.498753 34.318403 -38.801679 26.00000000
5.795205 34.130590 -46.714696 26.00000000
0.969724 33.795367 0.932778 26.00000000
5.890042 34.137178 -37.944679 26.00000000
1.113874 33.805381 -38.371421 26.00000000
4.250284 34.023265 -20.578322 26.00000000
1.771197 33.851045 -61.060088 26.00000000
5.573867 34.115214 -51.942993 26.00000000
4.272610 34.024816 -6.811304 26.00000000
3.009621 33.937078 -1.270184 26.00000000
7.110023 34.221929 -59.273927 26.00000000
2.995904 33.936125 -10.783034 26.00000000
5.645017 34.120157 -34.581875 26.00000000
4.587871 34.046717 -8.813617 26.00000000
4.240565 34.022590 -52.100650 26.00000000
8.069535 34.288586 -50.966377 26.00000000
2.450576 33.898241 -52.009810 26.00000000
7.616146 34.257089 -22.615230 26.00000000
2.754557 33.919358 -2.226565 26.00000000
7.284949 34.234081 -17.697586 26.00000000
1.687241 33.845213 -38.568612 26.00000000
3.072589 33.941452 2.999115 26.00000000
6.459124 34.176712 1.258493 26.00000000
3.769682 33.989878 -56.984326 26.00000000
8.492275 34.317953 -23.056460 26.00000000
3.003608 33.936660 -33.344858 26.00000000
4.848901 34.064851 -15.677907 26.00000000
6.375351 34.170892 -22.351625 26.00000000
7.199004 34.228111 -50.194558 26.00000000
7.752977 34.266595 2.538646 26.00000000
0.998401 33.797360 -29.419767 26.00000000
5.163812 34.086728 3.317330 26.00000000
1.124825 33.806142 -48.531320 26.00000000
1.135722 33.806899 -61.080273 26.00000000
5.279575 34.094770 -60.597915 26.00000000
7.389583 34.241350 3.847354 26.00000000
2.595129 33.908283 -51.447423 26.00000000
7.772228 34.267932 -18.024896 26.00000000
8.449469 34.314980 -24.142724 26.00000000
1.907846 33.860538 -57.043047 26.00000000
1.990576 33.866285 1.556241 26.00000000
3.173974 33.948495 -48.448349 26.00000000
1.806335 33.853486 -3.550674 26.00000000
7.838483 34.272535 -31.689936 26.00000000
3.955685 34.002800 -51.271214 26.00000000
2.549570 33.905118 -25.096267 26.00000000
7.891335 34.276207 -55.900075 26.00000000
6.314486 34.166664 -35.844335 26.00000000
0.960489 33.794726 -47.533374 26.00000000
0.913444 33.791458 -45.768039 26.00000000
1.676860 33.844492 -11.903847 26.00000000
3.023265 33.938025 -32.141012 26.00000000
3.335782 33.959736 -24.537240 26.00000000
5.862765 34.135283 3.300950 26.00000000
7.329778 34.237196 -11.176500 26.00000000
4.725127 34.056252 2.550588 26.00000000
7.595601 34.255662 -23.762021 26.00000000
3.131354 33.945534 -42.009122 26.00000000
8.002206 34.283909 -56.434281 26.00000000
5.915636 34.138956 -33.299728 26.00000000
5.225419 34.091007 -47.245984 26.00000000
1.664771 33.843652 -24.752359 26.00000000
6.111449 34.152559 -15.931668 26.00000000
7.736610 34.265458 -17.137944 26.00000000
6.034383 34.147206 -41.323407 26.00000000
7.551764 34.252617 -0.155042 26.00000000
5.100874 34.082355 -46.324238 26.00000000
1.650061 33.842630 -25.500760 26.00000000
6.509912 34.180240 -2.091264 26.00000000
8.333155 34.306899 -36.529522 26.00000000
7.090326 34.220561 -25.814194 26.00000000
1.865904 33.857624 -43.480156 26.00000000
1.952019 33.863607 -16.083992 26.00000000
6.224676 34.160425 -5.864512 26.00000000
3.598173 33.977964 -50.145166 26.00000000
4.336198 34.029234 -58.554951 26.00000000
7.303169 34.235347 -55.176431 26.00000000
5.790083 34.130234 0.800645 26.00000000
5.943247 34.140874 -32.229241 26.00000000
7.957640 34.280813 -10.367778 26.00000000
8.257424 34.301638 -37.451586 26.00000000
6.831298 34.202567 -29.774513 26.00000000
1.026746 33.799329 -8.599947 26.00000000
5.524730 34.111800 -28.666121 26.00000000
6.368676 34.170429 -58.313083 26.00000000
7.066343 34.218895 -47.769613 26.00000000
5.673784 34.122155 2.745504 26.00000000
2.417797 33.895964 -15.407739 26.00000000
3.016505 33.937556 -58.007659 26.00000000
3.807171 33.992483 -13.635829 26.00000000
4.787255 34.060568 -10.956560 26.00000000
3.806461 33.992433 -41.069383 26.00000000
6.526672 34.181404 -24.768923 26.00000000
2.761078 33.919811 -8.475700 26.00000000
3.534740 33.973557 -3.704921 26.00000000
6.712882 34.194340 -26.709705 26.00000000
2.330236 33.889881 -23.049409 26.00000000
6.545602 34.182719 -10.100353 26.00000000
8.493500 34.318039 -35.794192 26.00000000
1.103692 33.804674 -39.054333 26.00000000
8.561633 34.322772 -3.219039 26.00000000
1.593743 33.838718 -19.376370 26.00000000
4.619854 34.048939 -45.750418 26.00000000
2.116646 33.875043 -8.619648 26.00000000
5.734884 34.126400 -59.756953 26.00000000
1.305088 33.818665 -44.590034 26.00000000
2.886059 33.928494 -43.252509 26.00000000
1.595599 33.838847 -22.680592 26.00000000
7.903831 34.277075 -45.876405 26.00000000
8.482497 34.317274 -45.202170 26.00000000
4.810039 34.062151 -34.772181 26.00000000
6.980531 34.212934 -16.566708 26.00000000
4.834397 34.063843 -52.374412 26.00000000
5.164991 34.086810 -34.179986 26.00000000
3.360957 33.961485 -46.265051 26.00000000
5.294361 34.095797 -31.946619 26.00000000
8.221035 34.299111 2.071494 26.00000000
7.193682 34.227741 -14.902423 26.00000000
1.602023 33.839293 -32.390183 26.00000000
4.503438 34.040852 -21.066770 26.00000000
0.972280 33.795545 -35.173483 26.00000000
2.276752 33.886166 -16.890922 26.00000000
4.253965 34.023521 -31.739110 26.00000000
5.607583 34.117556 -14.289752 26.00000000
1.474547 33.830437 -49.497789 26.00000000
0.961092 33.794768 -6.475682 26.00000000
6.011296 34.145602 -9.294650 26.00000000
7.829370 34.271902 0.390981 26.00000000
1.855166 33.856878 -53.624204 26.00000000
2.985929 33.935432 -4.617442 26.00000000
4.567532 34.045304 -30.288197 26.00000000
2.244988 33.883959 2.976317 26.00000000
1.895260 33.859664 -50.792709 26.00000000
2.210867 33.881589 -14.083239 26.00000000
7.088751 34.220452 -30.813127 26.00000000
6.960723 34.211558 -37.280435 26.00000000
8.390060 34.310853 -1.186078 26.00000000
3.545180 33.974282 -5.182562 26.00000000
1.982026 33.865691 -48.036241 26.00000000
5.126966 34.084168 -10.454478 26.00000000
4.477961 34.039082 -37.416269 26.00000000
4.196783 34.019549 -60.176181 26.00000000
0.975634 33.795778 -9.474290 26.00000000
1.208381 33.811947 -40.724870 26.00000000
0.921884 33.792044 -20.795596 26.00000000
0.910942 33.791284 -39.797187 26.00000000
7.051163 34.217840 -34.332597 26.00000000
1.847210 33.856326 -44.270973 26.00000000
3.868398 33.996736 -48.879405 26.00000000
1.558145 33.836245 -11.007631 26.00000000
2.317413 33.888990 -44.594125 26.00000000
0.949995 33.793997 -17.102770 26.00000000
7.062339 34.218617 2.243165 26.00000000
7.804588 34.270180 -21.394564 26.00000000
1.433257 33.827569 -6.079524 26.00000000
1.079416 33.802988 -4.579353 26.00000000
6.131506 34.153953 -47.691321 26.00000000
7.997557 34.283586 -52.767362 26.00000000
1.439818 33.828025 -16.826409 26.00000000
1.176736 33.809748 -54.788106 26.00000000
4.045297 34.009025 -0.087346 26.00000000
4.932299 34.070645 0.429301 26.00000000
7.237888 34.230812 -48.538958 26.00000000
1.174666 33.809605 3.785699 26.00000000
6.286860 34.164745 -51.688889 26.00000000
2.822970 33.924111 -46.789215 26.00000000
7.215944 34.229288 -36.155540 26.00000000
3.427756 33.966125 2.202263 26.00000000
3.240011 33.953083 -38.291489 26.00000000
1.868181 33.857783 -35.161386 26.00000000
7.204870 34.228518 -42.271624 26.00000000
5.842381 34.133867 -3.622560 26.00000000
6.753749 34.197179 -41.086385 26.00000000
4.629693 34.049623 -26.282150 26.00000000
8.194474 34.297265 -0.274947 26.00000000
8.458186 34.315585 0.375289 26.00000000
5.077721 34.080747 -13.668726 26.00000000
7.407232 34.242576 -3.466016 26.00000000
2.323330 33.889401 -4.129084 26.00000000
4.622809 34.049145 -19.201860 26.00000000
8.507421 34.319006 -34.015735 26.00000000
8.331744 34.306801 -26.123352 26.00000000
6.131208 34.153932 -7.232493 26.00000000
3.574328 33.976307 -19.971650 26.00000000
3.156542 33.947284 -20.559954 26.00000000
1.085063 33.803380 -30.245331 26.00000000
7.295305 34.234801 -60.535058 26.00000000
