-51.282409 -41.352557 -18.912373 9.00000000
-51.813312 -40.724835 -31.235518 9.00000000
-46.738877 -46.421449 -31.457574 9.00000000
-50.330092 -42.477531 -46.955579 9.00000000
-50.439633 -42.348118 0.160541 9.00000000
-55.771849 -35.251286 -13.865628 9.00000000
-47.881959 -45.212122 -26.993306 9.00000000
-47.790909 -45.308446 -51.452739 9.00000000
-49.986958 -42.882866 -57.097365 9.00000000
-50.174222 -42.661661 -43.243957 9.00000000
-49.500236 -43.457831 -50.254348 9.00000000
-50.332760 -42.481036 -7.244694 9.00000000
-51.250605 -41.390128 -2.796102 9.00000000
-51.044963 -41.633050 -28.145092 9.00000000
-51.965608 -40.523539 -3.032007 9.00000000
-51.568440 -41.014672 -7.695313 9.00000000
-53.764952 -38.151838 -36.033393 9.00000000
-56.001864 -34.909925 -2.853001 9.00000000
-49.678438 -43.247337 -27.049219 9.00000000
-51.463033 -41.139188 -35.252579 9.00000000
-53.792199 -38.109246 -49.520919 9.00000000
-49.959876 -42.914876 -28.402637 9.00000000
-51.626096 -40.946564 2.906915 9.00000000
-54.698000 -36.845002 -42.015813 9.00000000
-53.848907 -38.034293 -4.856985 9.00000000
-48.966595 -44.064645 -24.566628 9.00000000
-50.226383 -42.611533 -9.747427 9.00000000
-48.671848 -44.376468 -15.111193 9.00000000
-49.465303 -43.503407 2.283873 9.00000000
-51.929296 -40.571534 -2.220115 9.00000000
-49.930766 -42.949267 -22.078570 9.00000000
-52.581212 -39.721288 -4.588913 9.00000000
-52.999614 -39.156843 -43.144739 9.00000000
-52.151861 -40.277359 -10.258204 9.00000000
-56.116942 -34.739115 -28.437891 9.00000000
-46.523166 -46.649649 -46.467183 9.00000000
-48.177861 -44.899087 -6.153066 9.00000000
-46.478567 -46.696822 -61.096691 9.00000000
-48.033871 -45.051432 3.063772 9.00000000
-56.504682 -34.163638 -7.431580 9.00000000
-56.560034 -34.081486 -19.177130 9.00000000
-56.449752 -34.245167 -0.825286 9.00000000
-46.449147 -46.727947 -57.582112 9.00000000
-54.194184 -37.577922 -15.410417 9.00000000
-49.897375 -42.988712 -22.893598 9.00000000
-49.682026 -43.243085 -47.494413 9.00000000
-52.038929 -40.426627 -15.538721 9.00000000
-55.417119 -35.777760 1.745885 9.00000000
-56.506594 -34.160801 -29.964180 9.00000000
-50.507963 -42.268541 -26.213518 9.00000000
-48.967057 -44.064156 -56.130009 9.00000000
-52.484266 -39.838004 -35.358743 9.00000000
-50.355545 -42.447458 -55.950263 9.00000000
-52.390239 -39.962283 -38.278655 9.00000000
-56.049987 -34.838493 -20.927796 9.00000000
-47.075720 -46.065076 -39.227631 9.00000000
-53.120376 -39.020919 -14.733231 9.00000000
-46.393555 -46.786785 -32.195383 9.00000000
-49.772455 -43.136288 -7.150952 9.00000000
-47.487278 -45.629671 -32.288306 9.00000000
-51.731687 -40.821831 -54.464096 9.00000000
-53.737414 -38.184430 -30.178595 9.00000000
-51.248535 -41.392572 -28.968049 9.00000000
-49.309023 -43.683711 -46.022212 9.00000000
-46.710467 -46.451537 1.490254 9.00000000
-51.902335 -40.607169 -19.410683 9.00000000
-55.384554 -35.826079 -6.252819 9.00000000
-49.442907 -43.525585 0.838037 9.00000000
-46.762107 -46.396891 -12.021766 9.00000000
-52.307824 -40.071216 -22.325549 9.00000000
-54.768604 -36.740212 -60.682022 9.00000000
-51.076319 -41.596009 -25.855762 9.00000000
-50.468049 -42.317874 -8.169006 9.00000000
-52.546692 -39.755492 -46.410602 9.00000000
-55.298024 -35.954484 -39.865203 9.00000000
-55.215406 -36.077102 -33.619820 9.00000000
-50.721863 -42.014724 -2.188835 9.00000000
-52.413522 -39.931510 -43.491474 9.00000000
-50.923074 -41.777050 -41.497804 9.00000000
-54.819821 -36.664209 -11.358315 9.00000000
-54.331041 -37.389617 -24.655151 9.00000000
-54.449896 -37.213223 -4.278239 9.00000000
-54.864762 -36.597505 -41.213367 9.00000000
-50.774439 -41.962329 -30.748229 9.00000000
-55.898258 -35.063697 -1.166772 9.00000000
-50.658087 -42.090075 -45.951745 9.00000000
-55.457053 -35.718481 -8.357279 9.00000000
-48.718134 -44.327501 -18.425012 9.00000000
-54.913584 -36.525056 -0.532819 9.00000000
-56.499554 -34.171248 -56.433039 9.00000000
-51.199354 -41.452543 -37.574061 9.00000000
-51.300381 -41.331335 -52.106485 9.00000000
-51.737571 -40.815461 -58.884465 9.00000000
-47.624344 -45.484672 -21.529455 9.00000000
-49.998631 -42.884002 -4.955094 9.00000000
-49.599569 -43.340502 -30.509041 9.00000000
-56.017042 -34.887396 -12.109759 9.00000000
-51.974953 -40.511186 -45.673540 9.00000000
-54.078873 -37.730334 -55.815973 9.00000000
-53.442483 -38.578727 -16.771935 9.00000000
-56.049627 -34.839013 -32.152036 9.00000000
-46.454505 -46.722282 -54.568056 9.00000000
-47.088941 -46.051095 -32.988028 9.00000000
-52.437953 -39.899218 -12.861578 9.00000000
-50.874022 -41.834984 -59.350058 9.00000000
-53.949942 -37.907926 -48.606613 9.00000000
-46.476195 -46.699369 -17.143273 9.00000000
-55.918282 -35.033949 -26.360681 9.00000000
-47.545115 -45.568482 -59.557092 9.00000000
-48.424056 -44.638617 -23.827138 9.00000000
-48.059405 -45.024394 -48.467855 9.00000000
-51.869109 -40.651085 -17.583837 9.00000000
-54.182460 -37.593418 -59.436040 9.00000000
-52.042882 -40.421402 -49.132818 9.00000000
-48.125876 -44.954073 -32.353478 9.00000000
-55.873557 -35.100347 -8.995363 9.00000000
-53.294062 -38.767657 -46.635739 9.00000000
-53.573464 -38.398361 0.711958 9.00000000
-47.992463 -45.095230 -7.517061 9.00000000
-51.331890 -41.294107 -32.882302 9.00000000
-54.026487 -37.799576 -1.568595 9.00000000
-51.401642 -41.211709 -27.033476 9.00000000
-55.545410 -35.587330 -36.359769 9.00000000
-53.329184 -38.728651 -9.936584 9.00000000
-55.637357 -35.450874 -23.671259 9.00000000
-47.326870 -45.799392 -15.485496 9.00000000
-55.923593 -35.026057 -34.700155 9.00000000
-53.511337 -38.480922 -36.778272 9.00000000
-53.602749 -38.359650 -40.471585 9.00000000
-53.714287 -38.223651 -38.176891 9.00000000
-54.397705 -37.290679 -46.299772 9.00000000
-49.464978 -43.499513 -0.289514 9.00000000
-53.175725 -38.937877 -7.391221 9.00000000
-54.983615 -36.421110 -42.956929 9.00000000
-55.140759 -36.187884 -56.349006 9.00000000
-49.640466 -43.292198 -17.691124 9.00000000
-55.896926 -35.065631 -39.822148 9.00000000
-46.630336 -46.536291 -20.894761 9.00000000
-56.552256 -34.093030 -37.491437 9.00000000
-47.333924 -45.791935 -9.517009 9.00000000
-56.509994 -34.155754 1.721797 9.00000000
-47.388918 -45.733731 -34.147422 9.00000000
-54.074086 -37.736662 -54.956283 9.00000000
-55.792474 -35.220670 -19.161334 9.00000000
-49.874732 -43.015462 -18.752924 9.00000000
-50.600860 -42.166026 -21.285733 9.00000000
-51.644929 -40.924317 -14.188150 9.00000000
-51.372520 -41.246110 -17.066782 9.00000000
-46.986661 -46.159333 -0.431600 9.00000000
-48.960841 -44.070732 -16.072390 9.00000000
-53.409213 -38.615459 -0.986344 9.00000000
-46.850722 -46.303106 -53.780168 9.00000000
-53.958594 -37.889314 -19.240065 9.00000000
-49.787881 -43.136489 -1.045389 9.00000000
-53.611899 -38.347556 -44.932283 9.00000000
-56.546265 -34.101919 -61.063602 9.00000000
-55.606752 -35.496291 -32.792203 9.00000000
-52.468690 -39.858592 -8.677235 9.00000000
-49.766555 -43.143249 -21.214774 9.00000000
-54.904646 -36.538309 -53.346726 9.00000000
-47.902416 -45.190479 -50.242182 9.00000000
-52.911687 -39.288267 -13.863717 9.00000000
-55.317065 -35.926222 -52.765148 9.00000000
-49.085109 -43.939265 -13.731332 9.00000000
-51.152845 -41.509944 -39.176701 9.00000000
-52.107938 -40.335415 -23.767890 9.00000000
-46.474411 -46.701259 -15.410116 9.00000000
-56.523350 -34.135932 -39.336829 9.00000000
-46.592247 -46.576555 -55.408204 9.00000000
-50.875359 -41.833400 -7.596904 9.00000000
-50.749693 -41.983149 -17.347343 9.00000000
-49.638729 -43.294254 -12.120255 9.00000000
-56.528959 -34.127608 -11.592638 9.00000000
-55.417047 -35.777868 2.593725 9.00000000
-48.222623 -44.851720 -18.837984 9.00000000
-50.934917 -41.763051 -56.286235 9.00000000
-52.442730 -39.892904 -19.146274 9.00000000
-52.047057 -40.415884 -12.056062 9.00000000
-53.458061 -38.550891 -47.557320 9.00000000
-55.420802 -35.772263 -49.798752 9.00000000
-48.102362 -44.978949 -31.422200 9.00000000
-53.184646 -38.920470 -24.377484 9.00000000
-53.404281 -38.641525 -27.815191 9.00000000
-47.208363 -45.924744 -60.831146 9.00000000
-50.283561 -42.532495 -52.611930 9.00000000
-54.484299 -37.162165 -5.278928 9.00000000
-56.521316 -34.138952 -50.816839 9.00000000
-49.028810 -43.998825 -45.267968 9.00000000
-48.744389 -44.299725 -58.282660 9.00000000
-49.042942 -43.983874 -33.049324 9.00000000
-50.450947 -42.334780 -25.300993 9.00000000
-48.802800 -44.237929 -38.133436 9.00000000
-55.984317 -34.935928 -54.625064 9.00000000
-54.315990 -37.411953 -58.435109 9.00000000
-53.418363 -38.603362 -45.722066 9.00000000
-47.533710 -45.580561 -18.630137 9.00000000
-50.236841 -42.587689 -44.363328 9.00000000
-52.845078 -39.361101 -22.494838 9.00000000
-51.518303 -41.073898 -6.184912 9.00000000
-49.480598 -43.481041 -31.651458 9.00000000
-51.354608 -41.270328 -46.005178 9.00000000
-55.112269 -36.230176 -17.719793 9.00000000
-47.659142 -45.447848 -44.113596 9.00000000
-52.490402 -39.829894 -11.114920 9.00000000
-54.478502 -37.170768 -23.076767 9.00000000
-56.489181 -34.186645 -2.488805 9.00000000
-52.419420 -39.923714 -57.499498 9.00000000
-54.515362 -37.116064 -17.525963 9.00000000
-54.872004 -36.586758 -34.406506 9.00000000
-53.423603 -38.596436 -56.474388 9.00000000
-48.481753 -44.577577 -59.957666 9.00000000
-54.045733 -37.774139 -32.984028 9.00000000
-49.862545 -43.047556 -3.188867 9.00000000
-55.393115 -35.813381 -0.875786 9.00000000
-47.077462 -46.063228 -44.550906 9.00000000
-47.989081 -45.098805 -10.529252 9.00000000
-55.279708 -35.981663 -59.233717 9.00000000
-49.186496 -43.828448 -44.492435 9.00000000
-48.564418 -44.490122 -9.797367 9.00000000
-48.528689 -44.527925 -6.860820 9.00000000
-56.477568 -34.203882 -49.225029 9.00000000
-49.627960 -43.306958 -40.164563 9.00000000
-53.750754 -38.164025 -58.754881 9.00000000
-47.663090 -45.443671 -38.798035 9.00000000
-54.742331 -36.779211 -27.199147 9.00000000
-46.387926 -46.792737 -35.000961 9.00000000
-53.717095 -38.211271 -28.902451 9.00000000
-55.559914 -35.565833 -2.370430 9.00000000
-51.407537 -41.204745 -38.390539 9.00000000
-56.158641 -34.677207 -53.687043 9.00000000
-56.570912 -34.065341 -33.768060 9.00000000
-50.513093 -42.261366 -28.640269 9.00000000
-50.404383 -42.400095 -15.707685 9.00000000
-48.343581 -44.723754 -24.775989 9.00000000
-56.129525 -34.720449 -3.650033 9.00000000
-52.323190 -40.050905 -33.650624 9.00000000
-47.679629 -45.426174 -40.860947 9.00000000
-53.850502 -38.032184 -12.964490 9.00000000
-56.435009 -34.267039 -58.849529 9.00000000
-46.983644 -46.162505 -22.057906 9.00000000
-53.871310 -38.008625 -39.755612 9.00000000
-46.563917 -46.606548 -34.048503 9.00000000
-53.141720 -38.969015 -53.646952 9.00000000
-55.546813 -35.585244 -54.244822 9.00000000
-51.404544 -41.209234 -45.071554 9.00000000
-51.903289 -40.605908 -43.461479 9.00000000
-50.525868 -42.251381 -13.312998 9.00000000
-46.553002 -46.618123 -5.256851 9.00000000
-48.252759 -44.819840 -14.537604 9.00000000
-53.988281 -37.850076 -23.699684 9.00000000
-55.227971 -36.058456 -26.719307 9.00000000
-56.495480 -34.177297 0.230452 9.00000000
-56.434202 -34.268245 -24.365976 9.00000000
-54.095867 -37.707873 -45.444581 9.00000000
-48.857701 -44.179848 -20.834764 9.00000000
-53.622174 -38.333976 -60.748609 9.00000000
-48.355474 -44.711172 -41.064238 9.00000000
-49.210522 -43.800066 -51.661084 9.00000000
-49.032115 -43.995329 -30.332252 9.00000000
-48.426642 -44.635881 -15.921350 9.00000000
-54.744988 -36.775263 -51.639013 9.00000000
-50.831621 -41.885451 -19.534162 9.00000000
-48.838457 -44.200206 -27.368469 9.00000000
-54.348783 -37.363285 -21.162977 9.00000000
-52.040037 -40.425163 -18.509166 9.00000000
-49.322098 -43.668283 -18.461692 9.00000000
-49.958748 -42.916197 -46.151634 9.00000000
-50.227895 -42.598251 -54.074468 9.00000000
-50.508670 -42.266576 -50.801934 9.00000000
-49.895089 -42.991405 -33.885280 9.00000000
-54.622526 -36.957021 -9.452431 9.00000000
-51.047234 -41.630378 -46.786602 9.00000000
-52.762356 -39.470438 -44.148846 9.00000000
-52.173402 -40.248887 -4.163711 9.00000000
-53.444116 -38.569326 1.798671 9.00000000
-55.325289 -35.914030 -10.064140 9.00000000
-47.469843 -45.648124 -24.908649 9.00000000
-51.549264 -41.037325 -1.365431 9.00000000
-51.924290 -40.578150 -44.572196 9.00000000
-55.412776 -35.784175 -48.933805 9.00000000
-49.603523 -43.335846 -8.039152 9.00000000
-52.906508 -39.279906 -57.922033 9.00000000
-52.999859 -39.170207 -17.049582 9.00000000
-47.073824 -46.067118 -1.646878 9.00000000
-47.060593 -46.081075 -51.633203 9.00000000
-53.082205 -39.047679 -58.908977 9.00000000
-48.069835 -45.013361 -28.769766 9.00000000
-55.832718 -35.160949 -14.752150 9.00000000
-53.985319 -37.857832 -46.710194 9.00000000
-55.390996 -35.816503 -28.646250 9.00000000
-56.321921 -34.434894 2.984259 9.00000000
-51.492002 -41.104968 3.737902 9.00000000
-50.200059 -42.633531 -17.722120 9.00000000
-49.310058 -43.682484 -53.305262 9.00000000
-53.323869 -38.728260 -37.587928 9.00000000
-56.529560 -34.126715 -21.297563 9.00000000
-54.919660 -36.516025 -58.104841 9.00000000
-49.709853 -43.210220 -38.033733 9.00000000
-53.056377 -39.081817 -44.808645 9.00000000
-52.723805 -39.528282 -10.326454 9.00000000
-47.046374 -46.096118 -45.963387 9.00000000
-47.553008 -45.560131 -56.730208 9.00000000
-48.361685 -44.704602 -49.435684 9.00000000
-52.852454 -39.354284 -15.465076 9.00000000
-47.155336 -45.980858 -26.624994 9.00000000
-50.230646 -42.595020 -24.255325 9.00000000
-54.840988 -36.632790 -29.569451 9.00000000
-56.529167 -34.127298 -16.108489 9.00000000
-54.519494 -37.109931 -33.487958 9.00000000
-47.528554 -45.586002 -39.912023 9.00000000
-52.688245 -39.581926 -7.344349 9.00000000
-50.003874 -42.862900 -31.539864 9.00000000
-55.770718 -35.252975 -5.724344 9.00000000
-55.951131 -34.985224 0.998748 9.00000000
-54.859759 -36.604935 -18.611921 9.00000000
-56.513153 -34.151066 -46.095498 9.00000000
-46.482228 -46.692950 -56.643493 9.00000000
-54.528333 -37.096813 1.515240 9.00000000
-56.481595 -34.197904 -44.137985 9.00000000
-46.345328 -46.837803 -36.904852 9.00000000
-48.227985 -44.846048 -54.008881 9.00000000
-56.193148 -34.626020 -23.504444 9.00000000
-47.723804 -45.379440 -47.127667 9.00000000
-48.399031 -44.665102 -3.526693 9.00000000
-48.537671 -44.518419 -45.747699 9.00000000
-50.187117 -42.646419 -57.942833 9.00000000
-49.496743 -43.461958 -48.922116 9.00000000
-50.299942 -42.513151 -42.076283 9.00000000
-53.149131 -38.959219 -49.377495 9.00000000
-51.945637 -40.549935 -41.560655 9.00000000
-50.968344 -41.730426 -34.937175 9.00000000
-55.214342 -36.078702 3.385222 9.00000000
-48.712760 -44.333186 -48.426169 9.00000000
-48.971989 -44.058938 -9.109773 9.00000000
-48.666889 -44.381720 -1.688023 9.00000000
-54.331943 -37.388278 -37.897894 9.00000000
-51.689329 -40.871867 -46.633719 9.00000000
-52.287476 -40.098110 -20.342662 9.00000000
-54.271189 -37.476141 -36.849659 9.00000000
-53.001877 -39.153852 -32.793329 9.00000000
-55.431685 -35.756118 -18.401628 9.00000000
-53.003960 -39.175692 -8.498565 9.00000000
-49.220115 -43.788740 -42.267258 9.00000000
-51.327631 -41.299138 -11.409369 9.00000000
-47.321499 -45.805053 -55.907033 9.00000000
-53.391101 -38.639396 -50.407097 9.00000000
-54.677126 -36.875981 -44.463627 9.00000000
-52.295031 -40.088125 -48.190281 9.00000000
-48.645794 -44.404033 -33.943082 9.00000000
-51.571862 -41.010630 -23.811054 9.00000000
-47.085255 -46.054985 -54.583513 9.00000000
-50.632266 -42.120584 -34.297430 9.00000000
-49.382965 -43.596369 -38.643032 9.00000000
-56.148601 -34.692137 -9.831875 9.00000000
-55.549819 -35.580811 -4.203901 9.00000000
-53.259445 -38.815748 -0.076077 9.00000000
-51.586015 -40.993911 -15.184795 9.00000000
-55.943415 -34.996652 -24.387089 9.00000000
-49.963428 -42.922083 1.700677 9.00000000
-47.498665 -45.617656 1.448679 9.00000000
-52.698997 -39.554183 -37.395528 9.00000000
-56.560553 -34.080714 -9.233243 9.00000000
-54.121554 -37.673922 -8.196694 9.00000000
-48.584852 -44.468505 -41.836337 9.00000000
-48.109591 -44.971320 -1.098381 9.00000000
-55.420981 -35.772000 -39.056741 9.00000000
-46.516345 -46.656890 -19.922270 9.00000000
-46.396443 -46.783735 -26.517948 9.00000000
-55.270173 -35.995823 -20.635974 9.00000000
-51.871387 -40.648075 -60.305801 9.00000000
-53.263474 -38.826727 -18.095502 9.00000000
-49.836820 -43.060235 -37.174052 9.00000000
-56.026302 -34.873649 -16.905646 9.00000000
-49.936085 -42.942989 -14.084752 9.00000000
-49.797417 -43.106781 -39.280749 9.00000000
-50.967234 -41.724870 0.870959 9.00000000
-46.750930 -46.408706 -23.638682 9.00000000
-49.100299 -43.923195 3.430948 9.00000000
-54.800898 -36.692296 -7.799337 9.00000000
-52.965231 -39.218153 3.414949 9.00000000
-47.744671 -45.357364 -30.055658 9.00000000
-49.432006 -43.538456 -10.221859 9.00000000
-52.024788 -40.445318 -35.890881 9.00000000
-49.609014 -43.329331 -52.554937 9.00000000
-53.131347 -38.998011 -6.250380 9.00000000
-52.823948 -39.389030 -40.549235 9.00000000
-53.304899 -38.753333 -31.793439 9.00000000
-55.547118 -35.584807 -15.497581 9.00000000
-53.022400 -39.126725 -35.004166 9.00000000
-50.474591 -42.306823 1.309276 9.00000000
-46.956275 -46.191437 -59.425331 9.00000000
-48.736105 -44.308492 -2.790952 9.00000000
-48.512377 -44.545179 -51.997323 9.00000000
-56.557469 -34.085293 -41.844782 9.00000000
-51.625802 -40.946912 -30.071587 9.00000000
-55.593955 -35.515291 -19.946160 9.00000000
-53.523834 -38.463958 3.432153 9.00000000
-51.141919 -41.518526 -49.596387 9.00000000
-46.487187 -46.687708 -52.724959 9.00000000
-47.598987 -45.511510 -8.694282 9.00000000
-52.648384 -39.621081 -12.097370 9.00000000
-51.998334 -40.480283 -33.032142 9.00000000
-49.902380 -42.982775 -60.458743 9.00000000
-53.173779 -38.926641 -41.342962 9.00000000
-52.741000 -39.498665 -56.220356 9.00000000
-48.924344 -44.109344 -54.481473 9.00000000
-48.422106 -44.640680 -17.732919 9.00000000
-56.162148 -34.672010 -41.422314 9.00000000
-55.393788 -35.812385 0.945277 9.00000000
-46.845413 -46.308771 2.585452 9.00000000
-53.574553 -38.396922 -13.650909 9.00000000
-51.870457 -40.649304 -56.987160 9.00000000
-50.031661 -42.830057 -58.944182 9.00000000
-46.357618 -46.824823 -12.785921 9.00000000
-51.270329 -41.366827 1.646481 9.00000000
-53.437302 -38.578330 -57.628372 9.00000000
-54.200012 -37.571885 -57.644852 9.00000000
-49.795249 -43.128138 -1.880965 9.00000000
-55.969827 -34.957474 -4.648246 9.00000000
-56.535912 -34.117287 -5.683510 9.00000000
-53.765766 -38.144185 -11.430292 9.00000000
-47.833434 -45.263468 -16.053044 9.00000000
-55.303792 -35.945944 -1.722084 9.00000000
-55.707363 -35.347011 3.670014 9.00000000
-56.134756 -34.712666 -38.920380 9.00000000
-54.704467 -36.835409 -22.179625 9.00000000
-52.637509 -39.635456 -24.163913 9.00000000
-49.565596 -43.380647 -9.385453 9.00000000
-55.132318 -36.200414 -44.066494 9.00000000
-54.125819 -37.668285 -25.686727 9.00000000
-47.759021 -45.342183 -27.963370 9.00000000
-47.396211 -45.726034 -13.740878 9.00000000
-55.617255 -35.480699 -55.409102 9.00000000
-52.485603 -39.836236 -26.878742 9.00000000
-50.135550 -42.707355 -27.639913 9.00000000
-56.496131 -34.176330 -27.689932 9.00000000
-48.107457 -44.973559 -37.755516 9.00000000
-51.543348 -41.044313 -13.031062 9.00000000
-51.142796 -41.517481 -22.495077 9.00000000
-51.876180 -40.641739 -37.734080 9.00000000
-54.811248 -36.676932 -16.928737 9.00000000
-50.393848 -42.404309 -3.183860 9.00000000
-53.118868 -39.003756 -23.348636 9.00000000
-52.652645 -39.617697 -9.406340 9.00000000
-52.115898 -40.324894 3.343535 9.00000000
-50.353312 -42.450099 -51.688732 9.00000000
-54.861986 -36.601633 -3.424903 9.00000000
-48.711646 -44.334364 -57.443785 9.00000000
-52.123826 -40.314415 -30.472007 9.00000000
-46.677945 -46.485919 -25.149038 9.00000000
-54.448025 -37.215998 -48.974719 9.00000000
-48.589367 -44.463732 -5.604665 9.00000000
-49.037032 -43.990127 -0.927405 9.00000000
-46.419175 -46.759709 -0.971545 9.00000000
-54.905274 -36.537383 -21.124098 9.00000000
-47.203908 -45.929457 -41.512514 9.00000000
-55.344228 -35.885915 -29.487356 9.00000000
-54.934341 -36.494241 -32.538109 9.00000000
-55.309938 -35.936814 -9.225745 9.00000000
-54.685073 -36.864187 -45.567678 9.00000000
-48.330247 -44.737861 -44.161042 9.00000000
-53.887449 -37.983349 -50.745479 9.00000000
-47.107027 -46.031951 -50.154748 9.00000000
-55.559208 -35.566850 -46.849942 9.00000000
-46.964126 -46.183146 -30.008227 9.00000000
-51.709329 -40.848989 -57.907915 9.00000000
-54.223480 -37.539201 -60.737499 9.00000000
-49.432603 -43.537734 -36.190801 9.00000000
-48.847741 -44.190385 -43.832553 9.00000000
-54.462406 -37.194656 -0.440425 9.00000000
-49.175118 -43.841886 -39.628177 9.00000000
-53.263722 -38.807758 -55.519288 9.00000000
-48.100831 -44.980580 -8.334028 9.00000000
-52.694276 -39.594591 0.261138 9.00000000
-53.639145 -38.324032 -34.675902 9.00000000
-50.488276 -42.290677 -35.648544 9.00000000
-52.507848 -39.806833 -32.763909 9.00000000
-48.839515 -44.199087 -52.670972 9.00000000
-47.698927 -45.405758 -54.944579 9.00000000
-53.798832 -38.100480 -3.828922 9.00000000
-50.062069 -42.802008 2.654933 9.00000000
-55.995077 -34.919987 -18.413547 9.00000000
-51.588949 -40.990445 -25.429553 9.00000000
-55.796059 -35.215328 -59.239485 9.00000000
-47.337922 -45.787698 -17.187821 9.00000000
-54.053423 -37.763973 -12.089221 9.00000000
-53.887182 -37.983703 -27.869209 9.00000000
-49.079391 -43.945314 -49.671974 9.00000000
-50.320754 -42.492580 -20.558454 9.00000000
-49.741061 -43.173360 -29.428660 9.00000000
-50.670347 -42.086129 -27.487831 9.00000000
-50.026612 -42.836037 -34.762830 9.00000000
-48.866398 -44.170650 0.272536 9.00000000
-56.172057 -34.657298 -51.774574 9.00000000
-54.427329 -37.246714 -47.800097 9.00000000
-46.363201 -46.818929 0.303031 9.00000000
-55.728615 -35.315427 -47.897333 9.00000000
-47.713889 -45.389929 -46.223573 9.00000000
-55.152990 -36.169737 -27.730657 9.00000000
-54.677250 -36.875794 -57.082147 9.00000000
-49.207614 -43.803505 -12.610767 9.00000000
-49.433345 -43.536862 -28.597634 9.00000000
-53.371210 -38.665687 -52.355553 9.00000000
-52.941299 -39.252858 1.549831 9.00000000
-52.754226 -39.481185 -48.699939 9.00000000
-55.354971 -35.869967 -42.028685 9.00000000
-51.098586 -41.569712 -54.469084 9.00000000
-55.295566 -35.958133 -40.852200 9.00000000
-46.757838 -46.401415 -3.758380 9.00000000
-54.345938 -37.367508 -11.386969 9.00000000
-55.629435 -35.462638 -17.519845 9.00000000
-52.994197 -39.183252 -2.068861 9.00000000
-49.113759 -43.908954 -7.071882 9.00000000
-52.758830 -39.475099 -32.031066 9.00000000
-55.864364 -35.113956 -50.963268 9.00000000
-50.021278 -42.859123 -8.677650 9.00000000
-56.113832 -34.743724 -33.886892 9.00000000
-50.697219 -42.050699 -23.240768 9.00000000
-56.410661 -34.303184 -47.794695 9.00000000
-54.036239 -37.786686 -14.052963 9.00000000
-54.030729 -37.793969 -35.107574 9.00000000
-54.126113 -37.667895 -40.671664 9.00000000
-56.358913 -34.379976 -57.336708 9.00000000
-54.189085 -37.584662 0.523116 9.00000000
-48.714098 -44.331771 -25.391560 9.00000000
-46.407748 -46.771753 -50.130622 9.00000000
-49.429667 -43.541203 -35.271883 9.00000000
-55.320961 -35.920448 -16.864876 9.00000000
-56.446442 -34.250079 -1.695461 9.00000000
-50.798182 -41.934159 -31.591863 9.00000000
-54.694299 -36.850501 -6.555102 9.00000000
-53.692975 -38.242142 -26.307618 9.00000000
-46.542785 -46.628928 -8.737108 9.00000000
-56.266506 -34.517141 -22.129537 9.00000000
-56.540039 -34.111163 -26.580680 9.00000000
-56.437722 -34.263017 -52.847022 9.00000000
-48.789583 -44.251913 -59.106220 9.00000000
-55.921068 -35.029799 -50.031183 9.00000000
-46.905192 -46.245514 -10.385956 9.00000000
-48.336984 -44.730733 -56.635571 9.00000000
-48.084941 -44.997400 0.584448 9.00000000
-51.432396 -41.175379 -4.078497 9.00000000
-56.390421 -34.333226 -36.065391 9.00000000
-51.574710 -41.007266 -21.593636 9.00000000
-56.427466 -34.278243 -14.982865 9.00000000
-48.212636 -44.862286 -21.136352 9.00000000
-55.572916 -35.546503 -57.749669 9.00000000
-47.834342 -45.262497 -60.724531 9.00000000
-48.059487 -45.024324 -4.453450 9.00000000
-48.299964 -44.769899 -53.043710 9.00000000
-54.427893 -37.245878 -2.547970 9.00000000
-46.349237 -46.833674 -29.376121 9.00000000
-53.636955 -38.316038 -22.672788 9.00000000
-46.987191 -46.158730 -58.444074 9.00000000
-52.781909 -39.444594 -59.836026 9.00000000
-56.502063 -34.167527 -10.361984 9.00000000
-47.035342 -46.107828 -2.967737 9.00000000
-52.844060 -39.362447 -52.834701 9.00000000
-46.358229 -46.824192 3.576531 9.00000000
-52.224966 -40.180732 -29.524845 9.00000000
-55.763233 -35.264051 -37.586598 9.00000000
-52.489053 -39.837373 -3.317420 9.00000000
-47.594606 -45.516142 -11.119455 9.00000000
-53.970487 -37.873595 -0.377914 9.00000000
-56.219974 -34.586205 -14.004635 9.00000000
-50.961259 -41.732157 -24.896108 9.00000000
-49.616385 -43.320618 -61.118683 9.00000000
-48.444974 -44.616487 -29.456602 9.00000000
-54.728650 -36.799519 -15.337605 9.00000000
-54.540415 -37.078877 -56.281561 9.00000000
-48.115945 -44.964579 -22.300704 9.00000000
-55.990093 -34.927357 -48.771176 9.00000000
-49.999825 -42.867672 -48.168424 9.00000000
-49.163736 -43.855329 -47.881883 9.00000000
-53.041832 -39.105908 -20.845395 9.00000000
-52.339271 -40.029650 -28.725342 9.00000000
-54.532147 -37.091153 2.848495 9.00000000
-50.811782 -41.908511 -52.555778 9.00000000
-54.480783 -37.167379 -54.142238 9.00000000
-55.733574 -35.308076 -25.293192 9.00000000
-47.711025 -45.392975 -12.829580 9.00000000
-50.234302 -42.603683 -12.296166 9.00000000
-52.351672 -40.013259 -52.880179 9.00000000
-47.100430 -46.038957 -14.680379 9.00000000
-52.682495 -39.608660 2.629857 9.00000000
-52.306634 -40.072788 -50.778045 9.00000000
-49.936252 -42.942766 -54.868799 9.00000000
-51.381005 -41.236087 -32.062409 9.00000000
-49.300735 -43.693496 -55.485828 9.00000000
-48.685350 -44.362194 2.430640 9.00000000
-48.809792 -44.230532 -34.977209 9.00000000
-51.731641 -40.821886 -16.190434 9.00000000
-52.448709 -39.885000 -41.956176 9.00000000
-48.449824 -44.611356 -16.794750 9.00000000
-53.899317 -37.967662 -52.501812 9.00000000
-47.717115 -45.386541 -2.837925 9.00000000
-47.655761 -45.451424 -58.308559 9.00000000
-55.121324 -36.216734 -24.917397 9.00000000
-54.624509 -36.954075 -35.210261 9.00000000
-46.912094 -46.238187 -38.113189 9.00000000
-47.332589 -45.793327 -31.504147 9.00000000
-54.776655 -36.728264 -59.464193 9.00000000
-49.789552 -43.116089 -11.347438 9.00000000
-53.161059 -38.955043 -4.063737 9.00000000
-54.473888 -37.177614 -50.774047 9.00000000
-53.469067 -38.536345 -43.669160 9.00000000
-56.026713 -34.873044 2.185602 9.00000000
-54.996050 -36.402663 -2.421638 9.00000000
-52.453606 -39.878528 -44.832315 9.00000000
-53.924059 -37.934960 -33.796391 9.00000000
-51.008846 -41.675715 -4.848644 9.00000000
-48.601366 -44.451034 -36.852107 9.00000000
-46.836724 -46.317945 -16.237355 9.00000000
-46.522183 -46.650693 -41.443525 9.00000000
-52.142195 -40.290135 -34.613326 9.00000000
-49.689618 -43.234132 -24.490908 9.00000000
-52.987064 -39.200332 -12.930466 9.00000000
-49.189122 -43.825346 -3.664295 9.00000000
-55.832016 -35.162000 -6.619998 9.00000000
-53.538453 -38.460870 -33.182873 9.00000000
-52.246041 -40.152877 -7.850966 9.00000000
-53.776926 -38.129435 -10.339509 9.00000000
-46.618719 -46.548576 -27.332871 9.00000000
-50.708025 -42.031084 -44.813091 9.00000000
-55.660685 -35.416245 -45.624584 9.00000000
-49.277821 -43.720584 -5.707135 9.00000000
-54.446600 -37.218114 -30.983056 9.00000000
-54.284453 -37.458609 -7.189176 9.00000000
-53.528607 -38.457650 -8.282923 9.00000000
-53.572687 -38.399385 -51.441441 9.00000000
-53.265572 -38.811884 -5.072274 9.00000000
-47.900699 -45.192318 -2.036684 9.00000000
-54.972708 -36.437306 -4.470785 9.00000000
-55.502524 -35.650977 -43.225270 9.00000000
-53.530341 -38.455358 -1.909235 9.00000000
-49.992553 -42.876261 -50.997902 9.00000000
-46.870003 -46.282726 -28.905347 9.00000000
-54.483921 -37.162726 -26.226832 9.00000000
-52.509958 -39.804045 -36.407323 9.00000000
-51.682416 -40.880033 -34.254155 9.00000000
-49.285055 -43.712024 -46.907433 9.00000000
-46.423233 -46.755396 -22.592614 9.00000000
-46.577260 -46.592423 -43.529183 9.00000000
-53.170700 -38.930711 -36.044415 9.00000000
-55.217040 -36.074674 -45.296525 9.00000000
-50.116146 -42.730275 -30.077049 9.00000000
-54.776041 -36.729181 -30.376198 9.00000000
-51.959057 -40.532198 -6.840454 9.00000000
-55.320649 -35.920915 -10.877861 9.00000000
-51.886113 -40.628610 -53.378701 9.00000000
-54.733297 -36.792616 -47.117138 9.00000000
-54.789539 -36.709148 -31.547291 9.00000000
-47.481337 -45.635986 -1.120062 9.00000000
-53.166720 -38.953597 -10.993051 9.00000000
-47.207920 -45.925244 -7.975843 9.00000000
-56.572114 -34.063556 -31.569975 9.00000000
-49.165677 -43.853036 -25.931837 9.00000000
-54.999861 -36.396997 -50.871196 9.00000000
-51.882849 -40.632925 1.933690 9.00000000
-46.611799 -46.555909 -13.653232 9.00000000
-52.976903 -39.186861 -51.184217 9.00000000
-55.582842 -35.531798 -7.473784 9.00000000
-49.134682 -43.886819 -41.236386 9.00000000
-50.605899 -42.151734 -29.799313 9.00000000
-51.271095 -41.365932 -48.565127 9.00000000
-56.023123 -34.878368 -15.882784 9.00000000
-51.027263 -41.653958 -12.601703 9.00000000
-48.271398 -44.800119 -34.589994 9.00000000
-56.091469 -34.776933 -13.051425 9.00000000
-47.519869 -45.595218 -3.824757 9.00000000
-50.812443 -41.907723 -6.147682 9.00000000
-55.677644 -35.391073 -60.054528 9.00000000
-46.472101 -46.703699 -19.088427 9.00000000
-50.071412 -42.783106 -50.065438 9.00000000
-54.059961 -37.755332 -38.794111 9.00000000
-55.763567 -35.263552 -52.109476 9.00000000
-52.157955 -40.269305 -27.734593 9.00000000
-49.079540 -43.945156 -17.054360 9.00000000
-52.869821 -39.328397 -19.974967 9.00000000
-50.649707 -42.099961 2.396220 9.00000000
-54.047131 -37.772290 -56.652859 9.00000000
-47.847560 -45.248517 -23.058544 9.00000000
-47.740186 -45.362130 -5.443475 9.00000000
-53.151189 -38.956500 -33.962484 9.00000000
-47.109351 -46.029526 -7.091262 9.00000000
-54.863969 -36.598691 0.817155 9.00000000
-53.934694 -37.920904 -2.497723 9.00000000
-49.186056 -43.828968 -43.165220 9.00000000
-50.544473 -42.224278 -56.999057 9.00000000
-54.189005 -37.584768 -26.975921 9.00000000
-51.754857 -40.794460 -40.202926 9.00000000
-52.104667 -40.339738 -55.891065 9.00000000
-47.237284 -45.894180 -5.098077 9.00000000
-53.653943 -38.291988 -6.065882 9.00000000
-47.971683 -45.117212 -9.602112 9.00000000
-52.977423 -39.186174 -38.390124 9.00000000
-50.519562 -42.253719 -37.223210 9.00000000
-48.170261 -44.907122 -12.318635 9.00000000
-55.385398 -35.824830 -3.407129 9.00000000
-51.961855 -40.528499 -26.891076 9.00000000
-52.575409 -39.755183 3.837114 9.00000000
-56.473838 -34.209418 -32.653644 9.00000000
-55.121965 -36.215786 -14.893578 9.00000000
-53.260233 -38.812370 -48.491411 9.00000000
-50.920093 -41.780571 -43.553045 9.00000000
-55.284683 -35.974279 -60.905518 9.00000000
-54.787916 -36.711555 -38.798701 9.00000000
-52.475866 -39.856442 -2.443351 9.00000000
-54.941283 -36.483941 -23.961319 9.00000000
-54.003959 -37.829353 -20.437438 9.00000000
-46.440284 -46.737341 -40.140460 9.00000000
-54.250003 -37.504144 -41.506889 9.00000000
-53.483126 -38.524786 -19.050388 9.00000000
-49.453205 -43.513382 -58.677750 9.00000000
-47.160801 -45.975066 -37.048275 9.00000000
-49.938852 -42.955809 -4.123994 9.00000000
-55.030122 -36.352088 -36.609731 9.00000000
-50.569704 -42.194485 -39.591906 9.00000000
-47.714745 -45.389023 -49.174243 9.00000000
-54.792872 -36.704203 -28.663232 9.00000000
-54.317694 -37.409426 -10.355267 9.00000000
-48.730212 -44.314723 -28.636162 9.00000000
-52.674733 -39.586254 -30.116396 9.00000000
-48.364574 -44.701548 -11.141146 9.00000000
-52.058467 -40.400802 -61.062004 9.00000000
-47.626488 -45.482394 -45.038144 9.00000000
-47.335951 -45.789764 -50.890180 9.00000000
-47.047642 -46.094812 -6.213520 9.00000000
-46.696902 -46.465837 -60.184679 9.00000000
-51.295297 -41.337340 -51.199052 9.00000000
-55.358265 -35.865081 -32.126096 9.00000000
-54.065908 -37.747472 -16.369718 9.00000000
-46.363338 -46.818782 -2.587589 9.00000000
-54.766807 -36.742890 -1.308836 9.00000000
-52.908455 -39.300231 -0.732335 9.00000000
-55.693031 -35.368242 -30.201985 9.00000000
-49.222598 -43.785807 -37.393451 9.00000000
-55.237798 -36.043866 -51.756657 9.00000000
-51.994359 -40.485537 -51.453832 9.00000000
-47.450858 -45.668199 -42.743665 9.00000000
-55.403221 -35.798383 0.016619 9.00000000
-49.203671 -43.808163 -11.102133 9.00000000
-56.216146 -34.591887 -19.946140 9.00000000
-53.823674 -38.067645 -24.555857 9.00000000
-52.525405 -39.783629 -21.283635 9.00000000
-50.950002 -41.745231 -57.967467 9.00000000
-47.599663 -45.510773 -53.396302 9.00000000
-53.730452 -38.190861 -9.093360 9.00000000
-55.286485 -35.971612 -30.549722 9.00000000
-56.495446 -34.177347 -43.233742 9.00000000
-56.358999 -34.379862 -35.242956 9.00000000
-52.486733 -39.834743 -55.115240 9.00000000
-52.075075 -40.378851 -5.475087 9.00000000
-49.745400 -43.184694 3.683936 9.00000000
-55.145182 -36.181330 -6.935965 9.00000000
-52.636248 -39.651061 -5.602529 9.00000000
-47.534935 -45.579283 -0.105926 9.00000000
-52.082571 -40.368944 -9.370571 9.00000000
-51.459807 -41.142999 -41.159659 9.00000000
-48.187359 -44.889045 -0.228918 9.00000000
-56.100311 -34.763776 -60.722030 9.00000000
-48.064767 -45.018722 -42.660455 9.00000000
-49.376936 -43.603494 -34.461795 9.00000000
-51.775302 -40.770309 -50.446705 9.00000000
-55.361471 -35.860322 -34.653105 9.00000000
-49.655410 -43.274549 -13.224326 9.00000000
-50.491170 -42.287242 -61.001449 9.00000000
-54.416274 -37.263119 -52.881020 9.00000000
-47.755743 -45.345650 -33.386023 9.00000000
-50.634928 -42.121493 -16.465443 9.00000000
-46.666170 -46.498391 -9.546882 9.00000000
-54.592039 -37.002266 -13.350467 9.00000000
-49.063398 -43.962233 -19.935121 9.00000000
-55.623930 -35.470798 -27.301882 9.00000000
-50.528337 -42.243334 -5.469131 9.00000000
-56.467831 -34.218333 -17.317219 9.00000000
-55.216683 -36.075201 -60.051174 9.00000000
-48.793844 -44.247405 -4.742972 9.00000000
-48.523464 -44.533449 -22.837853 9.00000000
-52.292066 -40.092043 -16.850593 9.00000000
-55.779482 -35.239961 -10.335636 9.00000000
-49.169609 -43.848392 -2.177345 9.00000000
-55.801389 -35.207448 -11.266911 9.00000000
-51.785449 -40.758323 -28.546019 9.00000000
-46.551567 -46.619597 -51.010368 9.00000000
-54.387613 -37.305658 -42.719327 9.00000000
-52.199805 -40.213989 -59.492809 9.00000000
-49.552615 -43.395972 -25.299869 9.00000000
-49.389254 -43.588927 -59.610791 9.00000000
-51.865849 -40.655394 -22.772300 9.00000000
-47.315843 -45.811039 -35.420354 9.00000000
-49.769618 -43.139617 -42.062473 9.00000000
-47.019983 -46.124043 -40.348039 9.00000000
-50.866034 -41.844417 -0.468342 9.00000000
-49.912390 -42.970966 -35.900889 9.00000000
-47.871831 -45.222837 -24.095268 9.00000000
-49.176465 -43.840295 1.570352 9.00000000
-50.557667 -42.218873 -22.096676 9.00000000
-50.598116 -42.160925 -33.377899 9.00000000
-52.888972 -39.303084 -54.705879 9.00000000
-48.265344 -44.806524 -30.382782 9.00000000
-54.086394 -37.720394 -31.761298 9.00000000
-47.565657 -45.546783 3.599331 9.00000000
-55.488900 -35.671212 -13.156131 9.00000000
-48.864344 -44.172820 -32.015824 9.00000000
-48.863750 -44.173448 -40.487658 9.00000000
-55.966714 -34.962055 -46.375039 9.00000000
-51.370363 -41.252401 -47.686890 9.00000000
-47.410302 -45.711104 -48.155906 9.00000000
-50.563372 -42.209530 -18.526328 9.00000000
-51.482475 -41.116222 -0.320401 9.00000000
-53.981920 -37.858483 -22.034295 9.00000000
-51.676408 -40.887131 -36.979162 9.00000000
-55.300158 -35.951318 -37.310214 9.00000000
-50.725345 -42.010619 -53.637472 9.00000000
-51.668429 -40.896557 -10.088141 9.00000000
-47.467231 -45.650883 -29.110213 9.00000000
-50.812171 -41.908044 -10.672956 9.00000000
-54.943015 -36.481373 -8.597660 9.00000000
-49.274327 -43.724690 -56.907166 9.00000000
-48.606416 -44.445692 -51.159499 9.00000000
-53.950489 -37.900027 -30.986924 9.00000000
-53.477008 -38.530262 -15.826425 9.00000000
-46.565784 -46.604568 -38.934330 9.00000000
-52.847614 -39.357748 -60.928072 9.00000000
-49.323223 -43.666957 -14.663731 9.00000000
-55.826501 -35.170159 -29.035502 9.00000000
-53.829029 -38.060566 -18.365701 9.00000000
-48.556515 -44.498483 -39.774116 9.00000000
-52.244537 -40.154866 0.732140 9.00000000
-54.318481 -37.408258 -43.696008 9.00000000
-50.503193 -42.273036 3.459799 9.00000000
-48.721909 -44.323507 -47.234972 9.00000000
-46.515906 -46.657328 -47.391128 9.00000000
-52.610882 -39.670649 -25.516918 9.00000000
-48.509391 -44.548337 -50.305827 9.00000000
-55.215004 -36.077701 -22.277090 9.00000000
-55.972146 -34.954032 -0.104598 9.00000000
-51.426260 -41.182630 -59.838774 9.00000000
-51.045004 -41.635070 -40.295145 9.00000000
-52.119794 -40.319744 -24.974841 9.00000000
-54.425173 -37.249913 -32.497474 9.00000000
-52.860845 -39.340261 -18.628323 9.00000000
-55.167051 -36.148867 -35.627897 9.00000000
-55.682516 -35.383842 -56.207981 9.00000000
-48.330510 -44.737582 -38.763473 9.00000000
-55.206613 -36.090150 -48.097567 9.00000000
-52.005988 -40.470166 -20.986693 9.00000000
-55.426743 -35.763452 -21.523934 9.00000000
-55.633125 -35.457150 -35.548468 9.00000000
-56.326865 -34.427556 -25.615674 9.00000000
-50.731559 -42.003270 -8.909672 9.00000000
-51.580170 -41.000817 -20.405241 9.00000000
-53.706705 -38.223409 -42.689718 9.00000000
-48.331881 -44.736132 -54.903239 9.00000000
-49.939235 -42.939268 -14.997440 9.00000000
-46.543096 -46.628594 -14.478824 9.00000000
-55.110838 -36.232298 -23.135301 9.00000000
-54.359282 -37.347703 3.781498 9.00000000
-52.436960 -39.900530 -31.131466 9.00000000
-55.642281 -35.443562 -31.163607 9.00000000
-55.965525 -34.963821 -44.466305 9.00000000
-54.926047 -36.506560 2.194567 9.00000000
-46.976755 -46.169770 -48.982244 9.00000000
-51.939449 -40.558115 -42.633854 9.00000000
-47.993472 -45.094148 -25.688010 9.00000000
-49.753728 -43.158402 -19.533750 9.00000000
-55.796836 -35.214192 -22.769747 9.00000000
-50.589515 -42.171076 -49.184898 9.00000000
-49.925532 -42.955435 -45.163037 9.00000000
-51.060433 -41.614789 -42.442975 9.00000000
-56.529807 -34.126348 -54.228292 9.00000000
-53.745730 -38.170667 -14.804463 9.00000000
-51.218178 -41.428437 -57.227202 9.00000000
-50.972099 -41.719123 -9.649544 9.00000000
-46.647579 -46.518052 -18.053917 9.00000000
-54.832281 -36.645716 -14.163901 9.00000000
-48.765217 -44.277690 -21.942040 9.00000000
-52.605470 -39.677802 -49.541950 9.00000000
-48.033412 -45.051916 2.022709 9.00000000
-53.949666 -37.901115 -17.305160 9.00000000
-49.824612 -43.074644 -55.819687 9.00000000
-53.338340 -38.718088 -12.181009 9.00000000
-50.813980 -41.915229 -32.461052 9.00000000
-48.477380 -44.582203 -19.569705 9.00000000
-51.191843 -41.459544 -61.111404 9.00000000
-52.748084 -39.489303 -27.898093 9.00000000
-51.880591 -40.635909 -8.611886 9.00000000
-56.253396 -34.536584 -45.334887 9.00000000
-49.567708 -43.378143 -23.559802 9.00000000
-48.251201 -44.821490 -13.447688 9.00000000
-51.160687 -41.496353 -53.182162 9.00000000
-55.889838 -35.076151 -42.736925 9.00000000
-52.581961 -39.708875 -14.642418 9.00000000
-53.549214 -38.430411 -38.964458 9.00000000
-49.410243 -43.564157 -22.230644 9.00000000
-53.519522 -38.469656 -59.707478 9.00000000
-49.922664 -42.958819 -53.240685 9.00000000
-48.057075 -45.026860 -55.855691 9.00000000
-56.558816 -34.083293 -12.624801 9.00000000
-47.120608 -46.017597 -28.088588 9.00000000
-52.232636 -40.170595 -1.466346 9.00000000
-48.502915 -44.555189 -60.943937 9.00000000
-51.485019 -41.113217 -9.187780 9.00000000
-55.113863 -36.227802 -55.286733 9.00000000
-54.670401 -36.885963 -39.792363 9.00000000
-56.342817 -34.403865 -55.333283 9.00000000
-47.736401 -45.366120 -20.664865 9.00000000
-56.124772 -34.727493 -30.794184 9.00000000
-53.264142 -38.829218 -21.813835 9.00000000
-52.115578 -40.325316 -0.612808 9.00000000
-47.527932 -45.586694 2.549335 9.00000000
-51.457976 -41.145162 0.582572 9.00000000
-50.499688 -42.277183 -55.069753 9.00000000
-48.899702 -44.135414 -7.937372 9.00000000
-53.776650 -38.140848 -41.633198 9.00000000
-53.552983 -38.434386 -25.487528 9.00000000
-55.277494 -35.984954 -38.134613 9.00000000
-49.668746 -43.258794 -15.826485 9.00000000
-53.669040 -38.272030 -53.291017 9.00000000
-52.967857 -39.198819 -26.833509 9.00000000
-54.025581 -37.800774 1.877091 9.00000000
-49.909623 -42.992335 -5.792689 9.00000000
-47.534212 -45.580016 -37.844553 9.00000000
-46.381436 -46.799610 -28.463291 9.00000000
-51.102418 -41.565179 -20.769951 9.00000000
-49.922095 -42.959507 -26.232059 9.00000000
-53.527511 -38.459097 -54.335972 9.00000000
-54.282232 -37.461545 -28.604851 9.00000000
-51.178977 -41.474741 -18.034514 9.00000000
-51.321758 -41.306075 -30.983048 9.00000000
-52.034022 -40.433112 -38.987635 9.00000000
-52.357765 -40.005206 -40.327797 9.00000000
-52.431265 -39.924846 1.612243 9.00000000
-47.602513 -45.507758 -52.368429 9.00000000
-49.573186 -43.371651 -57.769159 9.00000000
-55.971042 -34.955629 -58.103430 9.00000000
-53.251693 -38.823658 -29.706696 9.00000000
-55.287386 -35.970277 -19.299318 9.00000000
-53.031384 -39.114851 -31.065391 9.00000000
-50.908266 -41.794528 -15.293379 9.00000000
-49.696312 -43.226212 -43.912173 9.00000000
-46.394348 -46.785934 -44.886276 9.00000000
-52.581333 -39.709705 -51.764641 9.00000000
-50.838735 -41.879883 -23.998133 9.00000000
-50.507641 -42.267782 -4.619067 9.00000000
-55.489411 -35.670454 -11.958826 9.00000000
-50.025562 -42.847536 0.705175 9.00000000
-54.606240 -36.981191 -25.376608 9.00000000
-47.106237 -46.032787 -57.419401 9.00000000
-49.546835 -43.402781 -54.200282 9.00000000
-46.414172 -46.764997 -6.798339 9.00000000
-47.368192 -45.755671 -19.764539 9.00000000
-47.603953 -45.506258 -6.425612 9.00000000
-54.804154 -36.687461 -12.565875 9.00000000
-51.364794 -41.256639 -44.014693 9.00000000
-50.439281 -42.357120 -14.645362 9.00000000
-47.905862 -45.186841 -16.973473 9.00000000
-55.152591 -36.170323 -57.386065 9.00000000
-47.736075 -45.366458 -36.989350 9.00000000
-56.031695 -34.865621 -36.702669 9.00000000
-56.313718 -34.447066 -40.405406 9.00000000
-46.570676 -46.599421 -7.776325 9.00000000
-52.622911 -39.654750 -53.692414 9.00000000
-53.298027 -38.762416 -39.774293 9.00000000
-56.396332 -34.324453 -29.165945 9.00000000
-54.612925 -36.971269 -19.462953 9.00000000
-48.210390 -44.864662 -35.464933 9.00000000
-54.064127 -37.749826 -29.516665 9.00000000
-53.095100 -39.030635 -42.238320 9.00000000
-51.054984 -41.621212 -14.024963 9.00000000
-46.767222 -46.391452 -42.225704 9.00000000
-51.012634 -41.678028 -36.730057 9.00000000
-50.296559 -42.517149 -38.064749 9.00000000
-49.895927 -42.990415 -32.947142 9.00000000
-51.179556 -41.474056 -15.965932 9.00000000
-50.305477 -42.506600 -59.831423 9.00000000
-50.729211 -42.006044 -11.770296 9.00000000
-53.745457 -38.171028 -6.970925 9.00000000
-52.503359 -39.812768 -17.803003 9.00000000
-53.330821 -38.720152 -3.133470 9.00000000
-47.236167 -45.895333 -36.238095 9.00000000
-52.172987 -40.249436 -47.017518 9.00000000
-48.986774 -44.043297 -29.433688 9.00000000
-50.515297 -42.258738 -1.243293 9.00000000
-52.214233 -40.194919 -58.335600 9.00000000
-46.989290 -46.156553 0.768614 9.00000000
-54.997356 -36.400725 -5.321494 9.00000000
-48.008681 -45.078057 -58.914324 9.00000000
-54.997426 -36.400610 -54.402400 9.00000000
-48.339445 -44.728130 -46.479478 9.00000000
-50.041154 -42.818855 -40.691441 9.00000000
-55.373823 -35.841991 -25.880919 9.00000000
-52.471827 -39.854445 -6.440981 9.00000000
-55.137976 -36.192017 -46.186001 9.00000000
-51.504204 -41.090553 -5.233931 9.00000000
-46.339305 -46.844164 -48.814709 9.00000000
-54.800512 -36.692858 -49.467904 9.00000000
-50.861068 -41.850282 -3.614215 9.00000000
-54.629177 -36.947142 -55.342224 9.00000000
