-52.684907 -39.572807 -27.749884 9.00000000
-49.335632 -43.652271 -57.699593 9.00000000
-49.538728 -43.412367 -39.125885 9.00000000
-48.407401 -44.656237 -15.279157 9.00000000
-53.030907 -39.115482 -56.104225 9.00000000
-49.722533 -43.195236 -45.993386 9.00000000
-56.525710 -34.132429 -0.977220 9.00000000
-47.351661 -45.773143 -45.634328 9.00000000
-56.501287 -34.168678 -13.740362 9.00000000
-49.166899 -43.851594 -37.197730 9.00000000
-47.944947 -45.145500 -6.729470 9.00000000
-54.775848 -36.729471 -12.240971 9.00000000
-52.244233 -40.155267 -49.755374 9.00000000
-56.277667 -34.500570 -40.072349 9.00000000
-49.552708 -43.395844 -53.249292 9.00000000
-48.801684 -44.239110 -50.508609 9.00000000
-49.494656 -43.464437 -27.779169 9.00000000
-51.651493 -40.916565 -57.902176 9.00000000
-47.899517 -45.193546 -26.419922 9.00000000
-55.780459 -35.238528 2.655941 9.00000000
-55.947530 -34.990525 -53.510161 9.00000000
-49.377098 -43.603295 -45.381889 9.00000000
-53.778540 -38.127301 -20.464409 9.00000000
-56.549099 -34.097716 -17.768500 9.00000000
-48.095144 -44.986585 -23.978624 9.00000000
-49.484777 -43.476104 -31.929974 9.00000000
-54.181406 -37.594812 -24.621837 9.00000000
-52.898413 -39.314604 -1.308704 9.00000000
-54.341767 -37.373697 -18.496515 9.00000000
-52.396137 -39.954488 -15.037495 9.00000000
-54.243898 -37.512213 -61.030499 9.00000000
-50.750911 -41.980410 -13.982122 9.00000000
-47.986101 -45.101947 -21.097563 9.00000000
-50.885863 -41.820993 -8.921763 9.00000000
-53.564515 -38.424855 -32.426682 9.00000000
-52.733450 -39.508645 -20.325391 9.00000000
-50.282013 -42.534325 -49.576631 9.00000000
-55.309070 -35.938088 -54.248189 9.00000000
-53.257147 -38.816453 3.220592 9.00000000
-54.383750 -37.311391 -0.241423 9.00000000
-50.682925 -42.060725 -58.122805 9.00000000
-56.021257 -34.881142 -0.106472 9.00000000
-56.249311 -34.542663 -9.205367 9.00000000
-48.915259 -44.118955 -19.505587 9.00000000
-49.329361 -43.659677 -61.002264 9.00000000
-49.463626 -43.501080 -46.724677 9.00000000
-53.495948 -38.500814 -44.490804 9.00000000
-54.996981 -36.401270 -58.792844 9.00000000
-52.039140 -40.426349 -27.084334 9.00000000
-48.656373 -44.392840 -18.770810 9.00000000
-47.015726 -46.128549 -37.008496 9.00000000
-48.339960 -44.727586 -45.983567 9.00000000
-54.431015 -37.241243 -6.733970 9.00000000
-49.138631 -43.882641 -13.681504 9.00000000
-53.261195 -38.811099 -44.217024 9.00000000
-50.650527 -42.109710 -26.880305 9.00000000
-56.218676 -34.588131 -3.312403 9.00000000
-51.691073 -40.869807 -44.420870 9.00000000
-52.566174 -39.729741 -58.287941 9.00000000
-51.600263 -40.979071 -55.030379 9.00000000
-49.435375 -43.534465 -26.561945 9.00000000
-52.981576 -39.207636 -9.682016 9.00000000
-47.482651 -45.634587 -10.857628 9.00000000
-51.495446 -41.100899 -42.744735 9.00000000
-50.912466 -41.789584 -39.005708 9.00000000
-47.097130 -46.042452 -11.650888 9.00000000
-52.719232 -39.527438 -57.924145 9.00000000
-52.506901 -39.817781 -2.750219 9.00000000
-47.958209 -45.131467 -10.248109 9.00000000
-54.408594 -37.274518 -39.126434 9.00000000
-48.615249 -44.436346 -29.202467 9.00000000
-49.506511 -43.450441 -13.524702 9.00000000
-56.444960 -34.252279 -33.666259 9.00000000
-54.177176 -37.602591 -56.799444 9.00000000
-55.225287 -36.062433 -56.184433 9.00000000
-51.455645 -41.147916 -25.540483 9.00000000
-46.801746 -46.354952 -14.410162 9.00000000
-54.406878 -37.277067 -20.789533 9.00000000
-47.533617 -45.580669 -8.222586 9.00000000
-49.105827 -43.917346 -47.053199 9.00000000
-50.148765 -42.691723 -59.912763 9.00000000
-50.004149 -42.862575 -30.579971 9.00000000
-48.581290 -44.472273 -61.054953 9.00000000
-47.096936 -46.042635 -33.729126 9.00000000
-52.373334 -39.984628 -30.695377 9.00000000
-53.689826 -38.244559 -5.435197 9.00000000
-50.528292 -42.243396 -51.563739 9.00000000
-53.079251 -39.051583 -33.144573 9.00000000
-50.115320 -42.733636 -15.465349 9.00000000
-48.020511 -45.065542 -51.833480 9.00000000
-54.399414 -37.288140 -58.416622 9.00000000
-49.349402 -43.636040 -1.298787 9.00000000
-50.444022 -42.344821 -5.027379 9.00000000
-54.727943 -36.800569 -14.389681 9.00000000
-55.058842 -36.309473 -2.521103 9.00000000
-52.580458 -39.746224 2.172117 9.00000000
-54.841549 -36.631956 -41.207223 9.00000000
-48.371438 -44.694284 -18.779024 9.00000000
-53.514410 -38.491640 -29.930995 9.00000000
-49.447319 -43.520352 -33.819543 9.00000000
-55.845225 -35.142382 -18.473563 9.00000000
-49.303921 -43.689757 -4.732320 9.00000000
-48.339435 -44.728141 -54.261444 9.00000000
-47.978489 -45.109998 -55.660878 9.00000000
-48.610252 -44.441633 -45.916651 9.00000000
-48.777654 -44.264532 -30.516344 9.00000000
-49.520959 -43.433364 -29.385548 9.00000000
-54.071344 -37.740286 -12.564395 9.00000000
-50.372724 -42.427171 -45.837239 9.00000000
-49.363106 -43.619842 -17.909226 9.00000000
-48.976003 -44.054691 -25.891003 9.00000000
-54.600093 -36.990308 -50.244501 9.00000000
-50.420891 -42.370259 2.301931 9.00000000
-52.207279 -40.204111 -2.131297 9.00000000
-52.510710 -39.803050 -60.151601 9.00000000
-49.935221 -42.944010 -14.248660 9.00000000
-51.152312 -41.506247 -52.154615 9.00000000
-52.181629 -40.238013 -12.004427 9.00000000
-54.936989 -36.490309 -47.435062 9.00000000
-52.987336 -39.173071 -52.520805 9.00000000
-47.804407 -45.294166 -60.976345 9.00000000
-50.468846 -42.313636 -26.486514 9.00000000
-56.197062 -34.620211 -14.379935 9.00000000
-55.593867 -35.515415 -30.779191 9.00000000
-50.689236 -42.059915 -22.583386 9.00000000
-56.257632 -34.530312 1.273206 9.00000000
-51.997081 -40.481939 -45.002953 9.00000000
-46.649580 -46.515919 -34.576863 9.00000000
-56.261059 -34.525227 -28.921172 9.00000000
-55.812666 -35.190714 -9.673338 9.00000000
-46.599719 -46.568651 -58.928775 9.00000000
-50.195496 -42.636536 -35.559507 9.00000000
-48.176788 -44.900225 -4.471107 9.00000000
-54.729172 -36.798746 -2.680099 9.00000000
-49.184228 -43.831126 -52.500255 9.00000000
-53.674648 -38.264621 -10.837731 9.00000000
-49.753411 -43.158766 -37.115173 9.00000000
-48.809471 -44.230872 -12.720828 9.00000000
-54.586209 -37.010914 -48.557673 9.00000000
-47.194380 -45.939537 -48.313402 9.00000000
-54.635147 -36.938285 -36.859813 9.00000000
-53.495730 -38.501102 -52.181822 9.00000000
-48.409155 -44.654392 -2.651833 9.00000000
-48.256835 -44.815543 0.709507 9.00000000
-56.203183 -34.611126 -3.871770 9.00000000
-56.010911 -34.896497 -4.997215 9.00000000
-51.928374 -40.572752 -15.128459 9.00000000
-53.895519 -37.972682 -56.355864 9.00000000
-47.021899 -46.122011 -60.146740 9.00000000
-54.993527 -36.406399 -45.010960 9.00000000
-52.138298 -40.295286 -54.801581 9.00000000
-51.305346 -41.325462 -23.047610 9.00000000
-50.093172 -42.769559 -4.980048 9.00000000
-46.778087 -46.379960 -39.737748 9.00000000
-48.439586 -44.622187 -44.379487 9.00000000
-52.755005 -39.480155 -36.751491 9.00000000
-53.699015 -38.238876 -31.822898 9.00000000
-47.259815 -45.870311 -50.427303 9.00000000
-54.826671 -36.654036 -43.452063 9.00000000
-50.358851 -42.447312 -4.110359 9.00000000
-56.536982 -34.115699 -53.775676 9.00000000
-53.116105 -39.002871 -50.319779 9.00000000
-55.103826 -36.242703 -28.440907 9.00000000
-52.333657 -40.037071 -1.093063 9.00000000
-47.122834 -46.015244 -25.490291 9.00000000
-49.735920 -43.179427 -38.232560 9.00000000
-51.230215 -41.414217 -58.497904 9.00000000
-53.292970 -38.788977 -24.478236 9.00000000
-55.212274 -36.081771 2.441197 9.00000000
-51.695274 -40.865079 -56.551341 9.00000000
-56.167821 -34.663611 -15.908029 9.00000000
-52.379311 -39.976727 -13.482519 9.00000000
-54.860729 -36.603493 -31.295994 9.00000000
-49.118728 -43.903698 -33.177383 9.00000000
-55.959394 -34.972917 -60.629123 9.00000000
-55.460685 -35.713071 -49.930767 9.00000000
-48.803538 -44.237149 -20.068269 9.00000000
-49.690775 -43.232743 -57.491132 9.00000000
-49.949144 -42.937960 3.779107 9.00000000
-47.714995 -45.388776 -10.532853 9.00000000
-46.340864 -46.842534 -28.541945 9.00000000
-50.413476 -42.379017 2.893643 9.00000000
-47.637299 -45.470971 -15.549619 9.00000000
-56.102819 -34.760088 -18.375439 9.00000000
-55.715096 -35.335494 -32.311521 9.00000000
-49.542665 -43.407721 -31.131287 9.00000000
-56.530420 -34.125439 -15.142086 9.00000000
-46.620289 -46.546889 -56.820903 9.00000000
-47.309162 -45.818130 -11.205568 9.00000000
-50.186924 -42.653078 -0.616083 9.00000000
-47.206745 -45.926497 2.855534 9.00000000
-51.574409 -41.007621 -35.513837 9.00000000
-49.396109 -43.580852 -23.889993 9.00000000
-49.478483 -43.483528 -50.152178 9.00000000
-48.935276 -44.097778 -35.490425 9.00000000
-52.917587 -39.293317 -10.432294 9.00000000
-54.455808 -37.204448 -23.297271 9.00000000
-54.087330 -37.719821 -49.570937 9.00000000
-55.538240 -35.597973 -35.127898 9.00000000
-48.640552 -44.409579 -7.169836 9.00000000
-56.012850 -34.893620 -9.054266 9.00000000
-46.769720 -46.388822 -28.572312 9.00000000
-52.813701 -39.402574 -27.403524 9.00000000
-51.015806 -41.667501 -52.618484 9.00000000
-50.519950 -42.253259 -38.527037 9.00000000
-54.487102 -37.158005 0.965195 9.00000000
-50.790070 -41.934152 -9.364128 9.00000000
-51.136614 -41.524784 -18.039901 9.00000000
-56.319878 -34.437927 -35.733094 9.00000000
-50.221203 -42.619778 -12.640154 9.00000000
-51.966237 -40.522707 -38.975085 9.00000000
-46.790371 -46.366953 -54.036619 9.00000000
-52.104643 -40.339769 -7.196075 9.00000000
-48.047547 -45.036939 -42.130010 9.00000000
-52.403247 -39.945091 -6.420928 9.00000000
-51.508309 -41.085704 -41.444162 9.00000000
-56.001806 -34.909971 -57.170149 9.00000000
-55.107585 -36.237122 -36.904635 9.00000000
-55.800871 -35.208212 -15.351460 9.00000000
-51.210691 -41.437277 -13.216616 9.00000000
-48.790344 -44.251107 -39.597392 9.00000000
-55.463486 -35.708920 -27.059033 9.00000000
-54.963392 -36.451132 -6.852776 9.00000000
-52.575505 -39.717409 -8.291251 9.00000000
-46.912565 -46.237683 -43.606827 9.00000000
-54.979999 -36.426475 -49.545899 9.00000000
-46.385148 -46.795667 -46.306049 9.00000000
-48.639723 -44.410454 -54.594329 9.00000000
-47.140604 -45.996439 -31.209788 9.00000000
-50.507844 -42.271943 -11.465046 9.00000000
-52.645413 -39.643861 -4.506304 9.00000000
-55.326585 -35.912115 -3.144551 9.00000000
-50.069939 -42.784856 -33.653040 9.00000000
-48.413181 -44.650122 -46.665381 9.00000000
-50.097949 -42.751767 -36.713433 9.00000000
-51.881732 -40.634402 -52.399599 9.00000000
-49.524669 -43.428979 -33.180345 9.00000000
-53.625599 -38.329449 -57.504988 9.00000000
-53.221311 -38.881786 -14.752340 9.00000000
-52.255592 -40.140254 -2.636363 9.00000000
-51.614281 -40.960521 -24.773560 9.00000000
-46.760866 -46.398182 -36.759223 9.00000000
-48.347705 -44.719392 -36.721106 9.00000000
-55.728412 -35.315766 -0.382966 9.00000000
-54.803141 -36.688956 -51.899328 9.00000000
-55.913400 -35.041204 -18.960870 9.00000000
-51.557974 -41.027036 -33.296368 9.00000000
-49.846122 -43.049239 -49.310945 9.00000000
-52.741210 -39.528487 1.787452 9.00000000
-48.090224 -44.991807 -2.912342 9.00000000
-49.458071 -43.507670 -2.937187 9.00000000
-52.548142 -39.753576 -27.376710 9.00000000
-47.066566 -46.074781 -17.532451 9.00000000
-52.190210 -40.226672 -38.649333 9.00000000
-56.052480 -34.834801 -2.907550 9.00000000
-49.588216 -43.353929 -7.044176 9.00000000
-52.825679 -39.413675 0.001583 9.00000000
-47.835108 -45.261687 -33.909861 9.00000000
-48.323035 -44.745492 -14.518841 9.00000000
-56.556659 -34.086494 -9.138315 9.00000000
-49.653187 -43.277155 -43.776358 9.00000000
-49.395214 -43.581908 -25.209302 9.00000000
-52.539184 -39.765416 -22.599454 9.00000000
-50.710900 -42.027674 -6.534656 9.00000000
-56.574844 -34.059504 -54.962227 9.00000000
-56.353014 -34.388745 -25.687285 9.00000000
-48.707153 -44.339118 -27.708155 9.00000000
-48.934910 -44.098165 -56.317187 9.00000000
-55.870225 -35.105282 -16.420478 9.00000000
-54.621580 -36.958420 -41.797163 9.00000000
-54.156669 -37.627508 -29.620919 9.00000000
-54.830506 -36.648344 -45.702329 9.00000000
-51.038834 -41.643679 -32.874997 9.00000000
-50.234724 -42.602080 -10.694626 9.00000000
-47.423033 -45.697652 -19.225868 9.00000000
-51.490674 -41.106537 -30.256164 9.00000000
-48.845628 -44.192621 -36.326890 9.00000000
-55.208647 -36.087128 -58.063441 9.00000000
-53.111418 -39.031518 -12.824842 9.00000000
-49.981594 -42.889226 -21.345032 9.00000000
-54.822404 -36.660379 0.327624 9.00000000
-51.283316 -41.351492 -54.230939 9.00000000
-55.059546 -36.308423 -18.315836 9.00000000
-48.474908 -44.584818 -35.347586 9.00000000
-53.536851 -38.446753 -11.748096 9.00000000
-46.415430 -46.763630 -45.890739 9.00000000
-52.939782 -39.254984 1.512684 9.00000000
-47.459668 -45.658888 -24.597927 9.00000000
-56.295795 -34.473663 -42.984774 9.00000000
-46.624204 -46.542797 -2.342326 9.00000000
-47.331643 -45.794331 -28.352036 9.00000000
-51.178945 -41.474779 -9.919547 9.00000000
-49.274411 -43.724612 -15.718313 9.00000000
-50.769725 -41.958205 -34.328073 9.00000000
-49.720878 -43.197186 -53.596465 9.00000000
-55.602319 -35.502905 2.282127 9.00000000
-50.409554 -42.383674 -30.407842 9.00000000
-50.382179 -42.416006 -40.631458 9.00000000
-54.661922 -36.898552 -13.493011 9.00000000
-50.084553 -42.767583 -49.034678 9.00000000
-51.121220 -41.548388 -41.546368 9.00000000
-47.664556 -45.442120 -35.252371 9.00000000
-55.499967 -35.654771 -51.073843 9.00000000
-50.749152 -41.983736 -17.247116 9.00000000
-54.209446 -37.557749 -42.910291 9.00000000
-53.811767 -38.087177 -35.903150 9.00000000
-53.736113 -38.183379 -22.443166 9.00000000
-54.364580 -37.339841 -24.053538 9.00000000
-53.825992 -38.064581 -13.223464 9.00000000
-50.896838 -41.808038 -48.420726 9.00000000
-52.116195 -40.324501 -37.049564 9.00000000
-54.384446 -37.310357 -35.881177 9.00000000
-47.368861 -45.754951 -33.859306 9.00000000
-53.707297 -38.229576 -34.131552 9.00000000
-52.887747 -39.304704 -37.426764 9.00000000
-53.075663 -39.056326 -35.985946 9.00000000
-50.100278 -42.762446 -7.165345 9.00000000
-48.448464 -44.612795 -38.034051 9.00000000
-46.421855 -46.756834 -44.695785 9.00000000
-54.355309 -37.353600 -9.041670 9.00000000
-46.405924 -46.773682 -50.772042 9.00000000
-53.687251 -38.247962 -22.024737 9.00000000
-55.460460 -35.713409 -29.804688 9.00000000
-46.407587 -46.771965 -6.315509 9.00000000
-47.311337 -45.815810 -32.294998 9.00000000
-49.539171 -43.411846 -35.170884 9.00000000
-49.331092 -43.657659 -18.340998 9.00000000
-56.222765 -34.582059 -32.753035 9.00000000
-55.990590 -34.926626 -35.403571 9.00000000
-55.933575 -35.011263 -17.295819 9.00000000
-54.956851 -36.460832 -42.211002 9.00000000
-49.506027 -43.451022 -0.364993 9.00000000
-47.727165 -45.375910 -0.472024 9.00000000
-47.643670 -45.464216 -31.126173 9.00000000
-49.794357 -43.110398 -35.216727 9.00000000
-51.628710 -40.943965 -54.053943 9.00000000
-52.422148 -39.920107 -52.930252 9.00000000
-47.591394 -45.519549 -2.031801 9.00000000
-52.262245 -40.131459 -36.667858 9.00000000
-50.997478 -41.689143 -15.097808 9.00000000
-56.466196 -34.220760 -3.125832 9.00000000
-47.453479 -45.665445 -16.034855 9.00000000
-55.122899 -36.214396 -33.513056 9.00000000
-53.830238 -38.058967 -59.138304 9.00000000
-51.510709 -41.082870 -43.341550 9.00000000
-46.549609 -46.621672 -48.211863 9.00000000
-50.668145 -42.078188 -54.536919 9.00000000
-52.717439 -39.549997 -6.383735 9.00000000
-49.328568 -43.660647 -7.967460 9.00000000
-55.834244 -35.158693 -7.518707 9.00000000
-50.018678 -42.845396 -55.908760 9.00000000
-51.929344 -40.571471 -10.211259 9.00000000
-48.701795 -44.344787 -12.314263 9.00000000
-51.351065 -41.271455 -22.639996 9.00000000
-53.933732 -37.923612 -40.892121 9.00000000
-51.977508 -40.507810 -23.774361 9.00000000
-55.537683 -35.598795 -48.135227 9.00000000
-47.488227 -45.628665 -59.364879 9.00000000
-51.605853 -40.970477 -39.798023 9.00000000
-48.101660 -44.979694 -18.470887 9.00000000
-55.881732 -35.088177 -56.687291 9.00000000
-47.028350 -46.115229 0.895439 9.00000000
-48.555207 -44.499868 -42.436564 9.00000000
-49.862626 -43.029751 -37.758888 9.00000000
-52.410768 -39.935150 -37.288039 9.00000000
-50.569634 -42.194550 -0.035902 9.00000000
-54.981075 -36.424885 -16.999518 9.00000000
-55.389149 -35.819240 -48.478516 9.00000000
-51.873631 -40.645109 -16.441161 9.00000000
-53.916423 -37.945054 -24.056492 9.00000000
-56.275635 -34.503578 -46.368360 9.00000000
-54.980870 -36.425182 -49.988944 9.00000000
-46.369410 -46.812324 -37.736145 9.00000000
-48.041365 -45.043480 -35.753333 9.00000000
-53.083905 -39.069844 -13.257475 9.00000000
-50.607319 -42.152186 -12.458339 9.00000000
-53.137342 -38.974802 -31.452859 9.00000000
-56.512058 -34.152691 -35.170854 9.00000000
-52.722226 -39.523481 -17.005697 9.00000000
-47.733746 -45.368922 -56.331086 9.00000000
-49.327718 -43.661643 -22.058537 9.00000000
-54.032401 -37.791759 -8.239635 9.00000000
-46.887885 -46.263790 -53.634721 9.00000000
-53.184839 -38.912022 -48.397593 9.00000000
-50.853189 -41.859590 1.399283 9.00000000
-54.150676 -37.635429 -23.078548 9.00000000
-49.955771 -42.928694 -9.689114 9.00000000
-50.557349 -42.209086 -30.857693 9.00000000
-56.250213 -34.541323 -24.274593 9.00000000
-53.258976 -38.832191 -23.897810 9.00000000
-54.992507 -36.407922 -4.191922 9.00000000
-52.948980 -39.236200 -15.811281 9.00000000
-47.513533 -45.601893 -54.547843 9.00000000
-53.652110 -38.294410 -4.830940 9.00000000
-56.556704 -34.086427 -45.306526 9.00000000
-55.672387 -35.398912 -1.613844 9.00000000
-48.004316 -45.082684 -13.555425 9.00000000
-48.716071 -44.329684 -34.058572 9.00000000
-55.386653 -35.822949 -33.682054 9.00000000
-55.615675 -35.483046 -42.367667 9.00000000
-53.876314 -37.998068 -29.766213 9.00000000
-51.545651 -41.041593 -45.871673 9.00000000
-51.222514 -41.423313 -60.369243 9.00000000
-47.537316 -45.576732 -36.165335 9.00000000
-50.488880 -42.289950 -56.669174 9.00000000
-50.627618 -42.133514 -21.116143 9.00000000
-53.316933 -38.742244 -6.344070 9.00000000
-52.683550 -39.605456 -2.321451 9.00000000
-55.791930 -35.221471 -23.734998 9.00000000
-46.776642 -46.381492 -36.227207 9.00000000
-47.033819 -46.109400 -48.839148 9.00000000
-53.051029 -39.088886 -35.483912 9.00000000
-51.253895 -41.386241 -26.477204 9.00000000
-56.266118 -34.517715 -36.167205 9.00000000
-48.021850 -45.064126 -25.297627 9.00000000
-47.504985 -45.610937 -37.614064 9.00000000
-53.260072 -38.822531 -8.411333 9.00000000
-52.090567 -40.358375 -13.546593 9.00000000
-55.815643 -35.186265 -49.516508 9.00000000
-48.355907 -44.710725 -3.306522 9.00000000
-46.836012 -46.318706 -9.420957 9.00000000
-50.655483 -42.093152 -43.344273 9.00000000
-46.366217 -46.815707 -33.450883 9.00000000
-51.723327 -40.831707 -21.048213 9.00000000
-47.687230 -45.418134 -28.055447 9.00000000
-55.208967 -36.086675 -0.079572 9.00000000
-54.689969 -36.856927 -15.861959 9.00000000
-50.156073 -42.683105 -36.246872 9.00000000
-53.346039 -38.698956 -35.537407 9.00000000
-53.527297 -38.459381 -13.343623 9.00000000
-55.210275 -36.084712 -60.257528 9.00000000
-46.424954 -46.753590 -6.988388 9.00000000
-53.679743 -38.257885 -14.446086 9.00000000
-49.336673 -43.651042 -56.489405 9.00000000
-54.569102 -37.036307 -25.497244 9.00000000
-47.499119 -45.617142 -50.823730 9.00000000
-47.162310 -45.973484 -22.220103 9.00000000
-47.719855 -45.383641 -4.436447 9.00000000
-53.016886 -39.134015 -23.386834 9.00000000
-51.954374 -40.538388 -28.381419 9.00000000
-51.157335 -41.500306 -12.521686 9.00000000
-54.760954 -36.751578 1.859983 9.00000000
-55.474130 -35.693117 -52.864617 9.00000000
-52.676562 -39.583836 -59.129342 9.00000000
-55.924654 -35.024479 -42.943259 9.00000000
-51.610681 -40.964774 -10.370046 9.00000000
-47.884543 -45.209415 3.700440 9.00000000
-53.407213 -38.629131 -18.712403 9.00000000
-51.854230 -40.670752 -56.066879 9.00000000
-51.813233 -40.724940 -23.403956 9.00000000
-49.585665 -43.356910 -56.012773 9.00000000
-56.042924 -34.848950 -41.398907 9.00000000
-54.870661 -36.588747 -53.288049 9.00000000
-55.736825 -35.303247 -29.040133 9.00000000
-51.613659 -40.961259 -56.970978 9.00000000
-54.048950 -37.769886 -4.923584 9.00000000
-56.203722 -34.610326 -19.906947 9.00000000
-50.936483 -41.761202 -55.957230 9.00000000
-47.786981 -45.312603 -32.773643 9.00000000
-53.421046 -38.599819 -7.211129 9.00000000
-51.363782 -41.256432 -35.830289 9.00000000
-46.412952 -46.766240 -58.029463 9.00000000
-53.986689 -37.852179 -9.593178 9.00000000
-56.543062 -34.106676 -53.268239 9.00000000
-52.683644 -39.574476 -51.897268 9.00000000
-46.532996 -46.639240 -56.374331 9.00000000
-53.981435 -37.859123 -59.609290 9.00000000
-54.515462 -37.115915 -3.813240 9.00000000
-47.293319 -45.834865 -55.662742 9.00000000
-47.339656 -45.785881 0.941534 9.00000000
-53.130106 -38.984365 -42.794001 9.00000000
-53.948115 -37.903165 -5.342532 9.00000000
-50.412591 -42.380070 -55.737831 9.00000000
-48.973272 -44.057581 -44.627756 9.00000000
-55.332860 -35.902780 -53.268337 9.00000000
-55.008558 -36.384087 -58.369986 9.00000000
-55.776385 -35.244533 -30.432159 9.00000000
-46.436495 -46.741349 -39.276103 9.00000000
-46.390351 -46.790196 -9.347504 9.00000000
-56.448452 -34.247097 -19.948729 9.00000000
-49.544322 -43.405765 -30.655569 9.00000000
-48.660014 -44.388995 -0.330983 9.00000000
-53.372888 -38.663471 1.048083 9.00000000
-48.760130 -44.283072 -11.569042 9.00000000
-55.518929 -35.626654 -5.326634 9.00000000
-56.548181 -34.099078 -36.677321 9.00000000
-49.377361 -43.602981 -51.167286 9.00000000
-48.247798 -44.825087 -52.723679 9.00000000
-48.305262 -44.764293 -61.112399 9.00000000
-55.772844 -35.249815 -8.707496 9.00000000
-55.242172 -36.037399 2.920500 9.00000000
-53.536734 -38.447446 -37.546887 9.00000000
-53.035865 -39.120392 -18.802207 9.00000000
-52.592628 -39.694776 -25.682788 9.00000000
-47.529026 -45.585502 -58.826284 9.00000000
-47.714561 -45.389228 -18.732811 9.00000000
-52.861677 -39.339161 -49.151652 9.00000000
-50.035506 -42.838052 -3.040693 9.00000000
-54.715670 -36.818784 -5.691615 9.00000000
-49.527015 -43.426201 -44.824165 9.00000000
-48.600574 -44.451872 -58.262811 9.00000000
-51.869936 -40.649993 -36.089808 9.00000000
-47.127352 -46.010448 -55.047703 9.00000000
-52.199185 -40.214808 -58.879847 9.00000000
-48.802162 -44.238604 -58.696452 9.00000000
-49.738813 -43.176019 -23.556985 9.00000000
-48.305983 -44.763530 -55.764841 9.00000000
-50.178395 -42.656743 -26.292553 9.00000000
-46.704902 -46.457374 -56.011392 9.00000000
-52.426427 -39.914452 -38.749385 9.00000000
-48.443441 -44.618109 -19.883326 9.00000000
-54.195815 -37.575766 -46.819028 9.00000000
-54.546385 -37.070022 -4.963340 9.00000000
-52.313157 -40.064166 -34.478445 9.00000000
-48.010676 -45.075963 -5.904786 9.00000000
-46.782612 -46.375176 -35.677340 9.00000000
-51.307329 -41.323120 -6.899920 9.00000000
-48.716974 -44.328728 -43.359854 9.00000000
-51.777535 -40.767671 -40.736332 9.00000000
-56.089907 -34.779252 -13.711500 9.00000000
-50.468515 -42.314012 -49.170400 9.00000000
-50.523463 -42.249112 -34.511724 9.00000000
-49.743020 -43.171043 -33.551628 9.00000000
-53.178927 -38.919837 -43.359576 9.00000000
-46.412883 -46.766313 -57.138694 9.00000000
-51.259883 -41.379167 -11.827245 9.00000000
-52.063048 -40.394747 -6.204793 9.00000000
-53.975361 -37.869349 -44.300813 9.00000000
-50.105525 -42.742814 -40.792401 9.00000000
-52.514151 -39.798503 -17.371391 9.00000000
-55.183789 -36.124030 -15.393567 9.00000000
-47.240259 -45.891038 0.523537 9.00000000
-51.341395 -41.282887 -49.804290 9.00000000
-49.298923 -43.695656 -25.835340 9.00000000
-52.457569 -39.873290 -42.426240 9.00000000
-54.397144 -37.291512 -35.405572 9.00000000
-52.802804 -39.416977 -36.317207 9.00000000
-49.714594 -43.204609 -54.030170 9.00000000
-55.500133 -35.654555 -0.469365 9.00000000
-49.557423 -43.390270 -59.794116 9.00000000
-53.618239 -38.345424 -26.578569 9.00000000
-51.878735 -40.638362 -18.526856 9.00000000
-47.666958 -45.439604 -4.000954 9.00000000
-55.715545 -35.334825 -41.971852 9.00000000
-46.454281 -46.722534 -38.388358 9.00000000
-49.702506 -43.218911 -19.372558 9.00000000
-55.186884 -36.119444 -4.994052 9.00000000
-49.640540 -43.292084 -60.219507 9.00000000
-55.590160 -35.520923 -20.583094 9.00000000
-46.352663 -46.830025 -56.738271 9.00000000
-51.514515 -41.078373 -30.880378 9.00000000
-51.051601 -41.625208 0.410621 9.00000000
-47.183800 -45.950730 -56.168496 9.00000000
-53.514139 -38.484483 -21.724057 9.00000000
-54.644275 -36.924742 0.680400 9.00000000
-55.091643 -36.260788 -13.422956 9.00000000
-52.418169 -39.925367 -51.969989 9.00000000
-49.636577 -43.296800 -6.624946 9.00000000
-53.259238 -38.818925 -3.227937 9.00000000
-52.592337 -39.695160 -45.559506 9.00000000
-55.254921 -36.018464 -9.796328 9.00000000
-48.441006 -44.620685 -53.235890 9.00000000
-49.684040 -43.240730 -10.757375 9.00000000
-52.133982 -40.300991 -10.954968 9.00000000
-49.095696 -43.928064 -40.820788 9.00000000
-52.558807 -39.739479 -24.117867 9.00000000
-48.570940 -44.483223 -50.854327 9.00000000
-54.362948 -37.342263 -9.490131 9.00000000
-53.545522 -38.439865 -20.249079 9.00000000
-56.543153 -34.106540 -2.274164 9.00000000
-52.981690 -39.180534 -44.381589 9.00000000
-46.657809 -46.507202 -46.742133 9.00000000
-50.603706 -42.154301 -0.999622 9.00000000
-54.297482 -37.439422 -49.152110 9.00000000
-53.128474 -38.995371 0.943067 9.00000000
-55.744121 -35.292454 0.119120 9.00000000
-50.823601 -41.894541 -16.213215 9.00000000
-55.182888 -36.125367 -14.813719 9.00000000
-53.614704 -38.343849 -42.462958 9.00000000
-56.459352 -34.230918 -34.642848 9.00000000
-49.683076 -43.251432 -2.288500 9.00000000
-52.529686 -39.777969 -25.128924 9.00000000
-55.587246 -35.525248 -20.136746 9.00000000
-48.975138 -44.055607 -60.260148 9.00000000
-54.552160 -37.061452 -16.503743 9.00000000
-54.008449 -37.823418 -8.921651 9.00000000
-47.285552 -45.843101 -20.182064 9.00000000
-54.089894 -37.715768 -18.348375 9.00000000
-54.223041 -37.539780 -30.623278 9.00000000
-46.428681 -46.749648 -5.833855 9.00000000
-50.268170 -42.550694 -23.564021 9.00000000
-51.849150 -40.677466 -7.402466 9.00000000
-48.967776 -44.063395 -55.793016 9.00000000
-53.034069 -39.114652 -21.029499 9.00000000
-50.364793 -42.436551 -28.964162 9.00000000
-49.277196 -43.721310 -44.006166 9.00000000
-56.116038 -34.740467 -9.573242 9.00000000
-47.152872 -45.983489 0.088435 9.00000000
-52.334040 -40.036564 -32.612440 9.00000000
-53.554273 -38.430142 -22.799940 9.00000000
-53.703220 -38.226853 -54.208444 9.00000000
-55.645269 -35.439128 -26.616722 9.00000000
-49.063763 -43.961847 -53.408368 9.00000000
-52.183794 -40.235152 1.934569 9.00000000
-55.530776 -35.609045 -56.186487 9.00000000
-55.089536 -36.263914 -20.003237 9.00000000
-55.830066 -35.164857 -58.449467 9.00000000
-52.684791 -39.572959 -52.666770 9.00000000
-55.677136 -35.391859 -6.586794 9.00000000
-49.485878 -43.474800 -36.273213 9.00000000
-54.139611 -37.650055 -9.285862 9.00000000
-47.781163 -45.318757 -41.591462 9.00000000
-52.766127 -39.465455 -47.188497 9.00000000
-51.240989 -41.401486 -16.421663 9.00000000
-56.573379 -34.061679 -38.507852 9.00000000
-54.400041 -37.287213 -43.209239 9.00000000
-48.149042 -44.929579 -3.972757 9.00000000
-48.712834 -44.333108 -40.284458 9.00000000
-54.407200 -37.276588 -36.624978 9.00000000
-50.972046 -41.719186 -21.768450 9.00000000
-47.316867 -45.809958 -33.074004 9.00000000
-52.513511 -39.799349 -50.532421 9.00000000
-50.930033 -41.771343 -26.921928 9.00000000
-55.983917 -34.936562 3.561086 9.00000000
-50.141606 -42.700192 -40.379113 9.00000000
-52.616493 -39.663233 -32.919985 9.00000000
-54.955206 -36.463270 -55.531603 9.00000000
-52.176220 -40.245162 -60.282659 9.00000000
-47.577604 -45.534127 -13.520302 9.00000000
-47.794215 -45.304951 -25.502136 9.00000000
-55.442613 -35.739915 -4.921707 9.00000000
-47.239101 -45.892228 -36.293187 9.00000000
-51.565256 -41.018433 -31.663359 9.00000000
-48.368120 -44.697793 -31.673960 9.00000000
-49.621383 -43.314721 -49.701709 9.00000000
-49.649729 -43.301341 1.040455 9.00000000
-53.447112 -38.565363 -54.334082 9.00000000
-49.423501 -43.548504 -7.522614 9.00000000
-53.242917 -38.835258 -41.318295 9.00000000
-56.030890 -34.866845 -12.673354 9.00000000
-50.850302 -41.863001 -17.745099 9.00000000
-54.798478 -36.695884 -16.264762 9.00000000
-54.338715 -37.378227 -31.611836 9.00000000
-46.864721 -46.288344 2.635014 9.00000000
-50.390613 -42.406030 -60.128574 9.00000000
-54.974279 -36.434966 -43.951585 9.00000000
-49.743538 -43.170442 -16.710265 9.00000000
-46.458043 -46.718579 -11.319227 9.00000000
-52.828334 -39.383232 -55.697324 9.00000000
-52.239719 -40.161232 -53.913433 9.00000000
-52.365750 -39.994652 -36.270152 9.00000000
-53.923207 -37.936087 -19.997044 9.00000000
-52.982679 -39.179227 -25.605310 9.00000000
-52.847879 -39.374278 -11.396380 9.00000000
-55.931383 -35.014490 -53.069353 9.00000000
-50.676374 -42.070229 -14.873821 9.00000000
-47.109825 -46.028995 -38.258475 9.00000000
-50.186479 -42.647195 -22.703509 9.00000000
-49.310492 -43.681996 -5.760626 9.00000000
-50.014087 -42.850837 -28.239767 9.00000000
-51.065660 -41.608600 1.065287 9.00000000
-54.621750 -36.958171 -28.306746 9.00000000
-53.983600 -37.856262 1.925878 9.00000000
-55.154764 -36.167101 -48.425658 9.00000000
-56.348427 -34.395554 -31.137489 9.00000000
-46.811046 -46.345105 -22.781370 9.00000000
-48.192895 -44.883171 -26.509345 9.00000000
-56.228282 -34.573873 -4.573453 9.00000000
-50.088538 -42.762886 -31.212644 9.00000000
-49.590313 -43.351418 -59.070366 9.00000000
-48.475021 -44.584702 -9.112028 9.00000000
-51.463417 -41.138735 -34.487336 9.00000000
-52.295135 -40.087987 -48.989038 9.00000000
-48.344381 -44.722908 -48.197890 9.00000000
-51.372650 -41.245956 -14.853836 9.00000000
-52.554509 -39.745160 -48.249440 9.00000000
-48.037277 -45.047805 -24.811323 9.00000000
-55.901716 -35.058543 -20.235702 9.00000000
-49.599749 -43.340283 -40.124122 9.00000000
-53.038740 -39.116739 3.494481 9.00000000
-50.372814 -42.435149 -11.064748 9.00000000
-55.123017 -36.214232 -1.558135 9.00000000
-53.507972 -38.489553 -17.982467 9.00000000
-55.642103 -35.443820 -58.096896 9.00000000
-53.670298 -38.270368 -50.038100 9.00000000
-55.955559 -34.978652 0.413581 9.00000000
-52.499299 -39.818133 -37.962934 9.00000000
-49.709928 -43.210136 -30.301745 9.00000000
-56.400582 -34.318145 -32.009050 9.00000000
-54.762640 -36.749075 -9.114032 9.00000000
-50.403107 -42.391288 -33.442323 9.00000000
-47.405043 -45.716668 -44.940300 9.00000000
-50.790531 -41.933623 -40.751310 9.00000000
-49.102479 -43.920888 -20.182315 9.00000000
-46.888378 -46.263283 -31.856910 9.00000000
-56.323672 -34.432281 -51.183279 9.00000000
-56.107163 -34.753640 -17.021626 9.00000000
-47.220385 -45.912025 -51.936326 9.00000000
-51.259854 -41.379202 -4.696982 9.00000000
-55.346425 -35.882663 -9.144350 9.00000000
-46.641438 -46.524519 -49.268270 9.00000000
-46.489539 -46.685247 -22.831053 9.00000000
-48.846056 -44.192168 -20.632050 9.00000000
-52.989045 -39.170812 -39.912656 9.00000000
-46.479328 -46.696072 0.442306 9.00000000
-52.919668 -39.262511 -25.072845 9.00000000
-56.502849 -34.166359 -6.323454 9.00000000
-52.513433 -39.799451 -41.896417 9.00000000
-48.514709 -44.542712 -27.378858 9.00000000
-49.110952 -43.911924 -39.647522 9.00000000
-55.647933 -35.435169 -47.256519 9.00000000
-50.191239 -42.641552 -55.513265 9.00000000
-51.167908 -41.487817 -25.639413 9.00000000
-47.395195 -45.727113 -9.321910 9.00000000
-56.106692 -34.754329 -27.215990 9.00000000
-46.862700 -46.290475 -5.026744 9.00000000
-51.979438 -40.505259 -60.575166 9.00000000
-47.869951 -45.224825 -30.820481 9.00000000
-56.140980 -34.703431 -37.168705 9.00000000
-56.471925 -34.212257 2.189508 9.00000000
-54.046094 -37.773661 -11.639533 9.00000000
-50.725696 -42.010213 -39.946602 9.00000000
-55.312297 -35.933321 -2.672815 9.00000000
-48.752644 -44.290991 -41.417207 9.00000000
-56.072541 -34.804992 -55.810345 9.00000000
-50.391553 -42.407372 -3.601207 9.00000000
-47.443056 -45.676462 -27.049418 9.00000000
-48.575268 -44.478649 -4.843112 9.00000000
-52.573759 -39.719715 -53.563066 9.00000000
-53.157396 -38.954709 1.803890 9.00000000
-54.253566 -37.499434 -54.639535 9.00000000
-53.799904 -38.099062 -12.489969 9.00000000
-47.728614 -45.374373 -5.408503 9.00000000
-54.278511 -37.466464 -47.311081 9.00000000
-52.787345 -39.437410 -21.216838 9.00000000
-51.385595 -41.230665 -3.715983 9.00000000
-54.409578 -37.273056 -57.791672 9.00000000
-47.628171 -45.480622 -21.984179 9.00000000
-50.212027 -42.616992 -59.422751 9.00000000
-55.889037 -35.077345 -31.559093 9.00000000
-46.877527 -46.274754 -42.649852 9.00000000
-48.767759 -44.275000 -55.174385 9.00000000
-53.708674 -38.219646 -18.747979 9.00000000
-51.251375 -41.393572 -43.453730 9.00000000
-54.688487 -36.859119 -47.607372 9.00000000
-48.895274 -44.140100 -0.084097 9.00000000
-55.659986 -35.417310 -7.162755 9.00000000
-46.409237 -46.770202 -23.995358 9.00000000
-52.331439 -40.040003 -10.520934 9.00000000
-53.839420 -38.051900 -39.004108 9.00000000
-55.135438 -36.195785 -39.745497 9.00000000
-48.318708 -44.750076 -7.504483 9.00000000
-50.637582 -42.122399 -28.045159 9.00000000
-47.052265 -46.089912 -16.017026 9.00000000
-55.179215 -36.130817 -25.794240 9.00000000
-49.996836 -42.871204 -46.239812 9.00000000
-53.616388 -38.341623 -47.713295 9.00000000
-50.428648 -42.361101 -57.126859 9.00000000
-51.761241 -40.786919 -27.260395 9.00000000
-48.154621 -44.923662 -32.197852 9.00000000
-51.930082 -40.570495 -24.677435 9.00000000
-53.846753 -38.037140 -10.457780 9.00000000
-54.445163 -37.220246 -17.105389 9.00000000
-56.248487 -34.543885 -15.133592 9.00000000
-55.786468 -35.229596 -8.228260 9.00000000
-51.007200 -41.677659 -15.557592 9.00000000
-49.080848 -43.943773 -9.242929 9.00000000
-51.363851 -41.256358 -52.567684 9.00000000
-56.328645 -34.424900 -52.895733 9.00000000
-55.142123 -36.185870 -8.114673 9.00000000
-52.285874 -40.100228 -27.200179 9.00000000
-54.031017 -37.793588 -55.667397 9.00000000
-46.349437 -46.833441 -52.603310 9.00000000
-54.336955 -37.380840 -55.470914 9.00000000
-56.548560 -34.098515 -47.487513 9.00000000
-54.831826 -36.646394 -3.140378 9.00000000
-50.091722 -42.774853 -10.168484 9.00000000
-53.923741 -37.935381 -20.926434 9.00000000
-52.010519 -40.464178 -41.047340 9.00000000
-51.923052 -40.579787 -48.220677 9.00000000
-52.429751 -39.910059 -34.007160 9.00000000
-52.836691 -39.372186 -29.501682 9.00000000
-56.062418 -34.820022 -38.318785 9.00000000
-53.998439 -37.839537 -46.485630 9.00000000
-54.362759 -37.342543 -9.940810 9.00000000
-50.363700 -42.437844 -24.578729 9.00000000
-53.307424 -38.749996 -32.640669 9.00000000
-52.132848 -40.302490 -24.415644 9.00000000
-49.714751 -43.223232 1.586851 9.00000000
-46.793293 -46.363888 -22.351855 9.00000000
-51.547862 -41.038981 -42.016567 9.00000000
-50.297804 -42.523108 -19.154130 9.00000000
-56.173159 -34.655688 2.393420 9.00000000
-53.989371 -37.848633 -57.132532 9.00000000
-55.155895 -36.165425 -31.085181 9.00000000
-47.307817 -45.819562 -2.246638 9.00000000
-46.967680 -46.179409 -6.869015 9.00000000
-52.742842 -39.496232 -13.087050 9.00000000
-47.413749 -45.707477 -16.801042 9.00000000
-54.780826 -36.722073 -56.330963 9.00000000
-56.260252 -34.526420 -35.253120 9.00000000
-55.450374 -35.728379 -30.251062 9.00000000
-52.667419 -39.595921 -35.990006 9.00000000
-47.585712 -45.525532 -38.028258 9.00000000
-49.936869 -42.942039 -51.307014 9.00000000
-46.895472 -46.255763 -49.510778 9.00000000
-51.781713 -40.762735 -37.582345 9.00000000
-47.713425 -45.390437 -11.183014 9.00000000
-51.324495 -41.302842 -37.106917 9.00000000
-48.091029 -44.990957 -1.038522 9.00000000
-49.424509 -43.547317 -1.862649 9.00000000
-51.016183 -41.667047 -10.655352 9.00000000
-48.259927 -44.812255 -22.492101 9.00000000
-47.688218 -45.417094 -23.306888 9.00000000
-55.752946 -35.279318 -38.794171 9.00000000
-49.619951 -43.316442 -3.289796 9.00000000
-54.894955 -36.552704 1.290204 9.00000000
-50.402525 -42.391968 -45.141827 9.00000000
-52.133109 -40.302144 -47.612149 9.00000000
-46.946042 -46.202263 -56.897500 9.00000000
-53.465522 -38.541030 -41.576121 9.00000000
-52.151053 -40.278427 -16.279203 9.00000000
-51.590693 -40.988386 -22.829237 9.00000000
-49.730381 -43.185957 -57.914885 9.00000000
-50.132535 -42.710917 -25.306376 9.00000000
-52.367646 -39.992146 -29.588532 9.00000000
-53.696480 -38.235762 -60.509889 9.00000000
-52.760140 -39.477429 -12.259009 9.00000000
-54.512356 -37.120525 -10.910218 9.00000000
-47.254807 -45.875609 -43.808619 9.00000000
-52.054525 -40.406013 -51.778979 9.00000000
-48.325052 -44.743366 -5.819932 9.00000000
-46.708401 -46.453695 -27.703027 9.00000000
-52.160809 -40.265532 -47.191708 9.00000000
-54.454205 -37.206827 -21.706875 9.00000000
-53.408399 -38.616533 -57.124458 9.00000000
-50.723591 -42.012692 -51.066008 9.00000000
-54.758789 -36.754785 -33.269419 9.00000000
-49.186094 -43.828923 -16.171610 9.00000000
-55.092799 -36.259064 -47.994582 9.00000000
-47.913452 -45.178804 -47.425315 9.00000000
-52.084787 -40.366014 -49.256408 9.00000000
-49.118433 -43.904009 -57.409931 9.00000000
-49.398946 -43.577490 -39.532242 9.00000000
-51.126685 -41.536512 -7.200621 9.00000000
-53.497770 -38.498409 1.542543 9.00000000
-49.427634 -43.543603 -37.361621 9.00000000
-56.545327 -34.103313 -21.967145 9.00000000
-53.321387 -38.731540 -56.475449 9.00000000
-52.539330 -39.765224 -9.228492 9.00000000
-55.105300 -36.240518 -17.337195 9.00000000
-52.355032 -40.008818 -55.854955 9.00000000
-48.402830 -44.661073 -51.809949 9.00000000
-55.532425 -35.606611 -17.163706 9.00000000
-53.206434 -38.883480 -36.912797 9.00000000
-53.570737 -38.401965 -12.922359 9.00000000
-51.708727 -40.848954 -20.129351 9.00000000
-47.455737 -45.663037 -51.520689 9.00000000
-55.192836 -36.110601 -24.040056 9.00000000
-54.398183 -37.289971 -22.765288 9.00000000
-46.972797 -46.173972 -30.817377 9.00000000
-52.905928 -39.280672 -54.612650 9.00000000
-46.951540 -46.196446 -59.288422 9.00000000
-54.640523 -36.930311 -17.817897 9.00000000
-47.695427 -45.409460 -58.121144 9.00000000
-49.510831 -43.445317 -46.245013 9.00000000
-53.045470 -39.121011 -15.355296 9.00000000
-46.968565 -46.178471 -8.080418 9.00000000
-48.699052 -44.347688 -42.827660 9.00000000
-50.070876 -42.791164 2.921441 9.00000000
-48.188583 -44.887733 -47.005795 9.00000000
-46.885698 -46.266103 -51.311813 9.00000000
-55.383076 -35.828254 -43.783917 9.00000000
-46.382743 -46.798224 -32.187358 9.00000000
-52.167963 -40.256076 -45.888668 9.00000000
-52.077218 -40.376018 -32.556045 9.00000000
-54.283709 -37.459593 -31.116484 9.00000000
-46.671297 -46.492944 -33.519205 9.00000000
-52.355373 -40.008368 -51.402740 9.00000000
-48.524452 -44.532405 -13.582482 9.00000000
-50.110676 -42.742604 3.472269 9.00000000
-47.753240 -45.348325 0.024778 9.00000000
-53.892698 -37.984157 -45.223553 9.00000000
-54.379470 -37.317741 -60.230011 9.00000000
-50.626225 -42.133785 -19.039078 9.00000000
-54.271248 -37.476063 -39.516481 9.00000000
-47.873457 -45.221138 -2.266066 9.00000000
-47.485873 -45.631156 -39.089905 9.00000000
-55.909722 -35.046669 -14.044294 9.00000000
-53.142828 -38.967550 -43.811790 9.00000000
-55.930442 -35.015931 -1.051716 9.00000000
-52.099680 -40.346329 -41.472173 9.00000000
-55.385335 -35.824905 -35.724698 9.00000000
-48.898489 -44.136697 -18.496361 9.00000000
-47.419064 -45.701860 -9.721339 9.00000000
-53.006256 -39.148064 -52.078615 9.00000000
-51.853231 -40.672073 -19.463158 9.00000000
-49.036545 -43.990642 -23.786956 9.00000000
-56.506102 -34.161528 -57.226468 9.00000000
-50.071067 -42.783532 -20.544687 9.00000000
-52.465067 -39.863379 -20.325991 9.00000000
-55.047498 -36.326295 -60.518171 9.00000000
-54.973265 -36.436478 -14.313342 9.00000000
-55.622582 -35.472829 0.475503 9.00000000
-51.363486 -41.259984 -48.510687 9.00000000
-49.374751 -43.606074 -35.543009 9.00000000
-56.211745 -34.598419 -20.393601 9.00000000
-51.258367 -41.380958 0.703935 9.00000000
-47.147624 -45.989014 -29.258760 9.00000000
-53.040612 -39.102654 -29.852043 9.00000000
-56.293604 -34.476913 -43.442383 9.00000000
-54.884129 -36.568762 -41.629440 9.00000000
-54.151760 -37.633997 -40.304155 9.00000000
-55.939363 -35.002682 -10.987667 9.00000000
-56.068385 -34.811162 -49.900784 9.00000000
-52.413824 -39.931110 -18.818761 9.00000000
-50.144257 -42.703215 1.612078 9.00000000
-55.843826 -35.144441 -34.235828 9.00000000
-48.619496 -44.431853 -35.711141 9.00000000
-48.530974 -44.525509 -5.494061 9.00000000
-56.453908 -34.238998 -4.215858 9.00000000
-47.418890 -45.702046 -7.806301 9.00000000
-48.557730 -44.497199 -60.593076 9.00000000
-52.574542 -39.718681 -51.013461 9.00000000
-54.760954 -36.751572 -29.271531 9.00000000
-51.068414 -41.605347 -9.492495 9.00000000
-51.966954 -40.521760 -36.653475 9.00000000
-55.803495 -35.204295 -45.876796 9.00000000
-49.764413 -43.164109 0.116517 9.00000000
-51.380583 -41.236585 -39.553125 9.00000000
-54.206054 -37.562233 -32.357363 9.00000000
-51.777427 -40.767799 -9.606207 9.00000000
-46.358279 -46.824139 3.162030 9.00000000
-54.285291 -37.457502 3.722455 9.00000000
-51.143660 -41.516470 -48.182627 9.00000000
-49.836932 -43.065690 -7.311628 9.00000000
-47.815411 -45.282525 -29.960052 9.00000000
-47.685095 -45.420421 0.946974 9.00000000
-47.006179 -46.138642 -57.506691 9.00000000
-52.134894 -40.299785 -43.285366 9.00000000
-54.886156 -36.565752 -44.618121 9.00000000
-56.227259 -34.575392 -5.746900 9.00000000
-51.290631 -41.342845 -6.309873 9.00000000
-49.687294 -43.236881 -18.328504 9.00000000
-48.005474 -45.081451 -60.101555 9.00000000
-54.997522 -36.400472 -36.322502 9.00000000
-51.129382 -41.533326 -21.332173 9.00000000
-48.892744 -44.142774 -24.608916 9.00000000
-53.812834 -38.086214 -36.456026 9.00000000
-52.737903 -39.502759 -16.594545 9.00000000
-50.390056 -42.406700 -39.822597 9.00000000
-55.413605 -35.782962 -7.891846 9.00000000
-50.348608 -42.455645 1.864770 9.00000000
-49.131276 -43.890423 -42.767015 9.00000000
-54.762934 -36.748636 -22.115913 9.00000000
-56.286794 -34.487030 1.716786 9.00000000
-49.832127 -43.065792 -17.267028 9.00000000
-56.071609 -34.806376 -50.554828 9.00000000
-55.148497 -36.176398 -59.729221 9.00000000
-53.044673 -39.111977 -0.229025 9.00000000
-51.645357 -40.923811 -10.801065 9.00000000
-56.550220 -34.096052 -1.742082 9.00000000
-46.845339 -46.308839 -8.730482 9.00000000
-48.669540 -44.378910 -46.781224 9.00000000
-54.357906 -37.349746 -52.990197 9.00000000
-49.820600 -43.079400 -31.012266 9.00000000
-46.400479 -46.779434 -61.101153 9.00000000
-56.507962 -34.158768 -57.662244 9.00000000
-52.667885 -39.606114 -7.473710 9.00000000
-52.961958 -39.206615 -34.090529 9.00000000
-53.314764 -38.758906 -21.244160 9.00000000
-50.022842 -42.851319 -0.011940 9.00000000
-51.921024 -40.582467 -17.196448 9.00000000
-47.774250 -45.326074 -23.787127 9.00000000
-56.139490 -34.705659 -16.331455 9.00000000
-52.747968 -39.507397 -7.971820 9.00000000
-52.689015 -39.567377 -32.302636 9.00000000
-51.520611 -41.071172 -21.450545 9.00000000
-54.993454 -36.406510 -30.532461 9.00000000
-48.688333 -44.359029 -23.206858 9.00000000
-56.560794 -34.080357 -48.504450 9.00000000
-53.982641 -37.857530 -17.548175 9.00000000
-54.609400 -36.976499 -31.828550 9.00000000
-55.294563 -35.959627 -16.967801 9.00000000
-49.452180 -43.514594 -57.310478 9.00000000
-50.175972 -42.659597 -37.984820 9.00000000
-55.531391 -35.608154 -9.590597 9.00000000
-46.344740 -46.838437 -24.610411 9.00000000
-53.292119 -38.770225 -42.355549 9.00000000
-55.412449 -35.784661 -47.376773 9.00000000
-47.549479 -45.563893 -2.531570 9.00000000
-51.563672 -41.020306 -60.577196 9.00000000
-55.897851 -35.064298 -4.310515 9.00000000
-50.718968 -42.018144 0.480017 9.00000000
-51.690338 -40.870676 -4.434296 9.00000000
-48.202830 -44.872660 -21.983846 9.00000000
-46.380295 -46.800843 -0.332287 9.00000000
-55.737914 -35.301633 -27.298383 9.00000000
-53.718034 -38.209036 -42.874880 9.00000000
-47.660973 -45.445911 -38.602301 9.00000000
-55.086172 -36.268917 0.603609 9.00000000
-46.406598 -46.773013 -4.432577 9.00000000
-50.105906 -42.750378 0.539535 9.00000000
-52.981168 -39.210090 -11.742719 9.00000000
-50.062186 -42.794021 -23.852801 9.00000000
-54.781966 -36.720384 -48.287115 9.00000000
-51.160474 -41.496598 -2.440842 9.00000000
-54.703542 -36.836777 -43.962377 9.00000000
-56.448826 -34.246541 3.334611 9.00000000
-49.461846 -43.503176 -56.839359 9.00000000
-52.149211 -40.280862 -3.921991 9.00000000
-50.617832 -42.144551 -19.925549 9.00000000
-50.142682 -42.698919 -43.119343 9.00000000
-55.315588 -35.928417 -41.672216 9.00000000
-52.665812 -39.598046 -12.694847 9.00000000
-55.461518 -35.711839 -32.358380 9.00000000
-46.861070 -46.292161 -45.215596 9.00000000
-55.377758 -35.836158 -13.025770 9.00000000
-56.279874 -34.497300 -6.673570 9.00000000
-50.819944 -41.898881 -35.417901 9.00000000
-46.748901 -46.410842 -34.209349 9.00000000
-49.833635 -43.063996 -40.813957 9.00000000
-55.228733 -36.057326 -22.556249 9.00000000
-48.263564 -44.808407 -44.001137 9.00000000
-53.500601 -38.494667 -10.190658 9.00000000
-52.365808 -39.994575 -59.711857 9.00000000
-50.688682 -42.053927 -55.131988 9.00000000
-55.095624 -36.254871 -55.202849 9.00000000
-54.811442 -36.676644 -17.421654 9.00000000
-56.492887 -34.181145 -49.575373 9.00000000
-48.662068 -44.386815 -49.306458 9.00000000
-54.869742 -36.590114 -35.984000 9.00000000
-50.213245 -42.626978 -9.071964 9.00000000
-48.812566 -44.227598 -13.242630 9.00000000
-55.261373 -36.008882 -27.665294 9.00000000
-53.977728 -37.864024 -6.470491 9.00000000
-46.761300 -46.397721 -37.211999 9.00000000
-50.336807 -42.478178 -10.237895 9.00000000
-49.754885 -43.157016 -50.837845 9.00000000
-55.917662 -35.034855 -45.475663 9.00000000
-56.535776 -34.117489 -16.102147 9.00000000
-49.228735 -43.778560 -30.924604 9.00000000
-46.830652 -46.324355 -31.346313 9.00000000
-48.563172 -44.491441 -12.972710 9.00000000
-53.330483 -38.719518 -48.006665 9.00000000
-53.742305 -38.180023 -32.725770 9.00000000
-51.632551 -40.938939 -23.785532 9.00000000
-46.340042 -46.843420 -11.715916 9.00000000
-54.499438 -37.139697 -7.491106 9.00000000
-49.454119 -43.512306 -53.713790 9.00000000
-52.512892 -39.800167 -16.321170 9.00000000
-53.404507 -38.626779 -32.125989 9.00000000
-54.014090 -37.815963 -43.753846 9.00000000
-48.650474 -44.399081 -16.812433 9.00000000
-49.655216 -43.274780 -9.754828 9.00000000
-52.870497 -39.327504 -33.555849 9.00000000
-51.430039 -41.178165 -31.300118 9.00000000
-52.948423 -39.246598 -2.332479 9.00000000
-52.866738 -39.356284 0.857448 9.00000000
-53.973494 -37.869620 -38.623350 9.00000000
-48.944424 -44.088100 -39.957412 9.00000000
-52.151314 -40.278081 -52.633905 9.00000000
-54.390211 -37.301802 -50.632771 9.00000000
-47.902378 -45.190529 -15.116354 9.00000000
-53.502339 -38.492371 -11.298020 9.00000000
-51.132782 -41.529320 -48.776251 9.00000000
-55.183572 -36.124357 -5.931192 9.00000000
-47.849551 -45.246407 -34.786233 9.00000000
-53.656579 -38.288503 -2.135439 9.00000000
-48.753411 -44.290184 -1.322941 9.00000000
-50.609893 -42.146993 -8.924154 9.00000000
-50.244704 -42.578412 -27.408407 9.00000000
-54.475831 -37.174728 -56.394802 9.00000000
-55.700035 -35.357848 -31.867867 9.00000000
-54.426016 -37.248662 -32.980772 9.00000000
-55.511403 -35.637835 3.075701 9.00000000
-47.382211 -45.740823 -46.973690 9.00000000
-51.899066 -40.611490 -25.710772 9.00000000
-48.937090 -44.095859 -53.863613 9.00000000
-53.282024 -38.783569 -58.093472 9.00000000
-55.631865 -35.459041 -9.073120 9.00000000
-51.214726 -41.432515 -56.924830 9.00000000
-48.095314 -44.986406 -56.168434 9.00000000
-51.815451 -40.722008 -43.284135 9.00000000
-54.850010 -36.619395 -52.850189 9.00000000
-53.625327 -38.329808 -54.932198 9.00000000
-48.800217 -44.240662 -40.977683 9.00000000
-53.991860 -37.845344 -30.174996 9.00000000
-55.105519 -36.240192 -26.291137 9.00000000
-48.341736 -44.725706 -49.222447 9.00000000
-49.599020 -43.341135 -54.819253 9.00000000
-53.184143 -38.923922 -4.829072 9.00000000
-53.381431 -38.660664 -14.342126 9.00000000
-51.522228 -41.069262 1.555347 9.00000000
-53.183226 -38.931042 -11.212811 9.00000000
-53.580384 -38.389212 -40.621998 9.00000000
-53.850731 -38.031882 -0.379035 9.00000000
