1.144412 52.701341 -3.332588 21.00000000
-0.630812 55.027313 0.805228 21.00000000
-33.024249 69.370798 -53.637746 21.00000000
-5.422140 59.884286 -60.367217 21.00000000
-4.495078 59.091449 -13.263857 21.00000000
7.066647 40.163841 -40.171435 21.00000000
-24.100094 68.790710 -13.573490 21.00000000
-13.076610 65.025283 -1.912741 21.00000000
-25.653307 69.009720 -35.544236 21.00000000
5.034827 45.850496 -39.587649 21.00000000
4.622451 46.805461 -16.476623 21.00000000
-10.662412 63.670863 -55.457823 21.00000000
4.055460 47.889676 -11.747061 21.00000000
-21.230160 68.151509 -58.298523 21.00000000
-0.960159 55.403538 -25.067030 21.00000000
-10.864908 63.790990 -5.351675 21.00000000
-10.763950 63.731099 -13.088684 21.00000000
-16.614934 66.621829 -46.429160 21.00000000
8.262017 35.547829 -27.824025 21.00000000
-28.427260 69.303067 -55.265691 21.00000000
-2.574312 57.218996 -46.253587 21.00000000
-10.453319 63.546823 -29.548027 21.00000000
-10.182489 63.386158 -36.675074 21.00000000
-7.750950 61.733493 3.866922 21.00000000
0.536011 53.518526 -37.545673 21.00000000
6.521946 41.953759 -30.037109 21.00000000
0.229462 53.930274 -57.971930 21.00000000
-0.375194 54.735311 -36.942988 21.00000000
7.442133 38.713874 -54.127439 21.00000000
-13.402908 65.185475 -57.974207 21.00000000
-19.847958 67.742676 -7.559833 21.00000000
0.201211 53.968219 -39.160637 21.00000000
2.473434 50.682191 -20.694383 21.00000000
-30.670754 69.413331 -19.328865 21.00000000
-18.797486 67.419773 -60.816632 21.00000000
8.493078 34.655571 -22.187498 21.00000000
2.737726 50.261483 -52.788223 21.00000000
-25.486415 68.986190 -30.391010 21.00000000
-19.690825 67.694375 -37.939388 21.00000000
5.866923 43.897406 -26.135735 21.00000000
-30.893350 69.409308 -38.381026 21.00000000
8.531756 34.506214 -48.995670 21.00000000
-17.139559 66.829721 -1.103872 21.00000000
-10.626623 63.649632 -38.788730 21.00000000
5.154970 45.568498 -4.130920 21.00000000
1.253815 52.554394 -7.984151 21.00000000
-5.771411 60.174668 -27.307863 21.00000000
-13.928059 65.443292 -41.592455 21.00000000
4.650026 46.752732 -55.966001 21.00000000
-33.029336 69.370706 -30.076420 21.00000000
-16.667925 66.642828 -36.984184 21.00000000
8.078223 36.257565 -0.851052 21.00000000
-3.463594 58.085909 -6.638556 21.00000000
5.157756 45.561960 -15.044805 21.00000000
-22.864665 68.515551 -57.735182 21.00000000
-32.094117 69.387608 -16.180285 21.00000000
-7.547959 61.590250 -15.547795 21.00000000
-0.998966 55.447869 -19.692206 21.00000000
-17.993398 67.168070 -8.116815 21.00000000
6.783488 41.174151 -43.337164 21.00000000
-30.847932 69.410129 -25.477036 21.00000000
1.967719 51.487203 -35.693733 21.00000000
-7.349059 61.449894 -36.858314 21.00000000
-18.070812 67.196402 -42.144195 21.00000000
0.804610 53.157752 -30.911286 21.00000000
-13.451135 65.209152 -27.114991 21.00000000
6.173644 42.991979 -44.563970 21.00000000
-4.913093 59.461067 -55.699578 21.00000000
0.098820 54.105747 -17.558963 21.00000000
-13.261655 65.116129 -47.924964 21.00000000
6.536040 41.911749 -18.598409 21.00000000
7.288367 39.307652 -55.669190 21.00000000
-32.062453 69.388180 1.356078 21.00000000
3.925594 48.138008 -7.765831 21.00000000
-15.196707 66.059831 -35.640069 21.00000000
-8.987025 62.605744 -53.240671 21.00000000
-33.386722 69.364247 -27.945404 21.00000000
-12.678078 64.829628 -10.050704 21.00000000
-2.157706 56.771542 -22.589292 21.00000000
8.574848 34.339809 -12.185207 21.00000000
-9.342518 62.856603 -14.172509 21.00000000
-18.270070 67.257652 -44.778648 21.00000000
-24.015751 68.771924 -56.359589 21.00000000
-32.799622 69.374857 -33.485105 21.00000000
8.483934 34.690881 2.189631 21.00000000
0.942614 52.972389 -23.938956 21.00000000
3.740721 48.491527 -20.786791 21.00000000
-16.493638 66.573763 -16.675623 21.00000000
-16.664375 66.641421 -14.878861 21.00000000
-6.889066 61.103880 -19.162121 21.00000000
8.484910 34.687114 -39.459242 21.00000000
-21.028927 68.105692 -56.805490 21.00000000
1.190541 52.639382 -16.799524 21.00000000
2.185989 51.139754 -54.231414 21.00000000
6.066041 43.312724 -42.807582 21.00000000
5.917442 43.755668 -31.265898 21.00000000
8.247137 35.605292 -23.857431 21.00000000
-7.683766 61.686084 -49.097286 21.00000000
-10.778235 63.739573 1.008597 21.00000000
-9.323757 62.843364 -23.474711 21.00000000
6.919682 40.731358 -30.849633 21.00000000
-16.917234 66.741621 -33.771349 21.00000000
-0.690349 55.095324 -56.486283 21.00000000
-5.198402 59.698272 -32.226913 21.00000000
1.186145 52.645286 -15.244606 21.00000000
-22.637865 68.465037 -55.324085 21.00000000
-1.798800 56.361550 -41.182143 21.00000000
-3.857057 58.469476 -24.715201 21.00000000
-6.257661 60.578933 -7.636106 21.00000000
6.637022 41.610739 -49.991613 21.00000000
-1.484699 56.002740 -7.864514 21.00000000
-2.271277 56.901278 -58.330479 21.00000000
-15.525596 66.190159 -38.166755 21.00000000
-2.827379 57.465698 -53.069228 21.00000000
3.135422 49.628418 -47.378526 21.00000000
-21.310796 68.169468 -18.107007 21.00000000
-32.293617 69.384002 -0.152653 21.00000000
5.788096 44.082429 -61.026290 21.00000000
-9.676281 63.085860 -51.476905 21.00000000
-5.546470 59.987653 -42.527382 21.00000000
-27.065204 69.208785 -36.591131 21.00000000
-17.984151 67.164405 -12.074980 21.00000000
2.521801 50.605198 -22.709937 21.00000000
-9.134884 62.710083 -29.758644 21.00000000
-8.270074 62.099819 -31.698106 21.00000000
-19.661879 67.685477 -59.277641 21.00000000
7.739912 37.563979 -61.081314 21.00000000
-9.980925 63.266584 -7.428944 21.00000000
-8.837294 62.500085 -3.050510 21.00000000
-3.183446 57.812808 -32.512552 21.00000000
-4.751209 59.326477 -58.883826 21.00000000
5.929738 43.719018 -27.872534 21.00000000
3.928125 48.133168 -59.336271 21.00000000
-19.123526 67.519994 -5.670359 21.00000000
7.313534 39.210468 -4.761594 21.00000000
7.598599 38.109669 -3.045623 21.00000000
-26.476256 69.125748 -2.042847 21.00000000
8.576261 34.334353 -50.814055 21.00000000
-32.994127 69.371342 -9.627996 21.00000000
6.579793 41.781327 -11.397928 21.00000000
-23.335764 68.620476 -46.383509 21.00000000
-2.324217 56.961753 -44.247590 21.00000000
-14.059498 65.507820 -3.874129 21.00000000
1.657690 51.980716 -6.326994 21.00000000
-0.965432 55.409562 -6.576378 21.00000000
-8.751935 62.439851 -45.286940 21.00000000
6.430641 42.225922 -58.660447 21.00000000
-7.651487 61.663306 -21.438735 21.00000000
-13.012340 64.993730 -12.146311 21.00000000
5.036216 45.847238 -41.433327 21.00000000
-16.080114 66.409897 -51.573178 21.00000000
-6.435624 60.726890 -35.483592 21.00000000
-3.816165 58.429612 -36.083767 21.00000000
-27.143500 69.219823 -33.499568 21.00000000
0.330732 53.794250 -55.763220 21.00000000
4.915488 46.130608 -53.796688 21.00000000
5.296451 45.236416 -9.588781 21.00000000
-17.514386 66.978253 -40.544885 21.00000000
-27.326576 69.235860 -17.661918 21.00000000
-21.362329 68.180946 1.585207 21.00000000
-0.394172 54.756990 -45.036202 21.00000000
-1.972858 56.560382 -16.617298 21.00000000
5.449031 44.878281 -52.995266 21.00000000
-15.446853 66.158956 -53.585702 21.00000000
-21.591415 68.231969 -41.534250 21.00000000
1.702874 51.908790 -1.561318 21.00000000
-24.802648 68.889786 -24.630424 21.00000000
-7.435019 61.510553 -34.152214 21.00000000
-21.320997 68.171740 -23.627395 21.00000000
7.771666 37.441357 -50.148551 21.00000000
-4.003364 58.612102 -0.415722 21.00000000
4.291330 47.438639 -57.898097 21.00000000
3.331041 49.274927 -24.996121 21.00000000
-16.717771 66.662580 -57.619404 21.00000000
3.503802 48.944570 -1.857189 21.00000000
-24.947768 68.910246 -6.082636 21.00000000
1.481215 52.248957 -47.558874 21.00000000
4.746132 46.528121 -2.479742 21.00000000
6.901957 40.799802 -53.874593 21.00000000
-8.547370 62.295497 -6.416773 21.00000000
8.458677 34.788414 -25.869840 21.00000000
-29.157865 69.347677 -8.207119 21.00000000
-18.651314 67.374841 -30.934867 21.00000000
1.552632 52.147951 -20.570817 21.00000000
6.161652 43.027727 -13.449750 21.00000000
-9.309252 62.833128 -18.546078 21.00000000
-30.530912 69.415858 -0.060723 21.00000000
-13.220132 65.095743 -29.530110 21.00000000
2.571599 50.525928 -41.528286 21.00000000
-13.988685 65.473056 -54.105489 21.00000000
-3.890438 58.502017 -56.616377 21.00000000
7.847198 37.149685 -25.422749 21.00000000
-21.114326 68.125710 -34.587951 21.00000000
-4.766985 59.339594 -53.979957 21.00000000
-26.221123 69.089777 -23.649195 21.00000000
5.289360 45.253059 -31.785284 21.00000000
8.037145 36.416190 -54.103293 21.00000000
-8.916872 62.556240 -42.719784 21.00000000
3.355273 49.228590 -17.943820 21.00000000
-7.998280 61.908025 -23.575125 21.00000000
8.561225 34.392416 -0.329280 21.00000000
8.485751 34.683866 -59.072936 21.00000000
-32.806692 69.374730 -45.003373 21.00000000
0.449111 53.635248 -42.609321 21.00000000
2.528926 50.593857 -32.618596 21.00000000
-10.935429 63.832825 -9.212049 21.00000000
0.846048 53.102094 -18.927087 21.00000000
-13.774667 65.367986 -39.685225 21.00000000
3.004540 49.836760 -26.613045 21.00000000
-18.076310 67.198092 -50.292956 21.00000000
-18.310724 67.270148 -32.752127 21.00000000
-5.018706 59.548873 -46.173242 21.00000000
-3.806300 58.419995 -48.084271 21.00000000
6.595576 41.734281 -46.760480 21.00000000
-3.662764 58.280070 -22.986758 21.00000000
-8.890458 62.537601 0.203469 21.00000000
-0.693614 55.099054 -43.207101 21.00000000
2.418464 50.769693 -17.067067 21.00000000
8.115910 36.112032 -8.076049 21.00000000
2.156742 51.186311 -28.598438 21.00000000
2.376245 50.836899 -14.835424 21.00000000
-31.865971 69.391731 -51.949401 21.00000000
3.303722 49.327168 -10.648181 21.00000000
-7.389113 61.478158 2.034462 21.00000000
-3.824329 58.437571 -11.786980 21.00000000
7.676716 37.808012 -7.085867 21.00000000
5.476959 44.812728 -51.043001 21.00000000
-2.260290 56.888727 -35.031847 21.00000000
-12.261647 64.619578 -13.872175 21.00000000
4.274325 47.471156 -43.559371 21.00000000
6.619625 41.662597 0.919674 21.00000000
7.243749 39.479950 -50.411696 21.00000000
8.006228 36.535579 -31.194839 21.00000000
-28.825544 69.327386 3.260913 21.00000000
8.494629 34.649583 3.859466 21.00000000
-32.995904 69.371310 -48.033076 21.00000000
7.980887 36.633435 -16.696459 21.00000000
-16.962133 66.759413 -23.691720 21.00000000
2.640139 50.416825 -1.435797 21.00000000
-22.292349 68.388083 -59.851015 21.00000000
-8.763668 62.448130 -4.647856 21.00000000
3.703140 48.563390 -37.758974 21.00000000
-17.165503 66.840002 -5.706554 21.00000000
8.512374 34.581059 -2.178485 21.00000000
-2.914236 57.550370 -42.710751 21.00000000
5.172890 45.526436 -47.061672 21.00000000
0.433700 53.655947 -32.943753 21.00000000
-19.413848 67.609236 3.810061 21.00000000
3.835755 48.309801 -53.096969 21.00000000
-31.188533 69.403973 -9.178240 21.00000000
4.627851 46.795136 -33.290847 21.00000000
-2.433844 57.082061 -48.101691 21.00000000
1.551024 52.150510 1.879068 21.00000000
7.264252 39.400774 -37.174147 21.00000000
-13.196870 65.084323 -20.177739 21.00000000
4.648345 46.755946 -34.818473 21.00000000
-10.545789 63.601679 -42.359051 21.00000000
-25.437272 68.979262 -38.001736 21.00000000
-8.110831 61.987447 -59.241017 21.00000000
-17.494481 66.970365 -52.215912 21.00000000
-28.068771 69.281178 -51.894676 21.00000000
-6.166519 60.503158 -55.760675 21.00000000
0.758610 53.219537 -6.492467 21.00000000
4.557488 46.929684 -49.362985 21.00000000
-23.490237 68.654880 -0.370143 21.00000000
-11.548456 64.196492 -11.072508 21.00000000
-29.712412 69.381537 -60.110297 21.00000000
-11.708845 64.291639 -23.517948 21.00000000
-29.527421 69.370242 -21.980527 21.00000000
6.355370 42.450291 -6.235812 21.00000000
6.995866 40.437166 -34.222322 21.00000000
-6.927867 61.136138 -32.129229 21.00000000
-12.540673 64.762171 -16.505193 21.00000000
-29.274792 69.354816 -3.072539 21.00000000
7.247305 39.466218 -7.815337 21.00000000
0.729606 53.258495 -9.886689 21.00000000
-0.931054 55.370290 -16.798804 21.00000000
-4.131551 58.737066 -19.734010 21.00000000
4.730710 46.564319 -21.378665 21.00000000
-27.662762 69.256388 -21.992532 21.00000000
-31.842851 69.392148 -36.441327 21.00000000
-14.406848 65.678348 -25.755312 21.00000000
-18.628581 67.367853 -55.906995 21.00000000
3.474342 49.000904 0.659834 21.00000000
8.508492 34.596048 -20.425770 21.00000000
-27.122885 69.216917 -31.825494 21.00000000
-28.943580 69.334593 -38.936302 21.00000000
-7.911987 61.847131 -47.411583 21.00000000
-18.474779 67.320577 -2.779462 21.00000000
6.795437 41.138537 -48.343216 21.00000000
2.283263 50.984910 -3.182150 21.00000000
-33.450422 69.363096 -49.836378 21.00000000
0.706375 53.289698 -53.351451 21.00000000
-12.064714 64.502752 -0.294403 21.00000000
5.969796 43.599613 -38.831464 21.00000000
-28.204000 69.289435 -5.691456 21.00000000
-0.733941 55.145121 -33.055124 21.00000000
-6.144693 60.485012 -22.203377 21.00000000
-9.927900 63.235128 -61.054106 21.00000000
1.779235 51.787237 -31.850867 21.00000000
8.432914 34.887901 -42.746343 21.00000000
-12.708420 64.844524 -45.989021 21.00000000
7.002428 40.411827 3.162834 21.00000000
-20.492258 67.940726 0.054400 21.00000000
-33.088427 69.369638 -1.745852 21.00000000
-24.248652 68.811678 -42.698593 21.00000000
-25.833369 69.035107 -54.881774 21.00000000
-14.649148 65.797302 -7.701648 21.00000000
8.169782 35.904004 -51.349645 21.00000000
-3.649146 58.266795 -34.360151 21.00000000
-33.436163 69.363354 -7.990245 21.00000000
-16.588191 66.611232 -13.247568 21.00000000
-31.874531 69.391576 -50.318991 21.00000000
-0.038185 54.289768 -60.556430 21.00000000
-22.707899 68.480635 -44.044355 21.00000000
-7.216656 61.356462 -57.729390 21.00000000
7.353898 39.054598 -60.650817 21.00000000
-32.786644 69.375092 -41.484973 21.00000000
5.427548 44.928705 -21.752761 21.00000000
-18.281948 67.261303 -4.312236 21.00000000
7.127108 39.930368 -3.251598 21.00000000
6.218973 42.856864 -40.829120 21.00000000
-19.081262 67.507002 -52.521730 21.00000000
-3.289811 57.916498 -45.118872 21.00000000
-27.627574 69.254239 -60.874926 21.00000000
-24.338730 68.824378 -19.043099 21.00000000
2.158216 51.183964 -60.740321 21.00000000
7.651688 37.904663 -57.424256 21.00000000
-29.531945 69.370518 -29.692121 21.00000000
7.877549 37.032483 -33.868757 21.00000000
-18.154841 67.222231 -36.846018 21.00000000
-16.158985 66.441151 -32.473102 21.00000000
7.810229 37.292444 -4.355148 21.00000000
5.144250 45.593661 -1.249104 21.00000000
-22.805594 68.502394 -11.954940 21.00000000
-9.793922 63.155648 -10.172453 21.00000000
8.160504 35.939831 -60.605439 21.00000000
-31.896136 69.391185 -12.710670 21.00000000
-6.837935 61.061369 -43.298858 21.00000000
6.815399 41.079031 -17.267666 21.00000000
-19.547489 67.650315 -57.340929 21.00000000
-25.259829 68.954244 -17.542525 21.00000000
7.631994 37.980713 -38.157121 21.00000000
7.171423 39.759240 -58.637098 21.00000000
-29.598100 69.374557 -10.287137 21.00000000
7.726967 37.613966 -23.414663 21.00000000
4.221539 47.572095 -54.667498 21.00000000
6.445427 42.181847 -32.194714 21.00000000
-22.436505 68.420190 -22.141291 21.00000000
-23.156965 68.580653 -17.603938 21.00000000
3.380990 49.179413 -54.421581 21.00000000
-7.027618 61.219071 0.126546 21.00000000
-16.793406 66.692552 0.993746 21.00000000
-28.165654 69.287094 -14.404510 21.00000000
-28.687971 69.318986 -44.897974 21.00000000
3.822523 48.335103 -26.464963 21.00000000
-2.317000 56.953509 -31.139577 21.00000000
2.252440 51.033975 -7.694533 21.00000000
-29.779274 69.385619 -5.988270 21.00000000
2.922890 49.966732 -44.001867 21.00000000
0.905160 53.022696 -21.920296 21.00000000
8.172160 35.894819 -11.791196 21.00000000
-6.170293 60.506296 -37.835316 21.00000000
7.370057 38.992200 -28.179601 21.00000000
-29.493907 69.368195 -32.889917 21.00000000
5.100280 45.696867 -60.980443 21.00000000
-2.714733 57.355885 2.323729 21.00000000
-28.811954 69.326556 -26.199398 21.00000000
-9.431478 62.919378 -21.698410 21.00000000
-15.416367 66.146876 -40.342132 21.00000000
-2.749806 57.390075 -26.677517 21.00000000
1.769688 51.802434 -49.450832 21.00000000
3.630248 48.702777 -61.030001 21.00000000
-17.583432 67.005613 -48.583229 21.00000000
-33.025117 69.370782 -35.460967 21.00000000
1.005879 52.887414 -61.086474 21.00000000
-28.592377 69.313149 -34.466312 21.00000000
4.696860 46.643771 -7.273187 21.00000000
-12.389706 64.688055 -3.219247 21.00000000
-11.724581 64.300975 -54.297546 21.00000000
-28.176234 69.287740 -9.649826 21.00000000
-3.414036 58.037598 -29.829493 21.00000000
-23.659238 68.692521 -30.356004 21.00000000
-23.197906 68.589771 -20.538372 21.00000000
-19.244113 67.557061 -39.637233 21.00000000
-26.958131 69.193688 -10.818066 21.00000000
-25.710107 69.017729 -9.531338 21.00000000
-5.878779 60.263933 -51.152660 21.00000000
-9.903642 63.220738 -49.740366 21.00000000
-17.662795 67.037063 -17.777718 21.00000000
-25.340085 68.965559 -22.062545 21.00000000
-9.054465 62.653334 -11.933980 21.00000000
1.681160 51.943355 -52.929220 21.00000000
-2.219312 56.841916 -24.962964 21.00000000
-13.774699 65.368002 -31.671310 21.00000000
-21.295206 68.165996 -15.417556 21.00000000
-31.475614 69.398785 -60.839448 21.00000000
5.977849 43.575607 -52.223940 21.00000000
-16.994999 66.772436 -35.443273 21.00000000
-22.359309 68.402996 -33.512724 21.00000000
-17.062736 66.799278 -3.380824 21.00000000
-24.082472 68.786785 -4.758580 21.00000000
-23.616351 68.682969 -53.658629 21.00000000
-6.238286 60.562824 -33.786495 21.00000000
8.154471 35.963126 -37.622402 21.00000000
7.776015 37.424563 -41.416104 21.00000000
6.113202 43.172145 -50.194814 21.00000000
-24.504925 68.847810 -15.103483 21.00000000
7.009383 40.384968 -19.785392 21.00000000
-8.493172 62.257251 -25.520155 21.00000000
7.858102 37.107578 -19.683347 21.00000000
-13.361947 65.165366 0.442195 21.00000000
2.564476 50.537266 -9.398093 21.00000000
-32.821354 69.374465 -18.540979 21.00000000
-26.558313 69.137318 -39.627003 21.00000000
8.374938 35.111776 -16.778392 21.00000000
-7.903340 61.841029 -11.263282 21.00000000
6.095343 43.225381 -46.510176 21.00000000
-20.638117 67.985561 -33.005630 21.00000000
1.241602 52.570798 3.603633 21.00000000
-0.762294 55.177510 -35.263921 21.00000000
-23.749495 68.712623 -22.856454 21.00000000
-24.980653 68.914883 -47.530958 21.00000000
-33.320185 69.365450 -31.887055 21.00000000
-23.570813 68.672826 -28.464227 21.00000000
8.073458 36.275966 -5.676398 21.00000000
-2.143990 56.755873 -1.067784 21.00000000
-23.644485 68.689235 -36.072891 21.00000000
4.051165 47.897888 -6.045059 21.00000000
-26.681737 69.154719 -45.147422 21.00000000
-12.106461 64.527518 -28.603172 21.00000000
8.534342 34.496226 -29.649075 21.00000000
-20.034575 67.800040 -46.009058 21.00000000
-0.324649 54.674538 -29.349645 21.00000000
-15.774385 66.288747 3.328249 21.00000000
-17.196441 66.852262 -43.518992 21.00000000
0.718836 53.272962 -1.533753 21.00000000
6.076014 43.282998 -4.377426 21.00000000
-15.612886 66.224750 0.138391 21.00000000
3.724900 48.521780 -56.592368 21.00000000
-29.289030 69.355686 -50.573834 21.00000000
-13.269313 65.119888 -7.097870 21.00000000
7.231477 39.527337 -46.650568 21.00000000
-1.344939 55.843087 -3.950738 21.00000000
7.764237 37.470046 -27.246989 21.00000000
-5.446027 59.904145 -28.876447 21.00000000
-1.645667 56.186620 0.699345 21.00000000
-31.694048 69.394838 -40.241084 21.00000000
-25.401565 68.974227 3.534958 21.00000000
1.637442 52.012947 -9.736273 21.00000000
6.881948 40.877070 -5.607057 21.00000000
-18.135316 67.216230 2.149010 21.00000000
-16.459205 66.560119 -49.935461 21.00000000
-9.713950 63.108206 -40.600225 21.00000000
8.169104 35.906620 -56.783904 21.00000000
2.122623 51.240621 -0.107249 21.00000000
3.669433 48.627846 -39.681154 21.00000000
5.420779 44.944594 -6.091761 21.00000000
5.473539 44.820756 -29.123564 21.00000000
0.840423 53.109649 -28.954335 21.00000000
-12.936050 64.956277 -5.184449 21.00000000
-26.368208 69.110515 -14.935539 21.00000000
-30.168784 69.409403 -13.729596 21.00000000
-30.775570 69.411437 -31.767836 21.00000000
5.780892 44.099338 -14.543782 21.00000000
-32.915944 69.372755 -22.777380 21.00000000
-2.872606 57.509787 -55.184734 21.00000000
-0.876704 55.308204 -11.332227 21.00000000
-19.748242 67.712024 -3.628291 21.00000000
-28.925619 69.333496 -15.892879 21.00000000
5.851767 43.932982 -16.861287 21.00000000
7.648443 37.917194 -15.616773 21.00000000
-8.738249 62.430193 -37.170612 21.00000000
5.109502 45.675221 -43.562841 21.00000000
-27.335750 69.236421 -4.207875 21.00000000
8.578848 34.324366 -31.850615 21.00000000
5.508677 44.738279 -2.869860 21.00000000
-19.871537 67.749924 2.306631 21.00000000
-13.822440 65.391440 -35.677693 21.00000000
-6.294785 60.609798 3.043494 21.00000000
-20.633573 67.984165 -52.424781 21.00000000
3.380499 49.180353 -31.939863 21.00000000
6.969398 40.539376 -32.651996 21.00000000
-11.219272 64.001210 -50.965676 21.00000000
7.876805 37.035356 -9.690388 21.00000000
-30.510471 69.416228 -58.551886 21.00000000
8.146284 35.994744 -48.605883 21.00000000
6.925524 40.708799 -24.858604 21.00000000
-25.265048 68.954980 -27.809025 21.00000000
-29.153744 69.347425 -46.504616 21.00000000
8.096541 36.186828 3.377707 21.00000000
-12.095121 64.520790 -25.669258 21.00000000
-18.698919 67.389475 -16.206474 21.00000000
-4.797075 59.364611 -37.964729 21.00000000
-3.246939 57.874704 -16.579669 21.00000000
-1.440427 55.952167 -9.483617 21.00000000
6.396252 42.328429 -26.084429 21.00000000
-6.508304 60.787316 -47.722189 21.00000000
1.294530 52.499707 -57.125742 21.00000000
6.797080 41.133638 -36.738851 21.00000000
6.765469 41.227863 -8.194400 21.00000000
-6.056680 60.411838 -30.837487 21.00000000
-26.015776 69.060825 -19.377998 21.00000000
-4.120450 58.726244 -17.751470 21.00000000
8.571394 34.353148 -33.791414 21.00000000
-27.292087 69.233755 -42.665999 21.00000000
7.432160 38.752384 -12.322557 21.00000000
-25.851309 69.037637 -4.163002 21.00000000
-21.865220 68.292951 -29.750223 21.00000000
-1.485777 56.003972 -45.592479 21.00000000
-29.573778 69.373072 -27.870523 21.00000000
5.834052 43.974561 -24.563902 21.00000000
-1.384795 55.888616 -30.137065 21.00000000
8.573939 34.343321 -37.523158 21.00000000
-28.325949 69.296881 -40.692716 21.00000000
-10.634907 63.654547 -24.681854 21.00000000
-0.230934 54.548663 -31.093325 21.00000000
3.938841 48.112677 -33.944774 21.00000000
-19.050948 67.497684 -24.109999 21.00000000
-0.843534 55.270314 -51.032268 21.00000000
-1.920984 56.501124 -20.920642 21.00000000
-14.872593 65.907000 -58.699879 21.00000000
-21.004524 68.098191 -44.562979 21.00000000
-14.087998 65.521812 -50.576151 21.00000000
4.246208 47.524922 -41.194292 21.00000000
-1.952585 56.537224 -54.131145 21.00000000
3.533995 48.886834 -28.799890 21.00000000
-30.628999 69.414085 -34.682963 21.00000000
-27.091267 69.212459 -58.417510 21.00000000
-3.701674 58.318001 -38.024378 21.00000000
-21.601044 68.234113 -13.760265 21.00000000
-17.980431 67.162931 -26.324901 21.00000000
6.227266 42.832143 1.820385 21.00000000
-15.922367 66.347387 -44.896009 21.00000000
-4.363462 58.963143 -49.512436 21.00000000
6.061646 43.325824 -1.863808 21.00000000
-33.338634 69.365116 -11.678932 21.00000000
-22.061433 68.336652 -47.650482 21.00000000
-25.353246 68.967415 -26.033357 21.00000000
0.820885 53.135893 -45.502388 21.00000000
7.931537 36.824003 -13.671746 21.00000000
-5.213400 59.710741 -20.600650 21.00000000
7.003879 40.406226 -12.530698 21.00000000
-15.530965 66.192287 -24.495639 21.00000000
-4.253534 58.855980 -60.403827 21.00000000
-6.060564 60.415068 -39.387498 21.00000000
0.846532 53.101444 -48.762958 21.00000000
3.726175 48.519342 -48.192171 21.00000000
-17.244056 66.871130 -29.354625 21.00000000
6.755870 41.256475 -28.179971 21.00000000
0.163593 54.018747 -0.105895 21.00000000
-1.636297 56.175916 -18.117725 21.00000000
7.704993 37.698819 -36.640275 21.00000000
-11.606106 64.230692 -57.904882 21.00000000
-33.432705 69.363416 -37.745624 21.00000000
-32.892619 69.373177 -26.081759 21.00000000
-22.429739 68.418683 -27.153003 21.00000000
-14.580925 65.763809 -0.939784 21.00000000
-24.819988 68.892230 -57.699466 21.00000000
1.551915 52.149092 -27.624628 21.00000000
8.110409 36.133275 -18.325555 21.00000000
-27.260804 69.231845 -25.209668 21.00000000
5.326205 45.166577 -7.914990 21.00000000
-31.381988 69.400477 -5.678232 21.00000000
-7.670813 61.676943 -56.296507 21.00000000
8.559929 34.397421 -5.448224 21.00000000
-0.953858 55.396341 -13.917491 21.00000000
-26.726514 69.161032 1.277790 21.00000000
-7.451866 61.522441 -45.839094 21.00000000
5.646036 44.415872 -59.489437 21.00000000
-20.770940 68.026390 -25.517969 21.00000000
7.436336 38.736259 -33.636337 21.00000000
-0.301388 54.643294 -21.006134 21.00000000
-21.942746 68.310218 -36.253588 21.00000000
7.384562 38.936187 -48.555934 21.00000000
-18.228303 67.244813 -10.221929 21.00000000
-16.048567 66.397396 -11.311021 21.00000000
-8.833934 62.497714 -20.128273 21.00000000
-30.315668 69.418371 2.274178 21.00000000
-0.482813 54.858248 -46.921029 21.00000000
4.379490 47.270057 -51.695903 21.00000000
7.545972 38.312890 0.906567 21.00000000
3.279071 49.374305 -22.298935 21.00000000
2.753539 50.236311 -37.584396 21.00000000
-0.287372 54.624468 -54.060679 21.00000000
4.051727 47.896814 -30.552185 21.00000000
5.212934 45.432445 -57.370825 21.00000000
-33.122630 69.369020 -20.605604 21.00000000
-12.822587 64.900573 -59.937118 21.00000000
-0.192070 54.496462 -12.762248 21.00000000
-4.121659 58.727423 -28.356433 21.00000000
-33.326930 69.365328 -60.212519 21.00000000
-21.034885 68.107523 -12.122100 21.00000000
-21.339216 68.175798 -19.842044 21.00000000
-24.082976 68.786897 -39.908490 21.00000000
2.586209 50.502672 -49.122894 21.00000000
4.436750 47.160562 -47.027859 21.00000000
-26.682056 69.154764 -12.931464 21.00000000
6.455522 42.151756 -21.868734 21.00000000
-4.339750 58.940028 -30.782094 21.00000000
-30.458724 69.417163 -4.131219 21.00000000
6.886870 40.858062 -38.658125 21.00000000
-2.143061 56.754812 -14.880941 21.00000000
6.477191 42.087164 -34.461973 21.00000000
-20.413283 67.916450 -42.768669 21.00000000
-27.196871 69.227348 -8.259055 21.00000000
4.845814 46.294147 -58.905160 21.00000000
-2.573962 57.218654 -8.326645 21.00000000
-2.047750 56.645934 -12.386336 21.00000000
-20.840690 68.047830 -60.713937 21.00000000
1.229100 52.587590 -0.051165 21.00000000
5.078572 45.747819 -19.812136 21.00000000
-2.847347 57.485163 -19.552972 21.00000000
4.494887 47.049392 -26.002561 21.00000000
7.772084 37.439742 -29.192488 21.00000000
1.647296 51.997262 -22.801885 21.00000000
-5.288554 59.773223 -23.774640 21.00000000
-8.352555 62.158023 -41.353500 21.00000000
2.245615 51.044839 -50.768982 21.00000000
-31.225931 69.403298 -55.980626 21.00000000
-6.000407 60.365054 -49.394992 21.00000000
-29.358264 69.359913 -23.919891 21.00000000
8.479227 34.709058 -44.745001 21.00000000
5.247530 45.351243 -16.992642 21.00000000
-22.929507 68.529993 -51.970658 21.00000000
-10.625366 63.648886 -26.823873 21.00000000
-18.327528 67.275313 -58.222042 21.00000000
6.308195 42.590910 -60.517143 21.00000000
4.545348 46.952899 3.728065 21.00000000
-6.295841 60.610676 -11.504661 21.00000000
-0.054761 54.312032 -26.489740 21.00000000
-28.976254 69.336588 -31.102839 21.00000000
-10.180400 63.384919 -2.429591 21.00000000
-31.596662 69.396598 -42.804881 21.00000000
-26.248226 69.093598 -6.974309 21.00000000
-11.579814 64.215094 -7.606735 21.00000000
-21.569270 68.227036 -53.769183 21.00000000
-19.569469 67.657071 -13.485795 21.00000000
1.928448 51.549715 -55.748328 21.00000000
-1.410962 55.918507 -60.549162 21.00000000
-10.997919 63.869896 -43.943070 21.00000000
-6.140964 60.481912 -44.626586 21.00000000
-9.107419 62.690702 -46.911403 21.00000000
7.392755 38.904549 -31.893122 21.00000000
-4.871009 59.426078 -10.958776 21.00000000
-13.809118 65.384899 3.549435 21.00000000
-2.778204 57.417759 0.479543 21.00000000
-26.786146 69.169440 -29.260920 21.00000000
-15.147295 66.040251 -43.025918 21.00000000
-5.286368 59.771405 -18.301360 21.00000000
5.041424 45.835012 -30.334406 21.00000000
8.073889 36.274301 -39.618588 21.00000000
0.126181 54.068997 -11.114951 21.00000000
-1.964804 56.551183 -56.590439 21.00000000
-21.000723 68.097022 -8.601836 21.00000000
-1.189271 55.665261 2.938625 21.00000000
8.498547 34.634454 -9.404280 21.00000000
5.252304 45.340036 2.960145 21.00000000
0.027647 54.201345 -7.892876 21.00000000
-28.740343 69.322184 -12.950898 21.00000000
-0.237654 54.557689 -3.136877 21.00000000
-2.809437 57.448207 -60.147154 21.00000000
8.475805 34.722274 -18.748712 21.00000000
-20.523902 67.950453 -28.459085 21.00000000
-27.706962 69.259086 -48.534578 21.00000000
1.599105 52.073974 -37.178149 21.00000000
-29.364169 69.360274 -48.375190 21.00000000
-16.552185 66.596964 -7.304279 21.00000000
-11.370229 64.090762 -59.987608 21.00000000
-16.450647 66.556727 -55.415557 21.00000000
8.126016 36.073010 -2.495102 21.00000000
-9.185265 62.745635 -35.300217 21.00000000
5.389076 45.019007 -36.594847 21.00000000
5.850891 43.935038 -55.166955 21.00000000
-33.460034 69.362922 -6.236951 21.00000000
2.690082 50.337324 -45.840413 21.00000000
-32.370718 69.382609 -57.389837 21.00000000
3.817896 48.343951 -23.573042 21.00000000
-4.772821 59.344446 -7.686923 21.00000000
7.076680 40.125098 -29.222285 21.00000000
-6.774891 61.008955 -59.308378 21.00000000
-19.346093 67.588408 -48.238030 21.00000000
-7.231921 61.367234 -6.304649 21.00000000
-15.265718 66.087178 -17.549073 21.00000000
-17.848482 67.110644 -21.301396 21.00000000
-32.710753 69.376464 -4.780813 21.00000000
-4.670155 59.259090 -25.928231 21.00000000
-31.335728 69.401313 -1.865080 21.00000000
-29.950447 69.396071 -52.038394 21.00000000
-9.583229 63.026463 -27.989367 21.00000000
-12.688969 64.834975 -18.463150 21.00000000
-4.571090 59.165549 -52.009074 21.00000000
5.295232 45.239276 -34.566431 21.00000000
-15.302830 66.101884 -31.111761 21.00000000
-5.787757 60.188258 -57.611792 21.00000000
-30.007161 69.399534 -40.702272 21.00000000
8.572489 34.348920 -56.896834 21.00000000
-30.710037 69.412621 -15.513437 21.00000000
-20.032325 67.799348 -54.117707 21.00000000
-6.590173 60.855382 -23.915785 21.00000000
-10.510925 63.580996 -52.807273 21.00000000
-0.504813 54.883379 -22.664611 21.00000000
-10.690539 63.687549 -19.211619 21.00000000
-2.635236 57.278387 -28.328878 21.00000000
-31.091441 69.405728 -27.110403 21.00000000
-31.421887 69.399756 -7.696622 21.00000000
2.972430 49.887874 -55.936120 21.00000000
7.682101 37.787220 -45.815691 21.00000000
-22.107478 68.346908 -9.957633 21.00000000
-27.470284 69.244635 -0.252187 21.00000000
4.300794 47.420541 1.583725 21.00000000
-3.306656 57.932919 -50.884366 21.00000000
-10.429957 63.532964 -45.601192 21.00000000
8.065792 36.305568 -45.101646 21.00000000
4.224427 47.566573 -4.336805 21.00000000
4.087276 47.828835 -17.622776 21.00000000
-27.988172 69.276257 -28.046439 21.00000000
2.938985 49.941111 -39.940579 21.00000000
3.289197 49.354942 -36.128084 21.00000000
7.841749 37.170726 -43.192304 21.00000000
7.871972 37.054020 -47.377449 21.00000000
-25.789343 69.028900 -43.563074 21.00000000
-15.653371 66.240793 -28.722245 21.00000000
-21.583943 68.230304 -2.442451 21.00000000
6.901730 40.800678 -10.082542 21.00000000
7.604591 38.086530 -0.904089 21.00000000
-23.420027 68.639243 -50.197657 21.00000000
-14.643987 65.794769 1.561546 21.00000000
5.001719 45.928207 -23.906972 21.00000000
-0.631423 55.028011 -1.050445 21.00000000
-17.669603 67.039760 -53.969539 21.00000000
7.390706 38.912462 -9.447052 21.00000000
-29.483357 69.367551 -56.976714 21.00000000
8.511984 34.582565 -46.941944 21.00000000
-26.861449 69.180057 -26.781627 21.00000000
6.244777 42.779948 -8.361533 21.00000000
-22.140491 68.354261 -5.948767 21.00000000
-16.464995 66.562413 -59.674210 21.00000000
0.555675 53.492113 -4.867031 21.00000000
7.263525 39.403583 -17.088004 21.00000000
-26.119808 69.075493 -49.095626 21.00000000
0.715451 53.277507 -40.835744 21.00000000
-7.342318 61.445137 -3.416641 21.00000000
-3.536398 58.156883 -9.692831 21.00000000
-3.768526 58.383172 3.289795 21.00000000
-12.076876 64.509967 -49.227973 21.00000000
-3.630645 58.248759 -14.224803 21.00000000
0.318662 53.810463 -16.035719 21.00000000
-31.188068 69.403982 -48.055294 21.00000000
-2.379076 57.024421 -3.220297 21.00000000
8.555218 34.415614 -3.817338 21.00000000
4.357626 47.311866 -29.034336 21.00000000
4.610358 46.828585 -10.647169 21.00000000
-2.635874 57.279009 -39.742985 21.00000000
-15.118487 66.027719 -13.027039 21.00000000
4.443158 47.148309 -0.145130 21.00000000
-8.742509 62.433199 -1.467975 21.00000000
-15.851993 66.319500 -8.769141 21.00000000
-30.647449 69.413752 -17.213119 21.00000000
6.999188 40.424339 -22.804600 21.00000000
8.393012 35.041985 -52.744932 21.00000000
-10.466838 63.554843 -35.044208 21.00000000
-9.253771 62.793977 -58.364233 21.00000000
6.922771 40.719429 -26.743006 21.00000000
-8.347609 62.154533 -17.190503 21.00000000
-1.599851 56.134283 -37.230866 21.00000000
-12.567306 64.775246 -44.439891 21.00000000
-0.433117 54.801478 -41.025465 21.00000000
-3.799622 58.413486 1.544266 21.00000000
-27.065476 69.208823 -56.439221 21.00000000
-1.164655 55.637142 -27.803633 21.00000000
-24.519248 68.849829 -51.637860 21.00000000
-4.830315 59.392246 -4.745882 21.00000000
-11.352771 64.080406 -41.065041 21.00000000
-19.755160 67.714151 -10.985683 21.00000000
8.126428 36.071416 -58.568215 21.00000000
7.295154 39.281445 -42.988317 21.00000000
-7.763208 61.742143 -28.896689 21.00000000
8.024605 36.464613 -22.287754 21.00000000
7.159633 39.804769 -52.563152 21.00000000
1.747568 51.837646 -33.661739 21.00000000
1.636205 52.014916 -4.663531 21.00000000
-11.459558 64.143755 -47.783984 21.00000000
-24.852243 68.896778 0.283223 21.00000000
7.316497 39.199027 -26.308431 21.00000000
-25.252629 68.953229 -11.570064 21.00000000
-23.988057 68.765756 -10.395471 21.00000000
-14.711435 65.827881 -19.067059 21.00000000
5.897172 43.816089 -7.143936 21.00000000
1.257418 52.549555 -11.225319 21.00000000
6.409387 42.289275 -23.747220 21.00000000
-5.154381 59.661672 2.278118 21.00000000
8.323779 35.309331 -41.152517 21.00000000
-13.177028 65.074582 -23.473590 21.00000000
-5.900504 60.281994 -25.597814 21.00000000
-14.312783 65.632168 -46.595853 21.00000000
7.117648 39.966898 0.270908 21.00000000
-14.489712 65.719029 -21.237292 21.00000000
-6.598315 60.862151 -1.771676 21.00000000
-5.470516 59.924505 -6.407829 21.00000000
-23.899928 68.746128 -33.464273 21.00000000
-4.389524 58.988550 -21.745244 21.00000000
-13.804180 65.382475 -52.251718 21.00000000
-2.973560 57.608201 -21.272636 21.00000000
6.267411 42.712480 -0.476488 21.00000000
8.032398 36.434521 1.072731 21.00000000
2.360381 50.862152 -11.243919 21.00000000
-33.207260 69.367491 -14.874867 21.00000000
-14.001502 65.479348 -16.503479 21.00000000
-16.421297 66.545097 -41.797675 21.00000000
-13.165545 65.068945 -55.862915 21.00000000
1.599311 52.073646 -30.076503 21.00000000
-15.484457 66.173857 -2.536640 21.00000000
-27.494601 69.246120 -46.644601 21.00000000
-18.430781 67.307052 -34.423355 21.00000000
-21.025837 68.104742 -38.872061 21.00000000
-30.564241 69.415256 -11.898414 21.00000000
-1.139444 55.608342 -52.892557 21.00000000
-31.769019 69.393483 -10.857660 21.00000000
2.841468 50.096343 -30.756651 21.00000000
3.590459 48.778862 2.255744 21.00000000
4.361871 47.303748 -19.751210 21.00000000
-27.049828 69.206617 3.107746 21.00000000
8.524267 34.535132 -14.226361 21.00000000
-4.300069 58.901345 -15.518516 21.00000000
4.441216 47.152024 -37.087096 21.00000000
3.819530 48.340826 -46.064381 21.00000000
-3.663835 58.281114 -58.986368 21.00000000
-8.040663 61.937933 -38.841818 21.00000000
-6.653962 60.908415 -41.450928 21.00000000
-21.915984 68.304258 -49.378421 21.00000000
-19.666150 67.686790 -41.284339 21.00000000
-3.020783 57.654237 -4.891301 21.00000000
-9.882214 63.208026 -56.919914 21.00000000
-11.848835 64.374686 -21.200246 21.00000000
-9.876601 63.204696 -15.695985 21.00000000
-6.884379 61.099983 -9.691115 21.00000000
-29.942806 69.395605 -43.238218 21.00000000
1.588095 52.091499 -58.886238 21.00000000
1.706461 51.903081 -12.753366 21.00000000
-12.037449 64.486577 -35.309633 21.00000000
-20.628265 67.982533 -21.482846 21.00000000
5.997243 43.517797 -35.788995 21.00000000
-18.785115 67.415970 -0.731672 21.00000000
-7.546976 61.589556 -13.886794 21.00000000
3.449691 49.048041 -14.976774 21.00000000
-3.345565 57.970850 -1.876094 21.00000000
-1.446456 55.959054 -38.932478 21.00000000
5.936298 43.699464 -22.436454 21.00000000
-22.891115 68.521442 -7.598286 21.00000000
-24.382513 68.830551 -7.796581 21.00000000
0.815792 53.142733 -12.729451 21.00000000
5.296565 45.236147 -26.843505 21.00000000
-24.823238 68.892689 -1.509479 21.00000000
-8.095886 61.976902 -51.451957 21.00000000
1.983200 51.462559 -42.772435 21.00000000
-4.549505 59.144507 -39.901852 21.00000000
2.637569 50.420916 -58.812101 21.00000000
7.343344 39.095353 -24.149647 21.00000000
-24.192552 68.803768 -45.037528 21.00000000
-3.637297 58.255243 -41.301695 21.00000000
3.317570 49.300688 -50.849764 21.00000000
-20.940461 68.078498 -31.261938 21.00000000
-12.806335 64.892594 2.143475 21.00000000
5.651985 44.401907 0.427011 21.00000000
-8.875063 62.526737 -8.354100 21.00000000
-5.678498 60.097420 -3.369365 21.00000000
-33.381517 69.364341 -51.852926 21.00000000
-12.551467 64.767470 -36.699003 21.00000000
6.866522 40.926646 -57.510440 21.00000000
-22.989796 68.543420 -37.808849 21.00000000
5.662281 44.377743 -40.169157 21.00000000
-23.119470 68.572302 -24.492972 21.00000000
-25.248001 68.952576 -32.267229 21.00000000
-22.467064 68.426996 -4.182255 21.00000000
7.718183 37.647887 -55.514046 21.00000000
-15.572009 66.208551 -48.760714 21.00000000
5.976368 43.580023 -10.552709 21.00000000
5.369096 45.065904 -45.157436 21.00000000
6.670342 41.511420 -45.026116 21.00000000
-10.099949 63.337193 -31.347401 21.00000000
-4.907994 59.456828 -1.941680 21.00000000
7.708283 37.686114 2.524300 21.00000000
-18.013536 67.176050 -28.067320 21.00000000
3.129819 49.637337 -7.958586 21.00000000
7.451115 38.679189 -22.295993 21.00000000
-15.398907 66.139957 -33.835947 21.00000000
-19.840999 67.740537 -18.674188 21.00000000
0.384092 53.722579 -34.603313 21.00000000
-6.255898 60.577467 -14.925927 21.00000000
-6.103584 60.450834 -53.234609 21.00000000
4.029176 47.939937 -35.742111 21.00000000
-10.778238 63.739575 2.927627 21.00000000
-4.502535 59.098718 -44.148304 21.00000000
-17.069049 66.801780 -31.026766 21.00000000
6.865342 40.930163 -60.837814 21.00000000
4.688638 46.663070 -45.197253 21.00000000
-6.967074 61.168735 -60.893909 21.00000000
-14.214480 65.583907 -44.465305 21.00000000
2.804305 50.155499 -13.437555 21.00000000
6.480261 42.078015 -2.778648 21.00000000
-33.158002 69.368381 3.232500 21.00000000
-31.236933 69.403099 -30.166750 21.00000000
-2.031996 56.627938 -10.851638 21.00000000
-10.988917 63.864556 -33.092389 21.00000000
-25.795737 69.029802 -41.463920 21.00000000
-10.322148 63.469008 -0.767410 21.00000000
-20.637035 67.985229 -5.397300 21.00000000
-0.411206 54.776449 -9.804366 21.00000000
-18.245498 67.250098 -14.631690 21.00000000
-5.062635 59.585396 -35.317003 21.00000000
7.487491 38.538721 -18.735221 21.00000000
6.683543 41.472070 -52.053924 21.00000000
-0.428809 54.796557 -5.129227 21.00000000
6.249119 42.767003 -56.894200 21.00000000
-29.285799 69.355488 -36.448486 21.00000000
-23.249313 68.601221 -2.593787 21.00000000
-5.502052 59.950724 -0.240725 21.00000000
1.388286 52.373776 -25.883021 21.00000000
-0.244585 54.566998 -48.798289 21.00000000
7.417167 38.810283 -14.328016 21.00000000
-25.604016 69.002771 -60.757600 21.00000000
0.809055 53.151782 -35.964584 21.00000000
-9.373826 62.878696 3.770290 21.00000000
6.394004 42.335129 -14.982959 21.00000000
-14.903741 65.922292 -56.599705 21.00000000
6.723868 41.351868 -55.605661 21.00000000
-14.427831 65.688649 -5.594893 21.00000000
-12.119836 64.535452 -38.626238 21.00000000
-29.942660 69.395596 -53.648212 21.00000000
8.124502 36.078856 -15.126245 21.00000000
-26.546352 69.135631 -20.907425 21.00000000
-1.183263 55.658399 -58.152529 21.00000000
-26.344381 69.107155 -50.843381 21.00000000
4.161341 47.687207 -15.186494 21.00000000
-22.812416 68.503914 1.058717 21.00000000
-16.967651 66.761599 -38.788776 21.00000000
-22.962641 68.537372 3.399060 21.00000000
-30.504009 69.416344 -44.876358 21.00000000
-12.546014 64.764793 -42.435782 21.00000000
8.224110 35.694213 -35.144142 21.00000000
-29.257533 69.353763 -1.353984 21.00000000
7.740204 37.562851 -11.449001 21.00000000
1.794956 51.762212 -44.753655 21.00000000
-14.365228 65.657915 -60.827689 21.00000000
-5.258204 59.747991 -9.312243 21.00000000
6.743413 41.293610 -4.109448 21.00000000
5.724873 44.230826 -19.808706 21.00000000
-23.522273 68.662015 -60.774958 21.00000000
-14.765233 65.854293 -14.760116 21.00000000
-14.983153 65.961278 -22.771347 21.00000000
-0.020126 54.265512 -24.527668 21.00000000
5.860791 43.911801 -48.672220 21.00000000
-32.937095 69.372373 -55.357086 21.00000000
0.915520 53.008782 -51.197499 21.00000000
6.883934 40.869402 -1.429737 21.00000000
-28.856234 69.329260 0.664972 21.00000000
-22.434198 68.419676 -39.757387 21.00000000
-3.857721 58.470123 -3.467135 21.00000000
0.230217 53.929259 3.336663 21.00000000
7.082932 40.100956 -44.380680 21.00000000
5.602611 44.517797 -11.736574 21.00000000
6.057999 43.336697 -33.221518 21.00000000
1.301637 52.490160 -38.677870 21.00000000
7.486509 38.542513 -40.328767 21.00000000
6.945506 40.631637 -14.166372 21.00000000
3.665000 48.636323 -13.227108 21.00000000
3.251480 49.427066 -3.467399 21.00000000
7.546018 38.312712 -52.224015 21.00000000
6.511760 41.984121 3.706053 21.00000000
-2.055537 56.654829 -6.077755 21.00000000
-15.928912 66.349980 -4.878249 21.00000000
3.078473 49.719071 -5.203106 21.00000000
8.570932 34.354934 -55.386967 21.00000000
4.731318 46.562891 -9.009415 21.00000000
-2.496788 57.143422 -38.202935 21.00000000
-11.774930 64.330843 -30.639054 21.00000000
-9.307780 62.832090 -33.231779 21.00000000
-12.235257 64.603923 -52.145268 21.00000000
-31.204806 69.403679 -21.074780 21.00000000
6.580796 41.778338 -41.849792 21.00000000
-14.434047 65.691701 -10.257806 21.00000000
-33.449050 69.363121 -39.807729 21.00000000
2.567363 50.532671 1.772212 21.00000000
-7.979471 61.894752 -54.656622 21.00000000
-13.862065 65.410893 -33.411823 21.00000000
-6.301609 60.615471 -5.166162 21.00000000
-28.695335 69.319435 -58.660383 21.00000000
-2.055387 56.654659 -51.613540 21.00000000
-28.952876 69.335161 -18.245365 21.00000000
-32.219748 69.385337 -24.494562 21.00000000
-28.528776 69.309265 -20.429793 21.00000000
-15.945021 66.356364 -20.370210 21.00000000
-7.073186 61.255221 -25.355738 21.00000000
-9.077176 62.669361 -55.667630 21.00000000
4.538111 46.966737 -60.394095 21.00000000
-26.283193 69.098528 -53.000406 21.00000000
5.078033 45.749084 -13.209522 21.00000000
-19.717192 67.702480 -50.992645 21.00000000
2.958359 49.910272 -34.306718 21.00000000
