42.108240 -50.450767 -54.903115 16.00000000
47.207091 -50.434377 -39.421458 16.00000000
43.370618 -50.543272 -22.587002 16.00000000
31.898101 -48.032726 -36.439444 16.00000000
19.117838 -38.557404 -45.598842 16.00000000
35.512039 -49.284518 -55.030310 16.00000000
30.793781 -47.530613 -46.977923 16.00000000
33.415640 -48.601298 -48.875098 16.00000000
43.877355 -50.542037 -37.696563 16.00000000
39.656790 -50.181138 -35.882868 16.00000000
13.699357 -29.177588 -33.396433 16.00000000
16.892827 -35.534575 -42.292988 16.00000000
22.762775 -42.339427 -45.538415 16.00000000
38.445720 -49.974181 -9.897836 16.00000000
12.477297 -23.794844 -4.162408 16.00000000
55.675546 -48.607612 -46.698250 16.00000000
15.913865 -33.913207 -60.732478 16.00000000
12.224248 -22.477841 -58.386955 16.00000000
35.854584 -49.373837 -34.805061 16.00000000
19.475578 -38.969533 -34.496515 16.00000000
47.416682 -50.415828 -45.698707 16.00000000
45.239539 -50.538719 -51.047082 16.00000000
21.480363 -41.117140 -15.391146 16.00000000
15.770513 -33.675785 -55.843773 16.00000000
53.112212 -49.410159 -15.204285 16.00000000
17.262783 -36.092926 -27.165623 16.00000000
44.001266 -50.541736 -32.534585 16.00000000
18.500066 -37.793372 -51.794547 16.00000000
36.078110 -49.432122 -52.170257 16.00000000
20.081601 -39.667692 -47.871837 16.00000000
27.406293 -45.750809 -7.391524 16.00000000
15.990532 -34.040184 -6.350882 16.00000000
53.897849 -49.201220 -26.894534 16.00000000
17.794202 -36.823275 -24.343565 16.00000000
37.497100 -49.802124 -18.170550 16.00000000
12.555587 -24.202308 -27.784335 16.00000000
58.156958 -47.603377 -9.290067 16.00000000
30.603512 -47.444101 -18.308892 16.00000000
40.089130 -50.255020 -21.550020 16.00000000
13.003993 -26.536049 -53.489418 16.00000000
12.398927 -23.386962 -27.705696 16.00000000
28.346361 -46.279827 -29.183644 16.00000000
37.512646 -49.806177 -52.307142 16.00000000
13.901954 -29.697578 -30.386356 16.00000000
14.879216 -31.926341 -25.758062 16.00000000
51.931730 -49.724106 -26.018750 16.00000000
13.222452 -27.673030 -58.117264 16.00000000
41.680214 -50.414994 -45.919865 16.00000000
38.857310 -50.044517 -47.004527 16.00000000
49.511723 -50.174366 -18.051344 16.00000000
12.289136 -22.815554 -53.033446 16.00000000
13.130267 -27.193248 -30.163793 16.00000000
16.717136 -35.243592 -58.283175 16.00000000
22.294544 -41.906783 -33.085076 16.00000000
25.847549 -44.717812 -46.919592 16.00000000
29.731720 -47.047714 -30.161972 16.00000000
13.531439 -28.746607 -23.070112 16.00000000
35.645712 -49.319374 -12.874422 16.00000000
27.999436 -46.084597 -55.708215 16.00000000
55.254412 -48.759333 -30.510768 16.00000000
13.127733 -27.180062 1.272471 16.00000000
34.795344 -49.090768 -57.650276 16.00000000
12.895752 -25.972709 -15.735694 16.00000000
58.936448 -47.244356 -36.840604 16.00000000
42.298452 -50.466664 -33.393358 16.00000000
12.760683 -25.269735 -45.303477 16.00000000
28.589159 -46.416460 -0.174566 16.00000000
14.207039 -30.480614 -36.173635 16.00000000
34.548607 -49.003234 -0.239199 16.00000000
22.059121 -41.678454 -36.773477 16.00000000
18.226372 -37.417224 -43.525268 16.00000000
31.091572 -47.666013 -21.034855 16.00000000
14.603348 -31.365810 -7.894966 16.00000000
37.843478 -49.871265 2.732160 16.00000000
30.657095 -47.468464 -60.934724 16.00000000
53.400161 -49.333580 -58.229612 16.00000000
43.381162 -50.543246 -25.254586 16.00000000
14.613909 -31.387268 -36.360275 16.00000000
30.034440 -47.185355 -46.528800 16.00000000
26.718022 -45.311317 -17.517210 16.00000000
25.763085 -44.660223 -29.477979 16.00000000
32.127795 -48.137164 -31.495015 16.00000000
34.637793 -49.034874 -3.607437 16.00000000
38.377942 -49.962598 -59.108924 16.00000000
41.450638 -50.395808 -14.879261 16.00000000
17.503800 -36.424165 -52.430741 16.00000000
25.476285 -44.464677 -10.790110 16.00000000
20.044693 -39.625173 -1.811013 16.00000000
19.575376 -39.084504 -26.433179 16.00000000
12.188735 -22.293014 -35.892104 16.00000000
32.345647 -48.221702 -60.575223 16.00000000
54.640811 -48.980393 -28.950809 16.00000000
24.710655 -43.928395 2.464669 16.00000000
38.055956 -49.907575 -15.690913 16.00000000
45.660450 -50.537693 2.563553 16.00000000
15.067366 -32.308640 -50.807535 16.00000000
17.477885 -36.388549 -9.558605 16.00000000
33.257990 -48.545369 -25.934681 16.00000000
59.519133 -46.975979 -38.360907 16.00000000
19.951647 -39.517981 -31.914385 16.00000000
58.694287 -47.355891 -50.267426 16.00000000
33.022048 -48.461665 -37.900139 16.00000000
35.255546 -49.217638 -31.584984 16.00000000
54.614989 -48.989696 -47.578154 16.00000000
47.339269 -50.422679 -32.376792 16.00000000
44.443181 -50.540659 -40.612654 16.00000000
17.377093 -36.250027 -14.643406 16.00000000
38.692159 -50.016294 -36.305360 16.00000000
15.496128 -33.179834 -17.747461 16.00000000
44.170442 -50.541323 -57.795654 16.00000000
38.683288 -50.014779 -1.310220 16.00000000
15.110214 -32.395703 -21.567809 16.00000000
12.325869 -23.006732 2.207495 16.00000000
44.734912 -50.539948 -60.729409 16.00000000
24.128369 -43.453400 -1.313033 16.00000000
40.387133 -50.305945 -29.658812 16.00000000
30.963582 -47.607818 -36.642376 16.00000000
27.836095 -45.992677 -58.637973 16.00000000
56.953858 -48.147077 -31.077056 16.00000000
54.908470 -48.883964 -16.218853 16.00000000
58.644023 -47.379042 -43.335006 16.00000000
30.219005 -47.269273 2.239496 16.00000000
40.843731 -50.345085 -37.622880 16.00000000
42.480299 -50.481862 -32.628787 16.00000000
12.432190 -23.560080 -44.829037 16.00000000
51.224475 -49.873107 -58.381445 16.00000000
27.611819 -45.866467 -39.725931 16.00000000
54.032499 -49.165410 -21.883640 16.00000000
12.087518 -21.766227 -19.596476 16.00000000
47.561388 -50.403021 -21.751011 16.00000000
40.700749 -50.333135 -19.852908 16.00000000
44.965730 -50.539386 -46.770071 16.00000000
22.846100 -42.407400 -18.883703 16.00000000
45.023244 -50.539246 -0.091534 16.00000000
17.460606 -36.364802 -12.341243 16.00000000
17.937776 -37.020595 -46.821527 16.00000000
18.996772 -38.417932 -7.979712 16.00000000
55.187282 -48.783517 -58.459361 16.00000000
59.495149 -46.987026 -51.195535 16.00000000
40.599194 -50.324647 -5.539905 16.00000000
57.993297 -47.678757 -56.490242 16.00000000
42.017263 -50.443164 -28.347510 16.00000000
18.411586 -37.671770 -7.924587 16.00000000
35.240298 -49.213662 -59.995143 16.00000000
14.660731 -31.482406 -38.389976 16.00000000
39.382691 -50.134298 -45.182102 16.00000000
15.819115 -33.756281 -32.728777 16.00000000
12.782075 -25.381073 -5.437375 16.00000000
12.302611 -22.885682 -19.049284 16.00000000
29.597637 -46.983977 -60.848116 16.00000000
18.615876 -37.952534 -58.347734 16.00000000
58.693492 -47.356258 -14.635769 16.00000000
43.572776 -50.542779 -46.794323 16.00000000
12.076819 -21.710539 -27.393832 16.00000000
44.623132 -50.540220 -8.099701 16.00000000
28.420392 -46.321487 -20.009818 16.00000000
26.003079 -44.823855 -4.528059 16.00000000
57.227760 -48.031352 -16.012410 16.00000000
42.361053 -50.471896 -15.352693 16.00000000
38.074279 -49.910706 -24.096579 16.00000000
20.389089 -40.021929 2.924251 16.00000000
13.911225 -29.721374 -38.812594 16.00000000
43.362297 -50.543292 -38.328049 16.00000000
53.141063 -49.402486 -47.465417 16.00000000
40.895502 -50.349412 -40.825568 16.00000000
47.363342 -50.420548 1.719131 16.00000000
17.487803 -36.402180 -48.409963 16.00000000
45.069233 -50.539134 -31.511568 16.00000000
55.086390 -48.819866 -44.957039 16.00000000
13.296618 -28.059030 -25.254289 16.00000000
33.337376 -48.573532 -15.542964 16.00000000
16.103506 -34.227293 -50.800738 16.00000000
58.327869 -47.524658 -34.552172 16.00000000
19.522652 -39.023764 -44.822351 16.00000000
12.682507 -24.862866 -22.834762 16.00000000
26.951049 -45.470199 -24.857866 16.00000000
29.068194 -46.686035 -58.174805 16.00000000
17.535687 -36.467988 -21.554327 16.00000000
48.219477 -50.344778 -13.533458 16.00000000
16.904318 -35.553605 -53.968263 16.00000000
41.544925 -50.403688 -10.981237 16.00000000
44.762334 -50.539881 -15.138672 16.00000000
18.414735 -37.676099 -32.542377 16.00000000
12.116026 -21.914598 -30.822330 16.00000000
44.908259 -50.539526 -6.896240 16.00000000
57.333858 -47.982485 -34.161521 16.00000000
27.140284 -45.599223 -57.763412 16.00000000
32.849806 -48.400560 -43.204767 16.00000000
20.407317 -40.042928 1.522217 16.00000000
21.855762 -41.481225 -1.270833 16.00000000
39.123626 -50.090027 -51.957398 16.00000000
12.515701 -23.994716 -13.877078 16.00000000
30.268522 -47.291787 -21.845641 16.00000000
29.484126 -46.920099 -53.611335 16.00000000
45.390407 -50.538351 -7.641878 16.00000000
33.410722 -48.599553 -1.505228 16.00000000
50.918293 -49.926961 -35.367625 16.00000000
29.582955 -46.975714 -18.791034 16.00000000
53.172544 -49.394114 -13.712526 16.00000000
12.261481 -22.671623 -32.564667 16.00000000
45.463680 -50.538173 1.164318 16.00000000
15.598222 -33.387277 -5.246177 16.00000000
28.157571 -46.173586 1.977341 16.00000000
32.405777 -48.243034 -4.643302 16.00000000
58.123648 -47.618719 -47.326683 16.00000000
14.126378 -30.273590 3.775362 16.00000000
27.074783 -45.554563 0.046690 16.00000000
17.737464 -36.745299 -11.090247 16.00000000
48.186841 -50.347666 -35.804470 16.00000000
43.117667 -50.535131 -48.614507 16.00000000
42.352744 -50.471202 -10.757189 16.00000000
24.614096 -43.849628 -50.125405 16.00000000
40.351041 -50.299777 -53.006877 16.00000000
53.548863 -49.294032 -8.041643 16.00000000
34.153752 -48.863154 -35.775337 16.00000000
13.599261 -28.920682 1.220697 16.00000000
27.384400 -45.738488 2.214161 16.00000000
13.279756 -27.971268 -35.194641 16.00000000
30.599920 -47.442468 -31.504897 16.00000000
51.749835 -49.772481 0.385354 16.00000000
45.519345 -50.538037 -18.823388 16.00000000
45.352042 -50.538445 -17.773812 16.00000000
33.165437 -48.512535 -2.429736 16.00000000
44.052641 -50.541610 -48.754320 16.00000000
24.321662 -43.611077 -32.712454 16.00000000
12.343256 -23.097224 -31.230970 16.00000000
18.429063 -37.695790 -29.624606 16.00000000
12.989052 -26.458292 -30.662788 16.00000000
14.397946 -30.948457 -60.831615 16.00000000
50.492392 -50.001874 -43.674070 16.00000000
53.413376 -49.330065 -2.692935 16.00000000
53.289295 -49.363064 -42.368071 16.00000000
33.331565 -48.571471 -21.087703 16.00000000
33.826960 -48.747219 -12.842470 16.00000000
37.853522 -49.872981 -35.853955 16.00000000
55.191412 -48.782029 0.044218 16.00000000
41.525584 -50.402071 -41.323970 16.00000000
27.927058 -46.043866 -10.052108 16.00000000
12.421261 -23.503202 -49.151619 16.00000000
13.430203 -28.486773 -50.226358 16.00000000
54.758176 -48.938110 -34.905714 16.00000000
47.319517 -50.424427 -25.520837 16.00000000
45.280617 -50.538619 -59.411992 16.00000000
16.064303 -34.162364 -37.830909 16.00000000
20.727841 -40.387299 -2.130581 16.00000000
13.721561 -29.234579 -0.016732 16.00000000
54.590352 -48.998572 -48.584797 16.00000000
28.309912 -46.259316 -56.490443 16.00000000
20.679558 -40.340471 -47.898184 16.00000000
51.143598 -49.887332 -7.868658 16.00000000
35.195426 -49.201961 -29.280840 16.00000000
48.849398 -50.289028 -58.891864 16.00000000
40.332324 -50.296579 -12.491745 16.00000000
17.149805 -35.937657 -0.563340 16.00000000
29.576637 -46.972159 -47.378987 16.00000000
12.747721 -25.202275 -30.204571 16.00000000
25.576319 -44.532882 -30.508783 16.00000000
37.017959 -49.677188 -29.288305 16.00000000
18.489409 -37.778725 -3.279928 16.00000000
29.296267 -46.814382 -39.563215 16.00000000
32.291415 -48.202463 0.872742 16.00000000
43.972409 -50.541806 -46.037990 16.00000000
15.950537 -33.973944 -20.456363 16.00000000
29.091824 -46.699333 -38.688749 16.00000000
17.951465 -37.039408 -16.882117 16.00000000
30.099342 -47.214865 -0.307834 16.00000000
57.298442 -47.998797 -38.822212 16.00000000
37.857276 -49.873623 -12.899660 16.00000000
58.367393 -47.506454 -22.761982 16.00000000
13.123713 -27.159136 -49.088210 16.00000000
35.823008 -49.365603 -38.544403 16.00000000
12.217488 -22.442661 -21.169006 16.00000000
52.080280 -49.684600 -58.387214 16.00000000
14.074018 -30.139201 -17.012741 16.00000000
32.707607 -48.350113 -21.938796 16.00000000
36.999177 -49.672290 -9.119436 16.00000000
16.604481 -35.057012 -57.351866 16.00000000
46.164885 -50.526615 -14.351843 16.00000000
23.030313 -42.557670 -59.038378 16.00000000
25.038892 -44.166455 -22.141869 16.00000000
45.944717 -50.537001 -51.826526 16.00000000
12.613893 -24.505761 -23.676490 16.00000000
12.630911 -24.594333 -14.446221 16.00000000
31.587999 -47.891728 -23.319490 16.00000000
20.814917 -40.471750 -52.401585 16.00000000
48.401369 -50.328680 -8.642074 16.00000000
51.206465 -49.876274 -46.919629 16.00000000
30.848555 -47.555518 -53.573705 16.00000000
14.342894 -30.829303 -27.901352 16.00000000
15.509720 -33.207451 -30.617887 16.00000000
33.506508 -48.633535 -4.202288 16.00000000
38.529400 -49.988481 3.171493 16.00000000
46.120650 -50.530530 -34.027485 16.00000000
42.147530 -50.454051 -59.300708 16.00000000
45.604052 -50.537831 -25.747626 16.00000000
22.273066 -41.885952 -14.955235 16.00000000
34.007448 -48.811250 -7.737994 16.00000000
21.639412 -41.271395 -51.363079 16.00000000
12.073561 -21.693588 -14.210309 16.00000000
47.815465 -50.380534 -20.681647 16.00000000
46.796479 -50.470717 0.143244 16.00000000
37.674673 -49.842418 -38.046419 16.00000000
36.575681 -49.561863 -8.305034 16.00000000
25.182104 -44.264099 -54.845018 16.00000000
16.912270 -35.566777 3.239927 16.00000000
15.165111 -32.507246 -20.466115 16.00000000
22.902480 -42.453391 -15.144795 16.00000000
24.081281 -43.414988 -35.936971 16.00000000
13.861866 -29.594686 -55.588675 16.00000000
26.401627 -45.095593 -60.383417 16.00000000
22.635379 -42.235505 -23.490578 16.00000000
46.157416 -50.527276 -53.460567 16.00000000
25.431343 -44.434035 -56.090660 16.00000000
41.130383 -50.369042 -42.647330 16.00000000
40.582176 -50.323225 -2.523560 16.00000000
14.171618 -30.389703 -47.168763 16.00000000
35.916990 -49.390109 -44.338386 16.00000000
42.159499 -50.455051 -3.536513 16.00000000
17.495082 -36.412183 -8.359541 16.00000000
44.209372 -50.541229 -7.382306 16.00000000
21.278948 -40.921796 -41.976909 16.00000000
13.032203 -26.682869 -17.386677 16.00000000
23.563427 -42.992553 -44.229680 16.00000000
52.416525 -49.595176 -18.570801 16.00000000
26.545660 -45.193797 -10.181240 16.00000000
43.024620 -50.527354 -13.890353 16.00000000
12.492160 -23.872200 -2.890085 16.00000000
22.460349 -42.067590 -7.148728 16.00000000
47.011430 -50.451694 -21.055901 16.00000000
18.523846 -37.826053 -50.903588 16.00000000
58.073854 -47.641654 -42.736379 16.00000000
36.421549 -49.521673 -4.693943 16.00000000
25.100079 -44.208173 -18.429233 16.00000000
49.167565 -50.234900 -17.057728 16.00000000
12.110234 -21.884452 -55.296513 16.00000000
22.475849 -42.082623 -57.959435 16.00000000
26.942599 -45.464438 -30.441066 16.00000000
37.500671 -49.803055 -49.303292 16.00000000
12.282584 -22.781453 -1.554155 16.00000000
35.089962 -49.174462 -6.128722 16.00000000
26.266619 -45.003541 -7.834329 16.00000000
17.467604 -36.374419 -41.347411 16.00000000
30.397116 -47.350257 -35.093049 16.00000000
14.248056 -30.585890 -19.113109 16.00000000
21.422442 -41.060964 -35.001599 16.00000000
29.339224 -46.838556 -3.139634 16.00000000
51.703608 -49.784775 -14.387650 16.00000000
38.895694 -50.051076 -21.247235 16.00000000
47.887883 -50.374125 -7.751072 16.00000000
21.970807 -41.592803 -17.904417 16.00000000
55.204900 -48.777170 -46.034810 16.00000000
29.157044 -46.736035 -16.081481 16.00000000
19.354626 -38.830192 -49.412156 16.00000000
17.866957 -36.923266 -28.436944 16.00000000
57.775605 -47.779023 -23.489609 16.00000000
50.806449 -49.946634 -8.757889 16.00000000
38.525761 -49.987859 -18.964342 16.00000000
20.293061 -39.911301 -46.160843 16.00000000
20.908479 -40.562492 -30.029896 16.00000000
48.422472 -50.326812 -51.935213 16.00000000
34.204469 -48.881146 -49.741686 16.00000000
33.273090 -48.550726 2.581140 16.00000000
50.125284 -50.066445 -2.289321 16.00000000
21.930121 -41.553343 -23.306751 16.00000000
14.048441 -30.073555 -39.945727 16.00000000
26.196869 -44.955985 -46.134352 16.00000000
26.802920 -45.369202 -28.307916 16.00000000
14.259230 -30.614569 -26.972258 16.00000000
18.794792 -38.185245 -33.064704 16.00000000
25.631946 -44.570810 -38.243412 16.00000000
57.800048 -47.767765 -6.285762 16.00000000
27.815253 -45.980948 -43.705346 16.00000000
20.662603 -40.324026 -9.182851 16.00000000
50.362470 -50.024726 -51.332600 16.00000000
22.984063 -42.519942 -19.767365 16.00000000
39.992783 -50.238555 -59.700302 16.00000000
43.965640 -50.541822 -60.243109 16.00000000
18.792698 -38.182833 -47.585279 16.00000000
15.182070 -32.541705 -27.437409 16.00000000
49.415236 -50.191337 -38.135736 16.00000000
15.212369 -32.603270 -42.421352 16.00000000
29.733136 -47.048358 -41.314561 16.00000000
57.710463 -47.809026 1.828357 16.00000000
12.224298 -22.478102 -11.635768 16.00000000
28.492394 -46.362006 -16.490035 16.00000000
41.310251 -50.384075 -56.973248 16.00000000
52.237140 -49.642883 -22.297074 16.00000000
42.286544 -50.465669 -34.714540 16.00000000
29.957750 -47.150485 -7.435085 16.00000000
23.338134 -42.808772 -4.899932 16.00000000
56.205963 -48.416519 -8.879186 16.00000000
21.324021 -40.965510 -28.641341 16.00000000
16.212099 -34.407145 -36.769763 16.00000000
17.325807 -36.179543 1.342602 16.00000000
13.145379 -27.271897 -9.596126 16.00000000
44.383822 -50.540803 -56.459407 16.00000000
18.685129 -38.047710 2.259978 16.00000000
35.184980 -49.199237 -56.804781 16.00000000
57.984532 -47.682794 -0.360401 16.00000000
17.639839 -36.611129 -44.207872 16.00000000
23.060463 -42.582264 -42.271578 16.00000000
13.140456 -27.246278 -15.037333 16.00000000
28.481396 -46.355817 -15.508582 16.00000000
12.240702 -22.563477 -22.355794 16.00000000
37.262766 -49.741021 -53.032834 16.00000000
58.936270 -47.244438 2.529885 16.00000000
52.212083 -49.649547 -44.663508 16.00000000
33.869380 -48.762269 -24.199205 16.00000000
12.805068 -25.500739 -43.429430 16.00000000
14.798397 -31.762127 -28.514317 16.00000000
12.242530 -22.572990 -50.898646 16.00000000
55.217836 -48.772510 -38.035513 16.00000000
44.537104 -50.540430 2.165619 16.00000000
19.452913 -38.943422 -37.391757 16.00000000
37.339093 -49.760923 -33.694330 16.00000000
39.765582 -50.199729 -44.187419 16.00000000
12.804168 -25.496053 -32.591999 16.00000000
18.047302 -37.171121 -50.663744 16.00000000
18.885637 -38.289902 -30.696343 16.00000000
53.182473 -49.391473 -36.051462 16.00000000
25.796861 -44.683252 -60.777714 16.00000000
12.273953 -22.736534 -16.475868 16.00000000
21.459668 -41.097069 -37.551818 16.00000000
15.289820 -32.760640 -56.041502 16.00000000
16.643520 -35.121668 -61.071383 16.00000000
30.368108 -47.337067 -47.994187 16.00000000
14.282481 -30.674246 -21.822856 16.00000000
20.225728 -39.833731 -61.108846 16.00000000
16.877380 -35.508990 -3.826176 16.00000000
48.612011 -50.310038 -18.277729 16.00000000
20.259011 -39.872074 -13.402875 16.00000000
45.331059 -50.538496 -38.865939 16.00000000
25.741047 -44.645197 -26.367150 16.00000000
34.810589 -49.096176 -28.255573 16.00000000
41.502172 -50.400115 -15.697234 16.00000000
13.755902 -29.322720 -31.369248 16.00000000
26.216310 -44.969240 2.714842 16.00000000
13.576232 -28.861574 -55.331957 16.00000000
55.167372 -48.790690 -14.506117 16.00000000
12.275103 -22.742517 -23.100462 16.00000000
35.166475 -49.194412 -21.710401 16.00000000
25.524837 -44.497781 -45.948507 16.00000000
13.138331 -27.235218 -16.829378 16.00000000
16.509523 -34.899742 -12.378724 16.00000000
28.055071 -46.115905 0.436439 16.00000000
12.429809 -23.547690 -59.914767 16.00000000
15.823999 -33.764369 -57.954581 16.00000000
12.292392 -22.832497 -43.337321 16.00000000
12.074190 -21.696861 -5.283832 16.00000000
59.353227 -47.052393 -14.927994 16.00000000
23.611184 -43.031510 -9.423999 16.00000000
40.252980 -50.283020 -24.077131 16.00000000
16.011290 -34.074563 -54.894330 16.00000000
25.356979 -44.383332 -34.588735 16.00000000
26.508972 -45.168782 -35.129942 16.00000000
25.993939 -44.817623 -28.563184 16.00000000
12.252665 -22.625740 -30.410176 16.00000000
16.209196 -34.402337 -52.659503 16.00000000
44.439517 -50.540668 -39.238424 16.00000000
42.931264 -50.519552 -42.639703 16.00000000
31.145260 -47.690423 -3.838320 16.00000000
12.255683 -22.641446 -42.466315 16.00000000
30.733936 -47.503402 -12.243010 16.00000000
27.311375 -45.697394 -23.439904 16.00000000
46.026940 -50.536800 -20.773097 16.00000000
28.616335 -46.431754 -59.026627 16.00000000
57.892748 -47.725068 -50.694045 16.00000000
27.775241 -45.958432 -54.671120 16.00000000
27.643130 -45.884087 -37.177227 16.00000000
37.823777 -49.867898 -37.015292 16.00000000
48.376565 -50.330875 -17.029931 16.00000000
12.915771 -26.076895 -46.230621 16.00000000
32.684378 -48.341872 -55.341120 16.00000000
12.472015 -23.767352 -38.277328 16.00000000
33.967620 -48.797121 -18.753392 16.00000000
28.742300 -46.502640 -50.388135 16.00000000
46.097543 -50.532575 -56.064812 16.00000000
52.808933 -49.490816 -44.152978 16.00000000
26.960872 -45.476896 -60.948442 16.00000000
14.277602 -30.661722 -59.812424 16.00000000
41.726964 -50.418902 -31.255177 16.00000000
15.015194 -32.202632 -60.045679 16.00000000
13.294029 -28.045553 -53.887848 16.00000000
48.002132 -50.364014 -50.441927 16.00000000
18.607600 -37.941160 -39.236661 16.00000000
27.549690 -45.831505 -38.420126 16.00000000
27.740313 -45.938777 -27.549897 16.00000000
30.919568 -47.587806 2.623440 16.00000000
52.441181 -49.588619 -52.492930 16.00000000
55.382080 -48.713338 -23.451633 16.00000000
30.367723 -47.336892 -50.986593 16.00000000
55.046225 -48.834336 -13.670878 16.00000000
13.044739 -26.748116 -59.197017 16.00000000
12.098703 -21.824438 0.985302 16.00000000
18.652766 -38.003234 -5.172487 16.00000000
24.298422 -43.592120 -21.552975 16.00000000
46.756842 -50.474225 -60.579830 16.00000000
13.053542 -26.793929 -56.758037 16.00000000
26.887276 -45.426717 -26.515321 16.00000000
15.927286 -33.935435 -23.575460 16.00000000
28.937200 -46.612319 -5.315804 16.00000000
25.321804 -44.359349 -31.684105 16.00000000
36.363558 -49.506552 -50.702283 16.00000000
16.804307 -35.387967 -22.461176 16.00000000
30.540911 -47.415638 -45.992217 16.00000000
47.015182 -50.451361 -17.627438 16.00000000
43.845765 -50.542114 -57.071454 16.00000000
29.609604 -46.990711 -51.023350 16.00000000
14.705820 -31.574021 -24.181089 16.00000000
32.090990 -48.120429 -42.979023 16.00000000
13.018376 -26.610910 -33.088816 16.00000000
34.638578 -49.035153 -11.229478 16.00000000
30.317940 -47.314257 -58.011857 16.00000000
16.537847 -34.946653 -28.655589 16.00000000
17.928924 -37.008430 -29.261846 16.00000000
13.204487 -27.579530 -36.298529 16.00000000
15.759611 -33.657729 -29.342164 16.00000000
25.949939 -44.787624 -8.576028 16.00000000
54.604859 -48.993345 -12.113129 16.00000000
28.073416 -46.126228 -13.127948 16.00000000
14.764949 -31.694164 -48.071086 16.00000000
15.354091 -32.891231 -8.764862 16.00000000
23.920979 -43.284223 -16.273407 16.00000000
19.604644 -39.118221 -17.059801 16.00000000
14.879101 -31.926107 -11.955251 16.00000000
35.951434 -49.399091 -19.598824 16.00000000
42.152480 -50.454465 -13.828601 16.00000000
13.588962 -28.894246 -15.682681 16.00000000
47.325232 -50.423921 -28.698075 16.00000000
12.536025 -24.100497 -38.990111 16.00000000
37.104364 -49.699718 -17.490737 16.00000000
24.751193 -43.961464 -49.170722 16.00000000
14.581554 -31.321528 -22.778198 16.00000000
28.540512 -46.389084 -34.255621 16.00000000
50.214782 -50.050703 -55.922906 16.00000000
18.566177 -37.884230 -9.476323 16.00000000
13.761668 -29.337517 -41.001046 16.00000000
14.253674 -30.600309 -10.954359 16.00000000
57.317239 -47.990139 2.786756 16.00000000
17.596363 -36.551378 -45.499844 16.00000000
20.107545 -39.697580 -47.006614 16.00000000
16.337193 -34.614328 -43.236846 16.00000000
51.434711 -49.836128 -0.919984 16.00000000
13.634478 -29.011069 -24.035697 16.00000000
42.088454 -50.449114 -40.559786 16.00000000
19.712802 -39.242823 -18.677129 16.00000000
44.224184 -50.541192 -35.876419 16.00000000
12.656566 -24.727857 -47.281769 16.00000000
15.454312 -33.094870 -3.577279 16.00000000
12.289577 -22.817848 -25.944464 16.00000000
34.328939 -48.925304 -30.442583 16.00000000
23.412245 -42.869228 -34.553854 16.00000000
52.887648 -49.469881 -56.100293 16.00000000
28.623058 -46.435537 -9.443661 16.00000000
40.070542 -50.251844 -27.135550 16.00000000
49.355414 -50.201859 -55.317516 16.00000000
37.228286 -49.732030 -40.076087 16.00000000
57.523355 -47.895206 -55.145077 16.00000000
57.719724 -47.804761 -14.893539 16.00000000
40.975439 -50.356092 -59.012867 16.00000000
22.592456 -42.195715 -51.193955 16.00000000
13.376748 -28.349576 -49.441512 16.00000000
56.989526 -48.134227 -37.702456 16.00000000
39.493461 -50.153227 0.319412 16.00000000
42.362778 -50.472040 -45.293666 16.00000000
21.388171 -41.027726 -22.575097 16.00000000
22.579883 -42.183521 -44.726221 16.00000000
47.778825 -50.383777 -41.753641 16.00000000
58.753081 -47.328812 -18.854641 16.00000000
43.265783 -50.543527 -17.186895 16.00000000
13.746178 -29.297761 -18.941822 16.00000000
24.102321 -43.432151 -49.411898 16.00000000
51.638113 -49.800351 3.842738 16.00000000
45.375167 -50.538388 -50.181636 16.00000000
54.265585 -49.103422 -16.927990 16.00000000
46.494615 -50.497433 -38.657650 16.00000000
35.815197 -49.363567 -22.415902 16.00000000
43.696054 -50.542479 -42.132119 16.00000000
35.378749 -49.249763 -3.334361 16.00000000
13.255205 -27.843495 3.701208 16.00000000
59.522125 -46.974601 -7.748151 16.00000000
31.846147 -48.009104 -24.119671 16.00000000
23.902667 -43.269285 -59.582338 16.00000000
51.883114 -49.737036 -12.565539 16.00000000
23.731547 -43.129696 1.512878 16.00000000
39.005814 -50.069894 -43.782564 16.00000000
14.326591 -30.787460 -55.765583 16.00000000
57.378298 -47.962017 -17.057530 16.00000000
23.846074 -43.223120 -23.124817 16.00000000
35.542757 -49.292528 -39.526067 16.00000000
27.232933 -45.653251 -29.100111 16.00000000
29.618019 -46.995446 -48.194884 16.00000000
13.231690 -27.721107 -17.659875 16.00000000
39.370794 -50.132265 -53.935768 16.00000000
21.445669 -41.083491 -19.980097 16.00000000
20.759450 -40.417955 -12.256045 16.00000000
12.738728 -25.155469 -11.730846 16.00000000
51.343852 -49.852109 -49.298916 16.00000000
40.195720 -50.273235 0.704561 16.00000000
42.688192 -50.499237 -8.158005 16.00000000
31.851245 -48.011421 -14.357415 16.00000000
44.101578 -50.541491 -13.748952 16.00000000
12.085891 -21.757756 -22.920627 16.00000000
19.873980 -39.428505 -20.957993 16.00000000
13.552884 -28.801648 -24.826044 16.00000000
38.667085 -50.012010 -5.639786 16.00000000
15.718025 -33.588855 -26.147924 16.00000000
21.568003 -41.202139 0.365351 16.00000000
21.102396 -40.750564 -23.602803 16.00000000
12.291157 -22.826071 -37.903813 16.00000000
16.966038 -35.655828 -52.418945 16.00000000
48.242849 -50.342710 -49.634757 16.00000000
43.655417 -50.542578 -44.993809 16.00000000
52.140397 -49.668612 -45.744615 16.00000000
24.598443 -43.836860 -19.079491 16.00000000
46.298771 -50.514766 -32.662352 16.00000000
22.697376 -42.286079 -18.049627 16.00000000
42.055276 -50.446341 -6.176484 16.00000000
17.641116 -36.612884 -15.416694 16.00000000
12.082502 -21.740120 -28.300805 16.00000000
45.364636 -50.538414 -27.791110 16.00000000
48.221526 -50.344597 -32.492027 16.00000000
47.853363 -50.377180 -17.780334 16.00000000
35.807968 -49.361682 -54.073156 16.00000000
39.476942 -50.150404 3.567381 16.00000000
51.896122 -49.733576 -56.588411 16.00000000
56.254643 -48.398982 -18.859069 16.00000000
49.798741 -50.123881 -50.622441 16.00000000
12.700972 -24.958968 -53.445942 16.00000000
21.476610 -41.113501 -56.049528 16.00000000
20.893082 -40.547559 -44.939769 16.00000000
22.751361 -42.330116 -7.915260 16.00000000
24.569878 -43.813558 -27.323075 16.00000000
13.506518 -28.682646 -29.684704 16.00000000
12.787137 -25.407417 1.901988 16.00000000
18.322552 -37.549407 2.885133 16.00000000
27.156373 -45.610167 -20.794986 16.00000000
40.772839 -50.339160 -47.210486 16.00000000
50.345946 -50.027633 -6.928708 16.00000000
37.265752 -49.741800 -50.111484 16.00000000
44.680699 -50.540080 -19.271014 16.00000000
19.269766 -38.732430 -29.711546 16.00000000
25.883725 -44.742477 0.905099 16.00000000
14.637738 -31.435686 -18.783192 16.00000000
12.728606 -25.102788 -26.306528 16.00000000
52.814602 -49.489308 -27.489226 16.00000000
39.050644 -50.077555 -38.209120 16.00000000
27.147234 -45.603961 -35.663278 16.00000000
12.079983 -21.727009 -50.895023 16.00000000
30.499393 -47.396760 -15.238276 16.00000000
34.091953 -48.841230 -26.300659 16.00000000
14.711147 -31.584845 -46.759283 16.00000000
19.135013 -38.577190 -12.282093 16.00000000
35.478123 -49.275675 -11.766011 16.00000000
33.773623 -48.728297 -19.984859 16.00000000
12.882612 -25.904317 -22.282569 16.00000000
44.990400 -50.539326 -36.548008 16.00000000
14.528414 -31.213554 -33.109483 16.00000000
33.195303 -48.523130 -5.013457 16.00000000
56.701455 -48.238010 -1.868288 16.00000000
25.102360 -44.209728 -16.323472 16.00000000
20.323589 -39.946470 -1.169018 16.00000000
26.408678 -45.100400 -37.022620 16.00000000
15.016707 -32.205706 -37.181619 16.00000000
52.000465 -49.705826 -36.376535 16.00000000
54.726694 -48.949452 -59.182525 16.00000000
22.706990 -42.293921 -32.053421 16.00000000
14.975364 -32.121702 -14.707713 16.00000000
14.262251 -30.622324 -53.168687 16.00000000
12.491594 -23.869255 -39.899741 16.00000000
12.934825 -26.176064 -60.115801 16.00000000
22.728557 -42.311515 3.458354 16.00000000
53.406398 -49.331921 1.657777 16.00000000
12.466360 -23.737923 -54.646571 16.00000000
16.444317 -34.791746 -60.414648 16.00000000
17.730296 -36.735448 -5.095542 16.00000000
16.494642 -34.875095 -4.107759 16.00000000
16.934508 -35.603606 -9.575974 16.00000000
26.940084 -45.462723 -50.049242 16.00000000
58.565348 -47.415279 -1.148188 16.00000000
21.380569 -41.020353 -43.200035 16.00000000
25.493878 -44.476673 -40.464106 16.00000000
43.833039 -50.542145 -24.206061 16.00000000
21.131790 -40.779072 -10.454809 16.00000000
53.844776 -49.215335 -29.111173 16.00000000
51.672958 -49.792926 -28.508314 16.00000000
54.606948 -48.992593 -60.368542 16.00000000
12.741486 -25.169823 -44.192181 16.00000000
59.574787 -46.950346 -43.555562 16.00000000
27.413306 -45.754755 -19.942298 16.00000000
42.647803 -50.495862 -29.357995 16.00000000
38.534098 -49.989284 1.966899 16.00000000
12.542730 -24.135390 3.869573 16.00000000
39.145539 -50.093772 -32.703982 16.00000000
13.505450 -28.679905 -0.931729 16.00000000
12.483049 -23.824782 -29.013153 16.00000000
29.926870 -47.136445 -9.424304 16.00000000
25.529614 -44.501038 -59.731638 16.00000000
42.984168 -50.523974 -27.940902 16.00000000
54.378303 -49.073444 -57.647267 16.00000000
46.739443 -50.475765 -12.441860 16.00000000
36.360948 -49.505872 -11.760308 16.00000000
36.815615 -49.624426 -14.333356 16.00000000
45.142895 -50.538954 -55.642437 16.00000000
26.194888 -44.954634 -41.238124 16.00000000
21.029897 -40.680251 -48.691454 16.00000000
21.745068 -41.373867 -40.381328 16.00000000
42.455596 -50.479798 -19.451645 16.00000000
49.727414 -50.136427 -4.338172 16.00000000
18.231900 -37.424822 -59.501059 16.00000000
16.417709 -34.747678 -53.853516 16.00000000
38.147717 -49.923256 -0.336467 16.00000000
13.013631 -26.586213 -52.592219 16.00000000
50.559801 -49.990017 -14.669399 16.00000000
48.135985 -50.352167 -46.399092 16.00000000
17.101623 -35.871438 -30.152235 16.00000000
13.641106 -29.028081 -56.216732 16.00000000
29.404151 -46.875093 -50.168688 16.00000000
17.891084 -36.956424 -9.235598 16.00000000
12.919857 -26.098160 -14.974834 16.00000000
35.705515 -49.334967 -47.330668 16.00000000
13.135247 -27.219165 -19.943165 16.00000000
55.483655 -48.676744 -12.827501 16.00000000
46.069754 -50.535034 1.809266 16.00000000
13.182990 -27.467650 -3.977859 16.00000000
13.320610 -28.183893 -39.769450 16.00000000
32.491586 -48.273476 -51.634094 16.00000000
15.572911 -33.335847 -34.319565 16.00000000
16.801751 -35.383733 -41.375842 16.00000000
52.109494 -49.676830 -60.156291 16.00000000
16.135577 -34.280408 -8.721163 16.00000000
19.658947 -39.180780 -33.399363 16.00000000
37.969776 -49.892848 -48.519770 16.00000000
47.418664 -50.415652 -43.347413 16.00000000
56.299459 -48.382836 -25.581852 16.00000000
35.965112 -49.402657 -32.465456 16.00000000
13.162010 -27.358454 0.037438 16.00000000
12.730320 -25.111709 -1.727519 16.00000000
12.248242 -22.602721 -48.669265 16.00000000
16.989897 -35.695342 -8.785382 16.00000000
16.528037 -34.930405 -15.797608 16.00000000
49.869873 -50.111370 -18.784956 16.00000000
56.033632 -48.478605 -38.430770 16.00000000
29.559872 -46.962724 -45.652021 16.00000000
20.966880 -40.619133 -14.719853 16.00000000
19.735506 -39.268979 -10.506558 16.00000000
31.202545 -47.716470 -6.419105 16.00000000
17.315173 -36.164929 3.813770 16.00000000
38.114175 -49.917524 -33.625783 16.00000000
21.423154 -41.061655 -14.006855 16.00000000
42.292234 -50.466145 -11.806580 16.00000000
42.831856 -50.511244 -31.507946 16.00000000
13.199471 -27.553422 -38.003243 16.00000000
54.030037 -49.166065 -35.849301 16.00000000
40.849147 -50.345537 -52.264215 16.00000000
41.270911 -50.380787 -6.679994 16.00000000
16.182282 -34.357761 -26.547525 16.00000000
30.937746 -47.596071 -42.689329 16.00000000
21.933169 -41.556299 -11.562146 16.00000000
29.333128 -46.835125 -2.073009 16.00000000
59.392862 -47.034138 -12.305059 16.00000000
28.785716 -46.527072 -53.215596 16.00000000
13.211321 -27.615095 -32.594119 16.00000000
39.199204 -50.102942 -24.549481 16.00000000
20.296478 -39.915238 3.803993 16.00000000
13.382776 -28.365046 -18.259822 16.00000000
20.966956 -40.619206 -34.291884 16.00000000
14.459909 -31.074359 -2.419465 16.00000000
13.047791 -26.763997 -3.583984 16.00000000
38.875076 -50.047553 -29.058127 16.00000000
47.242461 -50.431247 -49.452778 16.00000000
25.875034 -44.736552 -3.068760 16.00000000
20.888987 -40.543588 -6.890107 16.00000000
20.848874 -40.504684 -56.379435 16.00000000
52.151341 -49.665701 -6.518726 16.00000000
21.515695 -41.151407 1.753478 16.00000000
49.023314 -50.260273 -40.362121 16.00000000
35.183525 -49.198858 -38.079899 16.00000000
46.676263 -50.481357 -47.421265 16.00000000
14.193738 -30.446477 -9.719998 16.00000000
23.192601 -42.690055 -0.898194 16.00000000
12.773120 -25.334465 -47.802113 16.00000000
12.932387 -26.163377 -39.358687 16.00000000
13.419269 -28.458710 -58.009191 16.00000000
59.465348 -47.000752 -21.167479 16.00000000
15.381450 -32.946822 -7.129967 16.00000000
32.751806 -48.365793 -7.026746 16.00000000
52.377748 -49.605489 -51.201095 16.00000000
33.591123 -48.663553 -50.697290 16.00000000
23.987310 -43.338333 -41.839383 16.00000000
28.277622 -46.241144 -25.824612 16.00000000
50.604333 -49.982184 -42.280421 16.00000000
58.015141 -47.668696 -53.261495 16.00000000
51.076611 -49.899115 -20.276948 16.00000000
19.033524 -38.460273 -52.142828 16.00000000
35.600995 -49.307713 -1.877818 16.00000000
17.980402 -37.079178 -48.731192 16.00000000
13.987934 -29.918255 -49.406825 16.00000000
28.633653 -46.441499 -55.131470 16.00000000
43.096282 -50.533344 -2.110820 16.00000000
20.783502 -40.441281 -46.982036 16.00000000
53.827231 -49.220001 -15.677414 16.00000000
39.677344 -50.184651 -56.359493 16.00000000
35.718327 -49.338308 -23.388697 16.00000000
26.790792 -45.360932 -12.068032 16.00000000
12.216786 -22.439006 -47.669521 16.00000000
30.897578 -47.577807 -7.272609 16.00000000
14.368439 -30.888502 -49.743213 16.00000000
20.240571 -39.850830 -11.964243 16.00000000
28.241548 -46.220844 -11.582901 16.00000000
21.594746 -41.228076 2.865273 16.00000000
15.833431 -33.779990 -21.227742 16.00000000
50.750876 -49.956409 -9.610132 16.00000000
21.049805 -40.699559 0.993873 16.00000000
29.677166 -47.022909 -49.101734 16.00000000
16.293434 -34.541853 -29.714940 16.00000000
16.154300 -34.311418 -24.288036 16.00000000
19.343826 -38.817750 -55.297269 16.00000000
57.729958 -47.800047 -12.265308 16.00000000
24.552765 -43.799598 -54.587097 16.00000000
54.617969 -48.988623 -24.184576 16.00000000
46.348223 -50.510389 -49.968194 16.00000000
22.963713 -42.503341 -2.662174 16.00000000
33.456777 -48.615892 -31.553377 16.00000000
18.475939 -37.760213 -16.615971 16.00000000
53.735056 -49.244515 -18.907897 16.00000000
38.332177 -49.954778 -51.823300 16.00000000
57.231349 -48.029699 -32.698832 16.00000000
32.854976 -48.402394 -11.073797 16.00000000
15.723473 -33.597878 -1.852823 16.00000000
12.863930 -25.807086 -42.610095 16.00000000
41.023895 -50.360142 -30.164381 16.00000000
14.161133 -30.362792 -3.472375 16.00000000
53.963472 -49.183768 -60.951274 16.00000000
19.478433 -38.972822 -2.194524 16.00000000
12.069503 -21.672463 -17.543297 16.00000000
12.733510 -25.128314 -6.316134 16.00000000
13.247178 -27.801718 -6.233524 16.00000000
26.805141 -45.370716 -48.043855 16.00000000
54.988591 -48.855099 -27.162697 16.00000000
22.451058 -42.058579 -43.893024 16.00000000
47.688219 -50.391796 -12.377757 16.00000000
32.081741 -48.116224 -37.272667 16.00000000
17.262056 -36.091927 -58.425076 16.00000000
28.786279 -46.527389 -49.453302 16.00000000
18.395536 -37.649712 -49.836028 16.00000000
12.677738 -24.838046 -52.404213 16.00000000
51.900183 -49.732496 -30.485812 16.00000000
40.173366 -50.269415 -25.830093 16.00000000
12.642316 -24.653688 -18.948640 16.00000000
39.459145 -50.147363 -37.053946 16.00000000
36.481218 -49.537232 3.482632 16.00000000
22.472799 -42.079665 -49.344841 16.00000000
14.170905 -30.387873 -44.549964 16.00000000
27.613244 -45.867269 -30.653007 16.00000000
53.310343 -49.357467 -53.474193 16.00000000
50.617845 -49.979808 -50.484494 16.00000000
16.420059 -34.751571 -2.936740 16.00000000
32.415936 -48.246638 -40.494668 16.00000000
15.175771 -32.528907 1.954505 16.00000000
49.618261 -50.155626 2.587788 16.00000000
24.055368 -43.393850 -56.785319 16.00000000
29.237297 -46.781197 -60.169015 16.00000000
13.081282 -26.938302 -42.032578 16.00000000
12.741655 -25.170703 -15.068107 16.00000000
13.565093 -28.832985 -36.860002 16.00000000
39.104950 -50.086835 -28.189614 16.00000000
25.568398 -44.527482 -21.494890 16.00000000
53.469843 -49.315048 -56.855157 16.00000000
41.644482 -50.412008 3.827910 16.00000000
24.139119 -43.462170 -38.732836 16.00000000
13.188523 -27.496443 -12.396559 16.00000000
53.133048 -49.404618 -8.935290 16.00000000
17.705047 -36.700746 -19.976575 16.00000000
54.768405 -48.934425 -46.781024 16.00000000
34.796812 -49.091288 3.613118 16.00000000
53.145217 -49.401382 -22.145160 16.00000000
46.053147 -50.536504 -8.601272 16.00000000
44.455371 -50.540629 -50.337995 16.00000000
21.319856 -40.961470 -27.773646 16.00000000
47.971213 -50.366750 -42.722068 16.00000000
22.743345 -42.323578 -36.496771 16.00000000
31.768847 -47.973957 -52.660099 16.00000000
48.645469 -50.307077 -4.720256 16.00000000
37.421697 -49.782462 -24.730874 16.00000000
18.147187 -37.308397 -41.192875 16.00000000
12.272018 -22.726461 3.858235 16.00000000
31.964880 -48.063089 -10.560257 16.00000000
14.031864 -30.031006 -37.995233 16.00000000
57.935011 -47.705603 -51.778512 16.00000000
14.122314 -30.263158 -31.989028 16.00000000
17.653725 -36.630213 -57.926109 16.00000000
18.965220 -38.381583 -44.610012 16.00000000
27.851139 -46.001143 -1.398077 16.00000000
36.290460 -49.487492 -5.898164 16.00000000
53.145945 -49.401188 -20.328398 16.00000000
24.036654 -43.378584 -43.411323 16.00000000
17.985917 -37.086757 -30.976417 16.00000000
48.051798 -50.359618 -3.186161 16.00000000
20.746504 -40.405399 -35.130026 16.00000000
22.005210 -41.626169 -3.208391 16.00000000
13.352094 -28.286298 -48.533997 16.00000000
58.565007 -47.415436 -25.957564 16.00000000
51.315851 -49.857034 -26.766449 16.00000000
35.742891 -49.344713 -8.343729 16.00000000
12.992466 -26.476059 -34.501103 16.00000000
37.436067 -49.786209 -46.647367 16.00000000
54.840270 -48.908534 -9.588471 16.00000000
25.478136 -44.465939 -48.861640 16.00000000
12.702258 -24.965661 -10.115573 16.00000000
12.452961 -23.668184 -0.770273 16.00000000
12.719895 -25.057452 -29.291053 16.00000000
12.396297 -23.373276 0.284010 16.00000000
15.413739 -33.012429 -54.051479 16.00000000
50.221264 -50.049563 -20.511584 16.00000000
42.456459 -50.479870 -46.465051 16.00000000
18.601950 -37.933395 -15.392699 16.00000000
17.882920 -36.945204 -41.888322 16.00000000
12.584372 -24.352117 -29.660126 16.00000000
18.510417 -37.807597 -45.784452 16.00000000
15.407567 -32.999888 -24.646558 16.00000000
24.305830 -43.598163 -60.901339 16.00000000
16.991859 -35.698592 -15.843328 16.00000000
16.501039 -34.885691 1.590301 16.00000000
45.523475 -50.538027 -12.564226 16.00000000
36.258649 -49.479197 -1.291208 16.00000000
44.271579 -50.541077 -25.025943 16.00000000
44.609870 -50.540253 -55.024652 16.00000000
51.151113 -49.886010 -2.380732 16.00000000
18.689596 -38.053850 -54.856650 16.00000000
12.269898 -22.715429 -9.945221 16.00000000
22.837274 -42.400200 -29.595165 16.00000000
12.196189 -22.331807 -46.076396 16.00000000
14.973905 -32.118739 -49.355549 16.00000000
18.794185 -38.184546 -7.079873 16.00000000
19.107744 -38.545776 -41.105011 16.00000000
39.628915 -50.176375 -2.877555 16.00000000
57.380069 -47.961201 -17.982718 16.00000000
18.002895 -37.110091 -22.058261 16.00000000
13.947005 -29.813206 1.320690 16.00000000
21.713396 -41.343149 -7.724145 16.00000000
56.478814 -48.318220 -50.103439 16.00000000
36.576509 -49.562079 -53.509780 16.00000000
14.050860 -30.079764 -2.017069 16.00000000
45.411070 -50.538301 3.864334 16.00000000
23.450494 -42.900429 -55.048123 16.00000000
53.648978 -49.267407 -44.691763 16.00000000
23.706384 -43.109169 -30.121383 16.00000000
31.768589 -47.973840 -3.254196 16.00000000
48.265126 -50.340738 -24.302787 16.00000000
22.936830 -42.481412 -1.745925 16.00000000
13.115065 -27.114127 -39.829181 16.00000000
45.906419 -50.537094 0.058374 16.00000000
48.789520 -50.294328 -10.444218 16.00000000
15.787807 -33.704429 -56.753253 16.00000000
35.217902 -49.207822 -33.027832 16.00000000
49.021983 -50.260507 -13.164576 16.00000000
36.291804 -49.487842 -55.208200 16.00000000
34.489144 -48.982139 -5.513991 16.00000000
13.556564 -28.811093 -9.252942 16.00000000
28.591400 -46.417721 -10.731728 16.00000000
16.485053 -34.859214 -42.125560 16.00000000
38.451731 -49.975208 -2.872365 16.00000000
14.407235 -30.967332 -31.485057 16.00000000
15.643827 -33.465966 -11.547475 16.00000000
49.661698 -50.147986 -9.399078 16.00000000
20.443524 -40.084640 -36.926393 16.00000000
30.876076 -47.568031 0.309127 16.00000000
16.010076 -34.072553 -40.336614 16.00000000
46.061809 -50.535737 3.368146 16.00000000
20.300419 -39.919778 -50.847698 16.00000000
20.013869 -39.589662 -9.419358 16.00000000
40.977432 -50.356259 -54.972573 16.00000000
43.725541 -50.542407 -15.545617 16.00000000
12.855420 -25.762796 -53.172700 16.00000000
47.074213 -50.446137 -24.001019 16.00000000
46.866129 -50.464553 -36.721976 16.00000000
51.659048 -49.796626 -11.268242 16.00000000
13.968841 -29.869252 -5.233527 16.00000000
22.609606 -42.212349 -60.780412 16.00000000
58.630938 -47.385069 -24.043409 16.00000000
40.965106 -50.355229 -26.502400 16.00000000
28.642685 -46.446582 -48.598774 16.00000000
33.237181 -48.537987 1.699166 16.00000000
32.703548 -48.348673 -46.768710 16.00000000
32.428029 -48.250928 -59.758503 16.00000000
21.833061 -41.459208 -8.761742 16.00000000
13.294554 -28.048288 -15.246426 16.00000000
12.630085 -24.590036 -36.728384 16.00000000
17.791730 -36.819879 -23.379369 16.00000000
17.267178 -36.098967 -23.860873 16.00000000
47.433783 -50.414314 -19.586039 16.00000000
57.713053 -47.807833 -58.882110 16.00000000
13.117188 -27.125178 -13.143333 16.00000000
48.305275 -50.337185 -7.001408 16.00000000
31.554580 -47.876534 -30.031877 16.00000000
13.248109 -27.806562 -13.671636 16.00000000
26.192059 -44.952706 -33.781530 16.00000000
39.737169 -50.194874 -16.690613 16.00000000
23.797777 -43.183723 -27.233643 16.00000000
17.037641 -35.774416 -17.644960 16.00000000
21.348429 -40.989182 -61.015890 16.00000000
14.111274 -30.234822 -35.378827 16.00000000
24.496356 -43.753583 -42.705043 16.00000000
12.824628 -25.602539 -23.299437 16.00000000
30.417289 -47.359429 -28.666076 16.00000000
27.901082 -46.029248 -20.554493 16.00000000
48.354124 -50.332862 -59.939457 16.00000000
59.494644 -46.987258 -28.648275 16.00000000
12.487131 -23.846027 2.683909 16.00000000
43.990909 -50.541761 -19.722496 16.00000000
14.651406 -31.463459 -20.872421 16.00000000
29.228012 -46.775972 -46.530339 16.00000000
58.035584 -47.659280 -15.895547 16.00000000
12.093774 -21.798786 -33.325831 16.00000000
33.561576 -48.653071 -36.767532 16.00000000
28.777167 -46.522261 -17.540933 16.00000000
55.216479 -48.772999 -17.289381 16.00000000
52.130354 -49.671282 -49.057987 16.00000000
29.595109 -46.982554 -57.530541 16.00000000
55.693862 -48.601013 -51.537888 16.00000000
58.572947 -47.411779 -44.766479 16.00000000
13.302996 -28.092224 -10.125132 16.00000000
29.295908 -46.814180 -56.259458 16.00000000
52.432456 -49.590939 -10.431732 16.00000000
15.980179 -34.023036 -13.591706 16.00000000
57.211813 -48.038697 -51.217186 16.00000000
50.801790 -49.947453 -33.504174 16.00000000
14.475138 -31.105303 -45.750119 16.00000000
26.998449 -45.502517 -54.254294 16.00000000
15.998699 -34.053709 -59.733415 16.00000000
14.343575 -30.831050 0.474629 16.00000000
14.956456 -32.083283 -7.025609 16.00000000
47.341683 -50.422465 -9.922665 16.00000000
21.232216 -40.876472 -0.654988 16.00000000
45.705612 -50.537583 -45.836472 16.00000000
56.396248 -48.347966 -60.232262 16.00000000
43.375991 -50.543259 -7.634895 16.00000000
46.733828 -50.476262 -24.930600 16.00000000
39.403213 -50.137805 -4.934210 16.00000000
29.735097 -47.049249 -6.667699 16.00000000
16.658777 -35.146937 -39.654314 16.00000000
12.710809 -25.010167 -41.219289 16.00000000
15.045802 -32.264824 -34.510794 16.00000000
24.019771 -43.364812 3.737402 16.00000000
40.452747 -50.312408 -36.816976 16.00000000
34.250479 -48.897469 -21.015666 16.00000000
13.863044 -29.597711 -57.988567 16.00000000
38.925756 -50.056213 -0.231327 16.00000000
58.987030 -47.221058 -15.714046 16.00000000
32.247399 -48.186847 -12.343608 16.00000000
23.949127 -43.307185 -50.588339 16.00000000
23.076172 -42.595079 -20.897428 16.00000000
38.322553 -49.953133 -29.805681 16.00000000
22.819293 -42.385532 2.627421 16.00000000
25.886564 -44.744413 -50.374903 16.00000000
17.765203 -36.783422 -6.185458 16.00000000
14.477640 -31.110387 -32.276427 16.00000000
46.920904 -50.459705 3.589921 16.00000000
35.560501 -49.297155 -26.572188 16.00000000
22.012098 -41.632848 -29.001499 16.00000000
42.966625 -50.522507 -39.939642 16.00000000
45.080697 -50.539106 -39.925731 16.00000000
54.219850 -49.115585 -41.220326 16.00000000
33.692804 -48.699626 -44.915575 16.00000000
20.279068 -39.895181 -56.420540 16.00000000
12.567217 -24.262837 -17.500690 16.00000000
37.117098 -49.703038 -56.695380 16.00000000
19.926714 -39.489257 -15.574612 16.00000000
15.550737 -33.290793 -14.179504 16.00000000
17.217755 -36.031044 -60.023703 16.00000000
52.502113 -49.572414 -37.707506 16.00000000
36.874554 -49.639795 -45.810707 16.00000000
25.722939 -44.632850 -25.518944 16.00000000
27.672441 -45.900582 -15.757031 16.00000000
12.397229 -23.378128 3.374404 16.00000000
13.108170 -27.078242 2.313716 16.00000000
16.189550 -34.369799 -39.232754 16.00000000
17.178125 -35.976578 -61.081258 16.00000000
45.973501 -50.536931 -37.073634 16.00000000
44.835632 -50.539703 -29.157606 16.00000000
13.277811 -27.961148 -9.124320 16.00000000
42.603877 -50.492190 -55.507460 16.00000000
28.704511 -46.481374 -13.602344 16.00000000
59.010199 -47.210387 -40.770401 16.00000000
34.666555 -49.045078 -10.380584 16.00000000
35.419291 -49.260334 -18.316190 16.00000000
56.601963 -48.273854 -43.428665 16.00000000
25.377173 -44.397100 -3.782192 16.00000000
34.093999 -48.841956 -9.228766 16.00000000
48.874342 -50.286476 -57.559418 16.00000000
59.526603 -46.972539 -18.679331 16.00000000
36.503525 -49.543049 -30.358442 16.00000000
22.874884 -42.430880 -39.301461 16.00000000
53.344767 -49.348311 -49.195752 16.00000000
40.939328 -50.353074 -3.238537 16.00000000
18.807771 -38.200198 -33.903258 16.00000000
