-44.526412 60.759656 -53.800869 6.00000000
-43.246896 61.966265 -30.445616 6.00000000
-33.546475 69.309372 2.767900 6.00000000
-39.910420 64.769676 2.643051 6.00000000
-40.600634 64.206357 3.102236 6.00000000
-38.548284 65.800242 -52.802364 6.00000000
-36.336186 67.429637 -43.276799 6.00000000
-37.445583 66.634525 -39.145049 6.00000000
-38.407000 65.907136 -16.843885 6.00000000
-42.623433 62.494033 -31.003045 6.00000000
-33.645196 69.242853 -30.790012 6.00000000
-40.129320 64.604061 -0.571274 6.00000000
-44.581352 60.707724 -25.540013 6.00000000
-41.041833 63.832877 -60.913125 6.00000000
-36.899226 67.047888 -36.894267 6.00000000
-42.411507 62.673431 -7.567756 6.00000000
-36.374225 67.404006 -18.299085 6.00000000
-45.450799 59.885882 -12.810949 6.00000000
-42.536043 62.568010 -24.846568 6.00000000
-41.571866 63.384198 -9.082513 6.00000000
-40.401341 64.375061 -15.168948 6.00000000
-42.522606 62.579384 -51.881403 6.00000000
-44.392512 60.886225 -37.332668 6.00000000
-45.243540 60.081793 -16.338815 6.00000000
-39.879544 64.793037 -17.734878 6.00000000
-33.968230 69.025190 -11.087198 6.00000000
-38.132810 66.114582 -21.820306 6.00000000
-34.427823 68.715511 -44.295013 6.00000000
-33.537625 69.315336 -43.054620 6.00000000
-40.445350 64.337807 -23.956441 6.00000000
-36.559210 67.279361 -49.284247 6.00000000
-36.299670 67.454242 -12.386039 6.00000000
-34.395311 68.737418 -58.613184 6.00000000
-40.988489 63.878033 -5.002396 6.00000000
-36.826333 67.099371 -56.976824 6.00000000
-34.910073 68.390566 -49.970141 6.00000000
-42.043997 62.984533 -10.093823 6.00000000
-42.295805 62.771375 -35.990442 6.00000000
-41.804611 63.187176 -58.377614 6.00000000
-41.082183 63.798720 -36.497792 6.00000000
-43.430317 61.795736 -13.988533 6.00000000
-37.458325 66.624885 -54.992162 6.00000000
-45.317616 60.011773 -51.787070 6.00000000
-37.404727 66.665436 -23.516173 6.00000000
-44.479017 60.804456 -22.562037 6.00000000
-44.986560 60.324702 -37.917680 6.00000000
-41.683502 63.289696 -19.735316 6.00000000
-44.606073 60.684357 -46.739664 6.00000000
-37.628788 66.495916 -40.099962 6.00000000
-45.657017 59.690956 0.911343 6.00000000
-37.280711 66.759264 -35.325582 6.00000000
-45.423874 59.911333 -6.885292 6.00000000
-33.917299 69.059508 -58.883898 6.00000000
-44.870153 60.434736 -20.466153 6.00000000
-36.926220 67.027465 -39.850644 6.00000000
-38.521548 65.820471 -39.536486 6.00000000
-40.802591 64.035398 -39.403328 6.00000000
-36.335490 67.430106 -56.672217 6.00000000
-39.247945 65.270893 -55.674927 6.00000000
-36.804631 67.113994 -53.257719 6.00000000
-44.167942 61.098498 -43.956303 6.00000000
-39.562420 65.032967 -40.182694 6.00000000
-45.063986 60.251516 -11.923853 6.00000000
-34.950041 68.363635 -33.597332 6.00000000
-40.510282 64.282841 -39.061644 6.00000000
-37.600849 66.517054 -36.569895 6.00000000
-34.686651 68.541111 -10.180563 6.00000000
-45.459892 59.877287 -13.300909 6.00000000
-38.293960 65.992660 -15.010434 6.00000000
-38.915752 65.522223 -41.054463 6.00000000
-45.195748 60.126969 -9.607823 6.00000000
-46.063537 59.306694 -7.137414 6.00000000
-34.543963 68.637255 -1.611815 6.00000000
-39.144621 65.349066 -55.241009 6.00000000
-42.422880 62.663804 -4.131868 6.00000000
-36.526325 67.301519 -4.973793 6.00000000
-40.356632 64.412908 -0.238623 6.00000000
-38.835748 65.582753 -4.883659 6.00000000
-43.654041 61.584262 -57.997834 6.00000000
-35.525571 67.975837 -5.086356 6.00000000
-40.731915 64.095227 -5.879444 6.00000000
-34.271890 68.820581 -32.851514 6.00000000
-39.506781 65.075063 -59.456167 6.00000000
-40.959628 63.902464 -15.391401 6.00000000
-45.264387 60.062088 -17.511129 6.00000000
-35.555425 67.955722 -7.091393 6.00000000
-34.162702 68.894152 -47.965055 6.00000000
-44.557736 60.730047 -23.448884 6.00000000
-41.266227 63.642925 -27.314674 6.00000000
-39.106326 65.378039 -60.178557 6.00000000
-41.738123 63.243459 -2.715199 6.00000000
-36.631010 67.230982 -31.152120 6.00000000
-38.388612 65.921048 -19.892097 6.00000000
-34.650567 68.565424 -41.071286 6.00000000
-41.970066 63.047116 -28.660319 6.00000000
-35.230329 68.174775 -30.945266 6.00000000
-36.153952 67.552428 -28.576289 6.00000000
-35.137581 68.237269 -50.538411 6.00000000
-43.425793 61.800013 -29.084490 6.00000000
-40.765141 64.067100 -52.756435 6.00000000
-43.440380 61.786224 -40.928490 6.00000000
-45.236646 60.088309 -23.189581 6.00000000
-44.881339 60.424162 2.614341 6.00000000
-36.522440 67.304137 -60.425830 6.00000000
-38.209554 66.056520 -16.489248 6.00000000
-36.629050 67.232302 -58.867223 6.00000000
-44.631230 60.660578 -34.322380 6.00000000
-37.301642 66.743428 -59.181989 6.00000000
-34.213500 68.859924 -50.648782 6.00000000
-36.962486 67.000027 -29.646701 6.00000000
-44.188148 61.079399 -14.153360 6.00000000
-33.497477 69.342388 -52.315720 6.00000000
-34.501403 68.665932 -43.115404 6.00000000
-42.512682 62.587786 -18.964874 6.00000000
-35.567611 67.947510 -32.665802 6.00000000
-40.512305 64.281128 0.856633 6.00000000
-36.585136 67.261892 -29.508221 6.00000000
-41.620259 63.343232 0.099256 6.00000000
-33.473408 69.358606 -2.640170 6.00000000
-39.824666 64.834557 -55.051918 6.00000000
-41.317087 63.599871 -11.112389 6.00000000
-45.236366 60.088575 -52.266422 6.00000000
-42.519834 62.581732 -25.633994 6.00000000
-39.003500 65.455835 -26.652517 6.00000000
-40.782718 64.052221 -53.628856 6.00000000
-44.980421 60.330505 -15.963138 6.00000000
-38.132944 66.114481 -21.363505 6.00000000
-41.475509 63.465765 -20.124749 6.00000000
-34.618327 68.587148 -23.520210 6.00000000
-33.744060 69.176238 -37.386327 6.00000000
-34.222709 68.853719 -59.914787 6.00000000
-42.388610 62.692814 -45.907450 6.00000000
-38.097438 66.141344 -0.169911 6.00000000
-42.185179 62.865021 -22.065113 6.00000000
-41.022298 63.849414 -14.870609 6.00000000
-45.228037 60.096447 -11.188259 6.00000000
-43.937783 61.316055 -45.495721 6.00000000
-43.391547 61.832383 -60.434425 6.00000000
-36.411867 67.378642 -20.905357 6.00000000
-37.203784 66.817466 -41.949901 6.00000000
-42.574891 62.535125 1.429272 6.00000000
-41.196873 63.701634 -24.792296 6.00000000
-45.115926 60.202420 -29.431450 6.00000000
-38.557393 65.793351 -40.429871 6.00000000
-43.930042 61.323373 -14.483333 6.00000000
-44.128443 61.135834 -12.912165 6.00000000
-38.382471 65.925693 1.211578 6.00000000
-37.904186 66.287555 -36.773898 6.00000000
-42.871373 62.284150 -57.307354 6.00000000
-41.948157 63.065663 -9.045655 6.00000000
-33.685519 69.215683 -36.010502 6.00000000
-34.992270 68.335181 -57.665253 6.00000000
-35.183352 68.206428 -28.786399 6.00000000
-33.490281 69.347236 -30.321552 6.00000000
-35.555251 67.955839 -45.949328 6.00000000
-43.519281 61.711643 -3.246504 6.00000000
-40.546564 64.252128 -41.139054 6.00000000
-34.903105 68.395262 -21.567004 6.00000000
-46.238338 59.141464 -57.289726 6.00000000
-35.898742 67.724391 -3.715584 6.00000000
-35.080320 68.275852 -51.940258 6.00000000
-33.517715 69.328751 -52.883764 6.00000000
-38.606546 65.756162 -53.246735 6.00000000
-41.376265 63.549777 -56.589197 6.00000000
-36.472214 67.337980 -35.279698 6.00000000
-37.984601 66.226714 -34.258167 6.00000000
-42.402786 62.680814 -54.349590 6.00000000
-35.255090 68.158091 -48.381884 6.00000000
-37.039069 66.942086 -38.285769 6.00000000
-44.751801 60.546608 -8.654812 6.00000000
-34.455421 68.696915 -26.647598 6.00000000
-38.610801 65.752944 -27.424982 6.00000000
-46.119236 59.254045 -50.554400 6.00000000
-34.166899 68.891324 -55.345437 6.00000000
-45.196164 60.126576 -47.121079 6.00000000
-34.865234 68.420779 -26.859079 6.00000000
-42.444169 62.645782 -61.077992 6.00000000
-41.779180 63.208704 -35.587893 6.00000000
-34.301609 68.800556 -33.330717 6.00000000
-37.030902 66.948264 -46.895775 6.00000000
-37.008536 66.965187 -6.659589 6.00000000
-34.820968 68.450606 -20.959971 6.00000000
-38.445021 65.878369 -19.219033 6.00000000
-46.155379 59.219881 -34.485751 6.00000000
-44.162489 61.103653 -11.540180 6.00000000
-44.048900 61.211023 -61.088834 6.00000000
-42.667089 62.457078 -42.357368 6.00000000
-34.836656 68.440035 -39.061366 6.00000000
-45.130088 60.189033 -37.527885 6.00000000
-38.666284 65.710966 -6.446662 6.00000000
-38.053571 66.174533 -22.436643 6.00000000
-44.561305 60.726673 0.543601 6.00000000
-44.561306 60.726673 -26.234807 6.00000000
-38.484575 65.848443 -31.675464 6.00000000
-38.255435 66.021806 -55.737917 6.00000000
-37.991227 66.221701 -47.428665 6.00000000
-46.057926 59.311998 0.399744 6.00000000
-45.177366 60.144344 -12.459656 6.00000000
-35.850876 67.756643 -59.135331 6.00000000
-34.986786 68.338876 -42.089435 6.00000000
-40.459147 64.326128 -28.110220 6.00000000
-37.529570 66.570983 -34.761749 6.00000000
-45.077895 60.238369 -19.948715 6.00000000
-42.958959 62.210006 -60.956494 6.00000000
-42.509562 62.590426 -5.415340 6.00000000
-41.653390 63.315187 -11.468562 6.00000000
-39.003894 65.455537 -51.210042 6.00000000
-45.590191 59.754123 -50.289686 6.00000000
-43.351674 61.870073 -22.413467 6.00000000
-34.299597 68.801911 -10.569691 6.00000000
-37.982161 66.228560 -48.893679 6.00000000
-45.337683 59.992805 -14.494383 6.00000000
-45.708526 59.642267 -6.185907 6.00000000
-35.009379 68.323653 -9.829891 6.00000000
-40.428711 64.351892 -16.409650 6.00000000
-37.409645 66.661715 -27.207515 6.00000000
-34.044598 68.973732 -17.888399 6.00000000
-43.542505 61.689691 -43.594112 6.00000000
-43.349668 61.871969 -51.243233 6.00000000
-35.983702 67.667144 -15.914658 6.00000000
-40.427030 64.353315 -47.968102 6.00000000
-43.383897 61.839615 -21.429017 6.00000000
-43.753545 61.490206 -14.140658 6.00000000
-40.953600 63.907567 -3.595599 6.00000000
-35.215512 68.184758 -45.021823 6.00000000
-45.015770 60.297092 -54.364939 6.00000000
-38.073787 66.159238 -10.183988 6.00000000
-43.548786 61.683754 1.360708 6.00000000
-39.057811 65.414744 1.748899 6.00000000
-34.423438 68.718466 -55.767738 6.00000000
-34.439651 68.707542 -8.277040 6.00000000
-41.330640 63.588399 -4.460407 6.00000000
-42.136054 62.906606 -39.447019 6.00000000
-34.110417 68.929382 1.497148 6.00000000
-34.913845 68.388025 -16.270623 6.00000000
-44.608894 60.681690 -19.971954 6.00000000
-44.077184 61.184287 -37.284203 6.00000000
-37.063557 66.923559 -11.344633 6.00000000
-46.154751 59.220474 -5.430732 6.00000000
-39.485523 65.091146 -50.088496 6.00000000
-38.404564 65.908979 -5.454045 6.00000000
-41.237960 63.666854 -26.797152 6.00000000
-34.732867 68.509970 -5.071783 6.00000000
-34.219186 68.856093 -1.478982 6.00000000
-45.319373 60.010113 -34.256569 6.00000000
-35.664169 67.882449 -3.198713 6.00000000
-38.168374 66.087675 -50.016991 6.00000000
-44.858814 60.445454 -57.988212 6.00000000
-42.173376 62.875012 -38.619054 6.00000000
-39.344228 65.198047 -28.274443 6.00000000
-39.532176 65.055849 -57.279151 6.00000000
-41.209480 63.690962 -37.766947 6.00000000
-40.014522 64.690915 -5.923896 6.00000000
-39.056871 65.415456 -35.717922 6.00000000
-45.051148 60.263651 -26.834119 6.00000000
-37.461230 66.622687 0.016639 6.00000000
-41.112591 63.772980 -28.943018 6.00000000
-34.242215 68.840576 -2.792577 6.00000000
-43.883186 61.367663 -50.539297 6.00000000
-33.493576 69.345017 -38.109359 6.00000000
-42.981176 62.191200 -13.794312 6.00000000
-34.321678 68.787033 -56.199141 6.00000000
-40.187019 64.556488 -29.205617 6.00000000
-42.503791 62.595312 -6.632328 6.00000000
-36.278209 67.468702 -26.120721 6.00000000
-41.352046 63.570278 -52.508979 6.00000000
-34.909778 68.390765 2.915146 6.00000000
-37.474717 66.612483 -13.585776 6.00000000
-35.540988 67.965449 -1.736342 6.00000000
-43.632533 61.604592 3.787363 6.00000000
-43.227311 61.982844 -23.922793 6.00000000
-41.485444 63.457355 -2.346322 6.00000000
-38.318807 65.973861 -11.399277 6.00000000
-35.668222 67.879718 -4.142565 6.00000000
-33.657352 69.234663 -12.003386 6.00000000
-34.899690 68.397562 -60.291098 6.00000000
-33.473439 69.358585 1.189214 6.00000000
-45.409917 59.924526 -14.054106 6.00000000
-34.632753 68.577428 -59.214906 6.00000000
-38.553391 65.796379 -36.689954 6.00000000
-35.774578 67.808054 -5.755713 6.00000000
-35.708292 67.852718 -48.866724 6.00000000
-41.844414 63.153483 -20.120344 6.00000000
-34.924641 68.380750 -43.841485 6.00000000
-39.985640 64.712767 -27.274073 6.00000000
-37.264949 66.771189 -31.979486 6.00000000
-44.022223 61.236239 -38.909613 6.00000000
-43.302109 61.916924 -28.582325 6.00000000
-43.588080 61.646611 -9.005391 6.00000000
-46.192047 59.185220 -30.478907 6.00000000
-43.570261 61.663454 -17.169592 6.00000000
-41.688011 63.285880 -49.580276 6.00000000
-33.769716 69.158951 -42.226863 6.00000000
-36.112597 67.580293 -39.278997 6.00000000
-40.065762 64.652148 -43.714246 6.00000000
-43.175011 62.027116 -43.677904 6.00000000
-34.271965 68.820530 -1.085422 6.00000000
-37.180546 66.835047 -26.824260 6.00000000
-44.520886 60.764879 -19.245592 6.00000000
-46.074453 59.296376 -0.801047 6.00000000
-39.949612 64.740025 -29.482788 6.00000000
-46.150038 59.224930 -42.595306 6.00000000
-43.537094 61.694805 -50.659608 6.00000000
-44.072369 61.188839 -9.469494 6.00000000
-39.271678 65.252936 3.286804 6.00000000
-36.635391 67.228029 -58.452360 6.00000000
-42.461081 62.631467 -48.485165 6.00000000
-37.426685 66.648823 -0.405461 6.00000000
-39.467210 65.105001 -13.659118 6.00000000
-44.609582 60.681040 -29.294191 6.00000000
-36.741510 67.156525 -16.969903 6.00000000
-35.587134 67.934356 -31.092368 6.00000000
-42.777699 62.363445 -49.129454 6.00000000
-34.576591 68.615270 -22.275834 6.00000000
-42.713949 62.417411 -11.455412 6.00000000
-43.544768 61.687552 -7.700461 6.00000000
-43.910670 61.341684 -9.986626 6.00000000
-37.919658 66.275849 -45.806810 6.00000000
-44.804346 60.496940 -39.762380 6.00000000
-38.752095 65.646043 -52.376464 6.00000000
-43.144394 62.053034 -58.016877 6.00000000
-39.847637 64.817177 -55.551107 6.00000000
-33.730366 69.185465 -54.845730 6.00000000
-38.693626 65.690279 -12.648155 6.00000000
-42.214998 62.839778 -26.733828 6.00000000
-42.976553 62.195113 -42.675757 6.00000000
-39.456490 65.113111 -7.689879 6.00000000
-40.679779 64.139360 -31.582860 6.00000000
-37.235528 66.793449 -12.751448 6.00000000
-36.023233 67.640508 -46.252130 6.00000000
-36.680572 67.197586 -13.255496 6.00000000
-43.456809 61.770695 -22.878255 6.00000000
-40.308588 64.453577 -6.269641 6.00000000
-36.347129 67.422263 -18.756198 6.00000000
-41.272654 63.637484 -57.528627 6.00000000
-44.946243 60.362813 -17.496874 6.00000000
-39.171036 65.329080 -58.660991 6.00000000
-36.296810 67.456169 -41.757982 6.00000000
-43.869879 61.380242 -16.912864 6.00000000
-37.013932 66.961104 2.415858 6.00000000
-43.925874 61.327312 -44.247690 6.00000000
-38.614193 65.750377 -55.675038 6.00000000
-35.628070 67.906773 -56.579373 6.00000000
-35.363704 68.084905 -38.999046 6.00000000
-42.126637 62.914577 -31.837580 6.00000000
-37.460475 66.623258 -21.550984 6.00000000
-40.710931 64.112990 -35.950381 6.00000000
-43.871915 61.378317 -51.154676 6.00000000
-43.175355 62.026825 -21.967194 6.00000000
-33.469002 69.361574 3.621647 6.00000000
-41.499370 63.445566 -21.053668 6.00000000
-44.809336 60.492223 -9.207995 6.00000000
-38.123276 66.121796 -1.926370 6.00000000
-44.848920 60.454807 -53.828410 6.00000000
-36.146776 67.557263 -10.482584 6.00000000
-44.676276 60.617998 -54.244573 6.00000000
-41.126069 63.761570 1.975622 6.00000000
-37.740638 66.411292 -0.159592 6.00000000
-44.489423 60.794619 -25.050717 6.00000000
-45.874615 59.485272 -47.517598 6.00000000
-45.593417 59.751073 3.661293 6.00000000
-40.195938 64.548938 2.918769 6.00000000
-43.820686 61.426741 -46.990921 6.00000000
-39.713635 64.918561 -6.625739 6.00000000
-45.308534 60.020358 -57.183238 6.00000000
-35.756483 67.820247 -10.612912 6.00000000
-40.522115 64.272824 -26.860769 6.00000000
-41.334126 63.585447 -43.795436 6.00000000
-37.038759 66.942321 -5.750697 6.00000000
-42.529051 62.573929 -27.491228 6.00000000
-38.370727 65.934579 -59.349277 6.00000000
-44.654253 60.638815 -13.695143 6.00000000
-44.295949 60.977501 0.360995 6.00000000
-37.202954 66.818094 -21.955153 6.00000000
-40.072658 64.646931 -12.607286 6.00000000
-39.012406 65.449097 -8.789356 6.00000000
-42.033940 62.993046 -37.529646 6.00000000
-43.652015 61.586177 -25.440015 6.00000000
-33.485923 69.350173 -29.571953 6.00000000
-35.503284 67.990854 -11.691326 6.00000000
-36.185336 67.531281 -11.181096 6.00000000
-33.493151 69.345302 -24.557361 6.00000000
-33.563519 69.297888 -7.021356 6.00000000
-45.827370 59.529930 -33.047449 6.00000000
-38.028891 66.193205 -29.848095 6.00000000
-40.497165 64.293945 -41.707431 6.00000000
-40.628553 64.182723 -10.190418 6.00000000
-45.699469 59.650828 -48.767951 6.00000000
-43.235884 61.975586 -58.561619 6.00000000
-34.821306 68.450378 -13.942119 6.00000000
-36.151430 67.554127 -3.993168 6.00000000
-41.011593 63.858475 -28.512133 6.00000000
-35.756438 67.820277 -22.312394 6.00000000
-45.453154 59.883656 -33.311506 6.00000000
-39.289777 65.239243 -15.810699 6.00000000
-35.195178 68.198459 -17.059354 6.00000000
-34.286049 68.811040 1.863263 6.00000000
-34.309722 68.795089 -38.497539 6.00000000
-45.786928 59.568158 -2.532145 6.00000000
-45.776269 59.578233 -57.443786 6.00000000
-40.097831 64.627885 -33.325261 6.00000000
-38.157711 66.095742 -56.405587 6.00000000
-36.097014 67.590793 -29.709731 6.00000000
-43.453990 61.773359 -8.578925 6.00000000
-34.502391 68.665267 2.937407 6.00000000
-34.057910 68.964762 -27.826419 6.00000000
-36.719613 67.171280 -18.575904 6.00000000
-38.716106 65.673272 1.878531 6.00000000
-42.532286 62.571190 -14.211889 6.00000000
-41.143174 63.747091 -17.028248 6.00000000
-35.160841 68.221596 -51.494619 6.00000000
-43.707806 61.533440 -56.571091 6.00000000
-43.141160 62.055772 -20.542897 6.00000000
-40.965346 63.897624 -8.660668 6.00000000
-40.710551 64.113312 -44.928522 6.00000000
-38.190373 66.071031 1.575955 6.00000000
-42.848719 62.303326 -53.218956 6.00000000
-42.565500 62.543074 -56.448626 6.00000000
-41.291554 63.621485 3.023937 6.00000000
-35.037167 68.304929 -21.968146 6.00000000
-39.954276 64.736496 -14.632490 6.00000000
-39.346859 65.196056 -44.818230 6.00000000
-35.322652 68.112566 -56.879479 6.00000000
-36.248181 67.488936 -58.006873 6.00000000
-39.588040 65.013583 -42.193173 6.00000000
-35.404902 68.057145 -20.525475 6.00000000
-44.617413 60.673638 -58.838654 6.00000000
-46.166772 59.209111 -48.737691 6.00000000
-42.801134 62.343608 -25.380077 6.00000000
-45.044858 60.269597 -60.373348 6.00000000
-43.860062 61.389522 -39.953267 6.00000000
-45.307729 60.021119 -11.658359 6.00000000
-41.673916 63.297811 -41.415794 6.00000000
-43.069008 62.116849 -47.537187 6.00000000
-40.534289 64.262519 -21.526303 6.00000000
-38.280738 66.002663 2.685837 6.00000000
-41.868565 63.133038 -32.455838 6.00000000
-41.037704 63.836372 -44.506597 6.00000000
-43.962701 61.292502 -39.507373 6.00000000
-36.922438 67.030327 -55.215252 6.00000000
-37.124559 66.877406 -53.219303 6.00000000
-38.386112 65.922939 3.515898 6.00000000
-43.538072 61.693881 -11.844949 6.00000000
-43.854848 61.394449 -36.080342 6.00000000
-35.085640 68.272268 -11.390197 6.00000000
-42.426162 62.661026 -40.191356 6.00000000
-35.100196 68.262459 -53.422838 6.00000000
-39.781496 64.867218 -0.381835 6.00000000
-44.354556 60.922102 -0.928306 6.00000000
-43.476932 61.751674 -26.331891 6.00000000
-37.290845 66.751597 -14.477686 6.00000000
-36.766602 67.139618 -37.616196 6.00000000
-44.090154 61.172027 -12.407948 6.00000000
-43.491691 61.737723 -30.790960 6.00000000
-45.456389 59.880599 -35.702026 6.00000000
-34.880806 68.410287 -27.766481 6.00000000
-36.810790 67.109844 -56.108375 6.00000000
-40.141205 64.595069 0.491910 6.00000000
-38.513422 65.826619 -2.724413 6.00000000
-36.934424 67.021258 -59.216390 6.00000000
-35.974056 67.673644 -21.834959 6.00000000
-43.090140 62.098960 -30.112347 6.00000000
-35.654487 67.888972 -51.317631 6.00000000
-33.994961 69.007178 -45.094028 6.00000000
-35.196152 68.197803 -7.869803 6.00000000
-42.760454 62.378043 -41.622269 6.00000000
-37.917083 66.277797 -26.572208 6.00000000
-39.344395 65.197921 -18.583043 6.00000000
-37.486129 66.603849 -6.007241 6.00000000
-38.481493 65.850775 -29.724560 6.00000000
-42.146972 62.897363 -58.094779 6.00000000
-42.154842 62.890701 -50.854654 6.00000000
-42.016358 63.007930 2.889799 6.00000000
-41.416728 63.515524 -41.891461 6.00000000
-40.685592 64.134439 -21.063814 6.00000000
-38.446204 65.877474 -21.716755 6.00000000
-43.221494 61.987768 -5.269866 6.00000000
-38.459109 65.867711 -49.379016 6.00000000
-37.026740 66.951414 -54.684622 6.00000000
-37.986195 66.225509 3.860285 6.00000000
-44.714184 60.582166 -53.426766 6.00000000
-40.760774 64.070797 -11.302953 6.00000000
-45.935908 59.427334 -12.409104 6.00000000
-43.867453 61.382535 -49.722402 6.00000000
-40.401999 64.374504 -54.854968 6.00000000
-41.496557 63.447947 -46.744851 6.00000000
-43.334504 61.886303 3.421982 6.00000000
-39.275315 65.250185 -30.080626 6.00000000
-34.600646 68.599061 -49.749534 6.00000000
-40.035131 64.675323 -40.941778 6.00000000
-43.586405 61.648195 -48.103109 6.00000000
-44.859471 60.444834 -49.675501 6.00000000
-43.054318 62.129284 -27.056195 6.00000000
-44.443152 60.838357 -13.229569 6.00000000
-45.451532 59.885190 -49.491587 6.00000000
-46.224550 59.154497 -6.735244 6.00000000
-40.143011 64.593703 -24.975971 6.00000000
-38.257299 66.020396 -9.282731 6.00000000
-36.558567 67.279794 -47.252021 6.00000000
-42.624565 62.493075 -32.559868 6.00000000
-35.455428 68.023101 -22.006260 6.00000000
-41.221519 63.680771 -40.578585 6.00000000
-34.709039 68.526025 -50.520108 6.00000000
-43.772719 61.472082 -9.478071 6.00000000
-46.013517 59.353975 -60.256581 6.00000000
-40.845378 63.999178 -35.454826 6.00000000
-35.603023 67.923649 -35.987520 6.00000000
-42.456847 62.635051 -1.001699 6.00000000
-43.844320 61.404401 -40.347358 6.00000000
-40.982584 63.883032 -10.203140 6.00000000
-39.680517 64.943617 -42.819179 6.00000000
-45.784392 59.570555 -44.959732 6.00000000
-44.226816 61.042848 -22.858026 6.00000000
-40.175301 64.566407 1.542169 6.00000000
-36.931328 67.023601 -43.918681 6.00000000
-44.779341 60.520575 -40.458677 6.00000000
-39.391844 65.162021 -56.274003 6.00000000
-41.213632 63.687447 -6.223622 6.00000000
-43.796540 61.449565 -55.655290 6.00000000
-45.678725 59.670436 -46.866167 6.00000000
-43.235505 61.975907 -23.202333 6.00000000
-41.345160 63.576107 -60.929874 6.00000000
-41.897269 63.108740 -13.751415 6.00000000
-39.276578 65.249230 -43.690904 6.00000000
-41.075707 63.804202 3.666563 6.00000000
-41.317800 63.599268 -35.493856 6.00000000
-41.676601 63.295538 -56.250112 6.00000000
-46.204194 59.173738 -1.678629 6.00000000
-37.086286 66.906362 -39.077930 6.00000000
-44.286518 60.986415 -21.829848 6.00000000
-45.707062 59.643651 -36.451837 6.00000000
-44.282648 60.990073 -53.403139 6.00000000
-39.693998 64.933418 -33.254303 6.00000000
-44.219363 61.049893 -3.254709 6.00000000
-45.925124 59.437529 -48.382515 6.00000000
-39.696234 64.931725 -39.244457 6.00000000
-45.167369 60.153794 -53.921769 6.00000000
-44.376156 60.901685 -2.721984 6.00000000
-38.185786 66.074502 -40.624559 6.00000000
-36.709078 67.178379 -6.004103 6.00000000
-44.910168 60.396912 -4.841596 6.00000000
-45.442587 59.893645 -6.444483 6.00000000
-44.148274 61.117090 -45.071140 6.00000000
-39.321647 65.215131 -33.438090 6.00000000
-37.489860 66.601026 -43.370988 6.00000000
-41.585953 63.372273 -13.669595 6.00000000
-42.334814 62.738353 -2.701637 6.00000000
-34.175947 68.885228 -25.880135 6.00000000
-38.730902 65.662077 -13.765913 6.00000000
-37.613641 66.507376 -47.256220 6.00000000
-37.634306 66.491741 1.904292 6.00000000
-39.542229 65.048243 0.746567 6.00000000
-36.661751 67.210268 -2.494881 6.00000000
-35.881435 67.736052 -14.879060 6.00000000
-38.939669 65.504128 -38.568470 6.00000000
-36.575421 67.268438 -28.902533 6.00000000
-37.241943 66.788595 -35.801499 6.00000000
-41.270317 63.639462 -28.288164 6.00000000
-46.094479 59.277446 -13.471307 6.00000000
-34.884568 68.407752 2.473398 6.00000000
-39.328342 65.210066 -36.585308 6.00000000
-40.852579 63.993083 -16.341928 6.00000000
-37.872083 66.311844 -9.374831 6.00000000
-42.407285 62.677006 -23.946914 6.00000000
-33.976576 69.019566 -36.643059 6.00000000
-41.095025 63.787849 -40.161568 6.00000000
-45.920717 59.441694 -40.916361 6.00000000
-37.153130 66.855790 1.994583 6.00000000
-41.969062 63.047966 -15.369382 6.00000000
-42.906311 62.254574 -20.889783 6.00000000
-45.409505 59.924916 -18.072064 6.00000000
-38.938434 65.505062 -20.324146 6.00000000
-33.534407 69.317504 -12.465621 6.00000000
-38.960319 65.488505 -50.017413 6.00000000
-39.323379 65.213820 -24.210698 6.00000000
-40.844469 63.999948 -54.056105 6.00000000
-41.447619 63.489375 -57.080242 6.00000000
-44.349343 60.927030 -59.485339 6.00000000
-38.875677 65.552543 -7.158505 6.00000000
-43.131279 62.064136 -3.447421 6.00000000
-33.500721 69.340202 -25.444592 6.00000000
-33.713847 69.196595 -21.056939 6.00000000
-41.655407 63.313479 1.204247 6.00000000
-42.171530 62.876575 -19.495810 6.00000000
-37.749716 66.404424 -39.333107 6.00000000
-44.112470 61.150933 -16.136189 6.00000000
-45.787230 59.567872 -45.472486 6.00000000
-35.403773 68.057906 -56.012338 6.00000000
-34.547203 68.635072 -7.810722 6.00000000
-43.861044 61.388593 1.974274 6.00000000
-35.550601 67.958972 -36.960082 6.00000000
-37.878520 66.306973 -51.980028 6.00000000
-41.403289 63.526900 -36.118833 6.00000000
-37.655537 66.475678 -20.062475 6.00000000
-42.038886 62.988860 -25.439284 6.00000000
-45.687709 59.661944 -59.484393 6.00000000
-46.208622 59.169553 -4.923605 6.00000000
-45.531909 59.809213 -10.407674 6.00000000
-46.228838 59.150443 -40.686925 6.00000000
-35.673759 67.875987 -47.662782 6.00000000
-40.367828 64.403430 -47.427036 6.00000000
-37.540458 66.562744 -27.602161 6.00000000
-34.154177 68.899897 -16.168846 6.00000000
-43.012319 62.164837 -21.619196 6.00000000
-37.658729 66.473263 0.860382 6.00000000
-35.927681 67.704892 -5.137160 6.00000000
-35.699551 67.858608 -59.518217 6.00000000
-37.085880 66.906670 -10.292849 6.00000000
-35.779522 67.804723 -51.777256 6.00000000
-36.528874 67.299802 -54.402037 6.00000000
-37.439202 66.639353 -24.718116 6.00000000
-36.538184 67.293529 -28.451108 6.00000000
-41.554166 63.399181 -42.261962 6.00000000
-41.087056 63.794595 -35.955223 6.00000000
-45.976997 59.388496 -57.854010 6.00000000
-36.116351 67.577764 -57.565461 6.00000000
-44.326311 60.948800 -38.164609 6.00000000
-43.128403 62.066571 -25.518381 6.00000000
-43.794692 61.451312 -26.494960 6.00000000
-39.746654 64.893579 -20.438816 6.00000000
-38.257766 66.020043 -24.862441 6.00000000
-40.953449 63.907695 -45.516933 6.00000000
-41.657087 63.312057 -32.022720 6.00000000
-39.262621 65.259789 -17.073747 6.00000000
-44.899251 60.407231 -8.055422 6.00000000
-33.546422 69.309408 -15.824740 6.00000000
-42.264489 62.797884 -13.792239 6.00000000
-43.763429 61.480863 -38.409583 6.00000000
-44.081727 61.179993 -16.564060 6.00000000
-39.662100 64.957551 -5.932189 6.00000000
-37.536726 66.565568 -4.503332 6.00000000
-45.543763 59.798008 -18.861917 6.00000000
-41.463760 63.475711 -17.304896 6.00000000
-34.308349 68.796014 -54.863781 6.00000000
-41.168375 63.725757 -10.509449 6.00000000
-40.744343 64.084706 -49.611508 6.00000000
-44.780086 60.519871 -22.704082 6.00000000
-39.437885 65.127188 -12.735567 6.00000000
-43.991240 61.265525 -41.657692 6.00000000
-33.490360 69.347183 -55.235226 6.00000000
-44.723926 60.572956 -58.419879 6.00000000
-42.830112 62.319077 -54.520152 6.00000000
-41.387630 63.540156 3.857435 6.00000000
-37.790302 66.373717 -11.839530 6.00000000
-39.785024 64.864549 -24.999366 6.00000000
-41.974318 63.043517 -57.274083 6.00000000
-42.824824 62.323553 3.791229 6.00000000
-41.655138 63.313707 -6.445374 6.00000000
-37.539766 66.563268 -19.087457 6.00000000
-35.757415 67.819618 0.087729 6.00000000
-38.945711 65.499557 -25.684947 6.00000000
-45.643271 59.703949 -54.507469 6.00000000
-33.941592 69.043138 -37.932292 6.00000000
-45.092860 60.224223 -10.197244 6.00000000
-43.262572 61.952995 -26.757208 6.00000000
-34.423239 68.718600 -14.366739 6.00000000
-40.902548 63.950783 -17.850400 6.00000000
-43.149739 62.048509 -0.745687 6.00000000
-44.831956 60.470842 -49.098788 6.00000000
-41.126758 63.760987 -50.753298 6.00000000
-38.235223 66.037099 -34.533600 6.00000000
-37.510931 66.585084 -45.511630 6.00000000
-35.919674 67.710287 -25.153620 6.00000000
-44.382664 60.895533 -7.032681 6.00000000
-40.396264 64.379359 -54.034427 6.00000000
-34.697447 68.533836 -55.012316 6.00000000
-44.053780 61.206410 -0.192152 6.00000000
-33.729160 69.186277 -5.998077 6.00000000
-41.520683 63.427525 -26.213846 6.00000000
-40.293042 64.466738 -7.086473 6.00000000
-38.622134 65.744369 -47.619185 6.00000000
-34.670953 68.551688 -41.562427 6.00000000
-35.370522 68.080311 -16.595185 6.00000000
-43.831095 61.416902 -6.892702 6.00000000
-44.431080 60.849768 -36.537686 6.00000000
-34.061886 68.962083 -45.914700 6.00000000
-35.433867 68.037629 -53.519406 6.00000000
-33.683984 69.216718 2.364322 6.00000000
-39.262808 65.259647 -38.426998 6.00000000
-37.492212 66.599247 -52.074649 6.00000000
-42.618607 62.498119 0.940663 6.00000000
-38.838598 65.580597 -0.255574 6.00000000
-45.897916 59.463247 -24.971211 6.00000000
-44.997696 60.314176 -50.048403 6.00000000
-39.884947 64.788949 -13.796319 6.00000000
-38.773775 65.629641 -30.763070 6.00000000
-45.417932 59.916950 -42.616988 6.00000000
-33.803359 69.136282 -1.144265 6.00000000
-37.566945 66.542705 -34.134731 6.00000000
-38.428147 65.891136 -32.262955 6.00000000
-37.934901 66.264316 0.331579 6.00000000
-41.109342 63.775730 -39.186831 6.00000000
-34.822647 68.449475 -50.902753 6.00000000
-44.399775 60.879359 -8.620113 6.00000000
-45.744384 59.608372 -58.605116 6.00000000
-38.533139 65.811701 -2.043146 6.00000000
-41.287342 63.625050 -9.547423 6.00000000
-36.698647 67.185407 -30.681264 6.00000000
-34.077852 68.951325 -22.031262 6.00000000
-33.488873 69.348185 -50.240549 6.00000000
-33.517320 69.329017 -57.760402 6.00000000
-41.437729 63.497746 -3.840988 6.00000000
-45.352451 59.978846 -23.560199 6.00000000
-38.606679 65.756062 -43.516168 6.00000000
-38.019882 66.200021 -54.077850 6.00000000
-40.723937 64.101979 -30.007824 6.00000000
-45.307493 60.021342 -39.615700 6.00000000
-34.693558 68.536456 -38.498031 6.00000000
-43.803574 61.442916 -1.699466 6.00000000
-36.990971 66.978476 -37.273615 6.00000000
-39.425876 65.136274 -60.015980 6.00000000
-37.022337 66.954745 -53.965657 6.00000000
-35.832844 67.768794 -40.100225 6.00000000
-45.715901 59.635295 -42.855148 6.00000000
-37.181054 66.834663 -50.862150 6.00000000
-35.475351 68.009676 -60.679449 6.00000000
-42.796839 62.347243 -55.742136 6.00000000
-45.156271 60.164284 -6.457368 6.00000000
-42.041998 62.986225 -18.601364 6.00000000
-43.732386 61.510206 -47.692761 6.00000000
-34.372846 68.752555 -20.460650 6.00000000
-40.426540 64.353730 -31.985481 6.00000000
-36.017345 67.644475 -11.577687 6.00000000
-42.596326 62.516980 -47.056798 6.00000000
-34.920653 68.383438 -55.530360 6.00000000
-42.410633 62.674171 -20.466718 6.00000000
-40.004848 64.698234 -60.617523 6.00000000
-34.410522 68.727169 1.111925 6.00000000
-42.330762 62.741783 -10.566742 6.00000000
-40.967036 63.896193 -56.318572 6.00000000
-39.159339 65.337930 -44.362579 6.00000000
-40.344828 64.422900 -25.391839 6.00000000
-44.249454 61.021450 -45.463515 6.00000000
-37.835012 66.339891 -19.556630 6.00000000
-37.128449 66.874463 0.781833 6.00000000
-45.288778 60.039033 0.870375 6.00000000
-42.292287 62.774353 -28.290068 6.00000000
-34.539688 68.640136 -29.639477 6.00000000
-43.637021 61.600349 -59.462579 6.00000000
-34.116571 68.925236 -37.150322 6.00000000
-45.945867 59.417921 3.082359 6.00000000
-39.253729 65.266517 -46.899204 6.00000000
-36.251421 67.486753 3.704551 6.00000000
-41.142826 63.747385 -58.468257 6.00000000
-33.940537 69.043849 -33.184488 6.00000000
-35.110074 68.255803 -34.045325 6.00000000
-46.164648 59.211119 1.003637 6.00000000
-42.905621 62.255158 -37.493948 6.00000000
-44.750309 60.548018 -18.290105 6.00000000
-35.834580 67.767624 -35.470389 6.00000000
-44.620847 60.670391 -12.870433 6.00000000
-44.539585 60.747204 -38.483621 6.00000000
-37.586552 66.527871 -61.083057 6.00000000
-43.467702 61.760398 -58.857839 6.00000000
-43.701328 61.539564 -36.580498 6.00000000
-44.301726 60.972039 -15.304685 6.00000000
-33.522666 69.325415 -27.909719 6.00000000
-38.830762 65.586525 -50.770985 6.00000000
-37.859138 66.321637 -32.126889 6.00000000
-33.669673 69.226361 -33.549861 6.00000000
-42.067272 62.964830 -2.518015 6.00000000
-40.750504 64.079490 -39.863190 6.00000000
-37.614082 66.507042 -24.019156 6.00000000
-44.734524 60.562939 -12.072732 6.00000000
-44.983601 60.327500 -0.843053 6.00000000
-45.485767 59.852829 -20.155608 6.00000000
-33.561791 69.299052 -40.108207 6.00000000
-36.619868 67.238489 -39.137858 6.00000000
-42.495113 62.602658 -51.448881 6.00000000
-34.059167 68.963916 -7.241533 6.00000000
-34.503174 68.664739 -51.187305 6.00000000
-33.491096 69.346687 -13.120870 6.00000000
-38.454435 65.871247 -1.629990 6.00000000
-36.401222 67.385815 -16.388242 6.00000000
-42.455234 62.636416 -41.271279 6.00000000
-42.711371 62.419593 -0.462198 6.00000000
-36.515221 67.309001 -19.682768 6.00000000
-41.354700 63.568031 -33.191200 6.00000000
-41.656163 63.312839 -29.922683 6.00000000
-44.133778 61.130792 -4.267503 6.00000000
-44.421259 60.859052 -28.091317 6.00000000
-42.909784 62.251634 -10.779971 6.00000000
-34.489392 68.674025 -12.063541 6.00000000
-35.202547 68.193494 -1.556417 6.00000000
-45.656207 59.691721 2.514217 6.00000000
-45.946659 59.417172 -23.971205 6.00000000
-42.485398 62.610882 -3.100700 6.00000000
-46.212617 59.165776 -49.667632 6.00000000
-41.551585 63.401365 -5.148017 6.00000000
-42.492918 62.604516 -26.511203 6.00000000
-37.581836 66.531439 -59.992034 6.00000000
-41.020673 63.850790 -23.130865 6.00000000
-45.318108 60.011308 -19.623090 6.00000000
-38.271440 66.009697 -1.132079 6.00000000
-42.397629 62.685180 -29.425951 6.00000000
-34.796569 68.467047 -24.166232 6.00000000
-37.056237 66.929097 -32.897805 6.00000000
-35.936500 67.698949 -12.205427 6.00000000
-33.702181 69.204456 -10.371245 6.00000000
-43.141010 62.055898 -37.871311 6.00000000
-38.992134 65.464434 -44.998808 6.00000000
-42.790331 62.352752 -53.621169 6.00000000
-40.760590 64.070953 -43.440733 6.00000000
-37.284108 66.756694 -43.020079 6.00000000
-33.926476 69.053324 -60.097751 6.00000000
-40.188512 64.555224 -46.402083 6.00000000
-38.191461 66.070208 -35.717855 6.00000000
-40.882427 63.967816 -28.018547 6.00000000
-34.508088 68.661428 -26.061944 6.00000000
-35.048346 68.297396 -15.137854 6.00000000
-36.180060 67.534836 -9.626399 6.00000000
-45.230478 60.094140 1.716279 6.00000000
-45.364506 59.967451 -53.222723 6.00000000
-44.154746 61.110972 -1.817283 6.00000000
-35.469249 68.013787 -45.508746 6.00000000
-38.762992 65.637799 -60.816110 6.00000000
-40.666762 64.150379 -4.871979 6.00000000
-40.984329 63.881555 -21.650194 6.00000000
-41.534374 63.415935 -35.217104 6.00000000
-45.581725 59.762125 -51.616816 6.00000000
-38.918974 65.519786 -36.734011 6.00000000
-36.371685 67.405717 -45.702999 6.00000000
-35.067568 68.284444 0.797250 6.00000000
-45.041152 60.273099 1.157281 6.00000000
-42.777272 62.363807 -17.636477 6.00000000
-42.871873 62.283726 -35.596876 6.00000000
-42.838998 62.311555 -44.891306 6.00000000
-37.400450 66.668672 -14.020071 6.00000000
-43.518847 61.712053 -52.251093 6.00000000
-34.789502 68.471808 -2.699887 6.00000000
-36.742034 67.156172 -25.121729 6.00000000
-45.769194 59.584921 1.746016 6.00000000
-37.735791 66.414959 -56.659425 6.00000000
-40.874785 63.974285 -27.583503 6.00000000
-43.034794 62.145811 -12.250496 6.00000000
-44.601760 60.688433 -43.751084 6.00000000
-44.907494 60.399440 -31.251555 6.00000000
-42.081578 62.952721 -59.536025 6.00000000
-45.301388 60.027113 -41.742792 6.00000000
-42.582492 62.528691 -23.067264 6.00000000
-43.924213 61.328883 1.533264 6.00000000
-45.616409 59.729340 3.184586 6.00000000
-41.806441 63.185627 -36.164638 6.00000000
-39.784777 64.864735 -16.265564 6.00000000
-42.069246 62.963160 -21.616492 6.00000000
-42.087001 62.948130 -1.191563 6.00000000
-38.996545 65.461097 -55.952750 6.00000000
-42.613727 62.502250 2.222058 6.00000000
-36.069312 67.609459 -46.914149 6.00000000
-39.402649 65.153847 -23.067856 6.00000000
-44.726371 60.570646 -17.161776 6.00000000
-35.568537 67.946887 -14.998972 6.00000000
-35.454131 68.023975 -40.598616 6.00000000
-35.544041 67.963392 -17.398691 6.00000000
-36.387287 67.395205 -4.337792 6.00000000
-44.010247 61.247560 -34.644173 6.00000000
-43.232806 61.978191 -31.886381 6.00000000
-35.006647 68.325493 -22.379355 6.00000000
-36.163730 67.545839 -52.608612 6.00000000
-37.007384 66.966058 -11.956020 6.00000000
-43.034710 62.145882 3.466482 6.00000000
-45.743800 59.608925 -9.203712 6.00000000
-45.702026 59.648411 -23.290188 6.00000000
-36.645369 67.221306 -1.712920 6.00000000
-46.010884 59.356464 -6.422616 6.00000000
-41.771481 63.215221 -7.181883 6.00000000
-37.374577 66.688247 -22.892752 6.00000000
-45.867595 59.491908 -46.118101 6.00000000
-44.979499 60.331377 -15.407433 6.00000000
-43.471647 61.756669 -59.999692 6.00000000
-35.323838 68.111767 -25.663627 6.00000000
-37.374563 66.688257 -9.436169 6.00000000
-39.838643 64.823982 -33.688043 6.00000000
-36.387620 67.394980 -9.948466 6.00000000
-43.451392 61.775815 -45.682621 6.00000000
-40.593410 64.212472 -40.299598 6.00000000
-34.743015 68.503132 -54.571921 6.00000000
-41.714886 63.263130 -52.603280 6.00000000
-40.885650 63.965087 -16.778113 6.00000000
-43.810785 61.436100 -6.079234 6.00000000
-34.834202 68.441689 -56.819623 6.00000000
-38.883742 65.546442 -6.725574 6.00000000
-43.101909 62.088998 -45.638441 6.00000000
-39.151764 65.343661 -52.295566 6.00000000
-39.373038 65.176250 -46.088207 6.00000000
-38.836904 65.581878 -53.592429 6.00000000
-39.172010 65.328344 -6.455481 6.00000000
-46.240054 59.139842 2.737162 6.00000000
-36.821454 67.102658 -48.144888 6.00000000
-34.547500 68.634872 -16.803471 6.00000000
-43.200385 62.005637 -12.790468 6.00000000
-45.406093 59.928141 1.385327 6.00000000
-36.796095 67.119746 -0.862862 6.00000000
-35.055617 68.292497 -6.015211 6.00000000
-38.396640 65.914974 -45.811298 6.00000000
-41.596462 63.363377 -12.606616 6.00000000
-41.902111 63.104641 -22.568981 6.00000000
-35.322927 68.112381 -38.026957 6.00000000
-39.539283 65.050472 -19.497144 6.00000000
-34.837938 68.439172 -23.077785 6.00000000
-42.304412 62.764088 0.188950 6.00000000
-40.538854 64.258655 -16.861989 6.00000000
-44.269734 61.002280 -15.767156 6.00000000
-45.116242 60.202121 -29.936006 6.00000000
-35.180988 68.208021 -51.044217 6.00000000
-36.685916 67.193985 3.325117 6.00000000
-43.775819 61.469151 -40.768151 6.00000000
-43.768552 61.476021 -18.700142 6.00000000
-37.328626 66.723012 -20.190928 6.00000000
-38.591873 65.767264 -51.897146 6.00000000
-36.735247 67.160745 -56.600549 6.00000000
-45.272413 60.054502 -39.121595 6.00000000
-36.594110 67.255845 -9.620166 6.00000000
-41.873383 63.128960 -12.240320 6.00000000
-40.068279 64.650244 -16.861402 6.00000000
-43.528875 61.702575 -19.619171 6.00000000
-39.507627 65.074422 -13.236900 6.00000000
-41.044960 63.830230 -49.153500 6.00000000
-44.241818 61.028668 -43.564041 6.00000000
-40.008206 64.695694 -5.048114 6.00000000
-44.247752 61.023058 -19.789079 6.00000000
-45.350496 59.980694 -4.813773 6.00000000
-36.959322 67.002421 -12.930373 6.00000000
-38.040801 66.184195 -42.128144 6.00000000
-41.545393 63.406607 -16.135682 6.00000000
-44.655237 60.637885 -2.576331 6.00000000
-42.324574 62.747022 -9.209891 6.00000000
-37.645350 66.483385 -20.561504 6.00000000
-40.069935 64.648991 -4.492367 6.00000000
-39.950217 64.739567 -6.965910 6.00000000
-42.109248 62.929297 -29.843003 6.00000000
-41.044980 63.830213 -6.560190 6.00000000
-37.627630 66.496792 -30.494129 6.00000000
-38.216530 66.051241 -25.885227 6.00000000
-36.485255 67.329192 -32.298099 6.00000000
-40.312246 64.450482 -52.821274 6.00000000
-39.676921 64.946338 -27.094591 6.00000000
-36.617060 67.240381 -38.166987 6.00000000
-45.295441 60.032734 -8.301136 6.00000000
-40.786705 64.048846 -41.968852 6.00000000
-39.535809 65.053100 -9.458286 6.00000000
-40.443192 64.339634 -23.407479 6.00000000
-41.884241 63.119769 -12.838574 6.00000000
-45.851640 59.506989 -16.399726 6.00000000
-38.886851 65.544089 -41.479955 6.00000000
-40.701257 64.121179 -55.485040 6.00000000
-37.977618 66.231997 -19.999813 6.00000000
-35.084515 68.273025 -47.860169 6.00000000
-42.352595 62.723301 -42.619691 6.00000000
-45.601881 59.743073 -27.821925 6.00000000
-41.899685 63.106695 -42.462854 6.00000000
-37.287933 66.753800 -15.570225 6.00000000
-42.763518 62.375450 -50.448147 6.00000000
-45.552436 59.789810 -55.447824 6.00000000
-42.333719 62.739280 -1.623914 6.00000000
-34.922411 68.382253 -40.044541 6.00000000
-43.589894 61.644896 -34.975280 6.00000000
-44.442634 60.838847 -5.037124 6.00000000
-37.696462 66.444715 -27.011949 6.00000000
-46.101383 59.270920 -37.304983 6.00000000
-41.728378 63.251708 -37.657960 6.00000000
-37.753016 66.401927 2.908698 6.00000000
-44.831035 60.471712 -21.375948 6.00000000
-36.267189 67.476128 -15.559609 6.00000000
-46.184045 59.192784 -46.870452 6.00000000
-38.337096 65.960023 -4.576191 6.00000000
-42.415750 62.669839 -49.304107 6.00000000
-43.321908 61.898210 -15.014697 6.00000000
-44.004127 61.253344 -32.625509 6.00000000
-46.106806 59.265794 -47.945197 6.00000000
-46.050986 59.318558 -13.916396 6.00000000
-45.407751 59.926574 2.230949 6.00000000
-36.253578 67.485299 -33.181620 6.00000000
-36.469725 67.339657 -3.727816 6.00000000
-45.551979 59.790242 -22.901361 6.00000000
-36.715126 67.174303 -21.170247 6.00000000
-39.883399 64.790120 -37.874178 6.00000000
-39.058611 65.414139 -16.136616 6.00000000
-38.445652 65.877892 -53.794018 6.00000000
-36.522977 67.303775 -24.647023 6.00000000
-43.310736 61.908769 -27.535203 6.00000000
-45.744399 59.608358 -43.756858 6.00000000
-41.864441 63.136529 -55.445947 6.00000000
-45.857627 59.501330 -49.165258 6.00000000
-34.040422 68.976546 -48.395816 6.00000000
-35.217303 68.183551 -59.985278 6.00000000
-44.039264 61.220131 -48.934565 6.00000000
-44.490614 60.793494 -47.374036 6.00000000
-45.588603 59.755624 -48.387942 6.00000000
-38.171781 66.085098 -19.599556 6.00000000
-39.129084 65.360821 -20.901793 6.00000000
-39.553790 65.039496 -50.525755 6.00000000
-35.777414 67.806143 -43.561658 6.00000000
-35.066090 68.285440 -42.496623 6.00000000
-34.768029 68.486277 -45.279477 6.00000000
-35.647145 67.893920 -49.579360 6.00000000
-44.905583 60.401246 -33.038988 6.00000000
-38.858364 65.565642 -24.249462 6.00000000
-38.171696 66.085162 -13.366010 6.00000000
-37.945239 66.256495 -43.955978 6.00000000
-43.128884 62.066163 -52.319314 6.00000000
-45.712717 59.638306 -28.274401 6.00000000
-35.694681 67.861889 -16.801071 6.00000000
-45.532698 59.808467 -36.887704 6.00000000
-40.530042 64.266115 -42.237785 6.00000000
-33.477636 69.355757 -45.160037 6.00000000
-39.360486 65.185746 -48.651479 6.00000000
-44.539779 60.747021 -36.959026 6.00000000
-41.892745 63.112570 -44.516472 6.00000000
-45.636913 59.709959 -2.104363 6.00000000
-35.811858 67.782934 -39.592336 6.00000000
-36.437338 67.361479 -53.437566 6.00000000
-42.919344 62.243541 -23.964416 6.00000000
-45.710810 59.640108 -13.600428 6.00000000
-37.569070 66.541097 -48.672102 6.00000000
-40.459352 64.325954 -25.892825 6.00000000
-34.614320 68.589847 -53.017696 6.00000000
-41.794969 63.195338 -48.616015 6.00000000
-45.686170 59.663399 -53.012799 6.00000000
-46.123240 59.250259 -22.055509 6.00000000
-34.047949 68.971474 -42.461130 6.00000000
-35.768314 67.812275 -13.392338 6.00000000
-42.501858 62.596948 -37.481921 6.00000000
-45.231208 60.093450 -2.275871 6.00000000
-44.840988 60.462304 -44.800591 6.00000000
-36.639159 67.225491 -10.309221 6.00000000
-35.691509 67.864027 -52.685875 6.00000000
-37.594061 66.522190 -26.141980 6.00000000
-45.913904 59.448134 -22.412428 6.00000000
-44.292790 60.980487 -57.674957 6.00000000
-35.642332 67.897163 -16.021394 6.00000000
-41.172091 63.722612 -1.988983 6.00000000
-34.158775 68.896798 -35.833845 6.00000000
-41.198541 63.700222 -27.894985 6.00000000
-33.864426 69.095134 -40.795711 6.00000000
-34.618466 68.587054 -0.595966 6.00000000
-42.494160 62.603465 -57.112343 6.00000000
-40.550473 64.248819 -53.181681 6.00000000
-46.114973 59.258074 3.716988 6.00000000
-46.241195 59.138763 -18.936843 6.00000000
-33.902016 69.069805 -8.601488 6.00000000
-41.325579 63.592683 -6.844828 6.00000000
-38.093025 66.144683 -30.846975 6.00000000
-39.177806 65.323958 -31.537673 6.00000000
-37.930630 66.267548 -1.204200 6.00000000
-41.556176 63.397479 -57.767030 6.00000000
-35.216681 68.183971 -40.250042 6.00000000
-46.130428 59.243466 -50.149333 6.00000000
-44.757587 60.541138 -24.298094 6.00000000
-33.932034 69.049579 -30.309066 6.00000000
-39.566932 65.029553 -30.872106 6.00000000
-42.778587 62.362694 -5.190855 6.00000000
-37.657124 66.474477 -16.413814 6.00000000
-43.317294 61.902570 -45.263153 6.00000000
-42.408461 62.676010 -45.315706 6.00000000
-40.498483 64.292829 -9.204387 6.00000000
-39.609617 64.997258 -34.986916 6.00000000
-42.042852 62.985502 -56.022303 6.00000000
-34.517222 68.655274 -13.788525 6.00000000
-44.397633 60.881384 -35.428298 6.00000000
-45.573835 59.769583 -19.371609 6.00000000
-37.529153 66.571297 -20.926289 6.00000000
-42.746048 62.390239 -15.622232 6.00000000
-44.097519 61.165066 -6.714000 6.00000000
-44.978303 60.332508 -30.307152 6.00000000
-44.048964 61.210962 -47.389840 6.00000000
-43.104131 62.087117 -56.620989 6.00000000
-43.389935 61.833907 -56.782449 6.00000000
-44.245287 61.025388 -32.328929 6.00000000
-44.451638 60.830336 1.626911 6.00000000
-44.575511 60.713245 -32.429687 6.00000000
-35.342532 68.099171 -30.522722 6.00000000
-37.850836 66.327918 -9.868324 6.00000000
-39.971334 64.723590 3.312587 6.00000000
-42.837547 62.312783 -40.335298 6.00000000
-43.181688 62.021464 -54.482567 6.00000000
-42.855268 62.297782 3.056669 6.00000000
-44.981088 60.329875 -59.526782 6.00000000
-38.423684 65.894513 -50.458139 6.00000000
-39.545193 65.046001 -52.632104 6.00000000
-44.095694 61.166791 -5.152199 6.00000000
-39.619117 64.990071 -16.698306 6.00000000
-39.124350 65.364402 -29.247723 6.00000000
-39.571290 65.026256 -18.276212 6.00000000
-36.214906 67.511356 -20.370399 6.00000000
-43.179131 62.023628 -48.428810 6.00000000
-36.902431 67.045463 -10.682540 6.00000000
-40.076146 64.644292 -20.068608 6.00000000
-43.609509 61.626356 -25.918669 6.00000000
-41.168020 63.726059 -47.955415 6.00000000
-41.541309 63.410065 -39.721741 6.00000000
-34.656110 68.561689 -52.169590 6.00000000
-41.394220 63.534577 -38.919486 6.00000000
-37.382067 66.682580 -4.079475 6.00000000
-35.352919 68.092172 0.505445 6.00000000
-36.304653 67.450884 -28.006060 6.00000000
-41.783458 63.205082 -34.247347 6.00000000
-43.056148 62.127735 -0.334586 6.00000000
-45.881433 59.478827 -35.496586 6.00000000
-34.160176 68.895854 -45.530079 6.00000000
-41.828663 63.166816 -8.620752 6.00000000
-43.256862 61.957828 -7.989538 6.00000000
-42.719599 62.412628 -4.274697 6.00000000
-34.042988 68.974817 -20.651130 6.00000000
-36.211707 67.513512 -53.776456 6.00000000
-35.508416 67.987396 -19.465690 6.00000000
-39.686281 64.939256 -58.523470 6.00000000
-34.533472 68.644324 -25.665967 6.00000000
-45.336493 59.993930 -31.990505 6.00000000
-37.600672 66.517188 -18.171580 6.00000000
-35.967545 67.678031 -0.730040 6.00000000
-41.281215 63.630238 -21.438495 6.00000000
-39.720008 64.913739 -47.317466 6.00000000
-34.843135 68.435670 -24.925355 6.00000000
-36.967899 66.995932 -18.872026 6.00000000
-41.261657 63.646793 -42.431908 6.00000000
-38.557133 65.793548 -0.876936 6.00000000
-39.891575 64.783935 -0.977596 6.00000000
-35.400641 68.060017 -43.357975 6.00000000
-37.906237 66.286003 -3.475374 6.00000000
-39.683040 64.941708 2.167879 6.00000000
-35.411150 68.052936 -51.805677 6.00000000
-43.894923 61.356568 -60.061293 6.00000000
